ply
format ascii 1.0
comment PCL generated
element vertex 1263
property float x
property float y
property float z
element camera 0
property float view_px
property float view_py
property float view_pz
property float x_axisx
property float x_axisy
property float x_axisz
property float y_axisx
property float y_axisy
property float y_axisz
property float z_axisx
property float z_axisy
property float z_axisz
property float focal
property float scalex
property float scaley
property float centerx
property float centery
property int viewportx
property int viewporty
property float k1
property float k2
end_header
-0.032462709 -0.083475538 0.0051732361
-0.031451102 -0.083869606 0.0052811801
-0.030281749 -0.083857149 0.0056208074
-0.029127724 -0.083887845 0.0059588253
-0.02790424 -0.083712719 0.0063239038
-0.026850129 -0.084052578 0.0070209205
-0.025702333 -0.084116727 0.007217437
-0.024249237 -0.083140239 0.0075784326
-0.023010027 -0.082836092 0.0080626905
-0.022000594 -0.083370671 0.0088879466
-0.020941239 -0.083764955 0.0093624592
-0.019695329 -0.083415508 0.010083616
-0.018533818 -0.083402179 0.010523468
-0.017305147 -0.083064705 0.01093331
-0.015946271 -0.08200939 0.011412323
-0.014791906 -0.081924401 0.011924922
-0.013844681 -0.083068088 0.012712687
-0.012687184 -0.083043389 0.013619542
-0.011439766 -0.082366318 0.013357073
-0.010364758 -0.082918063 0.013681531
-0.009229647 -0.083066821 0.013681531
-0.008021866 -0.08251062 0.013673842
-0.0068728807 -0.082474567 0.013325304
-0.0057868534 -0.083330691 0.013515115
-0.0045659165 -0.082186498 0.013139844
-0.0034274291 -0.082258299 0.013595819
-0.0022870549 -0.082333975 0.013505459
-0.0011387364 -0.08198902 0.013595879
0 -0.08234375 0.013595879
0.0011421401 -0.082234092 0.013563484
0.0022683344 -0.081660032 0.013985008
0.0034602503 -0.083046004 0.01398322
0.0045705358 -0.082269646 0.013459861
0.0057406635 -0.082665548 0.013370633
0.0069140857 -0.082969032 0.013117552
0.0080154855 -0.082444988 0.012798488
0.0092160348 -0.082944311 0.0125404
0.010324288 -0.082594305 0.011741936
0.011519365 -0.082939431 0.011238992
0.01272929 -0.083318993 0.010636449
0.013897901 -0.083387412 0.010007203
0.01490721 -0.082563005 0.0097728074
0.016141867 -0.083015323 0.0090783238
0.017342502 -0.083244011 0.0088070631
0.018488146 -0.083196655 0.0085045695
0.019667454 -0.083297454 0.0086309016
0.020589303 -0.082357213 0.0079719722
0.022022512 -0.08345373 0.0076988637
0.023266207 -0.083758347 0.0070589781
0.0246686 -0.08457806 0.0065895319
0.025502054 -0.08346127 0.0058228374
0.02656541 -0.08316128 0.0053434372
-0.032798462 -0.083167523 0.0054108799
-0.031526014 -0.082901739 0.0057098567
-0.030704059 -0.083845697 0.0059013963
-0.029045422 -0.082488999 0.0064431429
-0.028011631 -0.082867742 0.0067072809
-0.027035441 -0.083457232 0.0068930984
-0.025537744 -0.082417265 0.0074300468
-0.024261618 -0.082027376 0.0079863966
-0.023321752 -0.082792222 0.0083796382
-0.021943739 -0.082000285 0.0092857182
-0.020680778 -0.081574179 0.0096087456
-0.019711565 -0.082324773 0.01028055
-0.018363463 -0.081487864 0.010748029
-0.017321287 -0.081987426 0.011230081
-0.01609824 -0.081641078 0.011936992
-0.014842983 -0.081065521 0.012413651
-0.014016559 -0.08293131 0.013201594
-0.012689665 -0.081906021 0.013922662
-0.011349019 -0.080578029 0.014255136
-0.010379366 -0.081881665 0.01434058
-0.0092946654 -0.082490161 0.014465749
-0.0080387527 -0.081535921 0.014603853
-0.0068902732 -0.0815349 0.01449132
-0.0057408744 -0.081520416 0.01449132
-0.0046074176 -0.081781663 0.013949782
-0.0034585565 -0.081852503 0.014304936
-0.0022893262 -0.081271075 0.014115572
-0.0011355547 -0.080624387 0.014362216
0 -0.081915222 0.014479101
0.0011309952 -0.080300659 0.014477015
0.002272669 -0.080679752 0.014568925
0.0034390423 -0.081390671 0.01453194
0.0045743478 -0.081194669 0.014266789
0.0056627612 -0.080411211 0.0139018
0.0068800612 -0.081414059 0.013779849
0.0080064163 -0.081207938 0.013418138
0.0091322586 -0.081048794 0.013131082
0.010440084 -0.082360663 0.01276505
0.011526479 -0.081838004 0.011904687
0.012491797 -0.080628872 0.011303812
0.013785405 -0.081563652 0.010957658
0.015045987 -0.082174234 0.010706663
0.016166288 -0.081986174 0.0099432766
0.017238364 -0.081594922 0.0094451308
0.018532578 -0.082238317 0.0089629591
0.019695045 -0.082255781 0.0088208616
0.021784889 -0.085929289 0.0081038475
0.021891819 -0.081806272 0.0077758729
0.023333896 -0.082835332 0.0069775283
0.024431184 -0.082600668 0.0058753788
0.025784802 -0.083214588 0.0056107342
-0.032232285 -0.080580711 0.0052366257
-0.031492651 -0.081647612 0.0067994297
-0.030452704 -0.081988052 0.006878376
-0.028968979 -0.081113137 0.0070624948
-0.027935348 -0.081478097 0.0072722733
-0.026727797 -0.081345469 0.0076517165
-0.025658777 -0.081641562 0.0075965822
-0.024308285 -0.08102762 0.0080503821
-0.023480413 -0.082181446 0.0085264742
-0.022100216 -0.081421852 0.0091546774
-0.020897901 -0.081269614 0.010105938
-0.019697739 -0.081108332 0.010264397
-0.01831639 -0.080134206 0.011079729
-0.017437585 -0.08137539 0.011861712
-0.016107243 -0.080536216 0.012581676
-0.01480471 -0.079717666 0.012910843
-0.013707061 -0.079957858 0.013710737
-0.012565034 -0.079959311 0.01460883
-0.011452681 -0.080168769 0.014758378
-0.010350695 -0.080505401 0.014815748
-0.0091495514 -0.080058575 0.015378177
-0.0080343178 -0.080343179 0.015665889
-0.006838684 -0.079784647 0.015775234
-0.0057918187 -0.081085458 0.016000152
-0.0046114526 -0.08070042 0.015719861
-0.0034679675 -0.080919236 0.015788287
-0.0022784504 -0.079745762 0.015894115
-0.0011396614 -0.079776302 0.016022414
0 -0.080393717 0.016503274
0.0011465324 -0.080257267 0.016423106
0.0022880575 -0.080082007 0.016447246
0.0034198114 -0.079795599 0.015939921
0.0045236549 -0.079163961 0.015533894
0.0057902988 -0.08106418 0.015003324
0.0068963207 -0.080457076 0.014919162
0.0080394251 -0.080394253 0.014872491
0.0092560602 -0.080990531 0.014515966
0.010318415 -0.080254339 0.014216214
0.011475779 -0.080330454 0.013167441
0.012627883 -0.080359258 0.012047261
0.013899604 -0.081081018 0.011588186
0.015119149 -0.081410803 0.011018991
0.016232304 -0.081161514 0.01041916
0.017518701 -0.081753939 0.010044575
0.018697454 -0.081801362 0.0094244778
0.019881569 -0.081865281 0.0091479123
0.020728426 -0.080610543 0.0081580877
0.021987123 -0.081005193 0.0078575313
0.023451261 -0.082079418 0.0064685345
0.024576068 -0.081920229 0.0057642758
0.025411671 -0.080855317 0.0054512024
-0.033242106 -0.081918053 0.0050509274
-0.031357501 -0.080135837 0.0059751272
-0.030336767 -0.080509111 0.0067528784
-0.029471995 -0.081342705 0.0068587661
-0.028029326 -0.08058431 0.007137984
-0.02696031 -0.080880925 0.0075739324
-0.025544567 -0.080117054 0.0077339709
-0.024535924 -0.080618039 0.0081624389
-0.023325568 -0.080473214 0.0090782046
-0.022137731 -0.080394924 0.0095182061
-0.020743156 -0.079515435 0.010517091
-0.019612512 -0.079603724 0.010856152
-0.018325577 -0.079029053 0.011841208
-0.017438954 -0.080219187 0.012843728
-0.015926398 -0.078494392 0.013606727
-0.015008922 -0.07966274 0.014096081
-0.013627142 -0.078356065 0.014667988
-0.01267032 -0.079477459 0.015254945
-0.011558742 -0.079755321 0.015301943
-0.010312099 -0.079059422 0.015793651
-0.0091492832 -0.078912564 0.016250074
-0.0079906732 -0.078765206 0.016219974
-0.0069088959 -0.079452306 0.016524792
-0.0057281163 -0.079048008 0.01677686
-0.0045500258 -0.07848794 0.016798377
-0.0034448861 -0.07923238 0.016857386
-0.0022838551 -0.078793004 0.017001212
-0.0011477766 -0.079196587 0.017161518
0 -0.079226203 0.017608702
0.00114729 -0.079163015 0.017579347
0.0022490688 -0.077592872 0.017345965
0.0034496295 -0.079341479 0.017223984
0.0045765401 -0.078945316 0.016818047
0.0056746025 -0.078309514 0.016286194
0.0068694917 -0.078999154 0.015981644
0.0080549456 -0.079398751 0.015590131
0.00918236 -0.079197861 0.0150612
0.010407313 -0.079789393 0.014800429
0.011525304 -0.079524599 0.013818204
0.012681688 -0.079548776 0.013088763
0.013861299 -0.079702474 0.012720227
0.015095844 -0.080124095 0.011953712
0.016156994 -0.079630896 0.011353165
0.017302213 -0.079590179 0.010955483
0.018221544 -0.078580402 0.010562062
0.019656928 -0.079783998 0.0095925033
0.02107998 -0.080806591 0.008233279
0.021924203 -0.079619475 0.0074802339
0.02327819 -0.080309756 0.0060424209
0.024405835 -0.080190599 0.0058740079
0.025712898 -0.080644995 0.0053496361
-0.030454174 -0.079649374 0.0058255494
-0.029159993 -0.079315186 0.0058657825
-0.027808405 -0.078790486 0.007127434
-0.027046083 -0.079962328 0.0075234771
-0.02565464 -0.079296164 0.0077820718
-0.024538985 -0.07945957 0.0080293715
-0.023464561 -0.079779506 0.0091917217
-0.022228228 -0.079553656 0.0096260309
-0.020826671 -0.078678533 0.010158956
-0.01972756 -0.078910239 0.011169106
-0.018424122 -0.078302518 0.011973411
-0.017438393 -0.07905405 0.013211697
-0.016220279 -0.078784212 0.014117271
-0.014838496 -0.077616744 0.014449149
-0.013730968 -0.07780882 0.015001625
-0.012661193 -0.078269199 0.015745908
-0.011390529 -0.077455595 0.01584208
-0.010268499 -0.077584222 0.016331583
-0.009128524 -0.077592455 0.016612321
-0.0079546254 -0.077273503 0.016991347
-0.0068860352 -0.078041732 0.01699546
-0.0057549812 -0.078267746 0.017293245
-0.004553752 -0.077413782 0.017316848
-0.0034356429 -0.077874571 0.017789006
-0.0022694184 -0.077160224 0.017671347
-0.0011386126 -0.077425659 0.017804474
0 -0.077996701 0.0183779
0.0011361795 -0.077260211 0.01819554
0.0022860847 -0.077726878 0.018030137
0.0034710432 -0.078676984 0.018030137
0.0045661596 -0.077624716 0.017671525
0.0057124058 -0.077688716 0.01738432
0.0069042812 -0.078248516 0.016720086
0.0079175867 -0.0769137 0.016554832
0.0092851818 -0.078924045 0.015982628
0.010251534 -0.077456035 0.015077531
0.011428838 -0.077716097 0.014348209
0.012744131 -0.078781895 0.013614327
0.013814872 -0.078284271 0.013221174
0.015166484 -0.079332374 0.012676358
0.01623049 -0.078833811 0.011917889
0.01734904 -0.078648984 0.011761755
0.01904163 -0.080926925 0.010994822
0.019628379 -0.078513518 0.0097829103
0.020778544 -0.078496724 0.0085259974
0.022110477 -0.079132237 0.0083983243
0.023604287 -0.080254577 0.0064168572
0.024477754 -0.079261303 0.0057103634
0.025732137 -0.0795357 0.0052765012
0.026955293 -0.079693913 0.0050553083
-0.028549176 -0.079699785 0.0060755312
-0.027074441 -0.078869022 0.0068143606
-0.02569109 -0.07824105 0.0079386234
-0.024471724 -0.078076452 0.0080935061
-0.02323281 -0.077829912 0.0090408921
-0.022132726 -0.078046978 0.010133564
-0.020777717 -0.077339277 0.010433942
-0.019610031 -0.077286594 0.01152274
-0.01857705 -0.0777914 0.012010396
-0.01736933 -0.077583008 0.013255328
-0.016220497 -0.07762666 0.013786405
-0.015049716 -0.077563919 0.014625758
-0.013867585 -0.07742735 0.015128851
-0.012510167 -0.076198295 0.016118497
-0.011456335 -0.076757446 0.016134471
-0.010410937 -0.077503644 0.016990602
-0.0091042956 -0.076248474 0.017191201
-0.0079372507 -0.075970821 0.017365456
-0.0068769939 -0.076793097 0.017465919
-0.005703954 -0.076432981 0.017511815
-0.0045871376 -0.076834552 0.017661631
-0.0034398807 -0.076824002 0.018206209
-0.0022673733 -0.075957 0.01828742
-0.0011370432 -0.076181896 0.018298566
0 -0.077364191 0.019021183
0.001138625 -0.076287873 0.019021183
0.0022846507 -0.076535799 0.018735349
0.0034457208 -0.076954432 0.018686265
0.0046031978 -0.077103563 0.018561542
0.0056902664 -0.07624957 0.018159449
0.0069237114 -0.077314779 0.017925262
0.0080049522 -0.076618828 0.017426461
0.0091636609 -0.076745659 0.016631246
0.010316784 -0.076802731 0.016385108
0.011362066 -0.076125845 0.015230954
0.012597801 -0.076732062 0.014429152
0.013885828 -0.077529207 0.013765246
0.015127182 -0.077963173 0.013324887
0.016421381 -0.078588039 0.012604684
0.017177828 -0.076727629 0.011908919
0.018383499 -0.076980904 0.011254162
0.019829091 -0.078149945 0.010078341
0.020817099 -0.077485867 0.008752346
0.022521829 -0.079419084 0.0079706907
0.023337319 -0.078180023 0.0067482889
0.024207627 -0.077233858 0.005989939
0.02583275 -0.078672461 0.0057018101
-0.028330833 -0.07790979 0.0051618218
-0.027151546 -0.077913128 0.0058170259
-0.02593457 -0.077803709 0.0067074299
-0.024553588 -0.07716842 0.0074964762
-0.023536844 -0.077671587 0.0090577006
-0.022023195 -0.07650163 0.0098807812
-0.021213325 -0.077782191 0.010947496
-0.019669067 -0.07636226 0.011496037
-0.018391389 -0.075864479 0.012652665
-0.017376751 -0.076457709 0.014051706
-0.016116751 -0.075978972 0.014647365
-0.014973926 -0.07602147 0.015587986
-0.013707845 -0.075393148 0.01611793
-0.012611251 -0.075667508 0.016597211
-0.011487421 -0.075816974 0.016590893
-0.010174495 -0.07461296 0.017627448
-0.0091822054 -0.075753197 0.017734826
-0.0079781637 -0.075222686 0.017917901
-0.0068887137 -0.075775847 0.017865449
-0.0057566101 -0.075987257 0.018059045
-0.0045808363 -0.075583801 0.018201441
-0.0034234719 -0.075316384 0.018852234
-0.0022836889 -0.075361729 0.018874168
-0.0011433762 -0.075462833 0.018912405
0 -0.075129747 0.019241154
0.0011435588 -0.075474881 0.019252598
0.0022791862 -0.075213149 0.019119054
0.0034583365 -0.076083399 0.019242227
0.0045796195 -0.075563721 0.019048661
0.0056668674 -0.074802652 0.018898517
0.0069445651 -0.076390222 0.018504858
0.0080190469 -0.075608157 0.018168658
0.0092133535 -0.076010168 0.017351508
0.010373233 -0.076070376 0.01690653
0.011461264 -0.075644344 0.015782326
0.012721648 -0.076329887 0.015085042
0.013890305 -0.076396674 0.014729053
0.014886959 -0.075579949 0.014141828
0.016067373 -0.075746186 0.013404906
0.017527243 -0.077119865 0.012737811
0.018298976 -0.07548327 0.011675209
0.019588457 -0.076049305 0.010381728
0.021292103 -0.078071043 0.0085682273
0.021918109 -0.076136589 0.0082137287
0.023604907 -0.077896193 0.0072919726
0.024618665 -0.077372946 0.0065220892
0.025762146 -0.077286437 0.0056878626
-0.028314903 -0.076686196 0.0052909851
-0.027153045 -0.076736867 0.0059687793
-0.025568372 -0.075542912 0.0066452324
-0.024493663 -0.075813718 0.0077909529
-0.023535708 -0.07649105 0.0085929632
-0.022318896 -0.076354116 0.010249734
-0.020921217 -0.075548843 0.011207283
-0.020062899 -0.076711081 0.011465788
-0.018409874 -0.074790113 0.01286301
-0.017429678 -0.075528607 0.013694316
-0.016218077 -0.075298212 0.014809072
-0.014964439 -0.074822195 0.015909046
-0.013779365 -0.074638225 0.016466677
-0.012643363 -0.074710786 0.017121464
-0.01140772 -0.074150182 0.017121464
-0.010254961 -0.074063599 0.01784268
-0.0091822017 -0.07460539 0.017984778
-0.0078835953 -0.073204815 0.018139601
-0.0068693613 -0.074418083 0.018120408
-0.0057547856 -0.074812219 0.018326372
-0.0045243609 -0.073520862 0.018461674
-0.0034358823 -0.074444115 0.01889506
-0.0022819822 -0.074164428 0.01896733
-0.0011395412 -0.074070178 0.019060731
0 -0.074873418 0.019214272
0.0011430709 -0.074299611 0.019347221
0.0022873376 -0.074338473 0.019227892
0.0034550517 -0.074859455 0.019404978
0.0045545441 -0.074011341 0.019214481
0.0057146233 -0.074290104 0.019090325
0.0067897695 -0.073555835 0.018782377
0.0079939123 -0.074229181 0.018786997
0.0091233039 -0.07412684 0.017915815
0.010242914 -0.073976599 0.017354459
0.011429622 -0.074292541 0.016254455
0.012650056 -0.074750327 0.015890568
0.013764765 -0.074559145 0.015363514
0.015005557 -0.075027786 0.014764994
0.016501619 -0.076614656 0.014122099
0.017540056 -0.076006912 0.012947381
0.018395279 -0.074730821 0.011781186
0.019848935 -0.075892985 0.010576397
0.021025177 -0.075924255 0.009244293
0.02234084 -0.076429188 0.0089194179
0.023775186 -0.077269353 0.0074903369
0.02476933 -0.076666974 0.0062354207
-0.028470859 -0.075922295 0.0056411624
-0.027340263 -0.076077253 0.0063935518
-0.025800895 -0.075057149 0.0071296096
-0.024736082 -0.075386159 0.0078278482
-0.023742329 -0.075975455 0.0088626742
-0.022095881 -0.074428231 0.010015219
-0.021134544 -0.075145043 0.010992438
-0.019667944 -0.074044019 0.012409985
-0.018601455 -0.074405819 0.013016194
-0.017211543 -0.073435925 0.014162391
-0.015995726 -0.073123313 0.014814109
-0.015000726 -0.07384973 0.016337395
-0.013709919 -0.073119566 0.016845226
-0.012619189 -0.073420741 0.017535627
-0.011382687 -0.072849192 0.017638683
-0.010354008 -0.073628493 0.018262655
-0.0091368658 -0.073094927 0.018510461
-0.0081352843 -0.074379742 0.018472105
-0.0067831371 -0.07235346 0.018472105
-0.0057474473 -0.073567323 0.018537402
-0.0045832363 -0.073331781 0.018937349
-0.0034323893 -0.073224306 0.019169033
-0.0023221362 -0.074308358 0.019236743
-0.0011444626 -0.073245607 0.019150048
0 -0.072782278 0.019402444
0.0011364892 -0.07273531 0.019464642
0.0022762439 -0.072839804 0.019636512
0.0034004357 -0.072542623 0.01972422
0.0045932177 -0.073491484 0.019690335
0.0057170168 -0.073177814 0.019503683
0.0068028555 -0.07256379 0.019571871
0.008020265 -0.073328137 0.019464672
0.0092167063 -0.07373365 0.018258035
0.010369342 -0.073737539 0.01790154
0.011622425 -0.07438352 0.016917437
0.012692809 -0.073849075 0.016476363
0.013801907 -0.073610172 0.016205013
0.015013379 -0.073912017 0.015465915
0.016148163 -0.073820174 0.014506847
0.017384892 -0.074175537 0.013498455
0.018718226 -0.074872904 0.012149721
0.019734105 -0.074293107 0.010634154
0.021115938 -0.07507889 0.0097120702
0.022216018 -0.074832901 0.0088160336
0.023333818 -0.074668214 0.007153064
0.025103696 -0.076506503 0.0057694018
0.025913205 -0.075383872 0.0050140619
-0.028913986 -0.075899214 0.0050447285
-0.027484037 -0.075282365 0.0058330894
-0.026057396 -0.074618906 0.0066370368
-0.024830336 -0.074491009 0.0071291327
-0.023376137 -0.073634826 0.0079549253
-0.022446865 -0.07442908 0.0089705884
-0.021227393 -0.074295878 0.010453433
-0.019930337 -0.073859483 0.01271823
-0.018712202 -0.073679291 0.013300121
-0.017437618 -0.073238 0.014419913
-0.016323425 -0.073455408 0.01462552
-0.014827327 -0.071855508 0.016075104
-0.013668113 -0.071757592 0.016922146
-0.012629738 -0.072333954 0.017698139
-0.011457379 -0.072181486 0.017916232
-0.010294724 -0.072063066 0.018477798
-0.0092273066 -0.072665043 0.018786401
-0.0079886317 -0.071897686 0.018894285
-0.0070353942 -0.073871635 0.018806815
-0.0057394626 -0.072317228 0.018832862
-0.0045695412 -0.071970277 0.019195884
-0.0034564496 -0.072585441 0.019287914
-0.0022742637 -0.071639307 0.019452304
-0.0011487696 -0.072372489 0.019362301
0 -0.071632534 0.019607186
0.0011438996 -0.072065681 0.01968649
0.00227609 -0.07169684 0.020047337
0.0034805555 -0.073091663 0.020022541
0.0045580971 -0.071790032 0.020005643
0.0056953314 -0.071761176 0.01990214
0.0069298483 -0.072763406 0.020062327
0.0080133434 -0.072120093 0.019682467
0.0093203057 -0.073397405 0.018991292
0.010402081 -0.072814561 0.018401146
0.011534667 -0.072668396 0.017487794
0.012584221 -0.072073258 0.01732713
0.013982087 -0.073405959 0.016923755
0.01538258 -0.074546352 0.016052127
0.016114751 -0.072516374 0.0151366
0.017398382 -0.073073201 0.013709337
0.018609038 -0.073273093 0.012477249
0.020137126 -0.07462582 0.011006117
0.020940594 -0.073292084 0.0096511841
0.022623628 -0.075015187 0.0084848404
0.024173824 -0.076147541 0.0070666075
0.024693735 -0.074081205 0.0056198537
0.026223216 -0.075093754 0.0052109957
-0.026953831 -0.072658159 0.0058588386
-0.026139947 -0.073667124 0.006498158
-0.024790395 -0.073190689 0.0068967044
-0.023632368 -0.073260337 0.0073782504
-0.022385295 -0.073046759 0.0080081224
-0.020900829 -0.071991742 0.0094192922
-0.019735614 -0.071976945 0.011976928
-0.018530855 -0.071807064 0.013208151
-0.017344235 -0.071689501 0.014346629
-0.016203897 -0.071760111 0.014827549
-0.015096785 -0.072000049 0.016168684
-0.013733561 -0.070956737 0.016675204
-0.012557866 -0.070780694 0.017670423
-0.011388381 -0.07060796 0.01815185
-0.010406277 -0.071687683 0.018486798
-0.0091701634 -0.071068764 0.019383758
-0.0080979867 -0.071725026 0.01918295
-0.0068552108 -0.070837177 0.01913926
-0.0056547318 -0.070118673 0.019058883
-0.0045891767 -0.071132235 0.019282758
-0.0034445147 -0.071186632 0.019460112
-0.0022790881 -0.070651732 0.019686133
-0.0011349884 -0.070369281 0.019421905
0 -0.071226373 0.019686133
0.0011404071 -0.070705235 0.019869208
0.0022878551 -0.070923507 0.019866824
0.0033780315 -0.069812655 0.019859791
0.0044934722 -0.069648817 0.019468814
0.0056854757 -0.070499897 0.019464672
0.0068829702 -0.071124025 0.019752085
0.0079901777 -0.070770144 0.019632041
0.0091243871 -0.070714004 0.01916492
0.010335061 -0.071197085 0.018246174
0.011519239 -0.071419284 0.017960221
0.012786154 -0.07206741 0.017620444
0.013923433 -0.07193774 0.017426729
0.014860256 -0.070871986 0.016320556
0.016244784 -0.071941189 0.015665323
0.017371612 -0.071802668 0.014012843
0.01858147 -0.072003193 0.012985051
0.019733546 -0.071969405 0.011471629
0.02111103 -0.072715767 0.010301203
0.022744652 -0.074219391 0.0086763203
0.02369439 -0.073452614 0.0076444149
0.024495453 -0.07231991 0.0060141683
-0.027084669 -0.071833253 0.005145818
-0.02589732 -0.071806207 0.0062211156
-0.024788599 -0.072004974 0.0067335963
-0.02350173 -0.071680278 0.0072333515
-0.022402154 -0.071922705 0.007576257
-0.02118393 -0.071789987 0.0087535977
-0.019957511 -0.071612246 0.010706961
-0.018359078 -0.069993988 0.013443053
-0.01729453 -0.070331089 0.013810545
-0.015921507 -0.069372281 0.014852703
-0.014882024 -0.069831036 0.016861975
-0.013696691 -0.069624849 0.017293036
-0.012574277 -0.069730081 0.017998785
-0.01130651 -0.068969712 0.0185287
-0.010372058 -0.070299506 0.018929303
-0.0091976905 -0.07013239 0.019745469
-0.0080053117 -0.069760576 0.019957244
-0.0068641659 -0.069785684 0.019803524
-0.005849719 -0.071366571 0.019749671
-0.0045710378 -0.069708325 0.019897252
-0.003438948 -0.069925278 0.019612283
-0.0022795151 -0.069525212 0.019881219
-0.0011579139 -0.070632748 0.019612283
0 -0.068668053 0.019568205
0.0011335573 -0.069146991 0.019733965
0.0022580815 -0.068871483 0.019851923
0.003406798 -0.069271557 0.019767076
0.0045498484 -0.069385186 0.019725591
0.0056548803 -0.068989538 0.01953277
0.0067403256 -0.068526641 0.019788295
0.0081335912 -0.070878439 0.019364566
0.0091100242 -0.069463938 0.018470258
0.010380276 -0.070355207 0.018393993
0.011445301 -0.069816329 0.017838776
0.012773136 -0.070832849 0.017787308
0.013710568 -0.069695391 0.017270833
0.015143904 -0.071059853 0.016293675
0.016175393 -0.070478499 0.015584201
0.017316436 -0.070420176 0.014130682
0.018426249 -0.070250072 0.012628078
0.019862363 -0.071270831 0.011490673
0.021227729 -0.07193841 0.0099892616
0.022409089 -0.071944974 0.0082514882
0.023337526 -0.071179457 0.0068281293
0.02495716 -0.072494604 0.0052997172
-0.025883229 -0.07059063 0.0056583583
-0.024597634 -0.070278957 0.0065014362
-0.023647053 -0.070941158 0.0068128407
-0.022290589 -0.070391335 0.0073100328
-0.021056315 -0.070187718 0.0085190535
-0.019771803 -0.069782831 0.01012826
-0.018406209 -0.069023281 0.012762308
-0.01757242 -0.070289679 0.014073819
-0.016735565 -0.071723849 0.01541388
-0.015323874 -0.070725568 0.016699702
-0.01410604 -0.070530199 0.017801404
-0.013076776 -0.071327865 0.018810779
-0.011451025 -0.068706147 0.019263029
-0.010226529 -0.068176866 0.019831866
-0.0091969185 -0.068976887 0.02027306
-0.0080421381 -0.068932615 0.020480722
-0.0069004828 -0.069004826 0.020429522
-0.0057798284 -0.069357939 0.020134032
-0.0046303258 -0.069454893 0.019845843
-0.0033869543 -0.067739084 0.020134032
-0.0022905245 -0.068715736 0.019991159
-0.0011467956 -0.068807736 0.019958377
0 -0.066904224 0.019728363
0.0011829698 -0.07097818 0.019665331
0.0023302305 -0.06990692 0.019762963
0.0035427918 -0.070855841 0.019224077
0.004712658 -0.070689872 0.019349188
0.0057819597 -0.069383517 0.018351644
0.006828873 -0.068288729 0.019054145
0.0079543348 -0.06818001 0.018385708
0.009163795 -0.068728462 0.01828298
0.010214474 -0.068096496 0.018204659
0.011578874 -0.069473244 0.01771006
0.012555124 -0.068482496 0.017709911
0.013827001 -0.069135003 0.016803622
0.014948017 -0.068990849 0.015963376
0.0160718 -0.068879142 0.014895737
0.017511258 -0.070045032 0.013739616
0.01865156 -0.069943346 0.012506098
0.01979766 -0.0698741 0.011361003
0.021237005 -0.070790015 0.0093086362
0.02236687 -0.070632219 0.0083217919
0.023647053 -0.070941158 0.0061571598
0.024883712 -0.071096323 0.0051744878
-0.02615797 -0.070150919 0.0053166151
-0.025083432 -0.070472501 0.0053574145
-0.023485675 -0.06928274 0.0055250823
-0.022170765 -0.068846062 0.00662902
-0.020865016 -0.068390891 0.0084075928
-0.019689376 -0.068333715 0.0098742843
-0.018608058 -0.068617217 0.011859119
-0.018143328 -0.071363755 0.014613718
-0.016681354 -0.070299998 0.016064197
-0.01499415 -0.06805037 0.018056065
-0.013825758 -0.067976646 0.018467575
-0.012890171 -0.069138192 0.019315392
-0.011772078 -0.069455259 0.019803345
-0.010603169 -0.069509663 0.020630419
-0.009082091 -0.066980422 0.020821035
-0.0079570059 -0.067066193 0.020849496
-0.0068698968 -0.067553982 0.020630419
-0.0057150614 -0.067437723 0.020229876
-0.004569985 -0.06740728 0.019942731
-0.0034642895 -0.06813103 0.019644827
-0.0022957975 -0.067726023 0.019864351
-0.0011280539 -0.066555172 0.019985646
0 -0.068930693 0.019864351
0.0011591772 -0.06839145 0.018624663
0.0022884887 -0.067510419 0.018289179
0.0035298844 -0.06942106 0.017907202
0.0046606101 -0.068743996 0.018208355
0.0057902755 -0.068325251 0.018384397
0.0069733053 -0.06857083 0.018341184
0.0078862431 -0.066469766 0.018549979
0.0090041459 -0.066405579 0.018363565
0.010206399 -0.06690862 0.018107146
0.011420754 -0.067382447 0.017573744
0.012622282 -0.067701332 0.017476231
0.013822836 -0.067962281 0.017204493
0.015029762 -0.068211995 0.016208947
0.0160925 -0.067818396 0.015313238
0.01754899 -0.069026023 0.013947636
0.018327624 -0.067583106 0.013133019
0.019846616 -0.068879433 0.012121081
0.020938396 -0.068631411 0.0089667141
0.022352247 -0.069409609 0.0081284344
0.023646269 -0.069756493 0.0064989626
0.024701521 -0.069399513 0.005292803
-0.023731731 -0.068822019 0.0058608651
-0.022442678 -0.068509229 0.0059200525
-0.0209189 -0.067405343 0.0076193213
-0.019602668 -0.06687969 0.0098691583
-0.01925781 -0.069809556 0.011627138
-0.018297903 -0.070751891 0.01502353
-0.016286118 -0.067471057 0.016547322
-0.015091646 -0.067331962 0.018849015
-0.013912838 -0.067245387 0.019355714
-0.012544031 -0.066141255 0.019975841
-0.011460434 -0.066470519 0.02074483
-0.01067948 -0.068823315 0.021499872
-0.0095533021 -0.069261439 0.021716833
-0.0079817995 -0.066134907 0.021797001
-0.0067961388 -0.065696009 0.020911038
-0.0057272934 -0.066436604 0.020439655
-0.0045712432 -0.066283025 0.020093828
-0.0034676129 -0.06704051 0.019838601
-0.0022803468 -0.066130057 0.019955486
-0.0011427425 -0.066279061 0.0195508
0 -0.067233175 0.018975407
0.001164306 -0.067529745 0.018409759
0.0023177473 -0.067214675 0.018147439
0.0034400197 -0.066507049 0.017191052
0.0046124193 -0.066880077 0.017199218
0.0059191571 -0.068662226 0.017701209
0.0070179626 -0.067840308 0.017737985
0.0081804702 -0.067781039 0.018015832
0.009376443 -0.067979217 0.018103659
0.010280472 -0.066251934 0.017567098
0.011237558 -0.065177836 0.017448902
0.012468344 -0.065742172 0.017427027
0.013807626 -0.066736855 0.016308814
0.014790098 -0.065986589 0.015943021
0.016475322 -0.068254903 0.014887989
0.01725609 -0.066723555 0.013668329
0.018547876 -0.067236051 0.012999028
0.019830279 -0.067656249 0.011024743
0.021117158 -0.068044178 0.0090844333
0.022404529 -0.068392776 0.0072176754
0.023773102 -0.068941996 0.0059794486
-0.022337599 -0.067012794 0.0055005848
-0.020760147 -0.065740466 0.0074870586
-0.020557778 -0.068929017 0.0094709992
-0.019524824 -0.069557182 0.011810213
-0.017834181 -0.067769893 0.01567927
-0.016700439 -0.067994647 0.017139703
-0.015024427 -0.065876335 0.018871397
-0.013527075 -0.064253606 0.019776583
-0.012684734 -0.065729983 0.020372748
-0.011444632 -0.0652344 0.02159068
-0.010419179 -0.065988138 0.021835595
-0.0093852617 -0.066869989 0.022221237
-0.0081412829 -0.066293299 0.021835595
-0.0070264037 -0.066750839 0.0214746
-0.0056737037 -0.064680219 0.020471692
-0.0045276377 -0.064518839 0.019942731
-0.0033945229 -0.064495936 0.019729823
-0.0023209245 -0.066146351 0.019825161
-0.0011661388 -0.066469908 0.019461304
0 -0.066657633 0.018837065
0.0011665652 -0.066494212 0.018054634
0.0023056946 -0.065712295 0.017685324
0.0034668946 -0.065871 0.016742319
0.0046882159 -0.066807076 0.01683256
0.0058725937 -0.066947564 0.017397016
0.0070863431 -0.067320257 0.017291397
0.0080926754 -0.065897502 0.017660677
0.0092751393 -0.066085368 0.018018365
0.010443846 -0.066144355 0.017244667
0.011827094 -0.06741444 0.016856283
0.012320321 -0.063841663 0.016878277
0.013622068 -0.064704828 0.0164361
0.015029967 -0.065900624 0.016328603
0.01601343 -0.065197542 0.014795065
0.017444259 -0.066288181 0.013888627
0.018503146 -0.065917462 0.012287438
0.019804502 -0.066403329 0.010380894
0.021049351 -0.066656277 0.008428067
0.02224626 -0.066738784 0.0071806312
0.024096951 -0.068676308 0.0055730939
-0.022323705 -0.065796182 0.0052651763
-0.021402096 -0.066584304 0.0064418614
-0.020409841 -0.067232415 0.0096819103
-0.019178119 -0.067123413 0.011917204
-0.018009534 -0.067235596 0.01590541
-0.01627337 -0.06509348 0.018845439
-0.014881894 -0.064106621 0.019873142
-0.013828091 -0.064531095 0.021160126
-0.012682689 -0.064566419 0.022456378
-0.011367847 -0.063659944 0.022684842
-0.01035666 -0.064441442 0.022932678
-0.0093784314 -0.065649025 0.022781342
-0.008043617 -0.064348936 0.022779733
-0.0070432099 -0.065736629 0.02214092
-0.0059527019 -0.066670261 0.02121231
-0.0047340263 -0.066276371 0.019982815
-0.003397797 -0.063425548 0.019729316
-0.0023089785 -0.0646514 0.019794881
-0.0011622377 -0.065085307 0.019470543
0 -0.065839544 0.018982321
0.0011396339 -0.063819498 0.018318981
0.0022693763 -0.063542537 0.01802361
0.003475294 -0.064872153 0.017080277
0.0045819604 -0.064147443 0.017069429
0.0058384729 -0.0653909 0.017524749
0.006921126 -0.064597175 0.017764777
0.0081459582 -0.065167665 0.018433005
0.0092517287 -0.064762101 0.01850611
0.010306774 -0.064131036 0.017796576
0.011808821 -0.066129394 0.016993105
0.012901761 -0.065681688 0.017248809
0.013994712 -0.06530866 0.016387403
0.01450666 -0.062490229 0.015460521
0.016037241 -0.064148962 0.01483196
0.017108144 -0.0638704 0.01338461
0.018495308 -0.06473358 0.012175888
0.019813783 -0.065268934 0.010282546
0.021454684 -0.066747911 0.0079649389
0.022721475 -0.06696856 0.0070262551
-0.021925708 -0.066995218 0.0060052276
-0.020316599 -0.065730177 0.0086941421
-0.019456629 -0.066882163 0.012712687
-0.01796652 -0.065877244 0.016669989
-0.015754042 -0.061890878 0.019515723
-0.01481287 -0.062669836 0.021151334
-0.013385791 -0.061351545 0.023024589
-0.012534503 -0.062672518 0.023532152
-0.011308033 -0.062194183 0.023407459
-0.01017564 -0.062184464 0.023706079
-0.0091298064 -0.062767424 0.023706079
-0.0080482336 -0.063236125 0.023358434
-0.0069788229 -0.06397254 0.023021758
-0.005785116 -0.063636281 0.022062778
-0.004655763 -0.064016744 0.020736694
-0.0035703171 -0.065455809 0.020162135
-0.0023257751 -0.063958816 0.020278573
-0.0011725258 -0.064488918 0.019300342
0 -0.065015279 0.018466711
0.0011346866 -0.062407766 0.018193901
0.0023503918 -0.064635776 0.018018365
0.0034710602 -0.063636102 0.01694119
0.0046048257 -0.063316353 0.01706472
0.0057875528 -0.06366308 0.017984271
0.0070300004 -0.064441666 0.018339217
0.0082162609 -0.06455633 0.018896043
0.0092726042 -0.063749157 0.018855512
0.010532554 -0.06436561 0.017663151
0.011668034 -0.064174183 0.017335564
0.012966658 -0.064833291 0.017247558
0.014159778 -0.064898983 0.016265213
0.01562833 -0.066119857 0.01550591
0.016372133 -0.064319089 0.014938772
0.016998369 -0.062327351 0.013385832
0.018779596 -0.064554863 0.011942148
0.020048553 -0.064862967 0.009701401
0.021442512 -0.065518789 0.0078553855
0.022524763 -0.065203264 0.0058912039
-0.021581421 -0.064744264 0.0062205791
-0.020474723 -0.065037355 0.0080399513
-0.01927036 -0.065037467 0.015338302
-0.016954232 -0.061035234 0.019015789
-0.015999313 -0.061711639 0.020825088
-0.014957522 -0.062131245 0.02355355
-0.013503221 -0.060764495 0.024706036
-0.012578522 -0.061749108 0.025254995
-0.011148837 -0.060203724 0.025638282
-0.010142566 -0.060855396 0.025638282
-0.0091793742 -0.061960775 0.025221139
-0.0080604777 -0.062180828 0.024767041
-0.0069107232 -0.062196508 0.024279714
-0.0056759594 -0.061300363 0.023253113
-0.004642535 -0.062674224 0.022298813
-0.0034494372 -0.062089872 0.021742731
-0.0023573076 -0.063647307 0.021127611
-0.001164649 -0.062891051 0.020255566
0 -0.062259436 0.019746393
0.0011584334 -0.062555403 0.019101292
0.0023437794 -0.063282043 0.018788904
0.0034556526 -0.06220175 0.018223554
0.0046488727 -0.062759779 0.018324673
0.0058441362 -0.06311667 0.018649459
0.0069929808 -0.062936828 0.018951237
0.0082374765 -0.063546248 0.019613862
0.0094221039 -0.063599199 0.01915285
0.010135438 -0.060812626 0.018455952
0.011686146 -0.063105188 0.017789274
0.012975872 -0.063699737 0.017777473
0.014406652 -0.064829938 0.016795784
0.015114294 -0.062782452 0.016459286
0.016244868 -0.062658772 0.015556604
0.017927039 -0.064537339 0.013596922
0.018353606 -0.061943416 0.011386812
0.020115573 -0.063896522 0.0098820031
0.021792907 -0.065378726 0.0077124536
-0.021776112 -0.064118549 0.0066904724
-0.020703133 -0.064545065 0.008777082
-0.018682519 -0.061885845 0.016211182
-0.017203221 -0.060784716 0.021519482
-0.015938416 -0.060338289 0.023749679
-0.014575527 -0.059423301 0.025292367
-0.013489739 -0.059579682 0.026261032
-0.012529321 -0.060368545 0.026787847
-0.011193642 -0.059326306 0.027017981
-0.010179611 -0.059946597 0.027016193
-0.0091036176 -0.060311466 0.026653588
-0.0079434318 -0.060143128 0.026055783
-0.0069537177 -0.061424505 0.024871618
-0.0057230559 -0.060664389 0.024135709
-0.004636588 -0.061434794 0.022860557
-0.0034164537 -0.060357351 0.021941215
-0.0022702364 -0.060161263 0.021896929
-0.0011911966 -0.063133419 0.021057338
0 -0.062461775 0.020646304
0.0011501209 -0.060956407 0.019686848
0.0022830344 -0.060500409 0.019220471
0.0034341877 -0.060670651 0.018488586
0.0046161124 -0.061163489 0.018987805
0.0057602283 -0.061058421 0.019283205
0.0070981374 -0.062700212 0.019616097
0.0080031473 -0.060595259 0.020110339
0.0092888484 -0.061538618 0.019423574
0.010564554 -0.062213484 0.018343449
0.011672509 -0.061864298 0.017199934
0.012487103 -0.060165133 0.017667264
0.013834767 -0.061103556 0.017192692
0.015162285 -0.06181547 0.016779661
0.016405687 -0.062107246 0.015601426
0.017495545 -0.06181759 0.014016658
0.018949483 -0.062770158 0.011489272
0.020309795 -0.063318767 0.0094239712
0.021421049 -0.063073091 0.0063677728
0.022779679 -0.06354332 0.0052855015
-0.021514777 -0.062153798 0.0059988797
-0.020488394 -0.06267038 0.0084478855
-0.018200677 -0.059152201 0.016570479
-0.017324241 -0.060057368 0.022368401
-0.015653133 -0.058140207 0.025462687
-0.014701786 -0.058807142 0.026879668
-0.013510528 -0.058545623 0.027409136
-0.012319192 -0.058236182 0.027698487
-0.011161005 -0.058037225 0.028073221
-0.01011405 -0.058436729 0.028185874
-0.0090784915 -0.059010193 0.027839929
-0.0079879882 -0.059339345 0.027342916
-0.0068738176 -0.059573084 0.025804102
-0.0057231975 -0.059521254 0.024738193
-0.0045333435 -0.058933467 0.023275644
-0.0034302503 -0.059457671 0.02246809
-0.002280531 -0.059293803 0.02195096
-0.0011887298 -0.061813947 0.021987557
0 -0.062064517 0.021375149
0.0011355222 -0.059047155 0.020348012
0.0022314072 -0.058016587 0.019875973
0.0033799696 -0.058586139 0.019613028
0.0044463137 -0.057802081 0.019599795
0.0056939446 -0.059217025 0.020138055
0.0069626695 -0.060343139 0.020714909
0.0081820786 -0.060781155 0.020614237
0.009223762 -0.059954457 0.01984787
0.010454603 -0.060404371 0.018977016
0.011787966 -0.061297424 0.018381506
0.012847962 -0.060735818 0.018308848
0.014066126 -0.060953215 0.017458886
0.015298094 -0.061192375 0.0168643
0.016595425 -0.061640151 0.015792936
0.017584611 -0.060959984 0.014376074
0.01895096 -0.061590616 0.011777699
0.020450091 -0.062553219 0.0094083846
0.021830412 -0.063065633 0.0060348809
-0.02309195 -0.061983656 0.0050714612
-0.021434115 -0.060729995 0.0061477423
-0.020340784 -0.061022349 0.0085913837
-0.017957393 -0.05723919 0.015664309
-0.016905207 -0.057477701 0.023249179
-0.015744656 -0.057355531 0.026498646
-0.014590381 -0.057239186 0.027868539
-0.013696467 -0.058209982 0.028408319
-0.012464845 -0.057791553 0.028686851
-0.011319624 -0.057730082 0.029040307
-0.010233786 -0.057991453 0.02903834
-0.0090693925 -0.057817373 0.028647631
-0.0078912964 -0.057493731 0.028028399
-0.0068165343 -0.057940543 0.026838601
-0.0057147718 -0.058290672 0.02590391
-0.0045095328 -0.057496544 0.024843961
-0.0034495133 -0.058641728 0.023717195
-0.0022925192 -0.058459241 0.023229778
-0.0011999694 -0.061198443 0.022627175
0 -0.059277527 0.021595657
0.0011558399 -0.058947839 0.020883501
0.0022720394 -0.057937007 0.020270228
0.0034800498 -0.059160847 0.020652503
0.0045241606 -0.057683051 0.021046937
0.0057297037 -0.058442976 0.021081716
0.0068490789 -0.058217172 0.021420658
0.0081459787 -0.059349272 0.020898163
0.0093755564 -0.059769168 0.02010271
0.010422996 -0.059063643 0.019381255
0.011655368 -0.059442375 0.018503487
0.01271618 -0.058956835 0.018219113
0.014057632 -0.059744932 0.017629087
0.015097239 -0.05922763 0.016869187
0.016527539 -0.06020746 0.015542984
0.017783221 -0.060462952 0.01287356
0.018732091 -0.059708539 0.010912329
0.020579929 -0.061739784 0.0069738626
-0.021698583 -0.060273841 0.006354779
-0.01942585 -0.057134856 0.0084412992
-0.018506253 -0.05783204 0.016028762
-0.016977582 -0.056591943 0.023875386
-0.016010927 -0.057181887 0.027051836
-0.014699051 -0.056534812 0.028404117
-0.013412947 -0.055887278 0.029088438
-0.012456949 -0.056622494 0.029399306
-0.011445288 -0.057226438 0.030237079
-0.01022623 -0.056812387 0.030168444
-0.0090709617 -0.056693513 0.029271752
-0.0079417303 -0.056726642 0.028585136
-0.0067504239 -0.056253534 0.027764261
-0.0057392218 -0.057392221 0.026501179
-0.004574439 -0.05718049 0.025609195
-0.0034482768 -0.057471279 0.024285406
-0.0023144917 -0.057862293 0.023809612
-0.0011877958 -0.059389792 0.023064435
0 -0.056832854 0.022356302
0.00114153 -0.057076499 0.021747231
0.0023079086 -0.057697713 0.020638913
0.0034667463 -0.057779104 0.020573497
0.0048050876 -0.060063593 0.020832688
0.005793469 -0.05793469 0.021378785
0.0068656188 -0.057213489 0.022035897
0.0079536755 -0.056811966 0.021745026
0.0090851011 -0.056781881 0.020581067
0.01052734 -0.058485221 0.02005893
0.011580569 -0.057902846 0.019210517
0.012723045 -0.057832025 0.018861383
0.014068058 -0.058616906 0.018190563
0.015134661 -0.058210235 0.017271906
0.016503887 -0.058942452 0.015858322
0.017512102 -0.058373671 0.013338238
0.018538412 -0.057932537 0.011521369
0.020681703 -0.060828537 0.0067756474
-0.021512425 -0.058561601 0.0057404637
-0.019497409 -0.056198414 0.0076430142
-0.018574595 -0.056884699 0.014525384
-0.016835127 -0.054994751 0.021417618
-0.015908673 -0.055680357 0.026319385
-0.014619132 -0.055102881 0.028258264
-0.013434947 -0.054859366 0.02960524
-0.01233234 -0.054934971 0.029873997
-0.011180872 -0.054786276 0.030548722
-0.010048024 -0.05470591 0.030271381
-0.0090578478 -0.055479318 0.029505789
-0.0079174545 -0.055422179 0.028944254
-0.0069453879 -0.056720667 0.02783525
-0.0056170421 -0.055047013 0.026992589
-0.0045471587 -0.055702694 0.025835365
-0.0034276336 -0.055984683 0.024887472
-0.0023653475 -0.057951011 0.024050385
-0.0011420854 -0.055962186 0.023284078
0 -0.057620168 0.022606045
0.0011347702 -0.055603739 0.022148669
0.0022796383 -0.055851139 0.020888656
0.0034867025 -0.056949474 0.020832688
0.0047051595 -0.057638202 0.021301955
0.0058313003 -0.057146747 0.021484524
0.006863832 -0.056054629 0.022518009
0.0080744643 -0.056521248 0.021643341
0.009104168 -0.055763032 0.021288544
0.010113845 -0.055064268 0.020867795
0.011436826 -0.056040447 0.020259887
0.012850489 -0.057243083 0.01951158
0.01401259 -0.057218075 0.018576175
0.015308227 -0.057700243 0.01763162
0.01614408 -0.056504279 0.016538382
0.017495777 -0.057152871 0.014439493
0.018912775 -0.057920378 0.011776328
0.020729521 -0.059749797 0.006482631
-0.020013057 -0.056507453 0.0069969296
-0.018220814 -0.05466244 0.012097746
-0.017552447 -0.05616783 0.017908752
-0.015923165 -0.054593712 0.02429986
-0.014760902 -0.054501791 0.027517051
-0.013792501 -0.055170003 0.029518664
-0.012489184 -0.054498255 0.03000468
-0.011319201 -0.054332159 0.030329049
-0.010329406 -0.055090167 0.030328602
-0.0091992477 -0.055195484 0.029819071
-0.0077493368 -0.053138308 0.028940946
-0.0068148221 -0.054518577 0.028236836
-0.0056767748 -0.054497037 0.027280152
-0.004574222 -0.054890666 0.025710195
-0.0034188544 -0.054701671 0.024348736
-0.0023698623 -0.056876693 0.02323547
-0.0011634831 -0.05584719 0.023571104
0 -0.054618344 0.023375034
0.0011660437 -0.055970095 0.022795647
0.0023543776 -0.056505065 0.021587878
0.0034912766 -0.055860426 0.021882832
0.0044993628 -0.053992353 0.021715224
0.0056648883 -0.054382924 0.021715224
0.0070156129 -0.056124903 0.022873431
0.0081768688 -0.056069959 0.022302866
0.0094089201 -0.056453522 0.021762758
0.010527975 -0.056149196 0.021261364
0.011400256 -0.054721229 0.020863235
0.012515327 -0.054612335 0.019922942
0.013640405 -0.054561619 0.019029945
0.01526785 -0.0563736 0.017937839
0.016273735 -0.055795662 0.016865671
0.017687691 -0.056600612 0.014765471
0.018548291 -0.055644874 0.011961251
0.021007081 -0.059314113 0.0065280199
-0.020100974 -0.055573281 0.0051524937
-0.018547207 -0.054482423 0.0087728798
-0.017110964 -0.053614356 0.014648795
-0.016096218 -0.054037299 0.018539965
-0.014821004 -0.053583629 0.02575171
-0.013669562 -0.05353912 0.028283983
-0.012680826 -0.05418171 0.030170649
-0.011341062 -0.053302992 0.030180961
-0.010237183 -0.053460848 0.029984236
-0.0090680178 -0.053274602 0.029371798
-0.0078998981 -0.05304217 0.028835714
-0.0068396465 -0.053577233 0.027738541
-0.0057120938 -0.053693678 0.026000619
-0.0045273728 -0.053196631 0.024623364
-0.0035629517 -0.055819578 0.023685724
-0.0023114462 -0.054318991 0.023442954
-0.0011561608 -0.054339558 0.023104072
0 -0.055351216 0.022687167
0.0011360419 -0.053393971 0.021986723
0.0023453431 -0.055115566 0.021465302
0.0034281593 -0.053707831 0.021518111
0.0046019922 -0.054073405 0.021721154
0.0057843332 -0.054372732 0.022014499
0.007013381 -0.054938152 0.02311334
0.0081439698 -0.05468094 0.022409946
0.0091660311 -0.053850435 0.022048116
0.010350186 -0.054050971 0.021825343
0.011703698 -0.05500738 0.021134883
0.012749204 -0.054473873 0.020806968
0.013755851 -0.053877085 0.019404203
0.014816252 -0.053566448 0.017893732
0.016423771 -0.055136945 0.017003179
0.017360447 -0.054396067 0.01488474
0.018620308 -0.054697156 0.010164887
-0.018967088 -0.054530382 0.0060597062
-0.017921366 -0.054958854 0.010604084
-0.016493535 -0.054193042 0.016419828
-0.015227199 -0.053880859 0.01967901
-0.0135809 -0.052060116 0.025068104
-0.012519773 -0.052355416 0.0271267
-0.011417708 -0.05252146 0.028152257
-0.010172866 -0.051994652 0.028542966
-0.0092532067 -0.053205937 0.027946293
-0.0079249684 -0.052078363 0.027115524
-0.0068399245 -0.052439421 0.025823385
-0.0056358161 -0.051849511 0.024512678
-0.0046136403 -0.053056862 0.0241386
-0.0035111527 -0.053837676 0.023661762
-0.002325197 -0.053479534 0.023112863
-0.0011556591 -0.053160317 0.02226004
0 -0.053914912 0.022095561
0.0011684624 -0.053749271 0.021954745
0.0023319037 -0.053633783 0.022457719
0.0035060314 -0.05375915 0.022413731
0.0046555847 -0.053539224 0.022413731
0.0057812151 -0.05318718 0.022515833
0.0068790619 -0.052739475 0.022887826
0.0081844116 -0.053783275 0.022820622
0.0093029477 -0.053491946 0.022642225
0.010509145 -0.053713411 0.022427082
0.011873612 -0.054618616 0.021527737
0.012454744 -0.052083477 0.020632863
0.014139609 -0.054201834 0.019383639
0.015285821 -0.054088291 0.018525094
0.016124168 -0.05297941 0.016866207
0.016859427 -0.051702242 0.014759213
0.019320913 -0.055547625 0.0083772838
-0.019095434 -0.053705908 0.0052593648
-0.018081 -0.054243002 0.0074898899
-0.016450593 -0.052876908 0.01300776
-0.015188111 -0.052574232 0.017371058
-0.013828551 -0.051857069 0.0201267
-0.012557077 -0.051369861 0.023647517
-0.011805755 -0.053125899 0.02503705
-0.010357545 -0.051787727 0.026238173
-0.009224264 -0.051886484 0.025136918
-0.0079555381 -0.051142745 0.024656594
-0.0068397941 -0.051298454 0.0245637
-0.0056796004 -0.051116403 0.023739427
-0.0046311142 -0.052100033 0.022491992
-0.0035623042 -0.053434566 0.022088766
-0.0023229602 -0.052266605 0.02203849
-0.0011749654 -0.052873444 0.021980703
0 -0.052267257 0.021852911
0.0011700878 -0.05265395 0.022110045
0.0023566156 -0.053023852 0.022518337
0.0035716326 -0.053574488 0.022442251
0.0046159937 -0.051929932 0.022561252
0.0057097785 -0.051388007 0.022554308
0.0069802548 -0.052351911 0.023055524
0.0081607951 -0.052462257 0.023280919
0.0092491349 -0.052026384 0.022609144
0.010404176 -0.052020881 0.02219668
0.011477225 -0.05164751 0.021433592
0.01271865 -0.052030839 0.021041363
0.014156183 -0.053085689 0.019867957
0.015263371 -0.052834745 0.01805687
0.01646083 -0.052909814 0.016709536
0.017477814 -0.052433439 0.014361382
0.018370217 -0.051666237 0.0066946745
-0.018126292 -0.053170457 0.0066003203
-0.016849451 -0.052955419 0.0083332956
-0.015586235 -0.052753411 0.013367116
-0.014087835 -0.051655397 0.017491668
-0.012931538 -0.051726151 0.019629449
-0.011463528 -0.050439518 0.020072669
-0.010558629 -0.051619966 0.021102488
-0.009148444 -0.050316442 0.021046042
-0.0081644394 -0.051319331 0.021258473
-0.0069200946 -0.050747361 0.021813661
-0.0057946844 -0.050993223 0.021699339
-0.0046692891 -0.051362183 0.02060464
-0.0035421012 -0.05195082 0.02058658
-0.0023126602 -0.050878525 0.020893961
-0.0011550605 -0.05082266 0.021064252
0 -0.051488157 0.021079659
0.001167377 -0.051364586 0.021367759
0.0023249765 -0.05114948 0.021677166
0.0034343658 -0.050370701 0.022147506
0.004645389 -0.051099278 0.022586316
0.0058163279 -0.051183686 0.022452831
0.0068491306 -0.050226957 0.022495598
0.0081917504 -0.051491003 0.022666454
0.0091986749 -0.050592713 0.022488177
0.010616782 -0.051904269 0.021974027
0.011679303 -0.051388931 0.021701723
0.012815551 -0.051262204 0.020965278
0.014062239 -0.051561542 0.019953936
0.015102978 -0.05111777 0.017852366
0.016264228 -0.051116146 0.016850621
0.017416157 -0.051087391 0.011056542
-0.017111724 -0.052557439 0.0070201457
-0.015954178 -0.052771509 0.0098306537
-0.014133487 -0.050644998 0.012566149
-0.012879524 -0.050347231 0.016967237
-0.011879491 -0.05108181 0.018011838
-0.010579159 -0.050544873 0.01919654
-0.0093778605 -0.050406002 0.019335479
-0.0082299104 -0.050555166 0.019714862
-0.0069681662 -0.049938526 0.019672751
-0.0058478541 -0.050291546 0.019912213
-0.0046886578 -0.050403073 0.019838929
-0.0035580925 -0.050999325 0.019917697
-0.0023395391 -0.050300088 0.020153344
-0.0011877068 -0.051071391 0.020584285
0 -0.050623208 0.020898789
0.0011689878 -0.050266474 0.020982653
0.002332832 -0.050155889 0.021847725
0.0034726702 -0.049774941 0.022309899
0.0046413448 -0.049894456 0.022189736
0.0058127968 -0.049990054 0.021992177
0.0070438879 -0.050481196 0.022140384
0.0081420001 -0.050015144 0.022187024
0.0092539862 -0.049740177 0.021945447
0.010527588 -0.050298478 0.021773577
0.011763676 -0.05058381 0.021153867
0.012913047 -0.050478276 0.020710528
0.014227832 -0.050983064 0.019039541
0.015152427 -0.050119568 0.017439693
0.016509427 -0.050707527 0.014691025
0.017868035 -0.051221702 0.0082549453
-0.01736025 -0.05208075 0.0052591264
-0.015845094 -0.05119184 0.0078909099
-0.014685892 -0.051400624 0.011356562
-0.013253178 -0.050603043 0.013595074
-0.01202475 -0.050503951 0.015310735
-0.010483312 -0.048922125 0.017937988
-0.0094336048 -0.049526427 0.017817676
-0.0080998773 -0.048599266 0.018839121
-0.0070311939 -0.049218357 0.018943191
-0.005896417 -0.049529903 0.0198071
-0.0047260458 -0.049623482 0.020408571
-0.0035347345 -0.049486283 0.020282149
-0.0023754283 -0.049883995 0.019613445
-0.001149921 -0.048296683 0.020895243
0 -0.049341701 0.020596892
0.001193213 -0.050114948 0.021410674
0.0023118933 -0.04854976 0.021682292
0.0034891875 -0.048848625 0.022020847
0.0046136137 -0.048442945 0.022387385
0.0058357515 -0.049020313 0.022159934
0.006995345 -0.048967414 0.022013217
