ply
format ascii 1.0
comment PCL generated
element vertex 1262
property float x
property float y
property float z
element camera 0
property float view_px
property float view_py
property float view_pz
property float x_axisx
property float x_axisy
property float x_axisz
property float y_axisx
property float y_axisy
property float y_axisz
property float z_axisx
property float z_axisy
property float z_axisz
property float focal
property float scalex
property float scaley
property float centerx
property float centery
property int viewportx
property int viewporty
property float k1
property float k2
end_header
-0.014825517 -0.088953108 0.010675818
-0.013571112 -0.088212229 0.010774821
-0.012682698 -0.089931861 0.01131922
-0.011348424 -0.088517703 0.011077762
-0.010152464 -0.087988019 0.011296421
-0.0090899467 -0.088626981 0.011296421
-0.0080029303 -0.089175515 0.011589408
-0.0069138287 -0.089879774 0.011707395
-0.005742297 -0.089579836 0.011664987
-0.0045519616 -0.088763252 0.011716247
-0.0034269746 -0.089101337 0.011767417
-0.0022740015 -0.088686056 0.011912584
-0.0011449025 -0.089302406 0.012099653
0 -0.089439988 0.012211114
0.0011517013 -0.089832701 0.012285352
0.0022633178 -0.088269398 0.012484461
0.0034084003 -0.088618405 0.012724876
0.0045849821 -0.089407153 0.012595057
0.0056406287 -0.087993808 0.012249172
0.0068340744 -0.088842973 0.012104541
0.0079629943 -0.088730507 0.011796981
0.0090622716 -0.088357151 0.011837989
0.010341443 -0.089625843 0.011366874
0.011355706 -0.088574506 0.010927022
0.01243106 -0.088147514 0.010784864
0.013735664 -0.089281812 0.010318607
0.014869685 -0.08921811 0.0094910264
0.015928937 -0.088746943 0.0093336403
0.017206222 -0.089472353 0.0090945661
0.018209858 -0.088773049 0.0087734759
0.019558389 -0.089738496 0.0084093511
0.020905303 -0.090589643 0.0082118511
0.021391386 -0.087817267 0.0075484216
0.022569098 -0.088019483 0.0068084896
0.024196118 -0.089871295 0.0057284832
-0.033396002 -0.088672139 0.0050491691
-0.032409504 -0.089126132 0.0052061677
-0.031605717 -0.090134822 0.0057843029
-0.030136071 -0.089249134 0.0062119961
-0.028620986 -0.08815264 0.0064795911
-0.027918138 -0.089570694 0.0072019994
-0.026683478 -0.089331642 0.007568717
-0.025396168 -0.088886589 0.0081762075
-0.024034923 -0.088128053 0.0084320307
-0.023208637 -0.089353256 0.0087171793
-0.021866491 -0.088616826 0.0090512633
-0.020584796 -0.088057183 0.0095039606
-0.019465989 -0.08816947 0.009198308
-0.018135455 -0.087276876 0.010207444
-0.017328531 -0.088953122 0.010454625
-0.016141616 -0.088778883 0.010786206
-0.014745336 -0.087337762 0.011186302
-0.013674037 -0.08774174 0.011531055
-0.012602855 -0.088219993 0.012306184
-0.011385658 -0.087669559 0.011683911
-0.010324178 -0.088329077 0.011918634
-0.0092086103 -0.088632874 0.012273133
-0.0079920413 -0.087912455 0.012400836
-0.0069063283 -0.088631213 0.012453169
-0.0057490952 -0.088536061 0.01253897
-0.0045794901 -0.088155188 0.012950867
-0.0034394281 -0.088278651 0.013050854
-0.0022977234 -0.088462353 0.012897104
-0.0011438328 -0.088075131 0.012875706
0 -0.087023489 0.012658447
0.0011293218 -0.086957768 0.012998462
0.0022473293 -0.086522184 0.013209134
0.0034006312 -0.087282866 0.0136621
0.0045212056 -0.087033205 0.013731539
0.0056595458 -0.087157004 0.013088584
0.0068403976 -0.087785102 0.012868077
0.0079104509 -0.087014958 0.012579769
0.0091755874 -0.088315025 0.012255073
0.010189239 -0.087174602 0.011749893
0.011420862 -0.087940633 0.011385709
0.012656266 -0.088593863 0.011150122
0.013821876 -0.08869037 0.010804474
0.014763481 -0.087445229 0.010202736
0.016034577 -0.088190168 0.0097867548
0.017295767 -0.088784933 0.0096679628
0.018189814 -0.087538481 0.0093638301
0.019494863 -0.088300258 0.0089680851
0.020578243 -0.088029154 0.0087124109
0.022169551 -0.089845024 0.0083346665
0.022876322 -0.088073842 0.0072225332
0.023994176 -0.087978646 0.0068033934
0.025644248 -0.089754872 0.0058425367
-0.034195747 -0.08961644 0.0051194131
-0.032118246 -0.087178096 0.0052658916
-0.031748623 -0.089366496 0.0057525039
-0.030120801 -0.088045418 0.0060207844
-0.02888656 -0.087815143 0.0066403747
-0.028046649 -0.088814385 0.0070691109
-0.026484504 -0.087514013 0.0076417923
-0.025385888 -0.087696701 0.0083065927
-0.024446623 -0.088473491 0.0087292492
-0.023041613 -0.087558135 0.0090308487
-0.021738881 -0.086955525 0.0093148351
-0.020756526 -0.087638669 0.010166019
-0.019530209 -0.087311529 0.010202318
-0.018497819 -0.087864637 0.010890841
-0.017096672 -0.086623147 0.011577308
-0.016018655 -0.086958416 0.011835903
-0.014836256 -0.086735032 0.012353063
-0.013662557 -0.086529531 0.012476057
-0.012524904 -0.0865357 0.012815922
-0.011309307 -0.085950732 0.012438089
-0.010349463 -0.087395467 0.012700796
-0.0091271456 -0.086707883 0.012792885
-0.0080423038 -0.087316446 0.012920737
-0.0068357512 -0.086586177 0.01322791
-0.0057066735 -0.08674144 0.013467997
-0.0045776116 -0.086974613 0.013632894
-0.0034469471 -0.08732266 0.013869494
-0.002279174 -0.086608618 0.013880044
-0.0011351644 -0.086272493 0.013927639
0 -0.085838899 0.013796687
0.0011348608 -0.086249419 0.014232308
0.0022795384 -0.086622462 0.014245152
0.0034070485 -0.086311899 0.014921516
0.0045761536 -0.08694692 0.014812052
0.0057091024 -0.08677835 0.014366388
0.0067851078 -0.085944697 0.014243573
0.0079551693 -0.086370409 0.013624996
0.0090746852 -0.086209506 0.01347062
0.010162582 -0.085817359 0.012760699
0.011397338 -0.086619772 0.012510419
0.012546941 -0.086687952 0.011821181
0.013809702 -0.087461449 0.011579841
0.014773919 -0.086370602 0.01093635
0.01600676 -0.086893842 0.010713339
0.017291481 -0.08761017 0.010707617
0.018132756 -0.086130589 0.01010257
0.019338353 -0.08645381 0.0096524656
0.020641861 -0.087154523 0.0093315244
0.022050079 -0.088200316 0.0092387199
0.023085287 -0.08772409 0.0081121922
0.024537047 -0.088800743 0.0067219734
0.025291171 -0.087369494 0.0063904226
0.026558414 -0.087758236 0.0050169826
-0.035298079 -0.088245198 0.005040139
-0.033235136 -0.085952938 0.0054356754
-0.033053376 -0.08853583 0.0056619942
-0.031156667 -0.086546294 0.0061267018
-0.029909912 -0.086278595 0.0068219602
-0.029017178 -0.087051533 0.0072813928
-0.027776305 -0.086800948 0.0076791942
-0.026712094 -0.087104648 0.0078123212
-0.025386123 -0.086543605 0.0086861849
-0.024167916 -0.086313985 0.0091403723
-0.023009062 -0.086283982 0.0095686316
-0.022007655 -0.086872324 0.0097244382
-0.020747978 -0.086449914 0.010227352
-0.019528313 -0.086154319 0.010538369
-0.018216375 -0.085389256 0.011305928
-0.016965676 -0.084828384 0.01198101
-0.016196407 -0.086766466 0.012250155
-0.014878983 -0.085840285 0.012602717
-0.01354826 -0.084676623 0.013029158
-0.012687295 -0.086504281 0.013390452
-0.011314831 -0.084861234 0.013013154
-0.010200891 -0.085007422 0.013237596
-0.009192314 -0.086177945 0.013525248
-0.0079888059 -0.085594349 0.013842136
-0.006812111 -0.085151389 0.014038831
-0.0057349582 -0.086024374 0.014288872
-0.004567686 -0.085644111 0.014214844
-0.0034243811 -0.085609525 0.014380127
-0.0022818625 -0.085569851 0.014529765
-0.0011351106 -0.085133299 0.014762819
0 -0.085429683 0.015055925
0.0011462874 -0.085971549 0.015263975
0.0022874509 -0.085779414 0.015425175
0.0033965006 -0.084912516 0.015891165
0.0045523793 -0.085357107 0.015915245
0.0056444579 -0.084666863 0.015115678
0.006886817 -0.086085215 0.014932334
0.0080155898 -0.085881323 0.014501303
0.0091544176 -0.085822672 0.014026403
0.010265931 -0.085549422 0.013121873
0.011433851 -0.08575388 0.012962371
0.01241478 -0.084646225 0.012619585
0.013950445 -0.087190278 0.012203544
0.014856883 -0.08571279 0.011737794
0.015956737 -0.085482523 0.011362851
0.017164169 -0.085820846 0.01137653
0.018245507 -0.085525818 0.010713875
0.019568549 -0.086331837 0.010114908
0.020737054 -0.086404391 0.009786427
0.021735588 -0.085798375 0.0089547336
0.022858603 -0.085719764 0.0080170035
0.024351353 -0.086969122 0.0070538819
0.025459513 -0.086793795 0.0059664249
0.026560059 -0.086608887 0.0057702661
0.02778358 -0.086823687 0.0050043762
-0.033620045 -0.085789084 0.005610168
-0.032430809 -0.085709997 0.0059914291
-0.031543028 -0.086451262 0.0063423812
-0.030444372 -0.086649366 0.0069156289
-0.029109774 -0.086164936 0.0073550642
-0.027726915 -0.085491322 0.0076498389
-0.026853118 -0.086396992 0.0080978572
-0.025487635 -0.085731134 0.0088410676
-0.02431323 -0.085675195 0.0092978477
-0.023259126 -0.086058766 0.0097307861
-0.021739075 -0.084667981 0.0099457204
-0.020729469 -0.085221149 0.010705113
-0.019535581 -0.085037231 0.011266619
-0.018356254 -0.084897675 0.012169838
-0.017431032 -0.085993089 0.012439251
-0.015980551 -0.084468625 0.013033718
-0.015034522 -0.085581124 0.0134556
-0.013616744 -0.083969928 0.014107972
-0.012529671 -0.084290512 0.014186144
-0.011363413 -0.084089257 0.014164686
-0.010344115 -0.085051611 0.014198989
-0.0090582138 -0.083788477 0.014377117
-0.007998595 -0.084556572 0.014592052
-0.0068081017 -0.083966583 0.014474392
-0.0056891032 -0.084198728 0.014620781
-0.0046136212 -0.085351989 0.014515132
-0.003418006 -0.084310815 0.01463601
-0.002285389 -0.084559388 0.014768362
-0.0011444063 -0.084686063 0.014964551
0 -0.084425561 0.015258372
0.0011189494 -0.082802258 0.015633941
0.0022794348 -0.08433909 0.015924633
0.003440242 -0.084859304 0.016537935
0.0045489795 -0.084156118 0.016437143
0.0056979125 -0.084329106 0.016228914
0.0068598604 -0.084604941 0.015710294
0.0079122726 -0.083644025 0.015240103
0.0091874776 -0.084984168 0.014710039
0.010177927 -0.083685175 0.014183283
0.011339118 -0.083909467 0.013918638
0.012546373 -0.084402867 0.013515174
0.013719499 -0.084603578 0.012907177
0.014739279 -0.083900511 0.012229681
0.016107211 -0.08513812 0.011857182
0.017181497 -0.084762052 0.011559099
0.018283404 -0.084560744 0.01059556
0.019550027 -0.085100122 0.010415316
0.020833258 -0.085647836 0.0095193684
0.021737922 -0.084663488 0.0090667307
0.023204513 -0.085856698 0.0082826018
0.024006162 -0.08459314 0.0073338449
0.025487635 -0.085731134 0.0063862801
0.026634086 -0.085692279 0.0060377419
0.027875382 -0.085949101 0.0055845976
0.029134031 -0.08623673 0.0051806867
-0.033769377 -0.085005671 0.0055041909
-0.032184605 -0.083909862 0.0058126152
-0.031672336 -0.085632615 0.0065485239
-0.030464867 -0.085535973 0.0069176853
-0.028994502 -0.084663942 0.0073801279
-0.027748676 -0.084402226 0.0079929829
-0.026846122 -0.085207261 0.0084769726
-0.025705172 -0.085294433 0.0088911355
-0.024336115 -0.084596969 0.0096580684
-0.022944702 -0.083748162 0.010126799
-0.021945419 -0.084316611 0.010436684
-0.020680226 -0.083869807 0.011076897
-0.019506607 -0.083763666 0.011633426
-0.018231822 -0.083182685 0.012622893
-0.016957339 -0.082525723 0.012563109
-0.015999176 -0.08342427 0.013097674
-0.014908942 -0.083719447 0.013591051
-0.013513884 -0.08220946 0.014499396
-0.012565017 -0.083386019 0.014906883
-0.011416196 -0.083338231 0.01455611
-0.010164185 -0.082442842 0.014581412
-0.0091825826 -0.083791062 0.014876306
-0.0080512958 -0.083963513 0.014876306
-0.0068674842 -0.083554395 0.014893949
-0.0056848172 -0.082998328 0.014950782
-0.0046004825 -0.083958805 0.014845669
-0.0034178046 -0.083166577 0.015214413
-0.0022655674 -0.082693212 0.015282243
-0.0011519365 -0.084091365 0.015489697
0 -0.082028814 0.01589936
0.0011413019 -0.083315045 0.01607123
0.0023027577 -0.084050655 0.016468078
0.0033866309 -0.082408018 0.0169487
0.004507632 -0.082264282 0.017139554
0.0056744874 -0.082847513 0.016899377
0.0068047773 -0.082791455 0.016597837
0.0080223745 -0.083661899 0.016121447
0.00907565 -0.082815312 0.015580446
0.010160358 -0.082411796 0.015028179
0.011427739 -0.083422489 0.014744759
0.012747438 -0.084596634 0.014440328
0.013763169 -0.083725944 0.013654858
0.014963424 -0.084025383 0.013243139
0.016047638 -0.083676971 0.012678027
0.017044786 -0.0829513 0.01243636
0.018396011 -0.083931796 0.011723459
0.019417841 -0.083382495 0.011229068
0.020675855 -0.083852075 0.010255188
0.022135718 -0.085047752 0.0095917284
0.022601174 -0.082494289 0.0086145699
0.024226515 -0.084215984 0.0074517727
0.025136497 -0.083407469 0.007133007
0.026611695 -0.084463209 0.0066245198
0.028067509 -0.085372008 0.0057610869
0.028927784 -0.084469132 0.0050981939
-0.034024045 -0.084473491 0.0051886439
-0.032292932 -0.083038971 0.0058460832
-0.031506773 -0.084018067 0.0061185658
-0.030130355 -0.083437905 0.0069335699
-0.028930567 -0.083320029 0.0073429346
-0.02784308 -0.083529241 0.007989049
-0.026798489 -0.083890922 0.0088154972
-0.025474016 -0.083369501 0.0091964304
-0.024189327 -0.082934834 0.0098922551
-0.022918968 -0.082508288 0.010513604
-0.021906003 -0.083012223 0.011158347
-0.020714995 -0.082859978 0.011790067
-0.019533247 -0.082729049 0.012559861
-0.018477457 -0.083148554 0.01335749
-0.017209483 -0.082605518 0.01354292
-0.015897797 -0.081760094 0.013685733
-0.014675814 -0.081281431 0.014108628
-0.013859262 -0.083155572 0.014971644
-0.012576908 -0.082321577 0.015332729
-0.011375966 -0.081906952 0.015249431
-0.010283818 -0.08227054 0.015276015
-0.0092048533 -0.082843676 0.015336722
-0.0079759229 -0.08203806 0.015414894
-0.0068790796 -0.082548961 0.015121073
-0.0057516033 -0.082823083 0.015372247
-0.0045622699 -0.082120851 0.015152752
-0.0034266997 -0.08224079 0.015621513
-0.0022807335 -0.082106404 0.015659392
-0.0011301053 -0.08136759 0.015836328
0 -0.082505666 0.01606214
0.0011344209 -0.081678301 0.016306549
0.0022446299 -0.080806673 0.016633838
0.0034248764 -0.082197033 0.017200083
0.0045214267 -0.08138568 0.017538458
0.0057035894 -0.082131691 0.017497003
0.0068593887 -0.082312666 0.017294407
0.0079197688 -0.081460483 0.017113
0.0090614371 -0.081552938 0.016731918
0.010190845 -0.081526764 0.016095936
0.01139784 -0.08206445 0.015827924
0.012562872 -0.082229711 0.015179336
0.013738968 -0.082433812 0.014301896
0.01481165 -0.082033753 0.013950825
0.015997296 -0.082271807 0.013331443
0.017199462 -0.082557417 0.013000369
0.018323923 -0.082457654 0.012352049
0.019532215 -0.082724676 0.011931092
0.020445032 -0.081780128 0.011019349
0.021915229 -0.083047189 0.01033482
0.023127796 -0.083260067 0.0092333853
0.024403471 -0.083669044 0.0081581771
0.025456658 -0.083312698 0.0077528059
0.026506791 -0.082977779 0.0070133507
0.02801054 -0.084031619 0.0065283179
0.029394645 -0.084656581 0.0058467686
-0.032846007 -0.083288088 0.0053991079
-0.031507999 -0.082854368 0.0060444176
-0.030573143 -0.083488196 0.0069774091
-0.029049974 -0.082501926 0.0078184307
-0.027804818 -0.082255922 0.0084601641
-0.026908411 -0.083065093 0.0092903078
-0.025385505 -0.081925943 0.0096270144
-0.024126478 -0.081570476 0.010164648
-0.023132311 -0.082119703 0.011132538
-0.021762595 -0.081323378 0.011582911
-0.020627212 -0.081362896 0.012190849
-0.019621734 -0.081949592 0.012763113
-0.018203096 -0.080776244 0.013171613
-0.017230162 -0.081556097 0.013825506
-0.016054861 -0.081421077 0.013882607
-0.014700801 -0.080288991 0.014404148
-0.013894055 -0.082206495 0.015323937
-0.01261747 -0.081440032 0.015579134
-0.011247526 -0.079857431 0.015688777
-0.01035858 -0.081717685 0.015630186
-0.0092348568 -0.081959359 0.015873432
-0.008008969 -0.081233829 0.016088665
-0.0068680258 -0.081271641 0.016038239
-0.0057223341 -0.081257142 0.016093403
-0.004591126 -0.081492484 0.015849322
-0.0034308354 -0.081196435 0.016020358
-0.0022900556 -0.08129698 0.016034514
-0.0011311168 -0.080309294 0.016033471
0 -0.081552647 0.016335785
0.0011219978 -0.079661846 0.01665467
0.0022629423 -0.080334447 0.016827762
0.0034197106 -0.080933154 0.017379254
0.004522068 -0.080266707 0.017632931
0.0056557707 -0.080311939 0.017616808
0.0068315538 -0.080840051 0.017527699
0.0079179145 -0.080310278 0.017316341
0.0090700183 -0.080496415 0.016981989
0.01034764 -0.081631385 0.016811162
0.011396422 -0.080914602 0.016604483
0.012401552 -0.080046386 0.015846699
0.013673838 -0.080903545 0.015417725
0.014827975 -0.080983557 0.014928669
0.015985113 -0.081067353 0.01423806
0.017121721 -0.081042811 0.013730258
0.01836152 -0.081479244 0.012896001
0.019554617 -0.081669286 0.012192786
0.021447098 -0.084596887 0.011309683
0.021822592 -0.081547581 0.010584265
0.023197886 -0.082352497 0.0091811121
0.024320265 -0.082225658 0.0082156956
0.02567129 -0.082848251 0.0075545013
0.026728332 -0.082509205 0.0066574514
0.028016001 -0.082880668 0.0053495765
-0.03432728 -0.08285895 0.0050072968
-0.032266252 -0.080665633 0.0055908561
-0.031358331 -0.081299379 0.0069169402
-0.030455859 -0.081996545 0.0073970556
-0.028679198 -0.080301754 0.0083300471
-0.027862512 -0.081265658 0.0089959204
-0.026607722 -0.080980025 0.0095206499
-0.025669463 -0.081675559 0.010003656
-0.024162918 -0.080543056 0.010378063
-0.023305511 -0.081569292 0.011202633
-0.021989433 -0.081013702 0.011787355
-0.020753574 -0.08070834 0.012555271
-0.019521136 -0.080381148 0.013086528
-0.018201681 -0.079632357 0.013780594
-0.017363757 -0.081030868 0.014426231
-0.016017916 -0.080089577 0.014524341
-0.014736767 -0.07935182 0.014934868
-0.013677158 -0.079783425 0.015714496
-0.012392536 -0.078861594 0.016365945
-0.011414385 -0.079900697 0.016314447
-0.010305285 -0.080152214 0.016531795
-0.0091067534 -0.079684086 0.016792506
-0.0080036772 -0.080036767 0.01689133
-0.006814973 -0.079508014 0.017057568
-0.0057635466 -0.080689654 0.017298907
-0.004581295 -0.080172665 0.017075866
-0.0034385996 -0.080233991 0.017158508
-0.00227237 -0.079532951 0.017298311
-0.0011372294 -0.079606056 0.017409682
0 -0.080091521 0.017925739
0.0011437961 -0.080065735 0.018251479
0.0022732213 -0.079562739 0.018323869
0.0034055833 -0.079463616 0.018404335
0.004505171 -0.078840494 0.018381208
0.0057446985 -0.080425777 0.01819858
0.0067949095 -0.079273947 0.018250942
0.007944949 -0.079449482 0.018292814
0.0091023762 -0.07964579 0.018211514
0.010225408 -0.079530947 0.01796785
0.011389463 -0.079726242 0.017431438
0.012447361 -0.079210483 0.016517729
0.013761761 -0.080276936 0.015815645
0.014972201 -0.080619544 0.015512466
0.016151482 -0.080757409 0.01455152
0.017258031 -0.080537476 0.014492452
0.018564276 -0.081218712 0.013513088
0.019788621 -0.081482552 0.012878895
0.020530522 -0.079840921 0.011529088
0.021837104 -0.080452494 0.010582209
0.02332373 -0.081633054 0.0094985962
0.024472781 -0.08157593 0.0085279346
0.025367593 -0.080715068 0.0077572465
0.026832515 -0.081664175 0.0059201717
0.027839204 -0.081197679 0.0053408146
0.029134352 -0.081576183 0.0050126612
-0.033607047 -0.07996159 0.0050572753
-0.033175856 -0.081754789 0.0058947206
-0.031364057 -0.080152586 0.0069141984
-0.03018371 -0.080102928 0.0071027875
-0.029276244 -0.080802433 0.0076398551
-0.027705876 -0.079654396 0.0085089207
-0.02687652 -0.080629565 0.0094938576
-0.025354864 -0.079522073 0.010048717
-0.024483634 -0.080446221 0.011005402
-0.023136059 -0.079819404 0.011606395
-0.022040779 -0.080042832 0.012492031
-0.020627236 -0.079071067 0.013299644
-0.019498888 -0.079142548 0.013861805
-0.018221544 -0.078580402 0.014415294
-0.017291274 -0.079539865 0.015408248
-0.015867684 -0.078205019 0.015549392
-0.014910938 -0.079142675 0.015959918
-0.013584833 -0.078112788 0.016608894
-0.012616822 -0.079141885 0.016984344
-0.01152956 -0.079553969 0.016916752
-0.010226734 -0.078404963 0.017010152
-0.0091079362 -0.078555949 0.01728946
-0.0079851393 -0.07871066 0.017334223
-0.0068815318 -0.079137616 0.017579854
-0.0057186908 -0.078917935 0.017825544
-0.0045424849 -0.07835786 0.017828017
-0.0034499944 -0.079349868 0.017928988
-0.0022887203 -0.078960851 0.017990828
-0.0011458305 -0.079062305 0.018376619
0 -0.078823358 0.018933028
0.0011455872 -0.079045519 0.019170076
0.0022466362 -0.077508949 0.019064367
0.0034282836 -0.078850523 0.01951009
0.0045439443 -0.078383036 0.019709915
0.0056566633 -0.078061953 0.019195139
0.0068118442 -0.078336209 0.01909411
0.0079527898 -0.07839179 0.018868834
0.0090870196 -0.078375548 0.018623143
0.010254642 -0.078618921 0.018480927
0.011368448 -0.07844229 0.018068552
0.012528551 -0.07858818 0.017173022
0.013777412 -0.079220116 0.016982138
0.014891974 -0.079042017 0.016346544
0.015971495 -0.078716658 0.015507519
0.017270308 -0.079443417 0.01515922
0.018118482 -0.078135952 0.01422435
0.019459635 -0.078983225 0.013422728
0.020900631 -0.080119088 0.012332052
0.0218134 -0.079217084 0.011263371
0.023019437 -0.079417057 0.009473294
0.024250237 -0.079679355 0.0086528957
0.025537888 -0.080096103 0.0083232224
0.027076216 -0.081228651 0.0065959096
0.028164824 -0.080973871 0.005918026
0.02881949 -0.079541795 0.0056414902
0.030611323 -0.081237741 0.0052145123
0.031984981 -0.081739396 0.0050173998
-0.032943845 -0.08000648 0.0057193637
-0.031582613 -0.079541393 0.0069052279
-0.030230071 -0.079063267 0.0070421696
-0.029134193 -0.079245009 0.0075659454
-0.027669968 -0.078398243 0.008631587
-0.026872888 -0.079450279 0.0094645619
-0.025447533 -0.07865601 0.010240138
-0.024203498 -0.078373231 0.010853082
-0.023258006 -0.079077221 0.011959434
-0.022064302 -0.078966975 0.012265563
-0.020689948 -0.078162022 0.013415098
-0.01959222 -0.07836888 0.014122754
-0.018349241 -0.077984281 0.015187979
-0.017181275 -0.077888452 0.015800446
-0.016186235 -0.078618862 0.016062647
-0.014742866 -0.077116534 0.016473681
-0.013737535 -0.077846028 0.016981035
-0.012621731 -0.078025252 0.017200828
-0.011248847 -0.076492153 0.017280877
-0.01025427 -0.07747671 0.017550081
-0.0091187935 -0.077509746 0.017668575
-0.0079814456 -0.077534042 0.017891794
-0.0068699787 -0.077859759 0.018068105
-0.005744033 -0.078118853 0.018344402
-0.0045459662 -0.07728143 0.018344402
-0.0034195853 -0.077510595 0.018453509
-0.002272703 -0.077271901 0.018509388
-0.0011327734 -0.077028587 0.018563092
0 -0.078162149 0.019280642
0.0011327125 -0.077024452 0.019392103
0.0022744061 -0.077329807 0.019533962
0.0034482337 -0.078159966 0.020170003
0.0045379372 -0.077144936 0.020201236
0.0056810826 -0.077262722 0.019975156
0.0068747224 -0.077913523 0.019372821
0.0078388285 -0.076148622 0.019650191
0.009180095 -0.078030802 0.019166678
0.010147546 -0.076670349 0.018622965
0.011325464 -0.07701315 0.018184155
0.012579596 -0.077764772 0.017560929
0.013663117 -0.077424325 0.017364413
0.014880383 -0.07783585 0.016660899
0.015985386 -0.077643305 0.015880644
0.017146628 -0.077731386 0.015419096
0.018706134 -0.07950107 0.014778167
0.019532299 -0.078129195 0.013900667
0.020595882 -0.077806666 0.012884855
0.02183919 -0.078161314 0.011926532
0.023476711 -0.079820812 0.010207474
0.024172883 -0.078274101 0.009242177
0.02552503 -0.078895546 0.0078552961
0.026596338 -0.078632653 0.0070328116
0.027732631 -0.078575782 0.0064713955
0.029175172 -0.079356469 0.006023407
0.03036895 -0.07942649 0.0056327879
0.031744834 -0.079949953 0.005746007
0.033125639 -0.080447987 0.0051729083
-0.031701073 -0.078665622 0.0057182908
-0.030896593 -0.079618141 0.0062619448
-0.029224167 -0.078320764 0.0073943734
-0.028399054 -0.079280697 0.0080121756
-0.026853723 -0.07822606 0.0092166662
-0.025586851 -0.077923596 0.010187745
-0.024345418 -0.07767348 0.010839462
-0.023077261 -0.077308826 0.012425959
-0.021872938 -0.077130884 0.012696087
-0.020694576 -0.077029809 0.0135355
-0.01942507 -0.076557629 0.014068305
-0.018449636 -0.077257857 0.014921933
-0.017208833 -0.07686612 0.015757799
-0.016089411 -0.076999329 0.016365945
-0.014969088 -0.077148378 0.016497731
-0.01390407 -0.077631064 0.017065912
-0.012477389 -0.075998634 0.017361492
-0.011442955 -0.076667801 0.017442018
-0.010339775 -0.076973878 0.017844051
-0.009080939 -0.076052867 0.018098772
-0.0079585398 -0.076174594 0.018204749
-0.0068576494 -0.07657709 0.018406898
-0.0057045622 -0.076441132 0.018595219
-0.0045810542 -0.076732658 0.018595219
-0.0034415231 -0.076860681 0.01897037
-0.0022795405 -0.076364607 0.018911451
-0.0011426402 -0.076556891 0.018911451
0 -0.076781318 0.019807816
0.0011381384 -0.076255269 0.019891053
0.0022869625 -0.07661324 0.01997596
0.0034407931 -0.076844379 0.020189136
0.0045847041 -0.076793797 0.020498991
0.0056528547 -0.07574825 0.020264536
0.0068229767 -0.076189905 0.020191133
0.007885729 -0.07547769 0.020183623
0.008989458 -0.075286709 0.01891464
0.010131764 -0.075425357 0.0190669
0.011244688 -0.075339407 0.018650621
0.012366341 -0.075322263 0.018075645
0.013669831 -0.076323219 0.017278135
0.014892413 -0.076753207 0.01714012
0.016032383 -0.076726399 0.015922427
0.017035568 -0.076092206 0.015568435
0.018149097 -0.075999342 0.014820099
0.019563532 -0.077103332 0.014268309
0.020768965 -0.077306703 0.012280554
0.022325544 -0.078726918 0.011800259
0.023108855 -0.077414669 0.010128707
0.024131078 -0.076989628 0.0083118975
0.025696436 -0.07825733 0.0078978539
0.026371771 -0.076822117 0.0074339509
0.028518569 -0.079614334 0.0067718625
0.029184699 -0.078214996 0.0064452887
0.03036781 -0.078255512 0.0059995055
0.031684682 -0.078624956 0.0061318874
0.032725148 -0.0783066 0.005184114
0.033942472 -0.078418821 0.0050729513
-0.031552196 -0.077127583 0.0051263273
-0.031027962 -0.078763291 0.0055194199
-0.029402044 -0.0776214 0.0069116056
-0.028271066 -0.07774543 0.0077947974
-0.026907036 -0.077211499 0.0085587204
-0.025727393 -0.077182181 0.0096437037
-0.02446554 -0.076891698 0.010862082
-0.023322927 -0.07696566 0.011901826
-0.021910027 -0.076108515 0.013255864
-0.020812867 -0.076313846 0.01347658
-0.019517146 -0.075772449 0.014599741
-0.018257147 -0.075310729 0.015396267
-0.017249973 -0.075899884 0.016248554
-0.016037576 -0.075605713 0.01686278
-0.014934396 -0.075820781 0.017041296
-0.013597639 -0.074787013 0.017405182
-0.012577798 -0.075466789 0.017726362
-0.011497761 -0.075885229 0.017737329
-0.010194752 -0.074761517 0.018164337
-0.0092075132 -0.075961977 0.018332124
-0.0079785902 -0.075226709 0.018529892
-0.0068693669 -0.075563036 0.018562704
-0.0057292311 -0.075625852 0.019110203
-0.00458181 -0.075599864 0.019102782
-0.0034169005 -0.075171813 0.019465119
-0.0022835671 -0.07535772 0.019389093
-0.0011413683 -0.07533031 0.019427329
0 -0.074945018 0.019756109
0.0011390561 -0.075177699 0.019978076
0.00227371 -0.075032428 0.02028662
0.0034555984 -0.076023169 0.020504028
0.004565747 -0.075334825 0.020521998
0.0056416178 -0.074469358 0.020508111
0.0071457038 -0.078602739 0.020301998
0.0083056549 -0.07831046 0.019431174
0.009499521 -0.078371055 0.018303216
0.010668876 -0.078238428 0.018234193
0.01146309 -0.075656392 0.018209994
0.012535647 -0.075213879 0.017882645
0.013604937 -0.074827157 0.017814398
0.014641874 -0.074335672 0.016761631
0.015947334 -0.075180285 0.016278595
0.017266391 -0.075972125 0.015882313
0.018103447 -0.074676715 0.015570015
0.019403465 -0.075331099 0.014300942
0.02100106 -0.077003881 0.012001425
0.021818796 -0.075791605 0.011515439
0.023433531 -0.077330656 0.009652704
0.024529343 -0.077092223 0.0085912049
0.025722045 -0.07716614 0.0083723068
0.027088672 -0.077732712 0.0077006221
0.028134042 -0.077368617 0.0071488023
0.02921682 -0.077132404 0.006095767
0.030559085 -0.077573061 0.0054896772
0.031743977 -0.077596389 0.0054504573
0.032747515 -0.077190571 0.0050573647
-0.029430991 -0.076520577 0.0064401329
-0.028148698 -0.076236054 0.0071831346
-0.027162829 -0.076764517 0.0088801682
-0.025600458 -0.075637713 0.0091621578
-0.024283083 -0.075161926 0.010919392
-0.023489514 -0.076340921 0.01174739
-0.022184916 -0.075895764 0.013689667
-0.020807408 -0.075137861 0.013949335
-0.019764176 -0.075568907 0.014800042
-0.01823961 -0.074098416 0.015490234
-0.017262742 -0.074805222 0.016352594
-0.016208712 -0.075254731 0.016959071
-0.014913042 -0.074565209 0.017455339
-0.013733378 -0.07438913 0.017580688
-0.012649386 -0.07474637 0.018058002
-0.0113627 -0.073857546 0.018058002
-0.010253318 -0.074051738 0.018248469
-0.0091641918 -0.074459054 0.01841265
-0.0079427995 -0.073754571 0.018709123
-0.0068693613 -0.074418083 0.018815339
-0.0057127979 -0.074266374 0.019388258
-0.0045523532 -0.073975742 0.019395262
-0.0034311358 -0.074341275 0.019519091
-0.0022875811 -0.074346386 0.019513369
-0.0011318733 -0.073571764 0.019607216
0 -0.074778482 0.019628614
0.0011355247 -0.07380911 0.020000905
0.0022766269 -0.073990375 0.019956201
0.0034362476 -0.074452028 0.02008605
0.0044963681 -0.073065981 0.020152181
0.0058682752 -0.076287575 0.019727767
0.0068868864 -0.074607939 0.019679338
0.0079981713 -0.074268736 0.019845068
0.0090527236 -0.073553376 0.018922746
0.010311908 -0.074474894 0.018435359
0.011537913 -0.074996434 0.018226594
0.012869544 -0.076047309 0.018024832
0.013611475 -0.073728822 0.017326653
0.014622056 -0.073110275 0.016594172
0.016171247 -0.075080782 0.016381949
0.01717517 -0.074425735 0.015454292
0.018193882 -0.073912643 0.015121698
0.019564684 -0.074806146 0.014248431
0.020878538 -0.075394727 0.012171149
0.022120237 -0.075674497 0.011744708
0.023433596 -0.076159187 0.0097229183
0.024558751 -0.076015182 0.0087817311
0.026164601 -0.077304505 0.008276999
0.027088765 -0.076555207 0.00780195
0.027992697 -0.075813554 0.0068132877
0.029295847 -0.0761692 0.0062578619
0.030497599 -0.076243997 0.0055040419
0.031512916 -0.075864427 0.0057252645
0.032926071 -0.076435521 0.0052872598
0.033552065 -0.075202905 0.0052657425
-0.029502286 -0.07552585 0.0052519143
-0.028491274 -0.075976729 0.006657511
-0.027284358 -0.075921692 0.0081964731
-0.025530813 -0.074271455 0.0099930465
-0.024623757 -0.075043827 0.010811567
-0.023508893 -0.075228453 0.01234892
-0.021969968 -0.074004106 0.013516426
-0.020807292 -0.073981486 0.014914781
-0.019466354 -0.073285095 0.015726984
-0.018417543 -0.073670171 0.016349107
-0.017133994 -0.073105037 0.017093986
-0.015948037 -0.072905309 0.017618269
-0.015005471 -0.073873088 0.018347383
-0.013664654 -0.07287816 0.018225968
-0.012622535 -0.073440209 0.018079013
-0.011378428 -0.072821938 0.018151045
-0.010319505 -0.073383145 0.018531591
-0.009123235 -0.07298588 0.018644989
-0.0080841649 -0.073912367 0.018755108
-0.0067984737 -0.072517052 0.018813759
-0.0057176249 -0.0731856 0.019168377
-0.0045822621 -0.073316194 0.019545734
-0.0034201557 -0.07296332 0.019705057
-0.0023039985 -0.07372795 0.019455284
-0.0011445235 -0.073249504 0.01943779
0 -0.072680995 0.019802123
0.0011349067 -0.072634026 0.020112544
0.0022733223 -0.072746314 0.020113051
0.0033692119 -0.071876526 0.020452529
0.0046085548 -0.073736876 0.020210862
0.0058378265 -0.074724182 0.02003634
0.006905464 -0.073658288 0.019991368
0.0080879992 -0.073947422 0.019388914
0.0092585739 -0.074068591 0.019109368
0.01033703 -0.073507763 0.018801719
0.011865814 -0.075941212 0.018815279
0.012752376 -0.074195638 0.018111825
0.013796066 -0.073579021 0.017654091
0.015352651 -0.075582281 0.016892046
0.015788786 -0.072177306 0.015830547
0.017009914 -0.072575636 0.015499294
0.018456465 -0.073825859 0.014845669
0.019407427 -0.073063254 0.012984872
0.02087515 -0.074222758 0.011961669
0.021982675 -0.07404691 0.01043734
0.022983665 -0.073547728 0.0092603862
0.024812669 -0.075619563 0.0087572336
0.025524126 -0.074252002 0.0080424547
0.026732299 -0.074385531 0.0073753297
0.028170476 -0.075121269 0.0069968104
0.029408127 -0.075284801 0.0066049695
0.030740691 -0.075669393 0.0061794817
0.032140777 -0.076185547 0.0061673224
0.032728758 -0.07480859 0.0055864751
0.034433894 -0.07599204 0.0051281452
-0.028638352 -0.075175673 0.0054031312
-0.027196085 -0.074493624 0.007580936
-0.025859486 -0.07405217 0.0088721812
-0.024548201 -0.073644601 0.010402858
-0.023119563 -0.072826624 0.011979222
-0.022152256 -0.073452219 0.013408065
-0.020946067 -0.073311239 0.015327752
-0.019774212 -0.073280901 0.015535414
-0.018590547 -0.073200278 0.016847283
-0.017213147 -0.072295219 0.017446816
-0.01642989 -0.07393451 0.017560959
-0.014828118 -0.071859337 0.017931104
-0.013736019 -0.072114095 0.018394351
-0.012589576 -0.072103932 0.018346697
-0.01139774 -0.07180576 0.018302351
-0.010222423 -0.071556956 0.018424153
-0.0091396635 -0.071974851 0.018883795
-0.007930262 -0.071372353 0.018874586
-0.0069736736 -0.073223576 0.018885076
-0.0057352013 -0.072263539 0.019016564
-0.0045649149 -0.07189741 0.019038379
-0.0034590063 -0.07263913 0.019363016
-0.0022715854 -0.071554936 0.01927489
-0.0011501089 -0.072456859 0.019250631
0 -0.071440779 0.019664705
0.0011465172 -0.072230585 0.020045012
0.0022731682 -0.071604796 0.020417064
0.0034480491 -0.072409034 0.020345509
0.0046467269 -0.073185951 0.020408154
0.0057644192 -0.072631687 0.019910306
0.0070726452 -0.074262775 0.019708008
0.0080018397 -0.07201656 0.019547492
0.0092321755 -0.072703384 0.019210935
0.010480407 -0.073362842 0.018732429
0.011543186 -0.072722077 0.018318444
0.01263777 -0.072379954 0.018359423
0.013929515 -0.073129959 0.017505378
0.015229133 -0.073802724 0.016631544
0.016144561 -0.072650522 0.01600951
0.017429406 -0.073203504 0.015080035
0.018248945 -0.071855225 0.013931543
0.019927235 -0.073847994 0.012126058
0.020823468 -0.072882138 0.010801703
0.022369457 -0.074172407 0.010091484
0.0238297 -0.075063556 0.0092387199
0.024568627 -0.073705882 0.0087261498
0.025954431 -0.074324057 0.007865876
0.02728275 -0.074731015 0.0076078176
0.028345214 -0.074406184 0.0071160197
0.029887835 -0.075317346 0.0069184005
0.030892059 -0.074853837 0.0063446462
0.031855196 -0.074328788 0.0061736703
0.033667017 -0.075750791 0.005982399
0.03446532 -0.074872933 0.0052531064
-0.028468778 -0.073544346 0.0052501857
-0.026923075 -0.072575249 0.0066253841
-0.025971433 -0.073192216 0.0089932382
-0.024657607 -0.072798647 0.010222435
-0.023384271 -0.072491243 0.012052715
-0.022064069 -0.071998544 0.01323393
-0.020707048 -0.071324274 0.015238374
-0.019659093 -0.071697868 0.015713722
-0.018499708 -0.071686365 0.016730636
-0.017302254 -0.071515985 0.017530769
-0.016272044 -0.072061911 0.017739087
-0.014997111 -0.07152468 0.017985255
-0.013764232 -0.071115203 0.018342793
-0.012583975 -0.070927858 0.018182725
-0.011309866 -0.070121169 0.018685341
-0.010322461 -0.071110286 0.018504947
-0.0091268225 -0.070732869 0.019084156
-0.0081137531 -0.071864665 0.019022614
-0.0069030598 -0.07133162 0.018918395
-0.0055968971 -0.069401525 0.018954247
-0.0045589795 -0.070664182 0.019156843
-0.003443236 -0.071160212 0.019200087
-0.0022809145 -0.070708349 0.019426107
-0.0011373629 -0.070516497 0.019426107
0 -0.070837572 0.019821018
0.0011371803 -0.070505172 0.020050734
0.0022698338 -0.070364848 0.020259351
0.0035340108 -0.073036224 0.020579815
0.004633741 -0.071822986 0.020403862
0.0057950574 -0.071858712 0.020302445
0.0068975803 -0.071274996 0.020099163
0.0079292431 -0.070230439 0.020150542
0.0092227552 -0.071476355 0.020070761
0.010459415 -0.072053745 0.018761635
0.011557585 -0.071657024 0.018547207
0.01291603 -0.072799444 0.018542945
0.01380805 -0.071341589 0.017977089
0.015376033 -0.073331848 0.01675418
0.016369155 -0.072491974 0.015873164
0.017587902 -0.072696663 0.014789432
0.019073991 -0.073911719 0.013832241
0.019735614 -0.071976945 0.012408018
0.020994982 -0.072316043 0.010607034
0.022424582 -0.073174953 0.010357738
0.023485212 -0.072804153 0.0095441043
0.024274565 -0.071667768 0.0083640218
0.025740059 -0.072540164 0.0078266859
0.027092237 -0.073031247 0.0075570047
0.028054539 -0.072474226 0.0071823895
0.029416524 -0.072952978 0.0067307949
0.030651527 -0.073092103 0.0059788227
0.031572618 -0.072500087 0.0057683885
0.033231262 -0.073583506 0.0053088665
-0.027211906 -0.072170712 0.0063426793
-0.025794325 -0.071520627 0.0087753534
-0.025617355 -0.074412316 0.010219157
-0.024257064 -0.073984049 0.012589931
-0.023375208 -0.075046718 0.013697147
-0.021666801 -0.073426381 0.016058207
-0.019727912 -0.070788391 0.016233802
-0.018256862 -0.069604285 0.017268479
-0.01733469 -0.070494413 0.017834812
-0.015999889 -0.069713801 0.017784297
-0.014963516 -0.070213422 0.018266141
-0.013833271 -0.070319131 0.0186854
-0.012680067 -0.070316739 0.01826641
-0.01138321 -0.069437586 0.018786609
-0.010768728 -0.072988048 0.018982589
-0.0095259538 -0.072635397 0.019623786
-0.0080769099 -0.070384495 0.019425541
-0.007021979 -0.071390122 0.019271821
-0.0058819889 -0.071760267 0.019268781
-0.0045257364 -0.069017477 0.019613981
-0.0033991258 -0.069115557 0.019357443
-0.0022689202 -0.069202065 0.019656211
-0.0011549911 -0.070454463 0.019529611
0 -0.068734914 0.019842446
0.0011334355 -0.069139563 0.020179719
0.0023334646 -0.071170665 0.020708859
0.0034279877 -0.069702417 0.020918489
0.0046643191 -0.071130864 0.020918489
0.0056527494 -0.068963543 0.020735353
0.0068141185 -0.069276869 0.020894706
0.0081655551 -0.071156979 0.020816416
0.0090720356 -0.069174275 0.020288587
0.010490949 -0.071105324 0.019034028
0.011696706 -0.071349904 0.018773913
0.012831387 -0.071155876 0.018778056
0.013788718 -0.070092648 0.018063247
0.015534745 -0.072893798 0.0168809
0.016183913 -0.070515625 0.015806794
0.017105594 -0.069562748 0.014647394
0.01892565 -0.072154045 0.013053268
0.020286396 -0.072792366 0.012105823
0.021315323 -0.072235264 0.010641456
0.02231317 -0.07163702 0.010172486
0.023288874 -0.071031064 0.0096537173
0.024709428 -0.071775004 0.0083396137
0.025833115 -0.071628183 0.0077660978
0.026935063 -0.071436472 0.0077773035
0.028573237 -0.07262364 0.0069935322
0.029481221 -0.071934178 0.0067644417
0.030557666 -0.071692988 0.0057593286
0.031708058 -0.071636729 0.0052479804
-0.027651669 -0.072134785 0.0062096417
-0.026241753 -0.071568422 0.009308219
-0.025582306 -0.073092304 0.010747761
-0.023766268 -0.071298808 0.013973564
-0.021981992 -0.069416814 0.014718354
-0.020811016 -0.069370054 0.016597599
-0.020711001 -0.073097654 0.016977012
-0.018728476 -0.070231788 0.018421888
-0.017207278 -0.068829112 0.01857391
-0.0160718 -0.068879142 0.018447697
-0.014978086 -0.069129623 0.018833131
-0.01374592 -0.068729602 0.01909855
-0.012723204 -0.069399297 0.018784881
-0.011953289 -0.071719736 0.019131243
-0.010395848 -0.069305658 0.019025356
-0.0092617022 -0.069462769 0.019564688
-0.008010597 -0.068662263 0.019743383
-0.0069907256 -0.069907255 0.019367933
-0.0058857854 -0.070629425 0.019618601
-0.0046610176 -0.069915265 0.019929826
-0.0034530894 -0.069061786 0.019761771
-0.0022553252 -0.067659758 0.019844323
-0.0011393049 -0.068358295 0.020190805
0 -0.067430399 0.020220369
0.0011604979 -0.06962987 0.020574152
0.0023118393 -0.069355175 0.02114287
0.0035289072 -0.070578143 0.021345198
0.0045479941 -0.068219908 0.022051662
0.0056979251 -0.068375103 0.022200644
0.0068493327 -0.068493329 0.022311419
0.0080562038 -0.069053173 0.021811277
0.0091184946 -0.068388708 0.021553904
0.0099476194 -0.066317461 0.01991424
0.011569132 -0.069414794 0.019462228
0.01256048 -0.06851171 0.019249439
0.013835767 -0.069178835 0.017845124
0.015040596 -0.069418132 0.016720772
0.016322311 -0.069952756 0.015179753
0.017739471 -0.070957884 0.01456055
0.018737238 -0.070264645 0.01327613
0.020070732 -0.070837878 0.011770129
0.021943336 -0.073144451 0.010209829
0.021932293 -0.069259867 0.010090619
0.02347918 -0.070437543 0.0088509023
0.024841568 -0.070975907 0.0080533028
0.025845774 -0.070488468 0.007779181
0.027124478 -0.070759505 0.0073366165
0.028315717 -0.070789292 0.0065282881
0.029260084 -0.070224203 0.0058725476
0.030992912 -0.071522102 0.0051802099
-0.027469013 -0.070463993 0.0054937303
-0.02646837 -0.070983358 0.0079677403
-0.024973584 -0.070163883 0.011659831
-0.023559891 -0.069501676 0.014463902
-0.021896809 -0.067995355 0.016631514
-0.020549593 -0.067357004 0.017186791
-0.019484548 -0.06762284 0.018723607
-0.018500948 -0.068222247 0.019361377
-0.018409001 -0.072408736 0.019726545
-0.016026882 -0.06754186 0.019453287
-0.014903933 -0.06764093 0.019726545
-0.013637275 -0.067049943 0.019557595
-0.013158062 -0.070575058 0.01889497
-0.011473726 -0.067694984 0.01900062
-0.010482604 -0.06871929 0.01900062
-0.009229701 -0.068069041 0.019322842
-0.0080188168 -0.067587174 0.019130588
-0.0069681895 -0.068520531 0.019187212
-0.0057357685 -0.067682065 0.019450068
-0.0046364921 -0.068388261 0.019905508
-0.0035015636 -0.068864085 0.019907176
-0.002361089 -0.069652125 0.020340443
-0.0011354844 -0.066993579 0.020632029
0 -0.065829493 0.020953506
0.0011649024 -0.068729237 0.021544367
0.0022983556 -0.06780149 0.022084117
0.003532077 -0.069464177 0.02252695
0.0045843585 -0.067619286 0.023555368
0.0056468509 -0.066632845 0.024006218
0.0068001053 -0.066867702 0.023803115
0.0078679137 -0.066315271 0.023314476
0.0090869637 -0.067016356 0.023248702
0.010091863 -0.066157766 0.0220415
0.011323942 -0.066811256 0.021671563
0.012705998 -0.068150349 0.019952208
0.014082183 -0.069237404 0.018517733
0.01513818 -0.068704046 0.017222166
0.016094206 -0.067825578 0.015829951
0.01738283 -0.068372466 0.01508224
0.018632401 -0.068706982 0.013376117
0.020199377 -0.07010372 0.012206167
0.02073797 -0.067974456 0.010394096
0.023264276 -0.072241701 0.010104746
0.023377396 -0.068963319 0.0091999769
0.024767941 -0.069586121 0.0081561804
0.025883691 -0.069415353 0.0077291131
0.026948752 -0.069129407 0.0069219768
0.02882985 -0.07087338 0.0057628155
0.029809205 -0.070349723 0.0054090917
0.030810194 -0.069915436 0.0052099228
-0.028048441 -0.07073085 0.0051529408
-0.025576232 -0.067428246 0.0092805028
-0.025515538 -0.070471488 0.012963772
-0.022866614 -0.066313177 0.015526146
-0.021627655 -0.066021264 0.017517388
-0.020555245 -0.066233568 0.018797666
-0.019381262 -0.066124305 0.02043885
-0.018380374 -0.066628851 0.020715654
-0.017797541 -0.068817161 0.021061003
-0.016213674 -0.067170933 0.021050364
-0.014637345 -0.065305077 0.021020055
-0.014259161 -0.068919279 0.020705014
-0.012737603 -0.06716191 0.019409508
-0.011535334 -0.06690494 0.019409508
-0.010537526 -0.067908496 0.019158542
-0.0092176115 -0.066827677 0.019626468
-0.008036796 -0.0665906 0.019364864
-0.0068834797 -0.066540308 0.019230187
-0.0057942932 -0.067213804 0.019635618
-0.0045856182 -0.066491462 0.019878834
-0.0034347202 -0.066404596 0.019801378
-0.0023210368 -0.067310065 0.020455807
-0.0011496256 -0.066678286 0.020557314
0 -0.067763127 0.021293253
0.0011554125 -0.067013927 0.022197276
0.0023047121 -0.066836648 0.022755802
0.00339598 -0.065655611 0.02345714
0.0045756288 -0.066346616 0.024506658
0.0057827206 -0.067079559 0.025154412
0.0067884647 -0.065621823 0.024855763
0.0078457994 -0.065008052 0.025087714
0.0091576837 -0.066393204 0.025619239
0.009975736 -0.064288072 0.02344653
0.011138909 -0.064605668 0.023260951
0.012156216 -0.064096414 0.022121519
0.014008552 -0.067708001 0.01886791
0.014968969 -0.066784635 0.017370194
0.016403731 -0.06795831 0.015614599
0.017751887 -0.068640634 0.01438126
0.01874654 -0.067956209 0.013022751
0.019988574 -0.068196312 0.01172778
0.02090247 -0.067352407 0.01027292
0.022113202 -0.06750346 0.0095461607
0.023797438 -0.069012567 0.0084854662
0.024685204 -0.068178184 0.0080622733
0.026195766 -0.06906157 0.0067334175
0.02708053 -0.068290032 0.0061820149
0.02839829 -0.068629198 0.005630374
0.029616565 -0.068710431 0.0052522719
0.030872211 -0.068868779 0.0051035881
0.032152787 -0.069068946 0.0050523579
-0.025601765 -0.066331849 0.0073658228
-0.024607403 -0.066791527 0.012404472
-0.022908045 -0.065287925 0.01640144
-0.021737536 -0.065212607 0.017721236
-0.020271569 -0.064193301 0.020244092
-0.01922713 -0.064467438 0.021248043
-0.018622944 -0.066344239 0.021682978
-0.017069859 -0.064865462 0.021735966
-0.016554683 -0.067401215 0.021353602
-0.016111225 -0.070641525 0.020940125
-0.013980121 -0.066405572 0.020420045
-0.012873637 -0.066708848 0.019158542
-0.011620638 -0.066237636 0.01914385
-0.010380809 -0.065745123 0.018948138
-0.0093492046 -0.066613078 0.01933378
-0.00804279 -0.065491289 0.018459409
-0.0068495101 -0.065070346 0.01835981
-0.0057495437 -0.065544799 0.019009858
-0.0045834379 -0.065313995 0.019529969
-0.0034155399 -0.064895257 0.019385785
-0.0023123957 -0.065903284 0.020130426
-0.0011545639 -0.065810144 0.020594835
0 -0.065921463 0.022040009
0.0011538938 -0.065771945 0.022650778
0.0022781589 -0.064927526 0.023462564
0.0034118849 -0.06482581 0.024262935
0.0045739347 -0.065178573 0.024784356
0.0056965472 -0.064940639 0.025510132
0.0069306474 -0.065841153 0.025272131
0.007789094 -0.063425481 0.025517225
0.0089705968 -0.063915506 0.025970161
0.010025062 -0.06349206 0.024782151
0.011199199 -0.063835435 0.023843706
0.012314293 -0.063810423 0.022952825
0.013438658 -0.063833624 0.020306826
0.014698307 -0.064446427 0.018467814
0.016336478 -0.066512808 0.01650238
0.017585799 -0.066826038 0.015045494
0.018305436 -0.065213114 0.013274133
0.019752767 -0.066229865 0.011900872
0.021196142 -0.067121118 0.010138839
0.022038145 -0.066114441 0.0094320774
0.024228375 -0.069050871 0.008504957
0.025112046 -0.068161272 0.0065361857
0.025710164 -0.066612698 0.0062372088
0.027342269 -0.067761272 0.0056918561
0.028513759 -0.067720182 0.0052773058
0.029651707 -0.06760589 0.0051035881
0.030870825 -0.067678347 0.00508371
-0.026961504 -0.06862928 0.0061591566
-0.023581373 -0.06288366 0.012507737
-0.022736365 -0.063661821 0.017042637
-0.021663453 -0.063850179 0.019566327
-0.020509202 -0.063806407 0.021645546
-0.019254977 -0.063428164 0.022365242
-0.01815439 -0.063540362 0.022732794
-0.017178465 -0.064132936 0.022646904
-0.016203469 -0.064813875 0.021964461
-0.01479798 -0.063745148 0.021615237
-0.014082408 -0.065717898 0.020841837
-0.013033069 -0.066350169 0.019846708
-0.011552398 -0.064693429 0.019480228
-0.010456433 -0.065062247 0.019130349
-0.0094276508 -0.065993555 0.019081593
-0.0080329562 -0.064263649 0.018825322
-0.0070168925 -0.065490998 0.01850614
-0.0058131902 -0.065107733 0.018369406
-0.0046592122 -0.065228969 0.018948138
-0.0034630478 -0.064643562 0.019611686
-0.0022952091 -0.064265855 0.020142019
-0.0011460921 -0.064181156 0.021182418
0 -0.065095752 0.022673488
0.0011281797 -0.063178062 0.023602068
0.0022411067 -0.062750988 0.024740219
0.0033961521 -0.063394837 0.025623471
0.0044498774 -0.062298287 0.026039153
0.005627987 -0.063033454 0.027167231
0.0068483874 -0.063918285 0.027156293
0.0078909574 -0.063127659 0.027162701
0.009042182 -0.063295275 0.02737999
0.0099553745 -0.061944555 0.026627392
0.01143911 -0.064059019 0.025239289
0.01242811 -0.063270383 0.024260789
0.013563544 -0.063296534 0.022651345
0.014653903 -0.063124508 0.019390523
0.016016781 -0.064067125 0.017103851
0.017126409 -0.063938595 0.015337914
0.018581023 -0.065033585 0.01380232
0.019786878 -0.065180302 0.011471033
0.020984683 -0.065285683 0.010242939
0.022034628 -0.06494417 0.008749187
0.023921743 -0.066980883 0.007134378
0.02475431 -0.066011496 0.0062730014
0.026096916 -0.066428512 0.0056835711
0.027245743 -0.066337459 0.0055542588
0.028423268 -0.066320963 0.005440414
-0.02571528 -0.064288199 0.0069277883
-0.023770213 -0.062255319 0.013157248
-0.022419669 -0.061654087 0.019485205
-0.021300113 -0.061658222 0.021567374
-0.020368744 -0.062237825 0.022743911
-0.019175079 -0.062037017 0.023437887
-0.018366558 -0.06313505 0.023437887
-0.017245887 -0.063234918 0.023163468
-0.01562872 -0.06139854 0.022860676
-0.014886498 -0.062981337 0.022283345
-0.013489575 -0.06182722 0.021853954
-0.012810546 -0.064052731 0.020838052
-0.011548034 -0.063514188 0.02031219
-0.010319283 -0.063062288 0.019426912
-0.0091765933 -0.06308908 0.019394964
-0.0080648661 -0.063366801 0.019340247
-0.0070281727 -0.064424917 0.019280881
-0.0057711024 -0.063482128 0.019197345
-0.004628954 -0.06364812 0.019522488
-0.0034982963 -0.064135432 0.020044506
-0.0022877536 -0.062913224 0.020655811
-0.0011566224 -0.063614234 0.021500438
0 -0.064328261 0.022416025
0.0011258514 -0.061921827 0.023601234
0.0022956748 -0.063131057 0.0248532
0.003406717 -0.062456477 0.02569133
0.0045490144 -0.062548943 0.026348501
0.005591365 -0.061505012 0.028243065
0.006819075 -0.062508188 0.028220922
0.0079910876 -0.062787116 0.02850607
0.0089324238 -0.061410416 0.027999103
0.010224983 -0.062486004 0.027002811
0.011291586 -0.062103726 0.025853246
0.012510383 -0.062551916 0.02461198
0.013903975 -0.063726552 0.023693413
0.015145388 -0.06407664 0.019758642
0.016193952 -0.0636191 0.017595053
0.017676989 -0.064815626 0.015716225
0.018974427 -0.065224588 0.013735145
0.020199653 -0.065351814 0.011508912
0.021028344 -0.064253271 0.0097776949
0.022758361 -0.065879464 0.0078135133
0.023875365 -0.065657251 0.007022351
0.024671083 -0.064614743 0.0059161782
0.026183756 -0.065459386 0.006046921
0.027128043 -0.064871408 0.0053637922
0.028900431 -0.066230156 0.0050196052
-0.025243731 -0.061961886 0.0056032538
-0.024134018 -0.0620589 0.012076378
-0.022726003 -0.06136021 0.017671168
-0.022105824 -0.06282708 0.021761268
-0.019977197 -0.059931591 0.023818731
