ply
format ascii 1.0
comment PCL generated
element vertex 1268
property float x
property float y
property float z
element camera 0
property float view_px
property float view_py
property float view_pz
property float x_axisx
property float x_axisy
property float x_axisz
property float y_axisx
property float y_axisy
property float y_axisz
property float z_axisx
property float z_axisy
property float z_axisz
property float focal
property float scalex
property float scaley
property float centerx
property float centery
property int viewportx
property int viewporty
property float k1
property float k2
end_header
0.0091631748 -0.076741584 0.015351206
0.010272445 -0.076472647 0.015481323
0.011210022 -0.075107142 0.015884727
0.012969072 -0.07899344 0.015861064
0.014201796 -0.079293363 0.016254395
0.014884508 -0.076712467 0.016617686
0.016171128 -0.077390395 0.016563267
0.016756522 -0.074845798 0.01640138
0.017933175 -0.075095169 0.016136736
0.019362038 -0.076309212 0.015544027
0.020564392 -0.076545238 0.014644831
0.022998683 -0.08110062 0.014236987
0.022730919 -0.076148577 0.012732446
0.024003495 -0.076582581 0.012115061
0.025570814 -0.07787475 0.011585504
0.02623068 -0.076411106 0.011041313
0.028291201 -0.078979604 0.0099604726
0.028955484 -0.077600695 0.0096177757
0.029958991 -0.077202015 0.0089857578
0.031488016 -0.078136928 0.0091102123
0.032449864 -0.077647887 0.0087782741
0.033731312 -0.077930965 0.0084546506
0.034944516 -0.078042746 0.0079789758
0.036619611 -0.07914561 0.0077883899
0.037228804 -0.07794781 0.0075374544
0.038700629 -0.078574009 0.0067629218
0.039572455 -0.07798101 0.0058593452
0.040719185 -0.077948153 0.0050719082
-0.01649134 -0.077744894 0.0051006377
-0.015298862 -0.077671148 0.0052490234
-0.013939203 -0.076665618 0.0052909255
-0.012878878 -0.077273265 0.0065939426
-0.011761148 -0.077623576 0.0068023801
-0.01040006 -0.076267108 0.0075701773
-0.0094333328 -0.077824995 0.0077536404
-0.0081710815 -0.077041626 0.0081815124
-0.0069985911 -0.076984502 0.0086899102
-0.0058472655 -0.077183902 0.0092473626
-0.0046592033 -0.076876856 0.0094359815
-0.0034897327 -0.07677412 0.010480225
-0.0023145988 -0.076381765 0.010625929
-0.0011619955 -0.076691695 0.011447489
0 -0.076398775 0.011641264
0.0011587096 -0.076474838 0.01212135
0.0023087577 -0.076189004 0.013234705
0.003501415 -0.077031136 0.01340121
0.0046499553 -0.076724261 0.013928354
0.0057575223 -0.075999297 0.014077246
0.0069540567 -0.076494619 0.014085382
0.0080028642 -0.075455576 0.014717996
0.0091680912 -0.075636752 0.015058339
0.010259355 -0.07523527 0.01505506
0.011559807 -0.076294728 0.015825182
0.013140484 -0.078842901 0.015848994
0.014145018 -0.077797599 0.016614258
0.014755721 -0.074913658 0.01678139
0.016308302 -0.076881997 0.016963005
0.017197074 -0.075667128 0.016782373
0.017330086 -0.071486607 0.016603351
0.018725505 -0.072699025 0.016218781
0.020682663 -0.075836428 0.015456498
0.021351103 -0.074166991 0.014841914
0.024060695 -0.079400294 0.013094932
0.024138875 -0.075865038 0.012278855
0.025397247 -0.076191738 0.012021393
0.026907036 -0.077211499 0.011176467
0.027843954 -0.076570876 0.010637164
0.029178865 -0.077032201 0.010028273
0.030210191 -0.07668741 0.0094663501
0.031357136 -0.076650776 0.0094892681
0.032531668 -0.076681785 0.0091022849
0.033960361 -0.077289097 0.0086005926
0.035104968 -0.07723093 0.008162111
0.035986193 -0.076615758 0.0079264939
0.037215497 -0.076756962 0.0071454644
0.037938517 -0.075877033 0.0063778758
0.040331345 -0.078290261 0.0059055984
0.041120462 -0.077541448 0.0053416193
-0.017722499 -0.0767975 0.005150646
-0.016672766 -0.077409267 0.0050281882
-0.015257007 -0.076285034 0.0055133104
-0.014112954 -0.07644517 0.0056355894
-0.012992673 -0.07677488 0.0059996843
-0.011663239 -0.075811051 0.0059996843
-0.010525461 -0.076017223 0.0073750913
-0.0093438048 -0.075918421 0.0078990459
-0.0081157293 -0.075360343 0.0082279444
-0.0069872886 -0.075695626 0.0083816946
-0.0058545833 -0.076109581 0.0090688467
-0.0046321936 -0.075273149 0.0095827878
-0.0034972243 -0.075773194 0.010169506
-0.0023361442 -0.075924687 0.010656387
-0.0011627276 -0.075577296 0.011482447
0 -0.075834647 0.01158008
0.0011579809 -0.075268753 0.011948764
0.0023127755 -0.075165197 0.012967765
0.0034994152 -0.075820662 0.013441026
0.0046044444 -0.074822217 0.013702303
0.005746875 -0.074709371 0.014092952
0.0067426716 -0.073045611 0.014268547
0.0079291696 -0.073628008 0.014833659
0.0090439627 -0.073482193 0.014845282
0.010084665 -0.072833695 0.015411675
0.011864005 -0.077116027 0.015997499
0.012948507 -0.076513909 0.016308814
0.013772796 -0.074602641 0.016785383
0.014990534 -0.074952669 0.017301172
0.015946455 -0.07403712 0.017323703
0.017388629 -0.075350724 0.017169535
0.01860738 -0.075592481 0.017039537
0.019027194 -0.072751038 0.016857892
0.020305116 -0.073324025 0.015792131
0.021941215 -0.075062051 0.014886141
0.02293762 -0.074547268 0.013563037
0.025549116 -0.079080597 0.012963116
0.025895897 -0.076510608 0.012184948
0.026613647 -0.075212479 0.01174435
0.027794415 -0.075276539 0.011083245
0.02902404 -0.075462505 0.010778189
0.030371282 -0.075928204 0.010151893
0.031167001 -0.075031668 0.010251343
0.032630298 -0.075748906 0.0096907914
0.033509821 -0.075108215 0.0093122721
0.034904782 -0.075627029 0.0080672801
0.036430132 -0.076385766 0.0078051984
0.037203897 -0.075570412 0.0070379078
0.038761109 -0.076347634 0.0062118471
0.040115036 -0.07669051 0.0056549311
0.040267568 -0.074782625 0.0050375164
-0.018925492 -0.075701967 0.0050907433
-0.017695092 -0.075499058 0.0056209266
-0.016452188 -0.075209998 0.0056180358
-0.015423036 -0.075928792 0.0059378445
-0.014037718 -0.07486783 0.0058859885
-0.01294111 -0.075293735 0.0064018667
-0.01171978 -0.075006597 0.0064243078
-0.010618526 -0.075509518 0.0072825551
-0.0093778474 -0.075022779 0.008060813
-0.0083359294 -0.076214209 0.0082319379
-0.0069365026 -0.073989362 0.0085604489
-0.0058813426 -0.075281188 0.0091141462
-0.0046852427 -0.074963883 0.0097412765
-0.0035183909 -0.075059004 0.010054141
-0.0023584121 -0.075469188 0.010871291
-0.0011699046 -0.074873894 0.010927439
0 -0.073927537 0.011636198
0.0011542012 -0.073868878 0.011927843
0.0023251795 -0.074405745 0.012711853
0.0034426146 -0.073442444 0.013839871
0.0046041729 -0.073666766 0.013965517
0.0058840811 -0.075316235 0.014036596
0.0070478753 -0.075177334 0.014345765
0.0081037609 -0.074091531 0.014657825
0.0090896441 -0.072717153 0.014507741
0.010535282 -0.074917562 0.015826374
0.012109811 -0.077502795 0.016586185
0.013006031 -0.075671449 0.01698935
0.013955951 -0.07443174 0.017830193
0.015104326 -0.07435976 0.017833799
0.015921636 -0.072784618 0.017619014
0.016592968 -0.070796669 0.017505407
0.018317314 -0.073269255 0.01730144
0.019974981 -0.075199924 0.016610265
0.02062889 -0.073347166 0.016242623
0.021564508 -0.072638348 0.014989972
0.023259651 -0.074430883 0.013802916
0.024115734 -0.073495567 0.013311327
0.026312981 -0.076546855 0.012403697
0.026454173 -0.07361161 0.011865199
0.027899256 -0.074398011 0.011552811
0.029190952 -0.074728832 0.011076808
0.03027167 -0.074514881 0.010693252
0.032380171 -0.076752998 0.0107705
0.032514542 -0.07431896 0.0098774135
0.03411172 -0.075281039 0.0089097917
0.034981094 -0.074626334 0.0083979368
0.036070697 -0.074468538 0.0073349476
0.037194002 -0.074388005 0.0065475702
0.038586818 -0.07483504 0.0057189167
0.039599415 -0.074540079 0.005284816
0.042630848 -0.07578817 0.0051083863
-0.019106356 -0.075231276 0.0053882897
-0.017713189 -0.074395396 0.0058780015
-0.016848091 -0.075816408 0.0056275725
-0.015219643 -0.073756732 0.0058946609
-0.014141995 -0.074245475 0.0060781837
-0.01310834 -0.075075038 0.006663084
-0.011766528 -0.074129127 0.006731987
-0.01061515 -0.074306048 0.0074676871
-0.0094999727 -0.074812286 0.0080201626
-0.0082353204 -0.074117884 0.0084113181
-0.0072589018 -0.076218471 0.0084811151
-0.0059025949 -0.074372694 0.0089241564
-0.0047146599 -0.074255891 0.0091386139
-0.003550499 -0.074560478 0.0097090602
-0.0023296594 -0.07338427 0.010197699
-0.0011783548 -0.074236356 0.010763466
0 -0.07295949 0.011101395
0.0011717803 -0.073822163 0.011912137
0.0023073794 -0.072682448 0.012644887
0.0034947998 -0.073390797 0.013506949
0.0045865853 -0.072238721 0.0139893
0.005905943 -0.074414879 0.014252514
0.0070543848 -0.074071042 0.014653683
0.0080746962 -0.072672263 0.0147627
0.0093207918 -0.073401235 0.014777184
0.010703884 -0.074927188 0.015704989
0.011753748 -0.074048616 0.01714018
0.012623713 -0.072299451 0.018018544
0.013988659 -0.073440455 0.018730611
0.015070942 -0.073036104 0.018779665
0.015635226 -0.070358515 0.018648803
0.016826253 -0.070670262 0.018102437
0.017732164 -0.069820397 0.01820907
0.019302731 -0.071533658 0.017400295
0.019967454 -0.069886088 0.016666114
0.023052257 -0.07643643 0.015602261
0.023180364 -0.073018141 0.013891697
0.023976274 -0.071928822 0.013041973
0.026001234 -0.074458078 0.0126279
0.026733406 -0.073226281 0.012412012
0.028072495 -0.073690303 0.012050897
0.029421527 -0.074142247 0.011592388
0.030519314 -0.073950648 0.011045396
0.031405862 -0.073280342 0.01087442
0.033269137 -0.074855559 0.010409445
0.034136057 -0.07415764 0.0097750425
0.035062671 -0.073631607 0.0087651312
0.036343116 -0.073858596 0.0076490045
0.037830506 -0.074478805 0.0068011582
0.039685573 -0.075763367 0.0062843263
0.039693851 -0.073550373 0.0056372881
0.041593369 -0.074868068 0.0054927766
-0.017687377 -0.073107824 0.0054136813
-0.016598303 -0.073506765 0.0057403147
-0.015502605 -0.073935494 0.0059612691
-0.014141786 -0.073065892 0.0061960518
-0.01284172 -0.072380602 0.0064927638
-0.011701833 -0.07255137 0.0070414841
-0.010651697 -0.073378362 0.0070714653
-0.0094521195 -0.07325393 0.0083736479
-0.0082927234 -0.073449835 0.0083898306
-0.0070294398 -0.072637543 0.0087167621
-0.0057792291 -0.071662441 0.0090904534
-0.0047077718 -0.072970465 0.0094267726
-0.0035066139 -0.072470024 0.0098145902
-0.0023241413 -0.072048381 0.010464936
-0.0011556279 -0.071648933 0.010558248
0 -0.072456956 0.010558248
0.001155567 -0.071645156 0.011270374
0.002318053 -0.071859643 0.012488455
0.0034078029 -0.070427924 0.013056517
0.0047467356 -0.073574401 0.013879389
0.0059250342 -0.073470421 0.014212072
0.007027979 -0.072622448 0.014379591
0.0079543842 -0.070453115 0.014853805
0.0092480788 -0.071672611 0.015388191
0.01063362 -0.073253825 0.016773969
0.011715224 -0.072634391 0.017938077
0.012984985 -0.073188104 0.018895268
0.013672949 -0.070643567 0.019451976
0.014940945 -0.071256809 0.01968205
0.016117007 -0.071375318 0.019226581
0.017029382 -0.070388116 0.018716872
0.018430598 -0.071418568 0.018845201
0.01952466 -0.07120759 0.018496692
0.020337006 -0.070049688 0.0173738
0.021783285 -0.071082301 0.015485555
0.023224954 -0.071997359 0.014436394
0.024757197 -0.073092677 0.013432711
0.025996843 -0.073263831 0.012645125
0.026692402 -0.071953431 0.012120157
0.027780324 -0.07176584 0.011611015
0.02903218 -0.071999811 0.011573166
0.030564645 -0.072884925 0.010793269
0.031305276 -0.071886189 0.010711282
0.032833323 -0.072702356 0.010454297
0.033709366 -0.072068304 0.0092457235
0.035393592 -0.07314676 0.0084631443
0.036758408 -0.073516816 0.0082141161
0.036977373 -0.071643658 0.0079639852
0.038089205 -0.07156153 0.007032603
0.039845824 -0.072660029 0.006585896
0.040958058 -0.072554275 0.0053612292
0.042236924 -0.072741367 0.0050685704
-0.016392644 -0.071425095 0.0053600967
-0.015285524 -0.071724385 0.0059619546
-0.014140758 -0.071882188 0.0063877404
-0.013060376 -0.072425723 0.0065134764
-0.011598091 -0.070748352 0.0070160031
-0.010654768 -0.072215647 0.0076694787
-0.0094684837 -0.072197191 0.0084388852
-0.0081966659 -0.071428083 0.008885175
-0.0070314771 -0.071486682 0.009404093
-0.0059836707 -0.073000781 0.0096763372
-0.0046518981 -0.070941441 0.010143369
-0.0035050744 -0.071269847 0.0099146962
-0.0023223823 -0.070832662 0.010424137
-0.0011758161 -0.07172478 0.010352671
0 -0.070020095 0.010187626
0.0011582184 -0.070651323 0.010782272
0.002295712 -0.070019223 0.011983544
0.0035185921 -0.071544707 0.012946039
0.0047544343 -0.072505124 0.013580948
0.0058643315 -0.071544848 0.014072835
0.0069112903 -0.070264786 0.01454705
0.0081710946 -0.071205258 0.015089989
0.0093652317 -0.071409889 0.015518278
0.010596143 -0.071818307 0.017704874
0.01178558 -0.071892038 0.018858373
0.012742337 -0.070662051 0.020058274
0.013660173 -0.06943921 0.020242333
0.015274447 -0.07167241 0.02001971
0.01591384 -0.069338873 0.019550234
0.016939476 -0.068887204 0.018993646
0.018355185 -0.069979139 0.019107968
0.019858226 -0.071255982 0.018669486
0.02116422 -0.071723193 0.016930133
0.022717645 -0.072935596 0.015368104
0.023439698 -0.071491078 0.014392674
0.02604514 -0.075654931 0.013512731
0.025213806 -0.069911011 0.012660682
0.026568731 -0.070464894 0.012595922
0.028247926 -0.071796812 0.011963099
0.029022383 -0.07081461 0.011831224
0.0299352 -0.070232585 0.011418253
0.031337339 -0.070799179 0.011103868
0.033108134 -0.07212843 0.010351896
0.034006231 -0.071530342 0.0091616213
0.034941074 -0.071046852 0.0083102286
0.036832944 -0.072477728 0.007710278
0.037380476 -0.071256533 0.0074879825
0.038703073 -0.07154204 0.0064385831
0.039605636 -0.071057171 0.0062200129
0.041398745 -0.072152101 0.0053594112
0.04243467 -0.071903192 0.0051698089
-0.016519992 -0.070799962 0.0052693784
-0.015347612 -0.070835136 0.0058524907
-0.01410677 -0.070533849 0.006637156
-0.012993069 -0.070871286 0.0071116686
-0.011846139 -0.071076833 0.0073748231
-0.010542152 -0.070281021 0.007779032
-0.0094477739 -0.070858307 0.0086416602
-0.008233943 -0.070576653 0.0088026822
-0.0070484518 -0.070484519 0.0094664991
-0.0059235403 -0.07108248 0.0098436475
-0.004719235 -0.070788525 0.010190755
-0.0034602145 -0.069204293 0.010136157
-0.0023341281 -0.070023842 0.010293752
-0.0011697545 -0.070185274 0.010260969
0 -0.069140457 0.010078102
0.0011629948 -0.069779687 0.010481745
0.0022960054 -0.068880163 0.011398822
0.0036107537 -0.072215073 0.012451679
0.0047202092 -0.070803136 0.013594151
0.0059536831 -0.071444198 0.013670802
0.0070415102 -0.070415102 0.014020234
0.0081184339 -0.069586575 0.015182346
0.0092875184 -0.069656387 0.016046256
0.010249544 -0.068330288 0.018336713
0.01149912 -0.068994716 0.019336164
0.012397088 -0.067620479 0.020238698
0.013576452 -0.067882255 0.020238698
0.014687687 -0.067789324 0.020238698
0.015926097 -0.068254702 0.019662887
0.017552337 -0.070209347 0.019121349
0.018427629 -0.069103606 0.019364804
0.01969526 -0.06951268 0.018580735
0.021791117 -0.072637059 0.017279238
0.022897378 -0.072307512 0.015651703
0.024659161 -0.073977485 0.014687151
0.024824964 -0.070928469 0.013804764
0.025314678 -0.06904003 0.01272139
0.026734328 -0.069741726 0.012336701
0.028073529 -0.070183821 0.0118936
0.029141562 -0.069939747 0.011990339
0.030572616 -0.070552185 0.010868192
0.031620219 -0.070267156 0.010350853
0.032547601 -0.069744855 0.0097070038
0.03408277 -0.07051608 0.0090436935
0.035196934 -0.070393868 0.0083821118
0.036380231 -0.070413351 0.0079524219
0.037791222 -0.070858546 0.0069624186
0.038782094 -0.070512898 0.0064568818
0.04012439 -0.070807748 0.0060997009
0.041147064 -0.070537828 0.0052520633
-0.017824704 -0.070110507 0.0050618947
-0.016504101 -0.069553003 0.0054980516
-0.015370051 -0.069756389 0.0061926842
-0.01410337 -0.06934157 0.0068419278
-0.013071666 -0.070111662 0.0075088143
-0.011572365 -0.068276949 0.007809788
-0.010780181 -0.070670076 0.0082062781
-0.009376335 -0.06915047 0.0085685253
-0.0081803789 -0.068948902 0.0092217028
-0.0070544244 -0.069368504 0.0095325708
-0.0058493507 -0.069022343 0.010031283
-0.0046691364 -0.068869762 0.010135412
-0.0035254993 -0.06933482 0.0099449456
-0.0023418425 -0.069084354 0.010270566
-0.001162527 -0.068589091 0.010347903
0 -0.068309017 0.010202646
0.0011532692 -0.068042882 0.0099884272
0.002377168 -0.070126459 0.011187285
0.003619415 -0.071181826 0.012229413
0.0047729169 -0.070400529 0.012469649
0.0059069032 -0.069701456 0.013690412
0.0069480925 -0.068322912 0.013754547
0.0079250354 -0.066796727 0.015593767
0.0090236329 -0.066549294 0.016887903
0.010175163 -0.066703841 0.017980516
0.011392136 -0.067213602 0.019763052
0.012314878 -0.066052526 0.020746797
0.013707409 -0.067394763 0.020746797
0.014766234 -0.067015991 0.020921797
0.015726065 -0.066274129 0.020304531
0.016992994 -0.066839114 0.019628286
0.018420128 -0.067924224 0.01944223
0.020095928 -0.069744691 0.01920557
0.021299819 -0.069816068 0.017205358
0.022881662 -0.071053587 0.016357869
0.024735147 -0.072968684 0.015397221
0.024010507 -0.067458093 0.014535815
0.025110366 -0.067341432 0.013362885
0.026530582 -0.06805671 0.012800783
0.028358545 -0.069714755 0.012353063
0.029398881 -0.069381356 0.012580901
0.030566834 -0.069363199 0.010923088
0.031504273 -0.068842672 0.010571539
0.033043198 -0.069626741 0.010099947
0.03440576 -0.069997929 0.0095811188
0.035476331 -0.069770113 0.0092085004
0.036540877 -0.069545537 0.0085697174
0.037129402 -0.068457335 0.0071937144
0.039011132 -0.069747172 0.0073035359
0.040273674 -0.06988667 0.0062037706
0.041054346 -0.069205895 0.005798012
0.042167824 -0.069108374 0.005303055
0.04402725 -0.070205614 0.0050125122
-0.018006634 -0.069625653 0.0051310062
-0.016395207 -0.067923002 0.005977124
-0.015231735 -0.067956977 0.0062211156
-0.014254046 -0.068894558 0.0068272054
-0.012911752 -0.06808015 0.0076193213
-0.011694271 -0.06782677 0.0078298748
-0.010721683 -0.069095291 0.0084622502
-0.0093871616 -0.068056919 0.0088663995
-0.0081749279 -0.067735113 0.0096246004
-0.0070402548 -0.068055794 0.0095337629
-0.0058622072 -0.068001606 0.0098894536
-0.0046582241 -0.067544252 0.010019422
-0.0035598949 -0.068824634 0.0097685158
-0.0023428437 -0.067942463 0.010101348
-0.0011583972 -0.067187041 0.010109723
0 -0.067448691 0.010239691
0.0011740521 -0.068095021 0.01040405
0.0024058279 -0.06976901 0.010820657
0.0035600779 -0.068828173 0.011279106
0.0047447174 -0.068798408 0.011987597
0.006041585 -0.070082389 0.013034105
0.0070110192 -0.067773186 0.013847798
0.0080879563 -0.067014493 0.016128778
0.0092775384 -0.067262158 0.017367214
0.0099033881 -0.063821837 0.019253016
0.01115535 -0.064701028 0.020284355
0.012404712 -0.065406665 0.020961583
0.013617659 -0.06581869 0.020961583
0.014568488 -0.064997867 0.020627558
0.015982708 -0.066214077 0.020149142
0.017447835 -0.067464963 0.019829839
0.018571248 -0.067320772 0.019637018
0.01983959 -0.067688018 0.019393772
0.021289127 -0.0685983 0.017218262
0.023139786 -0.070637241 0.016551465
0.022703568 -0.065840349 0.015256196
0.024063092 -0.066459969 0.014164567
0.02550799 -0.067248337 0.013082385
0.026651125 -0.067207187 0.012032777
0.02797363 -0.06760294 0.011711031
0.029204676 -0.06775485 0.011741847
0.030358572 -0.067722969 0.011188716
0.031755678 -0.068215899 0.010641545
0.033235852 -0.068845689 0.0099386275
0.034097858 -0.068195716 0.009863764
0.035480399 -0.068595439 0.0087003112
0.036793582 -0.06883961 0.0082499087
0.037905049 -0.068702899 0.0077460706
0.038903411 -0.068375692 0.0075844526
0.040521797 -0.069125421 0.0068134964
0.041426476 -0.06864959 0.0062365532
0.042356115 -0.068240404 0.0055920482
0.043558754 -0.068281285 0.0053313375
-0.017767521 -0.067516573 0.0052103996
-0.016754139 -0.068213284 0.0054887235
-0.015537351 -0.068125308 0.0060495734
-0.014219797 -0.067544036 0.0065838397
-0.013012301 -0.067427382 0.0074020326
-0.011855109 -0.067574121 0.0077737868
-0.010556216 -0.066856034 0.0080946088
-0.009574322 -0.068217039 0.0090045035
-0.0082461722 -0.067147404 0.0095337629
-0.0070190942 -0.0666814 0.0097586513
-0.0058509689 -0.066701047 0.0097000599
-0.0046711592 -0.066564023 0.0097955763
-0.0034891909 -0.066294625 0.0095655322
-0.0023549178 -0.067115158 0.009686619
-0.0011556605 -0.065872647 0.0097838044
0 -0.065799929 0.0099699199
0.0012102452 -0.068983972 0.010088831
0.0023672236 -0.067465879 0.010163039
0.0035451145 -0.067357175 0.010812432
0.0048346622 -0.068893932 0.011925131
0.0060449857 -0.068912841 0.013034105
0.0070370026 -0.066851526 0.015300065
0.008079458 -0.065789871 0.016488671
0.0092088711 -0.06561321 0.017891377
0.010146203 -0.064259283 0.019545645
0.011200417 -0.063842379 0.020377934
0.012205773 -0.063248098 0.021088779
0.013388238 -0.063594133 0.020853817
0.014452927 -0.063370526 0.020579726
0.015750902 -0.064128675 0.0205158
0.017071687 -0.064872406 0.02009055
0.018379455 -0.065476805 0.019068003
0.019836579 -0.066510879 0.019336194
0.021719774 -0.068779282 0.01734665
0.022845166 -0.068535499 0.016913235
0.023169678 -0.066033579 0.015668601
0.024579296 -0.066715233 0.014588594
0.025213679 -0.065326348 0.013274044
0.026651228 -0.066048697 0.012713075
0.027963538 -0.066413403 0.012032956
0.029312735 -0.066833034 0.012155861
0.030448804 -0.066753149 0.011457205
0.031519521 -0.06654121 0.010863572
0.033023357 -0.067226119 0.010150731
0.034131516 -0.067086078 0.01017347
0.035586309 -0.067613989 0.0088585019
0.036341913 -0.066822231 0.008456558
0.038323075 -0.068262979 0.0086345673
0.03874734 -0.066927224 0.0078169107
0.040325996 -0.067605346 0.0071361959
0.041794192 -0.068064824 0.0064046979
0.042692717 -0.067596801 0.0058507025
0.043906875 -0.067640319 0.0053557754
-0.016622026 -0.066488102 0.0050418675
-0.015345789 -0.066104941 0.0058867633
-0.014303839 -0.066751249 0.0066260397
-0.01314964 -0.066943623 0.0073544085
-0.011817348 -0.066177145 0.0078953505
-0.010668039 -0.066378914 0.0086202323
-0.0095080584 -0.066556409 0.0091948211
-0.0082282582 -0.065826066 0.010054022
-0.0071521346 -0.066753261 0.009950906
-0.0058713709 -0.065759353 0.0097682476
-0.0046755397 -0.065457553 0.0097621381
-0.0035211705 -0.065728515 0.0095486343
-0.0023182391 -0.064910695 0.0096634328
-0.001148712 -0.064327873 0.010117143
0 -0.067913979 0.010157675
0.0011756417 -0.06583593 0.010734826
0.0023550387 -0.06594108 0.010937959
0.0035703371 -0.066646293 0.011100262
0.0046918672 -0.065686136 0.012052119
0.0059700646 -0.066864721 0.013849318
0.0066743996 -0.062294398 0.0160411
0.0078619607 -0.062895685 0.017526746
0.0091318479 -0.063922942 0.018553108
0.010290327 -0.064028703 0.019869924
0.011694923 -0.065491572 0.020835131
0.01231757 -0.062707633 0.021461993
0.013206916 -0.061632272 0.020835131
0.014435413 -0.062183321 0.020736068
0.015765307 -0.06306123 0.019824415
0.016667038 -0.06222361 0.018335849
0.018166078 -0.063581273 0.018286765
0.020267036 -0.066762 0.018351942
0.02106685 -0.065541312 0.017655671
0.022275141 -0.065653048 0.01722008
0.022772877 -0.063764058 0.015579909
0.024359498 -0.064958662 0.014574707
0.025383564 -0.064612709 0.013657898
0.026616188 -0.064804628 0.012955874
0.027916778 -0.065139145 0.012305379
0.029367432 -0.065783046 0.012637854
0.030265393 -0.065187 0.011555582
0.031896964 -0.06615667 0.010707736
0.033161182 -0.066322364 0.01036045
0.034105051 -0.065858029 0.0098011494
0.03543685 -0.066148788 0.0089124441
0.036556538 -0.066037618 0.0087108016
0.037707034 -0.065987311 0.0083620846
0.038979735 -0.066147432 0.0073602796
0.040255811 -0.066303685 0.0065179169
0.041469187 -0.066350698 0.0056684911
0.042904608 -0.066740498 0.0053463578
-0.015702751 -0.066434719 0.0058938563
-0.014224824 -0.06519711 0.0069288015
-0.012972687 -0.064863436 0.0075044036
-0.011794734 -0.064871036 0.007976979
-0.010668522 -0.065196522 0.0088846385
-0.0093939584 -0.064583465 0.009278059
-0.0082486719 -0.064810991 0.0097910464
-0.0070705772 -0.064813621 0.010079145
-0.0059151971 -0.065067172 0.010241866
-0.0046920772 -0.06451606 0.010077029
-0.0035365003 -0.064835839 0.0097513795
-0.0023067645 -0.063436024 0.010031968
-0.001196716 -0.065819383 0.010168821
0 -0.067180216 0.0099985301
0.0011752677 -0.064639725 0.010435164
0.0024358185 -0.066985011 0.010548592
0.0036006605 -0.066012107 0.010884523
0.0047398461 -0.065172881 0.013140976
0.0057494733 -0.063244201 0.015477568
0.0069422671 -0.06363745 0.017131329
0.0080623068 -0.063346699 0.018241882
0.0089217015 -0.0613367 0.019410223
0.01024143 -0.062586516 0.020245343
0.011464581 -0.063055195 0.02133441
0.012930477 -0.064652383 0.021449089
0.013930286 -0.063847147 0.021306127
0.0150393 -0.063627802 0.021104187
0.015704596 -0.061696626 0.020725518
0.017187433 -0.063020587 0.020002306
0.019065022 -0.065536015 0.019875199
0.01956214 -0.063289277 0.019706219
0.021131339 -0.064567983 0.018351942
0.022727137 -0.065789081 0.017784983
0.022854187 -0.062849015 0.016412348
0.023986166 -0.062820911 0.01480639
0.025538597 -0.063846491 0.014365852
0.026499828 -0.063369155 0.01337558
0.028148653 -0.064507328 0.012909472
0.029470602 -0.064835325 0.01235342
0.030228786 -0.063945509 0.011674285
0.031704705 -0.064583659 0.010962486
0.033038426 -0.064896911 0.010528445
0.034198217 -0.06485869 0.0098099709
0.035757437 -0.065555304 0.0093942881
0.03698191 -0.065613069 0.0088677406
0.037757304 -0.064895369 0.0081693232
0.039486483 -0.0658108 0.0070656538
0.04041243 -0.065373048 0.006205827
0.041995808 -0.065993413 0.0057506561
-0.015313031 -0.063607976 0.0054516792
-0.014305783 -0.064376026 0.0063464046
-0.013329668 -0.065436557 0.0072968006
-0.011730008 -0.063342042 0.0079843402
-0.010582307 -0.063493848 0.0088602006
-0.0094786435 -0.06398084 0.0094892383
-0.0082195625 -0.063408054 0.0099955201
-0.0070774318 -0.063696884 0.010308683
-0.005865158 -0.063343704 0.010092735
-0.0047256509 -0.063796289 0.010226727
-0.0034741168 -0.062534101 0.0099186301
-0.0023252545 -0.06278187 0.010079145
-0.0011907915 -0.064302742 0.010452986
0 -0.063736945 0.010374039
0.0012005416 -0.064829245 0.01114434
0.0024259232 -0.065499924 0.011489809
0.0035666183 -0.064199135 0.012167722
0.0047488064 -0.064108886 0.014190316
0.0057810694 -0.062435552 0.016015857
0.0068942718 -0.062048446 0.01760906
0.0081099514 -0.062562481 0.018673867
0.0094216168 -0.063595913 0.019997418
0.010139275 -0.060835656 0.020817459
0.011227424 -0.06062809 0.021756679
0.012458579 -0.061160296 0.022129416
0.014131092 -0.063589908 0.022023946
0.015131714 -0.062854812 0.021578461
0.01615449 -0.062310178 0.020518869
0.017174371 -0.06182773 0.01966536
0.018527994 -0.062531978 0.019394457
0.019556664 -0.062121164 0.019349724
0.02123625 -0.063708745 0.019105911
0.022433121 -0.063757293 0.018406808
0.023277417 -0.06284903 0.017164558
0.024135295 -0.062062189 0.015834004
0.025510116 -0.062615737 0.015023142
0.026794665 -0.062909216 0.014074475
0.027847534 -0.062656954 0.013036877
0.029082492 -0.062818184 0.01288572
0.030724803 -0.063813053 0.011984497
0.031737112 -0.063474223 0.011423171
0.033141825 -0.063916378 0.01041314
0.034116689 -0.063527629 0.010086417
0.035403341 -0.063726015 0.0095607638
0.0363863 -0.063382588 0.008268714
0.038050327 -0.064209931 0.0077115297
0.038794588 -0.063482054 0.0071434379
0.040593605 -0.064472198 0.0060450137
0.041763734 -0.064435475 0.0052327216
-0.015407758 -0.06281624 0.0055014789
-0.01416079 -0.062543489 0.0064037442
-0.013149856 -0.063358396 0.0072646439
-0.011738917 -0.06221626 0.0082447827
-0.010701094 -0.063017555 0.0088106394
-0.0094677424 -0.062723793 0.0092571378
-0.0082270801 -0.06229075 0.0093429685
-0.0070864377 -0.062596865 0.0096732676
-0.0058796681 -0.062324483 0.0095623434
-0.0046872906 -0.062106602 0.0097230375
-0.0034842817 -0.061555646 0.010104388
-0.0023796894 -0.063061766 0.010411918
-0.0012042994 -0.063827865 0.010631263
0 -0.063576125 0.010620952
0.0011932687 -0.06324324 0.011015087
0.0023471459 -0.062199369 0.011862159
0.0035636281 -0.062957428 0.012497962
0.004626838 -0.061305601 0.014245868
0.0057130009 -0.060557809 0.01565662
0.0070955777 -0.062677607 0.018178284
0.0079306355 -0.060046241 0.019310623
0.0092635015 -0.061370693 0.020225495
0.010482301 -0.061729107 0.020714879
0.011610975 -0.061538167 0.021188706
0.012454937 -0.060010154 0.021656036
0.013442225 -0.059369825 0.021530598
0.014630956 -0.059649281 0.021106392
0.016111512 -0.060993578 0.020699322
0.017505594 -0.0618531 0.020124763
0.018508118 -0.061308138 0.020348936
0.020094492 -0.062647536 0.020152926
0.020753661 -0.061108001 0.019668192
0.022692934 -0.06330134 0.019153297
0.02292756 -0.060758036 0.018069625
0.024015909 -0.060611583 0.016929924
0.025832217 -0.062232159 0.015972346
0.027086589 -0.062416926 0.015042663
0.028057192 -0.061959632 0.013891131
0.029316068 -0.062150065 0.013175935
0.030586654 -0.062349718 0.012581557
0.031876039 -0.062571481 0.011972934
0.033069707 -0.062596232 0.010876536
0.034318741 -0.062720463 0.010403425
0.035366196 -0.062480278 0.0093823671
0.036762301 -0.062851675 0.0082048476
0.037752196 -0.062527075 0.0077712834
0.039427195 -0.063322462 0.0068981647
0.040113878 -0.062530458 0.0055921674
0.041250873 -0.062465608 0.0050984025
-0.015724141 -0.062896565 0.0053656697
-0.014505487 -0.062857114 0.0061531365
-0.013012155 -0.061512005 0.0070718825
-0.011834881 -0.061541382 0.0081058145
-0.010539056 -0.060892325 0.008859992
-0.0093870712 -0.061015964 0.0090886354
-0.008336924 -0.061931435 0.009581387
-0.0070833336 -0.061388891 0.0093969703
-0.0058505693 -0.060845923 0.0089608133
-0.004665229 -0.060647976 0.0086355805
-0.0035247784 -0.061096158 0.0096732676
-0.002405595 -0.062545471 0.010424167
-0.001220179 -0.063449308 0.011043042
0 -0.062723726 0.011379302
0.0011918991 -0.061978754 0.011700392
0.0023501327 -0.061103452 0.012657404
0.0035156365 -0.060937699 0.013799667
0.004549189 -0.05913946 0.015465438
0.005749403 -0.059793793 0.017559409
0.0068921 -0.059731532 0.019394964
0.0080690365 -0.059941415 0.019878954
0.0092885988 -0.060375892 0.020385355
0.010386053 -0.060008306 0.02113843
0.011743488 -0.061066136 0.021118343
0.012754807 -0.060295455 0.021243066
0.014010566 -0.060712453 0.021287799
0.014997959 -0.059991837 0.02126047
0.015963536 -0.059293132 0.020932764
0.016831819 -0.05835031 0.020472437
0.018512484 -0.060165573 0.020619512
0.019677844 -0.06019105 0.020427763
0.020865969 -0.060279466 0.020341814
0.022439066 -0.061412182 0.019921333
0.023344493 -0.060695682 0.019342422
0.024517536 -0.060710091 0.018184543
0.025223717 -0.059619695 0.016746819
0.026565285 -0.060060646 0.016035557
0.028018491 -0.060706731 0.014898777
0.0290583 -0.060441263 0.014025986
0.03015575 -0.0603115 0.013181388
0.031778362 -0.061202772 0.012405634
0.033276562 -0.061799332 0.011577219
0.034074601 -0.061099287 0.011086643
0.035649735 -0.061792873 0.0096847713
0.036793411 -0.061717976 0.0078808665
0.037751239 -0.06134576 0.0068614483
0.039660767 -0.062495757 0.0057524741
0.041130804 -0.062905937 0.0050728321
-0.015516189 -0.060871202 0.0057228506
-0.014299626 -0.06077341 0.0064268112
-0.01319271 -0.061166201 0.0072771311
-0.011942973 -0.060909167 0.0083512962
-0.010783865 -0.061108571 0.0089172125
-0.0095583778 -0.060934655 0.0096676946
-0.0082116751 -0.059827916 0.0096676946
-0.0070132669 -0.05961277 0.009516269
-0.0059198607 -0.060382579 0.0092127323
-0.0046072961 -0.058743022 0.0092127323
-0.0036605252 -0.062228929 0.010271668
-0.0024175923 -0.061648604 0.011399329
-0.0012106361 -0.06174244 0.011986673
0 -0.060806949 0.011772931
0.0012032609 -0.061366301 0.012156934
0.002364808 -0.060302608 0.01314199
0.0035038206 -0.059564948 0.015108436
0.0046311882 -0.059047651 0.016558617
0.005825087 -0.059415888 0.018300176
0.0069938861 -0.059448034 0.020011872
0.0082338583 -0.059989542 0.020511925
0.0094140703 -0.060014702 0.020624459
0.010448224 -0.059206601 0.021565378
0.011618198 -0.05925281 0.021527171
0.012736957 -0.059053164 0.021551102
0.013985252 -0.05943732 0.021540135
0.015098822 -0.059233844 0.021575898
0.016430318 -0.0598533 0.020893753
0.017383957 -0.059105456 0.020700186
0.017629974 -0.056195542 0.021020055
0.019623348 -0.058870044 0.020545363
0.021480149 -0.060860422 0.02084294
0.022650054 -0.060797513 0.020584673
0.023380257 -0.059619654 0.020235896
0.024220183 -0.058820445 0.019052476
0.025188033 -0.058390439 0.017491102
0.026686152 -0.059173644 0.016594857
0.027789779 -0.059053279 0.014789253
0.029534884 -0.060251165 0.013993859
0.030331865 -0.059497122 0.013797313
0.031782277 -0.060033187 0.012672842
0.0330474 -0.060193479 0.011923432
0.034355592 -0.060418453 0.010733128
0.035697866 -0.060686376 0.0088464022
0.036820527 -0.060575705 0.0071466863
0.038834952 -0.061893202 0.0064554214
-0.01564868 -0.060187228 0.0050738454
-0.014317378 -0.059655745 0.0064340234
-0.013172796 -0.059876345 0.0075175762
-0.011857226 -0.059286125 0.0088026822
-0.010674329 -0.059301831 0.0093821585
-0.0094268769 -0.058917981 0.0094008744
-0.0082881534 -0.059201099 0.0093334913
-0.0070400569 -0.058667142 0.0092498958
-0.005873316 -0.058733158 0.0089922249
-0.0048504369 -0.060630459 0.0089325309
-0.003666617 -0.061110284 0.010575712
-0.002410436 -0.060260903 0.011013836
-0.0012122394 -0.060611967 0.011714041
0 -0.059716098 0.012478411
0.0011929772 -0.059648857 0.013112217
0.0023215625 -0.058039065 0.015180886
0.0034932615 -0.058221024 0.016332477
0.0047029294 -0.058786616 0.017419696
0.0057791458 -0.057791457 0.019433439
0.0068817097 -0.057347581 0.020681322
0.0081298742 -0.058070529 0.021358788
0.0092693968 -0.057933729 0.021038383
0.010515274 -0.058418185 0.021939427
0.011568991 -0.057844952 0.021868855
0.012727067 -0.057850305 0.021768749
0.014160181 -0.059000757 0.021963358
0.014981801 -0.05762231 0.021915615
0.01613971 -0.057641827 0.021443605
0.01713931 -0.05713103 0.020513982
0.018402951 -0.057509225 0.021155477
0.019298505 -0.056760311 0.021009713
0.020580553 -0.057168201 0.020837724
0.021536313 -0.056674507 0.020930648
0.023782382 -0.059455957 0.020157248
0.023999337 -0.057141282 0.018835843
0.026026569 -0.059151292 0.017248839
0.026913248 -0.058507062 0.01604864
0.028232617 -0.058817953 0.01448375
0.029454682 -0.058909364 0.014287323
0.030310124 -0.058288701 0.013802946
0.031894371 -0.059063651 0.013087124
0.033221524 -0.059324149 0.011555642
0.034742191 -0.059900332 0.0099948347
0.035995618 -0.059992693 0.0082432926
0.037448417 -0.060400672 0.0069463551
0.038160827 -0.059626292 0.005759716
-0.015575153 -0.058706343 0.0051283836
-0.01424511 -0.058167532 0.0060218573
-0.013089118 -0.058306072 0.0073384345
-0.011885962 -0.058241211 0.0082886815
-0.010682094 -0.058158066 0.0086031258
-0.0095200771 -0.058310475 0.0087217987
-0.0082886452 -0.058020514 0.0089353323
-0.0070137773 -0.057279181 0.0088851452
-0.0058788457 -0.057612687 0.0094113648
-0.004873645 -0.059702154 0.0091999173
-0.0036415979 -0.059479434 0.0097708404
-0.0024097259 -0.059038281 0.01121521
-0.0012043865 -0.059014939 0.012466133
0 -0.060024742 0.012852341
0.0011690297 -0.057282459 0.014868736
0.0023156044 -0.056732308 0.016093016
0.0035110249 -0.057346739 0.017044812
0.0046841903 -0.057381328 0.018398911
0.0059160287 -0.05797708 0.019919991
0.0069717197 -0.056935709 0.021214247
0.0080915298 -0.056640711 0.021304458
0.0092094867 -0.056408104 0.021416396
0.010268522 -0.0559064 0.02155751
0.011620259 -0.056939267 0.021378875
0.012910816 -0.057511818 0.021344811
0.013964331 -0.057021018 0.022008806
0.015136349 -0.057052393 0.021872878
0.015998231 -0.055993807 0.021598071
0.017555172 -0.057346892 0.020786405
0.018907903 -0.057905454 0.020934224
0.020049272 -0.057789076 0.02106756
0.020943509 -0.05701289 0.020749867
0.02196797 -0.056654237 0.021244079
0.023602353 -0.057825767 0.020391285
0.024129877 -0.056303047 0.018499762
0.025750915 -0.057354309 0.017342359
0.0265467 -0.056556012 0.01596427
0.027848734 -0.056857832 0.01509881
0.029308883 -0.057445411 0.013639271
0.030579207 -0.057630043 0.013412505
0.031681128 -0.057495382 0.012473464
0.033308621 -0.058290087 0.01041162
0.034578498 -0.058425739 0.0088742673
0.03561841 -0.058176737 0.0081119835
0.037128441 -0.058686893 0.0064385235
0.038699765 -0.059259012 0.0054854453
-0.014525928 -0.05810371 0.0059499145
-0.013258738 -0.057856314 0.006421566
-0.011829915 -0.056783587 0.0069703758
-0.010685951 -0.056991741 0.0077636838
-0.0095054666 -0.057032801 0.0078864694
-0.0081726024 -0.056040701 0.0079456568
-0.0069940346 -0.055952277 0.0080427825
-0.0060486225 -0.058066778 0.0091390014
-0.0048636617 -0.058363941 0.0089419484
-0.0036011906 -0.05761905 0.009624064
-0.0024608185 -0.059059642 0.011831462
-0.0012140827 -0.058275968 0.013684839
0 -0.057047129 0.014716178
0.001152144 -0.055302914 0.016628146
0.0023580354 -0.056592848 0.017707765
0.0035168806 -0.056270089 0.01846984
0.004600801 -0.055209611 0.019165933
0.0056862235 -0.054587744 0.019995034
0.0069892798 -0.055914238 0.020676702
0.0081828423 -0.056110919 0.020676702
0.0094406148 -0.056643687 0.02134037
0.010592153 -0.056491483 0.021680802
0.011591013 -0.05563686 0.021566421
0.013060987 -0.056993399 0.021472812
0.013734734 -0.054938935 0.021534532
0.015346268 -0.056663144 0.02156359
0.016177349 -0.055465195 0.021388352
0.017444616 -0.055822775 0.020674437
0.018528799 -0.055586394 0.020704955
0.01967136 -0.055542663 0.020704955
0.020736337 -0.055296894 0.021436006
0.022327803 -0.056407083 0.020704955
0.023626741 -0.056704178 0.019357353
0.024252608 -0.055434536 0.019066811
0.025507208 -0.055652093 0.017501414
0.026914865 -0.056170154 0.016188204
0.028174438 -0.056348875 0.015139371
0.029546207 -0.056728717 0.013873875
0.030931968 -0.057105172 0.013208866
0.03186838 -0.0566549 0.011931539
0.033684995 -0.05774571 0.010084957
0.034992941 -0.057919353 0.0084899068
0.036016054 -0.057625689 0.0070379078
0.037793647 -0.058519196 0.0058610737
-0.011884712 -0.055858143 0.0053638518
-0.010738016 -0.056076307 0.0059925914
-0.0095010353 -0.055818584 0.0062308609
-0.0082002943 -0.055059116 0.0063199401
-0.0072792862 -0.057021074 0.0067204237
-0.0060982849 -0.057323877 0.0083467364
-0.0048487713 -0.056973059 0.0090457499
-0.0036523871 -0.057220731 0.0095793307
-0.0024353282 -0.057230216 0.01133129
-0.0011988981 -0.056348208 0.013959616
0 -0.055162102 0.015414476
0.0011448821 -0.053809457 0.017261326
0.0023410758 -0.055015277 0.018185943
0.0034477289 -0.054014418 0.018873155
0.0046034548 -0.054090597 0.019580632
0.0057898196 -0.054424305 0.020629495
0.0069610779 -0.054528445 0.021339327
0.0080500953 -0.054050643 0.021351606
0.0092430776 -0.05430308 0.021427274
0.010287651 -0.053724397 0.021441847
0.011753066 -0.055239409 0.021441847
0.012818923 -0.054771762 0.021429479
0.01399132 -0.054799337 0.021884352
0.015312925 -0.055362113 0.021805972
0.016661761 -0.055935912 0.021835029
0.01742533 -0.054599371 0.020618677
0.018236283 -0.053569086 0.020912021
0.019599795 -0.05418767 0.020982653
0.0204731 -0.05345754 0.021366715
0.02202454 -0.05448176 0.020991772
0.023776418 -0.055874582 0.019819528
0.023771735 -0.053203408 0.019634992
0.025524473 -0.054529555 0.018470228
0.026853124 -0.054873776 0.016652495
0.027918695 -0.054674111 0.014683187
0.029442625 -0.055352133 0.013878703
0.030586999 -0.055291884 0.013008177
0.03229852 -0.056223352 0.011726201
0.033635482 -0.056459561 0.0095365942
0.034902878 -0.056566738 0.0078456402
0.035793398 -0.056076322 0.005979687
0.037103865 -0.056254249 0.0051068962
-0.007328595 -0.056185894 0.005281955
-0.0059702033 -0.05492587 0.0081357062
-0.0048757927 -0.056071617 0.0091826618
-0.0036834455 -0.056479499 0.010041028
-0.002426282 -0.055804487 0.012981087
-0.0011801075 -0.054284941 0.014743358
0 -0.054186955 0.015937388
0.0011621827 -0.053460401 0.018398523
0.0023398295 -0.053816076 0.019589067
0.0035404167 -0.054286391 0.020186096
0.0047216713 -0.05429922 0.020403296
0.0057799956 -0.05317596 0.021009982
0.0069043003 -0.05293297 0.02165249
0.0082040401 -0.053912263 0.021708906
0.0093351323 -0.053677011 0.021724313
0.010550838 -0.053926505 0.021634609
0.011702954 -0.053833585 0.02146548
0.012577428 -0.052596517 0.021244913
0.014187875 -0.054386854 0.020958602
0.015233536 -0.053903285 0.02123785
0.016456854 -0.054072518 0.02123785
0.017256053 -0.052918565 0.020567775
0.018857921 -0.054216523 0.021032989
0.019497037 -0.052756689 0.02100727
0.020629609 -0.052720115 0.021117151
0.022238342 -0.053840198 0.02155599
0.023806611 -0.054755203 0.020553768
0.025911769 -0.056759112 0.020216942
0.026057202 -0.054483242 0.019086003
0.026199026 -0.052398052 0.01758045
0.027776683 -0.053238641 0.015565783
0.028975269 -0.053314496 0.014527977
0.030895114 -0.054660585 0.013590425
0.032253839 -0.054950986 0.012190819
0.033604484 -0.055207368 0.0093825459
0.034749102 -0.055119265 0.0067827404
-0.0061017903 -0.054916114 0.0077549815
-0.0048766923 -0.05486279 0.0098388791
-0.003677536 -0.055163041 0.011029631
-0.0023802721 -0.053556122 0.013371378
-0.0011731973 -0.052793879 0.015470833
0 -0.052119099 0.01633507
0.0011693562 -0.052621026 0.018556982
0.0023390565 -0.052628767 0.019945711
0.00355133 -0.053269949 0.020209849
0.0046335529 -0.052127469 0.020808607
0.0057253251 -0.051527925 0.020969689
0.0069941548 -0.052456159 0.021761268
0.0081603685 -0.052459516 0.022131264
0.0092384061 -0.051966034 0.021637797
0.010335052 -0.051675264 0.021337032
0.011550977 -0.051979393 0.021153688
0.01270189 -0.051962275 0.021039635
0.014227853 -0.05335445 0.020879805
0.015417851 -0.053369481 0.020969003
0.016394291 -0.052695937 0.021102428
0.017382765 -0.052148297 0.020969003
0.018919004 -0.0532097 0.021479547
0.019694464 -0.052132405 0.021998107
0.020864939 -0.052162349 0.021905661
0.022706589 -0.053778764 0.022086293
0.024043698 -0.054098319 0.021289766
0.024906376 -0.053370807 0.020939112
0.025084399 -0.051308997 0.019822001
0.028235549 -0.055243466 0.018639445
0.02902359 -0.054419231 0.016811848
0.02928813 -0.052718632 0.015056729
0.030994248 -0.05364389 0.013991565
0.032189243 -0.053648736 0.012126625
0.03387301 -0.054438762 0.0097477734
0.035124157 -0.054503001 0.0069099665
-0.006113241 -0.053796522 0.0076384842
-0.0048785363 -0.053663902 0.010288388
-0.0036683108 -0.05380189 0.011826158
-0.0023125382 -0.050875843 0.013823509
-0.001151829 -0.050680477 0.015874624
0 -0.051579371 0.016717523
0.0011787178 -0.051863585 0.018874377
0.0023033924 -0.050674632 0.019921243
0.0034837523 -0.051095031 0.020617247
0.004675386 -0.051429246 0.021397501
0.0058556525 -0.051529739 0.021578729
0.0068879048 -0.050511301 0.021624923
0.0080697024 -0.050723843 0.021795779
0.0092230598 -0.050726827 0.02170065
0.010602518 -0.051834535 0.021456182
0.011690275 -0.051437207 0.021046311
0.012832312 -0.051329248 0.020954311
0.013978135 -0.051253159 0.020891458
0.015021378 -0.050841589 0.020593673
0.016379397 -0.051478103 0.020808369
0.017554162 -0.051492207 0.020593673
0.018329792 -0.050406929 0.020375997
0.019744724 -0.051103994 0.021913707
0.020537702 -0.050203271 0.021318793
0.022331147 -0.051714234 0.022721082
0.02382149 -0.05240728 0.023060679
0.024831636 -0.05202819 0.022859722
0.025683803 -0.051367607 0.021393746
0.027246501 -0.05212374 0.019895345
0.028561356 -0.052362487 0.017986596
0.031218015 -0.054943707 0.015970647
0.031980675 -0.05412114 0.014553815
0.032866862 -0.053560808 0.012097567
0.034078322 -0.053551652 0.0094253123
0.035264462 -0.053504702 0.006380558
0.03644643 -0.053454764 0.0053784549
-0.0061088023 -0.052535698 0.0088598132
-0.004878643 -0.052445412 0.011040986
-0.0036237596 -0.051940553 0.012621462
-0.002341978 -0.050352529 0.014237821
-0.0011866093 -0.051024199 0.016034663
0 -0.050067373 0.017077476
0.0011675854 -0.050206173 0.01886335
0.0023355149 -0.050213568 0.020523876
0.0034880354 -0.049995173 0.020947963
0.0046323207 -0.049797449 0.021456182
0.0058225519 -0.050073948 0.021474332
0.0070087705 -0.050229523 0.021552563
0.0082337512 -0.050578762 0.021669179
0.0093427468 -0.050217263 0.021577895
0.010509484 -0.050211977 0.021206468
0.011833775 -0.050885234 0.021116316
0.01294657 -0.05060932 0.020828515
0.014161278 -0.050744582 0.020799905
0.015096971 -0.049936134 0.020888358
0.016613508 -0.051027201 0.021178544
0.017746478 -0.050873239 0.021199733
0.018820517 -0.05058014 0.020959198
0.01991914 -0.050383709 0.022496909
0.021135701 -0.050490841 0.022166371
0.022296919 -0.050461445 0.023340613
0.023063224 -0.049585931 0.023757011
0.024447292 -0.050058741 0.023825407
0.025313349 -0.049476095 0.023155421
0.026855068 -0.050207302 0.021768361
0.02838669 -0.050859485 0.019199967
0.029872276 -0.051380314 0.016622305
0.030644592 -0.050681438 0.014685184
0.034193125 -0.054455716 0.012179017
0.034053519 -0.052296478 0.0081140697
0.035330482 -0.052386578 0.0067754984
0.036934257 -0.052939098 0.005561918
-0.0061265789 -0.051463265 0.010563493
-0.0048618908 -0.051049855 0.012780458
-0.0035279666 -0.04939153 0.014085084
-0.002383233 -0.050047893 0.014653176
-0.001154555 -0.04849131 0.016926438
0 -0.049428772 0.01757893
0.0011877253 -0.049884461 0.019147515
0.0023257954 -0.048841704 0.020475119
0.0034999796 -0.048999716 0.021002769
0.0046036146 -0.048337951 0.021684915
0.0058534332 -0.049168836 0.021684915
0.0070271702 -0.049190193 0.021555752
0.0080862213 -0.048517328 0.021887869
0.009449699 -0.04961092 0.021559119
0.010440519 -0.048722424 0.021275014
0.011666331 -0.048998587 0.021292895
0.012720155 -0.048567861 0.020494759
0.014162232 -0.049567811 0.021275014
0.015090867 -0.048755109 0.021347314
0.016729791 -0.050189372 0.02191481
0.017722078 -0.04962182 0.022102296
0.01915225 -0.050274659 0.022631407
0.019727858 -0.048739415 0.023333192
0.020384969 -0.047564927 0.024163783
0.021904968 -0.048421506 0.025097668
0.023369296 -0.049075518 0.026057363
0.024823612 -0.049647223 0.026224852
0.025542784 -0.048763499 0.025554687
0.027181715 -0.049636174 0.023529172
0.02795182 -0.048915688 0.020785332
0.029744944 -0.049971506 0.01714161
0.031043734 -0.050147571 0.014080495
0.032025445 -0.049817357 0.011911929
0.035385896 -0.053078845 0.0077241063
0.035375126 -0.051232938 0.0061276257
-0.0074512111 -0.050916612 0.0062840283
-0.0062513207 -0.051260829 0.012429833
-0.0047370652 -0.04855492 0.013472259
-0.0035938511 -0.049115967 0.015365243
-0.002355329 -0.048284244 0.016173095
-0.0011564561 -0.047414701 0.017937213
0 -0.047704853 0.018403441
0.0011652976 -0.047777198 0.019438237
0.0023267928 -0.04769925 0.019894332
0.0034460507 -0.047096025 0.020858705
0.0046904823 -0.048077445 0.021158874
0.0058425125 -0.047908604 0.021230668
0.007105154 -0.048551887 0.021218091
0.0081503112 -0.047737539 0.021454126
0.0095248939 -0.048815083 0.02135247
0.010547054 -0.048047688 0.021407962
0.011682289 -0.047897384 0.02086103
0.013005896 -0.048476521 0.020661801
0.014128722 -0.048273131 0.021470219
0.015390484 -0.048539218 0.021438837
0.016472301 -0.048240308 0.022432387
0.018012891 -0.049235236 0.022940665
0.018967213 -0.048603483 0.023236305
0.019322069 -0.046600286 0.024033308
0.020408185 -0.046485312 0.024542481
0.021796392 -0.047034319 0.025829464
0.022485254 -0.046094771 0.026993155
0.024275273 -0.047394581 0.027363658
0.02566893 -0.047837552 0.026803732
0.026577115 -0.047376599 0.024647981
0.027494859 -0.046970382 0.022889733
0.029603729 -0.048550114 0.017943919
0.030126451 -0.047507096 0.0147264
0.031687368 -0.048117857 0.01228866
0.033749502 -0.049418915 0.0071324408
0.035153233 -0.0496994 0.005651176
-0.0074420897 -0.049613934 0.0067899525
-0.0060547097 -0.048437677 0.01161018
-0.004768542 -0.047685422 0.013870031
-0.003498377 -0.046645027 0.01546219
-0.0023757019 -0.04751404 0.015942872
-0.0011645085 -0.046580341 0.017853409
0 -0.047156096 0.01866284
0.0011763987 -0.047055952 0.019497842
0.0023594827 -0.047189653 0.020011067
0.0035305715 -0.047074284 0.020201176
0.0046490356 -0.046490356 0.020805895
0.0059553273 -0.047642618 0.020798177
0.0070331111 -0.046887409 0.020406127
0.0081887459 -0.046792831 0.020828992
0.0094668875 -0.047334436 0.020735115
0.010566289 -0.046961285 0.020841122
0.011772541 -0.047090165 0.020439714
0.012960344 -0.047128525 0.021375239
0.013930562 -0.046435207 0.021819681
0.015479266 -0.047628511 0.021586418
0.016611412 -0.047461182 0.022923827
0.017546812 -0.046791501 0.023929775
0.018474007 -0.046185017 0.024702072
0.019777816 -0.04653604 0.025188953
0.021188922 -0.047086492 0.026383817
0.021942273 -0.046194255 0.026640445
0.023015151 -0.046030302 0.027667433
0.024361024 -0.046401948 0.027824044
0.025062243 -0.045567714 0.027760655
0.026938429 -0.046849445 0.02638194
0.028107014 -0.046845023 0.024023116
0.028935917 -0.046297468 0.019351184
0.029917719 -0.046027262 0.016159296
0.031805731 -0.047119603 0.011026323
0.033552043 -0.047931492 0.0074099898
0.035285618 -0.048669819 0.0053876936
-0.0087383911 -0.04868532 0.0053804517
-0.0072712321 -0.047263008 0.0078838766
-0.0059065321 -0.046070948 0.011316091
