ply
format ascii 1.0
comment PCL generated
element vertex 1266
property float x
property float y
property float z
element camera 0
property float view_px
property float view_py
property float view_pz
property float x_axisx
property float x_axisy
property float x_axisz
property float y_axisx
property float y_axisy
property float y_axisz
property float z_axisx
property float z_axisy
property float z_axisz
property float focal
property float scalex
property float scaley
property float centerx
property float centery
property int viewportx
property int viewporty
property float k1
property float k2
end_header
-0.018745968 -0.072640628 0.0070110857
-0.017669125 -0.073032387 0.0082330704
-0.016609376 -0.073555812 0.0083354115
-0.015391855 -0.073407307 0.0089702904
-0.014066567 -0.072677262 0.0094794929
-0.012787493 -0.072074957 0.010012925
-0.011612363 -0.071996652 0.010391116
-0.010575003 -0.072850019 0.011199266
-0.0093332985 -0.07233306 0.011957616
-0.0082057947 -0.072679892 0.012102425
-0.0069669802 -0.071992129 0.012307823
-0.0057515292 -0.071318962 0.012444198
-0.0046412903 -0.071939997 0.012755096
-0.003472642 -0.071767934 0.0130288
-0.0022924822 -0.071066953 0.013743132
-0.0011355364 -0.070403256 0.014012277
0 -0.071864314 0.014364928
0.0011343797 -0.070331536 0.014972746
0.0022961351 -0.071180187 0.015562564
0.0034173003 -0.07062421 0.015638888
0.0045399847 -0.070369765 0.015599966
0.0057366141 -0.071134016 0.015769809
0.0069300891 -0.07161092 0.016018331
0.0080217104 -0.071049437 0.016444564
0.0092300605 -0.071532972 0.016331017
0.010450101 -0.071989588 0.015725464
0.011592886 -0.071875893 0.015517354
0.012881218 -0.072603233 0.01487416
0.014014718 -0.072409377 0.014584154
0.014978124 -0.071434133 0.013842195
0.016309526 -0.072227903 0.013076007
0.017480215 -0.072251551 0.012646496
0.018692434 -0.072433181 0.012199283
0.019770775 -0.072105177 0.011654556
0.021039868 -0.072470658 0.01110965
0.0227019 -0.074079886 0.010862648
0.023570342 -0.07306806 0.0097585022
0.024363942 -0.071931638 0.0088306069
0.025916599 -0.073037684 0.0079656541
0.027173322 -0.073249824 0.0071457922
0.028171226 -0.072775669 0.0070757866
0.029474249 -0.073096141 0.0068095922
0.03063415 -0.073050663 0.0065183938
0.031475849 -0.072277881 0.0063930452
0.03325507 -0.073636226 0.0062518418
0.033991128 -0.072670691 0.0061104
0.035703231 -0.073786683 0.0058524907
0.037424557 -0.074849114 0.0056508482
0.037332773 -0.072332248 0.0054026246
-0.020295704 -0.07282576 0.0058758557
-0.018714402 -0.07134866 0.006952703
-0.017608512 -0.071607947 0.0080009997
-0.016315116 -0.071087293 0.0084815919
-0.01527603 -0.071679831 0.0093697608
-0.01406626 -0.07150349 0.0096241534
-0.012932491 -0.07171654 0.010316819
-0.011542088 -0.070406735 0.010728657
-0.010514509 -0.071265005 0.011132658
-0.0093316259 -0.071153648 0.011960179
-0.0081382794 -0.07091929 0.012346596
-0.0069606076 -0.070766173 0.012301236
-0.0059163901 -0.072179958 0.013000309
-0.0046139029 -0.070362024 0.013326526
-0.0034431494 -0.070010707 0.01320067
-0.0022728171 -0.069320925 0.013833821
-0.0011858023 -0.072333939 0.013965935
0 -0.070822403 0.014471561
0.0011631505 -0.070952184 0.015065968
0.0022588123 -0.068893775 0.015950918
0.0034080765 -0.069297552 0.015991837
0.0046192612 -0.070443735 0.015991837
0.0057096789 -0.069658078 0.016069591
0.0068279998 -0.069417998 0.016492546
0.0081902733 -0.071372382 0.016687602
0.0091748005 -0.069957852 0.016529948
0.01045205 -0.07084167 0.01601842
0.011475128 -0.069998279 0.015388399
0.012834735 -0.071174443 0.015139431
0.013809168 -0.070196606 0.014899492
0.015290271 -0.071746655 0.014276266
0.016255477 -0.070827439 0.013614267
0.017360248 -0.070598342 0.012975723
0.01857714 -0.070825346 0.01246205
0.019783761 -0.070988789 0.011851907
0.02127262 -0.072090551 0.011107236
0.02232126 -0.071662992 0.010628402
0.023285225 -0.071019933 0.0097084641
0.025023563 -0.072687492 0.0091360509
0.025890633 -0.071787663 0.0084573925
0.026926672 -0.071414217 0.0080886781
0.028654927 -0.072831273 0.007761389
0.029443238 -0.071841501 0.0076012313
0.030257491 -0.07098873 0.0073784888
0.031681813 -0.07157743 0.0069014132
0.033438094 -0.072847277 0.0061415136
0.03434439 -0.072241649 0.0052609444
-0.02019072 -0.071261361 0.0060707033
-0.018748922 -0.070308454 0.0071164966
-0.0176847 -0.0707388 0.007813096
-0.016293341 -0.0698286 0.0090191364
-0.015304092 -0.070634276 0.0097102225
-0.014030801 -0.070154004 0.010138631
-0.012959587 -0.070688657 0.010846496
-0.011742034 -0.070452198 0.011302084
-0.010483522 -0.069890141 0.011482209
-0.009387373 -0.070405297 0.011841178
-0.0081508271 -0.069864236 0.011849761
-0.0069691697 -0.069691695 0.012313515
-0.0058160606 -0.069792733 0.012726128
-0.0046483511 -0.069725268 0.013194352
-0.0034057717 -0.068115436 0.013615906
-0.0023586093 -0.070758283 0.013792068
-0.0011835787 -0.071014725 0.01421845
0 -0.069202572 0.014805853
0.0011715207 -0.070291243 0.015202761
0.0023195124 -0.069585368 0.016188502
0.0034593008 -0.069186017 0.016205728
0.0045652883 -0.068479329 0.016679287
0.0057548615 -0.069058336 0.016869187
0.0069417679 -0.069417678 0.017050236
0.0080719749 -0.069188349 0.017042279
0.0092568314 -0.069426231 0.016854972
0.010274202 -0.068494678 0.016580284
0.011715855 -0.070295125 0.01586619
0.012612043 -0.068792962 0.015557647
0.013922692 -0.069613464 0.015251786
0.015060378 -0.069509439 0.014676094
0.016135706 -0.069153026 0.01396367
0.017626278 -0.070505112 0.013253033
0.018797603 -0.070491008 0.013004959
0.019789387 -0.069844894 0.012567967
0.021181155 -0.070603855 0.011596709
0.022090636 -0.069759905 0.011190921
0.023400109 -0.070200332 0.010145366
0.024841568 -0.070975907 0.0096099377
0.025744101 -0.070211187 0.0090272427
0.027248932 -0.071084172 0.0084123015
0.0282559 -0.070639752 0.007920444
0.029491052 -0.070778526 0.0077506304
0.030740103 -0.070938699 0.0071884096
0.032238714 -0.071641587 0.0063286126
0.032930333 -0.070565 0.0056754649
-0.021121297 -0.069230922 0.0050174594
-0.020147653 -0.069924206 0.006041646
-0.018839806 -0.069471784 0.0072689652
-0.017628418 -0.069338441 0.0081292093
-0.016441893 -0.069290832 0.0092524886
-0.015244223 -0.069185324 0.010056555
-0.0140252 -0.068957232 0.010299832
-0.012979914 -0.069619536 0.010674566
-0.011457287 -0.067597993 0.011215955
-0.010651943 -0.069829412 0.011679798
-0.0092759812 -0.068410359 0.011994004
-0.0080934167 -0.068215944 0.012222439
-0.0069499193 -0.068340875 0.011909455
-0.0057281554 -0.067592233 0.012518138
-0.0046148105 -0.068068452 0.012622267
-0.0036311089 -0.071411811 0.013124675
-0.0023852077 -0.070363626 0.013740093
-0.0011795809 -0.06959527 0.014262825
0 -0.06805747 0.014358521
0.001161857 -0.068549566 0.01497817
0.0023251541 -0.068592049 0.015839398
0.0035832375 -0.070470333 0.016056806
0.0045378278 -0.066932961 0.016759396
0.0057071443 -0.0673443 0.017466664
0.0069053406 -0.067902513 0.017288715
0.0079514645 -0.067019492 0.017157435
0.0092014456 -0.067860663 0.017472148
0.010328609 -0.067709774 0.016707569
0.011583325 -0.068341613 0.016228914
0.012728768 -0.068272486 0.016075462
0.013998169 -0.068824336 0.015741587
0.015075661 -0.068420313 0.015516967
0.016219474 -0.068353504 0.014596224
0.01759555 -0.069209166 0.014209151
0.018434733 -0.067978077 0.013673097
0.019845583 -0.068875849 0.013408333
0.020929635 -0.068602689 0.01219064
0.022154583 -0.068795808 0.012303084
0.023463778 -0.069218144 0.011193931
0.024509927 -0.068861224 0.01041612
0.025625469 -0.068722852 0.0095279217
0.026989309 -0.069233447 0.0091569126
0.028781699 -0.070755012 0.0085360408
0.029705863 -0.070105836 0.0083687603
0.030886045 -0.070087567 0.0069465637
0.031533808 -0.068907209 0.0066119432
0.033507638 -0.070605375 0.005505383
-0.020085828 -0.068528123 0.0060720146
-0.01876699 -0.068030342 0.0074746907
-0.017902544 -0.069223166 0.0085490644
-0.016285265 -0.067467526 0.0092191696
-0.015132011 -0.06751205 0.01021421
-0.014091845 -0.068110585 0.010571837
-0.01275033 -0.06722901 0.010859936
-0.011647991 -0.067558348 0.010955006
-0.010538622 -0.067915566 0.011132687
-0.0092697432 -0.067205638 0.011841804
-0.0080547016 -0.066738963 0.012144089
-0.0068699587 -0.066409595 0.011386722
-0.005886571 -0.068284221 0.01185444
-0.0047454485 -0.068809003 0.011984408
-0.0035321191 -0.068287633 0.012211353
-0.0023798789 -0.069016486 0.013175607
-0.0011704582 -0.067886576 0.013722092
0 -0.067148387 0.014444232
0.0011641232 -0.067519143 0.0143601
0.0023261535 -0.067458451 0.01464656
0.0034663337 -0.067015789 0.015540183
0.0046155863 -0.066926003 0.0161421
0.0057263798 -0.066426001 0.017112255
0.0069931126 -0.067600086 0.016943306
0.0080431914 -0.066643581 0.017164141
0.0092185857 -0.06683474 0.017585993
0.01049039 -0.067604735 0.016695976
0.011445819 -0.066385753 0.016433001
0.012641152 -0.066653349 0.016139179
0.013917952 -0.0672701 0.01591596
0.014927813 -0.066601008 0.015578419
0.016600607 -0.06877394 0.014645785
0.017477054 -0.067577943 0.014325619
0.01864526 -0.067589067 0.013834417
0.019810623 -0.067589186 0.013595253
0.021036103 -0.067782998 0.012886316
0.022127073 -0.067545801 0.012156546
0.023217043 -0.067329422 0.011067986
0.024514027 -0.067705408 0.010247529
0.025885331 -0.068243146 0.0095075667
0.026974227 -0.068021968 0.0091165304
0.028412882 -0.068664469 0.0086717904
0.029441778 -0.068304926 0.0076054633
0.030744195 -0.068583205 0.0064384341
0.032044485 -0.068836302 0.00594455
0.03342301 -0.069233373 0.0053984523
0.034392092 -0.068784185 0.0051483214
-0.021279396 -0.067384757 0.005058676
-0.020404639 -0.06841556 0.0061410964
-0.019163487 -0.068269923 0.0075680912
-0.017537402 -0.066642128 0.008546859
-0.016616907 -0.06765455 0.0087266862
-0.015401996 -0.067531832 0.0096369684
-0.014013734 -0.066565238 0.010239661
-0.01291517 -0.066924058 0.010682553
-0.0116316 -0.066300116 0.010682553
-0.010443298 -0.06614089 0.010775685
-0.0093628475 -0.066710293 0.011239231
-0.0080705043 -0.06571696 0.010978699
-0.0070161703 -0.066653617 0.010086596
-0.0059728008 -0.068089925 0.011006176
-0.0047362195 -0.067491129 0.011110306
-0.003513315 -0.066752985 0.011510134
-0.0023669798 -0.067458928 0.012367338
-0.0011802114 -0.067272052 0.013078332
0 -0.066529147 0.013941497
0.0011746676 -0.066956058 0.014057904
0.0023104465 -0.065847725 0.014372736
0.003480053 -0.066121012 0.015278459
0.004747672 -0.067654327 0.015816659
0.0058424408 -0.066603824 0.016861498
0.0069938763 -0.066441827 0.016945451
0.0079992982 -0.065137148 0.017234981
0.0092809871 -0.066127032 0.017618895
0.010342439 -0.065502115 0.017028958
0.01156948 -0.065946035 0.01652658
0.012637842 -0.065486997 0.016827732
0.013855168 -0.065812044 0.016485423
0.01528643 -0.067025118 0.016329825
0.016128501 -0.065666042 0.015501469
0.017515484 -0.066558845 0.014989734
0.018549897 -0.066084012 0.014128983
0.019672059 -0.065959252 0.01436764
0.020879554 -0.066118583 0.013079137
0.022083238 -0.066249713 0.012579232
0.023758655 -0.067712165 0.011464596
0.025132487 -0.068216749 0.010298818
0.025579017 -0.066272907 0.0098999441
0.026901623 -0.066669241 0.0092411041
0.02832111 -0.067262635 0.0085180998
0.029662348 -0.067630157 0.0074082613
0.030957758 -0.067868933 0.0060038567
0.031870723 -0.067282639 0.005885601
0.033431746 -0.068057485 0.005315721
0.034498028 -0.067806467 0.0053367019
-0.020101463 -0.066216588 0.006056428
-0.01886837 -0.066039294 0.0071303546
-0.018096294 -0.067559496 0.0082313716
-0.016564911 -0.066259645 0.0091159642
-0.015251585 -0.065699138 0.0093218684
-0.014069254 -0.065656513 0.010201097
-0.01290645 -0.065705568 0.010762662
-0.011678478 -0.065399475 0.010641038
-0.010478909 -0.065202102 0.010815561
-0.0092522167 -0.064765513 0.010885298
-0.0082977647 -0.066382118 0.010922521
-0.0072219493 -0.067404859 0.0092966557
-0.0059895599 -0.067083068 0.0097904801
-0.0047883703 -0.067037188 0.010460049
-0.0035736272 -0.066707708 0.011133224
-0.0023367608 -0.0654293 0.011785775
-0.0011830745 -0.066252179 0.01287207
0 -0.066109084 0.013215661
0.0011481637 -0.064297162 0.013965845
0.0022953309 -0.064269267 0.014494926
0.0035016134 -0.065363452 0.015015185
0.004554179 -0.063758507 0.015570909
0.005843956 -0.065452307 0.017196327
0.0068820156 -0.064232141 0.017436028
0.0079463925 -0.06357114 0.017864555
0.0092643993 -0.064850792 0.018146068
0.010314448 -0.064178787 0.017854095
0.011589552 -0.064901493 0.017297506
0.012705468 -0.064682379 0.017377466
0.013949403 -0.065097213 0.016776949
0.014872395 -0.064065695 0.016815931
0.016327076 -0.065308303 0.01592654
0.01738121 -0.064889848 0.015401512
0.018580051 -0.06503018 0.015017658
0.0197103 -0.064928047 0.014676154
0.021154497 -0.065813988 0.013900638
0.022356082 -0.065891609 0.012979537
0.023456842 -0.065679155 0.011738509
0.024585653 -0.065561742 0.011191696
0.025856009 -0.0658153 0.010523468
0.026961744 -0.065645985 0.0097624362
0.028144481 -0.065670453 0.0084079206
0.029691234 -0.066508368 0.0072125196
0.030513573 -0.065721542 0.0061149299
0.032266255 -0.066922605 0.0059765279
0.033433471 -0.066866942 0.005530715
0.034420498 -0.066467166 0.0057545304
-0.020198617 -0.065348469 0.0068182051
-0.019025082 -0.065398715 0.0072387159
-0.017728137 -0.065003164 0.0081920028
-0.01636105 -0.064275548 0.0088877678
-0.015571327 -0.065878689 0.0097127557
-0.014042108 -0.064359665 0.0097844899
-0.012801835 -0.064009175 0.010441393
-0.011590673 -0.063748702 0.0099350214
-0.010428934 -0.063732378 0.0099846721
-0.0095703853 -0.065796398 0.010181189
-0.0083514499 -0.065618537 0.010218054
-0.007186458 -0.065875866 0.0092303753
-0.0059362175 -0.065298393 0.0096174479
-0.0047932207 -0.065906785 0.010173559
-0.0035871339 -0.065764122 0.010639369
-0.00233589 -0.064236976 0.011901081
-0.0011887948 -0.065383717 0.012512863
0 -0.064921439 0.013106495
0.0011545507 -0.063500285 0.013645232
0.0023679403 -0.065118358 0.013703942
0.0034981137 -0.064132079 0.014106184
0.0046330974 -0.063705087 0.015303612
0.0058167982 -0.063984782 0.017308295
0.0070420639 -0.064552255 0.017554164
0.0083339652 -0.065481156 0.018029064
0.0090903305 -0.062496018 0.018220931
0.010368626 -0.06336382 0.017935693
0.011679607 -0.06423784 0.017688245
0.012750915 -0.063754581 0.017688245
0.013938325 -0.06388399 0.017362624
0.015140638 -0.064056545 0.016682506
0.01631075 -0.064077944 0.016213238
0.017236754 -0.063201427 0.015761286
0.018958841 -0.065171011 0.015299767
0.019808451 -0.064086169 0.014932066
0.021201463 -0.064782247 0.014202118
0.022158178 -0.064142093 0.01333499
0.023423808 -0.06441547 0.012282491
0.024410406 -0.063932016 0.011423379
0.025845116 -0.064612791 0.010831386
0.026825828 -0.064148717 0.010272056
0.028751537 -0.065888941 0.0083695352
0.029891742 -0.065761834 0.0069834888
0.030584494 -0.064697966 0.0064282417
0.032161031 -0.065513209 0.0062070489
0.033269893 -0.065351576 0.0059024394
0.034593005 -0.065607421 0.0056884885
0.035948839 -0.065906204 0.0050686896
0.037840884 -0.065039016 0.0050322711
-0.022906139 -0.065101661 0.0052239001
-0.021333775 -0.064001322 0.0054021776
-0.020046227 -0.063676253 0.0062749982
-0.019108638 -0.064491652 0.0075843036
-0.017646614 -0.063527815 0.0082113147
-0.01650662 -0.063668393 0.0087306499
-0.015247313 -0.063334994 0.0090954006
-0.014013411 -0.063060351 0.0092633367
-0.01305628 -0.064094469 0.0099768937
-0.011500951 -0.062105138 0.0094815493
-0.010702934 -0.064217605 0.0097880065
-0.0095473677 -0.064444736 0.010041177
-0.0083577503 -0.064474069 0.010169089
-0.0071487213 -0.06433849 0.0091908276
-0.0059132958 -0.06386359 0.0096407831
-0.004754656 -0.064187855 0.011174142
-0.0035095816 -0.063172467 0.011035144
-0.0024117858 -0.065118216 0.012755394
-0.0011812242 -0.063786104 0.013492346
0 -0.062252857 0.014092147
0.001175496 -0.063476786 0.014428675
0.0023777827 -0.064200133 0.014699876
0.0034892899 -0.062807217 0.01533851
0.0047202883 -0.063723892 0.015925169
0.0058471826 -0.063149571 0.016910404
0.0070375828 -0.063338242 0.017142445
0.0082349172 -0.063526504 0.017755717
0.0093792118 -0.063309677 0.017920852
0.010305961 -0.061835766 0.017873973
0.011524101 -0.062230147 0.017482132
0.012731298 -0.062499098 0.017852604
0.013998061 -0.062991276 0.018022358
0.014963064 -0.062154267 0.017429054
0.016296877 -0.062859386 0.017136663
0.017463928 -0.062870145 0.016386598
0.018523123 -0.062515542 0.015685141
0.019859923 -0.063084461 0.015510589
0.021091606 -0.063274816 0.014838398
0.02220297 -0.063103184 0.014073372
0.023620682 -0.063775837 0.013022691
0.024836889 -0.06386628 0.011922896
0.025931783 -0.063650735 0.011469692
0.027024146 -0.063447997 0.010112464
0.028241705 -0.063543834 0.0084309578
0.029442849 -0.063596554 0.0072654784
0.031039434 -0.064466514 0.0069822669
0.032073639 -0.064147279 0.0067140162
0.033502676 -0.064612299 0.0063665211
0.03449741 -0.064236559 0.0057427585
0.035880975 -0.064585753 0.0055898726
0.036857162 -0.0642028 0.0051316619
0.038042553 -0.06419681 0.0050508082
-0.022712598 -0.063356191 0.0057915449
-0.021504335 -0.06331832 0.0059632957
-0.020422621 -0.063670523 0.0064261556
-0.018819898 -0.062340911 0.0076471269
-0.017878305 -0.063170016 0.0078068078
-0.016508011 -0.062494613 0.0082438588
-0.015183665 -0.061902635 0.0091210604
-0.013981697 -0.061752498 0.0089761913
-0.013198776 -0.063594103 0.0096492171
-0.01184066 -0.062755495 0.0092852712
-0.010726866 -0.063169323 0.0097918212
-0.0095013771 -0.062946618 0.0099321604
-0.0082240943 -0.062268142 0.0099907219
-0.0071383556 -0.063055471 0.0096306503
-0.0059412159 -0.062976889 0.0099069476
-0.0047553 -0.063007727 0.011682838
-0.0035371184 -0.062489092 0.011763245
-0.0023149683 -0.061346658 0.01363793
-0.0011756561 -0.062309772 0.014235854
0 -0.059322216 0.014832795
0.0011623095 -0.061602406 0.014844805
0.0022930289 -0.060765266 0.015110224
0.0035025643 -0.061878636 0.015237004
0.0046587703 -0.061728708 0.0161255
0.0057946588 -0.061423384 0.016600132
0.0071273865 -0.062958583 0.016756058
0.0080270329 -0.060776111 0.017482162
0.0094326464 -0.062491279 0.017626464
0.01050588 -0.061867964 0.017166108
0.011366059 -0.060240112 0.017166108
0.012653965 -0.060969099 0.017844588
0.014019709 -0.061920378 0.017773688
0.015124277 -0.061660513 0.017811239
0.016376697 -0.061997496 0.01737991
0.01749189 -0.061804678 0.016917467
0.018638676 -0.061740611 0.016673058
0.019896787 -0.062031157 0.016081423
0.020958589 -0.061711401 0.015399098
0.022320502 -0.062262449 0.014365345
0.02340111 -0.062012941 0.013718098
0.024674108 -0.062272746 0.01245141
0.026110673 -0.062902987 0.011842608
0.027272709 -0.062845804 0.010713667
0.028340437 -0.06258513 0.0092390776
0.029667333 -0.062894747 0.0075806379
0.030972468 -0.063136183 0.0074110329
0.032212596 -0.063232131 0.0073048174
0.033347175 -0.063121438 0.0065641105
0.034412168 -0.0628912 0.0063092709
0.035712603 -0.063092262 0.0058791339
0.036799975 -0.062916085 0.0054653287
0.038037963 -0.063000374 0.0052538812
-0.022661155 -0.062020004 0.0056815147
-0.021463268 -0.062004995 0.0063665509
-0.020266864 -0.061992761 0.0068752468
-0.018820392 -0.061166272 0.0069287717
-0.017907105 -0.062077966 0.0081644058
-0.016530616 -0.06139943 0.0082249045
-0.015492903 -0.061971612 0.0086012185
-0.014283978 -0.061897241 0.0086243153
-0.013142169 -0.062126622 0.0089717805
-0.011900685 -0.061883561 0.0093944073
-0.010631735 -0.061427802 0.0095893741
-0.0093509974 -0.060781483 0.009904772
-0.0081709875 -0.060698766 0.010126501
-0.0072255707 -0.062621616 0.0099221766
-0.0058606248 -0.060950499 0.010465115
-0.004722761 -0.061395895 0.01204595
-0.0035520215 -0.061568372 0.013162464
-0.0022922328 -0.059598051 0.014123857
-0.0012103663 -0.062939048 0.015224338
0 -0.060254838 0.015634209
0.0011306463 -0.058793608 0.015582711
0.0022826032 -0.059347682 0.015744388
0.0035150878 -0.060928188 0.016104579
0.0045799054 -0.059538774 0.016206115
0.0058408184 -0.060744513 0.016822934
0.0069209859 -0.059981879 0.017419815
0.0082503306 -0.061288167 0.017443717
0.0093022482 -0.060464613 0.017268747
0.010514926 -0.06075291 0.017338783
0.011834881 -0.061541382 0.017297029
0.012630824 -0.059709352 0.017577052
0.013931612 -0.060370322 0.017684698
0.014988457 -0.059953827 0.01769352
0.016196337 -0.060157824 0.017527193
0.017490514 -0.060633779 0.017297029
0.018768748 -0.060998432 0.016665697
0.019820699 -0.060628019 0.016272753
0.021161878 -0.061134316 0.01551947
0.022489961 -0.061551474 0.014695972
0.023469891 -0.061021715 0.013775289
0.025138719 -0.062248256 0.013086557
0.025657501 -0.060645003 0.012434304
0.027122285 -0.061319947 0.011235714
0.028530998 -0.061817162 0.0095244944
0.029627059 -0.061624281 0.008757025
0.030625401 -0.061250802 0.0080574155
0.032172408 -0.061961677 0.0078542233
0.033717483 -0.062618181 0.0070175529
0.034476537 -0.061819997 0.0065780878
0.035868533 -0.062172126 0.0060886145
0.036812246 -0.061749574 0.0053749382
0.038153674 -0.061999723 0.0053322017
-0.022983212 -0.061691776 0.0056270659
-0.021492206 -0.060894582 0.0065379143
-0.020283844 -0.060851533 0.0071761012
-0.019016635 -0.060615521 0.0073786378
-0.017956814 -0.061053164 0.0081581473
-0.016611114 -0.060511917 0.0086378455
-0.015329285 -0.060137965 0.0087996423
-0.014133667 -0.060068082 0.0090695024
-0.013393108 -0.062095314 0.0093685687
-0.012000861 -0.061204389 0.0095962286
-0.010765219 -0.061002906 0.010322779
-0.0096061546 -0.061239235 0.010712475
-0.0083417883 -0.060775887 0.011220813
-0.0070523946 -0.059945352 0.011151254
-0.0060061016 -0.061262239 0.011994213
-0.0046541053 -0.05933984 0.014271945
-0.0034763927 -0.059098676 0.015061617
-0.0023346979 -0.059534796 0.01588428
-0.0011794894 -0.060153961 0.016650736
0 -0.058248587 0.016727239
0.0011540113 -0.05885458 0.016408235
0.0022721614 -0.057940114 0.016286761
0.0035102204 -0.059673749 0.01720196
0.004689456 -0.059790563 0.017642677
0.0059098043 -0.060280006 0.017758518
0.0070951781 -0.060309015 0.018036067
0.0082688397 -0.060244404 0.018067569
0.0093970075 -0.05990592 0.017805666
0.010558459 -0.059831269 0.017566651
0.011852792 -0.060449243 0.017945111
0.012823416 -0.05945402 0.018062472
0.013860234 -0.058905996 0.018115431
0.015074272 -0.059137527 0.018148869
0.016330538 -0.059489816 0.01786387
0.017496336 -0.059487544 0.017204076
0.018568382 -0.059186716 0.016865045
0.019875951 -0.059627853 0.016314268
0.021092152 -0.059761096 0.015586764
0.022101734 -0.059325706 0.015136033
0.023276767 -0.059355758 0.014470249
0.02490788 -0.060490564 0.013841689
0.025810638 -0.059833754 0.013322324
0.027230598 -0.060380891 0.011818409
0.028166519 -0.059853852 0.01010403
0.029960722 -0.061119873 0.0094626844
0.030784156 -0.060384303 0.0087274313
0.032053202 -0.060544938 0.0082043409
0.033474728 -0.06097183 0.0075327754
0.034503683 -0.060678892 0.0066580474
0.035944037 -0.06110486 0.006013751
0.037056014 -0.06096312 0.0056174397
0.038693018 -0.061666999 0.005159229
-0.022745244 -0.059855904 0.0053651333
-0.021632817 -0.060091157 0.0069826841
-0.020195099 -0.059397351 0.0077648163
-0.018819075 -0.058809608 0.0078743398
-0.017789869 -0.059299558 0.0082415044
-0.01651071 -0.058966823 0.0088255703
-0.015386522 -0.05917893 0.0093996227
-0.014091454 -0.058714394 0.0092840791
-0.013500557 -0.061366167 0.0098876357
-0.012185069 -0.060925346 0.010431468
-0.010858067 -0.060322598 0.011339188
-0.0095331641 -0.059582274 0.011388958
-0.0083094854 -0.059353467 0.011863708
-0.0070967404 -0.059139501 0.012109131
-0.0059181154 -0.059181157 0.013763756
-0.0045837043 -0.057296302 0.01539886
-0.0035131937 -0.05855323 0.01610297
-0.0023341195 -0.058352988 0.016593099
-0.0011758484 -0.05879242 0.0171175
0 -0.057731964 0.017636985
0.0011462845 -0.057314228 0.017705977
0.0023344851 -0.05836213 0.017748535
0.0034458996 -0.057431657 0.017927587
0.0047321874 -0.059152339 0.018082649
0.005827907 -0.058279071 0.018488407
0.0070429826 -0.058691524 0.018481225
0.0082356781 -0.058826275 0.018592954
0.0094337026 -0.058960643 0.018113464
0.010642518 -0.059125103 0.018054396
0.011668928 -0.05834464 0.018079191
0.012897985 -0.058627207 0.017839819
0.014306412 -0.05961005 0.018065542
0.014848742 -0.057110544 0.018061817
0.016230116 -0.057964697 0.017924637
0.01737139 -0.057904631 0.017448068
0.018495532 -0.057798538 0.017160565
0.019934196 -0.058629986 0.016670316
0.021069417 -0.058526158 0.015486002
0.022180691 -0.05837024 0.015262097
0.023525465 -0.058813665 0.014790893
0.024528567 -0.058401346 0.013894111
0.026160471 -0.059455615 0.013162047
0.02730936 -0.059368175 0.011930346
0.028803607 -0.060007516 0.010282516
0.029895758 -0.059791517 0.0095744133
0.030741883 -0.059119008 0.0089098513
0.032155462 -0.059547152 0.0086933672
0.033478618 -0.059783246 0.0076939464
0.034879718 -0.060137443 0.0070586801
0.035858847 -0.059764743 0.0065214634
0.037472911 -0.060440179 0.0056501627
0.038528319 -0.060200501 0.0052191615
-0.022662135 -0.058444452 0.0054422319
-0.021775506 -0.059277769 0.0068560541
-0.020524515 -0.059158891 0.007895112
-0.01941956 -0.059472401 0.008246392
-0.017758027 -0.058009554 0.0088210404
-0.016686538 -0.058402885 0.0086993873
-0.015313772 -0.057721138 0.010051191
-0.014136162 -0.057722662 0.010157526
-0.013188324 -0.058747988 0.010759711
-0.011856711 -0.05809788 0.011266261
-0.010500539 -0.057169601 0.012195975
-0.0095059378 -0.05822387 0.012707472
-0.0083688572 -0.058581997 0.01308158
-0.0070891157 -0.057894442 0.013237298
-0.0057456582 -0.05630745 0.015231043
-0.0046793139 -0.057321593 0.016196847
-0.003512305 -0.057367649 0.016820103
-0.002320603 -0.056854777 0.01687476
-0.0011586664 -0.056774657 0.017337143
0 -0.057219904 0.01795572
0.0011447676 -0.056093615 0.018071413
0.0023078015 -0.056541141 0.018094569
0.0034685978 -0.056653764 0.018264174
0.0046142116 -0.05652409 0.018816352
0.0058916463 -0.057738133 0.018998921
0.0070711952 -0.057748094 0.018730074
0.0082152607 -0.057506826 0.018311143
0.0093635637 -0.057351824 0.017817378
0.010454465 -0.056918755 0.017479628
0.011769564 -0.057670861 0.017566204
0.01296243 -0.057741735 0.016999245
0.014135431 -0.057719674 0.017471135
0.015335949 -0.057804734 0.017607749
0.016121903 -0.056426663 0.017739803
0.017357798 -0.056702144 0.0174568
0.018801674 -0.057580125 0.017304122
0.019761434 -0.056959424 0.016803294
0.021033397 -0.057257578 0.015459061
0.022487437 -0.057993915 0.015472651
0.023369776 -0.05725595 0.015193552
0.024670642 -0.057564832 0.014121264
0.026093723 -0.05811784 0.013013363
0.027155602 -0.057853241 0.012540877
0.028349658 -0.057880551 0.011173904
0.029778883 -0.058366612 0.010145366
0.03087181 -0.058181487 0.0092834532
0.032058831 -0.058180843 0.0087628961
0.033356298 -0.058373518 0.0075588822
0.034583788 -0.05843468 0.0071524382
0.035612941 -0.058167804 0.006554395
0.037036121 -0.058540963 0.0062613785
0.038631704 -0.059154797 0.0053073466
-0.022586972 -0.057061821 0.0056584179
-0.021429155 -0.057144415 0.0068239868
-0.020198401 -0.057030778 0.0082297027
-0.01890111 -0.056703325 0.008785069
-0.017954523 -0.057454474 0.0093610287
-0.016433239 -0.056342535 0.0095248222
-0.015346268 -0.056663144 0.010252208
-0.014454997 -0.057819989 0.010967761
-0.013270134 -0.057906039 0.01158464
-0.011876232 -0.057005916 0.012354732
-0.010832958 -0.057775777 0.013530284
-0.009567393 -0.057404358 0.013612479
-0.0078722201 -0.053980939 0.013946146
-0.0069036968 -0.055229574 0.015396625
-0.0058434969 -0.056097567 0.01645878
-0.0047232094 -0.056678511 0.017054617
-0.0034965805 -0.055945288 0.017632604
-0.0023908333 -0.057379998 0.017658085
-0.0011700062 -0.056160297 0.018589824
0 -0.054609571 0.019068003
0.0011663485 -0.055984724 0.019083172
0.0023692527 -0.056862064 0.019326031
0.0035419359 -0.056670975 0.01938203
0.0045920224 -0.055104271 0.019357085
0.0056255697 -0.05400547 0.019326091
0.0070894924 -0.056715939 0.019150794
0.0082395906 -0.056500047 0.018302679
0.0094825495 -0.056895297 0.017511338
0.01067882 -0.05695371 0.017379224
0.011717777 -0.056245327 0.017217964
0.013134055 -0.057312239 0.016955972
0.014020646 -0.056082584 0.016986519
0.015471421 -0.057125248 0.017068118
0.016560331 -0.056778278 0.017098635
0.01732034 -0.055425089 0.017045856
0.018593125 -0.055779375 0.016897589
0.019965427 -0.05637297 0.016341537
0.021306377 -0.056817003 0.01612848
0.022369456 -0.056512307 0.015852302
0.023563419 -0.056552205 0.01558432
0.024775505 -0.056629725 0.014197111
0.026152691 -0.057060413 0.012938768
0.027207432 -0.056780726 0.011939257
0.028735269 -0.057470538 0.011275977
0.029765246 -0.057149272 0.010198623
0.031330559 -0.057841033 0.0096929073
0.032367632 -0.057542458 0.0083983839
0.03391828 -0.058145624 0.0077754259
0.034996469 -0.057925191 0.0072163641
0.03604706 -0.057675295 0.006539911
0.037680596 -0.058344148 0.0056070983
-0.02168888 -0.056632075 0.0066025555
-0.020304965 -0.056137256 0.0074724555
-0.018972168 -0.055730745 0.008707881
-0.017824683 -0.055850677 0.0096120834
-0.016628493 -0.055824224 0.0097676218
-0.015353325 -0.055508174 0.01083228
-0.014232637 -0.055744495 0.011867762
-0.013306957 -0.056856994 0.012482524
-0.011890196 -0.055883925 0.013352692
-0.010691938 -0.055835675 0.014301896
-0.0092460029 -0.054320268 0.014505714
-0.008208828 -0.055116415 0.015157431
-0.0070291087 -0.055061352 0.016943157
-0.0058955876 -0.055418525 0.017113
-0.0046792934 -0.054981694 0.017655671
-0.0035351519 -0.055384047 0.018045664
-0.002333394 -0.054834761 0.018100798
-0.0011520151 -0.05414471 0.018568605
0 -0.055044618 0.019225121
0.001141651 -0.053657591 0.019267678
0.0023340036 -0.054849084 0.019563556
0.0034451683 -0.053974304 0.019587874
0.0046083322 -0.054147899 0.019513547
0.0057544615 -0.054091942 0.01936686
0.0068604946 -0.053740542 0.019261926
0.0081286086 -0.054577801 0.01862523
0.0093805902 -0.055110969 0.018177837
0.010500491 -0.054835897 0.017877519
0.011865818 -0.055769347 0.017643481
0.012975791 -0.055442017 0.016922563
0.014120754 -0.055306286 0.016652852
0.015282824 -0.055253286 0.017183304
0.016828949 -0.056497186 0.016870618
0.017665673 -0.055352442 0.016474515
0.01830841 -0.053780954 0.016405106
0.019731304 -0.054551251 0.016292155
0.020849127 -0.054439388 0.016169846
0.022083553 -0.054627735 0.015901357
0.023566956 -0.055382345 0.01544103
0.024708899 -0.055300869 0.014151543
0.025891423 -0.055313494 0.013226122
0.027352892 -0.055895042 0.012108326
0.028391918 -0.055600837 0.011191785
0.029990252 -0.056381676 0.010332167
0.030979281 -0.056001008 0.0089929998
0.032328084 -0.056274813 0.0085819662
0.033659324 -0.056499578 0.0075519085
0.034744173 -0.056309521 0.0070492923
0.036012258 -0.056419209 0.0065161288
0.037088793 -0.056231398 0.0056999624
-0.02167112 -0.055381753 0.0051772296
-0.020390702 -0.055174842 0.005730629
-0.019336509 -0.055592462 0.0075340569
-0.017928677 -0.054981273 0.0091441572
-0.01660187 -0.054549001 0.010217726
-0.015401478 -0.05449754 0.0115408
-0.014285868 -0.054762494 0.012545615
-0.013112409 -0.05483371 0.013122886
-0.011649318 -0.053586863 0.013805538
-0.010241439 -0.052345131 0.014911681
-0.0093024597 -0.053489141 0.015253097
-0.0080841333 -0.053124305 0.015955716
-0.0070056184 -0.053709742 0.017700106
-0.0058168792 -0.053515289 0.017894179
-0.0046755816 -0.053769186 0.018359929
-0.0035252362 -0.05405362 0.018685132
-0.0023337326 -0.053675849 0.018813431
-0.0011573052 -0.053236037 0.019240767
0 -0.053805534 0.01979059
0.0011612072 -0.053415529 0.019979507
0.0023061752 -0.053042028 0.020715863
0.0035257849 -0.054062035 0.020613581
0.0047082589 -0.054144979 0.020540446
0.0057897498 -0.053265698 0.019833744
0.0069423402 -0.053224608 0.019454062
0.0081323516 -0.053441171 0.019066602
0.0093565891 -0.053800385 0.018455923
0.010625444 -0.05430783 0.01767084
0.012045491 -0.055409256 0.0173558
0.01264715 -0.05288808 0.01701203
0.014332672 -0.054941908 0.016709179
0.015399894 -0.05449193 0.016822457
0.016726414 -0.054958217 0.016789019
0.017592365 -0.053949922 0.016253293
0.018999256 -0.054622859 0.016239762
0.019543637 -0.052882779 0.015860468
0.020917943 -0.053456966 0.015454203
0.022230241 -0.053820584 0.015304327
0.023379143 -0.053772032 0.015096813
0.024707343 -0.054120846 0.014088899
0.026180416 -0.054740872 0.013686001
0.026995609 -0.053991217 0.012693822
0.028461715 -0.05455162 0.011304855
0.029416433 -0.054126237 0.010621697
0.031149793 -0.055111174 0.0097316504
0.03226205 -0.054964975 0.0088418722
0.033638544 -0.055263322 0.0080350935
0.034595679 -0.054875907 0.0070991516
0.0361651 -0.055453151 0.0063162446
0.037661258 -0.055884451 0.0052801073
-0.020421434 -0.054056738 0.0054401159
-0.019073989 -0.053645596 0.0072162151
-0.01796676 -0.053900279 0.0088318884
-0.016703103 -0.053688541 0.010938704
-0.015435279 -0.053429812 0.01170978
-0.014380699 -0.053927619 0.013013154
-0.012777648 -0.052272197 0.013852805
-0.01186244 -0.053380981 0.014437944
-0.01043819 -0.052190948 0.015192211
-0.0094510298 -0.053162046 0.015705854
-0.0081475666 -0.052377213 0.016048491
-0.0070212227 -0.052659173 0.018122047
-0.0058414652 -0.052573189 0.018366039
-0.0046447706 -0.052253671 0.018476814
-0.0035773027 -0.05365954 0.018645048
-0.0023193019 -0.052184295 0.019075423
-0.001176002 -0.052920088 0.019203722
0 -0.052453831 0.019955963
0.001178136 -0.053016115 0.020338416
0.0023667368 -0.053251579 0.021014541
0.0035167604 -0.052751407 0.020909399
0.0046252608 -0.052034184 0.020810306
0.0057119122 -0.051407211 0.020228416
0.0070135412 -0.052601561 0.019916922
0.0081390319 -0.05232235 0.01988405
0.0092910742 -0.052262295 0.018847555
0.010499632 -0.052498162 0.018173367
0.011653985 -0.052442934 0.017734796
0.012905699 -0.052796043 0.017508447
0.014529889 -0.054487083 0.01718542
0.015519252 -0.053720489 0.016537607
0.016651066 -0.053521283 0.016550899
0.017688014 -0.053064045 0.016296566
0.019068141 -0.053629149 0.016261131
0.020096265 -0.053195998 0.015817553
0.020642376 -0.05160594 0.015368134
0.022153476 -0.052468762 0.015019447
0.023566281 -0.053024136 0.014824897
0.024846282 -0.053242031 0.013588041
0.025681742 -0.052530836 0.013051957
0.027296139 -0.05340549 0.011969477
0.028727073 -0.053863261 0.011249304
0.030025963 -0.054046731 0.010126472
0.031264752 -0.054112073 0.0096636117
0.03215475 -0.053591248 0.0090426803
0.03366524 -0.05410485 0.008418262
0.034787323 -0.053980328 0.0074416995
0.036221057 -0.054331586 0.0057244003
0.037442062 -0.054351378 0.0050864518
-0.020502783 -0.053066026 0.0059657693
-0.019099869 -0.052524641 0.0066711009
-0.018205807 -0.053403698 0.0094037056
-0.01673599 -0.052598823 0.011540204
-0.015263007 -0.051659409 0.012030661
-0.014484222 -0.053108815 0.013351411
-0.012894663 -0.051578652 0.014101237
-0.011629321 -0.051169012 0.01452738
-0.010759423 -0.052601621 0.015838414
-0.0094371522 -0.051904339 0.016100556
-0.0082570417 -0.051901408 0.016540378
-0.0070342226 -0.051584296 0.018278003
-0.0059132664 -0.052036747 0.018551469
-0.0046924576 -0.051617034 0.018585414
-0.0035217979 -0.051653035 0.018689096
-0.0023076604 -0.050768532 0.018995523
-0.0011521338 -0.050693888 0.019409984
0 -0.05198447 0.019586176
0.0011733522 -0.051627498 0.01981914
0.0023213183 -0.051069003 0.020247638
0.0034543031 -0.050663114 0.020701647
0.0047134315 -0.051847745 0.020988286
0.0058038295 -0.0510737 0.020426899
0.0068751019 -0.050417416 0.020145625
0.0082083931 -0.051595613 0.020017654
0.0092230598 -0.050726827 0.019238025
0.010539976 -0.051528774 0.018564969
0.011874354 -0.052247155 0.018209636
0.012975787 -0.051903147 0.017884284
0.014190223 -0.052030817 0.017193824
0.015287566 -0.051742531 0.016661733
0.016655799 -0.052346796 0.01658389
0.017638246 -0.051738851 0.016369194
0.01871288 -0.051460423 0.016126215
0.019925956 -0.05157306 0.015437722
0.020982839 -0.051291384 0.015124321
0.022030281 -0.051017493 0.015102327
0.023674121 -0.052083068 0.014666319
0.024781767 -0.051923703 0.013772458
0.026107045 -0.05221409 0.01327619
0.027326303 -0.052276406 0.012307525
0.028688438 -0.05259547 0.011214495
0.029987248 -0.052777555 0.010188818
0.031031502 -0.052514851 0.010342807
0.032484155 -0.052937139 0.0093816221
0.033901207 -0.053273324 0.0086356699
0.035040487 -0.053164877 0.0072290897
0.03623119 -0.053139079 0.0067670345
0.037678674 -0.053479407 0.0057135224
0.038664788 -0.053164084 0.0053198338
-0.020522907 -0.051910885 0.006385535
-0.019062269 -0.051229849 0.0069473982
-0.017718146 -0.050792016 0.0092123151
-0.01643094 -0.050466463 0.011683434
-0.015336228 -0.05072752 0.012569517
-0.014162742 -0.050749823 0.013820559
-0.012678387 -0.049560964 0.014683306
-0.01192094 -0.051260043 0.014786452
-0.010516068 -0.050243434 0.016188532
-0.0095012477 -0.051069207 0.016286969
-0.0083895158 -0.051535599 0.016589433
-0.0070446189 -0.050486438 0.018018246
-0.0057935915 -0.04982489 0.018758863
-0.0046879263 -0.050395206 0.018279523
-0.0035575435 -0.050991457 0.018553913
-0.0023425878 -0.050365638 0.018800318
-0.001191975 -0.051254921 0.018927276
0 -0.050030664 0.019310147
0.0011670977 -0.0501852 0.019435972
0.0023390513 -0.050289601 0.020333678
0.0035167532 -0.050406795 0.020873815
0.0046225656 -0.049692582 0.020975441
0.0058591333 -0.050388549 0.020557016
0.0070658359 -0.050638489 0.020244062
0.0082619172 -0.050751779 0.020209104
0.0092466716 -0.049700856 0.01943469
0.010626341 -0.050770298 0.018998921
0.011764286 -0.050586432 0.018760592
0.013049821 -0.051012937 0.01778385
0.014331685 -0.051355205 0.017243564
0.015413867 -0.05098433 0.016732305
0.016646778 -0.05112939 0.016430348
0.018012442 -0.051635668 0.01616767
0.019155851 -0.051481348 0.015721887
0.020187367 -0.051062163 0.015391797
0.021388972 -0.051095881 0.014817148
0.022947263 -0.051933281 0.014021933
0.022956043 -0.049355492 0.014071733
0.024534242 -0.050236784 0.013129413
0.026011178 -0.050840028 0.013114065
0.02703708 -0.050547585 0.012270242
0.029160885 -0.052246585 0.011347413
0.030168945 -0.051890586 0.010252833
0.030935677 -0.05116285 0.0099336207
0.032360028 -0.05153634 0.009085983
0.033767398 -0.051857077 0.007935971
0.035048306 -0.051968176 0.007358551
0.036788326 -0.052729934 0.0066052079
0.03774922 -0.052361824 0.0059583187
0.039142139 -0.052597251 0.0056052804
-0.020504586 -0.05065839 0.00581038
-0.019331617 -0.050745495 0.006907016
-0.018102294 -0.050686426 0.0095589161
-0.016460203 -0.049380608 0.012373686
-0.015669214 -0.050623614 0.013176799
-0.014611293 -0.051139522 0.014794469
-0.01288643 -0.049202736 0.015766829
-0.011815063 -0.049623262 0.016100049
-0.010317625 -0.048148919 0.017187119
-0.0094999326 -0.049874645 0.017089516
-0.0081195086 -0.048717052 0.017823368
-0.0069818101 -0.048872672 0.018496662
-0.0059403153 -0.049898647 0.01971218
-0.0046933647 -0.049280331 0.019649535
-0.0035168082 -0.049235314 0.01914373
-0.0023739648 -0.049853262 0.019018829
-0.0011591892 -0.048685942 0.019632936
0 -0.049769379 0.019523829
0.0011979691 -0.050314698 0.020238727
0.002315308 -0.048621465 0.020677477
0.003535649 -0.049499087 0.020769119
0.004611419 -0.0484199 0.021122515
0.0058134976 -0.048833378 0.02090013
0.0070289993 -0.049202994 0.020582706
0.0082347337 -0.049408402 0.020603299
0.0095569938 -0.050174214 0.020079583
0.010494286 -0.048973333 0.019550771
0.011711437 -0.049188036 0.019111276
0.0126283 -0.048217148 0.01799801
0.01432679 -0.050143763 0.01763162
0.015357065 -0.049615134 0.017179668
0.016805718 -0.050417155 0.016766191
0.017954228 -0.050271843 0.015960246
0.019231211 -0.05048193 0.015960246
0.019978484 -0.049358606 0.01505965
0.021076821 -0.049179252 0.014947921
0.022645587 -0.050058667 0.014847457
0.024344893 -0.051124275 0.014109164
0.025026927 -0.050053854 0.013641864
0.025795937 -0.049246788 0.012958765
0.027674552 -0.050536137 0.012130529
0.028492307 -0.049861535 0.011089563
0.029907733 -0.050244991 0.01023829
0.03141709 -0.050750684 0.0096185207
0.03241802 -0.050428033 0.0082274973
0.033851378 -0.050777066 0.007620275
0.03504885 -0.050760403 0.0070415139
0.036635675 -0.051289942 0.0063427687
0.037678193 -0.051047876 0.0054204762
0.038407546 -0.050409902 0.0050093234
-0.020936646 -0.050494261 0.0063681901
-0.019171925 -0.049128059 0.0080224872
-0.018131711 -0.04956001 0.0099898279
-0.017333113 -0.05076126 0.012478888
-0.015499816 -0.048884038 0.013800859
-0.014647267 -0.050044827 0.01471442
-0.012682727 -0.047271982 0.016425669
-0.011505515 -0.04717261 0.016826659
-0.010590396 -0.048245136 0.017942965
-0.009443447 -0.048397668 0.0179784
-0.0081976829 -0.048014998 0.018368781
-0.0070725968 -0.048329409 0.01861167
-0.0060074385 -0.049260996 0.019057155
-0.0047312118 -0.04849492 0.018715829
-0.0036042775 -0.049258459 0.01840049
-0.0023732556 -0.048651736 0.019470066
-0.0011547488 -0.0473447 0.019802302
0 -0.047737353 0.019960761
0.0011553585 -0.0473697 0.020493776
0.0023255732 -0.047674254 0.020566046
0.0034347097 -0.046941034 0.020855874
0.0047390163 -0.048574917 0.020692974
0.0058165998 -0.047696121 0.020567894
0.0071446612 -0.048821852 0.020315349
0.0081097689 -0.047500078 0.02024886
0.0096482839 -0.049447455 0.019918501
0.010562964 -0.048120167 0.019685388
0.011742026 -0.048142303 0.018950969
0.013007908 -0.04848402 0.018565685
0.014065091 -0.048055727 0.018164665
0.015489517 -0.048851553 0.017592072
0.016648047 -0.048754994 0.016579062
0.018080527 -0.049420103 0.016054809
0.019200196 -0.049200505 0.015529096
0.020077057 -0.048421137 0.015239298
0.021273283 -0.048455812 0.015238076
0.022659684 -0.048897211 0.014737844
0.023608239 -0.048396889 0.014361441
0.025111558 -0.049027327 0.013611019
0.026401602 -0.049202986 0.013102502
0.027428389 -0.048894085 0.01183027
0.028679553 -0.048994236 0.010955572
0.030400952 -0.049857561 0.0094946623
0.031297147 -0.049353197 0.0090162754
0.032679498 -0.049624421 0.0082865059
0.033766534 -0.049443852 0.0076920986
0.035008613 -0.049494937 0.0064879656
0.036300372 -0.04961051 0.0053310692
-0.020671582 -0.048639018 0.0060311258
-0.019460535 -0.048651338 0.008711338
-0.019180115 -0.051146977 0.010853916
-0.016740236 -0.047829248 0.012906253
-0.015713776 -0.048350081 0.014416009
-0.01431746 -0.047724869 0.016228884
-0.01329156 -0.048332948 0.017058671
-0.011636608 -0.046546433 0.018071383
-0.010692476 -0.047522116 0.01836586
-0.0094800554 -0.047400277 0.018190622
-0.0082681235 -0.047246423 0.018279582
-0.0071713882 -0.047809254 0.018415451
-0.0060260533 -0.048208427 0.018463641
-0.0047795172 -0.047795173 0.018569767
-0.0034923407 -0.046564542 0.018269122
-0.0023600925 -0.04720185 0.018222213
-0.00117335 -0.046934001 0.018734246
0 -0.046712194 0.018937677
0.0011800573 -0.047202293 0.019967109
0.0023709461 -0.047418918 0.019999921
0.0034707559 -0.046276744 0.020299584
0.0046180617 -0.046180617 0.02033937
0.0058559449 -0.04684756 0.020416945
0.0070276242 -0.046850827 0.019940376
0.0082391044 -0.047080595 0.020472288
0.0094020227 -0.047010113 0.020429283
0.010628834 -0.047239263 0.019778728
0.011989547 -0.047958188 0.019380927
0.012893296 -0.046884712 0.019719094
0.014107555 -0.047025185 0.019325197
0.0152503 -0.046924002 0.017728865
0.016817871 -0.048051063 0.017503053
0.017777139 -0.047405705 0.016418546
0.018746959 -0.046867397 0.016599715
0.020355709 -0.047895789 0.015440255
0.021841312 -0.048536249 0.015775084
0.022795152 -0.047989793 0.014327794
0.023973709 -0.047947418 0.013651967
0.02508734 -0.047785409 0.01316455
0.026412399 -0.048022546 0.012868196
0.027400473 -0.047652993 0.011250466
0.028974721 -0.048291203 0.010095
0.029886805 -0.047818888 0.0092698634
0.031365275 -0.048254266 0.008749485
0.032745302 -0.048511561 0.0074471831
0.033872239 -0.04838891 0.0065519512
0.03491525 -0.048158966 0.0058726072
0.036869619 -0.049159493 0.0051551461
-0.021309478 -0.048886448 0.006280452
-0.019969335 -0.048675254 0.0098283291
-0.018058591 -0.046952337 0.011199951
-0.016550791 -0.046105772 0.014117151
-0.015430097 -0.04629029 0.015743762
-0.014280116 -0.046410378 0.017504662
-0.013113842 -0.046494532 0.018902779
-0.011918799 -0.046483316 0.018625587
-0.010567353 -0.045791864 0.01880154
-0.009635116 -0.046971191 0.018918723
-0.008299252 -0.046238691 0.018593401
-0.0070056533 -0.045536745 0.018587589
-0.005991586 -0.04673437 0.018626869
-0.0046963356 -0.045789272 0.018471509
-0.0035645838 -0.04633959 0.01788637
-0.0023777676 -0.046366468 0.018137902
-0.001191273 -0.046459649 0.01814425
0 -0.045636993 0.018522561
0.0011935291 -0.046547633 0.019391507
0.0023559388 -0.045940805 0.01966989
0.0035826927 -0.046575006 0.020007819
0.0046765804 -0.045596659 0.020534545
0.0058391592 -0.045545444 0.020534545
0.0070572328 -0.045872014 0.020180166
0.0082762064 -0.046110295 0.020697653
0.0094356444 -0.045998767 0.020736068
0.010683665 -0.046295881 0.020587772
0.011743855 -0.045801032 0.020354092
0.013115183 -0.04649929 0.019977689
0.014155783 -0.046006292 0.018963456
0.015344533 -0.046033598 0.018455297
0.016418554 -0.045737401 0.018025964
0.017945256 -0.046657667 0.01708889
0.019206045 -0.046814736 0.016547084
0.020363931 -0.046717253 0.015680432
0.021351131 -0.046260785 0.015508652
0.02265737 -0.046507232 0.014537066
0.024127102 -0.047047846 0.013736844
0.024860928 -0.046170294 0.013337612
0.02616854 -0.046389684 0.012545973
0.027890431 -0.047292467 0.010557324
0.02884024 -0.046865389 0.0096972585
0.029930834 -0.046692099 0.0087723434
0.03159615 -0.047394224 0.00742957
0.033164065 -0.04790365 0.0062716305
0.034108866 -0.047508776 0.0060398579
0.035398383 -0.047604721 0.0053375959
-0.021060724 -0.047076914 0.006575048
-0.01879839 -0.044646177 0.0099887252
-0.018179983 -0.046055954 0.012849569
-0.016796334 -0.045590051 0.015581042
-0.015411731 -0.045049675 0.017436206
-0.013977926 -0.044263434 0.018308669
-0.013019184 -0.044975359 0.019761115
-0.011497483 -0.043690436 0.019810319
-0.010742817 -0.045358561 0.019665837
-0.009544313 -0.045335487 0.019104421
-0.0083648954 -0.04540943 0.018669844
-0.0072130002 -0.045682337 0.018485963
-0.0059137931 -0.04494483 0.018644542
-0.0047784816 -0.045395575 0.018176436
-0.003527052 -0.044675991 0.017413557
-0.0023622578 -0.044882901 0.016955405
-0.0011913228 -0.045270268 0.017150551
0 -0.044642489 0.017584145
0.0011721158 -0.044540402 0.01843819
0.0023595749 -0.044831924 0.019105971
0.0034537013 -0.043746881 0.019387275
0.0045670313 -0.043386798 0.019956887
0.0058759917 -0.04465754 0.02077651
0.0069927843 -0.044287633 0.020628303
0.0081993127 -0.044510551 0.021089077
0.0093941009 -0.044621978 0.020958692
0.010652841 -0.044978663 0.020604372
0.011867485 -0.045096442 0.020134866
0.01322703 -0.045693375 0.01932162
0.014326059 -0.045365851 0.018764883
0.015368156 -0.044922303 0.018942684
0.016704196 -0.045339961 0.018081099
0.017721165 -0.044893615 0.017161012
0.018477676 -0.043884482 0.016728342
0.020522194 -0.045873139 0.016408622
0.021485792 -0.045358896 0.016001999
0.022745108 -0.045490216 0.014915496
0.024199953 -0.04597991 0.014496416
0.025327425 -0.045830578 0.013494521
0.026785769 -0.046266329 0.012265295
0.027699754 -0.045764811 0.011387795
0.028873567 -0.045716479 0.0099325478
0.030396104 -0.046202078 0.0085683167
0.031727161 -0.046370469 0.0069585741
0.032984711 -0.046422929 0.0060715079
0.03431122 -0.046565231 0.0055578947
0.035147615 -0.046055496 0.0050230324
-0.020880198 -0.045445137 0.0064855516
-0.019091513 -0.044149123 0.010437548
-0.017930185 -0.04422779 0.013685971
-0.016310653 -0.043106724 0.015825272
-0.015331474 -0.043635733 0.018107265
-0.013960156 -0.043043815 0.019454628
-0.012807115 -0.043078475 0.020171523
-0.011650911 -0.04310837 0.02038154
-0.010545692 -0.043354515 0.020114511
-0.009438335 -0.0436523 0.019987315
-0.0084953504 -0.044903997 0.019355088
-0.0071726497 -0.04423134 0.019028842
-0.0060396022 -0.044693056 0.019155592
-0.0046832925 -0.043320455 0.017998934
-0.0035723599 -0.044059105 0.01753518
-0.0023920978 -0.044253811 0.017112464
-0.0011808168 -0.04369022 0.017127067
0 -0.042517219 0.017558783
0.0012003283 -0.044412147 0.017784089
0.0023724646 -0.043890595 0.018346518
0.0035917489 -0.044298239 0.019371867
0.0047871871 -0.044281479 0.020214081
0.0058612674 -0.04337338 0.020517826
0.0070837601 -0.043683186 0.020728976
0.0083451346 -0.044109996 0.021360964
0.0095348982 -0.044098906 0.021387786
0.010859507 -0.044644643 0.021144509
0.011730761 -0.043403815 0.020392895
0.012876173 -0.043310761 0.019742072
0.013991604 -0.043140776 0.01964578
0.015531912 -0.044206209 0.019554764
0.016803751 -0.044409912 0.018647373
0.017971314 -0.044329241 0.017656654
0.01893067 -0.043777175 0.017468303
