ply
format ascii 1.0
comment PCL generated
element vertex 1273
property float x
property float y
property float z
element camera 0
property float view_px
property float view_py
property float view_pz
property float x_axisx
property float x_axisy
property float x_axisz
property float y_axisx
property float y_axisy
property float y_axisz
property float z_axisx
property float z_axisy
property float z_axisz
property float focal
property float scalex
property float scaley
property float centerx
property float centery
property int viewportx
property int viewporty
property float k1
property float k2
end_header
0.019413652 -0.086790442 0.009434402
0.020703018 -0.087412737 0.0094851851
0.021997059 -0.087988235 0.0092654526
0.023113187 -0.087830111 0.0087561309
0.024531953 -0.088782303 0.007571131
0.025360541 -0.087609142 0.0073564053
0.026420357 -0.087302051 0.0065374374
0.028259067 -0.089487046 0.0056961477
0.028919896 -0.087916486 0.0056350529
0.029867116 -0.087303877 0.0053945482
0.031244729 -0.087948129 0.0053732395
0.032316715 -0.087716803 0.0050182641
-0.015155221 -0.087433964 0.0052698851
-0.01380181 -0.086261317 0.0065541863
-0.012852941 -0.087633684 0.0067131221
-0.011527974 -0.086459808 0.006967485
-0.010358298 -0.086319149 0.0075055659
-0.0092860842 -0.087057039 0.0082844794
-0.0081108212 -0.086901657 0.0097299516
-0.0068653165 -0.08581645 0.010632455
-0.0057504466 -0.086256698 0.011249423
-0.0045890664 -0.086044997 0.011829793
-0.0034263856 -0.085659638 0.012546748
-0.0022932824 -0.085998088 0.013283759
-0.0011363863 -0.085228972 0.013702631
0 -0.08550258 0.014209956
0.0011417924 -0.085634425 0.014675349
0.0022853857 -0.085701965 0.014963448
0.0033866605 -0.084666513 0.015459239
0.0045331852 -0.084997222 0.015161395
0.0056702718 -0.085054077 0.014696777
0.0068802577 -0.086003222 0.014513433
0.0080559785 -0.086314052 0.014169037
0.0091461586 -0.085745238 0.013656288
0.010254453 -0.085453771 0.013086081
0.011500648 -0.086254865 0.012741625
0.01248558 -0.085128956 0.012187362
0.01398906 -0.087431632 0.01204887
0.01487109 -0.085794754 0.011622161
0.016102919 -0.086265638 0.011276841
0.017165991 -0.085829951 0.011206686
0.018297948 -0.085771635 0.010618359
0.019560296 -0.086295426 0.010434955
0.020726131 -0.086358882 0.010157347
0.02176556 -0.085916683 0.0095956326
0.022793083 -0.085474059 0.0090760291
0.024199763 -0.086427726 0.0083270967
0.02542215 -0.08666642 0.0080760121
0.0265489 -0.086572498 0.0073091388
0.027699174 -0.086559922 0.0066324174
0.028506402 -0.08551921 0.0066684783
0.030285008 -0.087360598 0.0061969161
0.030899754 -0.085832648 0.0058094859
0.032629199 -0.087399647 0.0054584742
0.033303659 -0.086130157 0.0050629675
-0.015310029 -0.087149397 0.0052351356
-0.01387035 -0.085533828 0.0063774586
-0.012719403 -0.085566893 0.0067421794
-0.011593608 -0.085792705 0.007509321
-0.010492809 -0.086274207 0.0079303682
-0.0091986544 -0.085087553 0.0085696876
-0.0081019262 -0.085648932 0.0095025003
-0.0069148992 -0.085283756 0.010515064
-0.0057449951 -0.085025929 0.011256486
-0.0046102186 -0.085289046 0.011691779
-0.0034267544 -0.084526613 0.01213938
-0.0022787058 -0.084312111 0.01339379
-0.0011497529 -0.085081711 0.013906419
0 -0.084461525 0.014735281
0.0011250857 -0.083256349 0.015273094
0.0022821082 -0.084437996 0.015582651
0.0034338629 -0.084701948 0.0159567
0.0045744958 -0.084628172 0.015817672
0.0056903181 -0.084216714 0.015626848
0.0068930294 -0.08501403 0.015108228
0.0079173753 -0.083697975 0.014793217
0.009191365 -0.085020132 0.014339924
0.01025118 -0.084287487 0.014053315
0.011367057 -0.08411622 0.01351133
0.012579108 -0.084623091 0.012988418
0.013720227 -0.084608071 0.012922794
0.014756645 -0.083999366 0.012334406
0.016114863 -0.085178554 0.011889458
0.017299891 -0.085346125 0.011821568
0.018209582 -0.084219322 0.011264503
0.019560346 -0.085145041 0.010915607
0.020751318 -0.085310973 0.010633677
0.02167681 -0.084425472 0.0098751783
0.023270048 -0.086099178 0.0094508529
0.024048207 -0.084741302 0.0088154078
0.025468951 -0.085668288 0.0084959865
0.026498759 -0.085256875 0.0078248978
0.027600281 -0.085100867 0.0074786544
0.029033976 -0.08594057 0.007381469
0.030040823 -0.085500799 0.0066456497
0.03122714 -0.085585497 0.0065059066
0.032519057 -0.085943222 0.0059541464
0.033497032 -0.085475184 0.0055384934
0.034723952 -0.085652418 0.0052595139
0.035996728 -0.085927673 0.005192101
0.036856107 -0.085229747 0.0051119328
-0.013798156 -0.083938777 0.005785197
-0.012793544 -0.084902614 0.0065430999
-0.011625178 -0.084863797 0.0069235861
-0.010325487 -0.083751172 0.0079220533
-0.0093303435 -0.085139386 0.0088023841
-0.0081278533 -0.084761903 0.0091793537
-0.0069050356 -0.084011264 0.010424942
-0.0057452777 -0.083881058 0.011475265
-0.0045980522 -0.083914451 0.011971503
-0.0034318417 -0.083508149 0.012383401
-0.0022836763 -0.08335419 0.013612598
-0.0011451911 -0.083598956 0.014235944
0 -0.082459122 0.015094012
0.0011432465 -0.083457001 0.015656441
0.0023033654 -0.084072836 0.015927106
0.0034094187 -0.08296252 0.01635927
0.0045066597 -0.082246535 0.016376525
0.0056732721 -0.082829773 0.016169578
0.0068066004 -0.082813635 0.01589632
0.0080249263 -0.08368852 0.015568316
0.0091062719 -0.083094731 0.015409321
0.010206288 -0.082784332 0.014992386
0.011450824 -0.083591022 0.01433745
0.012711355 -0.084357172 0.013913572
0.013787222 -0.083872266 0.013694793
0.014948422 -0.083941139 0.013492525
0.01598727 -0.083362192 0.012909561
0.017042054 -0.082937993 0.012843102
0.018498994 -0.08440166 0.012564033
0.019289855 -0.082832903 0.012153804
0.02066165 -0.083794467 0.01156339
0.022075744 -0.084817335 0.010879844
0.02239603 -0.081745505 0.010307729
0.024063392 -0.083648928 0.0092939436
0.025048394 -0.083115123 0.0093753338
0.026487505 -0.084069036 0.0086642802
0.027991805 -0.085141741 0.0080735087
0.02869276 -0.083782859 0.0077140331
0.029931944 -0.084039688 0.0073068142
0.031724721 -0.08577425 0.0068663955
0.032571614 -0.084918857 0.0066173673
0.033737738 -0.084926032 0.0061897039
0.034727495 -0.084503576 0.0060073733
0.036486875 -0.085920706 0.0053408444
-0.014099119 -0.084594719 0.0055128336
-0.012837562 -0.084027678 0.0066711307
-0.011619624 -0.083661288 0.007206291
-0.010520076 -0.084160611 0.007946521
-0.0093166688 -0.083850026 0.009043932
-0.0081086485 -0.083403245 0.0095900893
-0.0069330479 -0.083196573 0.0096534193
-0.0058284854 -0.083930187 0.011430204
-0.0046031126 -0.082856029 0.012307703
-0.003441287 -0.082590885 0.012870878
-0.0023006697 -0.082824104 0.014229208
-0.0011420185 -0.08222533 0.014910221
0 -0.082632579 0.015473574
0.001132172 -0.081516385 0.015966445
0.0022623779 -0.081445597 0.016387016
0.0034372755 -0.082494609 0.016832978
0.004538931 -0.081700757 0.016767204
0.0056871795 -0.081895389 0.016819537
0.0068437089 -0.082124509 0.01669234
0.0079040295 -0.08129859 0.01654318
0.0090833148 -0.081749834 0.016412795
0.010257566 -0.082060531 0.016045898
0.011466501 -0.082558811 0.015549779
0.012667802 -0.082916528 0.014733464
0.013700329 -0.082201973 0.014240235
0.014802173 -0.081981264 0.0141128
0.016040666 -0.082494855 0.013723761
0.017164841 -0.08239124 0.013517261
0.018258817 -0.082164682 0.013246655
0.01949092 -0.082549781 0.013135046
0.020413335 -0.081653342 0.012508512
0.021685673 -0.082177289 0.011679977
0.022997886 -0.082792386 0.011272103
0.024353759 -0.083498605 0.010281593
0.025495378 -0.083439425 0.0100618
0.026287669 -0.082291834 0.0094853044
0.027779011 -0.083337031 0.0090731084
0.028919952 -0.083289459 0.0086675584
0.030355867 -0.084062397 0.0081060827
0.031621393 -0.084323712 0.007738024
0.032537412 -0.083667628 0.0074514151
0.033076443 -0.082120828 0.0068073571
0.034952667 -0.0838864 0.0062257946
0.036135379 -0.083927326 0.0055648685
0.036589984 -0.082327463 0.0054507554
-0.014203234 -0.084035799 0.0050258338
-0.012965746 -0.083687998 0.0061812103
-0.011522226 -0.0818078 0.0073703825
-0.010560971 -0.083314329 0.0078142881
-0.009429357 -0.083685547 0.0091876686
-0.00818427 -0.083011881 0.0099024177
-0.006974888 -0.082536176 0.010283083
-0.0058016628 -0.08238361 0.0119178
-0.0046266275 -0.082122639 0.012661606
-0.0034457901 -0.081550367 0.013209611
-0.0023126705 -0.082099803 0.014505357
-0.0011339133 -0.080507845 0.01525563
0 -0.081954069 0.015827477
0.0011252806 -0.07989493 0.016314954
0.0022690215 -0.080550261 0.016851306
0.0034193459 -0.080924518 0.01724273
0.0045500319 -0.080763064 0.01724273
0.0056460444 -0.080173828 0.017264396
0.0068465071 -0.081017002 0.017228752
0.0079455711 -0.080590792 0.01700905
0.0090408428 -0.080237485 0.017003477
0.010396323 -0.08201544 0.016870528
0.011392776 -0.080888711 0.016555935
0.012373476 -0.079865165 0.015613884
0.013587064 -0.080390133 0.015286863
0.014916443 -0.081466727 0.015202463
0.015898352 -0.080627359 0.01466319
0.017035151 -0.080633052 0.014181942
0.018410116 -0.081694886 0.013792276
0.019409027 -0.081061229 0.013514817
0.021377135 -0.084320918 0.013030738
0.021785671 -0.081409611 0.01225993
0.02307645 -0.081921399 0.011582077
0.02423357 -0.081932545 0.010490745
0.025482992 -0.082240567 0.010267943
0.026569193 -0.082017943 0.009524107
0.0278689 -0.082445495 0.0089936256
0.028911937 -0.082109898 0.0087057352
0.029940639 -0.081760973 0.0083368719
0.030895492 -0.081243701 0.0080645084
0.032120924 -0.081449486 0.0077468455
0.033531278 -0.08209382 0.0070658028
0.03427745 -0.0811233 0.0066585541
0.036093555 -0.08266589 0.0062524676
0.036977187 -0.082043134 0.0055916011
0.038183056 -0.082151428 0.0052721202
-0.012752243 -0.081150636 0.0061599314
-0.011670294 -0.081692062 0.0074519515
-0.010593609 -0.082394741 0.0082424879
-0.0092954542 -0.081335224 0.0091842115
-0.0081190066 -0.081190065 0.010439694
-0.0069419187 -0.080989055 0.011172682
-0.0058179628 -0.081451476 0.012116343
-0.0046333415 -0.081083477 0.01369372
-0.0034739871 -0.081059702 0.014272332
-0.0022672624 -0.079354189 0.015355259
-0.0011380806 -0.079665639 0.016685754
0 -0.079665884 0.01740551
0.0011344932 -0.079414517 0.017791271
0.002275167 -0.079630844 0.018415719
0.003400841 -0.079352953 0.0184744
0.00450736 -0.078878798 0.018244684
0.0057483464 -0.08047685 0.018228441
0.0067960043 -0.079286717 0.018382967
0.007939416 -0.079394162 0.018696338
0.0091398247 -0.079973467 0.018647075
0.010173433 -0.079126693 0.018278241
0.011370012 -0.079590082 0.01781249
0.012440674 -0.079167925 0.016412348
0.013757384 -0.080251411 0.016176909
0.014845003 -0.079934634 0.015868217
0.016117454 -0.08058726 0.015385747
0.017192408 -0.080231234 0.015202075
0.018457346 -0.080750883 0.014525652
0.019645069 -0.08089146 0.014240056
0.020485694 -0.079666585 0.013459921
0.021699779 -0.079946555 0.012663424
0.022970285 -0.080395997 0.012303382
0.024221575 -0.080738582 0.011183709
0.025211317 -0.080217823 0.011014253
0.02653512 -0.080759063 0.010406256
0.027558059 -0.080377676 0.0099666119
0.028799055 -0.080637358 0.0093150437
0.030093007 -0.081019633 0.0090169013
0.031065127 -0.080539219 0.0087230504
0.032301921 -0.080754802 0.0076994002
0.03371172 -0.081373118 0.0074014366
0.034709573 -0.080989003 0.006673038
0.036072165 -0.081453271 0.0067076981
0.037102465 -0.081161641 0.0060632527
0.038550213 -0.081773177 0.0057300329
-0.012919754 -0.081042096 0.0055264235
-0.011788555 -0.081341036 0.0062566102
-0.010515111 -0.080615856 0.0078674257
-0.0093132099 -0.080326438 0.0089819133
-0.0081468849 -0.08030501 0.009627074
-0.0069818669 -0.080291472 0.011291057
-0.0057433192 -0.079257801 0.012089521
-0.0045621884 -0.078697748 0.013890803
-0.0035061869 -0.080642298 0.014741272
-0.0023495355 -0.081058979 0.016045868
-0.0011790359 -0.081353478 0.017649531
0 -0.080610983 0.01848492
0.0011835363 -0.081664003 0.018972009
0.0022387302 -0.07723619 0.019717664
0.0034125936 -0.078489654 0.019802094
0.004523511 -0.078030564 0.019574463
0.0056581837 -0.078082934 0.019327164
0.0068184119 -0.078411736 0.019238532
0.0079570469 -0.078433752 0.019444197
0.009099667 -0.078484625 0.019405276
0.010298418 -0.07895454 0.01922223
0.011411614 -0.078740135 0.018756896
0.012567336 -0.078831472 0.018039823
0.013703736 -0.078796484 0.018021852
0.014854044 -0.078840695 0.017192721
0.015986811 -0.078792147 0.016793668
0.017180059 -0.079028271 0.016734242
0.018099036 -0.078052089 0.016208977
0.01934188 -0.078505278 0.015339494
0.020761747 -0.079586692 0.014585882
0.021724526 -0.078894332 0.0140751
0.022899169 -0.079002135 0.012984395
0.023961999 -0.078732282 0.012128979
0.025268028 -0.079249725 0.012318015
0.026830437 -0.080491312 0.011531502
0.028030783 -0.080588497 0.010644406
0.028607046 -0.078955449 0.01009649
0.030497715 -0.080936238 0.0095094144
0.031783469 -0.081224419 0.0091352463
0.032533742 -0.080172442 0.0085737407
0.033902571 -0.080664739 0.0079386234
0.03457763 -0.079528548 0.0076914132
0.035934005 -0.079982139 0.0074292123
0.036950152 -0.079673767 0.0065362155
0.038651243 -0.080816232 0.0062002242
0.039008655 -0.079164624 0.005793184
-0.011641056 -0.079159185 0.0056225955
-0.01053449 -0.079593919 0.0074502528
-0.0093766479 -0.079701506 0.0087997317
-0.0080976672 -0.078663059 0.0097869337
-0.0071079065 -0.080556273 0.011111706
-0.0060800752 -0.082689017 0.012587279
-0.0045792977 -0.077848062 0.013687432
-0.0033885643 -0.076807454 0.015595287
-0.0022481293 -0.0764364 0.016618133
-0.0011345373 -0.077148534 0.01815775
0 -0.079336837 0.019448012
0.001142323 -0.077677965 0.020062029
0.0023285414 -0.079170406 0.020263165
0.0034573574 -0.078366771 0.020492226
0.0045216368 -0.076867826 0.020453393
0.0056944629 -0.077444695 0.020437688
0.006855017 -0.077690199 0.020093858
0.0078081763 -0.075850859 0.020437688
0.0091431187 -0.077716514 0.020408899
0.010118539 -0.076451182 0.019964635
0.011364989 -0.07728193 0.01956439
0.012582939 -0.077785447 0.018915445
0.01367552 -0.077494614 0.018896788
0.014939658 -0.078145906 0.018734664
0.016040705 -0.077911995 0.01770699
0.017066395 -0.077367656 0.017796546
0.018624447 -0.079153895 0.017311871
0.019268852 -0.077075407 0.016385734
0.020444941 -0.077236444 0.015889138
0.021704124 -0.07767792 0.015497893
0.023216695 -0.078936763 0.014201999
0.024035117 -0.077827998 0.012942225
0.025344647 -0.078337997 0.012820959
0.026323978 -0.077827409 0.012268573
0.027531531 -0.078006007 0.011161417
0.028914124 -0.078646414 0.010902673
0.030253744 -0.079125173 0.0099020898
0.031341735 -0.078934744 0.0098110437
0.032675404 -0.079354547 0.0087870657
0.033736128 -0.079105407 0.0084938705
0.034694724 -0.078641377 0.0080170929
0.036378384 -0.079797745 0.0074552894
0.036925614 -0.078466929 0.006585598
0.038770076 -0.079889849 0.0057804883
0.039751194 -0.079502389 0.0052023232
-0.010698319 -0.079643048 0.0061222613
-0.0092415167 -0.077397704 0.0079884529
-0.0085082417 -0.081436023 0.0088029802
-0.0067609292 -0.075497046 0.010591
-0.0056963498 -0.076331086 0.012284935
-0.0045635342 -0.076439194 0.013312668
-0.0034325805 -0.076660968 0.015372515
-0.0022687116 -0.076001838 0.016788542
-0.0011428836 -0.076573201 0.018556654
0 -0.079039469 0.019613266
0.0011381384 -0.076255269 0.020135254
0.0022846507 -0.076535799 0.020885766
0.0035519395 -0.079326652 0.020864993
0.0045443103 -0.076117195 0.020887762
0.0056562 -0.07579308 0.021088034
0.0068248017 -0.076210283 0.020966232
0.0079832366 -0.076410979 0.021084726
0.009060015 -0.075877629 0.020501524
0.010252192 -0.07632187 0.020806909
0.011231916 -0.075253837 0.020245671
0.0123543 -0.075248919 0.019498587
0.013734776 -0.076685831 0.019301236
0.014898736 -0.076785795 0.019085407
0.015989821 -0.076522715 0.018611431
0.016934345 -0.075640075 0.018314451
0.017991534 -0.075339548 0.01804021
0.019518066 -0.076924145 0.017581999
0.020470312 -0.076195054 0.016507834
0.022035737 -0.077704966 0.01618436
0.022846365 -0.076535329 0.015152961
0.023859326 -0.076122612 0.013788402
0.025336944 -0.077162512 0.013276458
0.026279572 -0.076553538 0.012821257
0.028167315 -0.078633755 0.011918396
0.028987363 -0.077686131 0.011509627
0.030044228 -0.077421665 0.010421008
0.031483099 -0.078124724 0.010366619
0.032521233 -0.077818662 0.0093683302
0.033741869 -0.077955358 0.0087651908
0.034815293 -0.077754147 0.0082497001
0.036544397 -0.078983046 0.0075081885
0.037424807 -0.078358188 0.0068696141
0.038606588 -0.078383073 0.0061200261
0.039477646 -0.077794187 0.0054281056
0.040744636 -0.077996872 0.0050510168
-0.0097988304 -0.080840349 0.0062410831
-0.0080548199 -0.075945444 0.0078256428
-0.0068547647 -0.075402416 0.010330439
-0.0057599563 -0.076031424 0.012033254
-0.0045148809 -0.074495539 0.013496131
-0.003365973 -0.074051403 0.015615612
-0.0022145673 -0.073080726 0.01765871
-0.0011432545 -0.075454794 0.019350767
0 -0.079362527 0.020116121
0.0011469662 -0.075699769 0.020635307
0.0022777261 -0.075164959 0.021214217
0.0035185735 -0.077408612 0.021179885
0.0045331344 -0.074796721 0.021228105
0.0056610876 -0.074726351 0.021235883
0.0069084261 -0.075992689 0.021146387
0.0079432428 -0.074893437 0.021436155
0.0091778254 -0.075717062 0.020816594
0.010267021 -0.075291485 0.020649314
0.011346907 -0.074889593 0.020610958
0.012601885 -0.075611308 0.020227581
0.01377207 -0.075746387 0.020251781
0.014750978 -0.074889578 0.019720614
0.015879227 -0.074859209 0.019288719
0.01720437 -0.075699233 0.019223332
0.017967258 -0.074114934 0.018901229
0.019158531 -0.074380182 0.018032968
0.020782229 -0.076201506 0.017261177
0.021539334 -0.074820846 0.016823649
0.023268232 -0.07678517 0.016040951
0.024304759 -0.076386385 0.014670253
0.025155317 -0.075465947 0.014333814
0.026858136 -0.077071175 0.013782352
0.02776378 -0.076350398 0.012933165
0.029087773 -0.076791719 0.012049824
0.030137569 -0.076503061 0.011053383
0.031491544 -0.076979332 0.010360956
0.032329418 -0.07620506 0.0094708502
0.033761486 -0.076836482 0.0089134872
0.035101328 -0.077222928 0.0083615482
0.035815053 -0.076251402 0.0073337257
0.037374653 -0.077085227 0.0067133904
0.038180657 -0.076361313 0.0060300231
0.040279809 -0.078190215 0.0055978
0.040944371 -0.077209383 0.0052382946
0.042986829 -0.076679207 0.0051089823
-0.0094844783 -0.077061385 0.0052780509
-0.0080961352 -0.0751784 0.007078737
-0.0067510689 -0.073136583 0.0088870227
-0.0056890654 -0.073957846 0.010954291
-0.0045180316 -0.073418014 0.013624519
-0.0035023361 -0.075883947 0.016004443
-0.0024943701 -0.081067026 0.018283874
-0.00118634 -0.077112101 0.019539565
0 -0.074406646 0.019998789
0.0011214667 -0.072895341 0.020741373
0.0023023081 -0.074825011 0.021075636
0.00349193 -0.075658485 0.021360248
0.004483954 -0.072864249 0.021229148
0.0056857187 -0.073914342 0.021471232
0.006772975 -0.073373891 0.021471232
0.0079530226 -0.073849492 0.02158463
0.0090746274 -0.073731348 0.021052629
0.010199108 -0.073660225 0.020438164
0.011326806 -0.073624238 0.020438164
0.012448635 -0.073560111 0.020109773
0.013583737 -0.073578574 0.020285636
0.01479048 -0.073952399 0.02004227
0.016302373 -0.075689591 0.019958138
0.017226255 -0.074647099 0.019679964
0.018122857 -0.073624112 0.019499183
0.019326948 -0.073897153 0.018834203
0.020657487 -0.07459648 0.018457234
0.02171253 -0.074279703 0.017871022
0.023071339 -0.074981853 0.016977072
0.024193745 -0.074885398 0.015654892
0.025631204 -0.075728558 0.015417606
0.026542379 -0.075011067 0.014698803
0.027628209 -0.074826397 0.013548315
0.029034669 -0.075490139 0.012817979
0.030034965 -0.075087413 0.011782438
0.031153884 -0.075000092 0.010858178
0.032451812 -0.075334564 0.010021925
0.033303872 -0.074646607 0.0092271268
0.034859266 -0.075528413 0.0078871846
0.036424492 -0.076373927 0.0072019994
0.037415493 -0.076000221 0.0066822469
0.038957257 -0.076733992 0.0064056814
0.040374812 -0.077187143 0.0059526265
0.040651631 -0.075495884 0.005584985
0.042441104 -0.076629773 0.0051519573
-0.0082422104 -0.075357348 0.0050156116
-0.0072078132 -0.076883346 0.0074112415
-0.0061533931 -0.078763433 0.0092683434
-0.0048157331 -0.077051729 0.01376754
-0.0034710993 -0.074050114 0.015932411
-0.0022532367 -0.072103575 0.017656475
-0.0011173164 -0.071508251 0.019232571
0 -0.072069414 0.019895822
0.0011122037 -0.071181037 0.020249158
0.0022763656 -0.072843701 0.02122581
0.0034050003 -0.072640009 0.021462858
0.0046236492 -0.073978387 0.021323621
0.0056579807 -0.072422154 0.021205068
0.0067389528 -0.071882166 0.021514237
0.0079073757 -0.072296008 0.021231383
0.0091173928 -0.072939143 0.020585746
0.010236808 -0.072795086 0.020471513
0.011455704 -0.073316507 0.020620465
0.012530845 -0.072906733 0.020471513
0.01361939 -0.072636746 0.02059716
0.014843348 -0.073074944 0.02044639
0.015857765 -0.072492644 0.020231605
0.017009914 -0.072575636 0.020179242
0.018394187 -0.073576748 0.019907892
0.019301981 -0.07266628 0.019461125
0.020571979 -0.073144808 0.019066483
0.021625731 -0.072844565 0.018654168
0.022883968 -0.073228694 0.017753065
0.024247207 -0.073896252 0.016726196
0.025009366 -0.072754517 0.016085356
0.02629065 -0.073156588 0.01493752
0.027903629 -0.074409679 0.014016151
0.028908473 -0.074005693 0.012925118
0.030300096 -0.074584849 0.012133896
0.032112904 -0.076119475 0.011371434
0.03243804 -0.074144088 0.010136038
0.033999048 -0.075032376 0.0090021193
0.03514133 -0.074968174 0.0083084404
0.036157236 -0.074647196 0.0076169372
0.037341561 -0.074683122 0.0070596039
0.038606837 -0.074873872 0.0062998533
0.039801493 -0.074920461 0.0055249333
-0.0069345962 -0.072813258 0.005864352
-0.0057650278 -0.072639354 0.0092308819
-0.0045213304 -0.071210951 0.014123917
-0.0034257695 -0.07194116 0.016572356
-0.0022443135 -0.070695877 0.018728822
-0.0011479784 -0.072322637 0.01990661
0 -0.070616223 0.020145476
0.0011390296 -0.071758866 0.020533204
0.002259654 -0.071179099 0.02163893
0.0035004611 -0.073509686 0.021549642
0.0046177516 -0.072729588 0.02163893
0.0056192437 -0.070802473 0.021288216
0.0069722128 -0.073208235 0.021562308
0.0080529666 -0.0724767 0.020982206
0.0092779445 -0.073063813 0.020421922
0.010220779 -0.071545452 0.020736039
0.011307064 -0.071234509 0.020787507
0.012445659 -0.07127969 0.020982206
0.013945579 -0.073214285 0.021105379
0.015041676 -0.072894275 0.020869315
0.01588819 -0.071496859 0.021023571
0.017084487 -0.071754843 0.020708889
0.018155515 -0.071487345 0.020607531
0.019548811 -0.072445594 0.020201325
0.020258632 -0.070905209 0.01967749
0.021906171 -0.072636247 0.019569486
0.023441799 -0.073841669 0.018496156
0.023858823 -0.071576469 0.01742807
0.025580004 -0.073251829 0.016589612
0.026606204 -0.072877862 0.015508026
0.027836237 -0.073070124 0.01459381
0.029319758 -0.073885791 0.013655484
0.030489303 -0.073877931 0.012755662
0.031405862 -0.073280342 0.011735052
0.033160314 -0.074610703 0.010984093
0.034021605 -0.073909 0.010203183
0.035013501 -0.073528349 0.0089041889
0.036239635 -0.073648289 0.0084617138
0.037327576 -0.07348866 0.0073015094
0.03964353 -0.075683102 0.0065389872
0.04007126 -0.074249685 0.0057298541
0.04140022 -0.074520394 0.005035013
-0.0057722284 -0.071575627 0.0080547035
-0.0047289585 -0.073298857 0.014553189
-0.0034669801 -0.071650922 0.017966539
-0.0022812798 -0.070719674 0.019706458
-0.0011293263 -0.070018232 0.020399541
0 -0.071615182 0.020807058
0.001141442 -0.070769407 0.021213531
0.0022856633 -0.070855565 0.021817625
0.0034372087 -0.071035646 0.021810591
0.0046096323 -0.071449302 0.021817625
0.0058559366 -0.072613612 0.021383911
0.0069892607 -0.072222359 0.021406531
0.0079258336 -0.070200242 0.020842344
0.0092665832 -0.07181602 0.020366192
0.010554186 -0.072706617 0.020364344
0.011623927 -0.072068349 0.020915836
0.012632846 -0.071203314 0.021266758
0.013772996 -0.07116048 0.021479547
0.014709161 -0.070151381 0.02131623
0.015982414 -0.070779264 0.021630287
0.017110607 -0.070723839 0.021216691
0.018284597 -0.070852809 0.021176517
0.019353 -0.070581533 0.020848632
0.020520933 -0.070683211 0.020692736
0.022094112 -0.072096571 0.020531058
0.022993883 -0.071281038 0.01931411
0.023743417 -0.070099607 0.018069923
0.02525056 -0.071160667 0.017027676
0.026562387 -0.071602955 0.015989333
0.027686974 -0.071524687 0.015108466
0.028925842 -0.07173609 0.013965964
0.030256614 -0.072150387 0.012958884
0.031072378 -0.071351387 0.011713266
0.032940462 -0.07293959 0.011134416
0.033726975 -0.072105952 0.0097667575
0.035397235 -0.073154286 0.0094449222
0.036792282 -0.073584564 0.0086473525
0.037431821 -0.072524153 0.0080392957
0.038089205 -0.07156153 0.0067248046
0.039924201 -0.072802953 0.0063845217
0.040892251 -0.072437696 0.0057622194
0.042690992 -0.073523372 0.0054707825
-0.0059812348 -0.072971068 0.0072473884
-0.0047030444 -0.071721427 0.014812797
-0.0034774912 -0.07070899 0.017234296
-0.0022747656 -0.06938035 0.019987285
-0.0011395855 -0.069514722 0.020711601
0 -0.067631736 0.021264672
0.0011242409 -0.068578698 0.02143997
0.0022357954 -0.068191759 0.022345006
0.0033724559 -0.068573274 0.022122622
0.0045761522 -0.069786318 0.022087216
0.005794616 -0.07069432 0.021028876
0.0068148486 -0.069284298 0.020489961
0.0081433933 -0.070963852 0.020450234
0.0091743134 -0.069954142 0.020008773
0.010504099 -0.07119444 0.019976914
0.011787406 -0.071903177 0.020357996
0.012643241 -0.070112519 0.020679325
0.013531626 -0.068785764 0.021430671
0.015052127 -0.070629209 0.021453291
0.016068898 -0.070014484 0.021875948
0.017027099 -0.069243535 0.021392107
0.018356157 -0.069982849 0.021178365
0.019578984 -0.070253998 0.021041572
0.020810552 -0.070524648 0.020865768
0.021793131 -0.069967419 0.020166427
0.022650307 -0.069083437 0.019507259
0.024279088 -0.070524968 0.018265158
0.025179029 -0.069814578 0.01723206
0.026298879 -0.069749199 0.016891479
0.027963463 -0.0710738 0.015745252
0.028782327 -0.070228875 0.014190525
0.029981017 -0.070340075 0.013288707
0.031471848 -0.071103066 0.012129039
0.032929547 -0.071739368 0.01111716
0.034134801 -0.071800791 0.009698838
0.034946539 -0.071057968 0.0088909268
0.03695339 -0.072714739 0.0084629059
0.037289184 -0.07108251 0.0071801841
0.038897332 -0.071901128 0.0068643093
0.039762419 -0.071338452 0.006293714
0.041298959 -0.071978182 0.005567342
-0.0060568997 -0.072682798 0.0060441196
-0.0046914662 -0.070371993 0.013789356
-0.0034755606 -0.069511212 0.016396433
-0.0022545944 -0.067637831 0.019469112
-0.0011387569 -0.068325408 0.021469504
0 -0.067339048 0.021677345
0.0011306572 -0.067839429 0.021996379
0.0022516712 -0.067550138 0.02237168
0.0034620413 -0.069240831 0.022513926
0.0045937882 -0.068906821 0.022380024
0.0058108848 -0.069730617 0.021440715
0.0069523631 -0.069523633 0.020761669
0.0080144331 -0.068695143 0.020009965
0.00919984 -0.068998806 0.020018429
0.010242968 -0.068286456 0.019962221
0.011610531 -0.069663189 0.020036846
0.012343517 -0.067328274 0.020890146
0.01374519 -0.068725951 0.021567971
0.014879176 -0.068673119 0.021567971
0.016011303 -0.068619877 0.021850407
0.017309517 -0.069238067 0.021265328
0.018505517 -0.069395691 0.021535814
0.019354956 -0.068311609 0.021516323
0.020639088 -0.068796955 0.021119207
0.021661837 -0.0684058 0.020398885
0.023009621 -0.069028862 0.019587338
0.024181288 -0.06908939 0.018796831
0.025377553 -0.069211505 0.017965734
0.026496602 -0.069121569 0.017460078
0.027729211 -0.069323026 0.016135037
0.028960738 -0.069505773 0.014542729
0.030650038 -0.070730858 0.013232112
0.031677641 -0.070394762 0.012201488
0.032471053 -0.069580831 0.010291904
0.034007028 -0.070359372 0.0096768141
0.03513499 -0.07026998 0.0090671778
0.036483757 -0.07061372 0.0076345205
0.037435729 -0.070191994 0.0072336793
0.038906273 -0.070738681 0.0067820549
0.040262621 -0.071051687 0.005903542
0.040941097 -0.070184737 0.0052277744
-0.0059315688 -0.069992512 0.0064935088
-0.0047307713 -0.069778882 0.011941224
-0.0035309808 -0.069442622 0.016339451
-0.0023243017 -0.068566896 0.018187135
-0.00113183 -0.066777967 0.021198988
0 -0.065692946 0.022231221
0.001129211 -0.066623449 0.022530407
0.0022280698 -0.065728061 0.022893161
0.0034975437 -0.068785027 0.022893161
0.0046194391 -0.068136722 0.02296555
0.0057449033 -0.06778986 0.021762401
0.0069192261 -0.068039052 0.020650089
0.0078687659 -0.066322453 0.02064243
0.0091390889 -0.067400783 0.020721436
0.010328609 -0.067709774 0.02028504
0.011503561 -0.067871012 0.020351648
0.012608218 -0.067625895 0.020691037
0.013711062 -0.067412719 0.021075249
0.014939545 -0.067802548 0.021319538
0.015952744 -0.06722942 0.021509349
0.017294273 -0.068024136 0.021267533
0.018054003 -0.066574134 0.021446288
0.019526962 -0.067770042 0.02179864
0.020472927 -0.067105711 0.021449417
0.021689897 -0.067352839 0.021209329
0.022912648 -0.067592308 0.020207912
0.024014339 -0.067468859 0.019348174
0.025078256 -0.067255318 0.018445343
0.026196329 -0.067199282 0.017398983
0.028233059 -0.069406271 0.015755683
0.029254509 -0.069040641 0.014656037
0.030451477 -0.069101423 0.013253927
0.031363167 -0.06853433 0.011676371
0.033046599 -0.069633909 0.010680646
0.034025237 -0.069223762 0.010492802
0.035305049 -0.069433264 0.009044975
0.036495697 -0.06945955 0.0083049536
0.037201285 -0.068589866 0.0072745681
0.039073229 -0.069858193 0.0071696043
0.040403668 -0.070112251 0.0060718358
0.041207246 -0.06946364 0.0054377019
-0.0059767165 -0.06932991 0.0077947378
-0.0046755224 -0.067795075 0.012176841
-0.0034729124 -0.067142971 0.016636938
-0.0022928948 -0.066493951 0.018391311
-0.001118316 -0.064862326 0.021983922
0 -0.065138102 0.022570968
0.0011259302 -0.065303952 0.022821516
0.0022643874 -0.065667234 0.023002177
0.0033764273 -0.065277591 0.022604108
0.0045412746 -0.065848485 0.022319168
0.005936821 -0.068867125 0.020904511
0.0069598574 -0.067278624 0.020157039
0.0080376482 -0.066597663 0.020251453
0.0092828972 -0.067301005 0.020372719
0.01015222 -0.065425418 0.019863248
0.011507323 -0.066742472 0.019863248
0.012930507 -0.068179034 0.020303071
0.013691453 -0.066175357 0.020856291
0.014748942 -0.065802969 0.021002591
0.016385833 -0.067884162 0.021036178
0.017145609 -0.066296354 0.021047384
0.018420301 -0.066773593 0.021163136
0.01939678 -0.066177249 0.021512359
0.020614395 -0.066424161 0.021319538
0.021647306 -0.066081248 0.021254808
0.022787524 -0.066083819 0.020307302
0.024068201 -0.06647408 0.019641519
0.025285866 -0.066662736 0.018855721
0.026143391 -0.065926813 0.018031478
0.027465785 -0.06637565 0.016221434
0.028970612 -0.067211822 0.014912963
0.030187882 -0.067342199 0.01330024
0.031653937 -0.067997344 0.01191029
0.032946609 -0.068246543 0.010865539
0.033828288 -0.067656577 0.010083884
0.03548222 -0.068598963 0.0090982914
0.036752164 -0.068762109 0.0082673728
0.037683543 -0.068301417 0.0077236593
0.039077707 -0.06868203 0.0075033605
0.04038766 -0.068896599 0.0065494776
0.041218333 -0.068304665 0.0055908263
-0.0059996033 -0.068395481 0.0078697801
-0.0046516657 -0.066286236 0.011941224
-0.0034049402 -0.064693861 0.016199857
-0.0022819359 -0.065035172 0.018176466
-0.0011173415 -0.063688464 0.021878272
0 -0.06367477 0.021296263
0.0011301957 -0.064421155 0.021681339
0.0022091975 -0.06296213 0.022769928
0.0033367719 -0.063398667 0.022226453
0.0046043936 -0.065612607 0.022143602
0.0058893454 -0.067138538 0.020804405
0.006950018 -0.066025168 0.020119011
0.008035115 -0.065428793 0.02039665
0.0092624705 -0.065995105 0.020432711
0.010269536 -0.065040395 0.020106465
0.011595668 -0.066095307 0.019806355
0.012903112 -0.066861577 0.020639032
0.013565072 -0.064434096 0.021198958
0.01511308 -0.066265047 0.021187037
0.015935866 -0.064881742 0.021625519
0.017250666 -0.065552533 0.021479309
0.018233363 -0.064956352 0.021356553
0.019306803 -0.064734578 0.022413582
0.02041617 -0.064651206 0.021512359
0.021638105 -0.064914308 0.02179864
0.022939684 -0.0653781 0.020913035
0.024386384 -0.066191614 0.020057678
0.024946032 -0.0646329 0.019420266
0.026024535 -0.064495586 0.018883348
0.028167864 -0.066898681 0.016680211
0.028830877 -0.065734401 0.015183359
0.030469352 -0.066798195 0.013021648
0.031442389 -0.066378377 0.012078673
0.033110138 -0.06740278 0.010430098
0.034075126 -0.066975251 0.010014504
0.035429575 -0.067316189 0.0088725686
0.036387105 -0.06690532 0.0082527399
0.038295869 -0.068214521 0.0082847774
0.039236218 -0.067771651 0.0073373914
0.039822407 -0.066761099 0.0063137412
0.041656125 -0.067839973 0.0051175058
-0.0060026585 -0.06722977 0.009434253
-0.0046794387 -0.065512143 0.014783025
-0.0034286862 -0.064002141 0.016167134
-0.0022404974 -0.062733926 0.018124491
-0.0011231228 -0.062894873 0.020213127
0 -0.063539922 0.020613253
0.0011009455 -0.061652947 0.020631969
0.0022085721 -0.06184002 0.022978485
0.0034222889 -0.063882723 0.022630632
0.0044586505 -0.06242111 0.022346109
0.0057842522 -0.064783625 0.021198213
0.0068955394 -0.064358369 0.020777017
0.008004386 -0.064035088 0.021445245
0.0092283376 -0.064598367 0.021435231
0.010329249 -0.064270884 0.02113387
0.011751567 -0.065808773 0.020374388
0.012737625 -0.064846091 0.021434784
0.01372651 -0.064057052 0.02140978
0.014695069 -0.063301831 0.021481812
0.016097765 -0.064391062 0.021672547
0.017025037 -0.063560136 0.021469623
0.018151468 -0.06353014 0.021496385
0.019148391 -0.063077055 0.022361249
0.020510297 -0.063809812 0.022052735
0.021831118 -0.064344347 0.022097796
0.023049138 -0.064537592 0.021181524
0.024732588 -0.065953568 0.020481318
0.026007246 -0.066200264 0.01982227
0.027028896 -0.065809488 0.019263685
0.02783796 -0.064955242 0.017080963
0.030005919 -0.06721326 0.015320122
0.029974531 -0.064560525 0.012775898
0.031870704 -0.066102199 0.011516541
0.03314076 -0.06628152 0.010392815
0.034238983 -0.066116661 0.0098479986
0.035371233 -0.0660263 0.0086563528
0.036914326 -0.066683941 0.0081339478
0.03756322 -0.065735631 0.0078134537
0.039015803 -0.066208638 0.0065970123
0.040272322 -0.066330887 0.0052392185
-0.0071656215 -0.065684862 0.0050040781
-0.0058579249 -0.064437173 0.011081904
-0.0046489388 -0.063922912 0.014182001
-0.0034589958 -0.063414924 0.015974343
-0.0022444921 -0.06172353 0.018114626
-0.0011359053 -0.062474791 0.01934281
0 -0.063895941 0.019932598
0.0011311525 -0.062213391 0.020112336
0.0023427145 -0.064424649 0.021004349
0.003462469 -0.063478597 0.020742893
0.0045390218 -0.062411547 0.020971447
0.0058408654 -0.064249516 0.021244615
0.0069642006 -0.063838504 0.021131337
0.0079974849 -0.062837377 0.02140668
0.0091449153 -0.062871292 0.02143839
0.010525975 -0.064325407 0.02109009
0.011668034 -0.064174183 0.020988345
0.012993458 -0.06496729 0.021635532
0.014079383 -0.064530507 0.022071391
0.014768535 -0.062482264 0.021858782
0.01598167 -0.062785134 0.022244006
0.017425817 -0.063894659 0.022125691
0.019432275 -0.066798449 0.02222684
0.020213107 -0.065395348 0.022785693
0.02151154 -0.065729707 0.022517651
0.022609182 -0.065447636 0.022563487
0.022984419 -0.063207157 0.021754712
0.023370253 -0.061207805 0.020856202
0.025075477 -0.062688693 0.020530224
0.026047904 -0.062288463 0.019847721
0.027929688 -0.064005539 0.017616153
0.029899344 -0.065778553 0.015544027
0.029977418 -0.063413769 0.012889385
0.031740818 -0.064657219 0.011836737
0.033006091 -0.064833395 0.010482788
0.034258142 -0.064972334 0.0095418692
0.035744675 -0.065531909 0.0087054074
0.037151404 -0.065913782 0.0077078044
0.037802007 -0.064972199 0.0075491667
0.039424356 -0.065707259 0.005830735
-0.0070770658 -0.06369359 0.006067872
-0.0057990449 -0.062629685 0.011233747
-0.0046844585 -0.063240193 0.013884306
-0.0034706432 -0.062471576 0.016204447
-0.0023746139 -0.064114571 0.018049657
-0.0011623334 -0.062766001 0.019632965
0 -0.061295271 0.019695103
0.001148927 -0.062042061 0.020237803
0.0023083137 -0.062324475 0.021483898
0.0033401172 -0.060122106 0.021537036
0.0044397423 -0.059936523 0.021742344
0.0059312708 -0.064057723 0.021592885
0.0066639506 -0.059975557 0.021383643
0.0079308208 -0.061180614 0.021834254
0.0092485864 -0.062427957 0.021877766
0.010156273 -0.060937639 0.021834254
0.011686146 -0.063105188 0.021692365
0.013125298 -0.064433277 0.022361189
0.014549915 -0.065474615 0.023057461
0.015674876 -0.065111019 0.023109138
0.016528787 -0.063753895 0.02314797
0.017536089 -0.063129924 0.022865325
0.01857768 -0.062699668 0.023019612
0.019476967 -0.061868012 0.023815811
0.020946963 -0.062840886 0.023665071
0.021912683 -0.062278155 0.023726076
0.023166647 -0.062549949 0.023165315
0.024508456 -0.063021742 0.022370249
0.025061678 -0.06151503 0.021869421
0.026226562 -0.061575405 0.020811319
0.028104477 -0.063235074 0.018311441
0.029071849 -0.062795192 0.016129643
0.030418076 -0.063176006 0.013219744
0.03158116 -0.063162319 0.011930466
0.033031188 -0.063703008 0.010068655
0.034233022 -0.063744247 0.0093904436
0.035592936 -0.064067282 0.0081039071
0.036623612 -0.063795969 0.0065291822
0.038213607 -0.064485461 0.0064440966
0.039277591 -0.064272419 0.0057500005
0.04067206 -0.064596802 0.0050784051
-0.0071412805 -0.063081309 0.0073155761
-0.0058775353 -0.062301874 0.011788696
-0.0046948474 -0.062206727 0.014307529
-0.0034023763 -0.060108647 0.016778111
-0.0022314768 -0.059134137 0.018449366
-0.0011275109 -0.059758075 0.020077378
0 -0.059561234 0.020424426
0.0011122142 -0.058947347 0.020360291
0.0022103905 -0.058575351 0.021688879
0.0034239497 -0.060489777 0.021688879
0.0046090432 -0.061069824 0.022193372
0.0058418862 -0.061923996 0.02192837
0.0071036215 -0.062748656 0.021326095
0.0079012047 -0.059823405 0.021936953
0.0092230421 -0.061102655 0.022062391
0.010401693 -0.061254416 0.021461695
0.01143003 -0.060579155 0.021552324
0.012853661 -0.061931275 0.02271387
0.013682721 -0.060432021 0.023269057
0.014996788 -0.061140753 0.023573071
0.016256468 -0.061542343 0.023493618
0.017319238 -0.06119464 0.023612857
0.018247001 -0.060443189 0.024083257
0.019626625 -0.061188888 0.025013655
0.020579416 -0.06059495 0.024901211
0.022286959 -0.062168885 0.024874657
0.022447925 -0.059487 0.024560511
0.024233179 -0.061159927 0.023595691
0.025340902 -0.061048534 0.023073733
0.026055239 -0.060040336 0.021943808
0.026994299 -0.059612412 0.019508511
0.028759521 -0.060970183 0.017170578
0.031419944 -0.06404835 0.013816804
0.031524707 -0.061881833 0.012155622
0.033091836 -0.062638119 0.010181725
0.03407196 -0.062269442 0.0090357661
0.035550337 -0.0628056 0.0071565211
0.036937479 -0.063151173 0.0063751042
0.038049627 -0.0630197 0.0062791705
0.039369069 -0.063229114 0.0053187013
-0.0068160449 -0.05907239 0.0091775358
-0.0056278207 -0.058529336 0.012187093
-0.0044582589 -0.057957366 0.014288127
-0.0034169031 -0.059226319 0.016048372
-0.0023010091 -0.05982624 0.018060654
-0.0011600842 -0.060324378 0.020155489
0 -0.061297543 0.020434827
0.0011500278 -0.059801444 0.020656049
0.002278215 -0.059233587 0.021532804
0.0034635272 -0.060034469 0.021835208
0.0045279805 -0.058863744 0.021892637
0.0057451371 -0.059749428 0.021848887
0.0069118445 -0.059902653 0.022022218
0.0079436246 -0.059009787 0.021815151
0.0090848282 -0.059051387 0.021596551
0.010563185 -0.061031736 0.021389306
0.011727037 -0.060980592 0.021568507
0.012845952 -0.060726319 0.02255106
0.013725457 -0.059476979 0.022839546
0.015079526 -0.060318105 0.022910774
0.016384795 -0.060857814 0.023831278
0.017168932 -0.059518963 0.024192005
0.018466687 -0.060016729 0.024549842
0.019554656 -0.059814245 0.025736392
0.020367308 -0.058838885 0.026221275
0.021664068 -0.059291136 0.026275486
0.022302361 -0.057986137 0.02578935
0.024416562 -0.060460057 0.024802178
0.024585091 -0.058110215 0.023977071
0.026450526 -0.059801191 0.023041159
0.027206657 -0.058947757 0.020719916
0.028979223 -0.060276784 0.018553108
0.031158306 -0.062316611 0.014131457
0.031561635 -0.060785372 0.012064159
0.033296991 -0.061837267 0.010739177
0.034139827 -0.061216243 0.0079755187
0.035742722 -0.061954055 0.0071834326
0.036957294 -0.061992884 0.0060595274
0.038114794 -0.061936539 0.0055451393
-0.0081382999 -0.059293326 0.0053768754
-0.0069331843 -0.05893207 0.010327727
-0.0057936986 -0.059095725 0.01278311
-0.0046153413 -0.058845606 0.014813751
-0.0035096719 -0.059664421 0.016509145
-0.0023108048 -0.058925524 0.018934608
-0.0011604113 -0.059180979 0.020175219
0 -0.058686897 0.020459235
0.0011575466 -0.059034877 0.02033475
0.0023021495 -0.058704816 0.021007597
0.003484804 -0.059241664 0.022010446
0.0046426468 -0.059193745 0.022496551
0.0058586081 -0.059757803 0.022270471
0.0069269678 -0.058879226 0.022417903
0.0081199557 -0.059159674 0.022166997
0.0091576334 -0.058379911 0.022249788
0.010397768 -0.058920685 0.022010773
0.011628557 -0.059305638 0.022326946
0.012648487 -0.058642987 0.023083776
0.013776157 -0.058548667 0.023550093
0.014854105 -0.058273796 0.02359882
0.016203469 -0.059026923 0.023753822
0.017237775 -0.058608431 0.024714381
0.018211728 -0.05804988 0.025142133
0.019602641 -0.058807928 0.026253074
0.021243406 -0.060189649 0.026305735
0.022027699 -0.059126981 0.026515692
0.022418408 -0.057166938 0.026624292
0.024319885 -0.059062582 0.026090801
0.025184017 -0.058381129 0.024863482
0.025989152 -0.057628121 0.024026811
0.027344406 -0.058106862 0.023054063
0.02868473 -0.058516849 0.020442337
0.030818947 -0.060452551 0.01454553
0.031713311 -0.059902925 0.012469798
0.033301074 -0.060655531 0.010156542
0.034387328 -0.060474262 0.007863313
0.035905741 -0.061039761 0.0067071021
0.037195422 -0.061192464 0.0056556463
0.038897168 -0.061992358 0.0051976144
-0.0083675068 -0.059767909 0.005926162
-0.006980448 -0.058170401 0.011040181
-0.0058474117 -0.058474116 0.0130983
-0.0046634316 -0.058292896 0.015014529
-0.0035333089 -0.05888848 0.016391575
-0.0023309498 -0.058273744 0.018334508
-0.0011687166 -0.058435827 0.019879252
0 -0.05806113 0.020380884
0.001144273 -0.057213653 0.02048102
0.0023114439 -0.0577861 0.021242738
0.003472598 -0.057876632 0.021732837
0.0046831802 -0.058539752 0.021992028
0.0057514124 -0.057514124 0.022366792
0.0069756941 -0.058130782 0.022316486
0.0080701457 -0.057643898 0.021925569
0.0092581827 -0.057863642 0.021875918
0.01053447 -0.058524832 0.021906704
0.011517803 -0.057589017 0.02245298
0.012632559 -0.057420723 0.023111761
0.014110464 -0.058793597 0.023721993
0.014909727 -0.057345103 0.023945779
0.016028838 -0.057245851 0.023735583
0.017026009 -0.056753363 0.02491188
0.018105721 -0.05658038 0.025624782
0.019369943 -0.056970421 0.026863188
0.020693451 -0.05748181 0.027085632
0.021579118 -0.056787152 0.027430564
0.022516066 -0.056290165 0.027512342
0.024093933 -0.057366509 0.026774883
0.025365092 -0.057647936 0.025921911
0.027134398 -0.058987822 0.025183707
0.027816422 -0.057950877 0.023521215
0.028703336 -0.057406671 0.02120772
0.030310124 -0.058288701 0.017498106
0.032290116 -0.059796508 0.013318717
0.033541616 -0.059895739 0.0092972517
0.035054263 -0.060438387 0.0084563196
0.036238153 -0.060396921 0.0067058206
0.03743523 -0.060379405 0.0053522587
-0.0072247973 -0.059002511 0.01104477
-0.0058937799 -0.057759043 0.013284504
-0.004705647 -0.057644177 0.015106916
-0.0035227288 -0.057537906 0.016844481
-0.0023426705 -0.057395425 0.018191576
-0.0011550698 -0.056598421 0.019532084
0 -0.057285622 0.020406276
0.0011479376 -0.056248941 0.020630628
0.0022903674 -0.056113999 0.020980328
0.0034918229 -0.057033107 0.021508127
0.0046763876 -0.057285748 0.022341549
0.0058508064 -0.057337902 0.022557676
0.0069852513 -0.05704622 0.022626281
0.0080582509 -0.056407757 0.022088319
0.009201197 -0.056357332 0.022010118
0.010393581 -0.056587279 0.022368789
0.011642807 -0.057049751 0.022788107
0.012841104 -0.057201281 0.023587286
0.014065967 -0.057436034 0.024209648
0.014847246 -0.055962697 0.024361253
0.015715914 -0.055005699 0.024399251
0.016953003 -0.055379812 0.02578789
0.018363111 -0.056237027 0.026581317
0.019423896 -0.055986524 0.02781114
0.020557657 -0.05596251 0.027536482
0.021917064 -0.056522954 0.028356791
0.022480868 -0.055078123 0.028670013
0.023467666 -0.054757886 0.027498424
0.025284909 -0.056316387 0.02649492
0.026387125 -0.05621605 0.025279641
0.027268948 -0.055674102 0.022653431
0.028873865 -0.056592777 0.020189375
0.029647628 -0.055874377 0.017679721
0.033065494 -0.060007747 0.01378125
0.033443134 -0.058525484 0.0097855628
0.034842983 -0.058872625 0.0080387592
0.036026917 -0.058843963 0.0063252747
0.037358303 -0.059050221 0.0051563084
-0.00705365 -0.0564292 0.0095519722
-0.0058623939 -0.056278981 0.013547152
-0.0047334507 -0.056801405 0.015101433
-0.003485973 -0.055775568 0.016712755
-0.0023644974 -0.056747939 0.018262416
-0.0011699452 -0.056157373 0.01929456
0 -0.055186037 0.020330667
0.0011665312 -0.055993501 0.020956188
0.0023712034 -0.056908879 0.02186209
0.0035349864 -0.056559782 0.022027135
0.0045861704 -0.055034045 0.022089571
0.005685614 -0.054581895 0.022020906
0.0070039094 -0.056031276 0.022216171
0.0081538279 -0.055911966 0.021563441
0.0094513418 -0.056708053 0.021844387
0.010564178 -0.056342281 0.022411287
0.011534333 -0.055364802 0.023095608
0.013040206 -0.056902718 0.023344964
0.013947522 -0.055790089 0.02431336
0.014816349 -0.054706521 0.024712414
0.015814839 -0.054222304 0.024877638
0.017180527 -0.054977685 0.026231289
0.017869944 -0.053609833 0.027038515
0.019655829 -0.055498809 0.028225064
0.020466663 -0.054577768 0.028354317
0.021590794 -0.05454516 0.028795898
0.022510067 -0.05402416 0.028926849
0.023844777 -0.054502346 0.027709275
0.025026446 -0.054603156 0.026858121
0.025778187 -0.053797957 0.025503576
0.027397454 -0.054794908 0.022936553
0.028107228 -0.053965878 0.020089477
0.029812114 -0.055037748 0.016365558
0.032746997 -0.058216885 0.013427198
0.034054507 -0.058379155 0.0094949305
0.035465509 -0.058701534 0.0065141022
0.036583249 -0.058533199 0.0053352118
-0.0072317375 -0.056648612 0.0070067644
-0.0058797374 -0.055269532 0.012720615
-0.0046697832 -0.054869954 0.014693886
-0.0035485034 -0.055593219 0.01627782
-0.0023442458 -0.055089775 0.017996877
-0.0011516493 -0.054127518 0.018489033
0 -0.055434316 0.019264162
0.0011479304 -0.053952727 0.020106107
0.0023452213 -0.055112701 0.021259964
0.0034588852 -0.054189201 0.021771252
0.0046336926 -0.054445889 0.021663934
0.0057818945 -0.054349806 0.021794021
0.0069852178 -0.054717537 0.022090703
0.0080206534 -0.05385296 0.021620184
0.009271848 -0.054472107 0.021512061
0.010452766 -0.054586668 0.022114635
0.011821936 -0.0555631 0.022942454
0.01290406 -0.055135529 0.023570895
0.013951831 -0.05464467 0.023738414
0.014702974 -0.053156909 0.024588674
0.016208814 -0.054415304 0.025233477
0.017064359 -0.053468324 0.026480973
0.01791269 -0.052618526 0.027320176
0.019305717 -0.053374626 0.027884513
0.020041166 -0.052329712 0.028589666
0.02128634 -0.052655682 0.028763264
0.02279852 -0.053576522 0.028562039
0.023476396 -0.052542411 0.027693808
0.024741018 -0.052855812 0.026791364
0.026672535 -0.054504745 0.024991244
0.026907984 -0.052694801 0.022991657
0.027954901 -0.052555215 0.019129634
0.029549347 -0.053416129 0.016054213
0.033008017 -0.057458401 0.010678649
0.034246821 -0.057485737 0.0072767437
0.034978706 -0.056689624 0.0055666864
-0.0058348635 -0.053680744 0.011033386
-0.0047072833 -0.054133762 0.014811426
-0.0035493791 -0.054423813 0.015959263
-0.0023193441 -0.053344913 0.016836911
-0.0011714499 -0.053886697 0.018218964
0 -0.054144885 0.018731385
0.001157732 -0.05325567 0.019898236
0.002310077 -0.053131774 0.021364957
0.0035329179 -0.054171406 0.021754056
0.0047202082 -0.054282397 0.021754056
0.005779691 -0.053173158 0.021809191
0.0069533135 -0.053308737 0.021978527
0.0082134278 -0.053973954 0.021628439
0.009393163 -0.054010686 0.021559834
0.01051902 -0.053763881 0.021978527
0.011927858 -0.054868147 0.022600174
0.012577428 -0.052596517 0.022561193
0.014084762 -0.05399159 0.023672998
0.01475427 -0.052207418 0.024219394
0.016076397 -0.052822448 0.025052637
0.016834751 -0.051626571 0.02570644
0.018397853 -0.052893825 0.027229339
0.019177057 -0.051890861 0.027619421
0.020495856 -0.052378301 0.027847797
0.021908568 -0.053041793 0.028266668
0.022643559 -0.052080188 0.028183848
0.02403225 -0.052642073 0.027536005
0.025368808 -0.053043872 0.026010573
0.025636239 -0.051272478 0.024345458
0.027291756 -0.0523092 0.021327049
0.028068604 -0.051646229 0.01744023
0.029773584 -0.052676339 0.013859957
0.031823523 -0.054217856 0.0081165731
0.034222659 -0.056222938 0.0058365464
-0.0059356578 -0.05342092 0.010417193
-0.0046891551 -0.052752998 0.013833523
-0.0035493181 -0.05323977 0.015302658
-0.0023175948 -0.052145883 0.016513199
-0.0011794163 -0.05307373 0.017380744
0 -0.052132815 0.018420398
0.0011680147 -0.052560665 0.019821584
0.0023690537 -0.053303707 0.02070567
0.0035315759 -0.052973635 0.021048993
0.0047145179 -0.053038329 0.021299064
0.0057280683 -0.051552616 0.021358401
