ply
format ascii 1.0
comment PCL generated
element vertex 1271
property float x
property float y
property float z
element camera 0
property float view_px
property float view_py
property float view_pz
property float x_axisx
property float x_axisy
property float x_axisz
property float y_axisx
property float y_axisy
property float y_axisz
property float z_axisx
property float z_axisy
property float z_axisz
property float focal
property float scalex
property float scaley
property float centerx
property float centery
property int viewportx
property int viewporty
property float k1
property float k2
end_header
-0.0080647357 -0.079495251 0.011375993
-0.00696107 -0.080052309 0.012073845
-0.0057989615 -0.080025673 0.012479037
-0.0045665666 -0.078773275 0.012565345
-0.0034569271 -0.079509325 0.012555212
-0.0023038026 -0.079481192 0.013285846
-0.001158541 -0.079939328 0.014190793
0 -0.079373069 0.01513052
0.0011562908 -0.079784065 0.015419185
0.0022650023 -0.078142583 0.015634209
0.0034680562 -0.079765297 0.015901148
0.0045753238 -0.078924336 0.015748352
0.005699839 -0.078657784 0.01571238
0.0068530729 -0.078810342 0.015908569
0.0080443043 -0.079293862 0.016143024
0.0091594979 -0.079000667 0.015959442
0.010386519 -0.07962998 0.016032398
0.011535033 -0.079591721 0.01585561
0.012639559 -0.079284504 0.015713334
0.013745314 -0.079035558 0.015590996
0.014944917 -0.079323024 0.015358835
0.016061692 -0.079161197 0.014963895
0.017195556 -0.079099558 0.015051723
0.018157372 -0.078303665 0.014731646
0.019462734 -0.078995802 0.014133662
0.020782525 -0.079666346 0.013497114
0.021740684 -0.078953013 0.013164192
0.022895524 -0.078989565 0.012380898
0.024071682 -0.079092674 0.01245147
0.025294747 -0.079333521 0.012073666
0.02669498 -0.080084935 0.011483818
0.027937537 -0.080320418 0.010736972
0.028519036 -0.078712538 0.010282695
0.030205801 -0.080161549 0.0095010996
0.031704828 -0.081023447 0.0092803836
0.032370668 -0.079770572 0.0087544918
0.033872664 -0.080593586 0.0086127222
0.034503035 -0.079356983 0.0081567466
0.03602799 -0.080191329 0.0078722835
0.037025809 -0.079836905 0.0071156323
0.038781252 -0.081088074 0.0067765713
0.039220873 -0.079595305 0.0065629184
0.04077721 -0.080389358 0.0059589744
0.04161036 -0.07975319 0.0050215423
-0.022438332 -0.080305606 0.0053556263
-0.021065116 -0.079579324 0.0055530071
-0.01995898 -0.079835922 0.006370306
-0.018635144 -0.079199366 0.0069734156
-0.017542334 -0.079525247 0.0075946152
-0.016406659 -0.079689488 0.0086297095
-0.014998144 -0.078451827 0.0091383159
-0.013984868 -0.079247586 0.0095549524
-0.012843119 -0.079393826 0.010359645
-0.011477483 -0.078046888 0.010761291
-0.01037413 -0.078382313 0.011196941
-0.0093070753 -0.079110146 0.011539638
-0.008098945 -0.078675464 0.011963725
-0.0069655878 -0.078943327 0.012072623
-0.0057963403 -0.078830227 0.012696177
-0.0045980313 -0.078166537 0.012995422
-0.0034741452 -0.078747287 0.013147056
-0.0022828002 -0.077615201 0.013829082
-0.0011474934 -0.078029543 0.014695853
0 -0.078608863 0.015711755
0.0011401334 -0.077529065 0.015847415
0.0022988582 -0.07816118 0.016306579
0.0034670287 -0.078585982 0.016667813
0.0045780814 -0.077827379 0.016665787
0.0057339976 -0.077982366 0.016810507
0.0069159586 -0.07838086 0.016420782
0.0079018353 -0.076760687 0.016899616
0.0092555052 -0.078671791 0.01683858
0.010152472 -0.076707564 0.016534805
0.01142823 -0.077711962 0.016485304
0.012716039 -0.078608237 0.016344965
0.013682816 -0.077535957 0.016309768
0.015004465 -0.0784849 0.016328424
0.016039854 -0.07790786 0.015830159
0.017156659 -0.077776857 0.016037136
0.018781984 -0.079823434 0.015581995
0.019294679 -0.077178717 0.015097231
0.02039572 -0.0770505 0.014668733
0.021926925 -0.078475311 0.014668316
0.023248285 -0.079044171 0.013506651
0.024058077 -0.077902347 0.013177544
0.02525245 -0.078053027 0.012758791
0.026541864 -0.078471601 0.012255669
0.027460126 -0.077803686 0.011648029
0.028824579 -0.078402855 0.011186063
0.030181147 -0.07893531 0.010378331
0.031243417 -0.078687124 0.010308892
0.032728069 -0.079482459 0.0095560551
0.033532042 -0.078626856 0.0092290044
0.034716561 -0.078690879 0.0086674988
0.036288138 -0.07959979 0.0083890855
0.036506511 -0.077576339 0.0077438951
0.038379971 -0.079086006 0.0071633756
0.039691437 -0.079382874 0.0065506697
0.040428072 -0.078545973 0.0058391392
-0.021066524 -0.078414284 0.0054670572
-0.019771226 -0.07792189 0.006076932
-0.018857164 -0.078964375 0.0065666437
-0.017603694 -0.078629829 0.0074332058
-0.016423933 -0.07860025 0.007801801
-0.015244963 -0.078570187 0.0088709891
-0.014099635 -0.078722961 0.0093607008
-0.012667373 -0.077155814 0.010190219
-0.011602299 -0.077735402 0.010752112
-0.010545049 -0.078502029 0.011588752
-0.0092035625 -0.077079833 0.012044609
-0.008047957 -0.077030443 0.012336582
-0.0069328365 -0.077416673 0.012547523
-0.0057577901 -0.077154391 0.013038486
-0.0046341014 -0.077621199 0.013213992
-0.0034692644 -0.077480234 0.014056504
-0.0022863541 -0.076592863 0.014691979
-0.001149819 -0.077037871 0.015327871
0 -0.077433489 0.01652512
0.0011433703 -0.076605812 0.016928703
0.0022962096 -0.07692302 0.01722455
0.0034459035 -0.076958515 0.017494947
0.0046097678 -0.077213608 0.017519146
0.005731632 -0.07680387 0.017547935
0.0068696942 -0.076711588 0.017536402
0.0080313506 -0.076871499 0.017680615
0.0091276532 -0.076444089 0.017422438
0.010285035 -0.076566376 0.017490774
0.011345038 -0.076011755 0.017368048
0.012542946 -0.076397948 0.017063886
0.013850071 -0.077329561 0.016847581
0.014958022 -0.077091344 0.017063886
0.016049406 -0.076807871 0.016540468
0.016954407 -0.075729683 0.016354561
0.0182094 -0.076251864 0.01615715
0.019611064 -0.077290662 0.015747607
0.02055236 -0.076500453 0.014758199
0.022140807 -0.078075476 0.014852077
0.022882823 -0.076657452 0.014323205
0.023786604 -0.075890593 0.013266832
0.02540911 -0.077382289 0.013211787
0.026032312 -0.075833254 0.012814671
0.02804197 -0.078283831 0.012183309
0.028714124 -0.076953851 0.01145497
0.029947944 -0.077173546 0.010861278
0.031373292 -0.077852249 0.010983706
0.032290127 -0.077265657 0.010328501
0.033703156 -0.077865914 0.0097118616
0.034960896 -0.078079328 0.0089923441
0.03655944 -0.07901556 0.0088664591
0.037104607 -0.07768777 0.0084561706
0.038566571 -0.078301825 0.0077634752
0.039314821 -0.07747332 0.0069113076
0.040672515 -0.077858813 0.0059822798
-0.02156345 -0.079065986 0.0050660074
-0.019945005 -0.077433549 0.0064146519
-0.018583028 -0.076654986 0.0067590773
-0.017569197 -0.077304468 0.0075132251
-0.016336396 -0.077014439 0.0080392659
-0.015195293 -0.077145338 0.0086569488
-0.013874248 -0.076308362 0.009388268
-0.01271964 -0.076317839 0.010330021
-0.011724043 -0.077378683 0.011103243
-0.01029768 -0.075516321 0.011878014
-0.0093058217 -0.076773033 0.012379289
-0.0080948509 -0.076322883 0.01274699
-0.0069478508 -0.076426357 0.01289472
-0.0058068051 -0.07664983 0.013538808
-0.0046226969 -0.076274499 0.01364255
-0.0034439161 -0.075766154 0.015060425
-0.0022939111 -0.075699069 0.015507668
-0.0011447757 -0.075555198 0.015952855
0 -0.075932935 0.016666383
0.0011471487 -0.075711817 0.01722762
0.0022790646 -0.075209133 0.01753521
0.003461987 -0.076163717 0.017692298
0.0046059042 -0.07599742 0.017763615
0.0057188878 -0.07548932 0.017867982
0.0069427402 -0.076370142 0.017628312
0.0079986062 -0.075415425 0.017957091
0.0092118932 -0.07599812 0.017867982
0.010354619 -0.075933866 0.017771691
0.01137793 -0.075094335 0.017729878
0.012631992 -0.075791955 0.017689377
0.013782288 -0.075802587 0.017704815
0.014885379 -0.075571924 0.017630726
0.015977982 -0.075324774 0.017101616
0.017378576 -0.076465733 0.017245144
0.018014923 -0.074311562 0.017101616
0.01931252 -0.074978016 0.016423911
0.02086648 -0.076510422 0.015525967
0.021435404 -0.074459821 0.015796423
0.023185583 -0.076512426 0.015186578
0.024233302 -0.076161802 0.013944328
0.025275614 -0.075826839 0.013993531
0.026663927 -0.076513879 0.013540268
0.027823547 -0.076514751 0.012881428
0.029005786 -0.076575279 0.011917442
0.030034954 -0.076242574 0.01134187
0.031188302 -0.076238073 0.011328876
0.032548662 -0.076721847 0.010439873
0.0339498 -0.077265061 0.009817034
0.034875609 -0.07672634 0.0092469752
0.0358884 -0.076407559 0.0088997781
0.037198029 -0.076720938 0.0077391863
0.037922505 -0.075845011 0.0072931349
0.040168494 -0.077974133 0.0063185394
0.041198961 -0.077689469 0.0054478347
-0.021147741 -0.076366842 0.005045861
-0.02033061 -0.077734686 0.0061894655
-0.018601542 -0.075568765 0.0071446002
-0.017601173 -0.07627175 0.0077806413
-0.016489698 -0.076559313 0.008048147
-0.015191376 -0.075956881 0.0087685883
-0.014061858 -0.076168396 0.0094706416
-0.012903673 -0.076248974 0.01034674
-0.01153548 -0.074980617 0.010920674
-0.010466871 -0.075594068 0.012074322
-0.0092815002 -0.075412191 0.012634903
-0.0080160601 -0.074434847 0.012954116
-0.0069496832 -0.075288236 0.013172328
-0.0057879505 -0.075243354 0.013843536
-0.0045674453 -0.074220985 0.014149427
-0.0034745862 -0.0752827 0.015395194
-0.0022995088 -0.074734032 0.015640855
-0.0011453835 -0.074449927 0.016141653
0 -0.07519383 0.016673863
0.0011496434 -0.074726827 0.017080665
0.0022760183 -0.073970594 0.017389566
0.0034634497 -0.075041406 0.017689645
0.0045603863 -0.074106276 0.017777026
0.0057499176 -0.074748926 0.017810017
0.0068007228 -0.073674493 0.017953575
0.0080288388 -0.074553505 0.018517762
0.0091198962 -0.074099161 0.017904371
0.010219916 -0.073810503 0.017844677
0.011349924 -0.073774502 0.017844677
0.012593845 -0.074418172 0.017815858
0.01368812 -0.074143983 0.017750621
0.01488853 -0.074442647 0.017463177
0.01631259 -0.075737029 0.01734969
0.017223518 -0.074635245 0.017317891
0.018092697 -0.073501579 0.017244667
0.019541945 -0.074719198 0.016927361
0.020706732 -0.07477431 0.016400367
0.021920426 -0.074990928 0.016557992
0.023333915 -0.075835228 0.01559189
0.024043148 -0.074419267 0.014768183
0.025583077 -0.075586364 0.01452589
0.026622031 -0.075236179 0.014075905
0.027537815 -0.074581586 0.013243139
0.029001262 -0.075403281 0.012653708
0.030211808 -0.075529516 0.012177706
0.031044044 -0.074735664 0.01184085
0.032480709 -0.075401649 0.010925472
0.033397164 -0.074855715 0.010470808
0.034859266 -0.075528413 0.0094737411
0.0360878 -0.07566797 0.0085725784
0.037112661 -0.075385086 0.0072734952
0.038863182 -0.076548696 0.0067600608
0.040071737 -0.076607734 0.0059640408
-0.021362197 -0.075954475 0.005503267
-0.01985506 -0.074748464 0.0065407455
-0.018925492 -0.075701967 0.0075935125
-0.017477952 -0.074572593 0.0082103014
-0.016392574 -0.074937478 0.0085249543
-0.015344743 -0.075543351 0.0091703534
-0.013934779 -0.074318819 0.0095423162
-0.012795878 -0.074448742 0.010428905
-0.011540889 -0.073861688 0.011005759
-0.010540211 -0.07495261 0.0123564
-0.0092634428 -0.074107543 0.012915969
-0.0082392283 -0.075330086 0.013279676
-0.0068521514 -0.073089615 0.01352182
-0.0057988754 -0.074225605 0.014288872
-0.0046333871 -0.074134193 0.014533281
-0.0034418842 -0.073426865 0.015658021
-0.0023322401 -0.074631684 0.015888482
-0.0011536534 -0.073833816 0.016224563
0 -0.072879665 0.016924232
0.0011439149 -0.073210552 0.017054319
0.0022817217 -0.073015094 0.017818123
0.003406096 -0.072663382 0.018077374
0.0046014949 -0.073623918 0.017915934
0.0057367967 -0.073430993 0.01774466
0.0068130801 -0.072672851 0.01805383
0.0080547715 -0.073643625 0.01836589
0.009234719 -0.073877752 0.017963111
0.010343054 -0.073550612 0.018293858
0.011612689 -0.07432121 0.018395156
0.01259978 -0.073307812 0.01794377
0.013728171 -0.073216908 0.01794377
0.014846511 -0.073090516 0.017859787
0.016010202 -0.073189497 0.017613202
0.017138556 -0.073124506 0.017606437
0.018499281 -0.073997125 0.017645001
0.019361939 -0.07289201 0.017254442
0.020717544 -0.073662378 0.017027229
0.021815177 -0.0734827 0.016911387
0.022821961 -0.073030271 0.016418457
0.024438672 -0.074479766 0.01549688
0.02521126 -0.073341846 0.015193641
0.026346555 -0.073312156 0.014419377
0.027770936 -0.074055828 0.013880402
0.028944923 -0.074099004 0.013118029
0.029970042 -0.073772416 0.012712777
0.031911224 -0.075641423 0.012436837
0.032351334 -0.07394591 0.011289209
0.033889897 -0.074791491 0.010357589
0.034942854 -0.074544758 0.0096231699
0.036194857 -0.074724868 0.0082178414
0.037333794 -0.074667588 0.00743258
0.038716938 -0.075087398 0.0060590506
0.039496314 -0.074345998 0.0051810741
-0.020354254 -0.075430475 0.0064905584
-0.019062562 -0.07505884 0.0079675615
-0.017756077 -0.074575521 0.0084980428
-0.016729701 -0.075283654 0.0084787011
-0.015138173 -0.073361918 0.0090811849
-0.014086503 -0.073954135 0.0099394321
-0.012884099 -0.073790751 0.010830015
-0.011613779 -0.07316681 0.011373878
-0.010495743 -0.073470205 0.012493312
-0.0093913935 -0.07395722 0.01340282
-0.008110485 -0.072994366 0.013760656
-0.0070719151 -0.074255109 0.014050931
-0.0058006374 -0.073088028 0.01453647
-0.0046116645 -0.072633721 0.014658689
-0.0034929737 -0.073352449 0.015681326
-0.00228863 -0.072091848 0.016064018
-0.0011583879 -0.072978437 0.016469628
0 -0.072088912 0.017172962
0.0011513265 -0.072533563 0.017305613
0.0022915523 -0.072183892 0.018231243
0.0034898689 -0.073287249 0.018141955
0.0045851246 -0.072215714 0.018143117
0.0057318537 -0.072221354 0.018139958
0.0069404398 -0.072874613 0.018544286
0.0080222907 -0.072200611 0.018653303
0.0093003418 -0.073240198 0.018573761
0.010379076 -0.072653532 0.018793464
0.011540144 -0.072702907 0.018742412
0.012549412 -0.071873911 0.018650144
0.01395434 -0.073260292 0.018490583
0.015269473 -0.073998213 0.018414199
0.015930777 -0.071688496 0.018332392
0.017177559 -0.072145753 0.018201113
0.018187633 -0.071613804 0.018201113
0.019788686 -0.073334545 0.017856687
0.02044691 -0.071564183 0.017479151
0.022072539 -0.073187888 0.017490506
0.023605958 -0.074358761 0.01638931
0.023899674 -0.071699023 0.01591742
0.025308544 -0.072474465 0.015618771
0.026713835 -0.073172681 0.01488775
0.027804153 -0.072985902 0.014191628
0.029227104 -0.073652305 0.013584614
0.030464035 -0.073816702 0.013217777
0.031166436 -0.072721682 0.012349874
0.033131406 -0.074545667 0.01193279
0.03414486 -0.074176766 0.010804504
0.034906052 -0.073302709 0.0092504919
0.036454126 -0.074084193 0.0084633529
0.037533406 -0.073893897 0.0069339871
0.039681569 -0.075755723 0.005690515
0.039904211 -0.07394015 0.0053474307
-0.020117193 -0.073368587 0.0055890977
-0.018863745 -0.073097013 0.0066949725
-0.017604329 -0.072764561 0.0081647038
-0.016583821 -0.073442638 0.0086722374
-0.015467006 -0.073765717 0.0093830228
-0.014012527 -0.072398052 0.010143667
-0.01276607 -0.071954213 0.010992229
-0.011543586 -0.071570233 0.011800557
-0.010554186 -0.072706617 0.012815237
-0.0093113845 -0.072163232 0.013840944
-0.0081623308 -0.072294928 0.014088243
-0.0069457949 -0.071773216 0.014461011
-0.0057210899 -0.070941515 0.014894128
-0.004622052 -0.071641803 0.01517731
-0.0034693545 -0.071699992 0.015806168
-0.002292604 -0.071070723 0.016312987
-0.001143025 -0.070867553 0.016463101
0 -0.071445316 0.017354578
0.0011418683 -0.070795834 0.017665207
0.0022974748 -0.071221717 0.018321812
0.0034134646 -0.070544936 0.01819101
0.0045407158 -0.07038109 0.018198043
0.0057207858 -0.070937745 0.018200994
0.0069227833 -0.071535431 0.018650144
0.008022137 -0.071053214 0.019124359
0.0091428924 -0.070857413 0.01903075
0.010360808 -0.071374454 0.018840015
0.01148333 -0.071196645 0.019036502
0.012711174 -0.071644798 0.018818051
0.013827766 -0.071443461 0.018767983
0.014807253 -0.070619211 0.018579394
0.016133193 -0.071446992 0.01859954
0.017256623 -0.071327381 0.018612981
0.018388744 -0.071256384 0.01852113
0.019418148 -0.070819132 0.018163025
0.020763976 -0.071520366 0.017909169
0.022039805 -0.071919359 0.01772514
0.023311302 -0.072265036 0.016984284
0.023903016 -0.070570812 0.016360909
0.02551537 -0.071906954 0.015550494
0.026580561 -0.07165195 0.014989197
0.02758779 -0.071268462 0.014380008
0.028827097 -0.071491204 0.013825983
0.030067056 -0.07169836 0.012959599
0.031274114 -0.071814634 0.012705505
0.032809515 -0.072649643 0.012080044
0.033735782 -0.072124772 0.010298342
0.035386309 -0.073131703 0.0094988048
0.036756527 -0.073513053 0.0084879994
0.037051171 -0.071786642 0.0077318549
0.038379546 -0.072107024 0.0063695312
0.039967515 -0.072881937 0.006123513
0.041378383 -0.073298849 0.0054755211
-0.018745555 -0.071467429 0.0061460435
-0.017593907 -0.071548559 0.0074275434
-0.016336415 -0.07118009 0.0088996589
-0.015200867 -0.07132715 0.0099108517
-0.014056765 -0.071455225 0.010725886
-0.012874909 -0.071397223 0.011506826
-0.011499478 -0.070146814 0.012434304
-0.010476705 -0.071008772 0.012982607
-0.0092814611 -0.070771143 0.014404356
-0.0081020538 -0.070603617 0.015035868
-0.0069463602 -0.070621327 0.015183061
-0.0059078662 -0.072075963 0.015481919
-0.0045817536 -0.069871746 0.016015679
-0.0034601376 -0.070356131 0.016328186
-0.0022948596 -0.06999322 0.016765594
-0.0011705793 -0.071405344 0.017050564
0 -0.069266066 0.017750114
0.0011526772 -0.070313312 0.017891526
0.0022886486 -0.069803789 0.018768042
0.0034548403 -0.070248418 0.018461913
0.0046348488 -0.070681445 0.018457741
0.0057328162 -0.069940358 0.01829204
0.0068283649 -0.069421709 0.018840879
0.0081412625 -0.070945285 0.019136995
0.0091923336 -0.070091546 0.018914312
0.010384111 -0.070381194 0.018766254
0.011534784 -0.07036218 0.018828362
0.012768448 -0.070806853 0.018798172
0.013733209 -0.06981048 0.018836468
0.015093269 -0.070822261 0.018566251
0.016134499 -0.070300318 0.018552244
0.017187741 -0.06989681 0.018490255
0.018332794 -0.069893777 0.018417716
0.019757906 -0.070896015 0.018067688
0.020897053 -0.070817791 0.017645419
0.021982657 -0.0705759 0.017430842
0.022728151 -0.069320858 0.017021656
0.024528095 -0.071248278 0.01608786
0.025355592 -0.07030414 0.015614688
0.026389761 -0.069990233 0.015677243
0.028046614 -0.071285143 0.014981389
0.028861333 -0.070421651 0.014600456
0.029996814 -0.070377141 0.013712168
0.031384911 -0.070906647 0.013093352
0.032842807 -0.071550399 0.011627913
0.034127757 -0.071785972 0.010205328
0.034968402 -0.071102418 0.0086705685
0.036795303 -0.072403662 0.0075704455
0.037436806 -0.071363911 0.0068249106
0.038705077 -0.07154575 0.0063913465
0.039702594 -0.071231127 0.005949229
0.041267112 -0.071922682 0.0052140355
-0.018799551 -0.07049831 0.0057889223
-0.01766553 -0.070662118 0.007478267
-0.016379399 -0.070197426 0.0092099607
-0.0152218 -0.07025446 0.010350913
-0.013978208 -0.069891043 0.011060894
-0.012913383 -0.070436634 0.01231882
-0.011698199 -0.0701892 0.013206869
-0.010432013 -0.069546759 0.014007598
-0.0093464572 -0.07009843 0.015077651
-0.0081082042 -0.069498897 0.015532583
-0.0069403066 -0.069403067 0.015918106
-0.005841332 -0.070095986 0.016079843
-0.0046498128 -0.069747187 0.016750723
-0.0034170987 -0.068341978 0.017199069
-0.0023001465 -0.069004394 0.017383724
-0.0011550778 -0.069304667 0.017666489
0 -0.068515629 0.018377036
0.0011523983 -0.069143899 0.018481821
0.0022900375 -0.068701118 0.018810391
0.0035106377 -0.070212752 0.018603563
0.0045981728 -0.068972588 0.018905222
0.0057649091 -0.069178909 0.019016951
0.0069501712 -0.069501713 0.019198775
0.0080719749 -0.069188349 0.01919046
0.0092353988 -0.069265492 0.019000202
0.010220502 -0.068136677 0.018984973
0.011541127 -0.069246762 0.018909514
0.012531017 -0.068351001 0.018637925
0.01380947 -0.069047354 0.018802643
0.014939313 -0.068950675 0.018637925
0.016064985 -0.068849936 0.018586278
0.017347857 -0.069391429 0.018399984
0.018496756 -0.069362827 0.018479705
0.019523555 -0.068906665 0.018307477
0.020806637 -0.069355451 0.017812878
0.021882594 -0.069102928 0.017785162
0.023200607 -0.069601826 0.016774625
0.024279626 -0.069370359 0.016570359
0.025293272 -0.068981647 0.01615575
0.026753906 -0.0697928 0.015947908
0.027806537 -0.069516346 0.015005291
0.028922748 -0.069414593 0.014083624
0.03043673 -0.070238605 0.013396204
0.031566083 -0.070146851 0.012126118
0.032452341 -0.069540732 0.010798395
0.034142662 -0.07063999 0.0095754564
0.035093088 -0.070186175 0.0084013343
0.036639985 -0.070916094 0.0073367655
0.037785396 -0.070847623 0.0068681538
0.03886221 -0.070658565 0.0065062344
0.040316261 -0.071146347 0.0056949556
0.04145496 -0.071065642 0.0051672459
-0.018951785 -0.06988471 0.0056411028
-0.017656719 -0.06944976 0.0068774223
-0.016493876 -0.069509909 0.0093548596
-0.015249764 -0.069210462 0.010978013
-0.013980636 -0.068738133 0.011519939
-0.012920978 -0.069303431 0.012823433
-0.011463984 -0.067637511 0.013697088
-0.010558779 -0.069218665 0.014753759
-0.0092150858 -0.067961261 0.01566565
-0.0080439681 -0.067799158 0.016272813
-0.0069554006 -0.068394773 0.016624629
-0.0057698735 -0.068084508 0.016988277
-0.004622119 -0.068176255 0.017288297
-0.0034865809 -0.068569422 0.017251283
-0.0023105368 -0.068160839 0.017935514
-0.0011454122 -0.067579322 0.018331796
0 -0.067644216 0.018430054
0.0011536346 -0.068064444 0.018169701
0.0022966503 -0.067751184 0.018618554
0.0035037559 -0.068907201 0.018876493
0.004580704 -0.067565382 0.018908978
0.0057254145 -0.06755989 0.019199431
0.0069188601 -0.068035461 0.019163996
0.0079655321 -0.067138053 0.019291282
0.0091955997 -0.067817546 0.019120991
0.010286411 -0.067433141 0.018678159
0.011502952 -0.067867421 0.018494099
0.012646392 -0.067830645 0.018498659
0.01380165 -0.067858115 0.018498659
0.014945084 -0.067827687 0.018544197
0.015996205 -0.067412578 0.018399566
0.017349049 -0.068239592 0.018492192
0.018054003 -0.066574134 0.018306136
0.019551789 -0.067856207 0.018474579
0.020619689 -0.067586757 0.016999602
0.021832077 -0.067794345 0.017486006
0.023037959 -0.067961983 0.017414272
0.024115244 -0.067752354 0.017171085
0.025159869 -0.067474194 0.016778916
0.026399121 -0.067719482 0.016453177
0.028285587 -0.069535404 0.015615702
0.029265147 -0.069065742 0.014380395
0.030388266 -0.068957984 0.012878627
0.031432077 -0.068684913 0.011989295
0.032987054 -0.069508441 0.010920525
0.034300059 -0.069782883 0.01008746
0.035387047 -0.069594525 0.0086593926
0.036715947 -0.069878735 0.00772506
0.036946774 -0.068120614 0.0067068338
0.039143335 -0.069983542 0.0065752268
0.040523347 -0.070319928 0.0056871176
0.041377138 -0.069750033 0.0053446293
-0.018878981 -0.06843631 0.0056538284
-0.017975589 -0.069505617 0.0067296326
-0.016306572 -0.067555793 0.0093685091
-0.015107475 -0.067402579 0.011043459
-0.014047275 -0.067895167 0.012495339
-0.012726887 -0.067105405 0.01333797
-0.011540815 -0.066936724 0.014105976
-0.010513958 -0.067756616 0.015026748
-0.009227355 -0.066898324 0.016065359
-0.0080483072 -0.066685975 0.016758054
-0.0069138114 -0.066833511 0.016854197
-0.0057751075 -0.066991247 0.017018557
-0.0045980443 -0.06667164 0.017512232
-0.0034900894 -0.067475066 0.017351389
-0.0023151892 -0.067140482 0.017582178
-0.0011449963 -0.066409782 0.018038899
0 -0.06709186 0.018562645
0.001150174 -0.066710085 0.018398046
0.0023058085 -0.066868447 0.018318474
0.0034433089 -0.06657064 0.018221617
0.0045778216 -0.066378407 0.018490672
0.0058104345 -0.067401037 0.01888293
0.0070190588 -0.067850903 0.018535137
0.008023154 -0.06647756 0.018729001
0.0092112776 -0.066781759 0.019023359
0.010448735 -0.067336299 0.018486798
0.011414763 -0.066205621 0.018399954
0.012527956 -0.066056497 0.018360615
0.013703874 -0.066235393 0.018235773
0.014725198 -0.065697037 0.01788944
0.016340662 -0.067697033 0.017826289
0.017296266 -0.066878892 0.017803252
0.01877965 -0.068076231 0.017596215
0.019948225 -0.068058647 0.017689645
0.020561818 -0.06625475 0.017496824
0.021818405 -0.066603549 0.017676175
0.022914069 -0.066450797 0.017543674
0.024171675 -0.066759862 0.017398387
0.025660532 -0.067650497 0.017052025
0.026472088 -0.066755697 0.016726851
0.027875854 -0.067366645 0.016143054
0.028996451 -0.067271769 0.014709681
0.030410726 -0.06783931 0.012889385
0.031624399 -0.067933895 0.012358189
0.033016365 -0.068391047 0.010992527
0.034175381 -0.068350762 0.0097714365
0.035228919 -0.068109244 0.0084140897
0.036882069 -0.069005162 0.0079452991
0.038095471 -0.06904804 0.006977886
0.038801242 -0.068196118 0.0067663193
0.040358771 -0.068847314 0.0059407055
0.041413732 -0.068628468 0.0053282678
-0.019221924 -0.068478107 0.0054338574
-0.017681682 -0.067190394 0.0067202747
-0.016608384 -0.067619845 0.0089607239
-0.015435241 -0.067677595 0.010855347
-0.014001312 -0.066506229 0.012025177
-0.012808659 -0.066372141 0.012923807
-0.011632819 -0.066307068 0.013600886
-0.010449328 -0.066179074 0.014584422
-0.0093331244 -0.066498511 0.015799761
-0.0080973664 -0.065935694 0.016263932
-0.0069306474 -0.065841153 0.016676098
-0.005763859 -0.065707989 0.016686887
-0.0046207197 -0.065845259 0.016912907
-0.0034413086 -0.065384865 0.017147481
-0.0023409063 -0.066715829 0.017332733
-0.0011421361 -0.065101758 0.017484903
0 -0.065865904 0.018136919
0.0011570617 -0.06595251 0.017874867
0.0022665842 -0.064597651 0.018039197
0.0034572086 -0.065686963 0.017988205
0.0046156025 -0.065772332 0.018196642
0.0057385792 -0.065419801 0.018698126
0.0070264037 -0.066750839 0.0184533
0.0079698786 -0.064897582 0.018583238
0.0091962023 -0.065522939 0.018880665
0.010240484 -0.064856395 0.018350244
0.011489091 -0.065487817 0.017554522
0.012627793 -0.065434933 0.018030405
0.014113843 -0.067040749 0.018092602
0.015197776 -0.066636406 0.0182558
0.016349263 -0.066564858 0.018392175
0.017472567 -0.066395752 0.018372953
0.018424258 -0.065636419 0.01777792
0.019647226 -0.065875992 0.018245965
0.020535577 -0.065029331 0.017676175
0.021774534 -0.065323606 0.018118858
0.023518927 -0.06702894 0.0181292
0.024667449 -0.066954501 0.017740935
0.02519628 -0.065281272 0.0174793
0.02662465 -0.065982826 0.017267138
0.02784094 -0.066122234 0.016294181
0.029115129 -0.06638249 0.01504761
0.03012478 -0.066042788 0.013629049
0.03125694 -0.065986872 0.012655109
0.032938275 -0.067052916 0.011205196
0.034152661 -0.067127645 0.0098152459
0.035801366 -0.068022594 0.0081398487
0.036345679 -0.066829152 0.0078673363
0.038336679 -0.068287209 0.0075748265
0.039071925 -0.067487866 0.006370157
0.040340442 -0.067629568 0.0058121979
0.042095818 -0.068556041 0.0053501427
-0.019082662 -0.066789314 0.0054691136
-0.018131912 -0.067692466 0.0060192049
-0.016628845 -0.066515379 0.0085819662
-0.015163715 -0.065320618 0.010959178
-0.01404806 -0.065557614 0.012347817
-0.012833427 -0.065333806 0.013305992
-0.01163097 -0.06513343 0.013878882
-0.010476717 -0.06518846 0.014774293
-0.0092946133 -0.065062292 0.015585363
-0.0080832746 -0.064666197 0.016491979
-0.0070136026 -0.065460294 0.016600817
-0.005786689 -0.064810917 0.016648024
-0.0045970697 -0.064358972 0.016854197
-0.0034802288 -0.064964272 0.017174125
-0.0022925283 -0.064190798 0.017495871
-0.0011453001 -0.064136803 0.018012345
0 -0.064218894 0.018108189
0.0011417663 -0.063938916 0.018108189
0.0022663302 -0.063457243 0.018264621
0.0034595751 -0.064578734 0.018152267
0.00455028 -0.063703924 0.018282592
0.0057437392 -0.064329877 0.0189991
0.0068706842 -0.064126387 0.018870354
0.0082269786 -0.065815829 0.018892497
0.009420828 -0.065945797 0.018243283
0.010453692 -0.065045193 0.017606467
0.011804556 -0.066105515 0.017182678
0.012780502 -0.065064371 0.017569304
0.01391944 -0.064957388 0.017306536
0.015055262 -0.064853437 0.017445445
0.016285306 -0.065141223 0.017569333
0.017048782 -0.06364879 0.018083394
0.018522581 -0.064829037 0.01811263
0.019669943 -0.064795099 0.018341869
0.021324312 -0.066342302 0.018170893
0.021991845 -0.064818069 0.01834175
0.023058876 -0.064564854 0.018214196
0.024420829 -0.065122209 0.018164575
0.02545182 -0.064786449 0.017948121
0.026522456 -0.06457641 0.017861813
0.027680319 -0.064587414 0.017306238
0.029548336 -0.066188276 0.015656292
0.030997287 -0.066763386 0.013875663
0.034076609 -0.070677415 0.012854874
0.03354919 -0.067098379 0.01069209
0.034083907 -0.065817192 0.0099462569
0.035418622 -0.066114761 0.0080415308
0.036878549 -0.066619314 0.0076056421
0.037798375 -0.066147156 0.0069221854
0.039103974 -0.066358253 0.006036818
0.040363144 -0.066480473 0.0053602457
-0.019134186 -0.065773763 0.0051329136
-0.017857833 -0.06547872 0.0060679913
-0.016456533 -0.064650662 0.0075721145
-0.01557212 -0.065882042 0.010366529
-0.013957328 -0.063971087 0.012162864
-0.012715405 -0.063577026 0.013453722
-0.011566307 -0.063614689 0.013905734
-0.010397135 -0.063538052 0.014699727
-0.009206323 -0.063293472 0.015560895
-0.0081335269 -0.063906282 0.016070187
-0.0069305697 -0.063530222 0.01633209
-0.0057945596 -0.063740157 0.01687327
-0.0046255421 -0.063601203 0.016904682
-0.0034767268 -0.063739993 0.017183393
-0.0022747142 -0.062554643 0.017620265
-0.0011665544 -0.064160496 0.017855167
0 -0.062595636 0.017669499
0.0011432172 -0.062876947 0.017988056
0.0023534384 -0.064719558 0.017872691
0.0035290057 -0.064698435 0.017768949
0.0046984139 -0.064603195 0.017839789
0.0058228914 -0.064051807 0.018655151
0.0069956384 -0.064126685 0.018637717
0.0082699955 -0.064978532 0.018453956
0.0092584714 -0.063651986 0.018370539
0.010579704 -0.064653747 0.017802328
0.011778287 -0.064780578 0.01751563
0.012877546 -0.064387731 0.017778099
0.014115926 -0.064697996 0.017768353
0.015353607 -0.064957567 0.017795026
0.016358491 -0.064265504 0.017936647
0.017731789 -0.06501656 0.018511385
0.019159513 -0.06586083 0.018445849
0.019650109 -0.063573882 0.018445849
0.021533454 -0.065796666 0.018479407
0.021732615 -0.062910199 0.018715858
0.0230185 -0.06330087 0.018884957
0.024158673 -0.063272715 0.018495649
0.026782066 -0.066955164 0.018985212
0.02774087 -0.066336863 0.018747449
0.029294569 -0.067133382 0.018319815
0.029894782 -0.065768518 0.017345011
0.029903116 -0.063256592 0.01481849
0.031714555 -0.064603724 0.013134629
0.03443744 -0.067644969 0.010484576
0.034014925 -0.064511068 0.0093829632
0.035992589 -0.06598641 0.008146137
0.03740941 -0.066371538 0.0073894262
0.037852544 -0.065059058 0.0069580376
0.039610729 -0.066017881 0.0052357614
-0.017796418 -0.064067103 0.0060863495
-0.01665327 -0.064234041 0.0070833266
-0.015186346 -0.063081749 0.0099963248
-0.013992215 -0.062964961 0.012125432
-0.013010046 -0.063867494 0.013442785
-0.011376676 -0.061434049 0.014497846
-0.010314185 -0.061885111 0.015209019
-0.0092831925 -0.062661551 0.016079634
-0.0080353143 -0.061986707 0.01638028
-0.0068653901 -0.061788511 0.016441703
-0.0057109962 -0.06167876 0.01670593
-0.0046240105 -0.062424146 0.017406046
-0.0034549218 -0.062188592 0.017338663
-0.0023810733 -0.064288981 0.018024921
-0.0011672694 -0.063032545 0.018410474
0 -0.062947184 0.018319815
0.0011768367 -0.063549183 0.018399447
0.0023654732 -0.063867778 0.018068701
0.0034684495 -0.062432092 0.018570811
0.0046832399 -0.063223742 0.018776119
0.0058383476 -0.063054152 0.018996716
0.0069213253 -0.062291928 0.018645078
0.0081658233 -0.062993497 0.01900503
0.0094874166 -0.064040065 0.018897146
0.010276352 -0.061658114 0.018377841
0.011701375 -0.063187428 0.018149078
0.012868661 -0.063173428 0.018444449
0.014336484 -0.064514175 0.018740088
0.015130922 -0.062851518 0.018697858
0.016186889 -0.062435143 0.018740088
0.017349748 -0.062459096 0.01848644
0.018554298 -0.062620759 0.018880606
0.019722266 -0.062647201 0.019032836
0.021635113 -0.064905345 0.019233376
0.022159023 -0.062978275 0.019506782
0.024189135 -0.065310664 0.019877136
0.025972981 -0.066787668 0.020362228
0.025601143 -0.062839165 0.020640343
0.026604366 -0.062462423 0.020792305
0.028018342 -0.06304127 0.020502955
0.028842254 -0.062299266 0.018841892
0.029758774 -0.061806682 0.016318589
0.030765282 -0.061530564 0.013755888
0.033436291 -0.064484276 0.010871619
0.034326438 -0.063918196 0.0091550648
0.035853628 -0.064536534 0.0081208646
0.036655631 -0.063851744 0.0070574284
0.038425483 -0.064843006 0.0060022771
-0.016644441 -0.063011095 0.0067121685
-0.015182082 -0.061896179 0.0084600151
-0.013803335 -0.06096473 0.011644512
-0.012711595 -0.061246775 0.013865918
-0.011350828 -0.060159389 0.014924586
-0.010428014 -0.061409414 0.01545161
-0.0092157302 -0.061054215 0.016090214
-0.008138787 -0.061622243 0.016739339
-0.0071544424 -0.063197576 0.016468912
-0.0059259813 -0.062815405 0.016512334
-0.004735068 -0.062739648 0.016707957
-0.0034915949 -0.061684843 0.016938508
-0.0023105803 -0.06123038 0.017820299
-0.0011738278 -0.06221287 0.01829952
0 -0.061877143 0.018398583
0.0011505474 -0.060979012 0.01808399
0.0022883972 -0.060642526 0.01787734
0.0034627086 -0.061174519 0.018261313
0.0046382947 -0.061457403 0.018835425
0.0057974011 -0.061452452 0.019012362
0.0070257443 -0.062060744 0.019131124
0.0079481238 -0.060178649 0.019384027
0.00927715 -0.061461117 0.019257456
0.010506977 -0.061874419 0.018104225
0.01167982 -0.061903045 0.017881602
0.012702214 -0.061201572 0.018571556
0.013850118 -0.061171357 0.019045144
0.015081517 -0.061486185 0.01892069
0.016540412 -0.062617272 0.018765897
0.01752021 -0.06190474 0.018629581
0.018385353 -0.060901482 0.018898666
0.019761188 -0.061608411 0.019114345
0.020980507 -0.061775941 0.019830674
0.022980932 -0.064104706 0.02015686
0.022908084 -0.060706422 0.02071479
0.024192281 -0.061056711 0.021085411
0.025726456 -0.061977372 0.021668106
0.026322523 -0.06065625 0.021949768
0.026991379 -0.05960596 0.021502823
0.028841633 -0.061144263 0.019635528
0.029995287 -0.06114424 0.017978489
0.031150389 -0.06114706 0.015677333
0.032962468 -0.062393241 0.01202926
0.034674816 -0.063371211 0.0096710026
0.035606857 -0.062905446 0.008069694
0.036997754 -0.063254222 0.006495595
0.038205147 -0.063277274 0.0053105354
-0.016755743 -0.062235616 0.0060206354
-0.015640991 -0.062563963 0.0084395111
-0.014317607 -0.062042963 0.011116534
-0.012986689 -0.061391618 0.013219923
-0.011769078 -0.061199203 0.014487207
-0.010539056 -0.060892325 0.015544087
-0.0093495343 -0.060771976 0.016082853
-0.0081739733 -0.060720947 0.016520113
-0.0070288521 -0.060916718 0.016364068
-0.0058295433 -0.060627252 0.016257823
-0.0046393881 -0.060312048 0.01597324
-0.0034940613 -0.060563732 0.01596722
-0.0023440381 -0.060944989 0.01677677
-0.0011799533 -0.061357569 0.01762259
0 -0.060742915 0.018744916
0.0011459442 -0.059589103 0.018559009
0.0022832125 -0.059363529 0.017988563
0.0034818111 -0.06035139 0.018861413
0.0045764926 -0.059494406 0.019257009
0.0057911496 -0.060227953 0.01969108
0.0069381711 -0.060130816 0.020101696
0.00813217 -0.060410403 0.019635916
0.0093212603 -0.060588188 0.019280344
0.010435957 -0.060296644 0.018423796
0.011828789 -0.061509702 0.018024832
0.01280172 -0.060517218 0.018423885
0.013982787 -0.060592074 0.018905312
0.015195145 -0.060780581 0.018585771
0.016465807 -0.061158713 0.018463731
0.01748229 -0.060605273 0.018571556
0.018850597 -0.06126444 0.018882096
0.019655069 -0.060121387 0.019365251
0.02103365 -0.060763881 0.020302832
0.02175892 -0.059550725 0.020835519
0.02253611 -0.058593884 0.021325082
0.02450859 -0.060687937 0.022129923
0.02488767 -0.0588254 0.022442579
0.026055867 -0.058908917 0.023010254
0.02734245 -0.059241977 0.022617191
0.028842356 -0.059992101 0.022215426
0.029564336 -0.059128672 0.018700391
0.03062577 -0.058982965 0.016536444
0.032563262 -0.06047463 0.012587309
0.034989532 -0.062739857 0.0099967718
0.036043573 -0.062475529 0.0077661276
0.037173927 -0.062356263 0.0057360828
0.038264491 -0.062179796 0.005206883
-0.016898513 -0.061558869 0.0055447817
-0.015707053 -0.061619975 0.0083439946
-0.014268189 -0.060639802 0.011374533
-0.012970195 -0.060134541 0.013822436
-0.011722394 -0.059784211 0.014940798
-0.010542006 -0.059738033 0.015872002
-0.0093970075 -0.05990592 0.016556323
-0.0081566432 -0.059426971 0.016744316
-0.0070110732 -0.059594121 0.016765028
-0.0058832923 -0.06000958 0.016708136
-0.0046302131 -0.059035216 0.016984344
-0.0035433169 -0.060236387 0.017195582
-0.0023505455 -0.059938908 0.017553061
-0.001177539 -0.060054488 0.017933458
0 -0.05891693 0.018282533
0.0011630933 -0.059317756 0.017868638
0.0023111706 -0.058934849 0.017689377
0.0035087576 -0.059648879 0.019141257
0.0046299696 -0.059032109 0.020283014
0.0058260015 -0.059425212 0.019950718
0.0070582451 -0.059995081 0.020097762
0.0082180742 -0.059874542 0.01957503
0.0093692187 -0.059728768 0.019423127
0.010439998 -0.059159987 0.018687934
0.01169985 -0.05966923 0.018609345
0.012769798 -0.059205424 0.018658072
0.014008648 -0.059536751 0.019135386
0.015088527 -0.059193451 0.018909782
0.016377443 -0.059660688 0.018624783
0.01757491 -0.059754692 0.018911242
0.018495297 -0.058953758 0.019562632
0.019782778 -0.059348337 0.019957542
0.021657707 -0.061363507 0.020517856
0.022213941 -0.059626896 0.021512508
0.023006475 -0.058666512 0.021999061
0.02417928 -0.058721106 0.02289632
0.025470549 -0.059045363 0.023127288
0.026157103 -0.058000535 0.023510367
0.02712829 -0.057647616 0.023127288
0.028783584 -0.05871851 0.022930652
0.029582268 -0.058026753 0.018994272
0.030171487 -0.05699059 0.015200973
0.031528763 -0.057427388 0.011185139
0.034357354 -0.060421556 0.0087134838
0.035582993 -0.060491085 0.0065915287
0.037329178 -0.061412517 0.005558461
-0.015729466 -0.060497947 0.0082229972
-0.014064401 -0.058601674 0.011260331
-0.013016623 -0.059166469 0.013622135
-0.011848085 -0.059240423 0.015472919
-0.010568475 -0.058713753 0.016368121
-0.0093576442 -0.058485277 0.016975909
-0.00821904 -0.058707427 0.017232478
-0.0070042186 -0.058368485 0.017234355
-0.005942496 -0.059424963 0.017015636
-0.0046758661 -0.058448326 0.017241925
-0.0035373319 -0.058955532 0.017775089
-0.0023320471 -0.058301173 0.018232614
-0.0011657296 -0.058286484 0.018312186
0 -0.05787826 0.018565446
0.0011481133 -0.057405666 0.018770725
0.0023314375 -0.058285937 0.018770725
0.0035243486 -0.058739144 0.01868847
0.0047060987 -0.058826238 0.019583642
0.0058187642 -0.058187641 0.019884318
0.0069340044 -0.057783369 0.01990813
0.0081682708 -0.058344793 0.019842893
0.0092732972 -0.057958107 0.019375443
0.010611256 -0.058951423 0.01918906
0.011522679 -0.057613391 0.019214839
0.012738462 -0.057902098 0.01918906
0.014141172 -0.058921553 0.01929304
0.01515446 -0.058286387 0.019289315
0.016333314 -0.058333259 0.018914521
0.017360426 -0.057868086 0.018763989
0.018399054 -0.057497043 0.019312948
0.019599786 -0.057646427 0.019352883
0.020922538 -0.058118161 0.019580603
0.0216011 -0.056844998 0.020827115
0.02279003 -0.056975074 0.022148103
0.023848495 -0.05678213 0.02260977
0.025494978 -0.057943132 0.023377925
0.026427556 -0.057451207 0.023726732
0.027563784 -0.057424549 0.02345705
0.028420439 -0.056840878 0.022393256
0.029035406 -0.055837322 0.018105507
0.030114343 -0.055767301 0.015102476
0.03117157 -0.055663515 0.010159492
0.034789797 -0.059982408 0.0076633394
0.035951849 -0.059919752 0.0064702034
0.03752001 -0.060516149 0.0050728321
-0.015767625 -0.059431817 0.0080605745
-0.013962138 -0.057012063 0.011925578
-0.012799545 -0.057016157 0.014236093
-0.011636103 -0.057016902 0.015824646
-0.010423749 -0.056751523 0.016667157
-0.009377216 -0.057435445 0.017025143
-0.0081888074 -0.057321653 0.017217189
-0.007139951 -0.0583096 0.017376363
-0.0058757979 -0.057582818 0.017653197
-0.0047154003 -0.057763651 0.017896324
-0.0035324213 -0.057696216 0.017935961
-0.0023386471 -0.057296854 0.018440604
-0.0011603124 -0.05685531 0.018485904
0 -0.057536531 0.018624187
0.0011484863 -0.056275826 0.019020468
0.0023143853 -0.056702439 0.019349337
0.0034764614 -0.056782205 0.019583642
0.004674437 -0.057261854 0.020405382
0.0059050564 -0.057869554 0.020499915
0.006998051 -0.057150751 0.020656556
0.0080966502 -0.056676552 0.020568699
0.0092411796 -0.056602221 0.020428717
0.010328309 -0.056231905 0.019842893
0.011723858 -0.057446904 0.019664258
0.012817644 -0.057096776 0.019869149
0.013930696 -0.056883674 0.020082474
0.015046846 -0.056715034 0.01995042
0.015646828 -0.054763898 0.01972419
0.017036155 -0.055651441 0.019898921
0.018586289 -0.056920514 0.020313174
0.019519152 -0.056261085 0.020449102
0.020799911 -0.05662198 0.020199597
0.021833766 -0.056308132 0.021465808
0.022404153 -0.054890174 0.022758156
0.023619795 -0.055112854 0.023007244
0.025101451 -0.055907778 0.023939729
0.025578056 -0.05449238 0.024536043
0.026811836 -0.054740831 0.023204744
0.028408429 -0.055680517 0.020788342
0.029150996 -0.054938417 0.01812163
0.030415 -0.055197593 0.013350785
0.031459466 -0.055054069 0.0082085431
0.034509733 -0.058309548 0.0074027479
0.036052451 -0.058885667 0.0060202479
-0.015621129 -0.057678014 0.005679369
-0.014369444 -0.057477776 0.012144178
-0.012972501 -0.05660728 0.014076859
-0.011678772 -0.056058109 0.015334129
-0.010626711 -0.056675788 0.01628083
-0.0094849868 -0.056909923 0.016944587
-0.0080241179 -0.055022523 0.017315596
-0.0070024463 -0.056019571 0.017566741
-0.0058221612 -0.055892747 0.017733455
-0.0047324752 -0.0567897 0.018003732
-0.0034910939 -0.055857502 0.018200308
-0.0023801038 -0.057122495 0.018471003
-0.0011656778 -0.055952534 0.018973768
0 -0.055001684 0.019615203
0.0011739079 -0.056347579 0.019774228
0.0023597423 -0.056633815 0.02025193
0.0035337061 -0.056539297 0.020633787
0.0046281111 -0.055537332 0.020915121
0.0056822612 -0.054549705 0.020827085
0.0069933026 -0.055946421 0.021057367
0.0081354808 -0.055786151 0.020917892
0.0093816137 -0.05628968 0.020475745
0.010364512 -0.0552774 0.020328611
0.011224736 -0.053878736 0.020251602
0.012651407 -0.055206139 0.020157993
0.013546808 -0.054187231 0.020053267
0.015167252 -0.056002162 0.020244598
0.016304441 -0.055900943 0.020023406
0.017734295 -0.056749742 0.020244598
0.018354338 -0.055063017 0.020431221
0.020171478 -0.056954764 0.020347595
0.02102026 -0.056054026 0.020634353
0.022191277 -0.056062173 0.021147132
0.022371244 -0.053690985 0.022401303
0.023488084 -0.053687047 0.023634642
0.024942078 -0.054419078 0.023639262
0.025652204 -0.053535033 0.023146331
0.027315667 -0.054631334 0.021031886
0.028533142 -0.054783631 0.019281209
0.029726703 -0.054880068 0.015300006
0.030441241 -0.054117765 0.0094898343
0.032576468 -0.055845372 0.0077645779
0.033867948 -0.056057293 0.0058653653
-0.015655924 -0.056602184 0.0059409142
-0.014008138 -0.054865211 0.012225568
-0.013057577 -0.055791467 0.014580756
-0.011584242 -0.054445934 0.016138554
-0.010499394 -0.054830164 0.016916066
-0.0093859537 -0.055142477 0.01709193
-0.0082583241 -0.055448748 0.017765492
-0.0070653181 -0.055344991 0.018033296
-0.0059086941 -0.055541728 0.01803115
-0.0046824631 -0.055018943 0.018233567
-0.0035234469 -0.055200666 0.018506199
-0.002336808 -0.054914989 0.018890798
-0.0011550025 -0.054285116 0.019178867
0 -0.055609103 0.019755304
0.0011463452 -0.053878225 0.019893587
0.0023522933 -0.055278894 0.020327747
0.0034499236 -0.054048803 0.020716429
0.0045529776 -0.053497486 0.021187782
0.0056822221 -0.053412888 0.021373332
0.0068476936 -0.053640265 0.021728367
0.007930194 -0.053245585 0.021223485
0.0091616428 -0.053824652 0.021102607
0.010329889 -0.053944979 0.02107954
0.011798777 -0.05545425 0.020981252
0.012872553 -0.055000909 0.020943105
0.013952563 -0.054647535 0.020581394
0.015169548 -0.05484375 0.020388573
0.016449362 -0.055222858 0.020549238
0.017479248 -0.054768309 0.020460367
0.018556954 -0.054511052 0.020605057
0.019847278 -0.054871887 0.020604581
0.020508181 -0.053549141 0.020748287
0.022243226 -0.055022717 0.021135449
0.022610979 -0.053135801 0.021598488
0.023907261 -0.053506728 0.021700531
0.025177611 -0.053788532 0.021700531
0.026939917 -0.055051137 0.02158168
0.026992697 -0.0528607 0.019201756
0.029220531 -0.054934599 0.015755594
0.030262733 -0.054705709 0.009459585
0.031380445 -0.054625217 0.0072464347
0.033063311 -0.055499133 0.0060309172
-0.015808657 -0.055938326 0.006023556
-0.014000664 -0.053669211 0.012903422
-0.01279799 -0.053518869 0.014902383
-0.01169503 -0.053797137 0.016215742
-0.010477877 -0.053553592 0.01706028
-0.0094511937 -0.05434436 0.017374039
-0.0081340587 -0.053452387 0.018264502
-0.0070517058 -0.054063078 0.018790245
-0.0057873116 -0.053243268 0.018555611
-0.0047228909 -0.054313242 0.018806279
-0.00353054 -0.05413495 0.018965602
-0.0023386101 -0.053788032 0.019326001
-0.001155781 -0.053165924 0.019767046
0 -0.052961361 0.020215541
0.0011279184 -0.051884245 0.020589054
0.0022912989 -0.052699875 0.021422088
0.0035027391 -0.053708669 0.021742135
0.0046443674 -0.053410221 0.022010446
0.0058309007 -0.053644288 0.021967858
0.0068962532 -0.052871276 0.021831453
0.0082676206 -0.054330081 0.021680504
0.0093473233 -0.05374711 0.021427304
0.010527798 -0.053808745 0.021320313
0.011882145 -0.054657869 0.021076351
0.012570724 -0.05256848 0.020866901
0.013997738 -0.053657997 0.020580709
0.015172539 -0.053687446 0.021062374
0.01664111 -0.054677933 0.020584404
0.017167408 -0.052646715 0.020653993
0.018901784 -0.054342628 0.02107954
0.019642012 -0.053148974 0.020831794
0.02088286 -0.053367309 0.020789504
0.022696555 -0.054949552 0.021377534
0.02245114 -0.05163762 0.021492928
0.024139652 -0.052877329 0.021492928
0.025854969 -0.054060392 0.02145341
0.026592419 -0.053184837 0.020110995
0.028257228 -0.05415969 0.016507804
0.029623324 -0.054506917 0.011643171
0.030991608 -0.054831307 0.0072982907
0.032414794 -0.055225205 0.0052447915
-0.015698291 -0.054340236 0.0052421987
-0.013968234 -0.052380878 0.013263404
-0.012846701 -0.052554686 0.014707237
-0.012023353 -0.054105088 0.015588939
-0.010557785 -0.052788921 0.016955197
-0.009453468 -0.053175759 0.017762184
-0.0081317779 -0.052275714 0.018320084
-0.0070032994 -0.052524745 0.019090801
-0.0057402616 -0.051662356 0.01880005
-0.0045577087 -0.051274221 0.018223286
-0.0034728625 -0.05209294 0.01883772
-0.002278574 -0.051267914 0.019491315
-0.0011625274 -0.052313734 0.019688547
0 -0.052360542 0.020144612
0.001165332 -0.052439943 0.0211685
0.0023346664 -0.052529998 0.022130698
0.0035677915 -0.053516872 0.02210775
0.0046672067 -0.052506078 0.022484541
0.0057180091 -0.05146208 0.022494912
0.0069813523 -0.052360144 0.022729874
0.0081765847 -0.052563757 0.022688776
0.0093466686 -0.052575011 0.022194892
0.010508958 -0.052544795 0.021953136
0.011463815 -0.051587172 0.021754265
0.012557748 -0.051372606 0.021662563
0.014317074 -0.053689025 0.021339536
0.015312487 -0.053004764 0.021508932
0.016491542 -0.053008527 0.021140665
0.01746319 -0.05238957 0.021331131
0.018782539 -0.05282589 0.021331131
0.019784559 -0.052370891 0.021140665
0.02093401 -0.052335024 0.020973384
0.022380276 -0.053005919 0.021034241
0.023745313 -0.053426951 0.021002829
0.025095614 -0.053776313 0.020421475
0.025792906 -0.052758217 0.019477308
0.028066149 -0.054912031 0.0170497
0.029203253 -0.054756101 0.012270778
0.03059493 -0.055070873 0.0054768026
-0.014124402 -0.051789474 0.0096264482
-0.012872539 -0.051490154 0.014765799
-0.011411717 -0.050211556 0.015990883
-0.010436289 -0.051021855 0.017434984
-0.0090972381 -0.050034806 0.017952144
-0.0081025613 -0.050930385 0.018582612
-0.0069083893 -0.050661523 0.019050807
-0.0058830874 -0.051771171 0.018562406
-0.0046851411 -0.051536553 0.018235862
-0.0035325896 -0.051811315 0.018184006
-0.0023118067 -0.050859746 0.019467711
-0.001162926 -0.051168744 0.019759685
0 -0.051861063 0.020098746
0.0011551825 -0.050828028 0.021027774
0.0023237572 -0.051122654 0.021786749
0.0034907027 -0.051196974 0.022139519
0.0046800198 -0.051480215 0.023103178
0.0058382764 -0.051376831 0.022737443
0.0069800853 -0.051187292 0.022404224
0.0082019921 -0.05155538 0.022455901
0.0092684142 -0.05097628 0.02237162
0.010635984 -0.051998146 0.022326469
0.011639073 -0.051211923 0.022144854
0.012952992 -0.051811967 0.0218319
0.01402494 -0.051424783 0.021809399
0.015030093 -0.050871085 0.021592975
0.016279584 -0.051164407 0.021606505
0.017394222 -0.051023051 0.021391809
0.018461388 -0.050768815 0.021174133
0.019517928 -0.050516993 0.020792991
0.020702163 -0.050605286 0.019776732
0.022124013 -0.051234554 0.018602997
0.024370776 -0.053615708 0.018692374
0.025761224 -0.053975899 0.017769575
0.027372751 -0.054745503 0.015951514
0.029290583 -0.056034159 0.013201118
0.030315675 -0.055578738 0.0079922974
-0.013628851 -0.048836716 0.0087479353
-0.012643523 -0.049424682 0.014575243
-0.011750876 -0.050528768 0.015921146
-0.010629633 -0.050786022 0.016501963
-0.0094354087 -0.050715324 0.017595947
-0.0082866689 -0.050903823 0.018494159
-0.0070859548 -0.050782677 0.018729866
-0.0058423667 -0.050244354 0.018729866
-0.004707681 -0.05060757 0.01812017
-0.0035429103 -0.050781716 0.018101871
-0.0023418562 -0.050349906 0.018359661
-0.0011816703 -0.050811827 0.019581378
0 -0.04958757 0.02035892
