ply
format ascii 1.0
comment PCL generated
element vertex 1273
property float x
property float y
property float z
element camera 0
property float view_px
property float view_py
property float view_pz
property float x_axisx
property float x_axisy
property float x_axisz
property float y_axisx
property float y_axisy
property float y_axisz
property float z_axisx
property float z_axisy
property float z_axisz
property float focal
property float scalex
property float scaley
property float centerx
property float centery
property int viewportx
property int viewporty
property float k1
property float k2
end_header
0.0011239432 -0.079799965 0.014644116
0.002269143 -0.080554575 0.015478343
0.0034487082 -0.081619427 0.016055316
0.0045410343 -0.080603361 0.016425669
0.0055916384 -0.079401262 0.017114103
0.0067651747 -0.080054566 0.016979724
0.0078230305 -0.079347879 0.017114341
0.0090534855 -0.080349684 0.016488135
0.010319742 -0.081411302 0.01622504
0.011392776 -0.080888711 0.015897304
0.012353423 -0.079735726 0.015369773
0.013608941 -0.080519564 0.01511693
0.014891956 -0.081332989 0.014777809
0.01596725 -0.080976769 0.014068037
0.016993232 -0.080434635 0.013742119
0.018321671 -0.081302412 0.013562262
0.019574236 -0.08175122 0.013233602
0.021559695 -0.085041016 0.012736559
0.021779902 -0.081388056 0.011698425
0.023111667 -0.082046419 0.010496318
0.024234846 -0.081936859 0.010218233
0.025576472 -0.082542256 0.0092779398
0.026770212 -0.08263848 0.0087166727
0.0278689 -0.082445495 0.0084833503
0.029043905 -0.082484692 0.0077638328
0.029931173 -0.081735127 0.0072308481
0.031191919 -0.082023196 0.0069987476
0.032255076 -0.08178965 0.0065573156
0.033675469 -0.082446836 0.0063154101
0.034542982 -0.081751727 0.0059671104
0.035869956 -0.082153767 0.0057791471
0.036851134 -0.081763454 0.0054243803
0.03847697 -0.082783788 0.0050801933
-0.012746226 -0.081112348 0.0056329966
-0.011732904 -0.082130328 0.0058832467
-0.010583214 -0.082313888 0.0064595342
-0.0093251206 -0.08159481 0.0069131851
-0.0081734788 -0.081734791 0.0071428716
-0.0069933543 -0.081589133 0.0073320866
-0.0058793705 -0.082311191 0.0079003572
-0.0046457448 -0.081300534 0.0086573958
-0.0034785471 -0.081166103 0.0099868774
-0.0022800313 -0.079801098 0.011234969
-0.0012005877 -0.084041141 0.012895346
0 -0.083969049 0.014395028
0.0011541938 -0.080793567 0.016098827
0.0022814905 -0.079852171 0.017423421
0.0033727498 -0.078697495 0.017286986
0.0045316806 -0.079304412 0.017537445
0.0058319466 -0.081647255 0.01807189
0.006986788 -0.081512526 0.018414199
0.0083130654 -0.083130658 0.018389791
0.009073196 -0.079390459 0.018432617
0.010158661 -0.079011805 0.017522573
0.011297069 -0.079079486 0.017059773
0.012425297 -0.079070069 0.016137511
0.013775618 -0.080357768 0.015610844
0.014921637 -0.080347277 0.015246212
0.016040035 -0.080200173 0.014713705
0.017278083 -0.080631047 0.014847904
0.018539 -0.081108131 0.014344245
0.01963887 -0.080865934 0.013970196
0.020490067 -0.079683594 0.013165742
0.021762095 -0.080176145 0.012262762
0.023034658 -0.080621302 0.011293441
0.024396271 -0.081320904 0.010911196
0.025222003 -0.080251828 0.010101676
0.026670553 -0.081171244 0.0094753504
0.027540578 -0.080326684 0.0091482699
0.029000839 -0.081202351 0.0082817376
0.030266546 -0.081486851 0.0079511404
0.03112082 -0.080683611 0.0075686872
0.032373253 -0.080933131 0.0068150461
0.033463735 -0.080774531 0.0069028139
0.035029728 -0.081736028 0.0063098669
0.036132302 -0.081589073 0.0060701668
0.037057854 -0.081064053 0.0054433048
0.038508214 -0.08168409 0.0051443875
-0.013952483 -0.080226779 0.0051390529
-0.01290103 -0.080924645 0.0053939819
-0.011876712 -0.081949309 0.0054471791
-0.010492677 -0.080443852 0.0063553751
-0.0093550431 -0.080687247 0.0068902373
-0.0081966864 -0.080795906 0.0070660114
-0.0070395139 -0.08095441 0.0075178444
-0.0058409213 -0.080604717 0.0082075
-0.0046366234 -0.079981752 0.0086280704
-0.003488125 -0.080226876 0.01006794
-0.0023952688 -0.082636766 0.011221796
-0.0011418166 -0.078785345 0.012917161
0 -0.07835757 0.015150905
0.0011447966 -0.078990966 0.016429037
0.0022095391 -0.076229095 0.017584711
0.0033835853 -0.077822462 0.018198222
0.0045103757 -0.077803977 0.018165112
0.0056405482 -0.077839568 0.018890411
0.0067020231 -0.077073261 0.019093424
0.0080817612 -0.079663076 0.019107431
0.009407091 -0.08113616 0.018891722
0.010601023 -0.081274517 0.018139035
0.011339873 -0.078245126 0.017863572
0.012592079 -0.078986675 0.017265916
0.013689877 -0.078716785 0.017163873
0.014875379 -0.078953937 0.016466588
0.016047226 -0.079089902 0.016162872
0.017122628 -0.078764088 0.015969753
0.018040698 -0.077800512 0.015673637
0.019320188 -0.078417234 0.014864564
0.020826269 -0.079834029 0.014117718
0.021716446 -0.078864984 0.0134238
0.022893095 -0.078981183 0.01235345
0.023956897 -0.078715518 0.011927247
0.025336161 -0.079463415 0.01131326
0.026791334 -0.080374002 0.010487318
0.028141513 -0.080906853 0.009771347
0.028646501 -0.079064339 0.0089119077
0.030343078 -0.08052586 0.0082326829
0.031945661 -0.08163891 0.0080474019
0.032586403 -0.080302209 0.0075654685
0.033870906 -0.080589399 0.0073855817
0.034765027 -0.079959564 0.006880641
0.035922728 -0.079957038 0.0067293048
0.037151907 -0.080108799 0.0061475635
0.038873259 -0.081280455 0.0057702661
0.039391883 -0.079942346 0.0055856109
-0.013059824 -0.080733456 0.0053921342
-0.011568087 -0.078662992 0.0055350363
-0.010530658 -0.079564974 0.0059169829
-0.0093562137 -0.079527818 0.0066965222
-0.0081785554 -0.079448819 0.0070213079
-0.0070363823 -0.079745665 0.0072154999
-0.0058671976 -0.079793893 0.0076339543
-0.0046393913 -0.078869656 0.0083759725
-0.0034692183 -0.078635618 0.0093641281
-0.0022950869 -0.078032956 0.011118829
-0.0011415932 -0.077628337 0.013123989
0 -0.078277968 0.015342802
0.0011115448 -0.075585045 0.016499251
0.002242655 -0.07625027 0.017576754
0.0034090015 -0.077270702 0.018768758
0.004464949 -0.075904131 0.018819302
0.0056144823 -0.076356962 0.019701004
0.0068484484 -0.077615753 0.019831866
0.0078384029 -0.076144487 0.02029258
0.0092550181 -0.078667656 0.019701004
0.010426124 -0.078775153 0.018722326
0.011223307 -0.076318488 0.018412471
0.012572906 -0.077723421 0.017917842
0.013660198 -0.077407792 0.017411262
0.014920691 -0.078046687 0.01741007
0.016027939 -0.077849992 0.016729981
0.0171676 -0.077826448 0.016955167
0.018724609 -0.079579592 0.016523987
0.019226493 -0.076905973 0.015828133
0.020478848 -0.077364542 0.015283287
0.021714514 -0.077715099 0.015001327
0.023234921 -0.07899873 0.013363719
0.024073387 -0.077951916 0.012455463
0.025275165 -0.078123234 0.011911064
0.026587958 -0.07860788 0.011207998
0.027439725 -0.077745885 0.010123938
0.028973313 -0.078807414 0.0096835196
0.030277416 -0.079187088 0.0090394616
0.031330265 -0.078905851 0.00898242
0.032670304 -0.079342172 0.0084295869
0.033715017 -0.079055905 0.0081856549
0.034707464 -0.078670256 0.0077530146
0.036602106 -0.080288485 0.0073435605
0.036640391 -0.077860832 0.006397903
0.038395979 -0.079118982 0.0059876442
0.039584279 -0.079168558 0.0053427517
0.040313546 -0.078323461 0.0050586462
-0.010693394 -0.079606369 0.0054578185
-0.0093062352 -0.077939719 0.0062077343
-0.0081859147 -0.078350894 0.0062389374
-0.0070233517 -0.078427427 0.0064913929
-0.0058478224 -0.078360818 0.0072370172
-0.0046742521 -0.078293726 0.0078083873
-0.003465614 -0.07739871 0.0090071857
-0.0023518142 -0.07878577 0.010960251
-0.0011467772 -0.076834068 0.013213605
0 -0.081061207 0.015916526
0.0011935608 -0.079968572 0.016795814
0.0023003465 -0.077061608 0.0180448
0.0034853248 -0.07783892 0.018717676
0.0045766742 -0.076659292 0.01875481
0.0056358213 -0.075520001 0.019823313
0.0070270016 -0.078468181 0.020529479
0.0079104248 -0.075714067 0.020757288
0.0090176808 -0.075523078 0.01979205
0.010297625 -0.076660097 0.019669533
0.011180828 -0.07491155 0.019274026
0.012359653 -0.075281516 0.018634766
0.013705587 -0.076522864 0.017955333
0.014865537 -0.076614693 0.017713606
0.016051108 -0.076816015 0.017479688
0.016930697 -0.07562378 0.017447948
0.018060589 -0.075628713 0.017151833
0.019567667 -0.077119626 0.016719252
0.020551266 -0.076496378 0.015734285
0.022344019 -0.078792065 0.015638947
0.023004346 -0.077064559 0.01388371
0.023836361 -0.076049343 0.012843966
0.025401089 -0.077357866 0.012249321
0.026075616 -0.075959399 0.011819184
0.028180432 -0.078670375 0.010774314
0.028786989 -0.07714913 0.010290474
0.030108945 -0.077588432 0.0096326172
0.031402793 -0.077925451 0.0096774995
0.032458358 -0.077668212 0.0091867745
0.033764746 -0.078008205 0.0086685121
0.034902655 -0.077949263 0.0080066919
0.036557559 -0.0790115 0.0078126192
0.03746362 -0.078439459 0.0070767701
0.038888708 -0.078955866 0.0064461529
0.039584819 -0.078005381 0.0057516396
0.040765852 -0.078037485 0.0052368641
-0.010501345 -0.077009857 0.0052392781
-0.0094747003 -0.078166276 0.0057006776
-0.0082294252 -0.077591717 0.0056754947
-0.0070865666 -0.077952236 0.0058658421
-0.0058743404 -0.077541292 0.0064032376
-0.0046489816 -0.076708198 0.0077439547
-0.0034625349 -0.076175764 0.008659929
-0.0024165774 -0.079747058 0.010221571
-0.0011717917 -0.077338256 0.012677133
0 -0.075065494 0.014798224
0.0011253655 -0.074274123 0.016698122
0.0022771175 -0.07514488 0.017707735
0.0034698362 -0.076336399 0.018615872
0.0045616096 -0.075266555 0.018811196
0.0057383575 -0.07574632 0.020171434
0.0068124202 -0.074936621 0.02044782
0.0078303888 -0.073829383 0.021046013
0.0091559244 -0.075536378 0.02014032
0.010829837 -0.079418801 0.019759178
0.01119362 -0.073877893 0.019589692
0.012591179 -0.075547077 0.01850751
0.013754554 -0.075650051 0.018449187
0.014839524 -0.075339124 0.018481195
0.015939672 -0.075144164 0.018303156
0.017308347 -0.076156728 0.018446684
0.017984767 -0.074187167 0.0181247
0.019230874 -0.074661046 0.017457753
0.020899303 -0.076630779 0.016641498
0.021471201 -0.074584171 0.016336322
0.023190444 -0.076528467 0.014926285
0.024285618 -0.076326229 0.014046937
0.025361158 -0.076083474 0.013346881
0.026872108 -0.077111267 0.012159646
0.027890602 -0.076699153 0.011433542
0.028979976 -0.076507136 0.010583699
0.030200718 -0.07666336 0.0099722743
0.03148827 -0.076971322 0.0099604726
0.032592852 -0.076826014 0.0094253719
0.033942763 -0.07724905 0.0089128017
0.03500485 -0.077010676 0.008346945
0.03598243 -0.076607756 0.0075522065
0.037397947 -0.077133268 0.006793797
0.037954524 -0.075909048 0.0063275695
0.040086038 -0.077814072 0.0056652427
-0.0094377492 -0.076681711 0.0050574839
-0.0081668412 -0.075834952 0.0050238967
-0.0070814849 -0.076716088 0.0051514208
-0.0058956584 -0.076643556 0.0060097873
-0.004617102 -0.075027905 0.0070433021
-0.0035163937 -0.076188527 0.0083737671
-0.0024526226 -0.079710238 0.0096509159
-0.0011890786 -0.07729011 0.012097746
0 -0.077911392 0.014541447
0.0011399064 -0.074093916 0.016116977
0.0022531366 -0.073226936 0.017458558
0.0033489813 -0.072561257 0.017922521
0.0043975413 -0.071460046 0.018855721
0.0055953534 -0.072739594 0.020055979
0.0067010503 -0.07259471 0.020210564
0.0079909302 -0.074201494 0.020908356
0.0092644636 -0.075273767 0.020612985
0.010680973 -0.077140361 0.020125598
0.011202696 -0.072817527 0.01909557
0.012472055 -0.073698506 0.019037575
0.013612205 -0.073732778 0.019037575
0.014762014 -0.073810071 0.019038022
0.016293859 -0.075650059 0.019023508
0.017164223 -0.074378304 0.019014865
0.018127723 -0.073643871 0.018792331
0.019504733 -0.074576922 0.018270224
0.020596204 -0.074375182 0.017674983
0.021897327 -0.074911907 0.017719328
0.023254899 -0.075578421 0.016487926
0.024057187 -0.074462727 0.015138894
0.025703393 -0.075941846 0.014159769
0.026690505 -0.075429685 0.013023287
0.027574265 -0.074680299 0.01219824
0.029046819 -0.075521722 0.011428535
0.030083911 -0.075209782 0.010849208
0.031155525 -0.075004041 0.010711104
0.032570802 -0.075610787 0.0100106
0.033504538 -0.075096384 0.0096212924
0.034866549 -0.075544193 0.0078950524
0.036490325 -0.076511972 0.0073955655
0.037184484 -0.075530984 0.0068295896
0.039039318 -0.076895624 0.0057856143
0.039910924 -0.076300293 0.0053425133
0.040927481 -0.076008178 0.0050730705
-0.00460466 -0.07367456 0.0063595772
-0.0034652562 -0.073925465 0.0083139837
-0.0024601789 -0.078725725 0.0095740855
-0.0011882252 -0.076046415 0.012262404
0 -0.074445628 0.01515466
0.0011489667 -0.07353387 0.017239273
0.0022955991 -0.073459171 0.0183492
0.003379985 -0.072106346 0.019278467
0.0045876182 -0.073401891 0.019545734
0.0056786737 -0.072687022 0.020826399
0.0068503255 -0.073070139 0.021222919
0.0080679767 -0.073764361 0.021447629
0.0093092052 -0.074473642 0.020979047
0.010716556 -0.076206617 0.020674318
0.011313321 -0.072405249 0.020142287
0.012505413 -0.072758764 0.019582957
0.013586537 -0.072461531 0.019565344
0.014804596 -0.072884165 0.019524962
0.015959958 -0.07295981 0.019350559
0.01702725 -0.072649598 0.019557804
0.018380564 -0.073522255 0.019252479
0.019299913 -0.072658494 0.018994689
0.020633269 -0.07336273 0.018370092
0.021792075 -0.073404886 0.018025696
0.02279886 -0.072956353 0.017294228
0.024505047 -0.074682049 0.016326785
0.025271427 -0.073516876 0.01484248
0.026415039 -0.073502719 0.013505042
0.027830722 -0.074215256 0.012593776
0.029045155 -0.074355602 0.012024492
0.030176919 -0.074281648 0.01186806
0.032112904 -0.076119475 0.011470795
0.03257915 -0.074466631 0.010530204
0.034055382 -0.075156704 0.0091441274
0.035048466 -0.074770063 0.0084635019
0.03604624 -0.074418046 0.0072509646
0.037195943 -0.074391887 0.0063447356
0.038622852 -0.074904926 0.0057033896
-0.0047487481 -0.074792787 0.005195111
-0.0036262863 -0.076152012 0.0077556372
-0.0024136659 -0.076030478 0.0095981061
-0.0011946084 -0.075260334 0.012474656
0 -0.072334357 0.01540339
0.0011516308 -0.072552741 0.017523319
0.0022988571 -0.072413996 0.019630492
0.0034843904 -0.073172197 0.019795597
0.0045242524 -0.071256973 0.020835906
0.0056755482 -0.071511909 0.021548182
0.0069656391 -0.073139213 0.022450805
0.0080478536 -0.072430685 0.022297889
0.009239479 -0.072760895 0.021420091
0.010730722 -0.075115055 0.0211941
0.011286981 -0.071107984 0.020545393
0.012399473 -0.071015164 0.02032873
0.013828021 -0.072597109 0.020151556
0.014991054 -0.072648957 0.020053476
0.015842196 -0.071289882 0.020048559
0.017162047 -0.072080605 0.020130366
0.018113667 -0.071322568 0.019962728
0.019670816 -0.072897732 0.019642919
0.020359337 -0.071257681 0.018939227
0.021974334 -0.072862267 0.018903762
0.023552455 -0.074190229 0.0179196
0.024038827 -0.072116479 0.016984433
0.025414187 -0.072776988 0.015562087
0.026894154 -0.073666595 0.014072806
0.027823111 -0.073035665 0.013465017
0.029322797 -0.07389345 0.012683958
0.030669359 -0.074314214 0.012455523
0.031345185 -0.073138766 0.011842221
0.033189218 -0.074675746 0.011057049
0.033993434 -0.0738478 0.0098389387
0.035040818 -0.073585719 0.0087858737
0.036378868 -0.073931247 0.0075484514
0.037506223 -0.073840372 0.0062454939
0.039751641 -0.075889498 0.0056593418
0.040215623 -0.074517183 0.0052017272
0.041217681 -0.074191824 0.0050054491
-0.0047835074 -0.074144363 0.0053454936
-0.0035340108 -0.073036224 0.0067950487
-0.0024082814 -0.074656725 0.0096173286
-0.0011781547 -0.073045596 0.012673914
0 -0.073415749 0.015673667
0.0011659781 -0.072290644 0.017795533
0.0022999099 -0.071297206 0.019298047
0.003431912 -0.070926182 0.020032704
0.0045499695 -0.070524521 0.02096349
0.0056909546 -0.070567839 0.021770954
0.0069523696 -0.071841151 0.022559822
0.0078380527 -0.069422759 0.022296607
0.0092310347 -0.071540512 0.021993607
0.010481327 -0.072204702 0.021651387
0.011608102 -0.071970239 0.020984679
0.012968249 -0.073093764 0.020727038
0.013735022 -0.070964284 0.02067697
0.014596828 -0.06961564 0.020558089
0.015979009 -0.070764177 0.020598471
0.017189091 -0.071048245 0.020638168
0.018315744 -0.070973508 0.020449162
0.019395398 -0.070736162 0.020193815
0.020691721 -0.071271487 0.019688785
0.022125309 -0.072198384 0.019568205
0.023177523 -0.071850322 0.018737555
0.023938768 -0.070676364 0.017531961
0.025465887 -0.071767502 0.015762031
0.026699392 -0.071972273 0.014432371
0.027668012 -0.0714757 0.013655454
0.028900016 -0.071672037 0.013089061
0.030443013 -0.072594874 0.012636334
0.031342998 -0.071972817 0.011946499
0.032879241 -0.072804026 0.010518193
0.033533264 -0.071691811 0.0093692541
0.035426378 -0.073214516 0.0085788369
0.036732066 -0.073464133 0.0077251792
0.037525039 -0.072704762 0.0071095526
0.038255401 -0.071873784 0.0063343048
0.039994329 -0.072930835 0.0059795678
0.0407479 -0.072181992 0.0056780875
0.042367905 -0.072966948 0.0050869882
-0.0060046767 -0.073257051 0.0050736368
-0.0047549214 -0.072512552 0.0059696436
-0.003513112 -0.071433276 0.0064944923
-0.0023792547 -0.072567269 0.0097820163
-0.0011834275 -0.072189078 0.013110548
0 -0.068772055 0.016660392
0.001158401 -0.070662461 0.018430144
0.002267824 -0.069168635 0.020114183
0.0033490742 -0.068097845 0.020371348
0.0045481436 -0.069359183 0.021423072
0.005635092 -0.068748124 0.022058368
0.0067465357 -0.068589784 0.022772104
0.0080862856 -0.070466205 0.022452295
0.0091684684 -0.069909573 0.022036076
0.010465198 -0.070930794 0.021856815
0.011666269 -0.071164243 0.020812124
0.012679398 -0.070313022 0.020785868
0.013953783 -0.070931725 0.020812839
0.015243591 -0.071527623 0.02071479
0.015914692 -0.069342583 0.020733297
0.017066346 -0.069403142 0.020774275
0.018303588 -0.069782436 0.020570129
0.019518999 -0.070038758 0.020225406
0.020847782 -0.070650816 0.019913971
0.021800065 -0.069989681 0.019844979
0.022725718 -0.069313437 0.019337803
0.024401676 -0.070881061 0.018641531
0.02523387 -0.069966637 0.016815335
0.026459672 -0.070175648 0.015459001
0.028104965 -0.071433455 0.014510363
0.028835503 -0.070358627 0.013932019
0.029984176 -0.070347488 0.013395876
0.031383269 -0.070902944 0.011885822
0.033028197 -0.07195428 0.010826021
0.03408901 -0.07170447 0.009290427
0.034917396 -0.070998706 0.0084466636
0.036799066 -0.072411068 0.0074452162
0.037432916 -0.071356498 0.0069153011
0.038933378 -0.071967758 0.0062144101
0.039830491 -0.07146059 0.0061517954
0.040995352 -0.071449041 0.0054046214
0.042528555 -0.072062269 0.0050278306
-0.005969516 -0.071634188 0.0052894354
-0.0047202092 -0.070803136 0.006585151
-0.0035382244 -0.070764489 0.0073985159
-0.0023404616 -0.070213847 0.011732966
-0.0011673187 -0.070039116 0.015755326
0 -0.068676405 0.018675178
0.0011601934 -0.069611602 0.020029753
0.0022644599 -0.067933798 0.022003055
0.0034698972 -0.069397941 0.022135317
0.0045160842 -0.06774126 0.022669971
0.0056784386 -0.068141267 0.023050547
0.006970631 -0.069706313 0.023370713
0.0078852847 -0.067588158 0.022811025
0.0092670601 -0.06950295 0.022429943
0.01027201 -0.068480067 0.022351623
0.011463201 -0.0687792 0.021139443
0.012490168 -0.068128191 0.020742565
0.013753954 -0.068769775 0.021094084
0.015049301 -0.069458313 0.020742565
0.015878381 -0.068050206 0.021042436
0.017203627 -0.068814509 0.021139443
0.018391605 -0.06896852 0.021061927
0.019354956 -0.068311609 0.021042436
0.020599663 -0.068665549 0.020566404
0.021705756 -0.068544492 0.020528167
0.022946365 -0.068839096 0.020110339
0.024215771 -0.069187917 0.019385278
0.025166184 -0.068635046 0.0177944
0.026615465 -0.069431648 0.016189009
0.027883861 -0.069709651 0.014765829
0.029053427 -0.069728225 0.014251411
0.030559976 -0.070523024 0.013227552
0.03196146 -0.071025461 0.01158765
0.032656465 -0.06997814 0.01034236
0.034223691 -0.070807636 0.0093383193
0.035176892 -0.070353784 0.0084539354
0.036632456 -0.070901528 0.0069300234
0.037326947 -0.06998802 0.0064165592
0.039076522 -0.071048222 0.0060467422
0.0401574 -0.070866004 0.0057253838
0.041006923 -0.070297576 0.0053248703
-0.0059099481 -0.06973739 0.0058751702
-0.0047324765 -0.069804028 0.0066976249
-0.0035010152 -0.068853304 0.0079512298
-0.0023743664 -0.07004381 0.012587309
-0.0011474831 -0.067701504 0.016840547
0 -0.067248933 0.01980266
0.0011328654 -0.066839062 0.020753413
0.0022482907 -0.066324577 0.022460759
0.0034043589 -0.066952392 0.022900879
0.0044971439 -0.066332877 0.023464382
0.0055737682 -0.06577047 0.023946345
0.0067496803 -0.066371851 0.023944199
0.0077020889 -0.064917602 0.023688346
0.0091522429 -0.06749779 0.022725433
0.010265587 -0.067296624 0.022051722
0.011392136 -0.067213602 0.021744668
0.012655768 -0.067880936 0.021415174
0.013915617 -0.068418451 0.02180773
0.015214942 -0.069052435 0.021590173
0.015749926 -0.066374689 0.021758229
0.017286055 -0.067991816 0.021889687
0.018097822 -0.066735715 0.021352112
0.019533169 -0.067791581 0.021520555
0.020418167 -0.066926211 0.020894498
0.02170608 -0.067403093 0.021338612
0.022883449 -0.067506172 0.020969003
0.024030944 -0.067515507 0.020251751
0.024845453 -0.066630989 0.018494308
0.026329191 -0.067540102 0.01723814
0.028275374 -0.069510296 0.015782505
0.029213477 -0.068943806 0.01500085
0.030498885 -0.069209009 0.013330072
0.03137137 -0.068552256 0.011738598
0.033094235 -0.069734275 0.010414273
0.034287728 -0.069757789 0.0096131563
0.035438064 -0.069694862 0.0079982579
0.036484402 -0.069438055 0.0072983205
0.037092488 -0.068389274 0.0063515007
0.039077234 -0.069865361 0.0064590275
0.040517155 -0.070309184 0.0056959093
0.041332539 -0.06967485 0.0054545403
0.04242333 -0.069527127 0.0050047934
-0.0059209848 -0.068683423 0.0059203506
-0.0046757665 -0.067798615 0.006757915
-0.0034714504 -0.067114703 0.0081879199
-0.0023546608 -0.068285167 0.012788713
-0.0011362247 -0.065901034 0.0167391
0 -0.065410145 0.019957691
0.0011308033 -0.065586589 0.021033764
0.0022562251 -0.065430522 0.021803856
0.0033475547 -0.064719394 0.022932678
0.004474273 -0.064876959 0.023526847
0.0056423252 -0.065450974 0.024128884
0.0067548435 -0.065296821 0.023712605
0.0078688217 -0.065198809 0.023471922
0.0091479393 -0.066322565 0.022419512
0.010144547 -0.065375969 0.021582276
0.011342906 -0.065788858 0.021551847
0.012736933 -0.067158379 0.021540552
0.014038508 -0.067852788 0.021582276
0.015053655 -0.067162462 0.021648794
0.016196629 -0.067100316 0.021669656
0.017173002 -0.066402271 0.021782994
0.01832097 -0.066413514 0.021590173
0.019392643 -0.066163138 0.021824807
0.020532245 -0.06615945 0.021631986
0.02161378 -0.065978914 0.021824807
0.022712085 -0.065865047 0.021388054
0.024066925 -0.066470556 0.02088818
0.025363477 -0.066867344 0.019510597
0.026402155 -0.066579342 0.017784715
0.027804347 -0.067193836 0.016440213
0.029032929 -0.067356393 0.015247673
0.030295353 -0.067581944 0.01291731
0.031714655 -0.068127774 0.011443287
0.033183105 -0.068736434 0.01014027
0.034076717 -0.068153434 0.0086935163
0.035389282 -0.068419278 0.0081442297
0.036816176 -0.068881877 0.0072988868
0.037831213 -0.068569079 0.0067775846
0.03923998 -0.068967238 0.0064750314
0.040732291 -0.069484495 0.0060400367
0.041439217 -0.068670705 0.0056539774
-0.0070852465 -0.067309842 0.0056640506
-0.0058856909 -0.067096874 0.0060391426
-0.0046911403 -0.066848747 0.0071437359
-0.0034376536 -0.065315418 0.010140806
-0.0023233613 -0.066215798 0.013964564
-0.0011439638 -0.065205932 0.016633451
0 -0.065852016 0.019482404
0.001136836 -0.064799652 0.020842701
0.0021953078 -0.062566273 0.022065908
0.0033055204 -0.062804885 0.022932678
0.0044954731 -0.064060494 0.023464382
0.0056021274 -0.063864253 0.024028838
0.0069043329 -0.065591164 0.023481697
0.0079148756 -0.064449705 0.022702307
0.0091786608 -0.065397955 0.022151738
0.010175254 -0.064443275 0.021795064
0.011408701 -0.065029591 0.0213359
0.012653919 -0.06557031 0.021642148
0.01388659 -0.065961301 0.021811783
0.015162948 -0.066483691 0.021765858
0.015875347 -0.064635344 0.021918029
0.017235143 -0.065493539 0.021906793
0.018190509 -0.06480369 0.021333188
0.019333707 -0.064824782 0.022057861
0.020461084 -0.064793438 0.021550685
0.021625387 -0.064876162 0.021993369
0.023327874 -0.066484436 0.021665931
0.024348054 -0.066087574 0.02046147
0.02485637 -0.064400591 0.019030362
0.026367258 -0.065344945 0.017316818
0.027746076 -0.065896928 0.015683174
0.029113607 -0.066379026 0.014250576
0.030510446 -0.066888288 0.012185335
0.031485055 -0.066468455 0.0108504
0.033031866 -0.067243442 0.0087634325
0.034413446 -0.067640223 0.008697629
0.035702951 -0.067835607 0.0077364743
0.036550917 -0.067206524 0.0072905719
0.038323075 -0.068262979 0.007024318
0.039268274 -0.067827016 0.0065683126
0.039894644 -0.066882201 0.0059838593
0.04145221 -0.067507885 0.0052925348
-0.0083387019 -0.066709615 0.0051411092
-0.0072212182 -0.067398034 0.0055542886
-0.0059070103 -0.066158518 0.0063884854
-0.0047583957 -0.066617541 0.0078077912
-0.0035123972 -0.065564744 0.011482894
-0.0023049572 -0.064538799 0.014579237
-0.0011571808 -0.064802125 0.017364204
0 -0.065662131 0.019798666
0.001133663 -0.063485131 0.021230996
0.0022646242 -0.063409477 0.022409618
0.0034347177 -0.064114727 0.022660345
0.0044934992 -0.062908992 0.024065405
0.0057513546 -0.064415172 0.024520725
0.0068842084 -0.064252615 0.023594111
0.0079843439 -0.063874751 0.023913562
0.009049492 -0.063346438 0.022795141
0.010314996 -0.0641822 0.02238065
0.011606607 -0.064996995 0.021653414
0.012711497 -0.064713076 0.021822989
0.01398375 -0.065257497 0.021653414
0.015228629 -0.065600246 0.021636665
0.01606793 -0.064271718 0.02182284
0.017011339 -0.063508995 0.021544129
0.018302446 -0.064058565 0.021495044
0.019308789 -0.06360542 0.022080332
0.02074256 -0.064532407 0.021928221
0.021838056 -0.064364798 0.022204071
0.022737583 -0.063665234 0.021756023
0.024091179 -0.064243145 0.020843536
0.025047632 -0.063757606 0.019379973
0.026369963 -0.064205125 0.017755836
0.027611718 -0.064427339 0.015893668
0.029242774 -0.065503813 0.014369637
0.030100994 -0.064832911 0.011634439
0.03186414 -0.066088587 0.010525018
0.033486225 -0.066972449 0.0087640285
0.034175541 -0.065994151 0.0085560381
0.035489704 -0.066247448 0.0073148906
0.036746733 -0.066381194 0.0070029199
0.037639011 -0.065868273 0.0062415004
0.038993765 -0.066171236 0.0057048798
0.040484924 -0.06668105 0.0051804781
-0.0083429208 -0.065551519 0.0053870976
-0.0071418607 -0.06546706 0.0063711703
-0.0059566284 -0.065522909 0.0073175728
-0.0045811851 -0.062991291 0.0086087286
-0.0033880721 -0.062114656 0.012431383
-0.0022386424 -0.061562665 0.015289009
-0.0011165288 -0.061409079 0.01724267
0 -0.062290668 0.019103318
0.001099163 -0.060453963 0.020819366
0.0022800763 -0.062702097 0.021581918
0.0033708895 -0.061799642 0.021756709
0.0044412902 -0.061067741 0.022930145
0.0056035505 -0.061639056 0.02396065
0.0068004318 -0.06233729 0.024146348
0.0080333073 -0.063118845 0.023996055
0.0091156736 -0.062670253 0.023181885
0.010613148 -0.064858124 0.022545397
0.011596764 -0.0637822 0.022177011
0.012865487 -0.064327434 0.02217418
0.014172203 -0.064955927 0.022145897
0.015703542 -0.066438064 0.022004783
0.016029412 -0.062972687 0.022169441
0.017124413 -0.062789507 0.022055566
0.018748425 -0.064447708 0.021683514
0.019441055 -0.062897526 0.021828264
0.020723745 -0.063322552 0.022064537
0.021681733 -0.062762909 0.022421688
0.022863925 -0.062875792 0.021753371
0.02383155 -0.062415961 0.020670056
0.025241451 -0.063103631 0.019370824
0.026203208 -0.062659845 0.016905218
0.027992457 -0.06414938 0.015319675
0.029224304 -0.064293467 0.014759481
0.030298347 -0.064092658 0.011526912
0.031908248 -0.064998277 0.0097522438
0.033331167 -0.065471932 0.0084867775
0.034212317 -0.06488543 0.008200407
0.035852227 -0.065729082 0.0076864064
0.037383046 -0.066324756 0.0065729618
0.037623193 -0.064664863 0.0065540969
0.039498508 -0.065830842 0.0054719746
-0.0096097561 -0.064865857 0.0050162077
-0.008341969 -0.064352334 0.0056608319
-0.007155302 -0.064397715 0.0069243312
-0.0059586908 -0.064353861 0.0081875026
-0.004712489 -0.0636186 0.010187685
-0.0034227471 -0.061609447 0.012853205
-0.0023402451 -0.063186616 0.016024828
-0.001138019 -0.06145303 0.017753661
0 -0.06090039 0.019365579
0.0011541677 -0.062325057 0.021327287
0.0023089233 -0.062340926 0.022340089
0.0033825289 -0.060885523 0.022572458
0.0045925681 -0.061999671 0.023348361
0.0057265344 -0.061846569 0.023578525
0.0066961227 -0.060265105 0.023728997
0.0078766542 -0.060762763 0.023940235
0.0091164988 -0.061536364 0.023016989
0.0097894566 -0.058736738 0.022776634
0.011069643 -0.059776071 0.022701979
0.012344668 -0.060601097 0.022622943
0.014153751 -0.063691877 0.022792697
0.015187138 -0.063085034 0.022526473
0.016082872 -0.062033933 0.022667527
0.017120477 -0.061633717 0.022258043
0.018199677 -0.061423909 0.022012323
0.019411759 -0.061660886 0.022348821
0.020782596 -0.062347788 0.022600323
0.021756552 -0.06183441 0.022895306
0.023165431 -0.062546663 0.022493422
0.024154464 -0.062111482 0.021077961
0.025262473 -0.062007885 0.019972831
0.026446247 -0.06209119 0.017604113
0.027527817 -0.061937585 0.015850574
0.028855938 -0.062328827 0.014353931
0.030794369 -0.063957535 0.011212558
0.03204409 -0.064088181 0.010104209
0.033305228 -0.064231515 0.0085229874
0.034379318 -0.064016663 0.0079796016
0.03570414 -0.064267449 0.0072264671
0.03679689 -0.064097814 0.006226033
0.038126137 -0.064337857 0.0061404705
0.039057132 -0.063911676 0.0055935681
0.040767025 -0.064747624 0.0050016642
-0.0083435252 -0.063172407 0.0058507621
-0.0071917358 -0.063527003 0.0068144202
-0.005923239 -0.062786333 0.0080459714
-0.0047394554 -0.062797785 0.010696381
-0.0034508249 -0.060964573 0.013536274
-0.0022927851 -0.060758803 0.016364068
-0.0011635283 -0.061667003 0.018075943
0 -0.061709184 0.019468546
0.0011575558 -0.061350461 0.020355731
0.0022606074 -0.059906095 0.021829963
0.0034431464 -0.060828917 0.022010446
0.0046275691 -0.061315291 0.023063898
0.0057306732 -0.060745135 0.023231715
0.0070765656 -0.062509663 0.023387641
0.0079238107 -0.059994571 0.023451716
0.0095004011 -0.062940158 0.022597343
0.01048285 -0.061732333 0.022130013
0.01164692 -0.061728679 0.022620946
0.01257891 -0.060607474 0.023088276
0.013605967 -0.060093023 0.022879124
0.015049051 -0.061353825 0.022475332
0.016282048 -0.061639186 0.022565633
0.017247984 -0.060942877 0.022536635
0.018264538 -0.060501281 0.023018509
0.019511728 -0.060830683 0.023401022
0.020341612 -0.059894752 0.023357421
0.021627685 -0.060329858 0.02374199
0.022632962 -0.059977349 0.023398638
0.023808865 -0.060089041 0.021605581
0.025208367 -0.060729247 0.020922035
0.026358908 -0.060740091 0.019721508
0.027422084 -0.060557105 0.016759127
0.029279573 -0.062072694 0.014731288
0.030531313 -0.062236909 0.011189282
0.031967975 -0.062751956 0.0099312663
0.033287596 -0.063008666 0.0084246993
0.034502067 -0.0630555 0.0077803731
0.035479236 -0.062679984 0.0071542263
0.036862131 -0.063022353 0.0063957572
0.038008805 -0.062952079 0.0060927272
0.039304931 -0.063126102 0.0055935979
0.040105619 -0.062517583 0.0051043928
-0.0084358891 -0.062666602 0.0061391592
-0.0072080195 -0.062469501 0.0068618059
-0.0059843399 -0.062237136 0.0079237223
-0.004649383 -0.060441982 0.010995477
-0.0034827252 -0.060367238 0.013655514
-0.0023257539 -0.060469598 0.016421944
-0.0011736146 -0.061027963 0.018668205
0 -0.060321398 0.019964039
0.0011510639 -0.059855323 0.020564556
0.0022598088 -0.058755029 0.021692514
0.0034699265 -0.060145393 0.022124946
0.0045267614 -0.058847897 0.022745162
0.0057658581 -0.059964921 0.023085833
0.0068584597 -0.059439987 0.023627013
0.0080558127 -0.059843183 0.022895157
0.009234 -0.060020998 0.021946251
0.010450764 -0.060382191 0.02186054
0.011565574 -0.06014099 0.022166014
0.012581902 -0.059478082 0.022290736
0.013994483 -0.06064276 0.022446483
0.015032012 -0.060128048 0.022227436
0.016829079 -0.062508009 0.022105396
0.017847722 -0.061872102 0.022920221
0.019278355 -0.062654652 0.023292691
0.020055687 -0.061346807 0.023867607
0.021259418 -0.061416097 0.023937851
0.022781452 -0.062349241 0.024512172
0.023329886 -0.060657702 0.02407676
0.025393071 -0.06287808 0.022650093
0.025632063 -0.060584877 0.021696508
0.027780049 -0.062807068 0.020520836
0.028764619 -0.062323339 0.017827421
0.030244479 -0.062908515 0.015818298
0.031310111 -0.062620223 0.011971146
0.032049268 -0.061724517 0.010180533
0.033400837 -0.062030125 0.0086756945
0.034428939 -0.06173465 0.0079222918
0.035837539 -0.0621184 0.0072700679
0.036719941 -0.061594743 0.0062416792
0.038128402 -0.061958652 0.0061823726
0.039702863 -0.062562086 0.0052306652
-0.0083059547 -0.060514811 0.0056210458
-0.0071273576 -0.060582541 0.0069888532
-0.0060463273 -0.061672539 0.0084243715
-0.0046558119 -0.059361603 0.01078698
-0.0034959579 -0.059431285 0.014472246
-0.0023251895 -0.059292331 0.017347783
-0.0011662018 -0.059476294 0.018998802
0 -0.059408087 0.019830734
0.0011495008 -0.058624543 0.020256907
0.0022986145 -0.058614668 0.02041167
0.0034747471 -0.059070699 0.021946251
0.004606565 -0.058733702 0.022532433
0.0058119833 -0.059282232 0.022479653
0.0070103416 -0.059587903 0.023008525
0.0083413618 -0.06077278 0.022670895
0.0092668384 -0.059076093 0.022233069
0.010286435 -0.0582898 0.021849513
0.011694365 -0.059641264 0.021914601
0.012659211 -0.058692701 0.021904856
0.013956008 -0.059313033 0.022178769
0.014975276 -0.058749162 0.022262603
0.016426906 -0.059840873 0.021977603
0.017447913 -0.059322901 0.022308052
0.018430008 -0.058745652 0.023469687
0.019924609 -0.059773829 0.02369225
0.021435212 -0.060733099 0.0243029
0.022448773 -0.06025723 0.025173366
0.022593731 -0.057614014 0.024982274
0.024253419 -0.058901157 0.023426592
0.02522954 -0.058486659 0.022770941
0.02659378 -0.058968816 0.022269934
0.027905136 -0.059298415 0.018697441
0.029107526 -0.05937935 0.016523957
0.030879041 -0.060570426 0.012311041
0.031961251 -0.060371254 0.010566652
0.033391308 -0.060819879 0.0089533627
0.034452558 -0.060588978 0.0078945458
0.035794511 -0.060850669 0.0068159103
0.036993846 -0.060860842 0.006193161
0.038994379 -0.062147293 0.0055938363
0.03929875 -0.060734436 0.0051348209
-0.0084123034 -0.060087882 0.0050863326
-0.0071793878 -0.059828233 0.0073651075
-0.0060848189 -0.060848188 0.0089999437
-0.0046870816 -0.05858852 0.010614634
-0.0035501325 -0.059168875 0.01492995
-0.0023320471 -0.058301173 0.016779542
-0.0011592073 -0.057960365 0.018945962
0 -0.057454612 0.020282209
0.0011598779 -0.057993893 0.020779371
0.0023196121 -0.057990301 0.021392405
0.0034837525 -0.058062542 0.021729141
0.0046963464 -0.058704328 0.02206856
0.0057450123 -0.057450123 0.022484004
0.0068853665 -0.057378054 0.022752374
0.0081870425 -0.058478873 0.022980899
0.0092172287 -0.057607677 0.022215158
0.010536664 -0.058537021 0.022147834
0.011338647 -0.056693234 0.022318333
0.012574916 -0.057158709 0.022361517
0.014065864 -0.058607765 0.022601545
0.0149422 -0.057470001 0.022861987
0.016357193 -0.058418546 0.022620589
0.017169461 -0.057231538 0.023134768
0.018333761 -0.057293002 0.02401498
0.019609103 -0.057673834 0.024052292
0.021127511 -0.05868753 0.024579674
0.022124004 -0.058221065 0.025433272
0.022983629 -0.057459075 0.025160134
0.024586091 -0.05853831 0.023833781
0.02543338 -0.057803139 0.023045152
0.027646685 -0.06010149 0.022692323
0.028083662 -0.058507629 0.019164592
0.029152013 -0.058304027 0.017489016
0.030299053 -0.058267411 0.012021422
0.03194692 -0.059160963 0.010388851
0.033648882 -0.060087286 0.008862406
0.034706932 -0.059839536 0.0081698298
0.036081325 -0.06013554 0.0070481896
0.037561458 -0.060582995 0.0058018863
-0.0072204089 -0.058966674 0.00610587
-0.0060303197 -0.059097134 0.0098806322
-0.0046817521 -0.057351463 0.011555016
-0.0035380905 -0.057788812 0.015068769
-0.0023429142 -0.057401396 0.01641044
-0.0011568987 -0.056688037 0.018414587
0 -0.057378221 0.019483954
0.001145865 -0.056147382 0.020531952
0.0023210908 -0.056866724 0.020944178
0.0034649402 -0.056594025 0.021327764
0.004674925 -0.05726783 0.022305608
0.0058572069 -0.057400625 0.02259028
0.0070825326 -0.057840683 0.022904634
0.0080770245 -0.05653917 0.022743851
0.0092855496 -0.056873988 0.022379667
0.010333795 -0.05626177 0.022108972
0.011590397 -0.056792948 0.022402465
0.012878641 -0.057368491 0.022619396
0.013870738 -0.056638848 0.022803217
0.01523615 -0.057428565 0.022989929
0.015958996 -0.055856485 0.023051322
0.017125703 -0.055943966 0.023739785
0.018519044 -0.056714572 0.024654329
0.019648576 -0.056634132 0.024821937
0.020571908 -0.056001302 0.02477181
0.022144983 -0.057110745 0.025990456
0.022952111 -0.056232672 0.026030272
0.023679879 -0.055253051 0.02453059
0.025926337 -0.057745025 0.023731977
0.026535502 -0.056532156 0.023534954
0.027251422 -0.055638321 0.020357549
0.028875386 -0.056595758 0.017622799
0.030587116 -0.057644948 0.012150079
0.032502223 -0.058985516 0.010573775
0.033344377 -0.058352664 0.0090917945
0.034797139 -0.058795165 0.0082076192
0.035904732 -0.058644392 0.0069540739
-0.007171052 -0.057368416 0.0059861243
-0.0060193627 -0.05778588 0.010377467
-0.0047512511 -0.057015013 0.011621326
-0.0034812179 -0.055699486 0.015403241
-0.0023746172 -0.056990813 0.016876638
-0.0011677506 -0.056052029 0.018806845
0 -0.05503387 0.019961268
0.0011661656 -0.055975944 0.020696968
0.0023487692 -0.056370459 0.021331847
0.0035322432 -0.056515891 0.021762609
0.0046207961 -0.055449549 0.021955907
0.0056786039 -0.054514598 0.02197665
0.006998789 -0.055990312 0.022483081
0.0081768688 -0.056069959 0.021987259
0.0093713738 -0.056228247 0.02163887
0.010513164 -0.056070209 0.021613806
0.011552008 -0.055449639 0.021869332
0.013004008 -0.056744758 0.022351533
0.013932898 -0.055731591 0.022696048
0.015227453 -0.056224439 0.023109674
0.016027227 -0.054950494 0.023328662
0.017172303 -0.054951366 0.024005443
0.018028811 -0.054086432 0.025180191
0.019961284 -0.056361273 0.02528891
0.020811975 -0.055498604 0.026165247
0.021683354 -0.054779001 0.026717097
0.022852253 -0.054845408 0.026652068
0.024064673 -0.055004969 0.02529645
0.024872441 -0.054267146 0.024581701
0.026510308 -0.055325862 0.023758888
0.02756395 -0.0551279 0.020778775
0.028581817 -0.054877091 0.019513786
0.03055552 -0.056410193 0.012904704
0.03224282 -0.057320569 0.010643363
0.033948932 -0.058198169 0.008731693
0.035327971 -0.058473885 0.0070360303
-0.0072639245 -0.05690074 0.0057449937
-0.0061098672 -0.057432752 0.0089119971
-0.0046695392 -0.054867085 0.011733919
-0.0035261903 -0.055243645 0.014229596
-0.0023454651 -0.055118434 0.016720444
-0.0011495155 -0.05402723 0.017951578
0 -0.055233736 0.019698501
0.0011454307 -0.053835247 0.020264119
0.0023713144 -0.055725891 0.020953447
0.003449192 -0.054037344 0.021453112
0.0045802891 -0.053818397 0.021863401
0.0057800659 -0.054332618 0.022435933
0.0069435216 -0.054390918 0.022790968
0.0080202268 -0.053850096 0.022103339
0.0092269862 -0.054208543 0.021911353
0.010412722 -0.054377545 0.021891534
0.011732953 -0.05514488 0.022217005
0.012905402 -0.055141263 0.022684902
0.014067371 -0.055097204 0.022417217
0.015187766 -0.054909617 0.023220032
0.016467275 -0.055282995 0.02379927
0.017174935 -0.053814799 0.024198562
0.018108601 -0.053194012 0.025187969
0.019458968 -0.053798325 0.025616527
0.020240689 -0.05285069 0.02572912
0.021735279 -0.053766217 0.026759714
0.023183348 -0.054480866 0.026462525
0.023854841 -0.053389408 0.025786787
0.025144128 -0.053717002 0.024837017
0.026958117 -0.055088326 0.023992866
0.027308179 -0.053478517 0.02128765
0.02886305 -0.054262534 0.020388395
0.030259568 -0.054699987 0.013378382
0.032561298 -0.056680776 0.0099508762
0.033986278 -0.057048395 0.0080062747
0.035130356 -0.056935407 0.0052792728
-0.0072305682 -0.055434354 0.0054875612
-0.0060403123 -0.055570871 0.0075030327
-0.004752886 -0.054658189 0.012172967
-0.0035395024 -0.054272369 0.014546424
-0.0023260505 -0.053499162 0.016613275
-0.0011637679 -0.053533319 0.018216103
0 -0.054164518 0.01945585
0.0011583416 -0.053283717 0.020410329
0.0023147105 -0.053238343 0.021427184
0.0035215779 -0.053997528 0.021900475
0.0046399776 -0.053359743 0.021900475
0.0057906643 -0.053274114 0.021762609
0.006946364 -0.053255457 0.022010982
0.0082172686 -0.053999193 0.021382034
0.0093565891 -0.053800385 0.020667613
0.01058101 -0.054080717 0.020738214
0.011905307 -0.054764412 0.022205442
0.012560668 -0.052526429 0.022490621
0.014154236 -0.054257903 0.022835463
0.015276315 -0.054054651 0.024087995
0.016219709 -0.053293329 0.024388045
0.016833836 -0.051623765 0.025222987
0.018513843 -0.053227302 0.026163995
0.01922055 -0.052008543 0.026117712
0.020513399 -0.052423127 0.026885092
0.022078663 -0.053453606 0.027696639
0.022443831 -0.051620811 0.027589023
0.024202302 -0.053014565 0.026459187
0.02536479 -0.053035468 0.025870949
0.025912033 -0.051824067 0.025506616
0.027528377 -0.052762721 0.023905277
0.028427619 -0.05230682 0.022107661
0.03000295 -0.053082142 0.0191091
0.032475565 -0.055328738 0.010953248
0.033730503 -0.055414397 0.0071808696
-0.0071894834 -0.053921126 0.0056613088
-0.0061374558 -0.0552371 0.0070030987
-0.0046774494 -0.052621305 0.011938572
-0.0035544394 -0.053316589 0.014390767
-0.0023021083 -0.051797438 0.016274512
-0.0011731363 -0.052791134 0.017823368
0 -0.052184947 0.018881828
0.0011817332 -0.053177994 0.019888163
0.0023429585 -0.052716564 0.020738214
0.0035537076 -0.053305615 0.021285474
0.0046752547 -0.052596614 0.021448582
0.0057125222 -0.051412698 0.020884514
0.0069572106 -0.05217908 0.021193445
0.0081339115 -0.05228943 0.021135509
0.0092652282 -0.052116912 0.020576298
0.01045739 -0.052286949 0.020932734
0.011543052 -0.051943738 0.021117657
0.012675743 -0.051855311 0.022754014
0.014304642 -0.053642407 0.023173064
0.015407552 -0.053333834 0.024201989
0.016037708 -0.051549777 0.024644256
0.017168909 -0.051506724 0.025334805
0.018432602 -0.051841691 0.026231557
0.019276094 -0.051024955 0.026872873
0.020338682 -0.050846707 0.02774471
0.021890806 -0.051846642 0.028427899
0.023041369 -0.051843081 0.028325021
0.023820823 -0.051044621 0.027147532
0.024369195 -0.049846079 0.026819617
0.026290925 -0.051438767 0.026080549
0.027727973 -0.051989947 0.02417475
0.028985389 -0.0521737 0.022335202
0.030310865 -0.052461114 0.019352913
0.032317355 -0.053862259 0.010407239
0.033982001 -0.054613929 0.0071739852
-0.0061601861 -0.054209638 0.006983012
-0.0047229421 -0.051952366 0.01224497
-0.0035439304 -0.051977646 0.014788419
-0.0023154649 -0.050940227 0.01589939
-0.0011585969 -0.050978262 0.017727882
0 -0.051590104 0.018877536
0.0011661574 -0.051310927 0.019602627
0.0023414388 -0.051511656 0.020343155
0.003463632 -0.050799932 0.021110058
0.0046941647 -0.051635813 0.021548867
0.005825473 -0.051264163 0.02122131
0.0069241184 -0.050776869 0.021046847
0.0081755342 -0.051389072 0.020963281
0.0092898719 -0.051094297 0.020846367
0.010712242 -0.052370958 0.021215796
0.011793286 -0.051890459 0.021277487
0.012926174 -0.051704697 0.021749407
0.014101 -0.051703665 0.022750825
0.015076835 -0.051029287 0.023377091
0.016068017 -0.050499484 0.024321645
0.016944561 -0.049704045 0.025421023
0.017983744 -0.049455296 0.025933087
0.019086085 -0.049399279 0.02711302
0.019912757 -0.048675627 0.027449936
0.021922665 -0.050768275 0.028768897
0.023139451 -0.050906792 0.028476506
0.024615541 -0.051575422 0.027908355
0.024892235 -0.04978447 0.027601659
0.026108254 -0.049946226 0.026704609
0.027614813 -0.050627157 0.024666846
0.028446123 -0.050065175 0.023150265
0.029490685 -0.049907312 0.019292265
0.033047538 -0.053855252 0.0088127553
0.034238413 -0.05380322 0.0057476461
-0.0060777077 -0.052268285 0.0068700016
-0.0047049983 -0.050578732 0.011217743
-0.0035575435 -0.050991457 0.013665706
-0.0023335638 -0.050171621 0.015656799
-0.0011855727 -0.050979625 0.017327875
0 -0.04991268 0.018411249
0.0011590491 -0.049839113 0.019623786
0.002321491 -0.049912058 0.020714641
0.0034942545 -0.050084315 0.021161586
0.0046723178 -0.050227415 0.021398187
0.0058505978 -0.050315142 0.021233946
0.0070157209 -0.050279334 0.021007299
0.0081932098 -0.050329719 0.021076709
0.009305682 -0.050018042 0.020992786
0.010522102 -0.050272267 0.02131477
0.011820365 -0.05082757 0.021510452
0.012966684 -0.050687946 0.021801353
0.014084486 -0.05046941 0.021744758
0.015116777 -0.050001647 0.021851212
0.016057277 -0.049318783 0.023347288
0.017288581 -0.049560599 0.02478075
0.018383807 -0.04940648 0.025453985
0.019542174 -0.049430206 0.026385874
0.020669721 -0.049377665 0.027825385
0.02200646 -0.049804091 0.02817595
0.022675915 -0.048753217 0.028241217
0.024001028 -0.049144961 0.028140754
0.024811074 -0.048494373 0.027939886
0.026110223 -0.048814766 0.026595861
0.027926555 -0.050035078 0.025026083
0.027967509 -0.048104115 0.021414489
0.029480252 -0.048755802 0.012932867
0.032913569 -0.052417908 0.007606864
0.034203392 -0.052526638 0.0053575337
-0.0060967035 -0.051212311 0.0068359375
-0.004721412 -0.049574826 0.010993153
-0.0035305272 -0.049427383 0.014836043
-0.0023834768 -0.050053012 0.015835673
-0.0011624817 -0.048824236 0.017726183
0 -0.049728401 0.018350869
0.0011940667 -0.0501508 0.01996848
0.0022979912 -0.048257813 0.020653069
0.0035162596 -0.049227636 0.021111071
0.0046475143 -0.048798896 0.021484971
0.0058226432 -0.048910204 0.021343023
0.0070293648 -0.049205553 0.020892411
0.0081929108 -0.049157467 0.020999134
0.0095374854 -0.050071798 0.020546436
0.010483862 -0.048924688 0.020745635
0.011793728 -0.049533658 0.020879656
0.012796588 -0.048859701 0.021195203
0.014232444 -0.049813554 0.021238565
0.014997381 -0.048453078 0.02187404
0.016314318 -0.048942957 0.022292167
0.017287938 -0.048406225 0.023893923
0.018395791 -0.048288953 0.025203377
0.019107511 -0.047206793 0.026374102
0.02011415 -0.046933014 0.027398437
0.021579789 -0.047702692 0.02871573
0.023302307 -0.048934843 0.029109329
0.024387574 -0.048775148 0.028506249
0.024783332 -0.047313634 0.027148843
0.026791083 -0.048922848 0.025659204
0.027366051 -0.047890592 0.02422142
0.02880015 -0.048384253 0.017684072
0.030222675 -0.048821244 0.0090433359
0.032748181 -0.050941613 0.0056896806
0.034239691 -0.051359538 0.0052024722
-0.0062208353 -0.051010851 0.0075524747
-0.0047514546 -0.048702411 0.011431009
-0.0036061066 -0.04928346 0.014761448
-0.0023519145 -0.048214246 0.016212285
-0.0011484073 -0.047084704 0.017742097
0 -0.04761735 0.018598527
0.0011754804 -0.048194695 0.02018258
0.0023283781 -0.04773175 0.020490468
0.0034906836 -0.047706008 0.021072298
0.0046814582 -0.04798495 0.021311074
0.0058510485 -0.047978599 0.021032035
0.0070704017 -0.048314411 0.020635635
0.008146897 -0.047717541 0.020845354
0.0096097551 -0.049249995 0.02047953
0.010526205 -0.047952715 0.021107346
0.011835289 -0.048524685 0.021027237
0.013023329 -0.048541497 0.021279216
0.014094346 -0.048155684 0.021279216
0.015272438 -0.048166919 0.021240115
0.016083272 -0.04710101 0.021721959
0.017365787 -0.047466487 0.022089422
0.018491497 -0.04738446 0.02370584
0.019391458 -0.046767633 0.025830775
0.020584714 -0.046887401 0.026716292
0.022059083 -0.047601178 0.028147489
0.02247064 -0.046064813 0.028319746
0.024250977 -0.047347147 0.027809501
0.0254573 -0.047443148 0.026338965
0.026498707 -0.047236826 0.023467302
0.02774027 -0.04738963 0.018673748
0.029305531 -0.048061073 0.010484099
0.030166002 -0.047569465 0.0062794089
-0.0061135464 -0.048908371 0.0071389675
-0.0047648838 -0.047648836 0.011842728
-0.0035067915 -0.046757217 0.014259756
-0.0024015554 -0.048031107 0.015901536
-0.00118335 -0.047333997 0.017547399
0 -0.047156096 0.018106312
0.0011770085 -0.047080342 0.019437283
0.0023604583 -0.047209166 0.020203829
0.0034947188 -0.046596251 0.020911634
0.0046819611 -0.046819609 0.021033973
0.0059336829 -0.047469463 0.020929664
0.0070576207 -0.047050804 0.020222127
0.0082160588 -0.046948906 0.020831913
0.0094634732 -0.047317367 0.020727158
0.010643099 -0.04730266 0.021117449
0.01181643 -0.04726572 0.020791411
0.01295431 -0.047106579 0.021824569
0.014032223 -0.046774078 0.021655202
0.015311305 -0.047111709 0.021090358
0.016360592 -0.046744548 0.022009104
0.01737681 -0.04633816 0.02171725
0.018148415 -0.045371037 0.022666901
0.019774709 -0.046528727 0.022978872
0.021107785 -0.046906188 0.025785148
0.022167932 -0.04666933 0.026250005
0.023027331 -0.046054661 0.026524782
0.02463467 -0.046923183 0.0259628
0.025206903 -0.045830734 0.023280501
0.026752213 -0.046525586 0.019251704
0.027965317 -0.046608862 0.01034078
0.028821809 -0.046114895 0.0065783858
0.030556859 -0.047010552 0.0051366687
-0.0061427932 -0.047913786 0.0068519711
-0.0046443869 -0.045282774 0.010314703
-0.0035435476 -0.04606612 0.014094979
-0.0023482558 -0.045790989 0.015531242
-0.0011738341 -0.04577953 0.017255813
0 -0.04549193 0.018056124
0.0011972486 -0.046692692 0.019127429
