ply
format ascii 1.0
comment PCL generated
element vertex 1260
property float x
property float y
property float z
element camera 0
property float view_px
property float view_py
property float view_pz
property float x_axisx
property float x_axisy
property float x_axisz
property float y_axisx
property float y_axisy
property float y_axisz
property float z_axisx
property float z_axisy
property float z_axisz
property float focal
property float scalex
property float scaley
property float centerx
property float centery
property int viewportx
property int viewporty
property float k1
property float k2
end_header
0.011618495 -0.08481501 0.0093404651
0.012796218 -0.084920347 0.0091082454
0.01395487 -0.084892131 0.0083320737
0.015134764 -0.084987521 0.007822901
0.016147967 -0.084200121 0.0072456896
0.017229699 -0.083851203 0.007145226
0.018693302 -0.085288189 0.0067621469
0.019453965 -0.083537616 0.006287992
0.020921724 -0.084849209 0.0056470037
0.02216801 -0.085171826 0.0051315427
-0.030247053 -0.083761074 0.0052020252
-0.029273318 -0.084307157 0.0055724084
-0.027761538 -0.083284609 0.0058074594
-0.026950618 -0.084367156 0.0064675212
-0.025726367 -0.084195383 0.0064980686
-0.024527114 -0.08409296 0.0070659518
-0.023042807 -0.082954109 0.0073648691
-0.021885239 -0.082933538 0.0077420771
-0.021080045 -0.08432018 0.0082775056
-0.019750042 -0.083647236 0.0088304877
-0.018687351 -0.084093079 0.0095870495
-0.017409012 -0.083563253 0.01023823
-0.01596668 -0.082114354 0.010165244
-0.014787958 -0.081902534 0.010445535
-0.013993407 -0.083960444 0.011145353
-0.012755355 -0.083489597 0.011809379
-0.011409992 -0.082151942 0.011840165
-0.010369133 -0.082953066 0.011922061
-0.009249093 -0.083241843 0.012139559
-0.0080380319 -0.082676902 0.012250245
-0.0068907486 -0.08268898 0.012126356
-0.0057883728 -0.083352566 0.012465924
-0.0046055438 -0.082899787 0.012158036
-0.003466632 -0.083199166 0.012325823
-0.0022979954 -0.082727835 0.012456268
-0.0011471242 -0.082592942 0.012649238
0 -0.082536303 0.01260978
0.0011480359 -0.082658581 0.012615174
0.0022767221 -0.081961989 0.012784749
0.0034668145 -0.083203547 0.012785614
0.0045722374 -0.082300276 0.012697607
0.0057373205 -0.08261741 0.01257661
0.0068892897 -0.082671478 0.01234141
0.0079920879 -0.082204334 0.012188643
0.0092048533 -0.082843676 0.011633873
0.010361477 -0.082891814 0.011203915
0.01153577 -0.083057545 0.010303915
0.012828873 -0.083970807 0.0098266006
0.013880404 -0.083282426 0.0091426969
0.014949066 -0.082794823 0.0083967149
0.016261777 -0.083632 0.0077557862
0.017453654 -0.083777539 0.0074246228
0.018524101 -0.083358452 0.0069193244
0.019733524 -0.083577283 0.0068881214
0.020663625 -0.082654499 0.0059627295
0.022045583 -0.083541155 0.0058197975
0.023437398 -0.084374629 0.0056997836
0.024769301 -0.084923312 0.0050393641
-0.032772988 -0.083102934 0.0050320625
-0.031442489 -0.082682103 0.0053504109
-0.030603111 -0.083570033 0.0055713654
-0.029033286 -0.082454532 0.005985558
-0.028029108 -0.082919449 0.0063830912
-0.027010314 -0.083379671 0.0065087974
-0.025564453 -0.08250346 0.0066972971
-0.024247596 -0.081979968 0.007137388
-0.023222174 -0.082438722 0.0075286329
-0.021944892 -0.082004599 0.007953912
-0.020775884 -0.081949323 0.0085506141
-0.019804496 -0.082712896 0.0088366568
-0.018414004 -0.081712142 0.0095350146
-0.017351359 -0.082129769 0.010415584
-0.016270909 -0.08251676 0.010595173
-0.014893536 -0.081341624 0.010934263
-0.014038435 -0.083060741 0.011556566
-0.012693007 -0.081927598 0.012225181
-0.011330178 -0.080444261 0.012775153
-0.0103914 -0.0819766 0.012732476
-0.0093048774 -0.082580782 0.012891471
-0.0080876835 -0.082032226 0.013140887
-0.0068997564 -0.081647113 0.013247222
-0.005735707 -0.081447043 0.013342947
-0.004626384 -0.082118317 0.012963682
-0.0034565502 -0.081805021 0.01307565
-0.0022954054 -0.081486888 0.013103247
-0.0011376217 -0.080771141 0.013110608
0 -0.082204416 0.013119102
0.0011328799 -0.080434471 0.013084173
0.0022778972 -0.080865353 0.013255447
0.0034355773 -0.081308663 0.013218462
0.0045784814 -0.081268042 0.013172328
0.0056873807 -0.080760807 0.013054401
0.0069143451 -0.08181975 0.01280728
0.0079940762 -0.081082776 0.012526184
0.009150736 -0.081212781 0.012224555
0.010448836 -0.0824297 0.011597931
0.011530126 -0.081863903 0.011063308
0.012568003 -0.081120744 0.010468155
0.01385322 -0.081964888 0.0097705722
0.015115499 -0.082553871 0.0091426075
0.016202863 -0.082171664 0.0084896088
0.017320376 -0.081983112 0.0077697039
0.018599641 -0.082535908 0.0072568953
0.019761128 -0.082531773 0.0068471134
0.021765212 -0.085851669 0.0063796043
0.022021042 -0.082289159 0.0059769154
0.023336323 -0.082843944 0.0053902566
-0.031615503 -0.081966117 0.0059289932
-0.030493723 -0.082098484 0.0064662099
-0.029134352 -0.081576183 0.0065692663
-0.027963025 -0.081558824 0.0066123903
-0.026776666 -0.081494197 0.0068858862
-0.02573224 -0.081875309 0.0072221458
-0.024290431 -0.080968104 0.0070378482
-0.023453692 -0.082087919 0.0076367259
-0.022122143 -0.081502631 0.0081627965
-0.020917581 -0.081346147 0.0087404549
-0.019643001 -0.080882952 0.0091397762
-0.01838541 -0.08043617 0.0096421242
-0.017598908 -0.082128242 0.010763556
-0.016141273 -0.080706365 0.011137903
-0.014849743 -0.079960153 0.011631548
-0.013860949 -0.080855541 0.012228012
-0.012534947 -0.079767846 0.013211519
-0.01146727 -0.080270886 0.013461769
-0.010363278 -0.080603272 0.013629019
-0.0091524692 -0.080084108 0.013985395
-0.0080721937 -0.080721937 0.014316112
-0.0068485332 -0.079899557 0.014584035
-0.0057805707 -0.08092799 0.014876097
-0.0046005081 -0.080508895 0.014505267
-0.0034595765 -0.080723457 0.014488697
-0.0022908545 -0.0801799 0.01456809
-0.0011448907 -0.080142349 0.014614999
0 -0.080900222 0.015131831
0.0011521872 -0.080653109 0.014993221
0.0022880575 -0.080082007 0.015075803
0.0034179871 -0.079753034 0.014648646
0.0045314375 -0.079300158 0.014285654
0.0057948586 -0.081128016 0.01405561
0.0068882951 -0.080363445 0.013971448
0.008015167 -0.08015167 0.013985962
0.0092570325 -0.080999039 0.013645798
0.010334829 -0.080382004 0.01315096
0.011500701 -0.080504909 0.012232363
0.012631226 -0.080380529 0.011025816
0.013945552 -0.081349052 0.010232359
0.015161022 -0.081636272 0.0096862316
0.016332692 -0.08166346 0.0086964369
0.017551513 -0.081907064 0.0083592832
0.018797582 -0.082239419 0.0076113641
0.020015826 -0.082418106 0.0073744953
0.020774348 -0.080789134 0.0061727762
0.022032131 -0.081171006 0.0057694018
-0.031437781 -0.080340996 0.0057740808
-0.030311521 -0.080442116 0.0060198903
-0.029449234 -0.081279889 0.0060290694
-0.028008929 -0.080525666 0.0066450834
-0.026884899 -0.080654696 0.0068265498
-0.025683505 -0.080552816 0.007093519
-0.024546128 -0.080651566 0.0077834427
-0.023234457 -0.080158874 0.0080641508
-0.022204677 -0.080638036 0.0086872578
-0.020861262 -0.079968177 0.0094354749
-0.019749893 -0.080161333 0.0097581148
-0.018310022 -0.078961968 0.010160565
-0.017458098 -0.080307253 0.011745572
-0.016014041 -0.078926347 0.012154639
-0.015073718 -0.080006652 0.012656599
-0.013639542 -0.078427367 0.013133049
-0.012697069 -0.079645254 0.013851434
-0.011514969 -0.07945329 0.013938785
-0.010346573 -0.079323724 0.01440087
-0.0091619305 -0.079021648 0.014794737
-0.0080302581 -0.0791554 0.015028775
-0.0068786126 -0.079104044 0.015420943
-0.0057372381 -0.079173885 0.015674829
-0.0045614582 -0.078685157 0.015582085
-0.0034488998 -0.079324692 0.015561342
-0.0022924908 -0.079090931 0.015669763
-0.0011508781 -0.07941059 0.016020089
0 -0.078974426 0.016370535
0.0011586626 -0.079947717 0.01634118
0.0022488257 -0.077584483 0.016155124
0.0034625828 -0.079639405 0.016073674
0.0045843241 -0.079079591 0.015622228
0.0057034879 -0.078708135 0.015034348
0.0068891938 -0.079225726 0.014887184
0.0080396226 -0.079247706 0.014808923
0.0092232199 -0.079550274 0.014191031
0.010391444 -0.079667732 0.013735175
0.011588533 -0.079960883 0.01276508
0.012676339 -0.079515211 0.012013823
0.013886102 -0.079845086 0.011065513
0.015193827 -0.080644161 0.010516584
0.016324621 -0.080457062 0.0093945563
0.017363291 -0.07987114 0.0089891553
0.018326551 -0.079033248 0.0085996687
0.019732332 -0.080090053 0.0074765384
0.021174029 -0.081167109 0.0062278211
0.022084638 -0.08020211 0.0056816339
-0.031812016 -0.080119155 0.0055502951
-0.030487316 -0.079736054 0.0057856739
-0.029137228 -0.079253264 0.0058588982
-0.027806949 -0.078786358 0.0067031384
-0.027018147 -0.079879738 0.0067471564
-0.025647961 -0.079275511 0.0074192286
-0.024527505 -0.079422392 0.0074021816
-0.023543537 -0.080048025 0.008153379
-0.022191288 -0.079421446 0.0088619292
-0.020878078 -0.07887274 0.0093218088
-0.019853601 -0.079414405 0.0099022686
-0.018463019 -0.078467831 0.010917455
-0.017403746 -0.078896984 0.011664927
-0.016338574 -0.079358794 0.012638241
-0.0148709 -0.077786244 0.013144583
-0.013844785 -0.078453779 0.013476819
-0.012751488 -0.078827381 0.014257401
-0.011355868 -0.077219896 0.014408946
-0.010231283 -0.07730303 0.015197664
-0.009231179 -0.078465022 0.015231103
-0.0080065625 -0.077778041 0.015942723
-0.0069247163 -0.078480117 0.016231805
-0.0057704905 -0.078478672 0.01646927
-0.004576135 -0.077794291 0.016186148
-0.0034398399 -0.077969708 0.016480416
-0.0022751361 -0.077354625 0.016536295
-0.0011414107 -0.077615924 0.016660184
0 -0.078137338 0.017177284
0.001141654 -0.077632472 0.016973734
0.0022946002 -0.078016408 0.016871244
0.0034827217 -0.078941688 0.016997218
0.0045576445 -0.077479951 0.016694754
0.0057452498 -0.078135394 0.016197711
0.0069082957 -0.078294016 0.01563403
0.0079265274 -0.077000551 0.015773624
0.0092919935 -0.078981943 0.014982015
0.010290392 -0.077749625 0.013993651
0.011485389 -0.078100644 0.013195515
0.012769546 -0.078939013 0.012125969
0.013894398 -0.078734919 0.011586756
0.015185452 -0.079431601 0.011085153
0.016257724 -0.078966089 0.01006636
0.017385511 -0.07881432 0.0097687542
0.019042602 -0.080931053 0.0089869797
0.019712063 -0.07884825 0.0076218545
0.020793857 -0.078554571 0.0065400004
0.022184359 -0.079396658 0.005792141
-0.029533835 -0.079150677 0.0051760972
-0.028506909 -0.079581782 0.0062196851
-0.027135907 -0.079048082 0.0068055391
-0.025704455 -0.078281745 0.0074598193
-0.024599308 -0.078483507 0.0078505278
-0.023178125 -0.077646717 0.0080254078
-0.022150043 -0.07810805 0.0088875294
-0.020917743 -0.077860489 0.0096051395
-0.019688563 -0.077596098 0.010341197
-0.018566351 -0.077746592 0.010919809
-0.017448667 -0.077937379 0.011538327
-0.016233265 -0.07768777 0.012908727
-0.015063944 -0.077637255 0.013197124
-0.013877071 -0.077480309 0.013519615
-0.012538264 -0.07636942 0.01462999
-0.011442955 -0.076667801 0.014861882
-0.010459655 -0.077866316 0.015651286
-0.0090945642 -0.076166973 0.015736073
-0.0079759974 -0.076341689 0.016312718
-0.0068919579 -0.076960199 0.016604483
-0.0057048663 -0.076445207 0.016640007
-0.0046129311 -0.077266596 0.016404718
-0.0034628764 -0.077337578 0.016811907
-0.0022717535 -0.076103739 0.016986549
-0.0011436745 -0.076626189 0.017213106
0 -0.077584304 0.017882913
0.001141606 -0.076487601 0.0178608
0.00230351 -0.077167585 0.017717928
0.0034539336 -0.07713785 0.018020242
0.0045963842 -0.076989435 0.017680466
0.0057072993 -0.076477811 0.017201334
0.0068937829 -0.076980576 0.016738653
0.0080236867 -0.076798141 0.016681671
0.0091583077 -0.076700829 0.015726268
0.010314595 -0.076786429 0.014942288
0.011425318 -0.076549627 0.014056683
0.012609842 -0.076805405 0.012867689
0.013942016 -0.077842921 0.012049407
0.015188049 -0.078276865 0.011754572
0.016468197 -0.078812085 0.010819167
0.017318264 -0.077354908 0.010160893
0.018459363 -0.077298582 0.0086635947
0.019983053 -0.078756742 0.0074490309
0.020835698 -0.077555098 0.0055682063
0.02262459 -0.079781443 0.0050012469
-0.029400527 -0.077617392 0.0053231418
-0.028359989 -0.077989973 0.0056136847
-0.027090069 -0.07773672 0.0064987838
-0.025788877 -0.077366635 0.0069630146
-0.024512755 -0.077040084 0.0081633031
-0.023552645 -0.077723727 0.0087332428
-0.022058995 -0.07662598 0.0091227889
-0.021263655 -0.077966735 0.010314167
-0.019644264 -0.076265961 0.01102832
-0.018502286 -0.07632193 0.011734933
-0.017467046 -0.076855004 0.012462676
-0.016178899 -0.076271951 0.013517469
-0.015025315 -0.076282367 0.014148504
-0.013754554 -0.075650051 0.01434654
-0.012618611 -0.075711668 0.015515596
-0.011562239 -0.076310776 0.015571028
-0.010192014 -0.074741438 0.016103595
-0.009180259 -0.075737134 0.01621449
-0.0080377851 -0.075784832 0.017012209
-0.0068839686 -0.075723656 0.017041475
-0.0057900734 -0.076428972 0.01723507
-0.0045852172 -0.075656086 0.017145932
-0.0034393526 -0.075665757 0.017615914
-0.0022867313 -0.075462133 0.017799854
-0.0011428895 -0.075430706 0.017961711
0 -0.075077541 0.018392563
0.0011486091 -0.075808197 0.018460155
0.0022718846 -0.074972197 0.018392563
0.0034532254 -0.075970963 0.018555105
0.0046219672 -0.076262459 0.018406451
0.0057167583 -0.075461209 0.017973155
0.0069438354 -0.07638219 0.017318547
0.0080216024 -0.075632252 0.017062545
0.009263481 -0.07642372 0.016242802
0.010401702 -0.076279148 0.015344501
0.011503236 -0.075921357 0.014401376
0.012769151 -0.076614901 0.013478428
0.013982263 -0.076902449 0.012642086
0.014984204 -0.076073647 0.012112617
0.016154209 -0.076155558 0.011273265
0.017624835 -0.077549271 0.010632426
0.018438084 -0.076057099 0.0092945397
0.019748645 -0.076671213 0.0076635182
0.021471543 -0.078728989 0.0055972338
0.022112116 -0.076810509 0.0055054128
-0.029661799 -0.077120677 0.0057647526
-0.028151615 -0.076243952 0.0056969821
-0.027051035 -0.076448575 0.0064201057
-0.025575055 -0.075562663 0.0067788661
-0.024630221 -0.076236397 0.0080308914
-0.023519905 -0.076439694 0.0089657903
-0.022381265 -0.076567486 0.009735316
-0.020973744 -0.075738519 0.010391772
-0.020142488 -0.0770154 0.011300147
-0.018391388 -0.074715011 0.01235047
-0.017534582 -0.075983189 0.012925625
-0.016276829 -0.075570993 0.013959885
-0.015003185 -0.075015925 0.014679641
-0.013795424 -0.074725218 0.015218198
-0.012757792 -0.075386956 0.016101599
-0.011397378 -0.074082948 0.016101599
-0.010297123 -0.074368112 0.016330451
-0.0092133544 -0.074858502 0.016507119
-0.0079385405 -0.073715016 0.017212391
-0.0068985694 -0.074734502 0.017294109
-0.0057547856 -0.074812219 0.017498732
-0.0045547877 -0.074015304 0.017487884
-0.0034601635 -0.074970208 0.017885745
-0.002289285 -0.074401766 0.01799804
-0.001140515 -0.074133471 0.018172622
0 -0.074980222 0.018619329
0.0011422798 -0.074248187 0.01866585
0.0022782092 -0.074041799 0.018568993
0.0034546866 -0.074851543 0.018776357
0.004553814 -0.073999479 0.018397063
0.0057137106 -0.074278235 0.018247962
0.0068007228 -0.073674493 0.017824262
0.0080339499 -0.074600957 0.017822027
0.0091252504 -0.074142665 0.017108113
0.01026646 -0.074146651 0.016197145
0.011505669 -0.074786849 0.014665902
0.012686861 -0.074967809 0.014021367
0.013803453 -0.074768707 0.013270855
0.015028488 -0.075142436 0.012891114
0.016608054 -0.077108823 0.011875749
0.017618507 -0.076346859 0.010309726
0.018483816 -0.075090505 0.009151876
0.019902684 -0.076098502 0.0072503686
0.021248419 -0.0767304 0.0060885549
0.022413604 -0.07667812 0.006036222
-0.029400533 -0.075265363 0.0054718256
-0.028482525 -0.075953402 0.0061598718
-0.02723125 -0.07577391 0.0066574514
-0.025601676 -0.074477598 0.0074750781
-0.024690131 -0.075246111 0.0081095695
-0.02373868 -0.07596378 0.0099237263
-0.0221109 -0.07447882 0.010529459
-0.021039324 -0.074806489 0.011113882
-0.019600747 -0.073791049 0.012385279
-0.018571289 -0.074285157 0.0132837
-0.017196948 -0.073373638 0.013871312
-0.016091958 -0.073563233 0.014594793
-0.015121724 -0.074445412 0.015511096
-0.013732551 -0.073240273 0.016016185
-0.012583718 -0.073214352 0.01672405
-0.011416152 -0.073063374 0.016733557
-0.010402201 -0.073971204 0.016893059
-0.009152445 -0.07321956 0.017053157
-0.0081582889 -0.074590065 0.017487139
-0.0068079676 -0.072618321 0.017487139
-0.0057705748 -0.073863357 0.017565429
-0.0045790975 -0.07326556 0.01769042
-0.0034409713 -0.073407389 0.017830193
-0.0023215276 -0.074288882 0.017949075
-0.0011480537 -0.073475435 0.018202454
0 -0.072864085 0.018483996
0.0011360631 -0.07270804 0.018916219
0.0022841564 -0.073093005 0.019050658
0.0033902104 -0.072324492 0.019277573
0.0045876182 -0.073401891 0.019148469
0.0057337536 -0.073392041 0.018648267
0.0068061417 -0.072598845 0.018683583
0.0080488063 -0.073589094 0.018280387
0.0092561403 -0.074049123 0.017464668
0.010441632 -0.074251607 0.016907603
0.01167232 -0.074702844 0.015496939
0.012745682 -0.074156694 0.014674306
0.013878564 -0.074019007 0.014009565
0.015038686 -0.074036606 0.013320357
0.016270794 -0.074380778 0.012288928
0.017488901 -0.074619308 0.010809004
0.018848618 -0.075394474 0.009103328
0.019818878 -0.074612245 0.0072297752
0.021273544 -0.07563927 0.0062118471
-0.029866571 -0.075263761 0.0055156648
-0.028822107 -0.075658031 0.0058141053
-0.027295331 -0.074765474 0.006331563
-0.026081467 -0.074687839 0.0068854988
-0.024848208 -0.074544623 0.007581085
-0.023410184 -0.073742077 0.0088424683
-0.022414515 -0.074321814 0.010565966
-0.021217542 -0.07426139 0.011063486
-0.019854859 -0.073579773 0.01262188
-0.018698575 -0.073625639 0.013588905
-0.017419368 -0.073161349 0.014300197
-0.016276579 -0.073244609 0.014746368
-0.014873202 -0.072077826 0.015512079
-0.013751353 -0.072194599 0.01635927
-0.012685295 -0.072652146 0.017176628
-0.011471985 -0.0722735 0.017101675
-0.010365382 -0.072557673 0.017138481
-0.0092623634 -0.072941117 0.017274171
-0.0080222907 -0.072200611 0.017516136
-0.0070397761 -0.07391765 0.01754576
-0.005731245 -0.072213687 0.017523944
-0.0045834198 -0.072188862 0.017404139
-0.0034759899 -0.072995789 0.017815828
-0.0022871692 -0.072045833 0.017991364
-0.0011539441 -0.072698474 0.018139958
0 -0.071697727 0.018494368
0.0011504133 -0.072476037 0.018588305
0.0022809601 -0.07185024 0.01903221
0.0034823816 -0.073130012 0.019586742
0.0045736805 -0.072035462 0.019463778
0.005717549 -0.072041117 0.019095868
0.0069433609 -0.072905287 0.019377947
0.0080227163 -0.072204448 0.018567801
0.009327122 -0.073451087 0.018048584
0.010430015 -0.073010102 0.017510444
0.011551098 -0.072771914 0.016193122
0.012718764 -0.072843835 0.015482813
0.014082852 -0.073934972 0.014595777
0.015536817 -0.075293809 0.013751239
0.016223771 -0.073006973 0.01252082
0.01765479 -0.074150115 0.010930985
0.0187268 -0.073736772 0.0084281862
0.02032944 -0.075338513 0.0072518289
0.021168282 -0.074088983 0.0054914951
-0.029480327 -0.073111206 0.005248934
-0.028305417 -0.07312233 0.005708158
-0.026855972 -0.072394356 0.0064623952
-0.026053015 -0.073422134 0.0070649385
-0.02481593 -0.073266082 0.007381469
-0.023570342 -0.07306806 0.0085841417
-0.022224681 -0.072522648 0.010489881
-0.02091725 -0.072048306 0.011217952
-0.019735614 -0.071976945 0.01280719
-0.018554216 -0.071897589 0.013671517
-0.017310468 -0.071549937 0.014507681
-0.016335081 -0.07234107 0.015326709
-0.01507859 -0.07191328 0.015790701
-0.013770076 -0.071145386 0.016855538
-0.012548493 -0.07072787 0.017640471
-0.011437073 -0.07090985 0.017683268
-0.010400251 -0.071646169 0.01753056
-0.0091993809 -0.071295202 0.018056065
-0.0081282407 -0.071992986 0.017847151
-0.0068837008 -0.071131572 0.017737627
-0.0056589935 -0.07017152 0.017644554
-0.0046257051 -0.071698427 0.017602146
-0.0034660669 -0.07163205 0.017855823
-0.0022879769 -0.070927285 0.018081844
-0.0011407724 -0.070727885 0.0181624
0 -0.071411341 0.018683583
0.0011407115 -0.070724115 0.018866658
0.0022900468 -0.070991457 0.018951565
0.003396844 -0.070201442 0.019267529
0.0045373063 -0.070328251 0.019155473
0.0057006953 -0.07068862 0.01919955
0.0068826047 -0.071120247 0.019283056
0.0079850638 -0.070724852 0.018872023
0.0091214655 -0.070691362 0.018572211
0.010433667 -0.071876377 0.017939568
0.011552107 -0.071623065 0.016796112
0.012796865 -0.072127789 0.015966654
0.013962868 -0.072141483 0.015154451
0.014924332 -0.071177579 0.014198154
0.01632997 -0.072318435 0.012930155
0.017635358 -0.072892815 0.010161608
0.018865691 -0.07310456 0.0083359778
0.019960012 -0.072795339 0.0068991184
0.021177812 -0.072945796 0.0055889487
0.022834782 -0.074513495 0.005261898
-0.028488627 -0.072408594 0.0052787662
-0.027116828 -0.071918547 0.0062688291
-0.02591471 -0.071854427 0.0070598722
-0.02473752 -0.071856603 0.007740736
-0.023460375 -0.071554147 0.0085447729
-0.022417178 -0.07197094 0.0098106861
-0.021086479 -0.071459733 0.011399537
-0.019967854 -0.071649358 0.013132483
-0.018394124 -0.070127599 0.013990253
-0.017367549 -0.070628032 0.015086144
-0.016058674 -0.069969937 0.015804052
-0.014954021 -0.070168868 0.016637444
-0.013801864 -0.07015948 0.017589748
-0.012737649 -0.070636056 0.018104613
-0.011343034 -0.069192506 0.018346667
-0.010346306 -0.070124969 0.018329412
-0.0091903852 -0.070076689 0.018720448
-0.0080594365 -0.070232227 0.018538743
-0.0069025233 -0.070175655 0.018297493
-0.0058542853 -0.071422279 0.018140197
-0.0045739603 -0.069752894 0.018297493
-0.0034449759 -0.070047848 0.018252283
-0.0022767142 -0.069439784 0.018544197
-0.0011655863 -0.071100764 0.01847446
0 -0.069128633 0.018890053
0.0011444569 -0.069811873 0.018934131
0.0022792716 -0.069517784 0.019160658
0.003417393 -0.069486991 0.019360423
0.004602456 -0.070187457 0.01919505
0.0056971968 -0.069505803 0.019157946
0.0068166754 -0.069302864 0.019374728
0.008135722 -0.070897005 0.018765837
0.0091460655 -0.069738746 0.01839447
0.010372058 -0.070299506 0.017405152
0.011452605 -0.069860891 0.016247392
0.012795901 -0.070959084 0.015839905
0.013809899 -0.070200317 0.014928371
0.015224603 -0.071438521 0.013728529
0.016282741 -0.070946224 0.012267828
0.017501721 -0.071173668 0.009498179
0.018802991 -0.071686402 0.0079763234
0.020084722 -0.072068706 0.0062704682
0.021596724 -0.073188901 0.0052706897
-0.027577555 -0.071941443 0.0058062971
-0.025836408 -0.070462927 0.0068418682
-0.024506956 -0.070019878 0.0077032447
-0.023540003 -0.070620008 0.0085245073
-0.022312548 -0.070460677 0.009393245
-0.021192105 -0.070640355 0.011339754
-0.019764561 -0.069757275 0.012518853
-0.018440286 -0.069151074 0.014462978
-0.017355161 -0.069420643 0.015033156
-0.015980629 -0.068488412 0.016093433
-0.014932191 -0.068917803 0.017353326
-0.013818236 -0.069091178 0.018321186
-0.012699097 -0.069267802 0.018916607
-0.011600791 -0.069604747 0.01908958
-0.010344888 -0.068965919 0.019141406
-0.0092490371 -0.069367781 0.019183606
-0.0080583347 -0.069071442 0.019084245
-0.0068964642 -0.068964638 0.018936574
-0.0057917032 -0.069500439 0.018669784
-0.004631544 -0.069473155 0.018927991
-0.0034024832 -0.068049662 0.018691361
-0.0022766397 -0.068299189 0.018711269
-0.001146491 -0.06878946 0.018723011
0 -0.06745597 0.019225121
0.0011328495 -0.067970969 0.019484848
0.0022609278 -0.067827836 0.01940617
0.0034501662 -0.069003321 0.019558161
0.0045523783 -0.068285674 0.01984489
0.0057046236 -0.06845548 0.019993871
0.0068990211 -0.068990216 0.019973338
0.0080114501 -0.068669565 0.019124508
0.0092095826 -0.069071867 0.018788338
0.010212283 -0.068081886 0.017699599
0.0115807 -0.069484204 0.016467363
0.012522981 -0.068307169 0.015581965
0.013870829 -0.069354147 0.014238477
0.015053257 -0.069476567 0.012791783
0.016237102 -0.069587581 0.010517925
0.017730344 -0.070921376 0.0086798966
0.019010823 -0.07129059 0.0072208047
0.020036599 -0.070717409 0.0062575042
-0.030015886 -0.07083749 0.0050134659
-0.027351536 -0.070162632 0.005302906
-0.026132548 -0.070082746 0.0063503981
-0.025060439 -0.070407905 0.0073176324
-0.023524607 -0.069397591 0.0081424415
-0.022125684 -0.068706073 0.0092995763
-0.020822302 -0.06825088 0.010982633
-0.019822825 -0.068796858 0.012532264
-0.018507764 -0.068247378 0.014442772
-0.017215757 -0.06771531 0.015334636
-0.016167494 -0.068134435 0.016410142
-0.014964078 -0.06791389 0.017296821
-0.013742475 -0.06756717 0.018253863
-0.012731447 -0.068286851 0.019325286
-0.011284973 -0.066581346 0.019537002
-0.010490824 -0.06877318 0.019579798
-0.0092014456 -0.067860663 0.019676566
-0.0080337375 -0.067712925 0.01966697
-0.0068998598 -0.067848623 0.01940465
-0.0057378998 -0.067707218 0.019242465
-0.0045889872 -0.067687564 0.019299001
-0.0034913314 -0.068662852 0.0190804
-0.0023686411 -0.069874913 0.019224048
-0.0011740384 -0.069268264 0.019471347
0 -0.068567753 0.019367218
0.0011717848 -0.069135308 0.019158065
0.0023107803 -0.068168022 0.019199967
0.0035132573 -0.069094062 0.019214362
0.0044976315 -0.066340059 0.019465983
0.0056553772 -0.06673345 0.019798189
0.0068340879 -0.06720186 0.019761652
0.0078866696 -0.066473357 0.019457549
0.0090976804 -0.067095391 0.018281549
0.010299564 -0.067519367 0.017163306
0.011451807 -0.067565665 0.016499847
0.012649071 -0.067845017 0.015718371
0.013876898 -0.068228081 0.014477283
0.015082784 -0.068452634 0.013073117
0.016258676 -0.068518706 0.010143578
0.017797315 -0.070002772 0.0086984634
0.018663561 -0.068821877 0.0071461797
0.020186964 -0.070060641 0.0064755082
-0.027177041 -0.068533406 0.0052003264
-0.026154287 -0.06895221 0.0064601004
-0.024520414 -0.067723051 0.0075972676
-0.023808388 -0.069044322 0.008664012
-0.022414934 -0.068424538 0.0093343556
-0.021025149 -0.067747705 0.010575593
-0.019748546 -0.067377396 0.012855768
-0.018394981 -0.066681802 0.014421105
-0.017541882 -0.067828611 0.015772402
-0.015929013 -0.065991633 0.017079681
-0.014831253 -0.066170208 0.017749757
-0.013961791 -0.067481987 0.018740416
-0.01254939 -0.066169508 0.019468814
-0.011429986 -0.066293918 0.019839823
-0.010455312 -0.067378677 0.019884288
-0.0092005581 -0.06670405 0.020056784
-0.0080061005 -0.066336259 0.01991123
-0.00690029 -0.066702805 0.018789917
-0.0057537886 -0.066743948 0.018915504
-0.0045459042 -0.065915614 0.018827587
-0.0035346772 -0.068337098 0.018832505
-0.0023461329 -0.068037853 0.01887244
-0.0011498084 -0.066688888 0.018697619
0 -0.066692628 0.018644065
0.0011513921 -0.066780746 0.018467039
0.002315311 -0.067144014 0.018304318
0.0034476947 -0.066655427 0.018462598
0.0046643149 -0.067632563 0.018972725
0.0059151985 -0.068616301 0.019474715
0.0070727789 -0.068370193 0.019171
0.0079417238 -0.065802857 0.018881977
0.009051471 -0.065623164 0.018510103
0.010281021 -0.066255465 0.017505169
0.0112948 -0.065509841 0.016449481
0.012521259 -0.066021182 0.015107304
0.013810548 -0.066750981 0.013649613
0.01487795 -0.066378549 0.011533022
0.016572481 -0.068657421 0.0098377168
0.01758023 -0.067976892 0.0085164309
0.018959813 -0.068729319 0.0066424012
0.020186184 -0.068870515 0.005681932
-0.02605409 -0.06750378 0.0054791272
-0.024791375 -0.067290872 0.0069624782
-0.023765955 -0.067732975 0.0086942911
-0.022321412 -0.066964239 0.0093882084
-0.020900367 -0.066184491 0.010926902
-0.019859342 -0.06658721 0.012999445
-0.018582037 -0.066198505 0.015120864
-0.017157523 -0.065198585 0.016587108
-0.016173676 -0.065849967 0.017252654
-0.01512337 -0.06631016 0.017669827
-0.013740445 -0.065267116 0.018395543
-0.012687413 -0.065743864 0.019531727
-0.0114897 -0.065491289 0.019813538
-0.010329831 -0.065422267 0.019660503
-0.0092814742 -0.066130504 0.019781172
-0.0080837216 -0.065824591 0.019220829
-0.0068769213 -0.065330751 0.017802149
-0.0057078167 -0.065069109 0.0171794
-0.0045736912 -0.065175101 0.017260134
-0.0034904701 -0.066318937 0.017112583
-0.0023374946 -0.066618599 0.017448962
-0.0011579754 -0.066004597 0.017971873
0 -0.066268712 0.017558604
0.0011704641 -0.066716455 0.017576396
0.0022914393 -0.065306023 0.01777494
0.0034614122 -0.065766826 0.018197924
0.0046879724 -0.066803612 0.018832505
0.0058722892 -0.0669441 0.019396961
0.0070932871 -0.067386225 0.019173145
0.0081429882 -0.066307195 0.018975556
0.0093716187 -0.066772781 0.018802166
0.01033915 -0.065481283 0.017685652
0.011539639 -0.065775938 0.016055644
0.012419463 -0.064355403 0.015269697
0.013579686 -0.064503513 0.01398614
0.015081418 -0.06612622 0.012127995
0.01609952 -0.065548047 0.0098523498
0.017813178 -0.067690082 0.00827384
0.018919999 -0.067402497 0.0062651634
0.020086979 -0.067350462 0.0058864653
-0.026189262 -0.066663578 0.0056120157
-0.024958743 -0.066556647 0.0063582361
-0.023739191 -0.066469729 0.008674711
-0.022320237 -0.065785959 0.010212272
-0.021030696 -0.065428831 0.011071682
-0.02010043 -0.066213183 0.013599664
-0.018756354 -0.065647237 0.015799731
-0.017453358 -0.065159202 0.017928302
-0.015889766 -0.063559063 0.018131226
-0.014823313 -0.06385427 0.018704504
-0.013787166 -0.064340107 0.019514114
-0.012677999 -0.064542547 0.020277709
-0.011503672 -0.064420566 0.020286143
-0.010410384 -0.064775728 0.020240605
-0.0092492923 -0.064745046 0.019958764
-0.0080299713 -0.06423977 0.019117773
-0.0069770506 -0.06511914 0.017793983
-0.0056989612 -0.063828364 0.017258257
-0.0047194045 -0.066071667 0.017269522
-0.0035317715 -0.065926403 0.017110616
-0.00231105 -0.064709395 0.01752004
-0.0011697316 -0.065504976 0.018014282
0 -0.066204615 0.017959297
0.0011413399 -0.063915029 0.018014282
0.0022775405 -0.063771136 0.018189102
0.0034652413 -0.064684503 0.018213689
0.0045612464 -0.063857451 0.019228667
0.0057869935 -0.064814329 0.019683987
0.0068823807 -0.064235553 0.019645303
0.0081365779 -0.065092623 0.01970917
0.0092439316 -0.064707525 0.019361377
0.010340762 -0.064342521 0.018198788
0.011785676 -0.065999784 0.016268879
0.012888362 -0.065613478 0.015763521
0.014172295 -0.066137381 0.013989776
0.015109092 -0.065085322 0.012406379
0.016316846 -0.065267384 0.0099774003
0.017683499 -0.066018395 0.0079101622
0.01909435 -0.066830225 0.0063820481
0.02014596 -0.066363163 0.0058934391
-0.029042028 -0.066554651 0.0052240193
-0.027244173 -0.065149106 0.0054533184
-0.026171708 -0.06542927 0.0057669878
-0.02480909 -0.064976186 0.0068949461
-0.023696447 -0.065165229 0.0084522963
-0.02198934 -0.063653357 0.010026932
-0.022023223 -0.067293182 0.011866808
-0.020001983 -0.064712301 0.014836013
-0.019173151 -0.065907709 0.016586691
-0.017975654 -0.065910734 0.018661737
-0.016725935 -0.065709032 0.018965811
-0.015528576 -0.065697819 0.019518971
-0.013754878 -0.063043192 0.020245165
-0.012464153 -0.062320761 0.020960271
-0.011381739 -0.062599562 0.020759583
-0.010275423 -0.062794246 0.020498991
-0.009119085 -0.062693708 0.019746393
-0.00803544 -0.063135602 0.018878788
-0.0069155819 -0.063392833 0.018477738
-0.0057062143 -0.062768355 0.017473251
-0.0047361907 -0.065122619 0.017278582
-0.0035511234 -0.065103933 0.017423034
-0.0023416176 -0.064394481 0.017767727
-0.0011754506 -0.064649783 0.01795727
0 -0.064837657 0.017309785
0.0011395612 -0.062675871 0.017480075
0.0023533166 -0.064716205 0.018365204
0.0034750816 -0.063709833 0.018157631
0.004584597 -0.063038208 0.019418538
0.005746122 -0.063207343 0.020233899
0.0068797572 -0.063064441 0.020039648
0.0081727616 -0.064214557 0.020345807
0.0092813773 -0.063809469 0.019664764
0.010603279 -0.064797819 0.018469125
0.011713719 -0.064425454 0.016882837
0.012956608 -0.064783037 0.015188962
0.014070612 -0.064490303 0.013286322
0.01580409 -0.066863455 0.011906803
0.016753217 -0.065816209 0.0095081627
0.017897105 -0.065622717 0.0077055395
0.019538457 -0.067163445 0.0064613223
0.02037352 -0.065914333 0.0058961511
-0.027483108 -0.06452556 0.0053599179
-0.026655978 -0.065428309 0.0060318112
-0.025199825 -0.064799555 0.0070230961
-0.023758229 -0.064147219 0.0074741244
-0.022656329 -0.064391673 0.01010251
-0.021431299 -0.064293899 0.012501597
-0.019649813 -0.062417056 0.015737951
-0.018746221 -0.063268498 0.017850369
-0.017123219 -0.061643586 0.019577384
-0.016231226 -0.062606156 0.020079881
-0.01536608 -0.063828334 0.020774126
-0.013994407 -0.062974833 0.021637976
-0.01333503 -0.065462872 0.021683544
-0.011764732 -0.063529551 0.021749377
-0.010541732 -0.063250393 0.021590382
-0.0092973271 -0.062756956 0.020672679
-0.0079487339 -0.0613188 0.019519925
-0.0067992187 -0.061192967 0.018996745
-0.0057524312 -0.062126257 0.018246412
-0.0046949396 -0.063381679 0.017569929
-0.0034669871 -0.062405765 0.017793894
-0.0023937481 -0.064631201 0.017954409
-0.0011622115 -0.062759422 0.018246412
0 -0.061624337 0.018166453
0.0011662334 -0.062976606 0.018097788
0.0023464607 -0.06335444 0.018488586
0.0034739338 -0.062530808 0.018637419
0.0046778778 -0.063151345 0.019770056
0.0058441362 -0.06311667 0.020249814
0.0069147446 -0.062232703 0.020445198
0.0080882004 -0.062394686 0.020789802
0.0094157681 -0.063556433 0.020046204
0.01025442 -0.061526518 0.018917531
0.011718433 -0.063279539 0.017181218
0.012971181 -0.063676707 0.015737385
0.014455624 -0.065050311 0.014453709
0.015320157 -0.063637577 0.013058782
0.016446084 -0.063434899 0.010367602
0.01796723 -0.064682029 0.0078727305
0.019103765 -0.064475209 0.0066526234
0.020383641 -0.064748041 0.0052962601
-0.027531596 -0.063442372 0.0050063729
-0.026300775 -0.063360959 0.005969286
-0.024801914 -0.062595308 0.0066624284
-0.023461977 -0.062174242 0.0079733431
-0.02337881 -0.065214574 0.01044482
-0.021461597 -0.063192479 0.013104469
-0.019927841 -0.062127974 0.016475081
-0.01808916 -0.059920345 0.01937446
-0.017500112 -0.061833728 0.020326406
-0.016151588 -0.061145294 0.021151781
-0.014944527 -0.060927689 0.022485554
-0.013699534 -0.060506277 0.022533089
-0.012908611 -0.062196035 0.022567898
-0.011465366 -0.06076644 0.022381961
-0.01045269 -0.06155473 0.022205025
-0.0093999868 -0.062274914 0.021256924
-0.0082663214 -0.062587865 0.020302296
-0.0072005107 -0.063604511 0.019679159
-0.0059083095 -0.062628083 0.019048363
-0.0047223922 -0.062571697 0.018851876
-0.0034733124 -0.061361853 0.018618077
-0.0023220377 -0.061533995 0.018851876
-0.0011790689 -0.06249065 0.019130021
0 -0.061893292 0.019037873
0.0011522538 -0.061069451 0.018683344
0.0022691393 -0.060132194 0.019010484
0.0034581379 -0.06109377 0.019025415
0.004611237 -0.061098892 0.020609766
0.0057715019 -0.061177921 0.020777583
0.0072725373 -0.064240746 0.020933509
0.0080061331 -0.060617864 0.02119723
0.009339056 -0.061871246 0.020526528
0.010540426 -0.062071398 0.018451393
0.011749883 -0.062274382 0.017203063
0.012697522 -0.061178971 0.016691744
0.013879358 -0.061300498 0.01516211
0.01521138 -0.062015627 0.013760924
0.016623976 -0.062933624 0.010781974
0.017905712 -0.063266844 0.0083177984
0.01905958 -0.063134857 0.0066715181
-0.025054362 -0.062039372 0.0066084266
-0.023549024 -0.061227463 0.0079733133
-0.023244139 -0.063615538 0.010168016
-0.021080777 -0.060900021 0.013733774
-0.01968509 -0.060213216 0.01821062
-0.018152934 -0.058997031 0.020317048
-0.017453969 -0.060507093 0.022042066
-0.015956715 -0.059267797 0.023006588
-0.015037555 -0.060150221 0.023334503
-0.013916992 -0.060306966 0.023709476
-0.012543702 -0.059297498 0.023711383
-0.011412033 -0.059342571 0.023432821
-0.010330117 -0.059685122 0.022826314
-0.009280799 -0.06032519 0.021824032
-0.0081176655 -0.06030266 0.020980209
-0.0070427465 -0.061037138 0.020400852
-0.0057823122 -0.06013605 0.019456297
-0.0047468953 -0.061709639 0.019136041
-0.00352295 -0.061064467 0.018371701
-0.0023447694 -0.060964007 0.019210219
-0.0011882422 -0.061788596 0.019829094
0 -0.0608887 0.019642174
0.0011421045 -0.059389435 0.019230187
0.0022711449 -0.05904977 0.019493818
0.003475046 -0.060234133 0.019796222
0.0045201792 -0.058762331 0.020894468
0.0057350812 -0.059644844 0.02131483
0.0068891747 -0.059706181 0.021618575
0.0081500858 -0.060543492 0.021131158
0.0092666615 -0.060233302 0.020239115
0.010389892 -0.06003049 0.019045711
0.011844629 -0.061592076 0.018101037
0.01280574 -0.060536228 0.016816467
0.014057353 -0.060915198 0.015412271
0.015244244 -0.060976975 0.013274521
0.016833343 -0.062523849 0.011211425
0.017938167 -0.062185645 0.0077939928
0.019524878 -0.06345585 0.0052765012
-0.025006304 -0.060729593 0.0055937469
-0.024074249 -0.061389334 0.0075016618
-0.023176396 -0.062210329 0.010397077
-0.020613182 -0.058404017 0.015014321
-0.019657511 -0.058972534 0.020293802
-0.018280914 -0.058270417 0.021663845
-0.016980127 -0.057732426 0.024015337
-0.016020115 -0.05835899 0.024783105
-0.014857274 -0.058286224 0.025025308
-0.013843418 -0.058834527 0.025081396
-0.012631061 -0.058562193 0.02505815
-0.01150669 -0.058684118 0.024637878
-0.010376927 -0.058802586 0.023718715
-0.0092834141 -0.059181768 0.02281034
-0.0080947857 -0.058976296 0.02156356
-0.0069372067 -0.058966257 0.020989031
-0.0058110692 -0.059272904 0.020239502
-0.0047421167 -0.060461987 0.020239502
-0.0035197288 -0.059835389 0.019620806
-0.0023309188 -0.05943843 0.020132035
-0.0011426132 -0.058273274 0.020512432
0 -0.056868378 0.020132035
0.0011395656 -0.058117848 0.019651353
0.0022680166 -0.057834424 0.019977391
0.0034619474 -0.058853105 0.020834684
0.0045902301 -0.058525436 0.022157699
0.0058720168 -0.059894573 0.02192983
0.0070703123 -0.060097653 0.021833688
0.0081963167 -0.059716024 0.021731943
0.0093063274 -0.059327841 0.020999014
0.010403252 -0.058951762 0.019803673
0.011611495 -0.059218626 0.018506616
0.012735616 -0.059046946 0.017094821
0.014015228 -0.059564717 0.015964866
0.015248504 -0.059821054 0.013494074
0.016621348 -0.060549196 0.0097491443
0.018146852 -0.061699297 0.0070296228
0.019206654 -0.061221212 0.0050816238
-0.024889054 -0.059259653 0.0050346553
-0.024991469 -0.062478673 0.0076130629
-0.023018265 -0.060574383 0.011069119
-0.020577263 -0.057159066 0.016425163
-0.019429993 -0.057147037 0.021679878
-0.018120339 -0.056626063 0.023504019
-0.016929155 -0.056430519 0.025684983
-0.016042484 -0.057294585 0.025837988
-0.014892302 -0.057278089 0.026200563
-0.013676892 -0.056987047 0.026197553
-0.012741813 -0.05791733 0.026160538
-0.01169635 -0.058481749 0.026155978
-0.010393513 -0.057741739 0.024939001
-0.009220154 -0.057625961 0.024185032
-0.0080253491 -0.057323925 0.022451311
-0.0068707387 -0.057256155 0.021442086
-0.0058276025 -0.058276024 0.020523936
-0.0048050876 -0.060063593 0.020460874
-0.0035181311 -0.058635518 0.020013779
-0.002315467 -0.057886675 0.020116955
-0.0011688994 -0.058444966 0.020074576
0 -0.056860283 0.019760936
0.0011284244 -0.05642122 0.020044476
0.0022803564 -0.057008911 0.021166921
0.0034056695 -0.056761157 0.021272838
0.0046054036 -0.057567544 0.021677583
0.0056194519 -0.056194518 0.022052348
0.0067756572 -0.056463808 0.02207616
0.0080581997 -0.057558574 0.022136271
0.0092757354 -0.057973344 0.021109909
0.010552569 -0.058625385 0.020092845
0.011517803 -0.057589017 0.019031912
0.012692213 -0.05769188 0.017496258
0.014103152 -0.058763135 0.016386092
0.015180597 -0.058386911 0.013996005
0.016643757 -0.059441991 0.0095730126
0.017976264 -0.059920881 0.0061935186
0.018991565 -0.059348643 0.0054530799
-0.02522419 -0.058856446 0.0053254664
-0.024882138 -0.060961239 0.00844118
-0.022817163 -0.058844265 0.013557076
-0.020849239 -0.056756262 0.021161914
-0.019361774 -0.055807464 0.022590637
-0.018352391 -0.056204196 0.024847209
-0.016800405 -0.054881323 0.026471198
-0.015814001 -0.055349 0.026529968
-0.014730019 -0.055520844 0.027044415
-0.013576799 -0.055438593 0.027032614
-0.01237524 -0.055126067 0.026900619
-0.011356384 -0.055646278 0.026531726
-0.010249874 -0.055804867 0.025360793
-0.0092007099 -0.056354348 0.024737865
-0.0080177188 -0.056124032 0.022674263
-0.0070108515 -0.057255287 0.021759689
-0.0057322481 -0.056176029 0.021401256
-0.0047880611 -0.05865375 0.020937443
-0.0035077331 -0.057292972 0.020551056
-0.002329869 -0.057081789 0.020202994
-0.0011344044 -0.055585817 0.020143896
0 -0.057261724 0.02001068
0.0011401956 -0.055869587 0.020241469
0.0023117031 -0.056636725 0.020919979
0.003484508 -0.056913633 0.021231413
0.0046205511 -0.056601752 0.022404909
0.0058300812 -0.057134796 0.022587478
0.0067179096 -0.054862928 0.022656083
0.0078316964 -0.054821875 0.02215752
0.0089871483 -0.055046283 0.021445334
0.010138527 -0.055198647 0.020606607
0.011563583 -0.056661557 0.019402653
0.012860543 -0.057287876 0.017797321
0.013919729 -0.056838892 0.01663056
0.015346246 -0.057843544 0.013513565
0.016379487 -0.057328206 0.009367913
0.018218562 -0.059513967 0.0067285001
0.019308457 -0.059132151 0.0054579973
-0.024995491 -0.059989177 0.0082420707
-0.022015413 -0.055617888 0.017340899
-0.02083719 -0.055565838 0.02268225
-0.019248899 -0.054349832 0.024898529
-0.018077543 -0.054232627 0.026010036
-0.017123871 -0.054796383 0.027350366
-0.015817398 -0.054231077 0.027664989
-0.014665849 -0.054150827 0.027739793
-0.013807857 -0.05523143 0.027912199
-0.01256158 -0.054814167 0.027624428
-0.011372831 -0.054589588 0.026978195
-0.01038426 -0.055382717 0.026108652
-0.0092002228 -0.05520134 0.025399804
-0.0077868844 -0.053395778 0.023642898
-0.0068345722 -0.054676577 0.022565663
-0.0057718707 -0.055409957 0.022056013
-0.0047417413 -0.056900896 0.021440506
-0.0034720737 -0.055553179 0.020810515
-0.0023648634 -0.05675672 0.020308703
-0.0011523268 -0.055311691 0.020511329
0 -0.055194814 0.020519316
0.0011606788 -0.055712584 0.021020055
0.0023714474 -0.056914736 0.021719247
0.0035190755 -0.056305207 0.022132576
0.0046146996 -0.055376396 0.022557646
0.0056661074 -0.054394629 0.022557646
0.0069815991 -0.055852793 0.022701591
0.008167482 -0.05600559 0.022122443
0.0093152989 -0.055891797 0.021541059
0.010395778 -0.055444151 0.020968795
0.011268008 -0.054086436 0.019970387
0.012586384 -0.054922402 0.018341124
0.01339398 -0.053575918 0.017062634
0.015126855 -0.055853002 0.013741106
0.016323207 -0.055965278 0.010074377
0.018083371 -0.057866786 0.0069431961
0.019223714 -0.057671141 0.0057501793
-0.025024667 -0.058807969 0.0072276592
-0.021893796 -0.054158334 0.016032308
-0.020876534 -0.054510947 0.023108393
-0.019414444 -0.053675223 0.024299413
-0.018343499 -0.053884026 0.02661711
-0.016997648 -0.053259294 0.027946264
-0.016141428 -0.054189075 0.028065383
-0.014764762 -0.053380292 0.028740197
-0.013535741 -0.053014982 0.029646993
-0.012654682 -0.054070003 0.028829783
-0.011306322 -0.053139713 0.028262109
-0.01029149 -0.053744446 0.027573586
-0.0090909358 -0.053409249 0.026127726
-0.007997185 -0.053695384 0.024756998
-0.0068700043 -0.053815033 0.024345696
-0.0059650838 -0.056071788 0.022563547
-0.0046651498 -0.054815508 0.022096366
-0.0035051575 -0.054914135 0.021223575
-0.0023349791 -0.05487201 0.020587236
-0.0011406754 -0.053611744 0.020607978
0 -0.054262359 0.020688862
0.0011304941 -0.053133219 0.020776957
0.0023424169 -0.055046797 0.021806747
0.0034777233 -0.054484334 0.022315532
0.0045678527 -0.053672269 0.022828072
0.0057931724 -0.05445582 0.023008049
0.0069614435 -0.05453131 0.023019791
0.0081021525 -0.054400168 0.02274549
0.0091957776 -0.054025192 0.021951348
0.010331535 -0.053953569 0.021534383
0.011799995 -0.055459976 0.020277381
0.012775348 -0.05458558 0.019177943
0.014037389 -0.054979775 0.016544431
0.015120435 -0.054666184 0.012804687
0.016183224 -0.054329395 0.0095273554
0.017977297 -0.056328863 0.0064456761
0.019314282 -0.056735702 0.0052743554
-0.024858836 -0.057175323 0.0054996908
-0.021802114 -0.052784067 0.012739867
-0.020596718 -0.052636061 0.021937907
-0.019365525 -0.052400831 0.024426669
-0.018354965 -0.052770525 0.026935697
-0.017149128 -0.052590661 0.028217584
-0.015926262 -0.052329149 0.028505504
-0.014783582 -0.052311134 0.029156804
-0.013452191 -0.051566731 0.02956906
-0.012438655 -0.052016191 0.029105335
-0.011365292 -0.052280344 0.028645575
-0.010113619 -0.051691834 0.027772725
-0.0091800587 -0.052785337 0.026913822
-0.0079236878 -0.052069951 0.025555283
-0.0068984479 -0.052888099 0.025117546
-0.0057924935 -0.053290941 0.023402482
-0.0046538776 -0.053519592 0.022628218
-0.0035365757 -0.054227494 0.021528006
-0.0023173932 -0.053300045 0.021291882
-0.0011687672 -0.053763293 0.021140784
0 -0.053727005 0.021168828
0.0011565735 -0.053202383 0.021480799
0.002325563 -0.053487949 0.022667915
0.0035182859 -0.05394705 0.022783637
0.0046621691 -0.053614944 0.022918612
0.0058110878 -0.053462006 0.02306211
0.0069459984 -0.053252652 0.023257732
0.0081161372 -0.053334612 0.023080975
0.0092785647 -0.053351749 0.022459447
0.010492689 -0.053629298 0.02169466
0.011841919 -0.054472826 0.020378798
0.012507706 -0.05230495 0.018603474
0.014104507 -0.054067276 0.01577583
0.015144814 -0.05358934 0.012280017
0.017034361 -0.055970043 0.0079245865
0.017992649 -0.055177458 0.0063522458
-0.02204239 -0.052205659 0.0061329901
-0.020718025 -0.051795065 0.016774595
-0.019352727 -0.051227804 0.023850679
-0.018244475 -0.051312584 0.026595682
-0.017430291 -0.052290868 0.027683586
-0.015935339 -0.051220734 0.029099792
-0.014920347 -0.051647354 0.029263586
-0.013438758 -0.05039534 0.029604495
-0.012336507 -0.050467528 0.029600561
-0.011510138 -0.051795624 0.028884262
-0.010194612 -0.050973058 0.027705669
-0.0091881771 -0.051683493 0.02741766
-0.0079465769 -0.051085137 0.025635898
-0.0068083364 -0.051062524 0.024368644
-0.0058371974 -0.052534778 0.022562772
-0.0046928134 -0.052794151 0.021425903
-0.0035452941 -0.053179409 0.020638525
-0.002327594 -0.052370865 0.02027598
-0.0011665515 -0.052494816 0.020261794
0 -0.052132815 0.020562947
0.0011731973 -0.052793879 0.021243453
0.0023413731 -0.052680898 0.022435725
0.0035529761 -0.05329464 0.022635877
0.0046230662 -0.052009493 0.023024559
0.0057125222 -0.051412698 0.022888571
0.0070215887 -0.052661914 0.023021758
0.008187253 -0.052632339 0.023308635
0.0092974147 -0.052297957 0.022074103
0.010448065 -0.052240323 0.021526933
0.011466864 -0.051600885 0.020276338
0.012805135 -0.052384645 0.018057406
0.014281239 -0.05355465 0.015623331
0.015443201 -0.053457234 0.011695951
0.016941108 -0.054453563 0.0076211095
0.018130353 -0.054391056 0.0058903992
-0.020997092 -0.051326226 0.0091693699
-0.019686731 -0.050953895 0.018448442
-0.018363908 -0.050500747 0.025193483
-0.017409759 -0.051068623 0.027576715
-0.016225839 -0.050995495 0.028409302
-0.014902544 -0.05043938 0.0287534
-0.013811388 -0.050641757 0.029576272
-0.012671405 -0.050685622 0.02943489
-0.01127701 -0.04961884 0.028462559
-0.010328212 -0.050493479 0.028078169
-0.0090587102 -0.049822908 0.026669323
-0.0079770992 -0.050141763 0.024708748
-0.0068772966 -0.050433509 0.022751957
-0.0058547375 -0.051521692 0.021351725
-0.004698067 -0.051678736 0.020674467
-0.0035249074 -0.051698644 0.020466924
-0.0023237572 -0.051122654 0.020106047
-0.0011599383 -0.051037285 0.020127386
0 -0.052027397 0.020433873
0.0011641454 -0.051222395 0.020752639
0.0023232691 -0.051111922 0.021241754
0.0034650951 -0.050821394 0.022142798
0.0046702647 -0.051372912 0.022581607
0.0058068777 -0.051100522 0.022157043
0.0069413106 -0.050902944 0.022074372
0.0082510673 -0.051863853 0.022122204
0.0092420792 -0.050831437 0.021781713
0.010627755 -0.051957913 0.021204144
0.011822544 -0.052019194 0.019266039
0.012898016 -0.051592063 0.017575741
0.013951806 -0.051156621 0.015197456
0.015471363 -0.05236461 0.0098060966
0.016830683 -0.052896433 0.0073446333
0.018012049 -0.052835342 0.0053807199
-0.020829799 -0.049760073 0.0068700314
-0.019580493 -0.049527127 0.014479667
-0.018453993 -0.049595103 0.020628601
-0.017248368 -0.04944532 0.025511146
-0.015989881 -0.04911178 0.02768907
-0.015297408 -0.050599121 0.028628737
-0.013721732 -0.04916954 0.02881515
-0.012557703 -0.049089205 0.029010683
-0.011538753 -0.049616639 0.02821517
-0.010364098 -0.049517356 0.027041405
-0.00923838 -0.049656294 0.023448288
-0.0081402929 -0.050004657 0.022092938
-0.0071375328 -0.051152319 0.021559924
-0.0058880937 -0.050637607 0.021404237
-0.0046964623 -0.050486971 0.020524293
-0.0035423615 -0.050773848 0.020381033
-0.0023342953 -0.050187353 0.019882143
-0.0011861215 -0.051003221 0.019961387
0 -0.049818292 0.020054549
0.0011736827 -0.050468359 0.020404667
0.0023269786 -0.050030041 0.021444201
0.003501937 -0.050194431 0.021951348
0.0046547581 -0.050038651 0.022122204
0.0058585238 -0.050383307 0.021701664
0.0069392682 -0.049731422 0.021318018
0.0081445603 -0.050030872 0.021417141
0.0093442099 -0.050225127 0.021174192
0.010580257 -0.050550114 0.020113587
0.011829508 -0.050866883 0.018552274
0.0129459 -0.050606702 0.017079204
0.014154696 -0.050720993 0.013559282
0.015725218 -0.052014183 0.0089753866
0.017175708 -0.052753959 0.0065624416
0.018333245 -0.0525553 0.0051324666
-0.019805532 -0.048931316 0.0076379776
-0.018813988 -0.049386721 0.014469653
-0.01766724 -0.049468271 0.019104481
-0.016062647 -0.048187938 0.025610209
-0.014817541 -0.047872052 0.026396275
-0.013729993 -0.048054975 0.028072655
-0.012544491 -0.047897149 0.028186947
-0.011467005 -0.048161421 0.025183946
-0.010239719 -0.047785357 0.023185134
