ply
format ascii 1.0
comment PCL generated
element vertex 1263
property float x
property float y
property float z
element camera 0
property float view_px
property float view_py
property float view_pz
property float x_axisx
property float x_axisy
property float x_axisz
property float y_axisx
property float y_axisy
property float y_axisz
property float z_axisx
property float z_axisy
property float z_axisz
property float focal
property float scalex
property float scaley
property float centerx
property float centery
property int viewportx
property int viewporty
property float k1
property float k2
end_header
-0.021100614 -0.075024411 0.010287613
-0.01967518 -0.074071266 0.010692865
-0.018686112 -0.074744448 0.011146277
-0.017346574 -0.074012049 0.011980534
-0.016169453 -0.073917501 0.012525797
-0.015055294 -0.074118368 0.012934238
-0.014330476 -0.076429203 0.012948215
-0.012753714 -0.074203424 0.013445586
-0.011343136 -0.072596073 0.013555855
-0.010488183 -0.074582636 0.013681322
-0.0093067698 -0.074454159 0.01427868
-0.0081898123 -0.074878283 0.014917165
-0.0069164191 -0.073775135 0.015197605
-0.0057912678 -0.074128225 0.015979588
-0.0046808608 -0.074893773 0.016325325
-0.0034798635 -0.074237086 0.017082125
-0.0023139804 -0.074047372 0.017696351
-0.0011511579 -0.073674105 0.01862672
0 -0.072801754 0.019729137
0.0011271158 -0.072135411 0.019994855
0.0022727137 -0.072726838 0.02140373
0.0033651951 -0.071790829 0.021418393
0.0046119634 -0.073791414 0.021469891
0.0058633885 -0.075051375 0.021259695
0.0066965953 -0.071430348 0.021473527
0.0079474198 -0.072662123 0.020864815
0.0091753257 -0.073402606 0.019970864
0.010298146 -0.073231265 0.019435436
0.011517768 -0.073713712 0.018784136
0.012592418 -0.073264979 0.018411845
0.013756642 -0.073368758 0.017965168
0.01500468 -0.073869199 0.017211229
0.016080886 -0.073512621 0.015524
0.017234353 -0.073533244 0.014971286
0.018642323 -0.074569292 0.014188409
0.019519078 -0.073483586 0.013309598
0.020964898 -0.074541859 0.012663484
0.022008089 -0.07413251 0.011355788
0.023141719 -0.074053496 0.010606021
0.024843302 -0.075712919 0.009203881
0.025589641 -0.074442595 0.0079961121
0.026800781 -0.074576087 0.0074760616
0.028139854 -0.07503961 0.0070809722
0.029315485 -0.075047642 0.0069446862
0.030562242 -0.075230137 0.0065433383
0.032280151 -0.076515913 0.0064696372
0.032788262 -0.0749446 0.0058706105
-0.031940471 -0.074527763 0.005150944
-0.030593548 -0.07413052 0.0053380132
-0.029789105 -0.075068548 0.0059475303
-0.028568348 -0.074991912 0.0060960054
-0.027240817 -0.074616149 0.0069007874
-0.025875535 -0.074098118 0.0074804723
-0.024867358 -0.074602067 0.0081162453
-0.023345735 -0.073539071 0.0090059638
-0.022322088 -0.074015349 0.0098207593
-0.021256948 -0.074399322 0.010664433
-0.019925168 -0.073840328 0.010961533
-0.018688843 -0.073587321 0.011369348
-0.017413894 -0.073138356 0.011928856
-0.016549133 -0.074471101 0.012221545
-0.01485501 -0.071989663 0.012900114
-0.013924404 -0.073103122 0.012995899
-0.012771645 -0.073146693 0.013397664
-0.011478678 -0.072315671 0.01349768
-0.010574617 -0.074022323 0.013746113
-0.0092419144 -0.072780073 0.014048845
-0.0082370248 -0.074133225 0.014567554
-0.0069459174 -0.072932132 0.015177101
-0.0058581596 -0.073812813 0.015465736
-0.0046326043 -0.072963521 0.01575318
-0.0034927907 -0.073348604 0.016888708
-0.0023083533 -0.072713129 0.017376542
-0.0011574139 -0.072917074 0.018648535
0 -0.071582675 0.019352287
0.001129594 -0.071164422 0.019649237
0.0022579494 -0.07112541 0.021562815
0.0034412919 -0.07226713 0.021473527
0.0045568799 -0.071770854 0.021570116
0.0057428102 -0.072359413 0.021570116
0.006867032 -0.072103836 0.02170831
0.0079545472 -0.071590923 0.021063119
0.0092117256 -0.07254234 0.020287931
0.010350592 -0.072454147 0.019817948
0.011437905 -0.072058804 0.018920034
0.012493186 -0.071551882 0.018658817
0.014060216 -0.073816136 0.018369883
0.015261563 -0.07395988 0.01711309
0.016061092 -0.072274908 0.015729278
0.017383782 -0.073011883 0.015100986
0.018469868 -0.072725102 0.014495581
0.02002546 -0.074212 0.01349476
0.020784061 -0.072744213 0.012090623
0.022427224 -0.074363954 0.011566609
0.024205441 -0.076247133 0.010615557
0.024474157 -0.073422469 0.0090896785
0.025847452 -0.074017704 0.0081510842
0.027279954 -0.074723355 0.0076919794
0.028339382 -0.074390873 0.0072453022
0.029751133 -0.074972853 0.0070884824
0.030806771 -0.074647173 0.0066460073
0.031737123 -0.074053288 0.0059746504
0.033456177 -0.07527639 0.0055450797
0.034576248 -0.075113922 0.0053623021
-0.032128625 -0.073776841 0.0050658286
-0.030760523 -0.073352017 0.0053543448
-0.0294226 -0.072968051 0.0058459342
-0.028340423 -0.073212758 0.0062273741
-0.026882533 -0.072465956 0.0070041418
-0.026137274 -0.073659584 0.0078869164
-0.024804438 -0.073232152 0.007901907
-0.023595883 -0.073147237 0.009039104
-0.022199262 -0.072439693 0.0095128119
-0.020837329 -0.071773022 0.010664284
-0.019785251 -0.072157972 0.011053979
-0.018618459 -0.072146527 0.011383176
-0.017417243 -0.071991272 0.011717469
-0.016290784 -0.072144903 0.01244247
-0.015293762 -0.072939478 0.012805969
-0.013963598 -0.072145253 0.013402849
-0.012539119 -0.070675038 0.013555825
-0.011294649 -0.070026822 0.01363349
-0.010397512 -0.071627304 0.013806432
-0.0092680445 -0.071827345 0.014590502
-0.0080945771 -0.071694829 0.014570326
-0.0069246101 -0.071554303 0.015491962
-0.0056507746 -0.070069604 0.015901983
-0.0046919426 -0.072725117 0.016969353
-0.0034478023 -0.071254581 0.018006414
-0.0022990576 -0.071270786 0.020012558
-0.0011366323 -0.070471197 0.020977527
0 -0.071245253 0.021457285
0.0011410159 -0.070742987 0.021266222
0.0022628931 -0.07014969 0.022046089
0.0033873464 -0.070005156 0.021956861
0.0045560575 -0.07061889 0.021836847
0.0057579214 -0.071398228 0.021785587
0.0069067124 -0.071369357 0.02168262
0.0078819431 -0.069811493 0.021229565
0.0090825083 -0.070389435 0.020792216
0.010257819 -0.070664972 0.020138979
0.011470549 -0.071117401 0.019057125
0.012721215 -0.071701393 0.018968254
0.013881077 -0.071718894 0.018398225
0.014868166 -0.070909716 0.016771913
0.016225193 -0.07185442 0.015681058
0.017347885 -0.071704596 0.015093476
0.018562002 -0.071927764 0.014281511
0.019671502 -0.071743123 0.013115227
0.020898638 -0.071984194 0.012540817
0.022567863 -0.0736425 0.012129277
0.023600746 -0.073162317 0.010896564
0.02436905 -0.071946718 0.0090251267
0.025872461 -0.072913304 0.0081708729
0.027128587 -0.073129229 0.007658571
0.028165393 -0.072760597 0.0069537759
0.029626163 -0.073472887 0.0067481399
0.030744726 -0.073314346 0.0060274899
0.031674307 -0.072733596 0.0054472089
-0.031742506 -0.07171455 0.0052264035
-0.031178551 -0.073149674 0.0053421855
-0.029940063 -0.073053755 0.0059311092
-0.028541142 -0.072542071 0.0063875318
-0.026935063 -0.071436472 0.0069953799
-0.025815727 -0.07157997 0.0076572299
-0.024658348 -0.071626633 0.0082660317
-0.023439698 -0.071491078 0.0090144873
-0.022429891 -0.072011754 0.0097127855
-0.021171885 -0.071749166 0.010817289
-0.020064037 -0.071994483 0.011710376
-0.018483685 -0.070469052 0.012074977
-0.017426876 -0.070869297 0.012263089
-0.016140463 -0.070326306 0.012670845
-0.015211945 -0.071379125 0.013203889
-0.013839845 -0.070352539 0.013663918
-0.012863526 -0.071334094 0.013814688
-0.0113546 -0.069263063 0.014229864
-0.010584091 -0.071736611 0.01477468
-0.0094942963 -0.072394013 0.015364647
-0.0081173964 -0.07073731 0.015723407
-0.007007367 -0.071241565 0.016550183
-0.0058414992 -0.071266286 0.017581671
-0.0046579866 -0.071034297 0.018409342
-0.003396203 -0.069056131 0.020235151
-0.0022137528 -0.067519464 0.022604257
-0.0011178473 -0.068188682 0.02242586
0 -0.067683734 0.022440851
0.0011238756 -0.068556413 0.02242586
0.0022221557 -0.067775749 0.022945881
0.0033563809 -0.068246409 0.022745848
0.0045591034 -0.06952633 0.022546411
0.0056926305 -0.069450095 0.022080302
0.0068985047 -0.070134796 0.021944284
0.0080530439 -0.070176527 0.021061808
0.0090924911 -0.069330245 0.020771921
0.010334802 -0.070046991 0.019635618
0.011388689 -0.069471002 0.019025594
0.012593695 -0.069837764 0.01862058
0.013630957 -0.069290698 0.018009961
0.015120959 -0.070952192 0.016595662
0.016177949 -0.070489638 0.015735507
0.017302744 -0.070364498 0.014718741
0.018562539 -0.070769675 0.013906598
0.019877875 -0.071326494 0.012958169
0.021324083 -0.072264947 0.012231052
0.022292368 -0.071570233 0.011288375
0.023088181 -0.070418954 0.010117769
0.024945667 -0.072461225 0.0089282691
0.026057834 -0.072251268 0.0081990957
0.027028741 -0.071684919 0.0078586638
0.028565941 -0.072605103 0.0069951415
0.029447798 -0.071852624 0.0068915784
0.030436017 -0.071407579 0.0056839883
0.031809762 -0.071866497 0.0053696036
-0.032158326 -0.071462944 0.0052649379
-0.030634237 -0.070694394 0.0057609081
-0.029416597 -0.070599832 0.0059739053
-0.028223801 -0.070559502 0.0064088404
-0.027530009 -0.071817413 0.0070929527
-0.02574544 -0.070214838 0.0078638792
-0.024476307 -0.069932304 0.0087946355
-0.023526622 -0.070579864 0.0093887746
-0.022191191 -0.070077442 0.010035098
-0.021204151 -0.070680507 0.011024326
-0.019771803 -0.069782831 0.012052476
-0.018518174 -0.069443151 0.012602001
-0.017413583 -0.069654331 0.012570381
-0.01612889 -0.069123812 0.013326049
-0.015049301 -0.069458313 0.013758183
-0.014268204 -0.071341015 0.014344692
-0.013448426 -0.073355049 0.014626682
-0.0118918 -0.071350798 0.015039802
-0.010445165 -0.06963443 0.015594214
-0.0092875184 -0.069656387 0.015892237
-0.0079513509 -0.068154439 0.016192794
-0.0068873297 -0.068873301 0.017190993
-0.0057277633 -0.068733156 0.018514842
-0.0044639567 -0.066959351 0.019804478
-0.0033725214 -0.067450427 0.022193104
-0.0022252412 -0.066757232 0.024007529
-0.0011262725 -0.067576349 0.023974746
0 -0.066663064 0.023903877
0.0011295001 -0.067770004 0.023730665
0.0022380298 -0.0671409 0.024134457
0.0034262335 -0.068524666 0.023730665
0.0045772241 -0.068658367 0.02367425
0.0057977922 -0.069573507 0.023228437
0.0071189655 -0.071189657 0.022542894
0.007878039 -0.06752605 0.021336854
0.0090819625 -0.06811472 0.020352036
0.01004406 -0.066960402 0.019586086
0.01144798 -0.068687886 0.01863867
0.012458025 -0.067952871 0.018143445
0.013546502 -0.067732513 0.017371625
0.014828535 -0.068439394 0.016192943
0.016079469 -0.068912007 0.015073001
0.017453749 -0.069814995 0.014398396
0.018645719 -0.069921441 0.013652861
0.019710775 -0.069567442 0.012912124
0.021138446 -0.070461489 0.012058407
0.022156516 -0.069967948 0.010734856
0.023488913 -0.070466734 0.0096220374
0.024784096 -0.070811704 0.008800894
0.025942093 -0.07075116 0.0080641508
0.027290884 -0.071193613 0.0073687434
0.028398879 -0.070997201 0.0066255033
0.029415077 -0.070596181 0.0060361922
0.030931288 -0.0713799 0.0052067935
-0.031770073 -0.069423497 0.0051029921
-0.030998243 -0.070342168 0.00588274
-0.029921664 -0.070615128 0.0066896975
-0.028352708 -0.069700405 0.0064388812
-0.027271817 -0.069958135 0.0074354708
-0.025971996 -0.06965217 0.0077960491
-0.024965921 -0.070142351 0.0088654459
-0.023449177 -0.069175072 0.0094011724
-0.022079447 -0.068562493 0.01033476
-0.020870492 -0.068408839 0.011472136
-0.019822825 -0.068796858 0.012404829
-0.018574951 -0.068495132 0.012957096
-0.017420262 -0.068519697 0.013197482
-0.016177718 -0.068177529 0.01388216
-0.014926882 -0.067745082 0.014385283
-0.01453732 -0.071475156 0.014731199
-0.013172795 -0.070654087 0.015119731
-0.011395181 -0.067231566 0.01553002
-0.010464519 -0.068600737 0.016204476
-0.0091293463 -0.06732893 0.016498864
-0.0079211984 -0.066764385 0.016933024
-0.0068275104 -0.067137189 0.017928451
-0.0056334524 -0.066474743 0.020242214
-0.004584115 -0.067615695 0.022540271
-0.0033871834 -0.066614605 0.024374694
-0.0022481687 -0.066320978 0.025995076
-0.001114228 -0.065739453 0.026401281
0 -0.065409057 0.026297152
0.0011130708 -0.065671176 0.025035828
0.0022283136 -0.065735251 0.02507773
0.0034588079 -0.06802322 0.024606407
0.0045592659 -0.067249171 0.024736464
0.005688569 -0.067125112 0.02404204
0.0069988836 -0.068822354 0.022896737
0.0078888005 -0.066491321 0.022017419
0.0092272647 -0.068051077 0.02098918
0.010438762 -0.068431884 0.01947394
0.011584542 -0.068348795 0.018611014
0.012712025 -0.068182684 0.018044233
0.014281625 -0.070217989 0.017088354
0.01509782 -0.068520874 0.016388983
0.015945073 -0.067197099 0.015464902
0.017541686 -0.068997294 0.014631659
0.018374361 -0.067755461 0.013669759
0.019838342 -0.068850718 0.013156146
0.020969063 -0.068731926 0.011581838
0.022244744 -0.069075786 0.010432482
0.023483243 -0.069275565 0.0098312199
0.024765385 -0.069578938 0.0087656975
0.025843553 -0.069307715 0.007929951
0.026778128 -0.068691716 0.0072427094
0.02891594 -0.071085021 0.0058000982
0.029863914 -0.070478842 0.00566715
0.030832317 -0.069965646 0.0054022968
0.031983376 -0.069889598 0.0051181614
-0.032019868 -0.068783425 0.0055839121
-0.031058703 -0.069284797 0.0062479675
-0.029605927 -0.068685748 0.0069023371
-0.028567569 -0.069038294 0.0070948303
-0.026978424 -0.068032548 0.0079331696
-0.025881317 -0.068232559 0.0082700551
-0.024447599 -0.067521945 0.0093451738
-0.02365021 -0.068585612 0.010062218
-0.02231898 -0.068131626 0.010551184
-0.020884944 -0.067295931 0.011131555
-0.019824073 -0.067635074 0.01207456
-0.018502105 -0.067070134 0.013003916
-0.017652363 -0.068255804 0.013311744
-0.016018502 -0.066362366 0.014301956
-0.014861329 -0.066304393 0.014752895
-0.014135683 -0.068322465 0.015201688
-0.01305107 -0.068814732 0.015584588
-0.01194942 -0.069306634 0.015645832
-0.010954619 -0.070596434 0.016605824
-0.0095381979 -0.069151938 0.017169565
-0.0081212102 -0.067290023 0.018102735
-0.0069189277 -0.066882968 0.018566877
-0.0057720616 -0.066955917 0.021187633
-0.0044767093 -0.064912282 0.023261786
-0.0033333013 -0.064443827 0.024959147
-0.002270357 -0.065840349 0.026763707
-0.001107717 -0.064247586 0.027089387
0 -0.064258382 0.027339786
0.0011255647 -0.065282755 0.02701214
0.00227389 -0.065942809 0.026879609
0.0033762446 -0.06527406 0.025082797
0.0045378637 -0.065799028 0.02495864
0.0057793711 -0.067040704 0.02434805
0.0069273328 -0.066964217 0.023107558
0.0082047712 -0.067982391 0.022053182
0.0092127388 -0.066792361 0.020641953
0.010143999 -0.065372437 0.019371986
0.011406237 -0.066156179 0.018183529
0.012724877 -0.06709481 0.01741606
0.014107187 -0.068184741 0.016767591
0.015055239 -0.067169525 0.016168982
0.016671345 -0.069067001 0.015368193
0.017412225 -0.067327268 0.01430127
0.018669605 -0.067677319 0.013232887
0.019783724 -0.06749741 0.012161344
0.020976953 -0.067592405 0.01085341
0.02212823 -0.067549333 0.0097503364
0.023316817 -0.067618772 0.0090949833
0.024706921 -0.068238162 0.0084608197
0.025993716 -0.068528883 0.0077152252
0.027198022 -0.068586312 0.0064062178
0.028487308 -0.068844326 0.0059310794
0.029653044 -0.068795063 0.0056801736
0.030824797 -0.06876301 0.0053730309
-0.032034837 -0.067629099 0.0052492023
-0.031073142 -0.068121888 0.0060196221
-0.029797632 -0.067938603 0.0071649253
-0.028303595 -0.067221038 0.0075031221
-0.027430397 -0.067979679 0.0080868304
-0.025937663 -0.067202128 0.0084081292
-0.024590794 -0.066746444 0.009368062
-0.023793943 -0.067812741 0.010018229
-0.022341069 -0.067023203 0.010605037
-0.020935422 -0.066295497 0.011482865
-0.020063182 -0.067270666 0.012126058
-0.018760271 -0.066833466 0.01289773
-0.017341984 -0.065899536 0.013404608
-0.016255504 -0.06618312 0.014301956
-0.015171655 -0.066521868 0.014593154
-0.013708293 -0.065114394 0.014918268
-0.013297668 -0.068906099 0.015548199
-0.011800907 -0.067265168 0.015645832
-0.010477832 -0.066359602 0.016434044
-0.0093833124 -0.066856101 0.017274678
-0.0079153022 -0.064453177 0.01818803
-0.0067468095 -0.064094692 0.020573795
-0.0056636524 -0.064565636 0.022388309
-0.0045088748 -0.064251468 0.023087144
-0.0033327513 -0.063322276 0.024891913
-0.00225903 -0.064382359 0.026735991
-0.0011242256 -0.064080857 0.027183294
0 -0.063862287 0.027499408
0.0011412832 -0.065053143 0.027158648
0.0022221126 -0.063330203 0.027205199
0.0033906852 -0.064423017 0.026602298
0.0046187704 -0.065817475 0.025263965
0.0057733012 -0.065815635 0.024683744
0.0070088608 -0.066584177 0.023216724
0.0080086794 -0.065213531 0.022031099
0.0091849947 -0.065443091 0.020401239
0.010233906 -0.064814739 0.019132078
0.011573134 -0.065966867 0.017872155
0.012680713 -0.065709151 0.017852366
0.013953085 -0.066277154 0.017014086
0.014981683 -0.065688916 0.016569167
0.01652059 -0.067262404 0.015741438
0.017395861 -0.066104271 0.014519185
0.018594699 -0.066243619 0.013106793
0.019774497 -0.066302724 0.012557238
0.020948566 -0.066337131 0.010415494
0.022197699 -0.066593096 0.0095114112
0.023801245 -0.06783355 0.0091182888
0.025269188 -0.068587795 0.0081320107
0.025603104 -0.06633532 0.0071548522
0.027087675 -0.067130327 0.00619331
0.02837511 -0.067390889 0.0057052076
0.029768752 -0.067872755 0.005505085
-0.032180909 -0.066745594 0.0053257346
-0.030708008 -0.066140324 0.0060879886
-0.029647149 -0.066409618 0.0073189735
-0.028474355 -0.066440158 0.008099705
-0.027207971 -0.066245489 0.0084413588
-0.025864039 -0.065835737 0.0090028048
-0.024820751 -0.066188663 0.0096701384
-0.023628442 -0.066159636 0.010029972
-0.022305204 -0.065741651 0.010854483
-0.020966057 -0.065227732 0.011619538
-0.019730996 -0.06499622 0.012031257
-0.018600507 -0.065101773 0.012541205
-0.017709071 -0.066113867 0.012455314
-0.016218813 -0.064875253 0.013642251
-0.014905643 -0.064208925 0.013847321
-0.013780589 -0.064309418 0.014291495
-0.013400869 -0.068222605 0.015698224
-0.011678478 -0.065399475 0.016048938
-0.010564977 -0.065737635 0.016573757
-0.0094846664 -0.066392668 0.017511219
-0.0080060912 -0.06404873 0.01865077
-0.0069397679 -0.064771168 0.020100266
-0.0057379515 -0.064265057 0.022785485
-0.0045695319 -0.063973449 0.024558634
-0.003405839 -0.063575663 0.025463343
-0.0022241692 -0.06227674 0.027090073
-0.0011180049 -0.062608279 0.028086334
0 -0.06373781 0.028418243
0.0011092315 -0.062116962 0.028418243
0.0022089377 -0.061850253 0.028565973
0.0033910344 -0.063299306 0.027856529
0.0044545075 -0.062363107 0.026527315
0.0056770295 -0.063582726 0.025991052
0.0068750707 -0.064167328 0.024255753
0.0080773048 -0.064618438 0.023369074
0.0092712212 -0.064898551 0.021515042
0.010195488 -0.063438594 0.020063549
0.011667514 -0.065338083 0.018814355
0.012655222 -0.064426586 0.018045098
0.013940633 -0.065056287 0.017100573
0.0151083 -0.065081909 0.016559333
0.016629698 -0.066518791 0.015569329
0.017134627 -0.063969277 0.014414907
0.018571284 -0.064999491 0.013384134
0.019751694 -0.0650644 0.011851013
0.021246525 -0.066100299 0.010307997
0.022448588 -0.066164255 0.0093273222
0.023455625 -0.06567575 0.0085994005
0.024718534 -0.065916091 0.0076245964
0.025910882 -0.065954976 0.0068049729
0.027122632 -0.066037707 0.0063993335
0.028455378 -0.066395886 0.0059206784
-0.033174586 -0.065164365 0.0051623583
-0.032582883 -0.066372544 0.0059475005
-0.031085646 -0.065758094 0.0062940717
-0.029998166 -0.065995969 0.0078088045
-0.028804086 -0.066009365 0.0088366866
-0.026904181 -0.064336084 0.0092603862
-0.025905346 -0.064763367 0.0096528232
-0.02467875 -0.064634822 0.010209352
-0.023624634 -0.064967744 0.010537386
-0.022095731 -0.063961327 0.011327624
-0.021232141 -0.06487599 0.012021422
-0.019949201 -0.064541534 0.012242228
-0.018782519 -0.064564906 0.012351692
-0.01740755 -0.063827686 0.012230456
-0.016010655 -0.062899001 0.012782961
-0.01517468 -0.064200573 0.012734801
-0.013599936 -0.06233304 0.014494807
-0.012777715 -0.06388858 0.015512615
-0.011813008 -0.064971544 0.016102999
-0.010561064 -0.064539835 0.016877353
-0.0092029115 -0.063270018 0.017995358
-0.0081160422 -0.063768901 0.018725991
-0.0069440948 -0.063654207 0.020419657
-0.0057083466 -0.062791809 0.0230757
-0.0045604692 -0.062706448 0.024086773
-0.0034418132 -0.063099906 0.025577813
-0.0022420548 -0.061656505 0.026919425
-0.0011312744 -0.062220093 0.028152943
0 -0.062203534 0.028116643
0.0011059265 -0.060825955 0.028286934
0.0022971372 -0.063171275 0.028319836
0.0033703409 -0.061789587 0.027447075
0.004475411 -0.061536904 0.026755869
0.0055922791 -0.061515067 0.026579648
0.0068987664 -0.063238688 0.024730146
0.0081015415 -0.063654974 0.022869051
0.0092721172 -0.063745804 0.021591067
0.01044593 -0.063836239 0.019980043
0.011667425 -0.064170837 0.018852621
0.012846726 -0.064233631 0.01789397
0.014118118 -0.064708039 0.017453521
0.015522242 -0.065671019 0.016692102
0.016494898 -0.06480138 0.015938818
0.017901672 -0.065639466 0.01494363
0.019000728 -0.065315008 0.013372123
0.019876758 -0.064307153 0.011549294
0.021394301 -0.065371476 0.010074019
0.022229876 -0.064349644 0.0092791617
0.023556475 -0.064780302 0.008594811
0.024752865 -0.064828932 0.0075506866
0.0261088 -0.065272003 0.0071101785
0.02706928 -0.064730883 0.0067266226
0.028817225 -0.066039473 0.0057413876
-0.033752885 -0.065094851 0.005148977
-0.032290332 -0.064580664 0.0058109462
-0.030966705 -0.064315461 0.0067410767
-0.029950693 -0.064693496 0.0076504946
-0.028383316 -0.063862465 0.0085028708
-0.027324991 -0.064154327 0.0092633665
-0.026507391 -0.065063596 0.0099394321
-0.025082253 -0.064497225 0.01027
-0.023763098 -0.064160362 0.010206968
-0.022504823 -0.063961081 0.010938138
-0.020988604 -0.06296581 0.012063026
-0.019732615 -0.062680073 0.012336195
-0.018735506 -0.063232325 0.012818068
-0.01724105 -0.062067781 0.012732238
-0.016269594 -0.062754147 0.012822717
-0.015028782 -0.062427249 0.012991667
-0.014207839 -0.063935272 0.013397247
-0.013162822 -0.064617485 0.014749259
-0.011772651 -0.063572317 0.015896082
-0.010420009 -0.06252005 0.017370254
-0.0093392441 -0.063039899 0.018599957
-0.0082400348 -0.063565984 0.019441187
-0.0069458201 -0.062512383 0.020227045
-0.0056674285 -0.06120823 0.022985727
-0.004544795 -0.061354734 0.024923295
-0.0033569355 -0.060424838 0.02580741
-0.0022940545 -0.06193947 0.02733323
-0.0011140704 -0.060159802 0.028344363
0 -0.060215931 0.028847873
0.0011294878 -0.060992341 0.028927505
0.0022893013 -0.061811134 0.029087156
0.0033666245 -0.060599241 0.028441995
0.0045231017 -0.061061874 0.027823836
0.0057189171 -0.061764307 0.026937276
0.0068493048 -0.061643742 0.024313033
0.0080818031 -0.062345333 0.022715867
0.0094167423 -0.063563012 0.021599263
0.010221521 -0.06132913 0.020636708
0.011636192 -0.06283544 0.019283414
0.012835158 -0.063008957 0.018550605
0.014451969 -0.065033861 0.018289357
0.01516576 -0.062996238 0.017530411
0.01634036 -0.063027106 0.016363651
0.017988238 -0.06475766 0.014819562
0.018418878 -0.062163718 0.013567626
0.019894078 -0.063192956 0.011493444
0.021254878 -0.063764632 0.010635227
0.022351006 -0.063523911 0.0093660057
0.023866564 -0.064439721 0.0079088211
0.025001744 -0.064290196 0.0074848235
0.02608037 -0.064015456 0.0074216425
0.027302602 -0.064101763 0.0064717233
-0.031958126 -0.062732615 0.005307883
-0.030770075 -0.062723614 0.0062989593
-0.029979059 -0.063555606 0.0073875189
-0.028522938 -0.062988155 0.0084040761
-0.027310492 -0.062932871 0.0093058348
-0.025951363 -0.062519193 0.009990871
-0.024551414 -0.061963093 0.010432452
-0.023470499 -0.062196821 0.010501653
-0.022431538 -0.062572181 0.011154205
-0.02117667 -0.062353525 0.012274504
-0.020097597 -0.062657215 0.012884885
-0.018476939 -0.061204862 0.013202757
-0.017962348 -0.063466966 0.012982816
-0.016566847 -0.062717348 0.013086557
-0.015231175 -0.062096331 0.013463944
-0.013857428 -0.06120364 0.013695091
-0.013047327 -0.062864393 0.014040917
-0.011610365 -0.061534937 0.015581161
-0.010638582 -0.062649429 0.017553985
-0.0093980366 -0.062261995 0.018679887
-0.0080910139 -0.061260536 0.020040274
-0.0070253788 -0.062057514 0.020304412
-0.0057066022 -0.060489982 0.021568805
-0.0045646788 -0.060481992 0.024454325
-0.0034082267 -0.060212005 0.025396347
-0.0022250167 -0.058962945 0.027515054
-0.001134946 -0.060152136 0.028259963
0 -0.060197543 0.028820544
0.0011256826 -0.05966118 0.028615326
0.0022097812 -0.058559202 0.028389305
0.0033636175 -0.059423909 0.028047413
0.0044903313 -0.059496891 0.028343797
0.0056450544 -0.059837576 0.026583195
0.0070070978 -0.061896034 0.023738861
0.0078764651 -0.059636097 0.023103595
0.009285924 -0.061519247 0.022043824
0.010406628 -0.06128348 0.020675868
0.011582949 -0.061389633 0.01951465
0.012637882 -0.06089161 0.019198447
0.013839154 -0.061122928 0.018637747
0.015227216 -0.06208019 0.018196553
0.016490104 -0.06242682 0.01677838
0.017944992 -0.06340564 0.015226901
0.018462325 -0.061156452 0.012921423
0.01987505 -0.061963391 0.011878252
0.021062698 -0.062017944 0.010537416
0.022502091 -0.062768988 0.0091132522
0.02372249 -0.062864602 0.0084183216
0.024840254 -0.062692069 0.0077629089
0.026158867 -0.063019089 0.0074992776
0.027426641 -0.063200518 0.0061422288
-0.031528335 -0.06305667 0.0053540766
-0.02956927 -0.061504081 0.0065679848
-0.028538298 -0.061832979 0.0077634752
-0.027244041 -0.061595224 0.0087658167
-0.026041748 -0.061553221 0.0092284381
-0.024739936 -0.061260793 0.0095691383
-0.023562415 -0.06126228 0.010332316
-0.022227388 -0.060832851 0.010924429
-0.021158591 -0.061124817 0.011558622
-0.019785503 -0.060520362 0.012627184
-0.018263038 -0.059354875 0.013295203
-0.018285329 -0.063389137 0.01322946
-0.016129822 -0.059910767 0.013715923
-0.015233157 -0.060932629 0.013977021
-0.014107795 -0.06113378 0.014041573
-0.012667684 -0.059883598 0.014520764
-0.011761766 -0.061161183 0.016200662
-0.010416215 -0.060182575 0.017339408
-0.0093977964 -0.061085675 0.019246995
-0.0080754356 -0.059988949 0.020272851
-0.0069816834 -0.060507923 0.020568103
-0.0057189316 -0.059476886 0.021118462
-0.004534075 -0.058942974 0.023335934
-0.0034275078 -0.059410136 0.025285125
-0.0022845534 -0.059398387 0.02718547
-0.0011461271 -0.05959861 0.028214574
0 -0.059075862 0.028665304
0.0011156531 -0.058013961 0.0283629
0.002207272 -0.057389073 0.0283629
0.0033664396 -0.058351617 0.028032392
0.0044121845 -0.057358399 0.027982533
0.0056144134 -0.058389902 0.0264799
0.0066496748 -0.057630517 0.024531752
0.0080848197 -0.060058661 0.023537576
0.0091613643 -0.059548866 0.022292227
0.010354795 -0.059827704 0.021357805
0.011751409 -0.061107326 0.01998198
0.012659643 -0.059845582 0.019302964
0.014029574 -0.060794819 0.018887907
0.015219694 -0.060878776 0.017751396
0.016681554 -0.061960056 0.016417563
0.017883353 -0.061995622 0.015336245
0.019080553 -0.062011797 0.01249814
0.019750306 -0.060412701 0.011482596
0.021296682 -0.061523747 0.010443002
0.022565149 -0.061757248 0.0090385079
0.023729207 -0.061695937 0.0080647767
0.025409687 -0.062919229 0.007570982
0.026100656 -0.061692458 0.0067485571
0.027456766 -0.062076166 0.0055048168
-0.030071743 -0.061346356 0.0055944324
-0.028568085 -0.060707182 0.0064949691
-0.027539909 -0.061066754 0.008413583
-0.026031563 -0.060345896 0.0090143085
-0.024845246 -0.060338456 0.0091421306
-0.023648115 -0.060302693 0.0093443692
-0.02255057 -0.060530476 0.010688543
-0.021203948 -0.060077854 0.011291593
-0.019820048 -0.059460144 0.011951625
-0.019264149 -0.06140447 0.012945205
-0.017793272 -0.06049712 0.013592929
-0.01646699 -0.059986889 0.014222145
-0.015079024 -0.059156172 0.014344901
-0.014124893 -0.060030792 0.014693558
-0.013052633 -0.060516752 0.015314192
-0.011830247 -0.060334262 0.016840965
-0.010611109 -0.060129616 0.018308669
-0.0093901819 -0.059862409 0.0201419
-0.0081715742 -0.059535757 0.020911187
-0.0069233114 -0.058848146 0.021255046
-0.0057808999 -0.058965176 0.021793753
-0.0045363507 -0.05783847 0.022860408
-0.0034531704 -0.058703896 0.024060011
-0.002281426 -0.058176365 0.026337564
-0.0011377371 -0.058024589 0.027680725
0 -0.056983396 0.028558433
0.0011343238 -0.05785051 0.028183371
0.0022426606 -0.057187848 0.02800411
0.0033919148 -0.057662554 0.027710736
0.004472476 -0.057024065 0.027904183
0.0056608329 -0.057740495 0.026221216
0.00698767 -0.059395194 0.024603277
0.0081924777 -0.059688054 0.023771018
0.0093009649 -0.059293654 0.023081183
0.010356087 -0.058684491 0.021598488
0.01129647 -0.057611994 0.020438671
0.01241994 -0.057583358 0.019880176
0.013809787 -0.058691595 0.019032776
0.015141589 -0.059401616 0.017883509
0.01638256 -0.059679326 0.016406
0.017969605 -0.061096653 0.014397472
0.019127723 -0.060969617 0.012736768
0.019869739 -0.059609219 0.011457533
0.02128944 -0.060320076 0.0096130967
0.022540158 -0.060502529 0.0091386437
0.023612805 -0.060212653 0.0074731112
0.025267066 -0.061362874 0.0070410669
0.026454665 -0.061326724 0.0051018596
-0.030128462 -0.060256924 0.0053017735
-0.028606461 -0.059596796 0.0059788227
-0.027474524 -0.059727225 0.0065144002
-0.026212692 -0.059574299 0.0078773499
-0.024687078 -0.058778759 0.0084369183
-0.023761682 -0.059404206 0.0089429915
-0.022410907 -0.058976073 0.0099291205
-0.021294119 -0.059150331 0.011294931
-0.01994455 -0.05866044 0.012034029
-0.019128975 -0.059778046 0.012708396
-0.017849259 -0.059497528 0.01374799
-0.016567852 -0.059170898 0.01419276
-0.015248711 -0.058648888 0.01513356
-0.013976663 -0.058236096 0.015069395
-0.013086331 -0.059483323 0.015914559
-0.011915725 -0.059578624 0.017823488
-0.010683105 -0.059350587 0.018895119
-0.0093795843 -0.058622401 0.020170659
-0.0081145158 -0.057960823 0.021273732
-0.0069888593 -0.058240492 0.021445572
-0.0058394875 -0.058394875 0.021477431
-0.0046241772 -0.057802215 0.022410244
-0.0034638203 -0.057730339 0.02343291
-0.0022815755 -0.057039388 0.024286628
-0.0011373849 -0.056869246 0.026224822
0 -0.056144048 0.027977854
0.0011133681 -0.055668406 0.02802527
0.0022768211 -0.056920528 0.027644515
0.0033824455 -0.056374092 0.026683301
0.0046883007 -0.058603756 0.025831312
0.0057620788 -0.057620786 0.025172323
0.0067891879 -0.056576565 0.024692565
0.0079302108 -0.056644361 0.024189383
0.0091835875 -0.057397421 0.022951484
0.010437391 -0.057985503 0.022085667
0.011425788 -0.05712894 0.021113068
0.012721035 -0.057822883 0.019843251
0.013970083 -0.058208678 0.01875037
0.014897848 -0.057299413 0.01773721
0.016296638 -0.058202282 0.016810656
0.017713116 -0.05904372 0.013815463
0.019249815 -0.060155671 0.012499392
0.019818239 -0.058288939 0.010641456
0.021360982 -0.059336063 0.0095076859
0.022324143 -0.058747746 0.0081351399
0.023863962 -0.059659902 0.006641537
0.024820024 -0.059095297 0.0052472949
-0.028890012 -0.058983777 0.0058414042
-0.027956272 -0.059559014 0.0066180825
-0.026147289 -0.058237143 0.0081431568
-0.025031151 -0.058406021 0.0080290437
-0.023736298 -0.058153931 0.0093800724
-0.022433059 -0.05785368 0.010569245
-0.021371018 -0.058176663 0.011243701
-0.020305011 -0.05852621 0.012401998
-0.019652484 -0.060185734 0.012806922
-0.017857626 -0.058334913 0.013507575
-0.016348781 -0.057220735 0.014811456
-0.015264663 -0.05753604 0.015777081
-0.01384149 -0.056519419 0.015853673
-0.012712405 -0.056627985 0.016605765
-0.011548348 -0.056586906 0.017594606
-0.010439656 -0.056838125 0.018624604
-0.0093694143 -0.057387661 0.019228667
-0.0082451263 -0.057715885 0.020657241
-0.0070415717 -0.05750617 0.021722853
-0.0057615065 -0.056462765 0.021861196
-0.0046132361 -0.05651214 0.022332102
-0.0034607342 -0.056525324 0.023111522
-0.0022875632 -0.056045298 0.02355054
-0.0011213591 -0.05494659 0.023974776
0 -0.055281311 0.026055932
0.0011138 -0.0545762 0.026084423
0.0022652519 -0.055498675 0.026055932
0.0033897785 -0.055366382 0.02425909
0.004619088 -0.056583825 0.024992794
0.0058206334 -0.057042204 0.02454716
0.0069260043 -0.056562368 0.024370611
0.0081213955 -0.05684977 0.024096042
0.0092933513 -0.056921776 0.023110241
0.010354637 -0.05637525 0.022368997
0.01163915 -0.057031833 0.021156698
0.012802226 -0.057028096 0.020174831
0.014090828 -0.057537545 0.019337803
0.01524011 -0.057443492 0.01791358
0.016033201 -0.056116201 0.017139435
0.017788179 -0.058108054 0.014981836
0.019495577 -0.059705205 0.013163626
0.01969724 -0.056774393 0.011297852
0.021149591 -0.057573885 0.0089818537
0.022747748 -0.058665242 0.0078806579
0.023814229 -0.058344863 0.0063387752
-0.028996697 -0.057993393 0.006085217
-0.027562993 -0.05752277 0.00688833
-0.026202239 -0.057168521 0.0075983405
-0.025008187 -0.05716157 0.0084463358
-0.023959186 -0.057502046 0.0096636117
-0.022297721 -0.056331083 0.011149347
-0.021258144 -0.056688383 0.012031078
-0.019961284 -0.056361273 0.013051182
-0.01932605 -0.05797815 0.013961673
-0.01820308 -0.058249854 0.014257312
-0.016319795 -0.055953581 0.015686989
-0.01515854 -0.055969991 0.016377777
-0.014226853 -0.056907412 0.016558468
-0.012837092 -0.056016404 0.017001897
-0.01156115 -0.055493515 0.01771763
-0.010542785 -0.056228187 0.019136906
-0.0094796233 -0.056877743 0.019388765
-0.0078935539 -0.054127228 0.019745231
-0.0069044284 -0.055235427 0.021244437
-0.0057529733 -0.055228543 0.02154997
-0.0046049459 -0.055259351 0.022330642
-0.0034137333 -0.054619733 0.022945315
-0.0023613274 -0.056671858 0.023625195
-0.0011744566 -0.056373913 0.024064362
0 -0.054188188 0.024527282
0.0011578745 -0.055577978 0.024475843
0.0023649852 -0.056759644 0.024399549
0.0035267565 -0.056428105 0.024071097
0.0046315249 -0.055578295 0.024071991
0.0056630597 -0.05436537 0.023378134
0.0069625811 -0.055700649 0.02360487
0.0081679085 -0.056008514 0.023328394
0.0094128205 -0.056476925 0.02295652
0.010500547 -0.056002922 0.022236675
0.01158309 -0.055598829 0.021680176
0.01306702 -0.057019725 0.020688117
0.013853194 -0.055412777 0.019981235
0.015343891 -0.056654371 0.018433303
0.016142378 -0.055345293 0.017477393
0.017697742 -0.056632776 0.014939934
0.018841656 -0.05652497 0.013353914
0.020981196 -0.059241027 0.011586636
0.021406135 -0.057083022 0.0094956756
0.022877378 -0.05779548 0.0075831711
0.024039557 -0.057694938 0.0055358708
-0.028765822 -0.056333069 0.0055796206
-0.027891859 -0.056996409 0.007055819
-0.026535593 -0.056689676 0.0079749823
-0.025155108 -0.056299526 0.0083404183
-0.024239182 -0.05696208 0.010384351
-0.022619268 -0.055952925 0.011559963
-0.021487163 -0.056105372 0.012409866
-0.020204524 -0.055859562 0.013342768
-0.019658344 -0.057746384 0.014451057
-0.017817372 -0.055827767 0.015070438
-0.016606314 -0.05574977 0.016345352
-0.015260644 -0.055173095 0.017287612
-0.013974501 -0.054733459 0.017763048
-0.012877246 -0.055020962 0.018166482
-0.0115751 -0.05440297 0.019050926
-0.010577289 -0.055236954 0.01978752
-0.0093908301 -0.055171125 0.019586265
-0.0081571965 -0.054769751 0.019865781
-0.0069073113 -0.054107271 0.020355672
-0.0057864664 -0.054392785 0.020517468
-0.0046171108 -0.054251052 0.021681041
-0.0034638233 -0.054266568 0.022042602
-0.0023407098 -0.055006683 0.022825181
-0.0011568924 -0.054373942 0.023224562
0 -0.055411391 0.023692727
0.0011361029 -0.05339684 0.023746967
0.0023455871 -0.055121299 0.023703635
0.0034603486 -0.054212127 0.023396492
0.0045661456 -0.053652208 0.023599535
0.0057703117 -0.054240931 0.023481041
0.006910603 -0.054133058 0.023836076
0.007941287 -0.053320073 0.023419589
0.0092577059 -0.054389026 0.023023427
0.010270645 -0.05363559 0.022587985
0.011706745 -0.055021703 0.02212739
0.01258094 -0.053754926 0.021493852
0.013727332 -0.053765386 0.019957066
0.015105383 -0.054611772 0.018419206
0.016660908 -0.055933047 0.016951114
0.017534992 -0.054942977 0.015058517
0.019058915 -0.055985563 0.013715982
0.020716056 -0.057273805 0.011131853
0.02120761 -0.055375427 0.0085728467
0.022431826 -0.055489253 0.0064897537
-0.029368764 -0.056290131 0.0057959259
-0.027793592 -0.055587184 0.0073204041
-0.026432203 -0.055267334 0.0084949136
-0.025237955 -0.05528314 0.0085993409
-0.023816353 -0.054777615 0.01097095
-0.022789123 -0.055173665 0.0122177
-0.021613015 -0.055233259 0.012645215
-0.020337891 -0.05503194 0.013277709
-0.019702028 -0.056643333 0.014243484
-0.018272299 -0.056035049 0.015134633
-0.016557513 -0.054403257 0.016829878
-0.015423659 -0.054576024 0.018186003
-0.013883655 -0.053220678 0.018440902
-0.012535864 -0.052422702 0.018482804
-0.011398205 -0.052431744 0.019269079
-0.010192615 -0.052095588 0.01997602
-0.0091898115 -0.052841417 0.019925028
-0.0080487151 -0.05289156 0.020009577
-0.0070195184 -0.053816307 0.020218879
-0.0057656695 -0.053044159 0.020045638
-0.0046587549 -0.053575683 0.020673394
-0.0035371245 -0.054235909 0.021648198
-0.0023204414 -0.053370155 0.02259931
-0.001151879 -0.052986432 0.023127854
0 -0.053948566 0.023535162
0.0011527935 -0.053028502 0.023726732
0.002325197 -0.053479534 0.023901016
0.0035206634 -0.053983506 0.023783565
0.004624858 -0.053185865 0.023783565
0.0057354919 -0.052766528 0.023730814
0.0068713808 -0.052680586 0.023831815
0.0081558218 -0.053595401 0.023528039
0.0092956321 -0.053449884 0.023231834
0.010449898 -0.053410593 0.023051262
0.011784016 -0.054206476 0.022176445
0.012456086 -0.052089084 0.021575272
0.014059166 -0.053893473 0.019925088
0.015199473 -0.053782754 0.019102514
0.016550688 -0.054380834 0.017706096
0.017083328 -0.052388873 0.01544711
0.019499287 -0.056060448 0.014413297
0.020636125 -0.055838924 0.011253208
0.021581221 -0.05515201 0.0075904131
0.02287012 -0.055369765 0.0057424903
-0.028959319 -0.054298725 0.0057086647
-0.027724544 -0.054243673 0.0078715086
-0.026988933 -0.055204634 0.0090076029
-0.026730977 -0.057280667 0.0098254085
-0.02629802 -0.059170544 0.011672109
-0.024819531 -0.058783099 0.012540251
-0.022964479 -0.057411198 0.01317504
-0.022190187 -0.058738731 0.014463663
-0.019494109 -0.054827183 0.015542299
-0.018102022 -0.054306064 0.01666382
-0.016197233 -0.05206253 0.018510103
-0.014949658 -0.051748816 0.018983006
-0.013749569 -0.051560882 0.019143313
-0.012736081 -0.052102149 0.019287437
-0.011906935 -0.053581208 0.019919306
-0.010538035 -0.052690174 0.020363778
-0.0093881208 -0.05280818 0.020250499
-0.0082145641 -0.052807909 0.020131081
-0.0070354883 -0.052766163 0.020223618
-0.0058344537 -0.052510086 0.019827843
-0.0046428195 -0.052231722 0.019925028
-0.0035204187 -0.052806277 0.020337552
-0.002313083 -0.052044369 0.021153957
-0.0011734412 -0.052804854 0.02161631
0 -0.052162997 0.022584587
0.0011659418 -0.05246738 0.02328831
0.0023418609 -0.052691873 0.02360639
0.003570901 -0.053563517 0.023443282
0.0046469658 -0.052278362 0.02360639
0.0056649684 -0.050984714 0.023390323
0.007010615 -0.052579612 0.023728669
0.0081765847 -0.052563757 0.023924172
0.0092710806 -0.052149825 0.023228735
0.010341636 -0.05170818 0.022859216
0.01153269 -0.051897109 0.022283345
0.012669709 -0.051830627 0.021491498
0.014200062 -0.053250235 0.02037248
0.015354475 -0.053150106 0.01919049
0.016466802 -0.052929007 0.018037677
0.017196326 -0.051588975 0.016124249
0.019035 -0.053535938 0.014745414
0.020697931 -0.054788642 0.01144734
0.021906486 -0.054766215 0.0075439513
-0.032223366 -0.059076171 0.0057272017
-0.029884206 -0.057169788 0.0081890523
-0.027173184 -0.054346368 0.0096527636
-0.024754915 -0.051867444 0.01058656
-0.023771556 -0.052297421 0.012706727
-0.022776658 -0.052745946 0.013822228
-0.021349035 -0.05218653 0.014621377
-0.020078188 -0.051967073 0.015925914
-0.019269481 -0.052991074 0.017464101
-0.017776251 -0.052143671 0.019202083
-0.016390486 -0.051512957 0.019884378
-0.015165563 -0.051329598 0.020115405
-0.014026402 -0.051430143 0.019703388
-0.012863153 -0.051452611 0.019674271
-0.011589092 -0.050992005 0.020155519
-0.010572345 -0.051687017 0.020701647
-0.0092996256 -0.051147941 0.0202519
-0.0083091045 -0.052228656 0.02024734
-0.0070356857 -0.051595028 0.01997152
-0.0058492506 -0.051473405 0.019655287
-0.0046761176 -0.051437296 0.019391596
-0.0035435646 -0.051972281 0.019541651
-0.002308636 -0.050789993 0.019974023
-0.0011572555 -0.050919242 0.021067858
0 -0.051804729 0.021809697
0.0011601822 -0.051048018 0.022239178
0.0023055873 -0.050722923 0.022407204
0.0034822889 -0.05107357 0.022850424
0.0046897749 -0.051587522 0.023509741
0.0058739427 -0.051690694 0.023360997
0.0069431397 -0.050916359 0.023310304
0.0081977248 -0.051528558 0.023396492
0.0092606107 -0.050933361 0.022945255
0.010644762 -0.052041057 0.022309542
0.011614692 -0.051104646 0.021479726
0.012868515 -0.051474061 0.021389186
0.014027865 -0.051435504 0.020542353
0.014928687 -0.050527863 0.019526005
0.016431434 -0.051641654 0.018732488
0.017552335 -0.051486846 0.017010719
0.018549118 -0.051010072 0.015280485
0.020314304 -0.0525782 0.011818141
0.02177115 -0.053218365 0.0068208277
-0.027587313 -0.051576283 0.0077410638
-0.026240215 -0.051287692 0.010265827
-0.024871817 -0.050928008 0.013051271
-0.02356624 -0.050667416 0.014023095
-0.022144169 -0.050115749 0.015665263
-0.020963563 -0.050079621 0.016252905
-0.020121086 -0.050894514 0.017995805
-0.018756181 -0.050407238 0.019399762
-0.017516159 -0.05021299 0.02008903
-0.016192922 -0.049735405 0.020275652
-0.015588161 -0.051560838 0.02032423
-0.013798526 -0.049444716 0.019673407
-0.012693137 -0.049618624 0.020135194
-0.011804516 -0.05075942 0.02042532
-0.0106225 -0.050751947 0.020823151
-0.0094578424 -0.050835904 0.020088434
-0.0083468407 -0.05127345 0.020127445
-0.0070790048 -0.050732866 0.019850791
-0.0058301729 -0.050139487 0.01938647
-0.0047032908 -0.050560378 0.018880546
-0.0035441907 -0.050800066 0.019046575
-0.0023429536 -0.050373502 0.019268006
-0.0011767314 -0.050599452 0.019859821
0 -0.049684577 0.020162791
0.0011648417 -0.050088193 0.02042523
0.0023196619 -0.04987273 0.021312177
0.0034909619 -0.05003712 0.021642894
0.0046559777 -0.05005176 0.022912115
0.0059066894 -0.050797526 0.022374302
0.0069901147 -0.050095823 0.022400171
0.0081573632 -0.050109517 0.022026747
0.0092691053 -0.04982144 0.021848559
0.010473274 -0.050038975 0.021804988
0.011787449 -0.050686032 0.021532089
0.013005571 -0.050839957 0.021358609
0.013933095 -0.049926925 0.020953923
0.014894157 -0.049265288 0.019827127
0.016395111 -0.05035641 0.01881665
0.017625835 -0.050527394 0.017062753
0.018866332 -0.050703268 0.013709843
0.020551905 -0.051984228 0.011004597
0.022376848 -0.053455804 0.0055159926
-0.027346928 -0.049937867 0.0083414018
-0.025655296 -0.048978295 0.011468858
-0.024546133 -0.049092267 0.013812333
-0.023139097 -0.048592102 0.014961511
-0.022586567 -0.049928203 0.016923338
-0.020785168 -0.048498727 0.017442465
-0.019661577 -0.048575662 0.019057363
-0.019474914 -0.051121652 0.018899262
-0.017828101 -0.049918681 0.020371318
-0.016065206 -0.048195619 0.020148695
-0.015231889 -0.049210716 0.020359784
-0.014225861 -0.049790513 0.020109713
-0.012837486 -0.049015857 0.020384252
-0.011680961 -0.049060032 0.020450175
-0.010318723 -0.048154041 0.020618796
-0.0093638636 -0.049160283 0.019774854
-0.0081335921 -0.048801553 0.020291865
-0.0070011979 -0.049008384 0.019777268
-0.0058458117 -0.049104817 0.020337582
-0.0046706833 -0.049042176 0.020274937
-0.0035257714 -0.049360801 0.019798726
-0.0023777452 -0.049932651 0.01931107
-0.0011533966 -0.048442654 0.020378709
0 -0.049559381 0.019944757
0.0011799205 -0.049556661 0.020597219
0.0023181126 -0.048680365 0.020911574
0.0034837001 -0.048771799 0.021135449
0.0046365391 -0.048683662 0.022144467
0.0058107539 -0.048810333 0.021912754
0.0069452291 -0.048616607 0.021971613
0.0081425533 -0.04885532 0.022115707
0.0095506534 -0.050140928 0.022115707
0.010410893 -0.048584167 0.021760762
0.011669988 -0.04901395 0.021829903
0.012789212 -0.048831537 0.021675855
0.014180516 -0.049631808 0.021050274
0.015006096 -0.048481233 0.020363659
0.016461056 -0.049383167 0.018752724
0.017831756 -0.049928918 0.017571926
0.018759398 -0.04924342 0.014286071
0.02048284 -0.050604664 0.01184985
0.022245625 -0.051906455 0.0062666237
-0.027243573 -0.048564631 0.0087297261
-0.025632765 -0.047770154 0.012931764
-0.024950439 -0.04871276 0.015171617
-0.02338413 -0.047937464 0.01581651
-0.022165548 -0.047830921 0.017972708
-0.020750277 -0.04726452 0.018921673
-0.019869927 -0.047921591 0.019476324
-0.019425381 -0.049777538 0.019263715
-0.017815471 -0.04869562 0.019658446
-0.015715571 -0.046024173 0.019814283
-0.01447859 -0.045663249 0.01988256
-0.014055585 -0.048023246 0.01860714
-0.012773241 -0.047609352 0.018944263
-0.011593902 -0.047534999 0.01988256
-0.010777482 -0.049097419 0.020823747
-0.0095166033 -0.048772592 0.019967169
-0.0082083512 -0.048077486 0.020131081
-0.0071399058 -0.048789356 0.019967169
-0.0060357894 -0.049493473 0.020131081
-0.0047316998 -0.048499919 0.019789755
-0.0035885463 -0.049043465 0.01980409
-0.0023424022 -0.048019245 0.019651949
-0.0011545658 -0.0473372 0.020457298
0 -0.047344852 0.020217866
0.0011637732 -0.047714699 0.020715773
0.0023192321 -0.047544256 0.020929426
0.0034694646 -0.047416016 0.021426469
0.0046243882 -0.047399979 0.021667123
0.0058888504 -0.048288573 0.021667123
0.0070843026 -0.048409402 0.021686703
0.0081964023 -0.048007499 0.021991134
0.009566349 -0.04902754 0.021959275
0.01045543 -0.047630295 0.022118986
0.011683508 -0.047902379 0.021812767
0.0129831 -0.048391555 0.021842986
0.014067286 -0.048063226 0.02155602
0.015227278 -0.04802449 0.020571619
0.016363099 -0.047920506 0.018672645
0.017725898 -0.04845079 0.017558187
0.018920422 -0.04848358 0.014614165
0.01981193 -0.047781717 0.0075438023
-0.026750814 -0.046523154 0.0071826577
-0.025319416 -0.046035301 0.011969924
-0.024468435 -0.046606544 0.015681624
-0.023056561 -0.046113122 0.016397506
-0.021669164 -0.045619294 0.018317431
-0.020833671 -0.046297047 0.020053476
-0.019753996 -0.046479993 0.020194501
-0.018851267 -0.047128167 0.019755155
-0.017767085 -0.047378894 0.019643575
-0.016228355 -0.046366729 0.018933356
-0.015368348 -0.047287226 0.019085109
-0.014022715 -0.046742387 0.018392414
-0.013007278 -0.047299191 0.018393517
-0.011431185 -0.045724738 0.01834175
-0.010706741 -0.047585517 0.019034714
-0.0093361819 -0.046680909 0.018561482
-0.0083035454 -0.047448829 0.018185049
-0.0071724858 -0.047816575 0.018266857
-0.005911733 -0.047293864 0.018547177
-0.0047951262 -0.047951262 0.018630981
-0.0034680122 -0.046240162 0.019432455
-0.0023789946 -0.047579892 0.019288629
-0.0011687159 -0.046748634 0.019984186
0 -0.046965852 0.01994729
0.0011716427 -0.046865709 0.020046771
0.0023504584 -0.04700917 0.020309001
0.0035115476 -0.046820633 0.020742148
0.0047024474 -0.047024477 0.021042258
0.0058626514 -0.046901211 0.02139011
0.0070214053 -0.046809368 0.021406591
0.0082715377 -0.047265932 0.022016376
0.0093654441 -0.046827219 0.021854758
0.010525689 -0.04678084 0.022090763
0.011687811 -0.046751246 0.021546602
0.012830271 -0.046655532 0.022216469
0.013882292 -0.046274304 0.021889001
0.015530762 -0.047786962 0.019372135
0.016465528 -0.047044363 0.019232094
0.01731923 -0.046184611 0.016165763
0.018763531 -0.046908829 0.010819465
-0.026840338 -0.045511879 0.0068019331
-0.025473373 -0.045157343 0.013078541
-0.024481148 -0.045464989 0.016652316
-0.023269638 -0.045375794 0.017273098
-0.022025524 -0.045210283 0.019210249
-0.020870887 -0.045220252 0.020242661
-0.019600658 -0.044966217 0.020242661
-0.018317003 -0.044647697 0.01980266
-0.018122571 -0.047118682 0.018986672
-0.016160907 -0.045019671 0.018980533
-0.015293036 -0.045879107 0.01887539
-0.014198202 -0.046144154 0.01839149
-0.013017294 -0.046152227 0.01801613
-0.011838336 -0.046169512 0.018149137
-0.01047189 -0.04537819 0.018327117
-0.0095619597 -0.046614554 0.018154651
-0.0083594257 -0.046573941 0.017887652
-0.0070327232 -0.045712702 0.01805988
-0.0059611006 -0.046496585 0.018125772
-0.0046468261 -0.045306552 0.01772511
-0.0035470233 -0.046111304 0.017851681
-0.0023750847 -0.04631415 0.018177807
-0.0011834071 -0.046152879 0.018662155
0 -0.04522559 0.019382119
0.0011947486 -0.046595193 0.019415885
0.0023558168 -0.045938428 0.019562244
0.0035440966 -0.046073254 0.019705743
0.0046851169 -0.04567989 0.020138711
0.0058464757 -0.045602512 0.020846009
0.0071219811 -0.046292879 0.020991117
0.008227556 -0.045839239 0.021846861
0.0094254017 -0.045948837 0.022388935
0.010640871 -0.04611044 0.022425979
0.011738368 -0.045779638 0.021427006
0.012879176 -0.045662533 0.02132681
0.01406948 -0.045725811 0.02081266
0.015278775 -0.045836326 0.020018309
0.016423672 -0.045751661 0.017312378
0.017813642 -0.046315469 0.014983982
-0.026637072 -0.044009075 0.0051694214
-0.025694139 -0.044380788 0.010003835
-0.02416252 -0.043722656 0.01310128
-0.023136662 -0.043959659 0.017502248
-0.022039205 -0.04407841 0.019432098
-0.021097654 -0.044539493 0.019551605
-0.019936023 -0.044562872 0.019663662
-0.018196929 -0.043217707 0.019524515
-0.018838963 -0.047725372 0.019643813
-0.016648743 -0.045189448 0.019225091
-0.015265956 -0.044623565 0.019061148
-0.01397427 -0.044251855 0.018116057
