ply
format ascii 1.0
comment PCL generated
element vertex 1272
property float x
property float y
property float z
element camera 0
property float view_px
property float view_py
property float view_pz
property float x_axisx
property float x_axisy
property float x_axisz
property float y_axisx
property float y_axisy
property float y_axisz
property float z_axisx
property float z_axisy
property float z_axisz
property float focal
property float scalex
property float scaley
property float centerx
property float centery
property int viewportx
property int viewporty
property float k1
property float k2
end_header
0.029389629 -0.074061863 0.013708085
0.030411914 -0.073690407 0.013144374
0.031328786 -0.0731005 0.012109339
0.033184119 -0.074664265 0.011521637
0.03409908 -0.074077308 0.01003319
0.035026249 -0.073555127 0.0088028908
0.036487993 -0.074153021 0.0074651539
0.037585836 -0.073997118 0.0062139332
0.039821714 -0.076023273 0.0056707859
0.040017638 -0.074150331 0.0053643882
-0.018942587 -0.073402524 0.0055789649
-0.017629884 -0.072870187 0.0067044199
-0.016627265 -0.073635034 0.007317096
-0.015482827 -0.073841177 0.0076019168
-0.014055613 -0.072620668 0.0081660151
-0.012805568 -0.072176836 0.0088152289
-0.011623927 -0.072068349 0.0095132887
-0.010599107 -0.07301607 0.0097460747
-0.0093829697 -0.072718017 0.011229128
-0.0082143173 -0.072755381 0.011230886
-0.0069611357 -0.071931735 0.011599839
-0.0057481807 -0.07127744 0.012108684
-0.0046719741 -0.072415598 0.013007134
-0.0034899933 -0.07212653 0.013274014
-0.0023039281 -0.071421772 0.013886631
-0.0011459475 -0.071048744 0.014706433
0 -0.071898289 0.015348375
0.0011456431 -0.071029872 0.016124725
0.0023036846 -0.071414225 0.016577542
0.0034322774 -0.070933729 0.016696483
0.0045604408 -0.070686832 0.016746432
0.0057493984 -0.071292542 0.016790509
0.0069311843 -0.071622238 0.017059207
0.0080519654 -0.071317405 0.017602056
0.0092018163 -0.071314074 0.017661691
0.010346565 -0.071276337 0.017309695
0.011525935 -0.071460798 0.017446429
0.012754019 -0.071886294 0.017344236
0.01383507 -0.071481198 0.017398924
0.01478985 -0.070536204 0.017338037
0.016097415 -0.071288548 0.017338037
0.017190004 -0.071052015 0.017224193
0.018360518 -0.07114701 0.017479599
0.019478127 -0.071037874 0.017464757
0.020770548 -0.071542993 0.01721254
0.022318278 -0.072828062 0.016936243
0.023269951 -0.072136849 0.016822696
0.024006438 -0.070876151 0.016379893
0.025409715 -0.071609199 0.015843332
0.026576366 -0.07164064 0.015072942
0.027459435 -0.070936874 0.014555067
0.028635688 -0.071016505 0.014154345
0.030067056 -0.07169836 0.013583124
0.031303637 -0.071882427 0.012535751
0.033028889 -0.073135398 0.011839539
0.033837922 -0.072343141 0.010056138
0.035464626 -0.073293567 0.0083313286
0.03689013 -0.073780261 0.0077012181
0.037140507 -0.071959734 0.0074798465
0.03839156 -0.0721296 0.0064899921
0.039965454 -0.072878182 0.0061920285
0.04143782 -0.073404141 0.0050888956
-0.018811751 -0.071719803 0.0051194429
-0.0176578 -0.07180839 0.0063094795
-0.016321931 -0.071116984 0.0072494447
-0.015290271 -0.071746655 0.0080944002
-0.014072834 -0.071536906 0.0084985197
-0.01293316 -0.07172025 0.008787334
-0.011562176 -0.070529275 0.0098541677
-0.010564914 -0.071606643 0.010510534
-0.0093540298 -0.071324475 0.011507839
-0.0081519168 -0.071038134 0.011880159
-0.0069770459 -0.070933297 0.012277216
-0.005940136 -0.072469659 0.012908429
-0.0046063531 -0.070246883 0.013810635
-0.0034862594 -0.070887275 0.013694346
-0.0023014359 -0.07019379 0.014304608
-0.0011719191 -0.071487062 0.01511398
0 -0.069496363 0.016054243
0.0011542605 -0.070409887 0.016423881
0.0022963211 -0.07003779 0.016906679
0.0034449759 -0.070047848 0.017008513
0.0046482445 -0.070885725 0.017032713
0.0057452978 -0.070092633 0.01704812
0.0068448042 -0.06958884 0.017420143
0.008185585 -0.071331523 0.017663181
0.0091670081 -0.069898434 0.017505229
0.010389042 -0.070414618 0.017255336
0.011532349 -0.070347331 0.017097682
0.012764432 -0.070784576 0.017059803
0.013693038 -0.069606282 0.017352968
0.014966681 -0.070228271 0.017314404
0.016138759 -0.070318878 0.017425358
0.017448783 -0.070958383 0.017097682
0.018237391 -0.069530055 0.017476588
0.019675167 -0.070599131 0.017605573
0.02096713 -0.071055271 0.017303914
0.022009237 -0.070661232 0.017213017
0.022814509 -0.06958425 0.017490596
0.02449234 -0.071144417 0.016964257
0.025298076 -0.070144668 0.016504735
0.026658216 -0.070702225 0.016382337
0.029983882 -0.076209031 0.015409976
0.03070125 -0.07491105 0.014935464
0.030579783 -0.071744874 0.014509678
0.031429201 -0.071006708 0.013061881
0.032888729 -0.071650445 0.011283696
0.034236953 -0.072015665 0.0092071295
0.035030335 -0.071228348 0.0079991817
0.036855526 -0.072522163 0.0073183179
0.037578594 -0.071634196 0.0069081187
0.038689055 -0.071516134 0.0056527257
0.039774794 -0.071360663 0.0054970086
-0.018787866 -0.070454501 0.0054469109
-0.01775134 -0.071005359 0.006444633
-0.016368322 -0.070149951 0.0075618327
-0.015293806 -0.070586793 0.0084270239
-0.014028611 -0.070143051 0.0089018345
-0.012979007 -0.07079459 0.0095103681
-0.011749338 -0.07049603 0.01054126
-0.010496125 -0.069974162 0.011322528
-0.0094005251 -0.070503935 0.011938184
-0.0081648929 -0.069984794 0.01235956
-0.0069907256 -0.069907255 0.012798846
-0.0058547291 -0.070256747 0.01327908
-0.0046924404 -0.070386603 0.014039636
-0.0034329931 -0.068659864 0.014572114
-0.002318538 -0.069556139 0.015009135
-0.001160437 -0.06962622 0.01537618
0 -0.068555817 0.016285926
0.0011587318 -0.069523908 0.016517192
0.0022917425 -0.068752274 0.017425418
0.0035153879 -0.070307754 0.017246425
0.0046069417 -0.069104128 0.017635047
0.0057624732 -0.06914968 0.017631978
0.0069446904 -0.069446906 0.017784119
0.0080604665 -0.069089711 0.017765313
0.0092519596 -0.069389701 0.017531186
0.010251188 -0.068341255 0.017452866
0.011563653 -0.069381915 0.017050654
0.012402446 -0.0676497 0.016520321
0.013743728 -0.068718642 0.016970605
0.015243164 -0.070353061 0.017256051
0.01647824 -0.070621029 0.017236382
0.01795947 -0.07183788 0.016683668
0.018743079 -0.07028655 0.017223895
0.019269103 -0.068008602 0.017897666
0.020683985 -0.068946622 0.017680794
0.021882594 -0.069102928 0.017649919
0.022975558 -0.068926677 0.018193275
0.024494186 -0.069983386 0.017871469
0.026715325 -0.07285998 0.017461598
0.027879605 -0.072729401 0.0168688
0.028267572 -0.070668928 0.015887976
0.029082298 -0.069797516 0.015198022
0.031271003 -0.07216385 0.014015198
0.031700607 -0.070445798 0.013126791
0.032554403 -0.069759436 0.010882854
0.034228977 -0.070818573 0.0090105832
0.035227906 -0.070455812 0.0081492066
0.036890324 -0.071400627 0.0074332058
0.037861157 -0.070989668 0.0061765611
0.039040469 -0.070982672 0.0057856441
-0.018989762 -0.070024744 0.005033195
-0.017699629 -0.069618538 0.0060521662
-0.016461493 -0.069373436 0.0073797107
-0.015293289 -0.069408 0.0087422132
-0.014016435 -0.068914138 0.0091541111
-0.012993978 -0.069694974 0.0099627674
-0.011487122 -0.06777402 0.011008978
-0.010657424 -0.069865331 0.011897653
-0.009287185 -0.068492994 0.012431353
-0.0080878753 -0.068169236 0.013163805
-0.0069875559 -0.068710968 0.013459325
-0.0058000199 -0.068440236 0.014008015
-0.004636005 -0.068381071 0.014352411
-0.0035139883 -0.069108434 0.014823526
-0.0023197944 -0.068433933 0.01543048
-0.0011528429 -0.068017729 0.015923768
0 -0.067834675 0.017039269
0.0011577153 -0.068305202 0.016890198
0.0022973809 -0.067772739 0.017282754
0.0035022944 -0.068878457 0.017551512
0.0045962958 -0.067795359 0.017802238
0.0057348548 -0.067671284 0.018025845
0.0069279955 -0.068125293 0.017692357
0.0079659577 -0.067141645 0.017828196
0.0091766007 -0.067677431 0.017715722
0.010265038 -0.067293033 0.016881526
0.011538268 -0.068075784 0.015945345
0.012962501 -0.069526143 0.015629768
0.014208569 -0.069858797 0.016008407
0.015284584 -0.069368497 0.017020822
0.016245041 -0.068461247 0.017008603
0.017319836 -0.068124682 0.016561568
0.01884078 -0.069475375 0.016662002
0.019573513 -0.0679316 0.018500954
0.020459786 -0.067062631 0.018162847
0.02167487 -0.067306176 0.018748313
0.024480874 -0.072218575 0.01921013
0.024773048 -0.06960047 0.019169539
0.025135785 -0.067409605 0.018921554
0.02654317 -0.068089001 0.018287987
0.028056502 -0.068972237 0.016862661
0.028338119 -0.066877961 0.016234547
0.031119924 -0.070618287 0.014788091
0.032460835 -0.07093294 0.012853473
0.033175893 -0.069906346 0.010525763
0.034247208 -0.069675356 0.0096246004
0.035740536 -0.070289716 0.0086056292
0.036851484 -0.070136696 0.0072454214
0.037253741 -0.06868659 0.0062781572
0.0393737 -0.070395403 0.0060172975
-0.018009374 -0.069636241 0.0061566532
-0.016367083 -0.06780649 0.0077060461
-0.015205616 -0.067840442 0.0090579093
-0.014133491 -0.06831187 0.0098859668
-0.012819319 -0.067592777 0.010311365
-0.011634594 -0.067480639 0.011086941
-0.01059069 -0.068251118 0.012341678
-0.0093189515 -0.067562401 0.013027579
-0.008127179 -0.06733948 0.013719916
-0.0069737439 -0.067412861 0.013940334
-0.0058165253 -0.06747169 0.014273167
-0.0046258196 -0.067074381 0.014592707
-0.003505622 -0.067775361 0.015030086
-0.0023326103 -0.067645699 0.015515029
-0.0011512095 -0.066770151 0.015891522
0 -0.067370966 0.016642958
0.0011502957 -0.066717148 0.017008811
0.0023108034 -0.067013294 0.017228693
0.0034524456 -0.066747285 0.017072469
0.0045895167 -0.06654799 0.017343372
0.0058049527 -0.067337453 0.017793149
0.0069894581 -0.067564763 0.016945541
0.007963893 -0.065986544 0.017026335
0.0092302784 -0.06691952 0.016060591
0.010535332 -0.067894369 0.015181273
0.011683919 -0.067766726 0.014241517
0.012945912 -0.06826026 0.013930321
0.014214592 -0.06870386 0.014008671
0.014961846 -0.066752851 0.015465617
0.016375605 -0.067841798 0.015632272
0.017649623 -0.06824521 0.015584052
0.018757252 -0.067995042 0.015804768
0.019904772 -0.067910396 0.01829648
0.020336177 -0.065527678 0.018570572
0.022227652 -0.067852832 0.019051343
0.02318419 -0.067234151 0.020219982
0.024166564 -0.066745751 0.020193726
0.025127972 -0.066246472 0.019739926
0.025914002 -0.06534835 0.019478679
0.027900662 -0.0674266 0.018163919
0.02847057 -0.066051722 0.017318964
0.02999665 -0.066915601 0.015321881
0.030905664 -0.066389941 0.013431937
0.034045734 -0.070523307 0.010431468
0.03419476 -0.06838952 0.0095054209
0.035806593 -0.069226079 0.0079144537
0.037034567 -0.069290482 0.0071935952
0.037965287 -0.06881208 0.0063798428
0.039011594 -0.068565831 0.0062668622
0.040503222 -0.069093734 0.0054593086
-0.019254066 -0.068592608 0.0051389039
-0.017737385 -0.067402065 0.0061101615
-0.01665015 -0.067789897 0.0072174072
-0.015471653 -0.067837246 0.0090180635
-0.01404004 -0.066690192 0.009681046
-0.012894403 -0.066816449 0.010456294
-0.011735133 -0.066890262 0.011487603
-0.010499758 -0.066498466 0.012208372
-0.0094198585 -0.067116491 0.013558477
-0.0081660133 -0.066494673 0.013688892
-0.0069547691 -0.066070311 0.014072061
-0.0057946215 -0.066058688 0.014237821
-0.0046358272 -0.066060536 0.01457721
-0.0034522742 -0.065593213 0.014895558
-0.0023500442 -0.066976264 0.015374333
-0.0011467051 -0.065362193 0.015842199
0 -0.0662826 0.016098052
0.0011612042 -0.066188641 0.016317189
0.0022741382 -0.064812936 0.016387075
0.0034676257 -0.065884888 0.016582936
0.0046082921 -0.065668166 0.017039269
0.0057248729 -0.065263554 0.017171502
0.0071459166 -0.067886211 0.016237289
0.0082470253 -0.067154348 0.015703082
0.0094227819 -0.067137316 0.014499784
0.010412602 -0.065946482 0.01399228
0.011719299 -0.066799998 0.013841659
0.012822057 -0.066441573 0.013498396
0.01406123 -0.066790849 0.013498396
0.014999097 -0.065765269 0.014868319
0.01640211 -0.066780023 0.015700847
0.017556578 -0.066714995 0.016207188
0.018585933 -0.066212386 0.01611644
0.020037314 -0.067183934 0.019287795
0.021818366 -0.069091491 0.019040972
0.022213886 -0.066641659 0.019895107
0.023267029 -0.066311032 0.020957291
0.024187081 -0.065650649 0.020698845
0.024964767 -0.064681441 0.020519793
0.026024535 -0.064495586 0.020181894
0.027738778 -0.065879598 0.019076645
0.028499506 -0.064978875 0.017972231
0.029909818 -0.065571524 0.015538514
0.031209346 -0.065886401 0.013676614
0.032483943 -0.066128023 0.010655701
0.034076888 -0.066978715 0.0092642009
0.035928942 -0.068264991 0.0075264573
0.036503844 -0.067119971 0.0070151091
0.038317244 -0.068252593 0.006739229
0.039049882 -0.067449801 0.0064326823
0.040138181 -0.067290477 0.005515039
-0.01917325 -0.067106374 0.0050357878
-0.018174835 -0.067852721 0.0062869489
-0.01659219 -0.066368759 0.0074561536
-0.015285626 -0.065845773 0.0094679594
-0.014166448 -0.066110097 0.010230839
-0.012958705 -0.065971591 0.01090467
-0.011752176 -0.065812185 0.011701882
-0.010550724 -0.065648951 0.01291278
-0.009390614 -0.065734297 0.013729692
-0.0081711169 -0.065368935 0.0140706
-0.0070830518 -0.06610848 0.014197469
-0.0057982644 -0.064940557 0.014354974
-0.0046221702 -0.064710379 0.014502734
-0.0034886366 -0.065121211 0.014892578
-0.002296062 -0.064289734 0.015076339
-0.0011510882 -0.064460933 0.015733987
0 -0.064723849 0.016049445
0.0011499914 -0.064399518 0.016049445
0.0022743724 -0.063682422 0.015975773
0.0034718211 -0.064807326 0.01584965
0.0045924396 -0.064294152 0.01591751
0.0059210225 -0.06631545 0.0159446
0.0069938647 -0.065276071 0.014693648
0.0082444623 -0.065955698 0.014999568
0.0093487045 -0.065440938 0.014653116
0.010398324 -0.064700678 0.01434046
0.011886783 -0.066565983 0.013995409
0.01290578 -0.065702155 0.013991535
0.014012251 -0.065390505 0.013728768
0.015226253 -0.065590017 0.014351755
0.016496714 -0.065986857 0.015429765
0.017135542 -0.063972689 0.015847057
0.018712522 -0.06549383 0.016617179
0.019597504 -0.064556487 0.018761545
0.020560695 -0.063966602 0.01973775
0.021685423 -0.063914932 0.020067245
0.022619532 -0.063334689 0.021032482
0.024144843 -0.064386249 0.020989537
0.024777282 -0.06306944 0.02080971
0.025818752 -0.062863044 0.020883024
0.026876066 -0.062710822 0.020042211
0.028616447 -0.064100839 0.017948896
0.029168339 -0.062824115 0.015230268
0.032069303 -0.066514105 0.011289239
0.03179634 -0.06359268 0.009686023
0.03515536 -0.067886211 0.0084629953
0.035445962 -0.066165797 0.0068750381
0.036852185 -0.06657169 0.0065269172
0.037872229 -0.066276401 0.0061692297
0.039166089 -0.066463672 0.0053119063
-0.017909892 -0.065669604 0.0055725574
-0.016476994 -0.064731054 0.0074329376
-0.015685333 -0.066361025 0.0092433393
-0.01407792 -0.064523801 0.010670662
-0.012838016 -0.064190082 0.011349529
-0.011693008 -0.064311549 0.011928737
-0.010488146 -0.064094223 0.013386548
-0.0093067205 -0.063983701 0.013892382
-0.0081778783 -0.064254761 0.014578432
-0.0069992938 -0.064160191 0.014886945
-0.0058317259 -0.064148985 0.014729589
-0.0046538133 -0.063989937 0.01453492
-0.003511823 -0.064383425 0.014682055
-0.0022998182 -0.063245006 0.015000939
-0.0011777051 -0.064773776 0.015390724
0 -0.062779956 0.015230894
0.0011413892 -0.062776409 0.015390724
0.0023105422 -0.063539915 0.014611304
0.0035467364 -0.065023504 0.014183402
0.0046940269 -0.064542875 0.014396697
0.0058219773 -0.064041749 0.014909714
0.0070215925 -0.064364597 0.01469788
0.0082832156 -0.065082408 0.014984161
0.0093515581 -0.064291961 0.01479277
0.010693193 -0.065347292 0.014224321
0.011802044 -0.064911239 0.014200091
0.012983408 -0.064917043 0.013964951
0.014207284 -0.065116718 0.013936669
0.015516699 -0.065647572 0.014438182
0.01648893 -0.064777941 0.014842957
0.017827692 -0.065368205 0.015963972
0.019332912 -0.066456884 0.016831845
0.019356191 -0.062622972 0.019029588
0.020808112 -0.063580342 0.020046264
0.021670168 -0.062729433 0.02067101
0.02279333 -0.06268166 0.021845996
0.023090407 -0.060474876 0.021762818
0.024827855 -0.062069636 0.022238165
0.025457462 -0.060876541 0.021609038
0.027380815 -0.062747702 0.02067101
0.028541664 -0.06279166 0.018996477
0.028957726 -0.061256729 0.01561442
0.031243457 -0.063644081 0.0113509
0.032846104 -0.064519137 0.0085091591
0.033849258 -0.064196862 0.0077590942
0.035945196 -0.065899521 0.006642729
0.037232384 -0.066057459 0.0058739483
0.037871979 -0.065092467 0.0057629049
-0.017809207 -0.06411314 0.0059274733
-0.016625986 -0.064128801 0.007101655
-0.015258398 -0.063381039 0.0089739561
-0.014177871 -0.063800417 0.0104433
-0.013225138 -0.064923406 0.011148721
-0.011537503 -0.062302515 0.01199314
-0.010459486 -0.062756918 0.013783544
-0.009355329 -0.063148469 0.014295191
-0.0081491899 -0.062865175 0.015155554
-0.0069838408 -0.062854566 0.015323907
-0.0058292071 -0.062955439 0.015296757
-0.0046532596 -0.062819012 0.015291691
-0.0034673526 -0.062412344 0.015013844
-0.0023224512 -0.062706187 0.014932424
-0.001139177 -0.061515555 0.015306264
0 -0.062289052 0.015212059
0.0011859774 -0.064042777 0.014989346
0.0024052043 -0.06494052 0.014624327
0.0035011724 -0.063021101 0.014624327
0.0047105388 -0.063592277 0.01471588
0.0058861799 -0.063570745 0.01479879
0.0070094322 -0.063084893 0.014877796
0.0082293721 -0.06348373 0.015408486
0.009516174 -0.064234175 0.015115947
0.010386562 -0.062319372 0.014942825
0.011812249 -0.063786142 0.014970034
0.012992623 -0.063781969 0.014958233
0.014511175 -0.065300286 0.015189409
0.01530353 -0.06356851 0.015809298
0.016335245 -0.063007377 0.015925676
0.01747489 -0.062909603 0.01647076
0.018820263 -0.06351839 0.017497152
0.019338274 -0.061427455 0.019758821
0.020742051 -0.062226158 0.020913303
0.021636276 -0.06149257 0.021425754
0.022868423 -0.061744738 0.022900671
0.023503989 -0.06043883 0.022743136
0.024561035 -0.060286175 0.02411586
0.025830567 -0.060645681 0.022307932
0.027307373 -0.061441585 0.021272689
0.028132182 -0.060765512 0.019629836
0.029086821 -0.060411088 0.015092701
0.029847626 -0.059695251 0.010513902
0.032997146 -0.063637353 0.0074675381
0.033126116 -0.061683115 0.0070791841
0.03695292 -0.066515259 0.0065036118
0.03651249 -0.063602403 0.0053579509
0.038048383 -0.064206645 0.0052678585
-0.016651262 -0.063036919 0.0061886311
-0.015300066 -0.062377192 0.0078352988
-0.014143246 -0.062466003 0.009811908
-0.013025884 -0.062761076 0.011283159
-0.011612194 -0.061544627 0.012074322
-0.010576069 -0.062281299 0.012910336
-0.0092776371 -0.061464343 0.014004439
-0.008110635 -0.061409093 0.014791936
-0.0069698049 -0.06156661 0.015401393
-0.0058236048 -0.06173021 0.015371919
-0.0046468265 -0.061570451 0.015325665
-0.0034387584 -0.060751401 0.015103132
-0.0022961979 -0.060849242 0.01531595
-0.0012000944 -0.063604996 0.015618742
0 -0.062901057 0.015588611
0.0011704759 -0.062035222 0.014888167
0.0023069237 -0.061133482 0.014411271
0.0034983594 -0.06180435 0.014540911
0.0046643768 -0.061802994 0.015131831
0.005835792 -0.061859395 0.015254796
0.0071229995 -0.062919833 0.015200078
0.0080133844 -0.060672767 0.015697002
0.009321508 -0.061754987 0.015759826
0.010641872 -0.0626688 0.01535511
0.011751101 -0.062280837 0.01545006
0.012773247 -0.061543822 0.015991539
0.013972925 -0.061713751 0.015866101
0.015202669 -0.061980113 0.016430736
0.016525917 -0.062562399 0.016342789
0.017421551 -0.061556146 0.017065525
0.018389251 -0.060914394 0.018560797
0.02007379 -0.062582992 0.020073712
0.019875865 -0.058523383 0.021734655
0.021540938 -0.060087878 0.021907002
0.022159413 -0.058722444 0.023179412
0.023858709 -0.060214836 0.022911757
0.025014251 -0.060261603 0.023026437
0.0259181 -0.059724316 0.02281177
0.026807414 -0.059199709 0.021708101
0.028453875 -0.060322218 0.019454122
0.029919391 -0.060989529 0.013345987
0.03115203 -0.061150283 0.0094186068
0.032584567 -0.061677929 0.0073235035
0.034540847 -0.063126378 0.0071792901
0.035976965 -0.063559309 0.0060574412
0.036540035 -0.062471673 0.0052677691
-0.015622776 -0.062491104 0.0070869327
-0.014284709 -0.061900407 0.0081086457
-0.012919671 -0.061074808 0.010412753
-0.011636253 -0.060508512 0.011337936
-0.010402505 -0.060103364 0.012540758
-0.0092788488 -0.060312517 0.013103604
-0.0081978617 -0.060898405 0.013659447
-0.0069454843 -0.060194198 0.014008462
-0.005749403 -0.059793793 0.014306635
-0.0046025771 -0.059833501 0.014477938
-0.0035887724 -0.062205385 0.014471918
-0.0023742681 -0.06173097 0.014359325
-0.0011963483 -0.062210113 0.0149782
0 -0.061253175 0.014796019
0.0011653258 -0.060596939 0.014577806
0.0022911357 -0.05956953 0.014191359
0.0035260583 -0.061118342 0.01488021
0.0046089157 -0.0599159 0.015369803
0.0058036428 -0.060357884 0.015722871
0.0069491407 -0.060225889 0.016170651
0.0082025537 -0.060933258 0.01629585
0.0093646469 -0.060870204 0.01607725
0.010509443 -0.060721222 0.015992254
0.011934197 -0.062057819 0.016091555
0.012844611 -0.060719978 0.016412824
0.014171396 -0.061409388 0.016555458
0.015260082 -0.061040327 0.016986132
0.016227037 -0.060271848 0.017684221
0.017296834 -0.059962355 0.018242031
0.018363401 -0.059681054 0.019145936
0.019896267 -0.06085917 0.020020545
0.020300454 -0.058645755 0.021579117
0.021059107 -0.057635453 0.022478104
0.022062525 -0.057362564 0.023065448
0.024209501 -0.059947338 0.023772836
0.024293223 -0.057420347 0.023087561
0.026113247 -0.059038647 0.023183078
0.027383335 -0.059330557 0.021642894
0.029271204 -0.060884107 0.016816378
0.03027435 -0.0605487 0.01098305
0.031692982 -0.061038338 0.0084280074
0.03383835 -0.062842652 0.0070542395
0.034347847 -0.061589245 0.0057790577
0.036072746 -0.062526099 0.0050829053
-0.015429865 -0.060532544 0.0065931976
-0.014184112 -0.060282476 0.0074186027
-0.01298561 -0.060206011 0.0091841817
-0.011762002 -0.059986208 0.011539251
-0.01048826 -0.059433471 0.012528539
-0.009332167 -0.059492562 0.013057232
-0.0079988008 -0.058276974 0.01334846
-0.0069953487 -0.059460465 0.013532579
-0.0059798942 -0.060994919 0.0133003
-0.004701402 -0.059942879 0.013892621
-0.0035709275 -0.06070577 0.014032245
-0.0023622483 -0.060237329 0.014319062
-0.0011829637 -0.060331147 0.014753699
0 -0.059846397 0.014425814
0.001173638 -0.059855539 0.01408264
0.0023356732 -0.059559666 0.01419118
0.0035520936 -0.060385592 0.015793532
0.0046804356 -0.059675552 0.016480923
0.0058820732 -0.059997145 0.016515702
0.0070900586 -0.0602655 0.017004639
0.0082999822 -0.060471296 0.017127544
0.0094881738 -0.06048711 0.017041355
0.010511294 -0.059563998 0.016962409
0.011749815 -0.059924055 0.017266959
0.012780521 -0.059255145 0.017315686
0.013772502 -0.058533132 0.017478198
0.014874697 -0.058354579 0.018020034
0.016317746 -0.059443217 0.018244624
0.017376648 -0.059080604 0.019543171
0.018342307 -0.058466099 0.020295054
0.019745508 -0.059236526 0.020612836
0.021570025 -0.061115071 0.021724343
0.021606624 -0.057996731 0.023155093
0.022311265 -0.056893725 0.023537636
0.023543991 -0.057178266 0.024074048
0.025569629 -0.05927505 0.023461252
0.026439825 -0.058627438 0.022807926
0.027689021 -0.058839168 0.017579645
0.029728033 -0.060645185 0.011510849
0.031257004 -0.061311815 0.0087922812
0.032301143 -0.061013266 0.0079469085
0.0346069 -0.063033991 0.0056256056
-0.015512452 -0.059663277 0.0058399141
-0.014130205 -0.058875851 0.0075909197
-0.01293351 -0.058788683 0.0087798536
-0.011583616 -0.057918079 0.010221839
-0.010434099 -0.05796722 0.011966884
-0.0093235159 -0.058271974 0.012248635
-0.0083999317 -0.059999511 0.012702376
-0.0070806495 -0.059005413 0.012702376
-0.0059900386 -0.059900388 0.012827337
-0.0047063427 -0.058829281 0.013061941
-0.0035762819 -0.059604701 0.013550222
-0.0023569169 -0.058922924 0.013890207
-0.0011801763 -0.059008814 0.014535457
0 -0.058463443 0.014955491
0.0011653639 -0.058268197 0.015190363
0.0023588676 -0.058971688 0.015242875
0.0035419036 -0.059031725 0.016258866
0.0047543738 -0.059429675 0.016904503
0.0058580777 -0.058580779 0.0175969
0.0070129954 -0.058441628 0.017876208
0.0082262931 -0.058759235 0.018134475
0.00934448 -0.058403 0.017693877
0.010689138 -0.059384104 0.017876208
0.011377648 -0.056888238 0.018185228
0.01263591 -0.057435956 0.018164426
0.014185772 -0.059107386 0.018302828
0.01510298 -0.058088385 0.018736064
0.016393866 -0.05854952 0.018887609
0.017431695 -0.058105651 0.019232899
0.018367868 -0.05739959 0.020255327
0.019427922 -0.057140943 0.020255327
0.021350021 -0.059305616 0.020470798
0.02125288 -0.055928633 0.021143883
0.022472231 -0.056180578 0.021455437
0.024102883 -0.057387818 0.021222949
0.02540794 -0.057745319 0.020798862
0.027688675 -0.060192771 0.016473532
0.02925631 -0.060950648 0.01316902
0.030120857 -0.060241714 0.0098253191
0.031654429 -0.060873903 0.0071602464
0.033956841 -0.062883034 0.0054999888
-0.015552183 -0.058619767 0.0052907467
-0.014093752 -0.057549488 0.0072115362
-0.01263733 -0.056293562 0.0089861453
-0.011634275 -0.057007946 0.01030013
-0.010716101 -0.058343217 0.010708541
-0.0095444564 -0.058459796 0.011079311
-0.0082681654 -0.057877161 0.011270732
-0.0072343061 -0.059080169 0.011667609
-0.0059257816 -0.058072656 0.012337476
-0.0047388077 -0.058050394 0.012733549
-0.0035699108 -0.058308542 0.01287058
-0.0023680297 -0.058016725 0.013030589
-0.0011724435 -0.057449732 0.01384142
0 -0.058408748 0.014822423
0.0011665913 -0.057162974 0.015385866
0.0023475473 -0.057514906 0.015511811
0.0035209002 -0.057508036 0.016549736
0.0047266162 -0.057901051 0.01795584
0.0059352294 -0.058165248 0.018219411
0.0070434008 -0.057521105 0.018771529
0.0081986208 -0.057390347 0.018790275
0.0091500012 -0.056043755 0.018750727
0.01025097 -0.055810839 0.018754393
0.011704357 -0.057351351 0.018979669
0.012868587 -0.057323705 0.018989027
0.013968718 -0.057038933 0.019427985
0.015185457 -0.057237491 0.019749194
0.0160622 -0.0562177 0.019774616
0.017337697 -0.056636475 0.02061668
0.018783158 -0.057523418 0.021031708
0.019534683 -0.056305852 0.021074623
0.020512713 -0.055840164 0.020282179
0.022586934 -0.058250513 0.021334529
0.022504004 -0.055134807 0.021572709
0.024202747 -0.056473076 0.020487279
0.026009362 -0.057929944 0.016707659
0.027940875 -0.059526213 0.014259219
0.02916019 -0.059535388 0.010775894
0.031438336 -0.061619136 0.007148385
0.033766191 -0.063636281 0.0056991577
-0.014681679 -0.058726717 0.0059452057
-0.013420962 -0.058564197 0.0086140633
-0.011862215 -0.056938633 0.0094763041
-0.01080608 -0.057632428 0.010705739
-0.0095951874 -0.057571124 0.011070549
-0.0081691882 -0.056017295 0.011523783
-0.0070777885 -0.056622308 0.011937112
-0.005921524 -0.05684663 0.011928737
-0.004776123 -0.057313476 0.01301384
-0.0035243789 -0.056390062 0.013491392
-0.0024100975 -0.05784234 0.013615727
-0.0011873808 -0.056994274 0.014728814
0 -0.055551816 0.015834183
0.0011806748 -0.056672387 0.016397625
0.002389614 -0.057350736 0.016861588
0.0035880231 -0.05740837 0.018017262
0.0046663941 -0.055996731 0.018546581
0.0057456582 -0.055158321 0.018658996
0.0069238124 -0.0553905 0.019312233
0.0080864131 -0.055449687 0.01925683
0.0093557704 -0.056134623 0.019243151
0.010572406 -0.056386165 0.019322395
0.011575166 -0.055560797 0.019484341
0.01294971 -0.056507826 0.019523203
0.013845149 -0.055380598 0.019585788
0.015268642 -0.056376524 0.020167649
0.016208056 -0.055570476 0.020034701
0.017630121 -0.056416389 0.021013141
0.018282216 -0.054846648 0.021516055
0.020341292 -0.057434235 0.021281689
0.020864595 -0.055638921 0.021266282
0.022264168 -0.056246318 0.02127108
0.02361091 -0.056666184 0.019597858
0.024182294 -0.055273812 0.017034531
0.026578547 -0.057989556 0.014593482
0.028540086 -0.059561919 0.011771977
0.028913449 -0.057826899 0.0089138448
0.031234646 -0.05997052 0.0059243143
0.031260964 -0.057712547 0.0050242543
-0.014555125 -0.057007577 0.0066248178
-0.013299583 -0.056825489 0.0073224008
-0.011792072 -0.055422738 0.0094957054
-0.010740759 -0.056090631 0.010706961
-0.0094946958 -0.055781338 0.011168867
-0.008344518 -0.056027476 0.011791021
-0.0071340809 -0.055883635 0.012398839
-0.0059958692 -0.056361172 0.012241066
-0.0047409884 -0.055706609 0.013001472
-0.0035508808 -0.055630468 0.013705075
-0.0023710707 -0.055720162 0.014022976
-0.0011751822 -0.055233564 0.014743388
0 -0.05616786 0.016023606
0.0011635987 -0.054689139 0.016474634
0.0023781427 -0.055886351 0.017077088
0.0034775406 -0.054481469 0.018179446
0.0045424919 -0.053374279 0.019002497
0.0057657394 -0.054197952 0.019403249
0.0069760741 -0.054645911 0.020156682
0.0080756973 -0.054222539 0.020079583
0.0093147596 -0.054724213 0.020109147
0.010345797 -0.054028053 0.020098895
0.011768303 -0.055311024 0.020410955
0.012710323 -0.05430774 0.020432383
0.013921849 -0.054527242 0.020164192
0.015168754 -0.054840881 0.020563334
0.01662508 -0.055812772 0.02045539
0.017499352 -0.054831304 0.020474911
0.018544283 -0.054473832 0.021811247
0.019716807 -0.054511171 0.021572739
0.020509278 -0.053552005 0.020335168
0.021323366 -0.052747272 0.019765377
0.023521896 -0.055276457 0.017859995
0.02571894 -0.057561439 0.016822904
0.026810136 -0.057276201 0.012829036
0.027617477 -0.056435715 0.010618955
0.028513145 -0.055838238 0.0070078969
0.029982647 -0.056367375 0.0054606497
-0.014547673 -0.05576608 0.0059693456
-0.01309699 -0.054769229 0.0075595379
-0.011912621 -0.054798052 0.0088454187
-0.010599661 -0.054176044 0.010597199
-0.0095609156 -0.054975264 0.011646152
-0.0082390308 -0.054142203 0.012529135
-0.0071285181 -0.054651972 0.013155788
-0.0058562006 -0.053877048 0.013080001
-0.0047589825 -0.054728299 0.013613462
-0.0035930923 -0.055094082 0.01440078
-0.0023777515 -0.054688282 0.014644325
-0.0011813268 -0.054341033 0.015183926
0 -0.054832004 0.016614735
0.001163463 -0.053519297 0.017367095
0.0022966641 -0.052823275 0.018577546
0.0035226755 -0.054014359 0.019615561
0.0046926518 -0.053965498 0.019904435
0.0058135265 -0.053484444 0.020439178
0.0069789174 -0.053505033 0.020894498
0.0081980666 -0.053873006 0.020799369
0.0092712492 -0.053309686 0.021134675
0.010476779 -0.053547982 0.02118066
0.011959552 -0.055013936 0.021011531
0.01264782 -0.052890882 0.020891309
0.014122789 -0.05413736 0.021004826
0.015162241 -0.053651005 0.021094084
0.016582251 -0.054484539 0.020915091
0.017281642 -0.052997038 0.02068451
0.019010952 -0.054656487 0.020954341
0.019577809 -0.052975249 0.020402968
0.021078007 -0.053866018 0.019535035
0.022281155 -0.053943846 0.018017739
0.022980906 -0.05285608 0.017165035
0.025209825 -0.055221524 0.014364123
0.026992025 -0.056437872 0.011747211
0.027274204 -0.054548409 0.0091040432
0.02863845 -0.054890364 0.0067336261
0.029672002 -0.054596487 0.0051525533
-0.013057885 -0.053418621 0.0080696046
-0.012195237 -0.054878566 0.0086840987
-0.010665858 -0.053329289 0.011097372
-0.0095841642 -0.053910922 0.012273431
-0.0083046034 -0.053386737 0.013006151
-0.0071346159 -0.053509619 0.013581246
-0.0059429738 -0.053486764 0.013592243
-0.0047774366 -0.05374616 0.013633251
-0.0036083972 -0.054125957 0.014797211
-0.0023471043 -0.052809849 0.015125901
-0.0011824039 -0.053208172 0.015694529
0 -0.051444151 0.017160714
0.0011627713 -0.052324709 0.018039495
0.0023473483 -0.052815337 0.019947618
0.0035500496 -0.053250745 0.020232201
0.0046328208 -0.052119236 0.020894498
0.0057180091 -0.05146208 0.021271974
0.0070014708 -0.052511029 0.021785796
0.0081569552 -0.052437566 0.021767408
0.0092983898 -0.052303441 0.021560103
0.010454099 -0.052270494 0.021660507
0.011502825 -0.051762711 0.021094292
0.012660993 -0.051794972 0.021401912
0.014274658 -0.053529967 0.021237075
0.015364773 -0.05318575 0.021091729
0.016443769 -0.05285497 0.021001011
0.017723657 -0.053170972 0.020891309
0.018790336 -0.052847825 0.020891309
0.019725531 -0.052214641 0.020178407
0.02088248 -0.0522062 0.018790066
0.022270348 -0.052745558 0.018191516
0.023588205 -0.053073458 0.016479611
0.024943456 -0.053450264 0.013692588
0.026046041 -0.053275995 0.011416018
0.027945748 -0.054676462 0.0084910691
0.028968083 -0.054315157 0.006724894
0.030225251 -0.054405455 0.0054772496
0.031416617 -0.054374915 0.005232811
0.032254942 -0.053758234 0.0053977072
-0.013260726 -0.053042904 0.006767422
-0.011867649 -0.052217659 0.009210825
-0.010875729 -0.05317023 0.011761546
-0.0094790934 -0.052135013 0.012668133
-0.0083982935 -0.052789275 0.013638616
-0.0071070157 -0.052118115 0.014110535
-0.0059635649 -0.052479371 0.014191329
-0.0047522075 -0.052274283 0.01408276
-0.0035624045 -0.052248601 0.015015095
-0.0022853448 -0.050277587 0.015607774
-0.0011639624 -0.051214349 0.016842276
0 -0.051914722 0.017950922
0.0011659745 -0.05130288 0.018515885
0.0023269276 -0.051192407 0.019819319
0.0034682045 -0.050866999 0.020764589
0.0046995301 -0.051694829 0.021781445
0.0058654072 -0.051615581 0.021853209
0.0069215582 -0.050758094 0.021859229
0.0081832157 -0.051437356 0.021726429
0.0092201335 -0.050710734 0.021795481
0.010539428 -0.051526092 0.021726429
0.011741475 -0.05166249 0.021475941
0.012877902 -0.051511608 0.021549046
0.01393206 -0.05108422 0.021357954
0.015114861 -0.051157989 0.021187961
0.016312856 -0.051268976 0.021135896
0.017322019 -0.050811257 0.0205338
0.018465286 -0.050779536 0.020316124
0.019534498 -0.050559878 0.019214064
0.020441219 -0.049967427 0.018492669
0.022397105 -0.051866982 0.01745075
0.023504829 -0.051710624 0.016044527
0.024368759 -0.051058352 0.013971329
0.026520912 -0.053041823 0.011737287
0.028283942 -0.054108415 0.0091151297
0.028745405 -0.052699912 0.0071777701
0.030233704 -0.05321132 0.00628075
0.031238738 -0.052865557 0.006401062
0.032784734 -0.053426974 0.0057033002
-0.012969365 -0.050698429 0.0069726706
-0.012010544 -0.051645339 0.0093240142
-0.010761851 -0.051417738 0.01196143
-0.0096378019 -0.051803183 0.012966841
-0.0084731597 -0.052049406 0.0138731
-0.00719789 -0.051584881 0.014697075
-0.0058838259 -0.050600905 0.014889985
-0.0046150051 -0.049611308 0.014903486
-0.0035321184 -0.05062703 0.015479386
-0.0023351489 -0.050205704 0.016048551
-0.00118039 -0.050756767 0.017121643
0 -0.049886461 0.018137634
0.0011689878 -0.050266474 0.019100398
0.002358075 -0.050698612 0.020970196
0.0034876694 -0.049989928 0.02167958
0.0046381741 -0.049860373 0.022261262
0.0058478541 -0.050291546 0.022279412
0.0070468141 -0.05050217 0.02230528
0.008189369 -0.050306126 0.022063434
0.009318362 -0.050086197 0.021992147
0.010517713 -0.050251294 0.02189362
0.011856328 -0.050982211 0.021766007
0.013063231 -0.051065356 0.021842271
0.014171517 -0.050781272 0.021697015
0.015031215 -0.049718633 0.021147907
0.016439471 -0.050492663 0.020679235
0.017725457 -0.050812975 0.020297348
0.01878445 -0.050483208 0.019673258
0.02009416 -0.050826404 0.01906985
0.020754145 -0.049579348 0.018436283
0.02231659 -0.050505966 0.016785115
0.023164315 -0.049803276 0.015251786
0.024403816 -0.049969718 0.014023513
0.025826341 -0.050478756 0.012493819
0.028126348 -0.052584041 0.0099588633
0.029206168 -0.052327719 0.0080835521
0.030486913 -0.052437492 0.0070309341
0.031029014 -0.051317215 0.0066165328
0.032642547 -0.051986277 0.0058778822
-0.013183448 -0.050336804 0.0064848065
-0.011838226 -0.049720548 0.010322154
-0.010592491 -0.049431626 0.012821734
-0.0095930835 -0.050363686 0.013289183
-0.0081506623 -0.048903972 0.014693737
-0.0069459607 -0.048621725 0.015379876
-0.005851299 -0.04915091 0.016214609
-0.0046994621 -0.049344353 0.016230196
-0.0035297957 -0.049417138 0.016213655
-0.0023760381 -0.049896799 0.016659796
-0.001159372 -0.048693627 0.01826334
0 -0.049940962 0.018595964
0.0011841278 -0.049733367 0.019704223
0.0023178686 -0.048675243 0.021034032
0.0035008942 -0.049012519 0.021455497
0.004601907 -0.048320025 0.022176892
0.0058601396 -0.049225174 0.022114545
0.0069975397 -0.048982777 0.022030175
0.0081574898 -0.048944943 0.022246271
0.0094589647 -0.049659565 0.022246271
0.010433387 -0.048689138 0.021884173
0.011654749 -0.048949946 0.021747977
0.012765075 -0.048739377 0.021688581
0.014031316 -0.049109608 0.021613955
0.01496886 -0.048360933 0.02145353
0.01648665 -0.049459949 0.021147817
0.017595036 -0.0492661 0.020406067
0.018675564 -0.049023356 0.020258874
0.019540409 -0.048276305 0.019281387
0.02059987 -0.048066366 0.018556267
0.022156084 -0.048976608 0.016860515
0.02369084 -0.049750764 0.015922815
0.025020534 -0.050041068 0.014552027
0.025256148 -0.048216283 0.013064086
0.028279399 -0.051640641 0.010319084
0.028511295 -0.049894765 0.008335948
0.030356547 -0.050999001 0.0074467361
0.031948645 -0.051609349 0.0063292086
0.032574065 -0.050670769 0.0050595999
-0.012970361 -0.048344072 0.0066913664
-0.011757265 -0.048204787 0.010858953
-0.010806561 -0.049229886 0.01400274
-0.0093634631 -0.047987748 0.014550894
-0.0081690894 -0.047847524 0.015481383
-0.0070843026 -0.048409402 0.016641587
-0.0060141454 -0.049315993 0.016931146
-0.0047648684 -0.048839904 0.017157316
-0.0035519621 -0.048543483 0.017620087
-0.0023391095 -0.047951747 0.018043727
-0.0011595659 -0.047542199 0.018884659
0 -0.04727985 0.019648105
0.0011608463 -0.0475947 0.020204604
0.0023350853 -0.04786925 0.020674348
0.0034583064 -0.047263522 0.021663547
0.0046526794 -0.047689963 0.021884173
0.0057516666 -0.047163665 0.021794915
0.0070773521 -0.048361909 0.021782339
0.0080726407 -0.04728261 0.022084832
0.0094278408 -0.048317682 0.021981686
0.010520718 -0.047927719 0.022413969
0.011590854 -0.0475225 0.021859586
0.012787991 -0.047664333 0.021773845
0.01414408 -0.048325606 0.021479517
0.015360378 -0.048444271 0.02135247
0.016328974 -0.047820568 0.021296054
0.017790793 -0.048628166 0.020618618
0.018845359 -0.048291232 0.020017326
0.019816075 -0.047791708 0.019586802
0.020960795 -0.047744032 0.018439174
0.0226782 -0.048937168 0.017107397
0.023398746 -0.047967426 0.016293943
0.025334056 -0.049461726 0.014432967
0.026084155 -0.04861138 0.012536108
0.027712615 -0.049400747 0.0093005598
0.028830012 -0.049251273 0.0082615018
0.030674808 -0.050306685 0.0068969131
0.031578749 -0.049797256 0.0055568516
-0.013018005 -0.047338199 0.0053136647
-0.011356208 -0.045424834 0.010753095
-0.010615666 -0.047180738 0.013083845
-0.0093673952 -0.046836976 0.014424264
-0.0082045356 -0.046883062 0.015731484
-0.0071026157 -0.047350772 0.016674876
-0.0059440476 -0.047552381 0.016989291
-0.0047241538 -0.047241539 0.017234415
-0.0034870361 -0.046493813 0.017634273
-0.0023703363 -0.047406726 0.018168241
-0.0011665208 -0.046660829 0.018924296
0 -0.046982925 0.019242942
0.0011621305 -0.046485223 0.020287663
0.0023411901 -0.046823803 0.020979822
0.0034809995 -0.046413325 0.021786153
0.0046429387 -0.046429384 0.021999717
0.005903807 -0.047230456 0.021868557
0.0069829947 -0.046553299 0.021868557
0.008175943 -0.04671967 0.022413969
0.009350325 -0.046751626 0.022424042
0.010514717 -0.046732072 0.022342712
0.01181765 -0.0472706 0.021875143
0.013030744 -0.047384523 0.02254501
0.013927636 -0.046425454 0.022087276
0.01533032 -0.047170214 0.02073881
0.016695021 -0.047700059 0.02119863
0.017401488 -0.046403967 0.020689994
0.018491555 -0.046228886 0.020714372
0.019871024 -0.046755355 0.019656867
0.021367643 -0.047483653 0.018914044
0.022207277 -0.046752162 0.017345369
0.02314304 -0.04628608 0.01603514
0.025135931 -0.047877964 0.01405102
0.025934217 -0.047153123 0.01167798
0.027505482 -0.047835618 0.0091440082
0.029068211 -0.048447017 0.0080038905
0.030060247 -0.048096396 0.0059619546
-0.011703013 -0.045641754 0.0081702471
-0.01042361 -0.045168977 0.011611611
-0.0095263571 -0.046440993 0.014548361
-0.0083248578 -0.046381351 0.015533805
-0.0069679744 -0.045291834 0.016603231
-0.0058626328 -0.045728534 0.017136425
-0.004677556 -0.04560617 0.017462671
-0.0035475721 -0.046118435 0.017285556
-0.0023584994 -0.045990743 0.018582821
-0.0011709683 -0.045667764 0.018991172
0 -0.045242235 0.01922971
0.0011965778 -0.046666536 0.019630134
0.0023719142 -0.046252325 0.020772576
0.0035768393 -0.046498913 0.021496832
0.0046824338 -0.045653731 0.021964639
0.0058559263 -0.045676224 0.021858186
0.007023578 -0.045653258 0.021953076
0.008213046 -0.0457584 0.022757977
0.0093629761 -0.045644507 0.023241699
0.01058052 -0.045848921 0.022916585
0.011762751 -0.04587473 0.021920502
0.012917393 -0.04579803 0.021937996
0.014066555 -0.045716301 0.021886528
0.015289075 -0.045867223 0.021726817
0.016630983 -0.04632917 0.021330327
0.01784746 -0.046403393 0.021227181
0.019076394 -0.046498708 0.020763695
0.020175444 -0.04628484 0.019998819
0.021210784 -0.045956701 0.018677711
0.022459483 -0.046101045 0.017650813
0.023357334 -0.045546804 0.015934706
0.025051458 -0.046524134 0.014160097
0.026114963 -0.046294708 0.010591298
0.027844226 -0.047214121 0.0084662139
0.028930807 -0.04701256 0.0067823827
-0.011571849 -0.043973025 0.00807634
-0.010638027 -0.044916116 0.011708319
-0.0095423618 -0.045326222 0.014214128
-0.0084284814 -0.045754615 0.015478522
-0.0071383761 -0.045209713 0.016856611
-0.00588971 -0.044761796 0.017673463
-0.0047160466 -0.044802442 0.017462432
-0.0035811961 -0.045361817 0.017591029
-0.0023559167 -0.044762414 0.017639846
-0.0011841278 -0.044996854 0.018988639
0 -0.04503407 0.018840551
0.001183762 -0.044982955 0.019237071
0.0023262831 -0.044199377 0.01981765
0.0034262633 -0.043399334 0.020180464
0.004563129 -0.043349728 0.021865875
0.0059223291 -0.045009699 0.022513151
0.007039242 -0.044581864 0.022072792
0.0080926232 -0.043931384 0.022533566
0.0094292155 -0.044788774 0.022233397
0.010684113 -0.045110703 0.022009939
0.011714486 -0.044515047 0.021819204
0.013245802 -0.045758229 0.021881163
0.01419295 -0.044944339 0.021819204
0.015315075 -0.044767141 0.022027969
0.016627416 -0.045131557 0.021415412
0.017839067 -0.045192305 0.02128318
0.018291486 -0.043442279 0.020892769
0.020324387 -0.045430981 0.020695567
0.021087786 -0.044518661 0.019547164
0.022519451 -0.045038901 0.01858893
0.023897896 -0.045406003 0.016895622
0.025029486 -0.04529145 0.014992952
0.027719347 -0.047878869 0.011206448
0.027793562 -0.045919798 0.008618623
0.029075153 -0.046035659 0.0064228773
-0.012114167 -0.044822421 0.0056260526
-0.010639508 -0.043740202 0.010807931
-0.0095222183 -0.044040259 0.01481545
-0.0083451346 -0.044109996 0.015941173
-0.007148141 -0.044080202 0.016628772
-0.0060018012 -0.044413328 0.017280251
-0.0046869512 -0.043354295 0.017338425
-0.0035255332 -0.043481577 0.017329574
-0.002378562 -0.044003397 0.017701864
-0.0011861215 -0.043886494 0.018127054
0 -0.04300452 0.018096894
0.0012049624 -0.044583607 0.018273383
0.0023762449 -0.04396053 0.019330978
0.0035626653 -0.043939538 0.020287335
0.0047942596 -0.044346899 0.021067739
0.0059335157 -0.043908019 0.021316707
0.0071485071 -0.044082463 0.021527857
0.0083587905 -0.044182178 0.022513986
0.0094753997 -0.043823723 0.022853106
0.01081836 -0.044475481 0.022858351
0.011719789 -0.043363221 0.022748947
0.01272666 -0.042807855 0.022831202
0.014025247 -0.043244511 0.022827953
0.015330683 -0.04363348 0.022831976
0.016727824 -0.044209249 0.022290766
0.017930185 -0.04422779 0.022140503
0.019141227 -0.044264089 0.021642774
0.02029507 -0.044171624 0.020984977
0.02131003 -0.043803953 0.020113558
0.022762112 -0.04432622 0.019144237
0.024273872 -0.044906665 0.017358154
0.024994571 -0.044038054 0.01506564
0.027192531 -0.045732893 0.010966182
0.028336361 -0.045584582 0.0085698068
-0.01075613 -0.043024521 0.0083306432
-0.0094995759 -0.042748094 0.012242377
-0.0083078239 -0.042725954 0.016233206
-0.0071198186 -0.04271891 0.016849756
-0.0058425441 -0.042066317 0.017337769
-0.0047407453 -0.042666707 0.017641157
-0.0035737453 -0.042884942 0.018153727
-0.002360706 -0.04249271 0.01840964
-0.0011801812 -0.042486522 0.019212872
0 -0.04319784 0.019289702
0.0011782909 -0.042418476 0.019784868
0.0023481457 -0.042266622 0.019855857
0.0035849027 -0.043018833 0.020254701
0.0046785567 -0.042107008 0.020543903
0.0059111328 -0.042560156 0.020789981
0.0072602835 -0.043561701 0.021748036
0.008385065 -0.043123189 0.022114992
0.0093722912 -0.042175308 0.023172975
0.010555337 -0.042221349 0.02256453
0.01191885 -0.04290786 0.022298664
0.012991878 -0.042518873 0.022969633
0.014395731 -0.04318719 0.022834808
0.015311333 -0.042400613 0.023385555
0.016625941 -0.042752419 0.02300787
0.01776894 -0.042645454 0.022500306
0.018891266 -0.042505346 0.022010624
0.020658122 -0.043746613 0.021875471
0.021839125 -0.04367825 0.021160394
0.02260424 -0.042829085 0.019397914
0.025441337 -0.045794405 0.017670602
0.025713913 -0.044080991 0.014783144
0.026658867 -0.0436236 0.010813177
0.028191539 -0.044125885 0.0079590678
-0.011195804 -0.043539241 0.0051270723
-0.0095275948 -0.041683227 0.0099041164
-0.0083639193 -0.041819595 0.013016194
-0.0071682679 -0.041814897 0.016359329
-0.0060710027 -0.042497016 0.017284989
-0.0047501232 -0.041563578 0.017404348
-0.0035401727 -0.041302014 0.018009841
-0.0024044162 -0.042077284 0.01835084
-0.0011967319 -0.041885618 0.018928558
0 -0.041821733 0.01933077
0.0011620397 -0.04067139 0.019491047
0.0023764919 -0.041588608 0.019273669
0.0035348681 -0.04124013 0.019998163
0.0047454895 -0.041523032 0.02021727
0.0059661409 -0.041762985 0.020263851
0.0072125276 -0.042073078 0.020467907
0.0081996275 -0.040998138 0.021337003
0.009453956 -0.041361056 0.023108542
0.010615936 -0.041284192 0.022621006
0.01195143 -0.041830003 0.022769153
0.01298615 -0.041319568 0.023612171
0.014153258 -0.041280337 0.023852766
0.015525591 -0.041799664 0.024304122
0.01689419 -0.042235475 0.023904562
0.018257387 -0.042600568 0.023723781
0.019363493 -0.042357638 0.023047566
0.020168755 -0.041523907 0.022624522
0.021324316 -0.041463949 0.0217219
0.022831561 -0.042058136 0.020554006
0.023490772 -0.04110885 0.018923163
0.026705407 -0.044509009 0.015823156
0.027038489 -0.043015778 0.011253059
0.028124949 -0.042798836 0.0064989328
-0.0098720379 -0.04195616 0.0063263178
-0.0084583629 -0.041083477 0.011421472
-0.0070367092 -0.039874688 0.014062047
-0.0060461038 -0.041113507 0.01599136
-0.004817022 -0.040944684 0.016456336
-0.0035742535 -0.040508207 0.017529756
-0.0023786051 -0.040436286 0.017886877
-0.0011974834 -0.040714435 0.018618941
0 -0.039655294 0.019174188
0.0011817536 -0.040179621 0.018541753
0.0023727519 -0.040336784 0.018445969
0.0035107869 -0.03978892 0.019328743
0.0047004553 -0.039953873 0.020034641
0.0059756902 -0.040634692 0.020068496
0.0069196625 -0.039211422 0.020365119
0.0084045967 -0.040822327 0.021311998
0.0093868235 -0.039894 0.022251576
0.010960079 -0.041404743 0.022770643
0.011899212 -0.040457319 0.022792459
0.013189506 -0.040767565 0.023882121
0.014412383 -0.040835083 0.024509281
0.016071659 -0.042033568 0.024971575
0.016616372 -0.040354047 0.024747193
0.017335562 -0.039293941 0.024360955
0.018869618 -0.040097937 0.023751616
0.019922642 -0.039845284 0.02316767
0.021297272 -0.040228181 0.022521496
0.022535717 -0.040327072 0.021285266
0.023621498 -0.040156547 0.019203097
0.026175156 -0.042378824 0.01442489
0.027411224 -0.042362802 0.010300219
-0.0084379651 -0.039778978 0.0075992346
-0.0072211307 -0.039716218 0.011996299
-0.0059230207 -0.039091934 0.014539868
-0.0048777894 -0.040241763 0.015337318
-0.0036271475 -0.039898623 0.016657561
-0.0023911893 -0.039454624 0.017551154
-0.0011851806 -0.039110962 0.017722338
0 -0.039628137 0.017979264
0.0011878022 -0.039197475 0.017851859
0.0023777769 -0.039233319 0.017851859
0.0035836189 -0.039419807 0.017851859
0.004742695 -0.039127234 0.018520266
0.0058623636 -0.038691599 0.019142091
0.0071980879 -0.039589483 0.020741016
0.0083240364 -0.039241884 0.020960599
0.0094888443 -0.039141484 0.021625608
0.010762153 -0.039461229 0.02231735
0.011969429 -0.039499115 0.02259773
0.013194333 -0.039582998 0.023926795
0.014467374 -0.039785277 0.024757206
0.015244008 -0.03869633 0.025275618
0.016583284 -0.039089169 0.025291324
0.017303787 -0.038068332 0.025232464
0.018731423 -0.038633559 0.024834216
0.020109259 -0.039035618 0.024078935
0.020921482 -0.038356047 0.023317814
0.022473481 -0.039032884 0.022177964
0.023793466 -0.039259221 0.019002914
0.025320038 -0.03978863 0.013215184
0.028516324 -0.042774484 0.0071720183
-0.0071436218 -0.038099319 0.0071845651
-0.005940421 -0.038018696 0.012439251
-0.0047368645 -0.037894916 0.014373988
-0.0035662595 -0.038040102 0.015206367
-0.0023826645 -0.038122632 0.016210705
-0.0011953668 -0.038251739 0.016487628
0 -0.037931927 0.016778231
0.0011872587 -0.03799228 0.016875565
0.0023886387 -0.038218219 0.016938657
0.0035646139 -0.038022548 0.016857862
0.0046727341 -0.037381873 0.016955197
0.0060163145 -0.038504414 0.018170446
0.0071973857 -0.038386058 0.018921733
0.0083855148 -0.038333781 0.019800633
0.0096858824 -0.038743529 0.020304084
0.010868613 -0.038643956 0.02216655
0.011891467 -0.038052697 0.022625268
0.012829718 -0.037322816 0.023973942
0.014019915 -0.03738644 0.024899006
0.014855955 -0.036568504 0.02571705
0.016298469 -0.037253644 0.025898814
0.017348668 -0.037010491 0.025917232
