ply
format ascii 1.0
comment PCL generated
element vertex 1266
property float x
property float y
property float z
element camera 0
property float view_px
property float view_py
property float view_pz
property float x_axisx
property float x_axisy
property float x_axisz
property float y_axisx
property float y_axisy
property float y_axisz
property float z_axisx
property float z_axisy
property float z_axisz
property float focal
property float scalex
property float scaley
property float centerx
property float centery
property int viewportx
property int viewporty
property float k1
property float k2
end_header
0.024059759 -0.07561639 0.013325065
0.025338434 -0.076015301 0.013069957
0.026722608 -0.07668227 0.012232482
0.027782731 -0.076402508 0.011646181
0.029055888 -0.076707542 0.010937721
0.030180193 -0.076611266 0.0096867383
0.031412866 -0.07678701 0.0097062588
0.032507874 -0.076625705 0.0085469186
0.03416276 -0.077749729 0.0080163181
0.035130452 -0.077286996 0.0075970888
0.035901561 -0.076435581 0.0072968304
0.037304781 -0.07694111 0.0067816079
0.038042575 -0.07608515 0.0061591566
0.040090162 -0.077822074 0.0058979392
0.040732212 -0.076809317 0.005001843
-0.018707592 -0.075999595 0.0052002072
-0.017768109 -0.076995142 0.00609079
-0.016607201 -0.077104867 0.0061685741
-0.015232495 -0.076162472 0.0064664185
-0.01403485 -0.076022103 0.0068442225
-0.012874229 -0.076074988 0.0076957345
-0.011671756 -0.075866416 0.0077655911
-0.010501369 -0.075843215 0.008156389
-0.009446511 -0.076752901 0.0086610317
-0.0080918763 -0.075138852 0.0092308223
-0.0070073693 -0.075913168 0.0097339451
-0.005857626 -0.076149136 0.010330886
-0.0046265949 -0.07518217 0.010782927
-0.0034953987 -0.075733639 0.011187881
-0.0023264072 -0.075608239 0.011844069
-0.0011509823 -0.07481385 0.012577176
0 -0.076052211 0.013827771
0.0011590155 -0.075336002 0.014137655
0.002301943 -0.07481315 0.014640272
0.003461624 -0.075001851 0.015129954
0.0045990893 -0.074735194 0.015411019
0.0057535688 -0.074796394 0.015698463
0.0068627894 -0.074346885 0.015866399
0.0080139311 -0.074415073 0.016567856
0.0092118932 -0.074846633 0.016663134
0.010285077 -0.074281111 0.016431719
0.011444222 -0.074387446 0.01646468
0.012579123 -0.074331179 0.016614854
0.013710019 -0.074262604 0.016614854
0.014818946 -0.074094728 0.016602665
0.016378155 -0.07604143 0.016592145
0.017345754 -0.075164936 0.016616404
0.018190963 -0.073900789 0.017254174
0.019421009 -0.0742568 0.017081529
0.021068951 -0.076082319 0.016230106
0.023107748 -0.079052828 0.016165644
0.024368411 -0.079197332 0.015477598
0.025015647 -0.077429384 0.014007479
0.025593773 -0.075617962 0.01333344
0.026644388 -0.07529936 0.012903005
0.027763797 -0.075193621 0.012006044
0.0292427 -0.076031022 0.010922134
0.030216545 -0.075541362 0.010204434
0.031306352 -0.075367138 0.0096312463
0.032674491 -0.0758515 0.0088671148
0.033640079 -0.075400174 0.0087636113
0.035006739 -0.075847931 0.0077034235
0.036452703 -0.076433085 0.0073443949
0.037267957 -0.075700536 0.0067939758
0.038809143 -0.076442249 0.0058978796
-0.019873669 -0.074818514 0.0055882931
-0.018979011 -0.075916044 0.0058753192
-0.017459705 -0.074494742 0.0065079927
-0.016398536 -0.074964732 0.0066639185
-0.015498167 -0.076298669 0.0071850717
-0.013994644 -0.074638106 0.0071640611
-0.012900284 -0.075056203 0.0077465177
-0.011684489 -0.074780725 0.0080955625
-0.010627288 -0.075571828 0.008528918
-0.0093213758 -0.074571006 0.008997649
-0.0083257053 -0.076120734 0.0092532933
-0.0069620633 -0.074262008 0.0096876025
-0.0058837766 -0.075312346 0.010443628
-0.0046857297 -0.074971676 0.011003703
-0.0034875327 -0.074400693 0.011450708
-0.0023560992 -0.075395174 0.011988163
-0.0011655223 -0.074593425 0.012710243
0 -0.073783405 0.013967663
0.0011514014 -0.073689692 0.014166474
0.0023116677 -0.073973365 0.014709175
0.0034442581 -0.073477507 0.0151366
0.0046243798 -0.073990077 0.015654445
0.005774226 -0.073910095 0.015672982
0.0068707741 -0.073288262 0.016122192
0.0080901291 -0.073966891 0.016650051
0.0092619816 -0.074095853 0.016666383
0.010393439 -0.073908895 0.016642898
0.011555493 -0.073955156 0.016795754
0.012671392 -0.073724464 0.016580075
0.013731821 -0.073236376 0.016663134
0.014846511 -0.073090516 0.016663134
0.015942074 -0.072878055 0.016521305
0.017170489 -0.073260747 0.016905367
0.018426301 -0.073705204 0.016974837
0.019680349 -0.074090727 0.017312676
0.021117032 -0.075082779 0.017048359
0.021961883 -0.073976867 0.01646769
0.023573332 -0.075434662 0.015994817
0.024322517 -0.074125767 0.014471263
0.026383845 -0.076753005 0.013802767
0.026367519 -0.073370486 0.013165623
0.027976539 -0.074604101 0.012004822
0.029119574 -0.074546106 0.011510581
0.030386951 -0.074798651 0.010163009
0.031978451 -0.075800769 0.010136247
0.03275596 -0.074870765 0.0095416903
0.034021933 -0.075082891 0.008667469
0.035066675 -0.074808903 0.0082691014
0.036159113 -0.074651077 0.0074847639
0.037281372 -0.074562743 0.0065892339
0.038558792 -0.074780695 0.0053629577
-0.020337712 -0.075369172 0.0054255426
-0.019083973 -0.075143144 0.0059003532
-0.017887475 -0.075127393 0.0065536499
-0.016791876 -0.075563446 0.0065146387
-0.015271845 -0.074009709 0.0070219934
-0.014136884 -0.074218646 0.007439971
-0.0130655 -0.074829683 0.0078166127
-0.011766528 -0.074129127 0.0082203746
-0.010604743 -0.074233204 0.0087657273
-0.0095257787 -0.075015508 0.0091277957
-0.0081969751 -0.073772773 0.0094102919
-0.0072505022 -0.076130271 0.0096630156
-0.0058846381 -0.074146442 0.01016283
-0.0046761888 -0.073649973 0.010737717
-0.0035262106 -0.074050419 0.011315942
-0.0023196759 -0.073069796 0.011911601
-0.0011699541 -0.073707111 0.012922496
0 -0.072882786 0.014158696
0.0011636231 -0.073308259 0.014400482
0.0023095708 -0.072751485 0.015035212
0.0035063049 -0.073632404 0.015090793
0.0046143429 -0.072675899 0.015651524
0.0057543754 -0.072505131 0.015651524
0.0069754994 -0.073242746 0.016324461
0.0081185801 -0.073067226 0.016549051
0.0093699694 -0.073788509 0.016580254
0.010339638 -0.072377466 0.016691297
0.011526147 -0.072614722 0.016696095
0.012497871 -0.071578719 0.016652077
0.013871831 -0.072827116 0.016945839
0.015137383 -0.073358081 0.017010272
0.015933331 -0.071699992 0.016928464
0.016982287 -0.071325608 0.017166287
0.018808549 -0.074058667 0.017502397
0.02012472 -0.074579842 0.017619193
0.020278333 -0.070974164 0.017659366
0.021966249 -0.072835453 0.017345756
0.023260618 -0.073270947 0.016315341
0.023783503 -0.071350515 0.015044659
0.024927432 -0.071383104 0.01433304
0.027116409 -0.074275382 0.013733387
0.028041869 -0.073609911 0.012569368
0.029650884 -0.074720226 0.012098044
0.030749911 -0.074509397 0.010750473
0.031497695 -0.073494621 0.010570168
0.033323549 -0.074977979 0.010147184
0.034153663 -0.074195892 0.0095582902
0.035142802 -0.073799886 0.0085916221
0.036538795 -0.074256264 0.0071553588
0.037640207 -0.07410416 0.0058089793
0.039803695 -0.075988874 0.0053500235
0.039953709 -0.074031867 0.0050384402
0.041620962 -0.074917726 0.0050952733
-0.018882239 -0.073168673 0.0056089461
-0.017662736 -0.073005974 0.0062223971
-0.016651118 -0.073740661 0.0065638721
-0.015531873 -0.074075088 0.0067019761
-0.014095779 -0.072828189 0.0074442327
-0.012863812 -0.072505124 0.007799685
-0.011653142 -0.07224948 0.0082703233
-0.01065115 -0.073374584 0.0087934434
-0.0094238752 -0.073035032 0.0096919239
-0.0082526673 -0.073095053 0.0095380843
-0.0069951052 -0.072282754 0.0098316073
-0.0057606609 -0.071432196 0.010212004
-0.0046822024 -0.072574131 0.010875016
-0.0035069794 -0.072477572 0.011480123
-0.00231026 -0.071618065 0.012272149
-0.0011530708 -0.071490385 0.013048142
0 -0.072094575 0.01378262
0.0011505745 -0.071335621 0.014650941
0.0023135478 -0.071719982 0.014942318
0.0034474367 -0.071247026 0.015206873
0.004556301 -0.070622668 0.015713751
0.0057579214 -0.071398228 0.015734762
0.0069490825 -0.071807183 0.016052753
0.0080387555 -0.071200408 0.016543388
0.0091078309 -0.07058569 0.016775817
0.010448459 -0.071978271 0.016549557
0.011986072 -0.074313648 0.016746044
0.013214612 -0.074482359 0.016699821
0.013691937 -0.070741668 0.016928494
0.014535917 -0.069325142 0.017224818
0.015928749 -0.070541598 0.017224818
0.017810581 -0.073617063 0.017674088
0.018946482 -0.073417611 0.018189251
0.019789388 -0.072173059 0.018520564
0.020736609 -0.071426094 0.019061685
0.022173841 -0.072356738 0.018200666
0.023181172 -0.071861632 0.017404526
0.025026603 -0.073888063 0.015704244
0.024441419 -0.068880364 0.014722317
0.025983607 -0.070042767 0.014040351
0.028019534 -0.072383791 0.012968212
0.029061044 -0.072071388 0.011924982
0.030540951 -0.07282842 0.011067808
0.031529974 -0.072402164 0.010888696
0.033069707 -0.073225781 0.0098459125
0.033825595 -0.072316788 0.0086334646
0.035562985 -0.073496833 0.0070491433
0.036664322 -0.073328644 0.0069040358
0.037066709 -0.07181675 0.0065497458
0.038207345 -0.07178349 0.0060911775
0.040070646 -0.073070005 0.0059977472
0.041157607 -0.072907761 0.0058456361
0.042341709 -0.072921835 0.0052192211
-0.017705262 -0.072001398 0.0057660937
-0.01643013 -0.071588427 0.0063328445
-0.01527603 -0.071679831 0.0071008801
-0.014155365 -0.071956441 0.0072670877
-0.012936507 -0.071738817 0.0080808103
-0.011575568 -0.070610963 0.0085153282
-0.010591761 -0.071788602 0.0092334449
-0.0093817906 -0.071536154 0.010165334
-0.0081493603 -0.07101585 0.010321528
-0.0070175957 -0.071345553 0.010601968
-0.0059766681 -0.072915353 0.010814071
-0.0046214536 -0.070477165 0.011493385
-0.0035087278 -0.07134413 0.011642784
-0.0023131268 -0.070550367 0.012748033
-0.0011753897 -0.071698777 0.013360202
0 -0.069748938 0.014050603
0.0011611412 -0.070829615 0.014707208
0.0023091082 -0.070427798 0.015209019
0.0034550228 -0.070252135 0.015331477
0.0046540899 -0.070974872 0.015663773
0.0057675214 -0.07036376 0.015649825
0.0068630697 -0.069774538 0.01612404
0.008123789 -0.070793018 0.01640752
0.0092015872 -0.070162103 0.016330063
0.010811464 -0.073277697 0.016519457
0.011923761 -0.072734937 0.016670257
0.012761753 -0.07076972 0.016491354
0.013950861 -0.070916876 0.016828388
0.015200077 -0.071323439 0.01697275
0.015828643 -0.068967663 0.017342776
0.017468862 -0.071040042 0.017950863
0.018671568 -0.071185358 0.018546402
0.019987503 -0.071719863 0.019454718
0.020901432 -0.070832632 0.020330131
0.021917939 -0.070368126 0.018764883
0.022189321 -0.067677431 0.017794847
0.024234394 -0.070395142 0.016102135
0.025283361 -0.070103869 0.015092641
0.026026227 -0.069026083 0.014344841
0.02778695 -0.070625164 0.013631195
0.030360918 -0.074080646 0.012011737
0.030063169 -0.070532821 0.011328548
0.031371787 -0.070877001 0.010436416
0.033135347 -0.072187722 0.0085276067
0.034161221 -0.071856365 0.0076628029
0.034992084 -0.071150571 0.0066276789
0.036844235 -0.072499946 0.0065196157
0.037448458 -0.071386121 0.006418407
0.03869506 -0.071527235 0.0062747598
0.039587069 -0.071023859 0.0062747598
0.041231018 -0.071859777 0.0055368543
0.042246908 -0.071585037 0.005218327
-0.017721213 -0.070884854 0.0057013333
-0.016381104 -0.070204727 0.0064635575
-0.015317543 -0.070696354 0.0072174072
-0.014040297 -0.070201486 0.0076798499
-0.013034588 -0.071097754 0.0082439482
-0.011757862 -0.070547171 0.0087310076
-0.010531194 -0.070207961 0.0095565915
-0.0094394935 -0.070796199 0.010158032
-0.0082237124 -0.070488967 0.010644853
-0.0070268959 -0.070268959 0.010902852
-0.0058845677 -0.070614815 0.011041522
-0.004729222 -0.070938326 0.011549175
-0.0034439547 -0.06887909 0.012207121
-0.00232816 -0.069844805 0.012982696
-0.0011673796 -0.070042767 0.013623297
0 -0.06872756 0.014511406
0.0011618985 -0.069713913 0.015199959
0.0023038005 -0.069114015 0.015638918
0.0035137436 -0.070274875 0.015467554
0.004609134 -0.069137007 0.015937388
0.0057539479 -0.069047377 0.01573512
0.0069209426 -0.069209427 0.016016006
0.0082143359 -0.07040859 0.016143262
0.0095432457 -0.071574338 0.015902132
0.010390917 -0.069272779 0.015999824
0.011754818 -0.07052891 0.016045988
0.012504901 -0.068208545 0.016078144
0.013775138 -0.068875693 0.016637325
0.01513001 -0.06983082 0.017104983
0.016934952 -0.072578363 0.017431051
0.017708434 -0.070833735 0.018308252
0.018552251 -0.069570944 0.018955231
0.019388055 -0.068428434 0.020063818
0.020989515 -0.06996505 0.020918876
0.021637565 -0.068329155 0.019347787
0.022578988 -0.067736961 0.018072635
0.023808364 -0.068023898 0.016633809
0.025061836 -0.068350464 0.015567839
0.027107697 -0.070715725 0.014089942
0.027590608 -0.068976521 0.012388617
0.028637078 -0.068728983 0.011934519
0.031637575 -0.073009789 0.009485662
0.031779356 -0.07062079 0.0086683333
0.03269729 -0.070065625 0.0076734424
0.034151468 -0.070658214 0.0073236525
0.035497546 -0.070995092 0.0065249205
0.036598574 -0.070835948 0.0061632395
0.037596963 -0.070494309 0.0059630573
0.039078522 -0.071051858 0.0057838559
0.0401574 -0.070866004 0.0052984059
0.041497424 -0.071138442 0.0051802993
0.041957479 -0.06992913 0.0051074624
0.044075791 -0.071474254 0.0050537884
-0.017625678 -0.069327667 0.0056318641
-0.016465753 -0.069391392 0.0068494678
-0.015328901 -0.069569625 0.0076538622
-0.014068303 -0.069169156 0.007869482
-0.013036171 -0.069921285 0.0082997382
-0.011550445 -0.068147629 0.0089380145
-0.010695785 -0.070116811 0.0096962154
-0.0093436958 -0.068909757 0.010472
-0.0081394557 -0.068603978 0.011269361
-0.0070229997 -0.069059499 0.011426568
-0.0058246856 -0.068731286 0.01173836
-0.0046742526 -0.068945229 0.012035757
-0.0035298844 -0.06942106 0.012200862
-0.0023333158 -0.068832815 0.012936056
-0.0011574718 -0.068290837 0.014084488
0 -0.067895763 0.014832854
0.001157959 -0.068319581 0.015112162
0.0023098057 -0.06813927 0.015324205
0.0035141709 -0.069112025 0.015718162
0.0045887437 -0.067683965 0.015958399
0.0057022721 -0.067286812 0.015354067
0.0070328657 -0.069156513 0.015416741
0.0081100417 -0.068356067 0.015720129
0.0093056969 -0.068629518 0.015285015
0.010573576 -0.069315664 0.015744954
0.011698402 -0.069020577 0.01580897
0.012688585 -0.068056956 0.016296744
0.014108484 -0.069366708 0.016617447
0.015370051 -0.069756389 0.01774618
0.016111249 -0.067897402 0.018155307
0.017139068 -0.067413673 0.019256413
0.018471735 -0.068114527 0.020477295
0.019867307 -0.068951242 0.020893455
0.020320693 -0.066606715 0.021474421
0.021517664 -0.066818006 0.02083233
0.022962527 -0.067739457 0.019546211
0.023465104 -0.06592577 0.018062323
0.024027975 -0.064438663 0.016512036
0.026270451 -0.067389421 0.014793843
0.028186366 -0.06929148 0.012810171
0.028230222 -0.066623323 0.01008296
0.030649006 -0.069549672 0.0087659955
0.031500988 -0.068835497 0.0081658065
0.033063613 -0.069669753 0.0075710416
0.034305345 -0.069793634 0.00756675
0.035662182 -0.070135623 0.0071071684
0.036753595 -0.069950394 0.0067346096
0.037230428 -0.068643607 0.0061290264
0.039161365 -0.070015773 0.0062754154
0.040380973 -0.07007286 0.0056212842
0.041353777 -0.069710657 0.0057251751
0.042014953 -0.068857834 0.0054827929
-0.018004809 -0.06961859 0.006049484
-0.016362822 -0.067788832 0.007207334
-0.015188204 -0.067762755 0.0080740452
-0.014220437 -0.068732113 0.0084957778
-0.012858168 -0.067797609 0.0087821782
-0.011688181 -0.067791447 0.009242624
-0.010629604 -0.06850189 0.010081589
-0.0093881367 -0.068063989 0.010958284
-0.008179618 -0.067773975 0.011815757
-0.0070084613 -0.067748457 0.011656135
-0.0058521573 -0.067885026 0.011768758
-0.0046399506 -0.067279287 0.01213184
-0.0035357736 -0.068358287 0.012204587
-0.0023352904 -0.067723423 0.012638956
-0.0011533414 -0.066893801 0.013258785
0 -0.067438088 0.01460281
0.0011545597 -0.066964462 0.014831334
0.0023145799 -0.067122817 0.014932901
0.0034679784 -0.067047581 0.014421493
0.0045663705 -0.066212371 0.014692396
0.00599103 -0.069495954 0.014668941
0.0071480605 -0.069097914 0.014666826
0.008238025 -0.068257928 0.014944673
0.0094436789 -0.068466671 0.015007883
0.010386801 -0.066937163 0.014977008
0.011666259 -0.067664303 0.015407681
0.012789178 -0.067433849 0.015941948
0.014030471 -0.06781394 0.01651153
0.014728364 -0.065711163 0.017722011
0.016104583 -0.066718981 0.018683642
0.017439619 -0.067433193 0.020016402
0.018405695 -0.066720642 0.020963073
0.019263316 -0.065721907 0.022362918
0.020192686 -0.065065324 0.022597373
0.021396441 -0.065315455 0.021437079
0.022199828 -0.064379506 0.020487517
0.023793552 -0.065715529 0.018728435
0.024837608 -0.065480962 0.016922414
0.025418855 -0.064099722 0.015123129
0.027839372 -0.067278482 0.013047993
0.029066365 -0.067433968 0.0091154873
0.029669501 -0.06618581 0.0086621046
0.032695942 -0.070235729 0.0081811249
0.033259671 -0.068895034 0.0076481104
0.034282856 -0.068565711 0.0077342987
0.035604317 -0.068835013 0.0071712732
0.037062809 -0.069343321 0.0069125891
0.037716575 -0.06836129 0.006623745
0.039051659 -0.068636253 0.0067687333
0.040527988 -0.069135979 0.0063974559
0.041413732 -0.068628468 0.0061552525
0.042611651 -0.068652108 0.0054385364
0.0435206 -0.06822148 0.0051125288
-0.017699033 -0.067256324 0.0062892437
-0.01666805 -0.067862779 0.0070716739
-0.015584844 -0.068333551 0.0079941154
-0.014102882 -0.066988692 0.0082363188
-0.012958711 -0.067149684 0.0088000298
-0.011780201 -0.067147143 0.0095579326
-0.010552379 -0.066831738 0.010024875
-0.0094846645 -0.067578234 0.011270911
-0.0081805103 -0.066612728 0.011608481
-0.0069967997 -0.066469595 0.011676043
-0.0058345213 -0.066513546 0.011660725
-0.0046653114 -0.066480689 0.011952639
-0.0034694532 -0.065919608 0.01207006
-0.0023577202 -0.067195028 0.012317836
-0.0011502994 -0.065567069 0.013040185
0 -0.066640265 0.013958752
0.0011607778 -0.066164337 0.014170259
0.0022696301 -0.064684458 0.014170259
0.0034471569 -0.065495983 0.013771921
0.0048383172 -0.068946019 0.014104486
0.0059670131 -0.06802395 0.013303459
0.0072314395 -0.068698674 0.013965517
0.0081792306 -0.066602305 0.014334798
0.0093730809 -0.066783197 0.014491081
0.010504691 -0.066529706 0.014964044
0.011828312 -0.067421377 0.015070587
0.012718227 -0.065903537 0.016626716
0.013864667 -0.065857172 0.017144203
0.014638942 -0.064186126 0.018709779
0.015971664 -0.06502749 0.019540548
0.017036071 -0.064737074 0.02071318
0.018254789 -0.065032683 0.021237105
0.018897055 -0.063360713 0.022419631
0.020382211 -0.064543672 0.022465855
0.021547921 -0.064643763 0.021578044
0.022889791 -0.065235905 0.020757943
0.024097649 -0.065407909 0.018779725
0.025115987 -0.065073237 0.017048091
0.026335085 -0.065265208 0.015163898
0.028534193 -0.067768708 0.010970473
0.02917289 -0.066514187 0.0092634261
0.03083289 -0.067595184 0.0085189342
0.032110326 -0.067788467 0.0083232522
0.033076108 -0.067333505 0.007804215
0.034320056 -0.067456663 0.0079709291
0.035721175 -0.067870237 0.0073001385
0.036390871 -0.066912241 0.0071698427
0.038385261 -0.068373747 0.0073785186
0.038893603 -0.067179859 0.0072990358
0.04006388 -0.067165919 0.0068992674
0.042017225 -0.068428047 0.0059497952
0.042413123 -0.067154109 0.0055909455
0.044126835 -0.067979179 0.0054191947
-0.019034933 -0.066622265 0.005274117
-0.018143784 -0.06773679 0.0056764185
-0.0166476 -0.066590399 0.0067714453
-0.015310959 -0.065954901 0.0078146458
-0.014175219 -0.066151023 0.00873667
-0.012997563 -0.066169411 0.0093693137
-0.011799075 -0.066074818 0.0098238587
-0.010614864 -0.066048041 0.010512054
-0.0094354479 -0.06604813 0.011325657
-0.0081937183 -0.065549746 0.012105286
-0.0071397074 -0.06663727 0.01204586
-0.0058442606 -0.06545572 0.011798292
-0.0046455651 -0.065037914 0.012039334
-0.0035125802 -0.065568164 0.012168467
-0.0023072725 -0.064603627 0.012331605
-0.0011544391 -0.064648591 0.01304397
0 -0.064713612 0.01304397
0.0011488338 -0.064334698 0.012798965
0.0022609686 -0.063307121 0.012027949
0.0035710682 -0.066659942 0.011689723
0.0046321615 -0.064850263 0.011757702
0.0059234593 -0.066342749 0.012212902
0.0070329756 -0.065641105 0.01283291
0.0083169537 -0.066535629 0.014052629
0.0094510419 -0.066157289 0.01434353
0.010474524 -0.065174811 0.015662313
0.0119483 -0.066910475 0.016102999
0.012733605 -0.064825624 0.017478347
0.013904825 -0.064889185 0.017840266
0.014864478 -0.064031601 0.019413471
0.015904257 -0.063617028 0.019965619
0.016647859 -0.062152009 0.020826548
0.017793017 -0.062275559 0.021927565
0.019221863 -0.06331908 0.022140652
0.020234212 -0.062950879 0.022419631
0.02130731 -0.062800489 0.021751165
0.022607362 -0.063300617 0.02071318
0.024201062 -0.064536169 0.018811584
0.025039602 -0.063737169 0.016643196
0.027269527 -0.066395372 0.014081776
0.028264171 -0.065949731 0.010618299
0.030594241 -0.068531103 0.0094649196
0.032179706 -0.069310129 0.0085107386
0.031885475 -0.066132836 0.0082309842
0.03332115 -0.066642299 0.0076377392
0.034284804 -0.066205136 0.008030206
0.035548031 -0.066356324 0.0074528158
0.036814522 -0.066503651 0.0072996318
0.037866399 -0.066266194 0.0065885186
0.038921628 -0.066048823 0.0063610971
0.040348694 -0.066456668 0.0059343278
0.041320484 -0.066112779 0.0053519011
0.043254137 -0.067284212 0.0050586462
-0.017930899 -0.065746628 0.0057500899
-0.01649916 -0.064818129 0.0069253743
-0.015678208 -0.06633088 0.0081000328
-0.014147353 -0.064842038 0.0089346468
-0.012863476 -0.064317383 0.0097180009
-0.011778897 -0.064783931 0.010086328
-0.010633982 -0.064985447 0.010833561
-0.0093749519 -0.06445279 0.011449099
-0.0082316138 -0.064676963 0.012200296
-0.0070168409 -0.064321041 0.012696356
-0.0058725476 -0.064598024 0.012394071
-0.0046794037 -0.064341806 0.012267351
-0.0035195001 -0.064524174 0.012279391
-0.0023050583 -0.063389108 0.012598276
-0.0011826407 -0.065045238 0.012752891
0 -0.062860385 0.012199402
0.0011434 -0.062886998 0.011684567
0.002433625 -0.066924684 0.011469215
0.0035527686 -0.065134093 0.011026382
0.0046935393 -0.064536169 0.011610836
0.0058762031 -0.064638235 0.012426198
0.0070976284 -0.065061592 0.013005137
0.0083454791 -0.065571629 0.013619661
0.0094602406 -0.06503915 0.014545679
0.010836288 -0.066221766 0.015773058
0.011928135 -0.065604739 0.016716957
0.012662475 -0.063312374 0.018142492
0.013895204 -0.063686356 0.018891692
0.015476322 -0.065476745 0.019972831
0.015712269 -0.061726768 0.020740449
0.017015724 -0.062390983 0.021585822
0.018480534 -0.063526832 0.022260785
0.019148169 -0.061949961 0.022408694
0.020585688 -0.062900715 0.022442371
0.021667855 -0.062722743 0.0215137
0.022558421 -0.062035657 0.021007091
0.024103727 -0.063128814 0.018440515
0.025857162 -0.064642906 0.014574438
0.027287547 -0.065252826 0.011659324
0.029825922 -0.068351075 0.010148138
0.032082576 -0.070581667 0.0090198815
0.030244594 -0.063978948 0.0084798038
0.031865567 -0.064911343 0.0081997812
0.033227347 -0.065268002 0.007996887
0.034229942 -0.064918853 0.0076512992
0.035768375 -0.065575354 0.007124722
0.037320897 -0.066214494 0.0069867969
0.037990544 -0.065296248 0.007042855
0.039514538 -0.065857559 0.006291002
0.040389724 -0.065336317 0.0058892369
-0.017784543 -0.064024359 0.0058499277
-0.016591882 -0.063997261 0.0066103041
-0.015335993 -0.063703358 0.0077953935
-0.014151557 -0.063682005 0.0087899864
-0.013278743 -0.065186553 0.0098276734
-0.011583801 -0.062552527 0.010559022
-0.010472646 -0.06283588 0.011099219
-0.0094669461 -0.063901886 0.011615396
-0.0081794718 -0.063098781 0.012518167
-0.0070076045 -0.063068442 0.012932926
-0.0058535803 -0.063218668 0.013150126
-0.0046810461 -0.063194126 0.013224125
-0.0034786868 -0.062616363 0.012797594
-0.002344145 -0.063291915 0.012958109
-0.0011492317 -0.062058512 0.013236582
0 -0.062318668 0.012090921
0.0011957884 -0.064572573 0.011556953
0.0024042295 -0.064914197 0.011458963
0.0035260345 -0.06346862 0.011458963
0.0047514872 -0.064145081 0.011912555
0.0059544258 -0.064307794 0.012668878
0.0070865713 -0.063779145 0.013519257
0.0083385576 -0.064326011 0.015050262
0.0095941592 -0.064760573 0.015795499
0.010453455 -0.062720731 0.017186016
0.011644112 -0.062878206 0.017790437
0.012573831 -0.061726078 0.019401729
0.014068962 -0.063310325 0.020382762
0.01505412 -0.062532499 0.021260738
0.016065817 -0.061968155 0.022318244
0.016515784 -0.059456825 0.022146404
0.017765168 -0.059957441 0.021966457
0.018951178 -0.060197856 0.022846818
0.020715754 -0.06214726 0.022894621
0.021683693 -0.061627336 0.021687239
0.023591466 -0.063696958 0.020303994
0.024682257 -0.063468657 0.01676631
0.026489988 -0.065020882 0.01395312
0.028244313 -0.06631273 0.011229157
0.030475348 -0.068569534 0.0099221766
0.028901553 -0.062427353 0.0093588531
0.030683694 -0.063727669 0.0083264112
0.031945594 -0.063891187 0.0080244541
0.033398844 -0.064412057 0.0076901615
0.034502696 -0.064246401 0.0075849295
0.035638511 -0.06414932 0.007425189
0.036533207 -0.063638493 0.0069846809
0.037820958 -0.063822865 0.0067822039
0.039309658 -0.064324893 0.0063568056
0.040323164 -0.064042673 0.0055704713
-0.016690485 -0.063185409 0.0062822402
-0.015352328 -0.062590264 0.00817734
-0.014125703 -0.062388521 0.0092220902
-0.01316862 -0.063448809 0.010271609
-0.011699925 -0.062009603 0.010682732
-0.01064571 -0.062691405 0.011243641
-0.0093673272 -0.062058546 0.011768043
-0.0081771752 -0.061912894 0.012631953
-0.0070301322 -0.062099501 0.012831539
-0.0058397534 -0.061901383 0.012996882
-0.0046924097 -0.062174428 0.01311627
-0.0034846475 -0.061562106 0.013035983
-0.0023177715 -0.061420947 0.013269782
-0.0011732184 -0.062180571 0.012951016
0 -0.063440464 0.012090087
0.0011861383 -0.062865324 0.011151195
0.0023200873 -0.061482314 0.011169881
0.0035413234 -0.062563382 0.011169881
0.0047167861 -0.062497415 0.01218158
0.0058638244 -0.062156536 0.01273644
0.007250966 -0.064050198 0.014057189
0.0081136208 -0.061431702 0.016058207
0.0094618928 -0.062685043 0.016622186
0.010414305 -0.061328687 0.017598301
0.011559798 -0.061266933 0.018344611
0.012490453 -0.060181275 0.020230502
0.013508745 -0.059663624 0.02105096
0.014665005 -0.059788097 0.022043914
0.016331503 -0.061826408 0.022796243
0.017191347 -0.060742754 0.022833228
0.017567901 -0.058193672 0.022869259
0.019218793 -0.059917416 0.022991329
0.020287914 -0.059736639 0.022698343
0.022308934 -0.062230188 0.021663934
0.022936082 -0.060780618 0.019439012
0.025162324 -0.063504912 0.01467979
0.027545797 -0.066360332 0.012897342
0.028743468 -0.066234946 0.011777282
0.027794389 -0.061379276 0.01032567
0.029449882 -0.062433749 0.009052068
0.030730544 -0.062643029 0.0082480907
0.032097675 -0.06300655 0.0083676279
0.033202484 -0.062847562 0.0080100596
0.034262337 -0.062617369 0.0079460144
0.035375312 -0.062496383 0.0076476634
0.03676042 -0.062848456 0.0071678758
0.037857171 -0.062700942 0.0069755912
0.039349023 -0.06319692 0.0059658587
0.040165491 -0.062610917 0.0056446493
0.041212626 -0.062407687 0.0054414272
0.042942386 -0.063220739 0.0050201714
-0.016675584 -0.061937887 0.0056175292
-0.015665539 -0.062662154 0.0074968636
-0.014416299 -0.06247063 0.0087875724
-0.012960551 -0.061268061 0.0098844767
-0.011752627 -0.061113659 0.011057794
-0.010494088 -0.060632505 0.01161623
-0.0093310103 -0.060651567 0.01186493
-0.0082797641 -0.061506815 0.012504518
-0.0070222705 -0.060859676 0.012880772
-0.005846608 -0.060804721 0.012891918
-0.004649627 -0.060445148 0.012731194
-0.003477423 -0.060275331 0.012596905
-0.0023494014 -0.061084438 0.012456805
-0.0012080503 -0.062818617 0.012625635
0 -0.06198528 0.012114763
0.0011763574 -0.061170582 0.011609554
0.0023218531 -0.060368184 0.011609554
0.0035677457 -0.061840922 0.012037456
0.0046608406 -0.06059093 0.012981087
0.0058810413 -0.061162826 0.014157474
0.0070339711 -0.060961083 0.015403181
0.0082797641 -0.061506815 0.017000645
0.0091969501 -0.059780177 0.01726386
0.010392086 -0.060043164 0.018406481
0.011794668 -0.061332274 0.019295961
0.012741404 -0.060232088 0.020666957
0.013918454 -0.060313299 0.021301121
0.014788896 -0.059155583 0.02190733
0.016151141 -0.059989955 0.022479683
0.017274907 -0.059886344 0.022688448
0.018545613 -0.060273241 0.022603422
0.018989446 -0.058085363 0.02245006
0.020567868 -0.059418287 0.022080481
0.021740412 -0.059500076 0.02147752
0.023501543 -0.061104011 0.016914308
0.026060268 -0.064530186 0.014894068
0.025416508 -0.060075384 0.012761116
0.026747219 -0.060471974 0.011956841
0.028256493 -0.061222401 0.011178255
0.029327471 -0.061001141 0.0097289085
0.030473594 -0.060947187 0.0090498328
0.031816125 -0.061275501 0.0090967119
0.033298694 -0.061840434 0.0088026226
0.034303773 -0.061510216 0.0084157288
0.035629679 -0.061758108 0.0079660118
0.036834851 -0.06178749 0.0073742568
0.03770458 -0.061269939 0.006737262
0.039626695 -0.062442064 0.0061383545
0.04081076 -0.062416457 0.0056273043
-0.01677059 -0.061092868 0.0056427717
-0.015423529 -0.060507689 0.00710392
-0.014244063 -0.060537264 0.0091026723
-0.013139762 -0.060920715 0.010325491
-0.011829638 -0.060331155 0.011374861
-0.010668146 -0.060452826 0.011877507
-0.0094598979 -0.060306847 0.012250066
-0.0081485379 -0.059367917 0.012672633
-0.0069730431 -0.059270866 0.012708694
-0.0058784164 -0.059959844 0.012969911
-0.0045838915 -0.058444615 0.012662172
-0.0035648935 -0.06060319 0.012801796
-0.0024072307 -0.06138438 0.012396991
-0.0011914971 -0.06076635 0.012530297
0 -0.060107518 0.012396991
0.0011923504 -0.060809869 0.01191631
0.0023598101 -0.060175154 0.01209414
0.0036007327 -0.061212454 0.013102174
0.0047087162 -0.06003613 0.014428228
0.0059747142 -0.060942084 0.015205324
0.0071160216 -0.060486186 0.017134905
0.00819973 -0.05974089 0.018029451
0.0093472805 -0.059588909 0.018905878
0.010298502 -0.058358174 0.019216567
0.011645009 -0.059389547 0.019970775
0.012697414 -0.058869828 0.021110624
0.013951621 -0.059294391 0.021528751
0.014930925 -0.058575168 0.022118628
0.016141213 -0.058800139 0.022595465
0.01695637 -0.057651661 0.022566289
0.018472884 -0.058882315 0.022397816
0.020010535 -0.060031608 0.021325737
0.021057079 -0.059661724 0.020499468
0.022287978 -0.059825622 0.017754376
0.023560451 -0.060079154 0.016509891
0.025079165 -0.060906541 0.015151799
0.025495987 -0.059104335 0.013396442
0.02691149 -0.059673302 0.012351811
0.028038019 -0.059580788 0.011572123
0.029881638 -0.060958542 0.010357738
0.030608617 -0.060039978 0.0097368658
0.032031856 -0.060504619 0.0096952915
0.033278942 -0.060615215 0.0090986788
0.034397904 -0.060492866 0.0086666644
0.035756219 -0.060785573 0.0080731213
0.036984425 -0.060845342 0.0071149766
0.038691074 -0.061663896 0.0070413649
0.039372921 -0.060849063 0.0060098767
0.040836383 -0.061254576 0.0051113963
-0.015543342 -0.059782084 0.0064398646
-0.014163838 -0.059015989 0.0075573921
-0.013073596 -0.059425436 0.010060102
-0.011741444 -0.058707222 0.011585087
-0.010594253 -0.05885696 0.012391269
-0.0094137127 -0.058835708 0.012384683
-0.0082164807 -0.058689147 0.012806803
-0.0069932477 -0.058277063 0.01299262
-0.0058480208 -0.058480207 0.012530774
-0.0048006987 -0.060008734 0.011979908
-0.0036311415 -0.060519025 0.011884242
-0.0023786172 -0.059465431 0.011891663
-0.0012016329 -0.060081646 0.012052476
0 -0.059079103 0.012469113
0.0011773723 -0.058868617 0.01268357
0.0023871509 -0.059678774 0.013214052
0.0035841451 -0.059735753 0.013827801
0.0048148399 -0.060185499 0.014917791
0.005873621 -0.058736209 0.016829431
0.0068334374 -0.056945313 0.018165439
0.0080816643 -0.057726178 0.019161016
0.0092767105 -0.057979438 0.019435197
0.010485657 -0.058253646 0.020260334
0.011399584 -0.056997921 0.02081123
0.012727067 -0.057850305 0.021460801
0.014179923 -0.059083011 0.022065401
0.015103771 -0.058091428 0.022527426
0.016371692 -0.058470327 0.022419333
0.017165806 -0.057219353 0.022167265
0.017819211 -0.055685036 0.021626323
0.019579079 -0.057585526 0.020098567
0.02147717 -0.059658803 0.019286126
0.022461811 -0.059110027 0.01797545
0.023659403 -0.059148505 0.016821593
0.025422117 -0.060528848 0.015590459
0.026309103 -0.059793413 0.013644934
0.027166592 -0.059057809 0.012505442
0.028475031 -0.059322983 0.011280507
0.02962807 -0.05925614 0.010562569
0.030683367 -0.059006475 0.0098977387
0.031971551 -0.059206575 0.009904474
0.033383273 -0.059612986 0.009221971
0.034479491 -0.059447397 0.0085767806
0.035891671 -0.059819452 0.0081151128
0.037122484 -0.059874974 0.0073835254
0.037974164 -0.059334632 0.0070819855
0.039349429 -0.059620347 0.0055183768
0.04072753 -0.059893426 0.0051153302
-0.015556143 -0.058634695 0.0060194731
-0.014229754 -0.058104832 0.0074477792
-0.012981868 -0.057828326 0.0083497465
-0.011779924 -0.057721626 0.01013115
-0.010599818 -0.057710122 0.010932177
-0.0094376756 -0.057805765 0.011389613
-0.0081905145 -0.0573336 0.011591911
-0.0069523365 -0.056777414 0.011505783
-0.0060077664 -0.058876112 0.01166141
-0.0048275613 -0.059137627 0.011456788
-0.0036026454 -0.058843207 0.011094749
-0.0023824158 -0.05836919 0.01083374
-0.001188354 -0.058229346 0.010924965
0 -0.05923019 0.012595057
0.001177686 -0.057706617 0.013091773
0.0023755885 -0.058201917 0.013946384
0.003544674 -0.057896342 0.01487273
0.0047463663 -0.05814299 0.01681295
0.0057989941 -0.056830142 0.018439591
0.0070086573 -0.057237368 0.019233555
0.008076597 -0.056536179 0.020029336
0.0092523936 -0.056670912 0.020677507
0.01030637 -0.056112457 0.020868957
0.01156724 -0.056679476 0.021174341
0.012829038 -0.057147533 0.021766156
0.013951901 -0.056970265 0.022325546
0.01511734 -0.056980744 0.022710949
0.01603576 -0.056125157 0.02260682
0.017260941 -0.056385741 0.022567719
0.018748071 -0.05741597 0.021388054
0.019235454 -0.055443369 0.020585924
0.020537926 -0.055908799 0.018338382
0.022652877 -0.05842058 0.017763019
0.023407524 -0.057348434 0.017552376
0.024563257 -0.057314266 0.015358776
0.026238346 -0.058439955 0.013839036
0.02691064 -0.057331365 0.013146341
0.028259113 -0.057695691 0.011838764
0.029815389 -0.05843816 0.011048317
0.03081329 -0.0580712 0.010099888
0.031894613 -0.057882816 0.010104656
0.033312026 -0.058296047 0.0094115734
0.034659609 -0.058562785 0.0087460876
0.035707772 -0.058322694 0.0084221065
0.036966406 -0.058430772 0.0076605082
0.0384917 -0.058940414 0.0064271688
0.039331701 -0.058401614 0.0058264434
0.041095469 -0.059225824 0.0050676465
-0.015640931 -0.05775113 0.0050202012
-0.014389187 -0.057556748 0.0057657659
-0.013155506 -0.057405841 0.0072540641
-0.011784815 -0.056567114 0.0075991154
-0.010524135 -0.056128722 0.0084499121
-0.0093928287 -0.05635697 0.0088977814
-0.0079669431 -0.054630466 0.010109395
-0.0072650472 -0.058120377 0.010255545
-0.0059498698 -0.057118747 0.010215521
-0.004822209 -0.057866506 0.010474712
-0.003565894 -0.057054304 0.010556191
-0.0024347263 -0.058433432 0.010462582
-0.0011967691 -0.057444915 0.011451751
0 -0.056110729 0.013606817
0.0011956107 -0.057389315 0.014475554
0.0024119264 -0.057886232 0.015394211
0.0036002763 -0.057604421 0.016712159
0.004567882 -0.054814585 0.018450171
0.0057081687 -0.054798421 0.018985659
0.0070221964 -0.056177571 0.019718856
0.0081683351 -0.056011438 0.020424426
0.0093469936 -0.056081962 0.020974547
0.010452826 -0.055748403 0.021259815
0.01151788 -0.055285819 0.021528423
0.012989259 -0.056680407 0.021826446
0.013800545 -0.055202179 0.022172123
0.015309832 -0.056528609 0.022762001
0.016254969 -0.055731323 0.022661239
0.017535998 -0.056115195 0.021658093
0.018462522 -0.055387568 0.020876497
0.019892944 -0.056168314 0.019501865
0.020537918 -0.054767784 0.018957466
0.021858061 -0.055220366 0.018244714
0.023635266 -0.056724638 0.017463565
0.024792125 -0.056667712 0.016055197
0.026537033 -0.05789898 0.014367372
0.027036652 -0.056424316 0.013367027
0.028470919 -0.056941837 0.011900157
0.02971505 -0.057052895 0.011049122
0.031248311 -0.05768919 0.01046133
0.031978413 -0.056850512 0.010201067
0.03395234 -0.05820401 0.0091496706
0.035012338 -0.057951458 0.0083827972
0.035995994 -0.057593592 0.0077773929
0.037471447 -0.058020301 0.0068758726
0.038865153 -0.058297727 0.0061599314
0.039608452 -0.057612296 0.0058557391
-0.014307227 -0.05603664 0.0057153702
-0.013111877 -0.056023475 0.0063357055
-0.011742705 -0.055190708 0.0071623623
-0.010533405 -0.055007778 0.0073918998
-0.0093742507 -0.055073723 0.0076625645
-0.0084810611 -0.05694427 0.008670181
-0.0072097923 -0.056476705 0.0089131892
-0.0060632322 -0.056994382 0.0093641877
-0.0047736643 -0.056090556 0.0099734366
-0.0035984332 -0.056375455 0.010445863
-0.0024100887 -0.056637082 0.010522455
-0.0011861561 -0.055749338 0.011121035
0 -0.056801114 0.013155103
0.0011681711 -0.054904044 0.014841586
0.0023504645 -0.055235915 0.015917659
0.0034762602 -0.054461408 0.017480344
0.0045873607 -0.053901486 0.019041181
0.0057910387 -0.054435764 0.019729555
0.0070057004 -0.054877985 0.020783931
0.0080185197 -0.053838633 0.021270484
0.0092518553 -0.054354649 0.022046566
0.010376517 -0.054188475 0.02211228
0.011583023 -0.054440208 0.022319794
0.012722389 -0.054359298 0.022343993
0.014004483 -0.054850891 0.022124648
0.015209155 -0.054986943 0.022356123
0.016637877 -0.055855729 0.022217691
0.017498437 -0.054828439 0.021502435
0.018440967 -0.05417034 0.020569623
0.019837959 -0.054846119 0.019813597
0.020568477 -0.053706579 0.018901765
0.021310639 -0.05271579 0.018585205
0.023096882 -0.054277673 0.017488837
0.024987619 -0.055924673 0.015809715
0.026124449 -0.055811323 0.014594048
0.027116308 -0.055411585 0.013593853
0.028361244 -0.05554077 0.012214929
0.029664718 -0.055769671 0.011159182
0.030707214 -0.055509195 0.010036349
0.03218684 -0.056028944 0.010044813
0.033495847 -0.056225173 0.0087183416
0.034890536 -0.056546729 0.0079961717
0.035891887 -0.05623062 0.0071970224
0.037137784 -0.056305673 0.0065665841
0.03839051 -0.056386065 0.0056975782
-0.012951513 -0.054160871 0.0059048831
-0.011624329 -0.053471912 0.0059775412
-0.010549192 -0.053918093 0.0066825747
-0.0097710937 -0.056183785 0.0070141852
-0.0082902368 -0.054478701 0.0074492097
-0.007193625 -0.055151127 0.0083095133
-0.005903753 -0.054314528 0.0080943108
-0.0048092185 -0.05530601 0.0098587871
-0.0036505233 -0.055974688 0.01069805
-0.0024056749 -0.055330522 0.011235088
-0.0011976054 -0.05508985 0.012005955
0 -0.055434983 0.014054805
0.0011613291 -0.053421136 0.015584528
0.0023153203 -0.053252365 0.017737061
0.0034954231 -0.053596489 0.019727618
0.0046936274 -0.053976715 0.020193666
0.0058254139 -0.053593811 0.020901203
0.0069035687 -0.05292736 0.021426708
0.0082411645 -0.054156221 0.021934867
0.009306361 -0.053511575 0.022549212
0.010522312 -0.053780701 0.022561401
0.011869347 -0.054598995 0.022502661
0.012606925 -0.052719872 0.022304177
0.014028452 -0.053775735 0.022025615
0.01511075 -0.053468805 0.022026747
0.016604429 -0.054557413 0.021825492
0.017115315 -0.052486967 0.020868868
0.018754601 -0.053919479 0.020021647
0.019498073 -0.052759491 0.019182444
0.020830236 -0.05323283 0.018768728
0.022709282 -0.054980367 0.018353671
0.0227008 -0.05221184 0.017384261
0.024559027 -0.053795964 0.016052574
0.026622381 -0.055664979 0.014748842
0.026824813 -0.053649627 0.013590336
0.028372617 -0.054380849 0.012326807
0.02931755 -0.053944293 0.011556745
0.031013753 -0.054870486 0.010735899
0.032135583 -0.054749515 0.0099644661
0.033631731 -0.055252131 0.0088793337
0.03439112 -0.05455143 0.0078441799
0.035993651 -0.055190265 0.0067740381
0.037828971 -0.056133311 0.0063031316
-0.012194628 -0.054875825 0.0053865314
-0.010873228 -0.054366142 0.0063224137
-0.0097094942 -0.054615907 0.0071444213
-0.0083720274 -0.053820174 0.0074850619
-0.0072286222 -0.054214668 0.0078870058
-0.0060319845 -0.054287858 0.008272022
-0.0048054815 -0.05406167 0.0088397563
-0.0036433323 -0.054649983 0.010600865
-0.0023750286 -0.053438142 0.011736304
-0.001205146 -0.054231565 0.012615472
0 -0.051968195 0.015274376
0.0011605764 -0.052225932 0.017367482
0.0023566156 -0.053023852 0.020107627
0.0035385264 -0.053077895 0.020398766
0.0046430635 -0.052234463 0.021149576
0.0056405822 -0.050765239 0.021550477
0.007003665 -0.052527487 0.022157311
0.0081343381 -0.052292172 0.022751361
0.0092788832 -0.052193716 0.022940844
0.010420634 -0.052103173 0.022396058
0.011535129 -0.05190808 0.022261858
0.012672391 -0.051841598 0.02216512
0.014278314 -0.053543679 0.022341013
0.01529189 -0.052933466 0.021995246
0.016283393 -0.052339476 0.021655709
0.0174047 -0.052214097 0.020806134
0.018751347 -0.052738164 0.020007133
0.019796984 -0.052403785 0.019757926
0.020654436 -0.051636089 0.018937677
0.022502933 -0.053296421 0.018072605
0.023767235 -0.053476278 0.017128319
0.024451187 -0.0523954 0.015853643
0.02504422 -0.051226813 0.015117407
0.026864933 -0.052561823 0.013223439
0.028694937 -0.053803008 0.012380987
0.029959025 -0.053926244 0.01120621
0.031084416 -0.05379995 0.010048151
0.032227017 -0.053711697 0.00993976
0.033661835 -0.054099377 0.0090991557
0.034711491 -0.053862661 0.007796973
0.036430817 -0.054646228 0.0052166283
-0.010943208 -0.053500131 0.0057477355
-0.0095498068 -0.052523937 0.0068607628
-0.0084635857 -0.053199682 0.0076392293
-0.0071809059 -0.052659977 0.0082828701
-0.0060159974 -0.052940778 0.0087550879
-0.0048309802 -0.053140782 0.010043204
-0.0036375816 -0.053351194 0.011952579
-0.0023698518 -0.052136738 0.012667388
-0.001151829 -0.050680477 0.013609588
0 -0.051780581 0.016137242
0.0011687183 -0.051423609 0.017655581
0.002332537 -0.051315814 0.020253927
0.0034554007 -0.050679211 0.020872355
0.0046778247 -0.051456071 0.021876901
0.0058727232 -0.051679965 0.022028714
0.0069376528 -0.050876118 0.022114307
0.0081849229 -0.051448084 0.022489905
0.0092547592 -0.050901175 0.022724301
0.010553692 -0.051595829 0.022231072
0.011621397 -0.051134147 0.022081196
0.012854436 -0.051417746 0.021911293
0.013853806 -0.050797287 0.021720201
0.014928687 -0.050527863 0.021692604
0.01635039 -0.051386941 0.021516651
0.017282721 -0.050695978 0.020893604
0.018219642 -0.050104015 0.020419449
0.019645307 -0.050846677 0.019507349
0.020352412 -0.049750339 0.019134074
0.022327675 -0.051706191 0.018528461
0.023493867 -0.051686507 0.017738163
0.025123172 -0.052639026 0.016492456
0.026155263 -0.052310526 0.015033692
0.026995892 -0.051644314 0.013269991
0.02845034 -0.052158959 0.012156695
0.029944651 -0.052702583 0.010860354
0.031022012 -0.052498791 0.010456324
0.032492366 -0.052950524 0.0091889799
0.033947188 -0.053345583 0.0086834729
0.03519392 -0.05339767 0.0067207515
0.036517568 -0.053559102 0.0056457222
-0.01090614 -0.052107118 0.0059702098
-0.0097241234 -0.052267164 0.0066997409
-0.0085555231 -0.052555356 0.0079550743
-0.0072889752 -0.052237656 0.0088439882
-0.0060328953 -0.0518829 0.0097113848
-0.0048040147 -0.051643159 0.010546654
-0.0036285152 -0.052008718 0.012824595
-0.0023262468 -0.05001431 0.013286024
-0.001182524 -0.050848532 0.014818102
0 -0.049666222 0.017053097
0.0011707561 -0.050342511 0.018548846
0.0023281982 -0.05005626 0.021016032
0.0034907791 -0.050034501 0.021388948
0.0046684155 -0.050185468 0.021859348
0.0058475495 -0.050288923 0.022018611
0.0070402296 -0.050454978 0.02204448
0.0082533825 -0.050699346 0.022349149
0.009385664 -0.050447945 0.022277862
0.010427739 -0.049821418 0.022061229
0.011680168 -0.050224725 0.021979243
0.012854046 -0.050247636 0.021972537
0.014125443 -0.050616171 0.021775693
0.015037552 -0.049739599 0.021670073
0.016420703 -0.050435018 0.02164197
0.017746478 -0.050873239 0.021113217
0.01891215 -0.050826401 0.02009055
0.020083804 -0.050800212 0.019711256
0.020973429 -0.050103195 0.018981338
0.022213599 -0.050272882 0.018096745
0.023423739 -0.050361041 0.01720348
0.024508668 -0.050184414 0.01660189
0.026165208 -0.051141091 0.015603781
0.027125286 -0.050712492 0.014645696
0.029058633 -0.052063383 0.013020247
0.030089835 -0.051754516 0.010982066
0.030915111 -0.051128838 0.0097534657
0.032488149 -0.051740382 0.0084183216
0.034155708 -0.052453406 0.0074276328
0.034963652 -0.05184266 0.0059719086
0.036804743 -0.052753467 0.0050882101
-0.010791645 -0.050361015 0.0053602755
-0.0097559756 -0.051218871 0.0066221654
-0.0083862329 -0.050317399 0.0090281665
-0.0072228773 -0.050560139 0.0099675953
-0.0060744495 -0.051025376 0.011648595
-0.0048111621 -0.050517205 0.013333917
-0.0035294297 -0.049412016 0.014169455
-0.0023739648 -0.049853262 0.014135092
-0.0011532746 -0.048437532 0.016032964
0 -0.049697671 0.017572194
0.0011888228 -0.049930558 0.01892066
0.0023378683 -0.049095232 0.02077502
0.0034831511 -0.048764117 0.021494925
0.0046367832 -0.048686221 0.022143453
0.005804047 -0.048753995 0.022143453
0.0069536427 -0.0486755 0.022050023
0.0081075598 -0.048645355 0.022399694
0.0094077569 -0.049390722 0.022399694
0.010339023 -0.048248772 0.022229016
0.011781537 -0.049482457 0.021379352
0.012773122 -0.0487701 0.021206796
0.014138096 -0.049483337 0.021010697
0.015087698 -0.048744872 0.021167934
0.016642772 -0.049928315 0.021167934
0.017778745 -0.049780488 0.021116525
0.018880276 -0.049560726 0.020986676
0.019579763 -0.048373532 0.020163685
0.020577943 -0.0480152 0.02020213
0.022001017 -0.048633825 0.019051164
0.023543464 -0.049441278 0.018716455
0.025168866 -0.050337732 0.018084586
0.025848173 -0.04934651 0.016394287
0.027559744 -0.050326489 0.014832348
0.028325779 -0.049570113 0.013477415
0.030005103 -0.050408572 0.011501998
0.031630661 -0.051095683 0.0096091926
0.032616775 -0.050737206 0.0078747869
0.033813909 -0.050720863 0.0064863563
0.035288706 -0.051107779 0.0054626167
-0.011066067 -0.050412085 0.0059533715
-0.0097902063 -0.050174806 0.0078109801
-0.0084029548 -0.04921731 0.010058701
-0.0072811092 -0.049754243 0.011715561
-0.006084871 -0.049895942 0.012969822
-0.0047129202 -0.04830743 0.014783323
-0.0035609251 -0.048665978 0.015229315
-0.0023604508 -0.048389241 0.015773296
-0.0011612122 -0.047609698 0.016897321
0 -0.047442354 0.018411636
0.0011662121 -0.047814697 0.019243151
0.0023332562 -0.047831751 0.020295352
0.0034403803 -0.047018532 0.020691961
0.004662679 -0.047792461 0.021424681
0.0057751401 -0.047356147 0.021132171
0.0070038242 -0.047859464 0.021412104
0.0080901384 -0.047385093 0.021427423
0.0094688078 -0.048527643 0.021449596
0.010604661 -0.04831012 0.021745294
0.011635352 -0.047704943 0.021335155
0.013030703 -0.048568986 0.021365374
0.013960505 -0.047698393 0.021365374
0.015380978 -0.048509236 0.021610618
0.016492777 -0.048300274 0.021676987
0.017713103 -0.048415814 0.021610618
0.018874604 -0.04836617 0.021710277
0.019789146 -0.047726765 0.021151274
0.021046318 -0.047938839 0.021051466
0.022278955 -0.048075642 0.020020038
0.023311051 -0.047787651 0.019542307
0.025970859 -0.050705012 0.01906848
0.025818946 -0.048117127 0.017366737
0.027170768 -0.048434846 0.015191823
0.028586064 -0.048834525 0.013404429
0.030413123 -0.049877521 0.011320978
0.031528123 -0.049717426 0.00851053
0.032764915 -0.049754128 0.0068998635
0.033894271 -0.049630899 0.0058593154
-0.011036474 -0.049050998 0.0058165193
-0.00974927 -0.048746351 0.0081097186
-0.0085160732 -0.048663277 0.01034233
-0.0071618776 -0.04774585 0.012302667
-0.0058958805 -0.047167044 0.013331831
-0.004784395 -0.047843948 0.015195459
-0.0035038649 -0.046718199 0.01580283
-0.0023693605 -0.047387213 0.016016066
-0.0011668867 -0.046675466 0.017231077
0 -0.047004875 0.018521607
0.0011715207 -0.046860829 0.019387662
0.0023538731 -0.047077462 0.019875884
0.0034864873 -0.046486497 0.020582825
0.0046280613 -0.046280611 0.021135509
0.0058897836 -0.047118269 0.021135509
0.0069983588 -0.046655726 0.021135509
0.0081008328 -0.046290472 0.021416932
0.0094044609 -0.047022305 0.021548301
0.010487833 -0.046612591 0.021504104
0.011753035 -0.047012139 0.021143049
0.01294023 -0.047055382 0.021778822
0.01392471 -0.046415702 0.021944821
0.01537231 -0.047299415 0.021562874
0.016585819 -0.047388054 0.022439748
0.017523963 -0.04673057 0.022163421
0.0183775 -0.045943748 0.022585571
0.019970447 -0.046989288 0.022074014
0.021400537 -0.047556747 0.022422165
0.022662072 -0.047709621 0.021275312
0.023596132 -0.047192264 0.020546019
0.025525942 -0.048620842 0.020002037
0.027110247 -0.049291357 0.018504262
0.027327664 -0.047526374 0.016745508
0.028816955 -0.048028257 0.013937473
0.02983964 -0.047743425 0.010876
0.031442795 -0.048373528 0.0079780221
0.033103392 -0.049042061 0.0068084896
0.034054473 -0.048649248 0.0057168305
-0.01085923 -0.047056664 0.0058584809
-0.0098072756 -0.047810469 0.0080476701
-0.0082911439 -0.046193514 0.010888755
-0.0070660119 -0.045929078 0.012612343
-0.0059443335 -0.046365801 0.014444083
-0.0047029206 -0.045853477 0.0155285
-0.0035470233 -0.046111304 0.016000301
-0.0023534996 -0.045893244 0.016658276
-0.0011856023 -0.046238489 0.017618716
0 -0.044906933 0.018875033
0.0011876755 -0.046319343 0.019671559
0.0023703286 -0.046221409 0.020025671
