ply
format ascii 1.0
comment PCL generated
element vertex 1263
property float x
property float y
property float z
element camera 0
property float view_px
property float view_py
property float view_pz
property float x_axisx
property float x_axisy
property float x_axisz
property float y_axisx
property float y_axisy
property float y_axisz
property float z_axisx
property float z_axisy
property float z_axisz
property float focal
property float scalex
property float scaley
property float centerx
property float centery
property int viewportx
property int viewporty
property float k1
property float k2
end_header
0.023274127 -0.077968329 0.0088551044
0.024220387 -0.077274568 0.0077544749
0.025669707 -0.078175925 0.0075015128
0.026373168 -0.076826185 0.0063620508
0.028632252 -0.079931699 0.0059352815
0.029281849 -0.078475356 0.0055850446
0.030271526 -0.078007393 0.0051217079
0.031665016 -0.078576148 0.0051925778
-0.026040165 -0.078120492 0.0057626665
-0.024554864 -0.077172428 0.0064139366
-0.023570875 -0.07778389 0.007894218
-0.02214676 -0.076930851 0.0083495677
-0.021047015 -0.077172384 0.0091685951
-0.01976208 -0.076723374 0.010536879
-0.018441001 -0.076069131 0.011391431
-0.017415058 -0.076626256 0.012392908
-0.016156765 -0.076167598 0.01315257
-0.015037173 -0.076342575 0.013982773
-0.013710034 -0.075405188 0.014349997
-0.012570438 -0.07542263 0.015228033
-0.011509319 -0.075961508 0.015396476
-0.010193657 -0.074753486 0.016629487
-0.0091870725 -0.075793348 0.017467886
-0.0079483539 -0.07494162 0.018104404
-0.0068843332 -0.075727664 0.018516272
-0.0057042856 -0.075296566 0.018965572
-0.0045577157 -0.075202309 0.019120425
-0.0034110595 -0.075043306 0.019794047
-0.002266652 -0.074799515 0.019917399
-0.0011387519 -0.07515762 0.020118654
0 -0.074708082 0.020653486
0.0011346142 -0.074884541 0.020733863
0.002267869 -0.074839674 0.020733863
0.0034364322 -0.075601503 0.020596057
0.0045686676 -0.075383015 0.019712895
0.0056893788 -0.075099804 0.019602776
0.0069471207 -0.076418325 0.019062042
0.0080007352 -0.075435504 0.019142032
0.0092216264 -0.076078415 0.018462867
0.010372685 -0.07606636 0.017995298
0.011382189 -0.075122446 0.01701504
0.012707597 -0.076245584 0.016463161
0.013888844 -0.076388642 0.015924633
0.014907516 -0.075684309 0.015103847
0.016137183 -0.076075293 0.014150172
0.017399553 -0.076558039 0.013753116
0.018182242 -0.075001746 0.013045639
0.019522315 -0.075792514 0.012365758
0.021107193 -0.07739304 0.011413544
0.021761056 -0.075591035 0.010611653
0.023490658 -0.077519171 0.0093798339
0.024682468 -0.077573471 0.0081948638
0.025710016 -0.077130049 0.0072613955
0.02714875 -0.077905111 0.0066553056
0.028187977 -0.077516936 0.0060407221
0.029332206 -0.077437021 0.0054025352
-0.025807668 -0.076249927 0.0054273009
-0.024611076 -0.076177143 0.0066740513
-0.023759382 -0.077217996 0.0072146058
-0.022480594 -0.076907292 0.0087716877
-0.020922313 -0.075552791 0.0087635517
-0.019972973 -0.076367244 0.0096504092
-0.018380685 -0.074671537 0.011107028
-0.017449746 -0.07561557 0.01210767
-0.016153365 -0.07499776 0.012424529
-0.014959695 -0.074798472 0.013633817
-0.013813673 -0.074824058 0.014487028
-0.012638011 -0.074679151 0.015340537
-0.011345665 -0.073746823 0.015488952
-0.010172824 -0.073470399 0.016524494
-0.0091242772 -0.074134752 0.016958356
-0.0078346133 -0.07274998 0.017821401
-0.0067671337 -0.073310614 0.018618852
-0.0057076253 -0.074199133 0.01898855
-0.0045306897 -0.073623709 0.019353658
-0.0034320485 -0.074361049 0.019848019
-0.0022744362 -0.07391917 0.020050585
-0.0011246314 -0.073101044 0.020307451
0 -0.074335441 0.020648628
0.0011341858 -0.073722079 0.020804048
0.002266038 -0.073646232 0.020633668
0.0034238331 -0.074183047 0.020354331
0.0045207096 -0.073461533 0.019965857
0.0056799375 -0.073839188 0.019877583
0.0067817373 -0.073468819 0.019631684
0.0079687824 -0.073995836 0.019910067
0.0091491016 -0.074336454 0.019209534
0.010220463 -0.073814452 0.018348575
0.011433272 -0.074316263 0.017145962
0.012595183 -0.074426085 0.016905636
0.013714399 -0.074286327 0.016390353
0.015022953 -0.075114764 0.015727013
0.016521202 -0.076705582 0.014781415
0.017465254 -0.075682767 0.01399979
0.018291175 -0.074307904 0.013484836
0.01978795 -0.075659811 0.013060302
0.021042688 -0.075987481 0.011810511
0.022152577 -0.07578513 0.01105541
0.023550296 -0.076538466 0.0095724463
0.024514083 -0.075876921 0.0083600283
0.026127171 -0.077193916 0.0075319707
0.027014704 -0.076345898 0.0068739653
0.02801894 -0.075884633 0.0061861873
0.02937177 -0.076366603 0.0056235492
0.030508652 -0.076271631 0.0050373971
-0.027556894 -0.076680057 0.005330205
-0.025854377 -0.075212732 0.0061118901
-0.024789693 -0.075549535 0.006444931
-0.023818923 -0.076220557 0.00757581
-0.022228725 -0.074875705 0.0084722936
-0.020975843 -0.074580774 0.0094164312
-0.019779593 -0.074464351 0.0098726451
-0.01871044 -0.07484176 0.010585904
-0.017238915 -0.073552705 0.012107223
-0.016114099 -0.073664457 0.012595534
-0.014977001 -0.073732927 0.013664186
-0.013671225 -0.0729132 0.014531672
-0.012450532 -0.072439462 0.015225977
-0.011571313 -0.074056402 0.015910894
-0.010845804 -0.077125713 0.01635614
-0.0095068589 -0.076054871 0.017261952
-0.0083832154 -0.076646544 0.01797539
-0.0071333214 -0.076088764 0.018811077
-0.0056762397 -0.072655864 0.019377649
-0.0045523178 -0.072837085 0.019859552
-0.003408287 -0.072710119 0.02038607
-0.00230059 -0.073618881 0.020336717
-0.0011430018 -0.073152117 0.020336717
0 -0.072295353 0.020881265
0.0011308895 -0.072376929 0.021054417
0.0022786784 -0.072917707 0.021243989
0.0033882018 -0.072281636 0.020904422
0.0045581604 -0.072930567 0.020646781
0.0057157995 -0.073162235 0.020304173
0.0068043158 -0.072579369 0.020517111
0.0080266548 -0.073386557 0.020431995
0.0091986936 -0.073589548 0.019442469
0.010312385 -0.073332518 0.018909335
0.011628509 -0.074422464 0.017769188
0.012639937 -0.073541448 0.017461777
0.013795337 -0.073575124 0.017040789
0.015017333 -0.073931485 0.016229331
0.016080886 -0.073512621 0.015076727
0.017279059 -0.073723979 0.014697492
0.018654002 -0.074616008 0.01386562
0.019569732 -0.073674284 0.013136029
0.021074347 -0.074931011 0.011738181
0.022105124 -0.074459367 0.010826975
0.023435945 -0.074995019 0.0098281503
0.024893085 -0.075864635 0.0085732937
0.025619056 -0.074528165 0.0078072548
0.026912592 -0.074887209 0.0069681406
0.028370246 -0.075653985 0.0062029958
0.029455205 -0.075405322 0.005915761
0.030713845 -0.075603314 0.005613625
0.032357216 -0.076698579 0.0051713288
-0.026086817 -0.074703157 0.0055516362
-0.024923529 -0.074770585 0.0058242381
-0.023519622 -0.074086815 0.0065720081
-0.022480369 -0.074540168 0.0077228844
-0.021160619 -0.074062161 0.0086323619
-0.019879675 -0.073671736 0.0098956823
-0.01872096 -0.073713779 0.010244638
-0.017352756 -0.072881579 0.011575162
-0.016347272 -0.073562726 0.011781901
-0.014786197 -0.071656182 0.012697339
-0.013803195 -0.072466776 0.013921738
-0.013149841 -0.075312719 0.015095115
-0.011641772 -0.073343165 0.015639096
-0.010658421 -0.074608944 0.016530186
-0.0093246875 -0.073431917 0.017532051
-0.0082050702 -0.073845632 0.017926544
-0.0069941254 -0.073438317 0.019228727
-0.0059738131 -0.075270049 0.019625247
-0.0045159739 -0.071126588 0.02000165
-0.0034569972 -0.072596945 0.020633906
-0.002264037 -0.071317166 0.021078616
-0.0011483436 -0.072345644 0.020717204
0 -0.071421601 0.021147728
0.0011440823 -0.072077185 0.021338463
0.0022756031 -0.071681499 0.021657109
0.0034575453 -0.072608449 0.021213591
0.0045359395 -0.071441047 0.020831227
0.0056722006 -0.071469732 0.020660192
0.0068944232 -0.072391443 0.020979196
0.0079707373 -0.071736634 0.020655841
0.0092472695 -0.07282225 0.019846022
0.010354428 -0.072480991 0.019408941
0.011453727 -0.072158486 0.018271506
0.012570163 -0.071992755 0.01834929
0.014052184 -0.073773973 0.017707169
0.015266309 -0.07398288 0.017021149
0.016084939 -0.072382227 0.015754282
0.017383782 -0.073011883 0.014984578
0.018414393 -0.072506674 0.014478743
0.019994441 -0.074097052 0.013770103
0.020868348 -0.073039219 0.011872232
0.022391409 -0.074245192 0.010945171
0.023940355 -0.075412117 0.0099452436
0.024525221 -0.073575668 0.0085196793
0.025999896 -0.074454248 0.0077541769
0.027302321 -0.074784622 0.0071868002
0.028588764 -0.075045504 0.0063841641
0.02992429 -0.075409211 0.0060271025
0.030974191 -0.075052842 0.005158186
-0.02367858 -0.073403604 0.0059042275
-0.022321744 -0.072839379 0.0065016747
-0.020982938 -0.072274566 0.0077811778
-0.019802831 -0.072222091 0.0088085234
-0.018554216 -0.071897589 0.009341687
-0.017277613 -0.071414135 0.010302216
-0.016144266 -0.07149604 0.011039168
-0.015249462 -0.072728202 0.012237191
-0.014268124 -0.073718637 0.013461113
-0.012715859 -0.07167121 0.014962435
-0.011385947 -0.070592865 0.015955329
-0.010487901 -0.072249986 0.016555756
-0.0094078053 -0.072910488 0.0177854
-0.0081503997 -0.072189249 0.018229395
-0.0069257058 -0.071565628 0.019637823
-0.0056471219 -0.070024312 0.020010322
-0.0048005539 -0.074408583 0.02055791
-0.0033950175 -0.070163697 0.020815015
-0.0022555871 -0.069923207 0.020872802
-0.0011353537 -0.070391931 0.020773113
0 -0.070811152 0.020872802
0.0011304831 -0.070089951 0.020956188
0.0022866374 -0.070885763 0.020881325
0.0033791272 -0.069835298 0.020836323
0.0044910372 -0.069611073 0.020655483
0.0056836493 -0.070477255 0.020511061
0.0068515581 -0.070799433 0.020688206
0.0079347827 -0.070279501 0.020520806
0.00906449 -0.070249796 0.020403415
0.010333418 -0.071185768 0.019009709
0.011511328 -0.071370237 0.018747598
0.012754689 -0.071890064 0.018537104
0.013849676 -0.071556658 0.017971754
0.014877658 -0.070954986 0.017262459
0.016203897 -0.071760111 0.016283005
0.01743732 -0.072074257 0.015765548
0.018526962 -0.071791977 0.015157551
0.019626001 -0.071577184 0.014229923
0.020869078 -0.071882382 0.012579918
0.022431515 -0.073197573 0.011373818
0.023538724 -0.07297004 0.010256439
0.024328193 -0.071826093 0.0088988841
0.025880488 -0.072935916 0.0076959133
0.027078256 -0.072993562 0.0069706142
0.028258743 -0.07300175 0.0063096881
0.029408928 -0.072934143 0.0053174496
-0.022517718 -0.072293729 0.0061348081
-0.021247437 -0.072005205 0.0064598024
-0.0199451 -0.071567714 0.0073844492
-0.018475898 -0.070439354 0.0087096691
-0.017315524 -0.070416458 0.009403795
-0.016449725 -0.071673803 0.010367066
-0.015440594 -0.072452024 0.012135267
-0.013774111 -0.070018396 0.012871176
-0.013026228 -0.072236359 0.01501438
-0.011532958 -0.070351042 0.016627312
-0.010757223 -0.072910063 0.017706275
-0.0095882947 -0.073110752 0.019047111
-0.0080381278 -0.070046537 0.019237578
-0.0069679134 -0.070840456 0.020474106
-0.0057894406 -0.070631176 0.020844102
-0.0046652933 -0.071145721 0.021412373
-0.0035461751 -0.072105564 0.02148205
-0.0022331162 -0.068110041 0.021531492
-0.0011535906 -0.070369028 0.021184862
0 -0.068623476 0.021309018
0.0011420213 -0.069663294 0.021184862
0.0022757398 -0.069410063 0.021186322
0.0034137394 -0.069412701 0.021148354
0.0046007512 -0.070161462 0.021032155
0.005635092 -0.068748124 0.020719409
0.0067012375 -0.068129249 0.021002471
0.0080355704 -0.070024259 0.020529717
0.0090394039 -0.068925455 0.019548982
0.010391781 -0.070433185 0.018969893
0.011331468 -0.069121957 0.018673658
0.012783179 -0.070888542 0.018450141
0.013687196 -0.069576584 0.018162251
0.015076653 -0.070744298 0.017545998
0.016183913 -0.070515625 0.016737401
0.017241592 -0.070115812 0.016042322
0.018358106 -0.069990277 0.015026838
0.019715503 -0.070743859 0.013462335
0.021157652 -0.071700931 0.012530535
0.022257701 -0.071458928 0.011345476
0.023015203 -0.070196368 0.0097279549
0.024980145 -0.072561376 0.008644402
0.026052482 -0.072236426 0.0078243613
0.027074883 -0.071807303 0.0074721277
0.028669516 -0.072868355 0.0062893629
0.029545035 -0.072089888 0.0057758689
-0.022447774 -0.070887707 0.0051678419
-0.021244671 -0.070815571 0.0064303875
-0.019926956 -0.070330434 0.0069888234
-0.018572697 -0.06964761 0.0074114501
-0.017997809 -0.071991235 0.0090374947
-0.016370878 -0.070160903 0.0099179149
-0.015184608 -0.070082806 0.011250407
-0.014167398 -0.070836991 0.012859941
-0.013150436 -0.071729653 0.014461309
-0.01193746 -0.071624756 0.016714036
-0.010586537 -0.070576914 0.018518269
-0.0091915596 -0.068936698 0.019588649
-0.0079585966 -0.068216547 0.019978583
-0.0069070593 -0.069070593 0.021336854
-0.0058111893 -0.069734275 0.021459699
-0.0045774677 -0.068662018 0.022109777
-0.0034700797 -0.069401592 0.022050381
-0.0023189033 -0.069567099 0.022049665
-0.0011310226 -0.067861356 0.021819144
0 -0.067806751 0.021600455
0.0011483788 -0.068902731 0.021458864
0.0022632419 -0.06789726 0.021615177
0.0034362816 -0.068725631 0.021182835
0.0044970843 -0.067456268 0.02123636
0.0059025311 -0.070830375 0.020781189
0.0070265308 -0.070265308 0.020907074
0.0081231222 -0.069626763 0.019883811
0.0093990639 -0.070492983 0.019490093
0.010122965 -0.067486435 0.019228488
0.011401711 -0.06841027 0.018889368
0.012495525 -0.068157412 0.01869911
0.013824079 -0.0691204 0.018438935
0.014889463 -0.068720601 0.01733005
0.016123777 -0.069101907 0.016821951
0.017368853 -0.069475412 0.015732259
0.018646691 -0.069925092 0.015191972
0.019659057 -0.06938491 0.01396367
0.020946806 -0.069822691 0.012448519
0.022091793 -0.069763556 0.011782378
0.023577714 -0.070733145 0.010121495
0.024623176 -0.070351936 0.0084463954
0.025934065 -0.070729271 0.0079694688
0.027199991 -0.070956498 0.0074293911
0.028508302 -0.071270756 0.0061110854
0.029556394 -0.070935346 0.0051537752
-0.021040251 -0.068965271 0.0057837069
-0.019895239 -0.069048181 0.0070030391
-0.0190959 -0.07041613 0.0073305964
-0.017896827 -0.070394188 0.0092244148
-0.016535632 -0.069685876 0.0099227726
-0.015104151 -0.068549611 0.011592865
-0.014052231 -0.069090135 0.012382984
-0.013174134 -0.070661269 0.014750391
-0.011579062 -0.068316467 0.016858965
-0.01053083 -0.069035441 0.019128531
-0.0090937838 -0.067066655 0.02060169
-0.0079020159 -0.066602707 0.021113127
-0.0068373764 -0.067234203 0.021852374
-0.0057202382 -0.067498811 0.02223587
-0.0046026297 -0.067888789 0.022647351
-0.0034683093 -0.06821008 0.02254191
-0.0023334376 -0.068836406 0.022543222
-0.0011803118 -0.069638394 0.022481024
0 -0.065948077 0.02215606
0.0011391388 -0.067209192 0.021779716
0.0022587664 -0.066633612 0.021057934
0.0034688574 -0.068220861 0.02066505
0.004701294 -0.069344081 0.020723343
0.0057433811 -0.067771897 0.020554543
0.006834453 -0.067205451 0.020257384
0.007925461 -0.066800319 0.019861519
0.0091283713 -0.06732174 0.019894511
0.01058344 -0.069380328 0.019210726
0.011453633 -0.067576438 0.019048482
0.01252986 -0.067205615 0.019016027
0.013794345 -0.067822196 0.018477112
0.01495379 -0.067867197 0.017801642
0.016027736 -0.067545459 0.017067879
0.01753347 -0.068964981 0.016156614
0.018245829 -0.067281492 0.015664756
0.019762825 -0.068588629 0.014525265
0.020789446 -0.068143189 0.012420505
0.022186948 -0.068896309 0.011894107
0.023398079 -0.069024332 0.010264337
0.024618497 -0.069166258 0.0090485513
0.025894394 -0.06944406 0.008099407
0.026843859 -0.068860337 0.0070872605
0.028851736 -0.070927188 0.0057363808
0.030006766 -0.070815973 0.0051212013
-0.022610309 -0.069020942 0.0050885081
-0.021142351 -0.068125352 0.0052924156
-0.020552436 -0.070120074 0.0064021945
-0.019079596 -0.069163531 0.0076113939
-0.018237641 -0.070518874 0.0081211925
-0.016298048 -0.067520484 0.010282904
-0.015492127 -0.069118723 0.012177467
-0.014259892 -0.06892281 0.014085412
-0.012909073 -0.068066023 0.015690625
-0.011621805 -0.067406468 0.018689722
-0.010285954 -0.066287257 0.020871013
-0.0091810701 -0.066562757 0.022385597
-0.0077792909 -0.064456984 0.022981048
-0.0067563057 -0.065310955 0.022816241
-0.0057154163 -0.066298828 0.023135364
-0.0045312853 -0.065703638 0.023265332
-0.0034275935 -0.066266805 0.023564279
-0.0023234733 -0.067380726 0.022978216
-0.0011376865 -0.065985821 0.022586673
0 -0.068321347 0.022110045
0.0011230672 -0.0651379 0.021499574
0.0023343158 -0.067695156 0.020905286
0.0034582932 -0.066860333 0.020354122
0.0045948769 -0.066625714 0.020188808
0.005836321 -0.067701325 0.020410269
0.0069273328 -0.066964217 0.019652724
0.008127179 -0.06733948 0.019203067
0.009268282 -0.067195043 0.019436479
0.010274444 -0.066213079 0.019203067
0.011647991 -0.067558348 0.018267155
0.012498485 -0.065901101 0.018349856
0.013739676 -0.066408433 0.01814875
0.014779809 -0.065940686 0.017716408
0.016407993 -0.067975968 0.016939908
0.017251525 -0.066705897 0.016264558
0.01850892 -0.06709484 0.01526916
0.019722681 -0.067289151 0.014674127
0.0210131 -0.06770888 0.012868434
0.022092393 -0.067439936 0.011358976
0.023482295 -0.068098657 0.0097275376
0.024616221 -0.067987658 0.0091796815
0.026092734 -0.068789937 0.0077336133
0.027186833 -0.068558104 0.0065034926
0.028585082 -0.069080614 0.0055832863
-0.021500681 -0.068085492 0.0050885081
-0.020246327 -0.067884743 0.005620867
-0.0193836 -0.069054075 0.0068626702
-0.017797654 -0.067631088 0.0080970824
-0.016724305 -0.068091817 0.010282904
-0.015428117 -0.067646362 0.012011141
-0.014013734 -0.066565238 0.01434949
-0.012922538 -0.066962242 0.018110603
-0.011164485 -0.063637562 0.020871013
-0.010261313 -0.064988315 0.022081941
-0.0090699997 -0.064623751 0.023201883
-0.0077993269 -0.063508801 0.024390846
-0.0066718855 -0.063382916 0.024654478
-0.0056478144 -0.064385079 0.024638146
-0.0045471312 -0.064796619 0.024742275
-0.0033824611 -0.064266764 0.024503618
-0.0023006992 -0.06556993 0.023550838
-0.0011415269 -0.06506703 0.022647351
0 -0.066327743 0.022263259
0.0012067726 -0.06878604 0.021205366
0.002284982 -0.065121986 0.020812482
0.0034630569 -0.065798081 0.020354122
0.0046407008 -0.066129982 0.020213902
0.0058150282 -0.066291325 0.020410269
0.0070457747 -0.066934861 0.019310802
0.0080159279 -0.065272555 0.018993497
0.009208384 -0.065609731 0.019126505
0.010361624 -0.065623619 0.018800259
0.011646826 -0.066386908 0.018242329
0.012953352 -0.067121916 0.018718213
0.013809132 -0.065593377 0.018382668
0.015033133 -0.065914512 0.018299311
0.016008317 -0.065176718 0.017513573
0.017438779 -0.066267364 0.01615876
0.018437892 -0.065684997 0.015252829
0.019605836 -0.065737218 0.014880359
0.020797392 -0.065858409 0.012910903
0.021952588 -0.065857761 0.011677653
0.023720931 -0.067604654 0.010047108
0.025288351 -0.068639815 0.0091893375
0.025699459 -0.06658496 0.0074433684
0.027163213 -0.067317523 0.0063219666
0.028433489 -0.067529537 0.0054509342
-0.020273244 -0.066782452 0.0054954886
-0.019101169 -0.066854089 0.0066664815
-0.017825969 -0.066550285 0.0084932745
-0.016778024 -0.067112096 0.0097162127
-0.015356872 -0.066152684 0.012004942
-0.014364494 -0.067034304 0.015838683
-0.012528602 -0.063781977 0.020103753
-0.011188778 -0.062657155 0.022416115
-0.010217964 -0.063578442 0.023390234
-0.0090265879 -0.063186117 0.024508297
-0.0077643101 -0.062114481 0.025813818
-0.006869588 -0.06411615 0.025517583
-0.0056837308 -0.063657783 0.025049508
-0.0045934143 -0.064307801 0.025130242
-0.0034425771 -0.064261436 0.024862111
-0.0022642587 -0.06339924 0.024074465
-0.0011470669 -0.064235754 0.023415744
0 -0.065450586 0.022477478
0.0011316525 -0.063372537 0.021608263
0.0022679144 -0.063501596 0.021235645
0.0034469636 -0.064343326 0.020702302
0.0044861883 -0.062806636 0.020718545
0.0057681082 -0.064602807 0.020303458
0.0068538701 -0.063969456 0.019556254
0.0081284754 -0.065027803 0.019696325
0.0092751198 -0.064925842 0.019820631
0.010329249 -0.064270884 0.019519269
0.011775321 -0.065941803 0.018644482
0.01277916 -0.065057546 0.018907249
0.014119678 -0.065891832 0.018440992
0.014751274 -0.063543946 0.018072903
0.016118225 -0.064472899 0.016851187
0.017151982 -0.06403406 0.015935183
0.018442709 -0.064549483 0.015123695
0.019570598 -0.064467855 0.013901144
0.021108482 -0.065670833 0.012893915
0.022307517 -0.065748475 0.011369765
0.023490917 -0.065774567 0.01004836
0.024704479 -0.065878607 0.0082299709
0.025977802 -0.066125311 0.0068386197
0.027184187 -0.066187583 0.0061790943
-0.020173781 -0.065268114 0.0053327978
-0.019235497 -0.066122018 0.006305486
-0.017898932 -0.065629423 0.0073289871
-0.016453123 -0.064637266 0.0093916953
-0.015359941 -0.064984366 0.013039649
-0.013322206 -0.061060112 0.016698837
-0.012574703 -0.06287352 0.021637827
-0.011149657 -0.061323114 0.023573697
-0.010016097 -0.061209481 0.02493152
-0.0088885613 -0.061108857 0.026199698
-0.0078674136 -0.061815389 0.02644527
-0.0068212682 -0.06252829 0.026611
-0.0056282263 -0.061910488 0.026435167
-0.0045392653 -0.062414899 0.02624023
-0.0034396199 -0.063059695 0.025876552
-0.0022580188 -0.062095515 0.025549948
-0.001145228 -0.062987544 0.024074405
0 -0.063644595 0.022648305
0.0011323103 -0.062277064 0.021824598
0.0023333309 -0.064166598 0.021104693
0.0034721571 -0.063656211 0.019894511
0.004584841 -0.06304156 0.020036697
0.0057738442 -0.063512288 0.019928098
0.0069784569 -0.063969187 0.019820333
0.0081979232 -0.064412251 0.019604504
0.0092438497 -0.063551471 0.019670069
0.010636175 -0.06499885 0.018769503
0.011744175 -0.064592965 0.018363923
0.013043039 -0.065215193 0.018289834
0.014160508 -0.064902328 0.018261552
0.015694834 -0.066401221 0.01733917
0.016116371 -0.063314319 0.016705245
0.01705317 -0.06252829 0.015560865
0.018901365 -0.064973444 0.014338434
0.01969254 -0.063711159 0.013620883
0.021026151 -0.064246573 0.012240261
0.022132736 -0.064068444 0.010795683
0.023539435 -0.064733446 0.0098028779
0.024728587 -0.064765349 0.0074892342
0.026273435 -0.065683588 0.006894201
0.027105657 -0.064817876 0.0058279634
-0.021295423 -0.063886262 0.0051073432
-0.020150764 -0.06400831 0.0056549609
-0.019125199 -0.064547546 0.0060988963
-0.017413689 -0.062689282 0.0075823665
-0.016509177 -0.063678257 0.0094946623
-0.014911599 -0.061940487 0.013847619
-0.013647215 -0.061412469 0.018373102
-0.012590583 -0.061808318 0.022407323
-0.010988621 -0.059338551 0.024535894
-0.010009876 -0.060059253 0.025945663
-0.0090945652 -0.061388314 0.026839375
-0.0078404015 -0.060483098 0.02733314
-0.0067655845 -0.060890261 0.02754876
-0.0055961362 -0.060438272 0.02735728
-0.004521396 -0.061038844 0.027305096
-0.0033620542 -0.060516976 0.026778936
-0.0023185513 -0.062600888 0.026311517
-0.0011246128 -0.060729086 0.024972796
0 -0.060758892 0.024270594
0.0011467942 -0.061926886 0.022719592
0.0023283013 -0.06286414 0.022126436
0.0034651589 -0.06237286 0.021131337
0.0046686158 -0.063026309 0.021091014
0.005814888 -0.062800787 0.020574152
0.0069260783 -0.062334705 0.020351112
0.0081090992 -0.062555902 0.020466834
0.0093655642 -0.063217558 0.02012679
0.010291156 -0.06174694 0.019572318
0.011775698 -0.063588768 0.018434256
0.013093133 -0.064275384 0.018348396
0.01456234 -0.065530531 0.01843822
0.015269483 -0.063427083 0.017902523
0.016565451 -0.063895307 0.017050087
0.017380806 -0.0625709 0.015374154
0.018233774 -0.061538987 0.014538199
0.019851642 -0.06305816 0.012607962
0.021177078 -0.063531235 0.012087762
0.022162493 -0.06298814 0.010958314
0.023769185 -0.064176798 0.0092402101
0.024795994 -0.063761123 0.0073816776
0.02606163 -0.063969456 0.0062472522
0.027508294 -0.064584687 0.0053521693
-0.021503238 -0.063315094 0.0052220523
-0.020393638 -0.063580163 0.0058816075
-0.018597754 -0.061605062 0.0068279207
-0.017786041 -0.062844016 0.0074969232
-0.016058644 -0.060793441 0.0094241202
-0.014860592 -0.060585491 0.013326615
-0.013464154 -0.059466682 0.018983215
-0.012442875 -0.059952036 0.022635102
-0.011144903 -0.059067991 0.025152326
-0.010067747 -0.059287842 0.02634117
-0.0089359339 -0.059200566 0.027702481
-0.0078406362 -0.059364814 0.028380513
-0.0068469564 -0.060481451 0.028210342
-0.0056392653 -0.059776209 0.028491527
-0.0045646788 -0.060481992 0.028445274
-0.0033497226 -0.059178434 0.027784944
-0.0022462248 -0.059524957 0.027246803
-0.0011448188 -0.060675398 0.025774568
0 -0.060501166 0.025231659
0.0011259264 -0.059674095 0.023406833
0.0022451279 -0.059495889 0.022982478
0.0034817222 -0.061510429 0.021407604
0.0046046558 -0.061011687 0.021501869
0.005767541 -0.061135933 0.021010518
0.0070144101 -0.061960623 0.020596683
0.007935754 -0.060084995 0.020707846
0.0091908704 -0.06088952 0.02059719
0.010593616 -0.062384631 0.019413739
0.01174379 -0.062242087 0.018893957
0.01279335 -0.061640687 0.019265741
0.01385816 -0.061206874 0.019043803
0.014961949 -0.060998712 0.017946362
0.016543824 -0.062630191 0.016570777
0.017732143 -0.062653579 0.015910327
0.018224591 -0.060368959 0.013671607
0.019610064 -0.061137255 0.012599528
0.020900508 -0.061540388 0.011847347
0.022221031 -0.061984982 0.010073036
0.023733446 -0.062893637 0.008613199
0.024905436 -0.062856577 0.0069472492
0.02620974 -0.063141651 0.0063631833
-0.022062756 -0.063736849 0.0055035055
-0.020816548 -0.063674144 0.0058513582
-0.018752184 -0.060944598 0.0071339011
-0.017794736 -0.061688416 0.0079095066
-0.016194632 -0.060151491 0.010042578
-0.015161093 -0.060644373 0.013665885
-0.013745195 -0.059562512 0.018209308
-0.012435133 -0.058784265 0.022272229
-0.011180502 -0.058138609 0.025048286
-0.010070178 -0.058183249 0.026557028
-0.0088420594 -0.057473388 0.027980655
-0.0078621497 -0.058404539 0.028738439
-0.006816776 -0.059078727 0.02885437
-0.0056290398 -0.058542013 0.028521687
-0.0044777617 -0.058210898 0.028112888
-0.0033920368 -0.058795307 0.028106868
-0.0022706573 -0.059037093 0.027677596
-0.0011507592 -0.05983948 0.026700705
0 -0.059421316 0.025990009
0.0011272333 -0.058616128 0.024328023
0.0022251906 -0.057854954 0.023966312
0.0034984495 -0.060639791 0.022570968
0.004591363 -0.059687722 0.022366136
0.0057551926 -0.059854005 0.021770477
0.0067326771 -0.05834987 0.021766692
0.0079884147 -0.059342511 0.021211743
0.009007805 -0.058550734 0.020757049
0.010361375 -0.059865724 0.019955933
0.011870829 -0.061728314 0.019301772
0.012719288 -0.060127541 0.019293964
0.01415897 -0.061355535 0.018777966
0.015473897 -0.061895587 0.017122269
0.016470071 -0.061174549 0.016693026
0.017474068 -0.06057677 0.014376581
0.019318305 -0.062784493 0.013082951
0.019565009 -0.059845909 0.01283893
0.020948166 -0.060516924 0.011137962
0.02259985 -0.06185222 0.010219753
0.023895996 -0.062129591 0.0081101656
0.025541339 -0.063245222 0.0072245002
0.026158227 -0.061828535 0.0055591464
-0.020658607 -0.061975822 0.0060635507
-0.01957695 -0.062401529 0.0071760118
-0.018075587 -0.061457001 0.0086057484
-0.016479781 -0.060033489 0.010667831
-0.014969732 -0.05872741 0.013810217
-0.013860965 -0.0589091 0.01837948
-0.012644465 -0.058624338 0.021439761
-0.0113507 -0.057888571 0.024738431
-0.010218978 -0.057907544 0.026492268
-0.009123507 -0.058162358 0.027360648
-0.0079139061 -0.05765846 0.028788358
-0.0067960569 -0.057766482 0.028921574
-0.0056495573 -0.057625487 0.02864936
-0.0044629676 -0.056902837 0.028619558
-0.0034264738 -0.058250055 0.028615355
-0.0022791098 -0.058117304 0.027484745
-0.0011317637 -0.05771995 0.027345717
0 -0.057179235 0.026104838
0.0011278628 -0.057521001 0.024630159
0.0023071477 -0.058832265 0.024032235
0.0035619678 -0.06055345 0.022862852
0.0045234296 -0.057673726 0.023168057
0.0057879086 -0.059036668 0.022651732
0.0069181919 -0.058804631 0.022401243
0.0081412857 -0.059315082 0.021807343
0.0092653763 -0.059066772 0.021233946
0.010189363 -0.05773972 0.020246238
0.011508518 -0.058693442 0.020137995
0.012775829 -0.05923339 0.019538194
0.014084682 -0.059859898 0.018652707
0.015301566 -0.06002922 0.017503113
0.016345035 -0.059542634 0.015722275
0.017733885 -0.060295206 0.014621347
0.01869506 -0.059590507 0.013645321
0.02041118 -0.061233543 0.012202948
0.02103187 -0.059590299 0.011159331
0.022311114 -0.059887726 0.0096039176
0.023818567 -0.060737349 0.0079171956
0.025339928 -0.061539821 0.0063315332
-0.021362077 -0.059339106 0.005230397
-0.021174518 -0.062277995 0.0056938231
-0.019312184 -0.060350578 0.0071774721
-0.017849259 -0.059497528 0.0090150237
-0.016781069 -0.059932392 0.01014629
-0.01536989 -0.059114963 0.012693673
-0.013866991 -0.05777913 0.017054945
-0.012743824 -0.057926472 0.020960838
-0.01156046 -0.057802297 0.024163485
-0.010344699 -0.057470549 0.02595219
-0.0091406824 -0.057129264 0.027203649
-0.0079157054 -0.056540754 0.027921468
-0.0067091002 -0.055909168 0.02830714
-0.0057215458 -0.05721546 0.028101414
-0.0045407931 -0.056759913 0.027785599
-0.0034128013 -0.05688002 0.027840734
-0.0022623134 -0.056557838 0.02791959
-0.0011314722 -0.056573611 0.027088642
0 -0.05564725 0.026289612
0.0011408594 -0.057042971 0.025047332
0.0023504556 -0.058761392 0.024230152
0.0034735124 -0.057891872 0.023391873
0.0046636756 -0.058295943 0.023272127
0.0057669552 -0.05766955 0.023192942
0.0069698431 -0.058082025 0.022790104
0.0081298742 -0.058070529 0.022654206
0.0095156124 -0.059472576 0.021548569
0.010550376 -0.0586132 0.020882547
0.011324631 -0.056623153 0.020833641
0.012627867 -0.057399396 0.020192921
0.014195277 -0.059146989 0.018664241
0.01518535 -0.058405191 0.018010557
0.016581498 -0.059219636 0.01636526
0.017510274 -0.05836758 0.014441669
0.018668998 -0.058340617 0.013809323
0.020118484 -0.059172016 0.011972845
0.022111816 -0.061421715 0.010136664
0.022577498 -0.059414469 0.0089347064
0.02398207 -0.059955176 0.0069127977
-0.022590403 -0.058259461 0.0053809881
-0.021578195 -0.058740642 0.0054956675
-0.02026049 -0.058397882 0.0059188902
-0.020289863 -0.062137704 0.0065149367
-0.018269733 -0.059681125 0.0080087185
-0.01678377 -0.058743197 0.0099178553
-0.015456344 -0.058258526 0.012427449
-0.01386562 -0.056617949 0.015553206
-0.012780776 -0.056932546 0.01996401
-0.011384416 -0.055783641 0.022769183
-0.01030637 -0.056112457 0.024650186
-0.0091860825 -0.056264758 0.026101679
-0.0079771867 -0.055840306 0.027099818
-0.0069541647 -0.056792345 0.027818978
-0.005707561 -0.055934098 0.028199196
-0.0045118034 -0.055269592 0.028191537
-0.0034115408 -0.055721831 0.027959406
-0.0022492807 -0.055107374 0.027277261
-0.0011223343 -0.054994382 0.026448965
0 -0.055920538 0.025758982
0.001151778 -0.056437124 0.024479896
0.0022706164 -0.055630099 0.023983151
0.0034587227 -0.05649247 0.023607403
0.0046563935 -0.057040822 0.02400583
0.0058063087 -0.056901827 0.023535013
0.0069358787 -0.056643009 0.023376405
0.0079938257 -0.055956785 0.022950798
0.0093586873 -0.057321958 0.022671372
0.010271265 -0.055921335 0.021791369
0.011628791 -0.056981072 0.021217674
0.012666823 -0.056424942 0.02097106
0.013938008 -0.056913532 0.019674152
0.015451591 -0.058240611 0.01851815
0.016290782 -0.05701774 0.017708778
0.017646547 -0.057645388 0.015754223
0.01903265 -0.05828749 0.014769077
0.020228393 -0.058305372 0.012542009
0.021433501 -0.058346748 0.0095411241
0.02303814 -0.059414148 0.0089253783
0.024152746 -0.059174225 0.0060614645
-0.022390282 -0.05656492 0.005251348
-0.021337071 -0.056898858 0.0055374801
-0.020106247 -0.056770578 0.0061265528
-0.018756863 -0.056270592 0.0068741739
-0.018860109 -0.060352348 0.0079948008
-0.017055904 -0.058477383 0.009965986
-0.015632218 -0.057718962 0.011390626
-0.014404543 -0.057618171 0.013147861
-0.012916863 -0.056364495 0.017059535
-0.011509957 -0.055247791 0.020484686
-0.01047367 -0.055859573 0.023174793
-0.0092684878 -0.055610929 0.024059653
-0.0078803273 -0.054036528 0.025763184
-0.0068579791 -0.054863833 0.026585877
-0.0056590969 -0.054327331 0.027473778
-0.0045844633 -0.05501356 0.027552933
-0.0033994685 -0.054391496 0.027634412
-0.0023008524 -0.055220459 0.026452541
-0.0011291609 -0.054199722 0.025894254
0 -0.05416185 0.025491655
0.0011598254 -0.055671617 0.024694294
0.0023679114 -0.056829873 0.024770349
0.0035011524 -0.056018438 0.023973703
0.0046242098 -0.055490516 0.023654848
0.0056560487 -0.054298069 0.023512363
0.0068861414 -0.055089131 0.023392826
0.0079925433 -0.054806013 0.022561103
0.0092548355 -0.05552901 0.022426844
0.010439661 -0.055678193 0.021867335
0.011496549 -0.055183433 0.02174747
0.012897423 -0.056279663 0.020803183
0.013557776 -0.054231104 0.020066768
0.015175966 -0.056034334 0.019132972
0.016469063 -0.056465361 0.018305093
0.01767307 -0.056553822 0.016496032
0.018641856 -0.05592557 0.015371978
0.020483147 -0.057834771 0.013008982
0.021718562 -0.057916161 0.010325164
0.023361005 -0.059017275 0.0081963539
0.023971364 -0.057531271 0.0059841573
-0.022812497 -0.056430914 0.0051430166
-0.021543074 -0.056251362 0.0052209198
-0.020316357 -0.05616875 0.0056628883
-0.018901991 -0.055524599 0.0064148307
-0.017531337 -0.054931521 0.0067323744
-0.017506236 -0.058770936 0.0078702271
-0.015813559 -0.057172101 0.010651261
-0.014279438 -0.055927798 0.012053281
-0.013086403 -0.055914629 0.014876157
-0.01164397 -0.05472666 0.017556667
-0.010514204 -0.054907512 0.020846397
-0.00929623 -0.054615349 0.02277863
-0.0081409821 -0.054660883 0.023988932
-0.0069003622 -0.054052837 0.025668681
-0.0057376972 -0.053934354 0.025792539
-0.0045607807 -0.053589176 0.025938869
-0.0034314513 -0.053759404 0.025671303
-0.0022573092 -0.053046763 0.025364041
-0.0011409803 -0.053626072 0.024963766
0 -0.05499877 0.024808288
0.0011439676 -0.053766478 0.024371415
0.0023630231 -0.055531044 0.024068654
0.0034376697 -0.053856827 0.023670018
0.0045800451 -0.053815532 0.023582101
0.0058065839 -0.054581888 0.023667485
0.0069285254 -0.054273449 0.023476571
0.007978837 -0.053572193 0.022833496
0.0092664836 -0.054440591 0.022668779
0.010320015 -0.053893413 0.022600055
0.011760379 -0.055273782 0.02243641
0.012691552 -0.054227538 0.021314174
0.014071759 -0.055114388 0.019788504
0.01485665 -0.053712506 0.019486219
0.016400741 -0.05505963 0.018052757
0.017741524 -0.055590108 0.016808569
0.018584244 -0.05459122 0.015828431
0.020308072 -0.056145847 0.013269246
0.021183494 -0.055312455 0.010256499
0.022850679 -0.056525365 0.0068238676
-0.02403922 -0.055290207 0.0051226318
-0.022926817 -0.05550703 0.005453229
-0.021704011 -0.055465806 0.005556494
-0.020434197 -0.055292532 0.0054425597
-0.019218568 -0.055253383 0.0062475502
-0.017672786 -0.054196548 0.0068511069
-0.016423585 -0.053963207 0.0080610216
-0.016071659 -0.056868944 0.010317534
-0.014160085 -0.054280326 0.011743128
-0.013059448 -0.054612234 0.013660342
-0.011874832 -0.054624226 0.015234113
-0.0104691 -0.053508729 0.017076969
-0.0093526877 -0.053777955 0.019449681
-0.0080337804 -0.052793417 0.021878898
-0.0069119814 -0.052991856 0.02260223
-0.0057123262 -0.0525534 0.024036467
-0.0046229069 -0.053163432 0.024508238
-0.0034484176 -0.052875739 0.024396926
-0.0023259288 -0.053496361 0.024835408
-0.0011665723 -0.05366233 0.024377972
0 -0.053931739 0.024088353
0.0011530984 -0.053042524 0.024257392
0.0023132472 -0.053204689 0.024522215
0.0034871926 -0.053470287 0.02416867
0.0046650954 -0.053648595 0.023694694
0.0057614017 -0.053004898 0.023735255
0.006920394 -0.053056356 0.023676932
0.0082044676 -0.053915072 0.023408771
0.0093209902 -0.053595696 0.023299128
0.010438379 -0.053351715 0.022759974
0.011778531 -0.054181244 0.022291511
0.012484913 -0.052209634 0.021443158
0.014172518 -0.054327983 0.020312607
0.015200266 -0.053785555 0.019799143
0.016258948 -0.053422257 0.018431991
0.016985543 -0.052088998 0.017197162
0.019193225 -0.05518052 0.015603006
0.019921606 -0.053905524 0.013568968
0.021440892 -0.054793391 0.010315597
0.023424372 -0.056711636 0.0061663687
-0.02516338 -0.053921532 0.0052182972
-0.024320159 -0.054720357 0.0054619014
-0.022987776 -0.05444473 0.0052836537
-0.021568805 -0.053922012 0.0052688122
-0.020243317 -0.05358525 0.0057653189
-0.019052546 -0.053585287 0.0064376295
-0.018080087 -0.05424026 0.0069541335
-0.017223476 -0.05536117 0.0086510777
-0.015855147 -0.054883197 0.0098034143
-0.014676153 -0.055035572 0.011703402
-0.013246945 -0.054192048 0.013302952
-0.012272037 -0.055224165 0.014696509
-0.010671892 -0.05335946 0.014797956
-0.0094880927 -0.053370524 0.01654923
-0.0081036137 -0.052094661 0.018704325
-0.006941482 -0.052061114 0.020833075
-0.0057576369 -0.051818732 0.022020876
-0.0046174573 -0.05194639 0.021898329
-0.0035403555 -0.053105332 0.022649705
-0.002292963 -0.051591668 0.023147792
-0.0011749044 -0.052870702 0.022643566
0 -0.051704802 0.022643566
0.001163259 -0.052346658 0.023225725
0.0023223506 -0.052252889 0.023477226
0.0035346854 -0.05302028 0.023243755
0.004620871 -0.051984802 0.023384869
0.0056832582 -0.051149327 0.023401678
0.0069392868 -0.052044652 0.023685962
0.0081040403 -0.052097403 0.023632884
0.0092783952 -0.052190971 0.022925496
0.010326276 -0.051631376 0.022785842
0.011401645 -0.051307399 0.022170931
0.012780329 -0.052283168 0.021808445
0.014240285 -0.053401068 0.020972759
0.015430526 -0.053413361 0.01943633
0.01630472 -0.052408025 0.018733621
0.01709488 -0.051284641 0.017077565
0.018605134 -0.052326936 0.015204966
0.019865334 -0.052584708 0.013908952
0.02127498 -0.053187449 0.0094959438
0.023719089 -0.056176789 0.0051230192
-0.025313692 -0.053038213 0.0052548051
-0.024284305 -0.053425469 0.005163461
-0.022850718 -0.052917451 0.0054626167
-0.021529943 -0.052628748 0.0058728755
-0.020402331 -0.052806031 0.0064868033
-0.019128136 -0.052602377 0.0069203675
-0.018256074 -0.053551149 0.0076926053
-0.017242728 -0.054191429 0.0086422563
-0.015981555 -0.054091416 0.0097882748
-0.014578566 -0.053454742 0.011509001
-0.013518177 -0.054072708 0.012942672
-0.011820106 -0.052008465 0.014223456
-0.010849943 -0.053044166 0.015099883
-0.0094249602 -0.05183728 0.016189098
-0.0083385501 -0.052413743 0.017255306
-0.007032759 -0.051573567 0.018207461
-0.0058858311 -0.051795315 0.020213366
-0.004667338 -0.051340718 0.020799756
-0.0035408209 -0.051932037 0.020852745
-0.0023221718 -0.051087778 0.022156745
-0.0011648771 -0.051254593 0.022061586
0 -0.051429134 0.022274643
0.0011631089 -0.05117679 0.022863775
0.0023381463 -0.051439222 0.023173183
0.0034500961 -0.050601412 0.023400694
0.0046997741 -0.051697511 0.023839504
0.0057824906 -0.050885919 0.023626745
0.0068644937 -0.050339621 0.023572683
0.0081712669 -0.051362246 0.023613393
0.0092274481 -0.050750967 0.023352832
0.010612394 -0.051882811 0.022927076
0.011728675 -0.051606171 0.022509634
0.012842368 -0.051369473 0.02207008
0.013883791 -0.050907232 0.020688325
0.015053067 -0.050948843 0.019765019
0.016244607 -0.051054481 0.019102246
0.017300999 -0.050749596 0.017699152
0.017923307 -0.049289096 0.015422493
0.019361554 -0.050112255 0.012474775
0.020733956 -0.050683007 0.007230103
-0.0216872 -0.051808309 0.0051719844
-0.020479411 -0.051800866 0.0058559775
-0.019038873 -0.05116697 0.0069114864
-0.017667877 -0.050647914 0.0072864294
-0.016928306 -0.051994082 0.0089170933
-0.015896343 -0.052580215 0.010406494
-0.014299505 -0.051239897 0.011978149
-0.013120219 -0.051288132 0.013311714
-0.012148911 -0.05224032 0.014426798
-0.010742101 -0.051323373 0.015049249
-0.0094607687 -0.050851632 0.015544325
-0.0084035993 -0.051622111 0.016605049
-0.0070501063 -0.050525762 0.01748693
-0.0058560851 -0.05036233 0.018457234
-0.0047130464 -0.050665248 0.018941462
-0.0035398006 -0.050737143 0.019686997
-0.0023546605 -0.050625201 0.020210862
-0.0011856947 -0.050984871 0.021007389
0 -0.0497711 0.021310061
0.0011595369 -0.049860086 0.022484541
0.0023325882 -0.050150644 0.023371488
0.0034841942 -0.049940117 0.023449272
0.0046542706 -0.050033405 0.02330777
0.0058460254 -0.050275818 0.022945225
0.0069860909 -0.050066985 0.022971094
0.0082213758 -0.05050274 0.022777587
0.0093637183 -0.050329983 0.0227063
0.010597263 -0.05063137 0.022528321
0.011778915 -0.050649337 0.021408439
0.012913718 -0.050480898 0.021038204
0.014186145 -0.050833687 0.020488352
0.01512866 -0.050040953 0.019937009
0.016441178 -0.050497904 0.018752038
0.017698038 -0.050734378 0.017609835
0.018676247 -0.050192416 0.015608966
0.019513177 -0.049356859 0.010644913
0.020935055 -0.050011519 0.0055560768
-0.020357527 -0.050295066 0.0052017272
-0.019205866 -0.050415397 0.0068000257
-0.018296972 -0.051231522 0.0074737966
-0.016982317 -0.050946947 0.0090658069
-0.015742101 -0.050859097 0.010991067
-0.014561559 -0.050965458 0.012956172
-0.013204233 -0.050416164 0.014236778
-0.012070468 -0.050695963 0.01527071
-0.010775186 -0.050284203 0.015457153
-0.0094648181 -0.049690291 0.015649557
-0.0080260485 -0.048156291 0.01664257
-0.0070008319 -0.049005825 0.017212689
-0.0058747726 -0.04934809 0.01874873
-0.0047099493 -0.049454466 0.01910302
-0.003563087 -0.049883217 0.019213408
-0.0023759161 -0.04989424 0.019872904
-0.0011507747 -0.048332535 0.020894766
0 -0.049779624 0.020887613
0.0011830912 -0.049689829 0.021872312
0.0023089666 -0.048488297 0.022347897
0.0034906508 -0.048869111 0.022533387
0.0045955661 -0.048253443 0.022886783
0.0058110585 -0.048812892 0.022438616
0.0069635198 -0.048744638 0.022386998
0.0082223574 -0.049334142 0.022588849
0.0094316537 -0.049516182 0.022289455
0.010487702 -0.048942611 0.021774441
0.011662064 -0.048980668 0.021168679
0.012774462 -0.048775218 0.0207479
0.014094214 -0.04932975 0.020443231
0.015086114 -0.048739754 0.019617766
0.016564284 -0.049692851 0.018891722
0.017655358 -0.049435001 0.017239988
0.019156151 -0.050284892 0.014832586
0.019604618 -0.048434939 0.0089741051
-0.02069016 -0.049899798 0.0059232712
-0.019169977 -0.049123067 0.0069282651
-0.018467143 -0.05047686 0.0081491172
-0.016892897 -0.049472053 0.0091584921
-0.015484763 -0.048836559 0.010875583
-0.014541217 -0.049682491 0.0127621
-0.013009248 -0.048489016 0.014489979
-0.011845042 -0.048564672 0.015791088
-0.0106694 -0.048605047 0.016239136
-0.009457103 -0.048467655 0.016551495
-0.0082258489 -0.048179969 0.017269492
-0.0070982031 -0.04850439 0.017823249
-0.005999512 -0.049195997 0.018491954
-0.0047316998 -0.048499919 0.018776417
-0.0035695226 -0.048783477 0.019040436
-0.002367402 -0.048531737 0.019695133
-0.0011488342 -0.047102205 0.020761132
0 -0.047339853 0.021107525
0.0011679805 -0.047887199 0.02169916
0.0023160612 -0.047479257 0.022224903
0.0034390998 -0.04700103 0.022277653
0.004653655 -0.047699966 0.022403687
0.0057967845 -0.047533635 0.021847069
0.0070568668 -0.048221923 0.021812588
0.0080888579 -0.047377598 0.02208966
0.0095083127 -0.048730101 0.021935374
0.01054047 -0.048017696 0.022030205
0.011724958 -0.048072327 0.021470815
0.013003885 -0.048469022 0.021283627
0.013985372 -0.047783356 0.021038085
0.015390484 -0.048539218 0.019910425
0.016405756 -0.04804543 0.018700778
0.017743265 -0.048498258 0.016375482
0.018862907 -0.048336197 0.01132071
-0.020513128 -0.048266184 0.0057115555
-0.019279217 -0.048198041 0.0071079433
-0.018522957 -0.049394552 0.0081496537
-0.016746208 -0.04784631 0.0094845891
-0.015753388 -0.048471965 0.011423051
-0.014430825 -0.048102748 0.013022065
-0.013201046 -0.048003804 0.014245421
-0.011321463 -0.045285851 0.014720589
-0.010645841 -0.047314849 0.016247392
-0.0094322599 -0.0471613 0.016435802
-0.0082484931 -0.047134247 0.016839951
-0.0070978603 -0.047319066 0.017528594
-0.0059443526 -0.047554821 0.017893791
-0.0047568353 -0.047568351 0.017886966
-0.0034797192 -0.046396255 0.018627584
-0.0023714339 -0.047428675 0.019101739
-0.0011689598 -0.046758391 0.019662708
0 -0.047041465 0.019820899
0.0011795694 -0.04718278 0.020414382
0.002344117 -0.046882339 0.021577299
0.0035042306 -0.046723075 0.022151917
0.0046724491 -0.046724491 0.022160202
0.0058343001 -0.046674401 0.021953404
0.0069782394 -0.046521597 0.021496385
0.0081618596 -0.046639197 0.022030205
0.0093820263 -0.046910133 0.021645486
0.010560802 -0.046936896 0.021832585
0.011793267 -0.047173068 0.021164447
0.012799429 -0.046543378 0.021523088
0.013983952 -0.046613175 0.02075997
0.015399247 -0.047382299 0.01932165
0.016533777 -0.047239363 0.018509656
0.017610792 -0.046962116 0.013811469
0.018572465 -0.046431161 0.0053200126
-0.021908127 -0.047467608 0.0057918131
-0.020607309 -0.047275592 0.0066746771
-0.019259661 -0.046945423 0.0079443753
-0.018468972 -0.048019327 0.0086525679
-0.016622452 -0.046305403 0.010532707
-0.015594888 -0.046784662 0.0124982
-0.014359105 -0.046667092 0.014051229
-0.012934156 -0.045857459 0.015016735
-0.011790791 -0.045984086 0.015289992
-0.010450493 -0.045285467 0.016603976
-0.0096009765 -0.04680476 0.016849518
-0.008298398 -0.046233933 0.01715377
-0.0070195538 -0.045627099 0.017520458
-0.0059809163 -0.046651147 0.01785022
-0.0046907263 -0.045734581 0.017821133
-0.0035631203 -0.046320565 0.017893791
-0.0023528899 -0.045881353 0.01861459
-0.0011745658 -0.045808062 0.019456863
0 -0.045273151 0.01967898
0.0011841389 -0.046181418 0.020208091
0.0023415487 -0.045660198 0.020899296
0.0035746444 -0.046470378 0.021426648
0.0046709711 -0.045541968 0.02172178
0.0058059306 -0.045286257 0.02172178
0.007023578 -0.045653258 0.021646142
0.0082651107 -0.046048474 0.022247851
0.0094805127 -0.046217501 0.022530168
0.010630446 -0.046065267 0.02233544
0.011869424 -0.046290755 0.02130568
0.01306758 -0.046330512 0.020693064
0.014026329 -0.045585569 0.020149022
0.015300958 -0.045902874 0.018341869
0.016677907 -0.04645988 0.014139861
0.018333701 -0.047667623 0.0059085786
-0.021990154 -0.046423659 0.0051373839
-0.020756247 -0.046396315 0.0067728162
-0.018962162 -0.045035131 0.0081892908
-0.01878321 -0.047584131 0.0099739134
-0.017106872 -0.046432938 0.012344539
-0.015193068 -0.044410508 0.013497859
-0.013842624 -0.043834977 0.015212536
-0.0130279 -0.045005471 0.015825748
-0.011507236 -0.043727495 0.016760051
-0.010679176 -0.045089852 0.017409086
-0.0094857896 -0.045057498 0.01714018
-0.0083375825 -0.045261163 0.017302662
-0.0071603241 -0.045348722 0.017395228
-0.0059320843 -0.045083839 0.017844141
-0.0047353134 -0.044985477 0.017614156
-0.0035435145 -0.044884518 0.017777115
-0.002340673 -0.044472788 0.017664254
-0.0011799205 -0.044836979 0.017953932
0 -0.044925168 0.01845476
0.0011778474 -0.044758201 0.01923275
0.002341039 -0.044479739 0.020677805
0.0034310191 -0.043459576 0.020962685
0.0045528859 -0.043252416 0.021496803
0.0059034284 -0.044866055 0.022100925
0.0070238779 -0.044484559 0.022048682
0.0082061402 -0.044547621 0.022509456
0.0094106831 -0.044700745 0.02176863
0.010706607 -0.045205675 0.021077067
0.011733992 -0.044589169 0.020329207
0.013251166 -0.045776755 0.018817484
0.014339955 -0.045409858 0.017773151
0.015542452 -0.045431785 0.012348264
0.017519785 -0.047553703 0.0050874352
-0.022006258 -0.045235086 0.0050267279
-0.020854305 -0.045388784 0.0071211457
-0.019458039 -0.044996716 0.0090081394
-0.018526092 -0.045697693 0.010033339
-0.016283352 -0.043034576 0.012725532
-0.015400399 -0.043831907 0.013630033
-0.014256355 -0.043957096 0.015843958
-0.01297473 -0.043642271 0.017423898
-0.011797202 -0.043649644 0.017710835
-0.01066255 -0.043834928 0.017778248
-0.0094944192 -0.043911688 0.017741501
-0.0083481213 -0.044125784 0.017969579
-0.0071799662 -0.044276457 0.017888486
-0.0059533305 -0.044054646 0.018064857
-0.004684756 -0.043333992 0.017798811
-0.0035568119 -0.043867346 0.017583966
-0.0023518556 -0.043509331 0.01782167
-0.0011815485 -0.043717291 0.0182468
0 -0.042738307 0.018399924
0.0011994747 -0.044380564 0.018881619
0.002378196 -0.043996628 0.019882351
0.0035921149 -0.04430275 0.020710826
0.0047952351 -0.044355925 0.021171957
0.0058844355 -0.043544821 0.021312386
0.0071126581 -0.043861393 0.021059275
0.0083878096 -0.044335563 0.021114796
0.0095329471 -0.044089884 0.020288229
0.010839208 -0.044561189 0.019794673
0.011762458 -0.043521091 0.018751115
0.012913718 -0.043437049 0.016342342
0.014274639 -0.04401347 0.011499614
-0.020852815 -0.044158902 0.0073296428
-0.021020189 -0.047295425 0.0091469288
-0.018137259 -0.043529421 0.011245251
-0.016794 -0.043184571 0.014385462
-0.015495921 -0.042911783 0.016009748
-0.014338686 -0.043016057 0.016908586
-0.013300283 -0.043528195 0.018464029
-0.01186643 -0.042719148 0.018494308
-0.010536685 -0.042146739 0.018544942
-0.0094932364 -0.042719562 0.018630356
-0.0082421061 -0.042387974 0.018630356
-0.0071432292 -0.042859375 0.01859948
-0.005884307 -0.042367011 0.018940032
-0.0047390386 -0.042651344 0.018852979
-0.0035227125 -0.042272553 0.018599302
-0.0023622911 -0.042521242 0.018580973
-0.0011875588 -0.042752117 0.019120365
0 -0.043463439 0.019458085
0.0011864612 -0.042712606 0.02033931
0.0023515602 -0.042328082 0.020575047
0.003605389 -0.043264668 0.020560652
0.0046712402 -0.042041164 0.020801067
0.0059211925 -0.042632587 0.020599335
0.007289181 -0.043735087 0.019677043
0.008185776 -0.042098276 0.01899147
0.0093649756 -0.042142387 0.018377185
0.010576185 -0.042304739 0.018301427
0.01207672 -0.04347619 0.013253868
0.013569131 -0.044408064 0.0070485473
