ply
format ascii 1.0
comment PCL generated
element vertex 1271
property float x
property float y
property float z
element camera 0
property float view_px
property float view_py
property float view_pz
property float x_axisx
property float x_axisy
property float x_axisz
property float y_axisx
property float y_axisy
property float y_axisz
property float z_axisx
property float z_axisy
property float z_axisz
property float focal
property float scalex
property float scaley
property float centerx
property float centery
property int viewportx
property int viewporty
property float k1
property float k2
end_header
0.0091276579 -0.083289877 0.014319867
0.010215037 -0.082855299 0.013836861
0.011484237 -0.083834931 0.013396502
0.012699994 -0.08428178 0.013156384
0.013892913 -0.084515221 0.012792706
0.01497053 -0.084065281 0.012442201
0.016028933 -0.083579436 0.012081534
0.017101262 -0.083226144 0.011853874
0.018486364 -0.084344037 0.0113464
0.019437453 -0.083466709 0.011299074
0.020674761 -0.083847649 0.010737032
0.022034226 -0.084657811 0.010134339
0.022459151 -0.0819759 0.0092843771
0.024096526 -0.083764113 0.0087267458
0.025105793 -0.08330559 0.0087400377
0.026618673 -0.084485352 0.0080735385
0.027935026 -0.084969036 0.0071381927
0.028776156 -0.084026374 0.0067630708
0.029941406 -0.084066257 0.0063524544
0.031670701 -0.085628189 0.0060029626
0.032464679 -0.084640056 0.0057292283
0.033750042 -0.084957004 0.0053043664
-0.017575741 -0.084363557 0.0066079497
-0.016110402 -0.082853489 0.0075168312
-0.014840081 -0.082191221 0.0087940395
-0.013915399 -0.083492391 0.010307461
-0.012701888 -0.083139628 0.011916429
-0.01142093 -0.082230695 0.012425661
-0.010289833 -0.082318664 0.013011813
-0.0092403423 -0.083163083 0.013531059
-0.0079814522 -0.082094938 0.013656914
-0.0068510016 -0.082212023 0.014071733
-0.0057406635 -0.082665548 0.014731854
-0.0045705358 -0.082269646 0.014666855
-0.0034201355 -0.082083248 0.015154839
-0.0022835296 -0.082207061 0.015468121
-0.0011409244 -0.082146563 0.015513152
0 -0.082733236 0.015583962
0.0011353326 -0.081743948 0.015936881
0.0022599467 -0.081358075 0.015972108
0.003441287 -0.082590885 0.016251147
0.004554247 -0.081976444 0.016558915
0.0057203029 -0.08237236 0.016558915
0.0068798093 -0.082557715 0.01632154
0.0079248734 -0.081512988 0.015981168
0.0090740779 -0.081666701 0.015323937
0.010238972 -0.08191178 0.014822543
0.011423361 -0.082248196 0.014445424
0.012646415 -0.082776539 0.0140374
0.013742614 -0.08245568 0.013467818
0.014775322 -0.08183255 0.013223022
0.016014304 -0.082359277 0.012726903
0.017304236 -0.083060339 0.012629092
0.018361822 -0.082628198 0.012025297
0.019419687 -0.082248092 0.012182325
0.020458147 -0.081832588 0.011621833
0.02167183 -0.082124829 0.010877997
0.02315815 -0.083369337 0.01024875
0.024418766 -0.083721481 0.0096593797
0.025372541 -0.083037406 0.0091781914
0.026333727 -0.082436018 0.008872807
0.027761538 -0.083284609 0.007940799
0.028929051 -0.083315663 0.0077988207
0.030436296 -0.084285125 0.0071239173
0.031711448 -0.084563859 0.006849885
0.032617204 -0.08387281 0.0064952374
0.03313446 -0.082264863 0.0051598847
-0.017528145 -0.082966544 0.005097717
-0.016318543 -0.082758322 0.0069909692
-0.014949619 -0.081647918 0.0083012879
-0.014086562 -0.083345495 0.010363907
-0.012807317 -0.082665414 0.011809349
-0.011324101 -0.080401115 0.012552023
-0.010412186 -0.08214058 0.01300782
-0.0092601422 -0.082183756 0.013881803
-0.008065559 -0.081807807 0.014189571
-0.0068523427 -0.081086054 0.014936209
-0.0057335799 -0.08141683 0.015377909
-0.0045940438 -0.081544273 0.015236825
-0.0034315649 -0.081213705 0.015500665
-0.0022933383 -0.081413515 0.015848368
-0.0011291715 -0.080171168 0.015990674
0 -0.081496537 0.016124159
0.0011258278 -0.079933777 0.016426146
0.002262699 -0.080325812 0.016516984
0.0034215343 -0.080976315 0.016683996
0.0045412779 -0.080607682 0.017073363
0.00563571 -0.080027081 0.017062634
0.0068257181 -0.080770999 0.016957402
0.0079136593 -0.080267116 0.016635329
0.0090807155 -0.080591351 0.016302615
0.010400699 -0.082049966 0.015858561
0.011389737 -0.080867134 0.015522063
0.012405564 -0.080072276 0.014981598
0.013616961 -0.080567025 0.014791548
0.014917233 -0.081471041 0.014370769
0.016008079 -0.081183828 0.013660312
0.017038796 -0.0806503 0.013336152
0.01836638 -0.081500806 0.012612253
0.019578366 -0.081768468 0.012582213
0.021485358 -0.084747799 0.012091577
0.021804132 -0.081478596 0.011506617
0.023276821 -0.082632713 0.010246068
0.02439166 -0.082467042 0.0097970366
0.025563119 -0.082499154 0.0091763139
0.026563611 -0.08200071 0.0085276961
0.028027652 -0.082915135 0.0079164505
0.028986264 -0.082320996 0.0076902509
0.030047895 -0.08205387 0.0072854459
0.031074004 -0.081713118 0.0071560442
0.032102246 -0.081402123 0.0065202117
0.033698328 -0.082502805 0.0059868991
0.034492061 -0.081631206 0.005584538
0.036012758 -0.082480833 0.0050687492
-0.016386289 -0.081931449 0.0063587129
-0.014955609 -0.080530204 0.0087664723
-0.013909815 -0.081140585 0.010362774
-0.012574395 -0.080018878 0.011701763
-0.011538389 -0.080768727 0.013083071
-0.010425101 -0.081084117 0.013587564
-0.0091485782 -0.080050066 0.014716089
-0.0080419779 -0.080419779 0.015247494
-0.0068558292 -0.079984672 0.016379893
-0.0057778344 -0.080889687 0.01676327
-0.0045915097 -0.08035142 0.016643226
-0.0034402413 -0.080272295 0.016816646
-0.00227237 -0.079532951 0.01717028
-0.0011385062 -0.079695433 0.017329037
0 -0.080542691 0.017774314
0.0011440394 -0.080082759 0.018076301
0.0022728564 -0.079549976 0.018342823
0.0033984696 -0.079297625 0.018016309
0.004497875 -0.078712814 0.018075317
0.0057726665 -0.080817334 0.018018484
0.0068525462 -0.079946369 0.017948359
0.0079615461 -0.079615459 0.018028587
0.0091524692 -0.080084108 0.017953604
0.010193128 -0.079279885 0.017593116
0.011397974 -0.079785816 0.016855538
0.012408582 -0.078963704 0.01593107
0.013829588 -0.080672592 0.015712947
0.0149564 -0.080534458 0.015272588
0.016147228 -0.080736138 0.014400423
0.017223397 -0.08037585 0.014435232
0.018508866 -0.080976292 0.013303936
0.019813405 -0.08158461 0.013309836
0.020417903 -0.079402953 0.012408346
0.021751709 -0.080137879 0.011885196
0.023048019 -0.080668062 0.010888606
0.024368217 -0.081227392 0.010235518
0.025294131 -0.080481328 0.0098276436
0.026698478 -0.081256241 0.0091355741
0.027626524 -0.080577359 0.0085026026
0.028924981 -0.080989949 0.008112669
0.030293366 -0.081559062 0.0077639818
0.03118634 -0.08085347 0.0076618791
0.032318905 -0.080797255 0.0065532327
0.033611469 -0.08113113 0.0065765977
0.034727763 -0.081031449 0.0057351589
0.036207478 -0.08175882 0.0056917965
0.037189744 -0.081352569 0.0050320327
-0.016199538 -0.079840586 0.0064068139
-0.015294182 -0.08117681 0.0087162554
-0.013814614 -0.07943403 0.010480493
-0.012804734 -0.080320604 0.012143224
-0.011637779 -0.080300674 0.012876451
-0.010345478 -0.079315335 0.013897479
-0.0091847926 -0.079218835 0.015035599
-0.0079596005 -0.07845892 0.01562193
-0.006878248 -0.079099849 0.016536981
-0.0057144342 -0.078859188 0.01734212
-0.0045412686 -0.07833688 0.01745519
-0.0034412369 -0.079148449 0.017588854
-0.0022939504 -0.079141289 0.018150657
-0.0011437018 -0.078915432 0.018655658
0 -0.078382745 0.01901561
0.0011413301 -0.07875178 0.019177526
0.0022459063 -0.077483773 0.019526631
0.0034357638 -0.079022571 0.019432992
0.0045497823 -0.078483745 0.019410998
0.005672778 -0.078284338 0.019117087
0.0068180468 -0.078407541 0.019070834
0.0079957806 -0.078815557 0.018857867
0.009141013 -0.078841239 0.018544614
0.010278172 -0.078799315 0.018436104
0.011427421 -0.078849204 0.01793617
0.012623509 -0.079183832 0.01708287
0.013721243 -0.078897148 0.016970754
0.014886442 -0.079012655 0.016311347
0.016086368 -0.079282813 0.016068369
0.017176412 -0.0790115 0.015693665
0.0181564 -0.078299478 0.015146762
0.019357374 -0.078568168 0.014116913
0.020773776 -0.079632811 0.013528705
0.021583712 -0.078382954 0.012827516
0.022896739 -0.078993753 0.011464894
0.024080612 -0.079122007 0.011047035
0.0253562 -0.07952626 0.01087594
0.026865348 -0.080596045 0.010137111
0.027842833 -0.080048144 0.0090180337
0.028801281 -0.079491533 0.0087758601
0.030499293 -0.080940425 0.0081715882
0.031860467 -0.081421196 0.0077188909
0.032628872 -0.08040686 0.0073428154
0.033930715 -0.080731697 0.0069024563
0.034597643 -0.079574578 0.0066444278
0.03602235 -0.080178782 0.0064669847
0.036983132 -0.079744875 0.0057464838
0.038835257 -0.081200995 0.0054785907
-0.016500276 -0.080144197 0.0061697662
-0.015092983 -0.078947909 0.0091276765
-0.014013322 -0.079408824 0.01022622
-0.012782254 -0.079017572 0.012092352
-0.011347963 -0.077166148 0.013112247
-0.010327608 -0.078030817 0.014360547
-0.0093678907 -0.079627067 0.015471756
-0.0083139353 -0.080763936 0.016413152
-0.0072239507 -0.081871442 0.016707957
-0.0058106333 -0.079024613 0.017295063
-0.0045116618 -0.076698251 0.01773864
-0.0034374676 -0.077915937 0.018087327
-0.0022634575 -0.076957554 0.018401086
-0.0011305227 -0.076875545 0.019016594
0 -0.078087702 0.019505769
0.0011370311 -0.077318117 0.019605756
0.0022672287 -0.077085778 0.020070702
0.0034635619 -0.078507401 0.020092905
0.0045175008 -0.076797515 0.020259708
0.0056929425 -0.07742402 0.020215213
0.006863045 -0.077781178 0.019796371
0.0078315912 -0.076078311 0.019916266
0.0092102587 -0.078287199 0.019538909
0.010171628 -0.076852299 0.019078255
0.011344315 -0.077141337 0.018757969
0.012612368 -0.077967368 0.017990291
0.013674061 -0.077486344 0.017800212
0.014938869 -0.078141771 0.017529666
0.016023684 -0.077829324 0.017009825
0.0171366 -0.077685922 0.016713798
0.018715858 -0.079542398 0.015876383
0.019371131 -0.077484526 0.015069306
0.020504005 -0.077459574 0.014651537
0.021840345 -0.078165442 0.014068842
0.023273801 -0.079130925 0.012490243
0.024109103 -0.078067571 0.011826605
0.025358008 -0.078379296 0.011311203
0.026540469 -0.078467473 0.01056233
0.027677255 -0.078418888 0.0098185539
0.028933855 -0.078700088 0.009375602
0.030271104 -0.079170577 0.0086704791
0.031438414 -0.079178229 0.0087370276
0.032779042 -0.079606242 0.0078615844
0.033693902 -0.079006396 0.0078450739
0.034920368 -0.079152837 0.0074467361
0.036506221 -0.080078162 0.0068314373
0.037045911 -0.078722559 0.0057669282
-0.016560977 -0.07925611 0.0053313673
-0.015281323 -0.078757592 0.0070490837
-0.014051474 -0.078454062 0.0095015168
-0.012714199 -0.077441029 0.011890948
-0.012122904 -0.081223451 0.013150036
-0.010610189 -0.078986965 0.014609694
-0.0092405444 -0.077389561 0.015595287
-0.0080620078 -0.077164933 0.016609937
-0.0068094721 -0.076039106 0.01704675
-0.0058313976 -0.078140728 0.017290056
-0.0045608571 -0.076394357 0.017957211
-0.003424915 -0.076489769 0.018529058
-0.0022785671 -0.076331995 0.018803149
-0.0011406934 -0.076426461 0.019203097
0 -0.07689137 0.019942731
0.0011317504 -0.075827278 0.020177931
0.002277107 -0.076283082 0.020344824
0.0034351356 -0.076718025 0.020661801
0.0045791077 -0.076700054 0.020700037
0.0056607625 -0.075854219 0.020686001
0.0068372106 -0.076348856 0.020531625
0.0079845134 -0.076423198 0.020396084
0.0090556359 -0.07584095 0.020075172
0.010240696 -0.0762363 0.020025462
0.011249552 -0.075372003 0.019640714
0.012427216 -0.075693049 0.018732011
0.013812126 -0.077117704 0.018515706
0.014893994 -0.07676135 0.018433809
0.016120056 -0.077145979 0.018055081
0.017007299 -0.075965934 0.017314553
0.018065451 -0.075649075 0.016715795
0.019645162 -0.077425055 0.015908509
0.020602683 -0.076687761 0.015124053
0.022141963 -0.078079551 0.014537364
0.023005562 -0.077068634 0.013399243
0.023998391 -0.076566294 0.012184769
0.025395744 -0.077341586 0.01189518
0.026190167 -0.076293096 0.010960788
0.02819938 -0.078723267 0.010406733
0.029114872 -0.078027859 0.009560436
0.030173661 -0.077755205 0.0091688037
0.031502765 -0.078173526 0.0093125403
0.032584105 -0.077969112 0.0084276199
0.033817537 -0.078130171 0.0081992745
0.034928136 -0.078006163 0.0075984597
0.036653455 -0.07921876 0.006955862
0.037304491 -0.078106277 0.0056257248
-0.015131255 -0.076820217 0.0074523687
-0.014606277 -0.080334522 0.0098941028
-0.012684849 -0.076109096 0.011284322
-0.011400436 -0.075242877 0.01293093
-0.010125769 -0.074255638 0.014683843
-0.009097036 -0.075050548 0.01556319
-0.0081404187 -0.076752521 0.016785532
-0.0069704833 -0.076675318 0.017261505
-0.0058481782 -0.07719595 0.017479926
-0.0047088526 -0.077696063 0.017491192
-0.0034057659 -0.074926853 0.018796355
-0.0022741968 -0.075048491 0.018903196
-0.0011379608 -0.075105414 0.019797146
0 -0.075242199 0.019937485
0.0011377174 -0.07508935 0.020264953
0.0022677472 -0.074835658 0.020655483
0.0034232894 -0.075312369 0.020916313
0.004561366 -0.075262539 0.021048009
0.0056641293 -0.074766509 0.020973742
0.0068927296 -0.075820021 0.020723462
0.0079581486 -0.07503397 0.020880044
0.0091534918 -0.075516306 0.020591706
0.010225959 -0.074990362 0.020424426
0.011392528 -0.075190686 0.020020157
0.012606568 -0.075639404 0.019719452
0.013699086 -0.075344972 0.019485205
0.014719353 -0.074729025 0.019134492
0.015920091 -0.075051859 0.018632352
0.017242678 -0.07586778 0.018313289
0.018044107 -0.074431941 0.01758647
0.019275313 -0.074833572 0.016790599
0.020819431 -0.076337911 0.015953988
0.021604005 -0.075045489 0.015495658
0.023425024 -0.077302583 0.014320135
0.024409395 -0.076715238 0.013056248
0.025255565 -0.07576669 0.012825996
0.027046755 -0.07761243 0.011680126
0.027848328 -0.076582901 0.011013269
0.028969349 -0.076479085 0.010163337
0.03016283 -0.07656718 0.0096547306
0.031478435 -0.076947287 0.0096776187
0.032458585 -0.07650952 0.0087507963
0.033946283 -0.077257052 0.0084001124
0.035317946 -0.077699482 0.0077730417
0.035835739 -0.07629545 0.0066818893
0.037248496 -0.076825023 0.0052880347
-0.015794698 -0.078973494 0.0057258606
-0.013698339 -0.074199341 0.0091146231
-0.012707605 -0.075090393 0.011526436
-0.011380951 -0.073976181 0.013381392
-0.010222653 -0.073830277 0.014778703
-0.0091203833 -0.074103117 0.015792787
-0.0084185675 -0.078172415 0.017134428
-0.0068043736 -0.073714048 0.017435253
-0.0057696947 -0.07500603 0.01786226
-0.0046465551 -0.075506523 0.017882317
-0.0034579728 -0.07492274 0.018850327
-0.0022677418 -0.073701613 0.018962622
-0.0011337599 -0.073694393 0.019616932
0 -0.074596517 0.019889325
0.0011329687 -0.073642969 0.02013582
0.002277479 -0.074018069 0.020320475
0.0034373428 -0.074475758 0.020676732
0.0045277686 -0.073576234 0.020817727
0.0057079298 -0.074203089 0.020826101
0.0067594661 -0.073227547 0.020871192
0.0079500405 -0.073821805 0.021318644
0.0091174627 -0.074079387 0.020859808
0.010221559 -0.073822364 0.020372421
0.011286044 -0.073359288 0.020115823
0.012488116 -0.073793411 0.020113975
0.013612935 -0.073736735 0.020124316
0.014813411 -0.074067056 0.019832343
0.016285343 -0.075610526 0.019630641
0.017293759 -0.074939623 0.018890113
0.018012917 -0.073177472 0.018335789
0.019320747 -0.073873445 0.017497599
0.020661864 -0.07461229 0.016906112
0.021809548 -0.074611612 0.016543031
0.02324882 -0.07555867 0.015256256
0.024323924 -0.075288333 0.013926119
0.025877181 -0.07645531 0.013295203
0.026591288 -0.07514929 0.012292892
0.027765255 -0.075197563 0.011685759
0.029086299 -0.075624377 0.010937482
0.030224441 -0.075561099 0.010574877
0.031235855 -0.075197428 0.0099399686
0.032626897 -0.075741008 0.0093002915
0.033545025 -0.075187124 0.0088931322
0.034930274 -0.07568226 0.0070962012
0.036550514 -0.076638177 0.005594641
-0.014972256 -0.07370957 0.0057324767
-0.013358026 -0.071242802 0.0077755451
-0.012494704 -0.072696462 0.011336625
-0.011073583 -0.070870928 0.013524413
-0.010496945 -0.074644946 0.015153319
-0.0097361561 -0.077889249 0.016315371
-0.0080632912 -0.073721521 0.017553031
-0.0067652445 -0.072162606 0.017734855
-0.0057961363 -0.07419055 0.018249363
-0.004671609 -0.074745744 0.018393368
-0.0035417627 -0.075557604 0.019574165
-0.0022814781 -0.0730073 0.019367039
-0.0011381326 -0.072840489 0.019693047
0 -0.072322614 0.019808114
0.0011189599 -0.071613431 0.020170629
0.0022520195 -0.072064623 0.020621449
0.0033498572 -0.071463622 0.020816803
0.0044953497 -0.071925595 0.020899951
0.0056665018 -0.072531223 0.020984888
0.0067751035 -0.072267771 0.021125972
0.0079866108 -0.073020443 0.021318167
0.0091967462 -0.073573969 0.020943582
0.010306361 -0.073289678 0.02060321
0.011479434 -0.073468372 0.02070266
0.012579702 -0.073190995 0.020429939
0.013676335 -0.072940454 0.020601362
0.014815668 -0.072938673 0.020140737
0.015911417 -0.072737902 0.019648015
0.017032724 -0.072672948 0.019330591
0.01838835 -0.073553398 0.018746048
0.019234784 -0.072413303 0.018156201
0.020634362 -0.073366627 0.017553747
0.021770127 -0.073330954 0.016971827
0.022838984 -0.073084742 0.015690595
0.024508877 -0.074693717 0.014264584
0.02524736 -0.073446862 0.013408989
0.026514269 -0.073778838 0.012601703
0.027884673 -0.074359126 0.011870533
0.028996557 -0.074231185 0.01124689
0.030259036 -0.074483782 0.011013627
0.031988289 -0.075824089 0.010570616
0.032465242 -0.07420627 0.0095432103
0.034131087 -0.075323775 0.0074996054
0.035241481 -0.075181827 0.0064285398
0.036358528 -0.075062767 0.0053083599
-0.013556396 -0.071171083 0.006251514
-0.012588905 -0.072100095 0.010138184
-0.01203673 -0.075831398 0.012629747
-0.01067814 -0.074746974 0.014651448
-0.0089395465 -0.070398927 0.016350538
-0.0080090826 -0.072081745 0.017975211
-0.0068301461 -0.071716532 0.018136591
-0.0057236361 -0.072117813 0.018801272
-0.0045853681 -0.072219543 0.018518776
-0.0035101399 -0.073712938 0.01985085
-0.0023094492 -0.072747648 0.020026386
-0.0011410995 -0.071889266 0.020063102
0 -0.071636364 0.019310832
0.0011642318 -0.073346607 0.020113081
0.002316267 -0.072962411 0.021033376
0.0035158009 -0.073831819 0.021106511
0.0045668627 -0.071928084 0.021095395
0.0056804181 -0.071573272 0.02121526
0.0068973447 -0.072422124 0.021616429
0.007955825 -0.071602426 0.021605581
0.0092068566 -0.072503999 0.021348983
0.01031006 -0.072170421 0.021102816
0.011378874 -0.071686909 0.021107614
0.012472435 -0.071433038 0.021347135
0.013959453 -0.073287122 0.021197915
0.015051959 -0.072944105 0.020460337
0.015817497 -0.071178734 0.020033777
0.017106386 -0.07184682 0.01963973
0.018137997 -0.071418367 0.019393981
0.019575695 -0.072545215 0.018446147
0.020437056 -0.071529701 0.017699361
0.02202517 -0.073030829 0.017084002
0.023492871 -0.074002542 0.015659273
0.024181809 -0.072545432 0.014444441
0.025563957 -0.073205873 0.013495237
0.026862005 -0.073578537 0.012929857
0.028009785 -0.07352569 0.012333959
0.029479245 -0.074287698 0.011705458
0.030637771 -0.074237674 0.011472434
0.031548534 -0.073613241 0.010603905
0.033495285 -0.075364389 0.0097537339
0.034130774 -0.074146159 0.0076865554
0.035252072 -0.074029349 0.0065786839
0.036582068 -0.074344203 0.0056541264
-0.014661011 -0.075748563 0.0054298043
-0.01273996 -0.071807049 0.0093201399
-0.011018933 -0.068317384 0.013168544
-0.010057867 -0.069287524 0.015271693
-0.0090299146 -0.069981836 0.017205745
-0.0079914564 -0.070781469 0.018543422
-0.0067558596 -0.069810547 0.01872009
-0.0056029852 -0.069477014 0.020166874
-0.0046330104 -0.071811661 0.019704551
-0.0034538296 -0.07137914 0.020503193
-0.0023176877 -0.071848318 0.020944089
-0.0011657345 -0.072275542 0.020697594
0 -0.072611727 0.019492984
0.0011668913 -0.072347261 0.019803077
0.0023181748 -0.07186342 0.020965576
0.0034196747 -0.070673279 0.021205038
0.0045996481 -0.071294546 0.020965576
0.0058443695 -0.072470181 0.021009654
0.0067920205 -0.070184208 0.021297067
0.0079313731 -0.070249304 0.021771282
0.0090951696 -0.070487559 0.021298736
0.010315339 -0.071061224 0.021167308
0.011499763 -0.071298532 0.021473497
0.012742639 -0.071822144 0.021514773
0.013800747 -0.071303859 0.021645308
0.014747922 -0.070336245 0.020826995
0.015991785 -0.070820764 0.020374537
0.017132508 -0.070814364 0.020013124
0.018348837 -0.07110174 0.019183218
0.019275445 -0.070298679 0.018509299
0.02051108 -0.070649274 0.018259794
0.022042114 -0.071926899 0.017725676
0.023114285 -0.071654283 0.015898794
0.023892803 -0.070540659 0.014760733
0.025582243 -0.072095409 0.013793647
0.026583357 -0.071659483 0.013093591
0.027739484 -0.071660332 0.012457371
0.029030662 -0.071996041 0.011739641
0.030334016 -0.07233496 0.01107195
0.031379081 -0.072055675 0.010281473
0.032855432 -0.072751313 0.0083658099
0.03371289 -0.072075829 0.0074353516
0.035397235 -0.073154286 0.0066773593
0.037208151 -0.074416302 0.0061491728
0.037705656 -0.073054709 0.0056545436
-0.012677389 -0.070301883 0.0071197748
-0.011333903 -0.069136813 0.01367569
-0.010419725 -0.070622571 0.016082168
-0.0093053263 -0.070953116 0.018114477
-0.0079222079 -0.069036379 0.019728214
-0.0069156745 -0.070309356 0.01971519
-0.0056926305 -0.069450095 0.02104789
-0.004587112 -0.069953457 0.020329982
-0.003447168 -0.070092417 0.021041274
-0.0023102041 -0.070461228 0.021434546
-0.0011579748 -0.070636459 0.020698994
0 -0.068883486 0.019458711
0.0011552956 -0.07047303 0.01938355
0.0022752527 -0.069395207 0.019763708
0.0034073461 -0.069282703 0.020192981
0.0046307086 -0.070618309 0.019896358
0.0057127229 -0.069695219 0.019922853
0.0067900075 -0.069031745 0.020397067
0.0080756312 -0.070373356 0.020804435
0.0091100242 -0.069463938 0.020507127
0.010364936 -0.070251226 0.020273507
0.011377732 -0.069404162 0.020424306
0.012713545 -0.070502385 0.020750761
0.013626575 -0.06926842 0.021251887
0.015037094 -0.070558675 0.020712197
0.016045043 -0.069910541 0.020410299
0.017113809 -0.069596156 0.020187706
0.018295802 -0.069752745 0.019445986
0.019532444 -0.070087001 0.018870652
0.020726241 -0.070238933 0.018526852
0.021624407 -0.069425732 0.01800245
0.022417989 -0.068374865 0.016283631
0.024330165 -0.070673339 0.015144736
0.025514767 -0.07074549 0.014239877
0.026606483 -0.070565023 0.013914734
0.028142894 -0.071529858 0.012938648
0.028944897 -0.070625544 0.011863291
0.030172179 -0.070788577 0.010468483
0.031348821 -0.070825115 0.0092363954
0.033130243 -0.072176605 0.0082727373
0.034215819 -0.071971208 0.007396102
0.034970224 -0.071106121 0.0066246688
0.037152883 -0.073107287 0.005834192
0.037697077 -0.071860053 0.0053660274
-0.013228783 -0.072157003 0.007022053
-0.011675065 -0.070050389 0.013842613
-0.010329545 -0.068863638 0.017413288
-0.0091764592 -0.068823449 0.019530267
-0.0078989249 -0.067705065 0.020342499
-0.0067835688 -0.067835689 0.020419121
-0.005767345 -0.069208138 0.020769536
-0.0045263148 -0.06789472 0.020931214
-0.0034351852 -0.068703704 0.022005767
-0.0022500877 -0.067502633 0.022220641
-0.0011583054 -0.06949833 0.020863771
0 -0.068387732 0.019940913
0.0011521546 -0.069129281 0.019450486
0.0022888195 -0.068664581 0.019541413
0.0035011377 -0.070022754 0.019456387
0.0045950059 -0.06892509 0.020225704
0.0057795239 -0.069354288 0.020374686
0.0071127545 -0.071127541 0.020647198
0.0078912526 -0.067639306 0.020650297
0.0091681788 -0.068761341 0.019986182
0.010204064 -0.068027087 0.019862652
0.011545998 -0.06927599 0.019908816
0.012475437 -0.068047836 0.020397395
0.013800704 -0.069003522 0.020709336
0.014833282 -0.068461299 0.020658791
0.015928654 -0.068265654 0.020458132
0.017226448 -0.068905793 0.019937783
0.018265035 -0.06849388 0.019499242
0.01914498 -0.067570515 0.019146264
0.021273142 -0.070910476 0.018538743
0.022355312 -0.070595726 0.018389255
0.023862369 -0.071587108 0.016720533
0.02430517 -0.069443345 0.015676409
0.025336081 -0.069098406 0.01476115
0.026700765 -0.069654174 0.01409024
0.027889699 -0.069724247 0.012413025
0.029109651 -0.069863163 0.011665046
0.030708501 -0.070865773 0.0096819699
0.031887632 -0.070861407 0.0086798966
0.03266497 -0.069996364 0.0080291927
0.034126811 -0.070607193 0.0074223578
0.035267986 -0.070535973 0.006670922
0.036604222 -0.070846878 0.0057013929
0.037618335 -0.070534378 0.0051870942
-0.013383758 -0.071785614 0.0065139532
-0.011568712 -0.068255402 0.013186574
-0.010598785 -0.069480926 0.01685065
-0.009133731 -0.067361265 0.019716233
-0.0078909323 -0.066509284 0.020796031
-0.0068194717 -0.067058139 0.020887941
-0.0056514186 -0.066686742 0.021364659
-0.0045519578 -0.067141376 0.021468788
-0.003441998 -0.06769263 0.022498012
-0.0023167492 -0.068344101 0.0230937
-0.0011511984 -0.0679207 0.021729618
0 -0.067407049 0.020742983
0.0011591772 -0.06839145 0.019904882
0.002280449 -0.067273244 0.019459397
0.0035227584 -0.069280915 0.019459397
0.0046084765 -0.067975029 0.019888759
0.0057461215 -0.067804232 0.020527661
0.0068994942 -0.067845024 0.020227253
0.0079182144 -0.066739231 0.020246923
0.0091001159 -0.067113355 0.020348907
0.010289151 -0.067451105 0.019826502
0.011473726 -0.067694984 0.019910604
0.012592144 -0.067539684 0.020082176
0.013828681 -0.067991011 0.020841867
0.014892063 -0.067587055 0.021038741
0.015807021 -0.066615306 0.020841867
0.017243147 -0.067823045 0.020541966
0.018736592 -0.069091178 0.020019114
0.020228343 -0.070204251 0.020008862
0.020581355 -0.067461103 0.019382805
0.022310633 -0.069280386 0.019272566
0.023724133 -0.069986194 0.017577052
0.02493782 -0.070063397 0.016424
0.02512642 -0.067384489 0.015200883
0.026125001 -0.067016311 0.014101297
0.028415453 -0.069854654 0.012247652
0.029412558 -0.06941364 0.010807455
0.030675871 -0.069610633 0.0092500746
0.031491145 -0.068813987 0.0088493824
0.033199713 -0.069956534 0.0083071887
0.03436524 -0.069915496 0.00757128
0.035647608 -0.070106961 0.0067613721
0.036859013 -0.070151031 0.0057912767
0.039273541 -0.070216335 0.0051809251
-0.013351811 -0.070400462 0.0051631629
-0.01174664 -0.068130508 0.0089509189
-0.010612614 -0.068392396 0.015473962
-0.0092751021 -0.067244492 0.019229025
-0.0078428145 -0.064983323 0.021123439
-0.0067840791 -0.065579429 0.02089563
-0.0057330797 -0.066503726 0.021062344
-0.0044789021 -0.064944081 0.021223426
-0.0033974419 -0.065683879 0.022392422
-0.0022781538 -0.066066459 0.022593826
-0.0011242856 -0.065208562 0.021288186
0 -0.067342699 0.020642877
0.0011593719 -0.067243569 0.019901037
0.0022915548 -0.066455089 0.018910021
0.0034173604 -0.066068962 0.018701583
0.0046384889 -0.06725809 0.019108981
0.0058844392 -0.068259493 0.019989014
0.0069905543 -0.067575358 0.019763052
0.0081992289 -0.067936473 0.0200409
0.0090275975 -0.06545008 0.02051878
0.010390638 -0.066961892 0.02001518
0.011303934 -0.065562814 0.02004227
0.012478391 -0.065795153 0.020182699
0.013745522 -0.066436686 0.021056652
0.014985589 -0.066858783 0.021393031
0.01663214 -0.068904579 0.021093071
0.017662406 -0.068294637 0.020786792
0.018563457 -0.067292526 0.020379007
0.019570595 -0.066770263 0.02023834
0.020596869 -0.066367693 0.020045519
0.021656556 -0.066109486 0.019575596
0.023230426 -0.067368239 0.017860264
0.024806561 -0.068513356 0.016470939
0.026182387 -0.069026291 0.015429705
0.026301445 -0.066325389 0.013355225
0.027791213 -0.067162097 0.011262655
0.029192517 -0.067726634 0.0099451542
0.030437592 -0.067899242 0.008684665
0.032016587 -0.068776377 0.0083817542
0.033200119 -0.068771675 0.007851392
0.034237046 -0.068474092 0.0070290267
0.035516843 -0.068665899 0.0063857138
0.03688395 -0.069008686 0.0056381226
0.037949741 -0.068783902 0.0053400099
0.039314102 -0.069097511 0.0051327646
-0.011943417 -0.068077475 0.008041203
-0.010619254 -0.067255273 0.012826115
-0.0093282517 -0.066463791 0.017115504
-0.0079306513 -0.064578161 0.019318104
-0.0067460788 -0.064087749 0.020004898
-0.0055783703 -0.063593417 0.020456284
-0.0044538053 -0.063466728 0.020782292
-0.0033534027 -0.063714653 0.02227509
-0.0022557403 -0.064288601 0.022721261
-0.0011370797 -0.064813547 0.021300346
0 -0.066473588 0.020504534
0.0011704032 -0.066712983 0.019674152
0.0022620759 -0.064469166 0.018785954
0.0034575742 -0.065693907 0.018500328
0.0046943082 -0.066893891 0.018910021
0.0058658933 -0.066871181 0.019989014
0.0071126577 -0.067570247 0.020040274
0.0080645345 -0.065668352 0.020409554
0.0093428697 -0.06656795 0.020584643
0.010125921 -0.064130835 0.020258397
0.011400174 -0.064980991 0.02013585
0.012722916 -0.065927833 0.020757914
0.014247564 -0.067675926 0.021623522
0.014930231 -0.065463319 0.022144437
0.016336478 -0.066512808 0.022050083
0.017460695 -0.066350639 0.021903872
0.018267451 -0.065077797 0.021239609
0.019233339 -0.064488254 0.021268606
0.020775484 -0.065789029 0.020390213
0.021846218 -0.06553866 0.020637989
0.023302319 -0.066411607 0.01846987
0.025172092 -0.068324253 0.017091691
0.025980487 -0.067313083 0.015736938
0.026438599 -0.065521747 0.013655752
0.027772347 -0.065959319 0.011161774
0.029347695 -0.066912748 0.0091892183
0.030513609 -0.066895217 0.0082888901
0.031836256 -0.067209877 0.0081378222
0.033215642 -0.06761755 0.0067164004
0.034341201 -0.067498222 0.0067451894
0.036040116 -0.068476222 0.0060683191
0.036509492 -0.067130357 0.0054136813
0.038293928 -0.068211056 0.0052490234
-0.013715741 -0.06982559 0.0054673851
-0.0119416 -0.066872962 0.0085448921
-0.01063131 -0.066150375 0.012362152
-0.009390614 -0.065734297 0.015555769
-0.0079446873 -0.063557498 0.019177437
-0.0067935595 -0.063406557 0.019249886
-0.0056493096 -0.063272268 0.020014495
-0.0045008101 -0.063011341 0.020742476
-0.0033389432 -0.062326942 0.02252233
-0.0022925283 -0.064190798 0.022750258
-0.0011544391 -0.064648591 0.022004277
0 -0.065921433 0.021138012
0.0011454829 -0.06414704 0.020601839
0.0022510986 -0.063030757 0.019541413
0.0034434909 -0.064278498 0.019398183
0.0045203059 -0.063284278 0.019633114
0.0057851663 -0.064793862 0.020795166
0.0069331885 -0.06470976 0.021079302
0.0080730403 -0.064584322 0.0217776
0.009292176 -0.065045238 0.021704674
0.010387908 -0.064635873 0.021403313
0.012059152 -0.06753125 0.021200597
0.012708817 -0.064699434 0.021609545
0.013939172 -0.065049469 0.022212386
0.015124133 -0.065150112 0.022818267
0.016225634 -0.064902537 0.022477746
0.016941929 -0.063249871 0.022539407
0.018265432 -0.063929006 0.022147208
0.019317068 -0.063632697 0.021879703
0.020637384 -0.064205192 0.021463782
0.021545509 -0.06350255 0.02111429
0.022559898 -0.063167714 0.019626826
0.024751753 -0.066004679 0.017446786
0.025742248 -0.065525718 0.01580444
0.027329683 -0.066541836 0.012457699
0.027575227 -0.064342193 0.010033906
0.029446481 -0.065960117 0.0084424317
0.030477215 -0.065643236 0.0072900951
0.03220553 -0.066796653 0.006811589
0.033528768 -0.067057535 0.006305784
0.034330621 -0.066293612 0.0060293674
0.035728481 -0.066693164 0.0050237179
-0.012098085 -0.066539466 0.007717669
-0.010472794 -0.064000413 0.011576146
-0.0090952041 -0.062529527 0.01456356
-0.0079765879 -0.062673189 0.017520845
-0.0068326006 -0.062632173 0.019287109
-0.0055621197 -0.061183315 0.019735008
-0.0045207427 -0.062160216 0.020647764
-0.0035110917 -0.064370014 0.021697074
-0.0022954312 -0.063124359 0.022106946
-0.0011688089 -0.064284489 0.021609187
0 -0.064837657 0.020682245
0.0011120198 -0.061161086 0.01971063
0.0022769077 -0.062614962 0.019258589
0.0034050718 -0.062426317 0.018538088
0.0045724111 -0.062870651 0.019532382
0.0057400293 -0.063140318 0.020509958
0.0070482781 -0.064609215 0.021587402
0.0082682893 -0.064965129 0.022152513
0.0091785435 -0.063102484 0.022204548
0.010505689 -0.064201437 0.021828353
0.011652805 -0.064090423 0.021960735
0.012858117 -0.064290583 0.02211833
0.013980716 -0.064078279 0.022977442
0.015325897 -0.064840332 0.023577601
0.016127454 -0.06335786 0.023733944
0.017593874 -0.064510867 0.023544103
0.018748425 -0.064447708 0.023248017
0.01915852 -0.061983448 0.022659808
0.02071169 -0.063285723 0.022203803
0.021839006 -0.063218169 0.021555424
0.022509737 -0.061901778 0.02070117
0.023544038 -0.061662957 0.017678469
0.025705911 -0.064264782 0.014805198
0.026688712 -0.063820831 0.011991918
0.028440606 -0.06517639 0.0094206929
0.029434115 -0.064755052 0.007799238
0.030445373 -0.064403668 0.0072758198
0.032077316 -0.06534268 0.0061574578
0.033280104 -0.065371633 0.0053858459
0.034585953 -0.065594047 0.005320698
0.035992589 -0.06598641 0.0050002337
-0.011881088 -0.064157873 0.0075690746
-0.010377789 -0.062266733 0.01191926
-0.009194484 -0.062062766 0.013888121
-0.007941056 -0.061259579 0.016327351
-0.0068408959 -0.061568063 0.018057615
-0.0056963721 -0.061520819 0.018086731
-0.0046790964 -0.063167803 0.020042598
-0.0034501685 -0.062103033 0.021178007
-0.0023376856 -0.063117512 0.021930605
-0.0011269284 -0.060854129 0.021462709
0 -0.060061272 0.020525992
0.0011348503 -0.061281919 0.019661635
0.0023395137 -0.063166872 0.018783629
0.0034551045 -0.062191881 0.019084334
0.0045672189 -0.061657459 0.020117432
0.0057359789 -0.061948571 0.020803869
0.0070723132 -0.063650817 0.02149269
0.0081666764 -0.063000076 0.023012519
0.0092607718 -0.062510207 0.022806257
0.010203976 -0.061223853 0.023012519
0.011537503 -0.062302515 0.023027241
0.012780213 -0.062739223 0.023095459
0.014083581 -0.063376114 0.024230182
0.014961481 -0.062147688 0.025157958
0.015954126 -0.061537344 0.025294244
0.017127784 -0.061660025 0.024759591
0.018395498 -0.062084805 0.024389178
0.019149899 -0.060829096 0.024144679
0.02082314 -0.062469419 0.023965299
0.02161777 -0.061439976 0.022694677
0.022897637 -0.061823618 0.022209942
0.02385287 -0.061335947 0.019696623
0.025791228 -0.063305736 0.015932649
0.027260624 -0.064003207 0.012690812
0.02903443 -0.065327466 0.0097112656
0.029306004 -0.063300967 0.0079326928
0.031012556 -0.064410694 0.006677568
0.03233137 -0.06466274 0.0059548318
0.033506077 -0.064618863 0.0054081976
0.034583777 -0.06439738 0.0050833225
-0.011723685 -0.062135532 0.0081855059
-0.01068245 -0.062907755 0.011856586
-0.0094843153 -0.062833592 0.014424294
-0.0082607763 -0.062545881 0.016556233
-0.0071281181 -0.062965043 0.017044097
-0.0058126356 -0.06161394 0.017559111
-0.0045697973 -0.060549818 0.018338859
-0.0033605094 -0.059368998 0.019935846
-0.0022393994 -0.059344083 0.021113634
-0.0011643206 -0.061708994 0.021269321
0 -0.061628431 0.02045241
0.0011726089 -0.062148273 0.018563867
0.0022445184 -0.05947974 0.018388063
0.0034453403 -0.060867678 0.018565714
0.0046443883 -0.061538149 0.019851595
0.0057419469 -0.060864635 0.020965248
0.0071741859 -0.063371979 0.02167204
0.0081212986 -0.061489832 0.022641242
0.0091148289 -0.060385741 0.022856116
0.010334794 -0.060860455 0.022568107
0.011386164 -0.060346667 0.023045421
0.012324933 -0.059383769 0.023984194
0.013551874 -0.059854109 0.024813384
0.014690344 -0.059891403 0.026157796
0.016098721 -0.060945157 0.02682513
0.017019607 -0.060135942 0.026651055
0.018041421 -0.059762202 0.026490718
0.019200161 -0.059859328 0.025977969
0.020084083 -0.059136465 0.025159836
0.021803491 -0.060820263 0.02388984
0.022640266 -0.059996702 0.023200691
0.023789695 -0.060040656 0.021307737
0.026189659 -0.063093267 0.018776715
0.027240522 -0.062771641 0.014231205
0.028321456 -0.062543213 0.01046899
0.029749446 -0.063068822 0.0080327094
0.030967724 -0.063126512 0.0065326691
0.032158419 -0.063125782 0.0062158406
0.033479951 -0.063372761 0.0053460002
-0.011798933 -0.061354455 0.0082452595
-0.010585121 -0.061158475 0.012477875
-0.0095011434 -0.06175743 0.01469636
-0.0081134001 -0.060270973 0.015706331
-0.0068409089 -0.05928788 0.017029822
-0.0056397049 -0.058652934 0.016792774
-0.0045255427 -0.058832053 0.017703056
-0.0035061287 -0.060772896 0.01862523
-0.0023227064 -0.060390368 0.019853055
-0.0011726394 -0.060977254 0.02065599
0 -0.061275359 0.020114034
0.0011394229 -0.05924999 0.019130886
0.0022216556 -0.057763048 0.018953234
0.0034366497 -0.059568595 0.019527435
0.0045355377 -0.058961987 0.020380706
0.0057966341 -0.060284998 0.021643966
0.0068229921 -0.059132598 0.022740245
0.0082511837 -0.061294504 0.023145139
0.0090628918 -0.058908794 0.023345262
0.010205631 -0.058965869 0.023977429
0.011546686 -0.060042769 0.02420634
0.012465291 -0.058926828 0.024666518
0.01378979 -0.059755754 0.026316613
0.014811861 -0.059247445 0.027427107
0.016063308 -0.059663713 0.027933896
0.017000834 -0.05893622 0.028033823
0.018449146 -0.059959728 0.027848989
0.01924203 -0.058857974 0.026991814
0.020403475 -0.058943372 0.026468396
0.021622427 -0.059177168 0.025692165
0.022588462 -0.058729999 0.024093449
0.024261907 -0.060077101 0.022352248
0.024222264 -0.057252627 0.019243121
0.027567325 -0.06232613 0.015256375
0.02867117 -0.06212087 0.010681957
0.030790424 -0.064044081 0.0079467595
0.030707631 -0.061415263 0.0069902539
0.032311969 -0.062230457 0.0058361888
-0.011789422 -0.060126048 0.0089786649
-0.01046687 -0.059312265 0.01321128
-0.0091410577 -0.058274243 0.014881104
-0.0079416353 -0.057860486 0.01629138
-0.0069145351 -0.058773547 0.017129481
-0.0058317911 -0.059484273 0.017393976
-0.0046360642 -0.059109818 0.018153578
-0.0035135117 -0.059729703 0.01852119
-0.0023288466 -0.05938559 0.019976109
-0.0011744914 -0.059899058 0.020508796
0 -0.059091013 0.020097762
0.0011571809 -0.059016224 0.019307345
0.0022442455 -0.05722826 0.018729717
0.0034264738 -0.058250055 0.020295113
0.0045997384 -0.058646664 0.021541625
0.0058186874 -0.05935061 0.022051781
0.0069532967 -0.05910302 0.022925735
0.0082662795 -0.060225755 0.023576051
0.0092419749 -0.058917589 0.024309367
0.010167974 -0.057618521 0.024777085
0.011406759 -0.058174469 0.025042564
0.012323428 -0.057135891 0.025426745
0.013641634 -0.057976946 0.026791573
0.014717096 -0.057736296 0.028010011
0.016063608 -0.05851743 0.02819559
0.017146409 -0.058297791 0.028609753
0.018167878 -0.057910111 0.028470308
0.019325193 -0.057975583 0.027584106
0.020950763 -0.059360497 0.026879847
0.021816006 -0.058558751 0.026320159
0.022859152 -0.058290839 0.02492246
0.023418725 -0.056874044 0.022288561
0.024805099 -0.057502728 0.019694865
0.027458733 -0.060886756 0.01583907
0.028788581 -0.061175734 0.01071772
0.030374393 -0.061963759 0.0079873204
0.030782575 -0.060381204 0.0068292022
0.032268304 -0.06095124 0.0057398975
-0.01149099 -0.057454951 0.0099950731
-0.010314533 -0.057302963 0.013258934
-0.0092640342 -0.057900213 0.015122145
-0.008154192 -0.058244232 0.01621291
-0.0068886578 -0.057405483 0.016861677
-0.0059552961 -0.05955296 0.016930908
-0.0046729404 -0.058411751 0.017920107
-0.0035274571 -0.058790952 0.018230647
-0.0023358262 -0.058395658 0.018796235
-0.00117085 -0.058542497 0.01955542
0 -0.057603955 0.019679308
0.0011562814 -0.057814069 0.019679308
0.0023299744 -0.058249362 0.019525319
0.00349253 -0.058208834 0.020290315
0.0047024419 -0.058780521 0.021397561
0.0058361352 -0.058361355 0.022733778
0.0069669173 -0.058057643 0.023263723
0.0080454014 -0.057467155 0.02405557
0.009459056 -0.059119098 0.025080234
0.010256944 -0.05698302 0.025446862
0.0113161 -0.056580499 0.025987566
0.01238858 -0.05631173 0.026085049
0.013763168 -0.05734653 0.027306974
0.014712515 -0.056586597 0.028147846
0.015820738 -0.056502637 0.028519839
0.016828649 -0.056095496 0.028586507
0.017942 -0.056068752 0.028240919
0.019173231 -0.056391854 0.027592421
0.020762507 -0.057673629 0.026615262
0.021329233 -0.05612956 0.025466621
0.022679226 -0.056698065 0.024254948
0.023724498 -0.056486897 0.021357775
0.025113355 -0.05707581 0.018602818
0.027155394 -0.059033465 0.012925118
0.029227102 -0.060889799 0.0089419782
0.030446341 -0.060892683 0.0075941682
0.031374499 -0.060335573 0.0063820481
0.032483883 -0.060155336 0.0052917004
-0.011648901 -0.057079613 0.010477513
-0.010343119 -0.056312535 0.01354602
-0.009366489 -0.057369743 0.014768064
-0.0081905145 -0.0573336 0.01606375
-0.0071417792 -0.058324531 0.016943455
-0.0057962514 -0.056803264 0.017320246
-0.0047078417 -0.057671059 0.017811596
-0.0035347987 -0.057735045 0.0178518
-0.0023443773 -0.057437245 0.018754959
-0.0011534849 -0.056520764 0.018900424
0 -0.057829265 0.019224644
0.0011435484 -0.056033876 0.019400328
0.0023060949 -0.056499321 0.019400328
0.0034854223 -0.056928568 0.020287693
0.0046771192 -0.057294711 0.021632195
0.0058316053 -0.057149731 0.022887707
0.0069768396 -0.056977525 0.023384929
0.0081465682 -0.05702598 0.023940235
0.0091992477 -0.056345392 0.025314957
0.0098949922 -0.053872734 0.025959581
0.011344194 -0.055586554 0.026322693
0.012520696 -0.055774011 0.026695877
0.013508798 -0.055160921 0.027548254
0.014882096 -0.056094054 0.027947694
0.015774766 -0.055211682 0.028668314
0.017057173 -0.055720095 0.028720945
0.018395271 -0.05633552 0.028440118
0.019294472 -0.055613481 0.027745605
0.020384461 -0.055491034 0.026295066
0.022038544 -0.05683624 0.025507838
0.022690307 -0.055591252 0.023855448
0.023975192 -0.055942111 0.02142033
0.025331777 -0.056420777 0.016530901
0.026153363 -0.055718035 0.010267377
0.028545355 -0.058280099 0.0083877742
0.030294515 -0.059377249 0.0069879889
-0.011617218 -0.055762645 0.0095574558
-0.010587216 -0.056465153 0.013982952
-0.009430863 -0.056585178 0.015021205
-0.0079579828 -0.054569025 0.015981168
-0.006986354 -0.055890832 0.016842008
-0.0058242949 -0.055913232 0.017106891
-0.004717113 -0.056605358 0.017451048
-0.0034803036 -0.055684857 0.018078089
-0.0023905896 -0.057374146 0.018475831
-0.0011590328 -0.055633575 0.019221395
0 -0.054978274 0.019857943
0.0011667142 -0.056002282 0.020137727
0.002396198 -0.057508752 0.020398527
0.0035490685 -0.056785095 0.020565838
0.0045954362 -0.055145238 0.021302164
0.0057011587 -0.054731119 0.022179902
0.0070638908 -0.056511126 0.023497999
0.0081922291 -0.056175288 0.023829192
0.0093128607 -0.055877164 0.024313033
0.010435821 -0.055657711 0.025824279
0.011246677 -0.053984046 0.026384294
0.012680232 -0.055331919 0.02659446
0.013633824 -0.054535296 0.027164638
0.014931205 -0.055130601 0.028003573
0.015860047 -0.054377303 0.028212577
0.017171388 -0.054948445 0.028520077
0.017941093 -0.053823277 0.028212577
0.019765586 -0.055808712 0.027344018
0.020474337 -0.054598231 0.026689798
0.021687983 -0.054790691 0.024872661
0.022788931 -0.054693434 0.022869349
0.023824321 -0.054455593 0.019860327
0.025485784 -0.055605344 0.012533426
0.026521508 -0.055349234 0.0087040663
0.028396433 -0.056792866 0.0075255334
-0.011704308 -0.055010248 0.0074985325
-0.010572352 -0.055211172 0.014603436
-0.0093415789 -0.054881778 0.014877945
-0.0082600312 -0.055460211 0.015952021
-0.0070349607 -0.055107191 0.017302006
-0.0058660214 -0.055140603 0.017308921
-0.0046241828 -0.054334145 0.017494768
-0.0035064376 -0.054934189 0.017650545
-0.0023479038 -0.05517574 0.018491149
-0.0011651228 -0.054760773 0.018835992
0 -0.055253793 0.019193918
0.0011377491 -0.053474206 0.019479036
0.0023432705 -0.055066854 0.019932181
0.0034702248 -0.054366853 0.020416886
0.0045776069 -0.053786878 0.021093786
0.005801402 -0.05453318 0.02221331
0.0069321827 -0.0543021 0.023179144
0.0080300411 -0.053915989 0.023489326
0.009259657 -0.054400485 0.024212629
0.010306849 -0.053824659 0.024919242
0.011269754 -0.052967843 0.025076926
0.012432787 -0.053121906 0.026063979
0.01363958 -0.053421687 0.026712477
0.014779813 -0.053434707 0.027022451
0.016018594 -0.053776708 0.027685136
0.017025063 -0.0533452 0.027596265
0.018146614 -0.053305678 0.027631402
0.019446542 -0.053763971 0.026985705
0.020340452 -0.053111177 0.025312871
0.021710981 -0.05370611 0.023912162
0.023104191 -0.054294847 0.021636814
0.024600225 -0.055057649 0.014378101
0.02577357 -0.055061717 0.0087929964
0.027478885 -0.056152504 0.0069721937
-0.010467454 -0.053500321 0.013375401
-0.0094351005 -0.054251831 0.015215278
-0.0081174169 -0.053343028 0.016293764
-0.0070048873 -0.053704135 0.017455816
-0.0057781669 -0.053159136 0.017520219
-0.0047036256 -0.054091696 0.017923474
-0.0035265163 -0.054073248 0.018170625
-0.0023248312 -0.053471118 0.018347651
-0.0011663286 -0.053651109 0.019087017
0 -0.054315962 0.019393593
0.0011562688 -0.053188361 0.019711286
0.0023465359 -0.053970326 0.020869255
0.0035678521 -0.054707065 0.021193266
0.0046977731 -0.054024391 0.021442592
0.0058190129 -0.053534918 0.022142172
0.0069291722 -0.053123657 0.022416592
0.0081984932 -0.053875811 0.023016036
0.0093375705 -0.05369103 0.023465037
0.010461419 -0.053469475 0.02379939
0.011565207 -0.053199951 0.024703205
0.01226368 -0.051284481 0.025013953
0.01375056 -0.052710477 0.025166661
0.014962613 -0.05294463 0.025786638
0.016326338 -0.053643681 0.026787579
0.017003819 -0.052145049 0.026898116
0.018837452 -0.054157674 0.026591212
0.019638905 -0.053140566 0.024861276
0.020675655 -0.052837785 0.023401976
0.022146931 -0.053618882 0.021646172
0.022948023 -0.052780453 0.015198857
0.024400482 -0.053448677 0.0097600222
0.025963452 -0.054287218 0.0074519217
0.026663817 -0.053327635 0.0051338077
-0.010642268 -0.053211339 0.0082987845
-0.0094373757 -0.053085238 0.014180928
-0.0082132835 -0.052799679 0.015786111
-0.0070552407 -0.052914307 0.016948104
-0.0058938959 -0.053045064 0.017069131
-0.0046842778 -0.052698124 0.017201751
-0.0035537076 -0.053305615 0.017753571
-0.0023118637 -0.052016933 0.018018484
-0.0011688684 -0.052599076 0.018260866
0 -0.051457871 0.018627703
0.0011726485 -0.052769184 0.01962471
0.0023655172 -0.053224139 0.020386547
0.0035414528 -0.053121794 0.020611137
0.004598923 -0.051737886 0.021033049
0.0057826331 -0.052043695 0.021179348
0.0070303674 -0.052727755 0.021896809
0.0081031863 -0.052091915 0.022657096
0.0093881208 -0.05280818 0.02262035
0.010409663 -0.052048311 0.022904187
0.011343131 -0.051044088 0.023135036
0.012406232 -0.050752766 0.023339063
0.014084514 -0.052816927 0.024153709
0.015023334 -0.052003849 0.024879903
0.016120456 -0.051815752 0.024991751
0.017249333 -0.051748 0.025013953
0.018509608 -0.052058268 0.024149984
0.019697571 -0.052140627 0.022659332
0.020867132 -0.052167829 0.021428049
0.022578146 -0.053474557 0.01568222
0.024087541 -0.054196969 0.01049602
0.025022732 -0.053620141 0.0063683391
-0.00937034 -0.051536869 0.010694683
-0.0082899015 -0.052107949 0.015035152
-0.0069994717 -0.05132946 0.016156524
-0.0058971099 -0.051894568 0.016767621
-0.0047051394 -0.051756531 0.017024308
-0.0035161278 -0.051569875 0.017238438
-0.002313026 -0.050886571 0.017879605
-0.0011674989 -0.05136995 0.018174529
0 -0.051954962 0.01864332
0.0011727425 -0.051600669 0.019094378
0.0023348539 -0.051366787 0.019572556
0.0034800938 -0.051041376 0.020524055
0.0046968474 -0.051665321 0.021396011
0.005802915 -0.051065654 0.021158367
0.0069650877 -0.05107731 0.021473795
0.0082305837 -0.051735099 0.021756381
0.0092450054 -0.05084753 0.021854877
0.010676581 -0.052196622 0.022168636
0.011691493 -0.051442571 0.022463799
0.012651292 -0.050605167 0.022186786
0.013770433 -0.050491586 0.022630006
0.014888284 -0.050391115 0.022681177
0.016195981 -0.050901655 0.022511959
0.017319279 -0.050803214 0.022041887
0.018477958 -0.050814386 0.019871563
0.019788219 -0.051216569 0.018807203
0.020635281 -0.050441798 0.014941633
0.022787074 -0.052770063 0.010691106
0.02387508 -0.052525174 0.0066139996
-0.0096899848 -0.052083667 0.0065296292
-0.0083878096 -0.051525116 0.012488365
-0.007104245 -0.050913755 0.015266776
-0.005869193 -0.050475061 0.016550243
-0.0046849996 -0.050363749 0.016369969
-0.0035708966 -0.051182851 0.017385542
-0.0023551481 -0.050635684 0.017505199
-0.0011984991 -0.051535465 0.018292248
0 -0.050007068 0.018520534
0.0011814265 -0.050801337 0.018947691
0.0023140523 -0.049752124 0.020144433
0.0035046807 -0.050233759 0.020340741
0.0046193954 -0.0496585 0.020837426
0.0058566947 -0.050367571 0.020615101
0.0070629092 -0.050617516 0.020881444
0.0082678916 -0.050788481 0.021132767
0.0093427468 -0.050217263 0.021360904
0.010511679 -0.050222464 0.021645457
0.011821584 -0.050832808 0.021623075
0.012881535 -0.050355092 0.021145493
0.014073516 -0.0504301 0.021000236
0.015117569 -0.050004266 0.020611912
0.016567439 -0.050885703 0.02017948
0.017770242 -0.050941359 0.018924475
0.018924821 -0.050860461 0.017307371
0.020342709 -0.051455088 0.015001118
0.021771625 -0.052009992 0.010200143
0.023248136 -0.052614201 0.0051894486
-0.0082014464 -0.049208678 0.01037851
-0.0070209512 -0.04914666 0.014527678
-0.0059144031 -0.049680986 0.016807199
-0.004721412 -0.049574826 0.017368287
-0.0035522948 -0.049732126 0.017749429
-0.0023820135 -0.050022285 0.017886609
-0.0011662012 -0.048980452 0.019042611
0 -0.049943522 0.018844455
0.0011973593 -0.050289091 0.019537747
0.0023182346 -0.048682928 0.020180404
0.0034959554 -0.048943374 0.020313531
0.0046443436 -0.048765607 0.020976722
0.0058479458 -0.049122743 0.020972818
0.0070077823 -0.049054477 0.020873368
0.0081553562 -0.048932139 0.0212982
0.0095833289 -0.050312478 0.021348447
0.010481119 -0.048911888 0.021423727
0.01175045 -0.04935189 0.021475822
0.012860953 -0.049105458 0.020623773
0.014143948 -0.049503818 0.020303547
0.015151871 -0.0489522 0.019774944
