ply
format ascii 1.0
comment PCL generated
element vertex 1255
property float x
property float y
property float z
element camera 0
property float view_px
property float view_py
property float view_pz
property float x_axisx
property float x_axisy
property float x_axisz
property float y_axisx
property float y_axisy
property float y_axisz
property float z_axisx
property float z_axisy
property float z_axisz
property float focal
property float scalex
property float scaley
property float centerx
property float centery
property int viewportx
property int viewporty
property float k1
property float k2
end_header
-0.020852285 -0.089201443 0.0063581467
-0.019614488 -0.088842094 0.0070871711
-0.018247085 -0.087814093 0.0076413751
-0.017389508 -0.089266136 0.0074720979
-0.016265646 -0.089461043 0.0075699389
-0.014840004 -0.087898485 0.0078970492
-0.013834257 -0.088769816 0.0080578029
-0.012669619 -0.08868733 0.0088064075
-0.011425111 -0.087973349 0.008339107
-0.010429616 -0.089231163 0.008292526
-0.0093154507 -0.089661211 0.0085112751
-0.0080426103 -0.088468708 0.0088051856
-0.0069402042 -0.089065954 0.0088106394
-0.0057767192 -0.088961475 0.0093237758
-0.004609847 -0.088739559 0.0093552172
-0.0034756747 -0.089208983 0.0096693933
-0.0023248026 -0.089504898 0.0092898607
-0.0011520296 -0.088706277 0.0092656612
0 -0.087822944 0.0089209974
0.0011419507 -0.087930202 0.0088743567
0.0022727083 -0.087499276 0.0090719163
0.0034578245 -0.088750824 0.0089824498
0.0045598191 -0.087776519 0.0087803006
0.0057345247 -0.08831168 0.0082044601
0.0069136135 -0.088724703 0.0080287755
0.0080001159 -0.088001274 0.0077666044
0.0092639728 -0.08916574 0.0068370104
0.010344938 -0.088506691 0.0065854192
0.011555004 -0.08897353 0.0063673854
0.012741054 -0.089187384 0.0061416924
0.014011954 -0.089910038 0.006175369
0.014961494 -0.088618085 0.0057845414
0.016201081 -0.089105949 0.0054696202
0.017273923 -0.088672809 0.0052420199
-0.031580113 -0.088892169 0.0051221848
-0.029050214 -0.088312648 0.0052655041
-0.027998634 -0.088662341 0.0056022704
-0.026695075 -0.088209815 0.0055250823
-0.025608677 -0.088466339 0.0057712197
-0.024469547 -0.088556454 0.0061181188
-0.023198105 -0.088152796 0.006174624
-0.021861054 -0.087444216 0.0064973235
-0.020799117 -0.087818496 0.0065541267
-0.019695248 -0.088049345 0.0073676109
-0.018525004 -0.087993771 0.007676512
-0.017281467 -0.087559432 0.0086187124
-0.016062841 -0.08719828 0.0086558163
-0.014979868 -0.087574616 0.0089242458
-0.013800961 -0.087406084 0.008947283
-0.012595021 -0.087020144 0.0091302395
-0.011413731 -0.086744353 0.0087872446
-0.010418313 -0.087976865 0.0089839101
-0.0092306091 -0.087690786 0.0089839101
-0.0081103118 -0.088054813 0.0091528594
-0.0068783788 -0.087126136 0.0095561743
-0.0057327854 -0.08713834 0.009755373
-0.0046067606 -0.087528445 0.009961158
-0.0034604287 -0.087664194 0.010110855
-0.00229715 -0.087291703 0.010173589
-0.0011474318 -0.087204821 0.010159045
0 -0.086521998 0.0099994838
0.001149436 -0.087357134 0.0099969208
0.0022998219 -0.087393239 0.010009855
0.0034440323 -0.087248817 0.0099369287
0.004642711 -0.088211507 0.0095106363
0.005759201 -0.087539852 0.0092532635
0.0068543325 -0.086821549 0.0091173351
0.00804953 -0.087394901 0.0084633231
0.0091781486 -0.087192416 0.0076680779
0.010316676 -0.087118596 0.0072844923
0.011537583 -0.087685622 0.0072180331
0.012731249 -0.087961353 0.0064976811
0.013846852 -0.087696731 0.0065913498
0.015005908 -0.087726846 0.0060679615
0.016112974 -0.087470427 0.0058260262
0.017488109 -0.088606417 0.0058054924
0.018467721 -0.087721668 0.0053178072
0.01954362 -0.087371476 0.005073905
-0.031056846 -0.086269021 0.005035013
-0.030067516 -0.086733222 0.0053690374
-0.029224822 -0.087674469 0.0056912899
-0.027757386 -0.086741827 0.0058841705
-0.026753936 -0.087241098 0.0056900978
-0.025491538 -0.086902969 0.0060228705
-0.024408678 -0.087173849 0.0064328313
-0.023280855 -0.087303214 0.0066384673
-0.022155222 -0.087454818 0.0066328049
-0.020942405 -0.087260023 0.0069249868
-0.019647991 -0.086682312 0.0072787702
-0.018306689 -0.085812606 0.0078400075
-0.01712957 -0.085647851 0.0087394416
-0.016281396 -0.087221771 0.0089330673
-0.014971325 -0.086373031 0.0091235638
-0.013562103 -0.084763139 0.0094747245
-0.012805517 -0.087310344 0.0096440017
-0.011467856 -0.086008929 0.0093454123
-0.010317307 -0.085977562 0.0095207095
-0.0092447866 -0.086669877 0.0097573698
-0.0080627799 -0.086386934 0.010075808
-0.0068598501 -0.085748129 0.010325223
-0.0057671503 -0.086507253 0.010774016
-0.0046206517 -0.086637221 0.010618269
-0.0034418749 -0.086046867 0.010959327
-0.0023105333 -0.086645 0.010996461
-0.0011458015 -0.085935108 0.01097858
0 -0.086062938 0.011023313
0.0011555811 -0.086668588 0.011074305
0.0022981418 -0.086180314 0.010972351
0.0034415105 -0.086037762 0.010808945
0.0046065599 -0.086372994 0.01047051
0.0056948708 -0.08542306 0.0098995566
0.0069655324 -0.087069154 0.0095078051
0.0081469584 -0.087288834 0.0089641213
0.0092962869 -0.08715269 0.0082238615
0.010347914 -0.086232617 0.0075773597
0.011549835 -0.086623766 0.0076099932
0.0126372 -0.086162724 0.0072972775
0.01422804 -0.08892525 0.0071105659
0.015041568 -0.086778276 0.006626457
0.016200656 -0.086789235 0.0063033998
0.017293463 -0.086467311 0.005915314
0.018504798 -0.086741246 0.0055842102
0.019730529 -0.087046452 0.0052706003
0.020976266 -0.087401114 0.0051777363
-0.031855643 -0.087308057 0.0050499737
-0.030408116 -0.086546175 0.0051407218
-0.0293114 -0.086761743 0.0054761469
-0.027793873 -0.08569777 0.0058692098
-0.027081916 -0.087133124 0.005949378
-0.025534349 -0.085888259 0.0061602294
-0.024398597 -0.085976012 0.006311208
-0.023382915 -0.086516783 0.0064725578
-0.02189013 -0.085256293 0.006785512
-0.020835442 -0.085656822 0.0071231723
-0.019727519 -0.085872732 0.0074273944
-0.018422304 -0.085203156 0.0079770982
-0.017573103 -0.08669398 0.0088588595
-0.01609276 -0.085061736 0.0092985332
-0.015149778 -0.086237192 0.0097207725
-0.01375375 -0.084814794 0.010245413
-0.012520318 -0.084227592 0.010316074
-0.01147031 -0.0848803 0.010362476
-0.010466569 -0.08605846 0.010338515
-0.0091549186 -0.084682994 0.010422051
-0.0080861924 -0.085482605 0.010755032
-0.0068660569 -0.084681369 0.010725141
-0.0057443874 -0.085016936 0.010915846
-0.0046486151 -0.085999377 0.010862619
-0.0034491729 -0.085079603 0.011222988
-0.0022999702 -0.0850989 0.011305869
-0.0011515147 -0.085212089 0.011400163
0 -0.084897637 0.011572957
0.0011317083 -0.083746411 0.011556476
0.00230155 -0.08515735 0.011587143
0.0034768772 -0.08576297 0.01129964
0.0045924787 -0.084960856 0.010975003
0.0057668653 -0.085349612 0.010680407
0.00694734 -0.08568386 0.0098773539
0.0079769082 -0.084327318 0.0094105601
0.0092880707 -0.085914657 0.008903116
0.010298741 -0.084678538 0.0085959136
0.011532264 -0.085338749 0.00838992
0.012635894 -0.085005105 0.008013159
0.013847031 -0.085390024 0.0074905455
0.01498242 -0.085284546 0.0065299869
0.016220272 -0.085735723 0.00621292
0.017518461 -0.08642441 0.0058339238
0.018415505 -0.085171714 0.0053603649
0.019767765 -0.086047918 0.0050001442
-0.030931568 -0.086846322 0.0052857101
-0.029062733 -0.084863178 0.0054736733
-0.028058775 -0.08534544 0.0055395067
-0.026821006 -0.08512754 0.0058030486
-0.025789272 -0.085573494 0.0062169433
-0.024464829 -0.085044406 0.0064794123
-0.023102507 -0.084324151 0.0066435039
-0.022183003 -0.085229434 0.0070229769
-0.020903146 -0.084773868 0.007414788
-0.019747097 -0.084796362 0.0076056421
-0.0184203 -0.084042616 0.0082037449
-0.017165937 -0.083540894 0.0090717077
-0.01615392 -0.084231161 0.0095513165
-0.015040803 -0.084459893 0.0098885298
-0.013656748 -0.083078556 0.010476798
-0.012748105 -0.084601067 0.010864645
-0.011557137 -0.084367104 0.0107539
-0.01024839 -0.08312583 0.010775208
-0.009267156 -0.084562801 0.011056185
-0.0080917012 -0.084384881 0.011093557
-0.0069054002 -0.084015697 0.011147857
-0.0057395054 -0.083796777 0.011529982
-0.0046571167 -0.084992379 0.011298329
-0.0034573642 -0.084129199 0.011841893
-0.0022854994 -0.083420731 0.01174894
-0.0011541849 -0.084255502 0.011850029
0 -0.083222136 0.011954337
0.0011552788 -0.08433535 0.012129843
0.0023214743 -0.084733814 0.012126088
0.0034493429 -0.083934009 0.011986375
0.0045533278 -0.083098233 0.01196456
0.0057316059 -0.083681442 0.011443883
0.0068940981 -0.083878197 0.010876894
0.0081350841 -0.084837303 0.01019308
0.0091976505 -0.083928563 0.0097532272
0.010322753 -0.083728999 0.0092679858
0.011616672 -0.084801711 0.0090510249
0.012843659 -0.085235193 0.0085205436
0.014064935 -0.085561685 0.0076346397
0.015177401 -0.085226946 0.0073464513
0.016176026 -0.084346421 0.006855458
0.01722879 -0.08384677 0.0067023039
0.018716618 -0.085394569 0.005982846
0.019586081 -0.084104933 0.0057264864
-0.030480452 -0.084407404 0.0051465631
-0.029286968 -0.084346466 0.0055464506
-0.027748432 -0.083245292 0.0055464506
-0.026875252 -0.084131218 0.0061258376
-0.025606198 -0.083802104 0.006249547
-0.024412394 -0.083699636 0.0065806806
-0.023031881 -0.08291477 0.0069903433
-0.022036353 -0.083506182 0.0075850487
-0.020970749 -0.083882995 0.0077712536
-0.019726297 -0.083546676 0.0083743632
-0.018615443 -0.083769493 0.0087194443
-0.017367102 -0.083362088 0.0095425248
-0.01608404 -0.082717918 0.0098457932
-0.014831393 -0.082143106 0.010001034
-0.013972993 -0.083837964 0.010817945
-0.012703893 -0.083152749 0.011530519
-0.011450095 -0.082440689 0.011507034
-0.010383899 -0.083071195 0.011530519
-0.0092661092 -0.083394982 0.011719257
-0.008079296 -0.083101332 0.011964589
-0.0069199204 -0.083039045 0.011863083
-0.0058059981 -0.083606377 0.012234062
-0.0046014111 -0.0828254 0.012067735
-0.0034327172 -0.082385212 0.01241985
-0.0022978736 -0.082723454 0.0123972
-0.0011416539 -0.082199074 0.012580484
0 -0.082663216 0.012657851
0.0011446321 -0.082413517 0.012634337
0.0022803689 -0.082093284 0.012640744
0.0034835897 -0.083606154 0.012618303
0.0045736963 -0.082326531 0.012403697
0.0057658856 -0.083028749 0.012101084
0.0069246609 -0.083095931 0.011814862
0.0080397334 -0.082694404 0.011266768
0.009265136 -0.083386227 0.010924995
0.010373509 -0.082988068 0.010407716
0.011575874 -0.083346292 0.010090649
0.012841572 -0.084053926 0.0093362629
0.013900088 -0.083400533 0.0081434548
0.014983815 -0.082987279 0.0078617334
0.016350221 -0.08408685 0.0073150396
0.017427234 -0.083650723 0.0065730214
0.018574631 -0.083585836 0.0057229102
0.019702554 -0.083446108 0.0059175789
0.020685483 -0.082741931 0.0053818524
0.022103259 -0.083759718 0.0052422881
0.023331769 -0.083994366 0.0050103664
-0.030461153 -0.08318238 0.005115658
-0.029198628 -0.082924105 0.0055938065
-0.028084453 -0.083083175 0.0056319833
-0.027057778 -0.083526187 0.0061914325
-0.025703341 -0.082951687 0.0063719451
-0.024329189 -0.082255833 0.0070254803
-0.023336323 -0.082843944 0.0073116124
-0.021931047 -0.081952855 0.0078347325
-0.020899415 -0.082436584 0.0080557466
-0.019854059 -0.082919896 0.0084656477
-0.018439274 -0.08182428 0.0088204145
-0.017421527 -0.082461894 0.0095300674
-0.016184151 -0.082076766 0.010287225
-0.014851672 -0.081112973 0.010489762
-0.014104063 -0.083449043 0.011198759
-0.012761191 -0.082367696 0.011968106
-0.01133504 -0.080478787 0.012300581
-0.010383742 -0.081916191 0.012446821
-0.0092844544 -0.082399532 0.012790889
-0.0080651334 -0.081803493 0.012825251
-0.0069387811 -0.082108907 0.01281324
-0.0057758274 -0.082016751 0.013136864
-0.0046234662 -0.082066528 0.012950122
-0.0034523557 -0.081705749 0.01300323
-0.0023115762 -0.082060955 0.013007104
-0.0011431539 -0.081163928 0.013124257
0 -0.081958383 0.013314873
0.0011321503 -0.080382675 0.013197005
0.002279964 -0.080938727 0.013169289
0.0034452432 -0.081537418 0.01306805
0.0045804265 -0.081302576 0.012918144
0.0057025775 -0.080976598 0.012590766
0.0069311219 -0.082018279 0.012449533
0.0079770572 -0.080910146 0.011826783
0.0091731036 -0.081411295 0.011296391
0.010455946 -0.082485802 0.010999024
0.011582392 -0.082234986 0.010504633
0.012594074 -0.081289023 0.0092609525
0.013846657 -0.081926055 0.008713007
0.015136826 -0.082670353 0.0085335374
0.016232634 -0.082322642 0.0073962808
0.017379608 -0.082263485 0.006822437
0.018619079 -0.082622163 0.0060750544
0.019836506 -0.082846582 0.006025821
0.021826431 -0.086093143 0.0055803657
0.021947201 -0.08201322 0.0054252446
-0.031549983 -0.081796251 0.0052186847
-0.03066095 -0.082548708 0.0060403347
-0.02916166 -0.081652649 0.0063285232
-0.028019836 -0.081724517 0.0061492324
-0.026924664 -0.08194463 0.0065376163
-0.025728231 -0.081862554 0.0065380931
-0.02439882 -0.081329398 0.0067020953
-0.023360169 -0.081760593 0.0076081157
-0.022331016 -0.082272165 0.0080467165
-0.020916488 -0.081341892 0.0086215138
-0.019602725 -0.080717102 0.008726418
-0.018394159 -0.080474444 0.0092892349
-0.017528728 -0.081800729 0.0097650886
-0.016218692 -0.08109346 0.010308057
-0.014895566 -0.080206893 0.011032403
-0.01379458 -0.080468386 0.011863202
-0.012637244 -0.080418825 0.012988597
-0.011501309 -0.080509163 0.013090938
-0.010426195 -0.081092626 0.013228595
-0.0091651147 -0.080194749 0.013883978
-0.0080402754 -0.080402762 0.013921142
-0.0068675024 -0.080120862 0.014077544
-0.0057644583 -0.080702417 0.014579564
-0.0046172896 -0.080802567 0.014418155
-0.0034506386 -0.0805149 0.014427602
-0.0022817338 -0.079860687 0.014564842
-0.0011406344 -0.079844408 0.014739484
0 -0.080874689 0.015210569
0.0011465931 -0.080261521 0.015274137
0.0022817338 -0.079860687 0.015218109
0.0034517332 -0.080540441 0.01462391
0.0045552715 -0.079717256 0.014259934
0.0058051948 -0.081272729 0.013835371
0.0069109122 -0.080627307 0.01348722
0.008055171 -0.080551706 0.01326251
0.0092288246 -0.080752216 0.012735844
0.010305832 -0.080156468 0.01216203
0.01154386 -0.080807023 0.010994345
0.012674685 -0.080657087 0.0096901655
0.013985665 -0.081583045 0.0091812909
0.015195784 -0.081823453 0.0083996058
0.016487528 -0.082437642 0.0075290501
0.017580679 -0.082043171 0.007083565
0.018919094 -0.08277104 0.0061461329
0.019890863 -0.081903554 0.0059887469
0.02087494 -0.081180319 0.0051061809
-0.030261029 -0.080308117 0.0054768622
-0.029531177 -0.081506051 0.0057737827
-0.027771441 -0.079842895 0.0062192082
-0.027116712 -0.08135014 0.0065574646
-0.025614038 -0.080334939 0.0068382025
-0.024552505 -0.080672517 0.0069365203
-0.023253895 -0.080225937 0.0076622963
-0.022220835 -0.080696717 0.0086126029
-0.020760654 -0.079582505 0.0092407465
-0.019745762 -0.080144562 0.0095640123
-0.018332383 -0.079058401 0.0099849403
-0.017463567 -0.080332406 0.010747105
-0.016082965 -0.079266042 0.011333108
-0.015104536 -0.080170229 0.012120485
-0.013703736 -0.078796484 0.012820452
-0.012732511 -0.079867572 0.013494045
-0.011553271 -0.079717569 0.013533801
-0.010349856 -0.079348892 0.014024615
-0.0091857649 -0.079227224 0.014588803
-0.008010678 -0.078962401 0.014418423
-0.0069194767 -0.079573981 0.014972448
-0.0057694679 -0.079618655 0.015309393
-0.004576297 -0.078941122 0.015439779
-0.003459299 -0.079563878 0.015478045
-0.0022972345 -0.07925459 0.015639216
-0.0011541015 -0.079632998 0.01579088
0 -0.079045758 0.016580105
0.0011534932 -0.079591028 0.016662359
0.0022663404 -0.07818874 0.016422838
0.0034561974 -0.079492539 0.016180307
0.0045777564 -0.078966297 0.015701711
0.0057281163 -0.079048008 0.014900595
0.0068607349 -0.078898452 0.014594376
0.0080489861 -0.079340011 0.014127433
0.0092227338 -0.079546079 0.013281077
0.010410048 -0.079810373 0.012746245
0.01161954 -0.080174826 0.011318594
0.012774641 -0.080131836 0.010454148
0.013963426 -0.080289699 0.0096766949
0.015180394 -0.080572858 0.0089544356
0.016348446 -0.080574483 0.0080357492
0.017455362 -0.080294669 0.0071895421
0.018480171 -0.079695731 0.0065704584
0.019799475 -0.080362573 0.0058978498
0.021167468 -0.081141964 0.0053385794
-0.027855037 -0.078922607 0.0056118369
-0.027101949 -0.0801275 0.0063412488
-0.025645286 -0.079267249 0.007106781
-0.02443566 -0.079124995 0.0071796477
-0.023618868 -0.080304153 0.0075950325
-0.022194749 -0.079433836 0.0085179806
-0.020862766 -0.078814894 0.0091645122
-0.019776117 -0.079104468 0.0097948015
-0.018467881 -0.078488499 0.010342032
-0.017447511 -0.079095386 0.010950327
-0.016315596 -0.079247184 0.011733472
-0.014872481 -0.077794515 0.012501717
-0.013866673 -0.078577816 0.013219684
-0.012759514 -0.078876995 0.013874352
-0.011394177 -0.077480398 0.013910353
-0.010302979 -0.077844739 0.014337361
-0.0091650123 -0.077902608 0.01493746
-0.0080338093 -0.078042716 0.015191138
-0.0069363937 -0.078612462 0.01525116
-0.0057534608 -0.078247063 0.015825778
-0.0045464528 -0.077289701 0.015956163
-0.0034420297 -0.078019336 0.016230643
-0.0022791508 -0.07749112 0.016216308
-0.0011438438 -0.077781372 0.016350567
0 -0.07857991 0.017344594
0.0011396467 -0.077495977 0.017270952
0.0022809755 -0.07755316 0.017038554
0.0034860063 -0.079016142 0.016996682
0.0045520486 -0.07738483 0.016667545
0.0057367347 -0.078019589 0.015998721
0.0068936986 -0.078128584 0.015332818
0.0079699503 -0.07742238 0.014944851
0.0092628021 -0.078733824 0.014141232
0.010278899 -0.077662788 0.0128766
0.011531603 -0.078414902 0.011720181
0.012840443 -0.079377286 0.010430664
0.013860837 -0.078544736 0.0098816156
0.015341148 -0.080246001 0.0089312494
0.016408361 -0.079697758 0.0084021389
0.017463923 -0.079169787 0.0076064169
0.019105813 -0.081199698 0.0069179535
0.019692434 -0.078769736 0.0061993897
0.020798232 -0.078571096 0.0058295727
0.022194749 -0.079433836 0.0053836107
-0.02849379 -0.079545163 0.0051701069
-0.02708422 -0.078897513 0.0056599379
-0.025860814 -0.078757934 0.0070928335
-0.024642687 -0.078621909 0.0074874163
-0.023198782 -0.077715918 0.0079655945
-0.022220476 -0.078356415 0.009028554
-0.020988854 -0.078125179 0.0093950033
-0.019689595 -0.077600174 0.010091066
-0.018732669 -0.078443058 0.010647148
-0.017528916 -0.078295827 0.011305571
-0.016271569 -0.077871077 0.011944175
-0.01507422 -0.077690214 0.012824476
-0.013917935 -0.077708475 0.013381541
-0.012571042 -0.076569073 0.01419875
-0.01150134 -0.077058978 0.014156014
-0.010484288 -0.078049697 0.014828295
-0.0091325184 -0.076484844 0.01549837
-0.0079951584 -0.076525092 0.015562385
-0.0068886732 -0.076923519 0.016008824
-0.0057222033 -0.076677524 0.016106874
-0.0046168249 -0.077331811 0.016208589
-0.0034548461 -0.077158228 0.016746521
-0.0022806355 -0.076401293 0.016921163
-0.0011462296 -0.076797381 0.017434061
0 -0.077433489 0.018146217
0.0011347922 -0.076031081 0.018191844
0.0023037533 -0.077175736 0.017968208
0.003435683 -0.076730251 0.017906547
0.0046109846 -0.077233993 0.017664582
0.0057167285 -0.076604165 0.01677382
0.0069200615 -0.077274024 0.016373098
0.0080581764 -0.077128254 0.01577729
0.0091923708 -0.076986104 0.014682174
0.010388494 -0.077336565 0.013823807
0.011455727 -0.07675337 0.012562335
0.012643958 -0.077013202 0.01100868
0.014076284 -0.078592584 0.0096755922
0.015237057 -0.078529447 0.0094982386
0.016412869 -0.078547299 0.0086782873
0.017263548 -0.077110514 0.0076521039
0.018639298 -0.078052059 0.006991297
0.020050218 -0.079021446 0.0061268806
0.021054491 -0.078369491 0.0054633617
0.022651145 -0.079875089 0.0051148236
-0.028397888 -0.078094192 0.0051519871
-0.027043963 -0.077604413 0.0056688488
-0.025939917 -0.07781975 0.0062569678
-0.024556139 -0.077176437 0.0077054501
-0.023518613 -0.077611424 0.0082058907
-0.022037053 -0.076549768 0.0087359548
-0.021254901 -0.077934638 0.0097035468
-0.019737277 -0.076627076 0.010543048
-0.018525634 -0.076418236 0.011228681
-0.017366719 -0.076413564 0.01209572
-0.016143141 -0.076103382 0.01261276
-0.014932815 -0.07581275 0.013495803
-0.013700547 -0.075353004 0.013917714
-0.012574453 -0.075446717 0.014805585
-0.011598737 -0.076551661 0.014751762
-0.010224864 -0.074982338 0.015243083
-0.009193399 -0.075845547 0.015965164
-0.0080126589 -0.075547934 0.016031563
-0.0068941894 -0.075836085 0.016436577
-0.0057824678 -0.076328576 0.016719401
-0.0045842435 -0.075640023 0.016748399
-0.0034373447 -0.075621583 0.017772019
-0.0022895301 -0.075554498 0.017807931
-0.0011420376 -0.075374484 0.018135309
0 -0.075519294 0.018378466
0.0011423418 -0.075394556 0.018426865
0.0022748052 -0.075068571 0.018423378
0.0034495746 -0.075890638 0.018369436
0.004591058 -0.075752459 0.018135309
0.0056869457 -0.075067684 0.017530769
0.0069449302 -0.07639423 0.016748399
0.0080433218 -0.075837031 0.016387343
0.0092693213 -0.076471902 0.015332848
0.010444406 -0.076592311 0.01422745
0.011601171 -0.076567724 0.012811989
0.012859475 -0.077156849 0.011388481
0.014064736 -0.077356048 0.010416806
0.015062473 -0.076471016 0.0097115338
0.016400248 -0.077315457 0.0087492466
0.017660405 -0.077705778 0.0075721443
0.018435165 -0.076045059 0.0070367455
0.019655632 -0.076310106 0.0061891079
-0.029742278 -0.077329926 0.0053595901
-0.028182231 -0.076326877 0.0052847266
-0.027146058 -0.076717123 0.0060071647
-0.025550993 -0.07549157 0.0064099133
-0.024528122 -0.075920373 0.0076819956
-0.023498023 -0.076368578 0.0087040365
-0.022398589 -0.076626755 0.009362936
-0.020975934 -0.075746432 0.010197043
-0.020065999 -0.076722935 0.011012733
-0.018359281 -0.074584581 0.011769801
-0.017426029 -0.075512789 0.012687057
-0.016384115 -0.076069109 0.013057858
-0.014912251 -0.074561261 0.01418525
-0.013942875 -0.075523905 0.014667869
-0.012756455 -0.075379051 0.015282333
-0.011428406 -0.074284635 0.01519531
-0.010330525 -0.074609347 0.015458316
-0.009257162 -0.075214446 0.016194761
-0.0079726158 -0.074031428 0.016555369
-0.006913173 -0.074892707 0.016778439
-0.0057636094 -0.07492692 0.017123848
-0.004553814 -0.073999479 0.01725474
-0.0034437326 -0.074614212 0.0180417
-0.0022776006 -0.074022017 0.018230259
-0.0011351596 -0.073785372 0.018435925
0 -0.074691452 0.018669575
0.0011458703 -0.074481569 0.018882781
0.0022818604 -0.074160464 0.018802732
0.0034364301 -0.074455984 0.018940538
0.0045474852 -0.073896632 0.018583685
0.005725577 -0.0744325 0.01828751
0.0067999922 -0.07366658 0.017333865
0.0080237268 -0.074506037 0.017155379
0.0091403406 -0.074265264 0.01613909
0.010315193 -0.074498616 0.014722317
0.011596317 -0.075376064 0.012703389
0.012811996 -0.075707249 0.011273861
0.013968424 -0.075662293 0.010767728
0.01516291 -0.075814553 0.0092457533
0.016780052 -0.077907383 0.0085934103
0.017735271 -0.076852836 0.0076913834
0.018658945 -0.075801961 0.006847918
0.01996677 -0.076343529 0.0058505237
-0.029429389 -0.075339235 0.0054863691
-0.028367328 -0.075646207 0.0060946047
-0.027371012 -0.076162815 0.0064206421
-0.025719335 -0.074819885 0.0073412061
-0.024771823 -0.075495079 0.007994324
-0.023772724 -0.076072715 0.0090551376
-0.022025416 -0.074190877 0.010078311
-0.021094048 -0.075001061 0.011264741
-0.019636931 -0.073927268 0.012113392
-0.018708494 -0.074833974 0.013035953
-0.017228879 -0.073509879 0.013740808
-0.016123466 -0.073707275 0.013941735
-0.015123307 -0.074453205 0.015165597
-0.013749342 -0.073329821 0.01524049
-0.012671392 -0.073724464 0.015615165
-0.01146483 -0.073374912 0.015706956
-0.010373175 -0.073764801 0.015951008
-0.0091500105 -0.073200084 0.01617983
-0.0082413582 -0.075349562 0.016558647
-0.006817827 -0.072723486 0.016887873
-0.0057681403 -0.073832199 0.017131478
-0.0045864009 -0.073382415 0.017311901
-0.003434398 -0.073267154 0.017791629
-0.0023187278 -0.074199289 0.018207699
-0.0011432453 -0.073167697 0.018355936
0 -0.073066644 0.018635303
0.0011356371 -0.072680771 0.018779814
0.0022795305 -0.072944976 0.01896897
0.0033860109 -0.072234899 0.019028544
0.0046031992 -0.073651187 0.018806309
0.0057307105 -0.073353097 0.017968893
0.0068083326 -0.072622217 0.017765343
0.0080385832 -0.073495619 0.017010719
0.0092561403 -0.074049123 0.015551925
0.010450395 -0.074313924 0.013776869
0.011703352 -0.074901447 0.012806475
0.012908316 -0.075102933 0.011532962
0.014069111 -0.075035259 0.010686487
0.015268822 -0.075169586 0.0086488426
0.016381504 -0.074886873 0.0080524087
0.017539991 -0.074837297 0.0074168444
0.01898485 -0.075939402 0.0062273443
-0.029817965 -0.075141273 0.0053514242
-0.028874608 -0.075795844 0.0059082806
-0.027412748 -0.075087093 0.0064149201
-0.026064085 -0.074638061 0.0069872141
-0.024864802 -0.074594408 0.0077928901
-0.023593798 -0.074320465 0.0086050034
-0.022327865 -0.074034497 0.010120183
-0.021240527 -0.074341848 0.011233777
-0.019812467 -0.07342267 0.01258716
-0.018643102 -0.07340721 0.013973981
-0.017451305 -0.073295482 0.014271915
-0.0163115 -0.073401749 0.014155835
-0.014923824 -0.072323143 0.015220404
-0.013788591 -0.072390102 0.015583575
-0.012714748 -0.072820827 0.016016275
-0.01147381 -0.072285004 0.016075075
-0.010365929 -0.072561502 0.01619342
-0.0093251737 -0.073435746 0.016402036
-0.0080414629 -0.072373167 0.016786009
-0.0070215156 -0.073725916 0.01717782
-0.0057689846 -0.072689205 0.017213345
-0.0045916988 -0.072319254 0.01723516
-0.0034849383 -0.0731837 0.017683417
-0.0022810819 -0.071854077 0.018086046
-0.0011505958 -0.072487541 0.018294424
0 -0.071797438 0.018762052
0.0011485262 -0.072357148 0.018825531
0.0022825426 -0.071900092 0.019160509
0.0034727026 -0.07292676 0.019193202
0.0045627235 -0.071862891 0.019016325
0.0057108533 -0.071956754 0.017893255
0.0069353268 -0.072820932 0.018094003
0.0080427416 -0.072384678 0.016884863
0.0093719168 -0.073803842 0.015176326
0.01044809 -0.073136628 0.014135689
0.011642382 -0.073347002 0.012382597
0.012821179 -0.073430389 0.01209259
0.01433403 -0.075253658 0.010090679
0.015827099 -0.076700553 0.0089912713
0.016416263 -0.073873185 0.0079356432
0.017739652 -0.074506536 0.0066649616
0.018807577 -0.07405483 0.0058189929
0.020400783 -0.075602897 0.0053999126
-0.029472731 -0.073092371 0.005268544
-0.028417729 -0.073412463 0.0055911243
-0.026893718 -0.072496109 0.0067859888
-0.026081102 -0.073501289 0.0070982575
-0.024767412 -0.073122837 0.007612884
-0.023587368 -0.07312084 0.0086743236
-0.022168063 -0.072337888 0.010021448
-0.020844994 -0.07179942 0.010579377
-0.019717 -0.071909063 0.012736589
-0.018533776 -0.071818382 0.014041424
-0.017316855 -0.071576335 0.014472991
-0.016287377 -0.072129816 0.01467365
-0.015167191 -0.072335832 0.015675694
-0.013860629 -0.071613252 0.015993685
-0.012554519 -0.07076183 0.016446918
-0.01148333 -0.071196645 0.016446918
-0.01046818 -0.072114125 0.016336381
-0.0092188604 -0.071446165 0.017013699
-0.0080894642 -0.071649536 0.016588509
-0.0069023292 -0.071324065 0.016610742
-0.0056827362 -0.07046593 0.017008543
-0.0045828451 -0.071034096 0.017172396
-0.0034514552 -0.07133007 0.017499626
-0.002288464 -0.070942387 0.017871678
-0.0011362061 -0.070444778 0.017973393
0 -0.07135094 0.018743783
0.0011430859 -0.070871323 0.019110113
0.002288464 -0.070942387 0.019153148
0.003398305 -0.070231639 0.019146115
0.0045239124 -0.070120648 0.018241376
0.0056888238 -0.070541419 0.018037707
0.006901233 -0.07131274 0.017558277
0.0079739857 -0.070626728 0.017076582
0.0091010127 -0.070532851 0.015567333
0.010418328 -0.071770713 0.013989329
0.011642795 -0.07218533 0.012686402
0.012956868 -0.073029615 0.011908025
0.014194366 -0.073337555 0.0097530782
0.015130801 -0.072162285 0.0091859996
0.016594894 -0.073491678 0.0080812871
0.017702892 -0.073171951 0.0065685213
0.018874453 -0.073138505 0.0062192082
0.020065488 -0.07318002 0.0055292547
0.021240216 -0.073160745 0.0050071478
-0.030025145 -0.07326135 0.0052223206
-0.028479874 -0.072386347 0.0054633915
-0.027091661 -0.071851797 0.0064653158
-0.025835792 -0.071635604 0.0070899427
-0.024696656 -0.071737908 0.007489711
-0.023476187 -0.071602374 0.0086639822
-0.022364018 -0.071800269 0.0099629164
-0.021071149 -0.071407788 0.011000782
-0.0199451 -0.071567714 0.013256937
-0.01840678 -0.070175849 0.014579266
-0.017320087 -0.070435017 0.014869392
-0.016037375 -0.069877133 0.015156478
-0.015026018 -0.070506699 0.016401798
-0.013823776 -0.070270859 0.01640439
-0.012817996 -0.071081616 0.016763121
-0.011381384 -0.06942644 0.016855836
-0.010366031 -0.070258655 0.016921192
-0.0092498036 -0.070529759 0.017451853
-0.0080896951 -0.070495918 0.017285854
-0.0069123865 -0.070275933 0.017190844
-0.0058527631 -0.071403712 0.017219067
-0.0045617823 -0.069567181 0.017395109
-0.0034312757 -0.069769271 0.017696738
-0.0022804895 -0.069554925 0.018216103
-0.0011579748 -0.070636459 0.018083304
0 -0.068998635 0.018739045
0.0011491455 -0.070097879 0.019239098
0.002277323 -0.069458351 0.019181609
0.0034208635 -0.069557562 0.019181609
0.0046114675 -0.070324883 0.018851042
0.0057054167 -0.069606081 0.018343627
0.0067808749 -0.068938896 0.018032491
0.0081472285 -0.070997275 0.016528904
0.0091407076 -0.069697894 0.01512295
0.010350143 -0.070150964 0.013995558
0.01151713 -0.070254497 0.012717605
0.013019532 -0.072199225 0.011029631
0.013989571 -0.071113653 0.0098223984
0.015441385 -0.072455734 0.0086208582
0.016568149 -0.072189793 0.0072609484
0.017600298 -0.071574546 0.0064959824
0.018948041 -0.072239406 0.005798161
0.02019435 -0.072462074 0.0053120255
-0.028349273 -0.070873186 0.0057281852
-0.02769362 -0.072244227 0.006436348
-0.025808316 -0.070386313 0.007474333
-0.024498018 -0.069994338 0.0079109669
-0.023547303 -0.070641905 0.0091709793
-0.022230487 -0.070201539 0.010138899
-0.021108879 -0.070362933 0.011410922
-0.019755252 -0.069724418 0.013867021
-0.018452942 -0.069198534 0.015046716
-0.017333252 -0.069333009 0.015516698
-0.016053056 -0.06879881 0.015819877
-0.014984416 -0.069158845 0.016944349
-0.013846724 -0.069233619 0.016970754
-0.012742624 -0.069505222 0.017206043
-0.011583745 -0.069502465 0.017326087
-0.010379409 -0.06919606 0.017470121
-0.009236373 -0.069272794 0.017633915
-0.0080719749 -0.069188349 0.017537653
-0.0068814843 -0.068814844 0.017504692
-0.0058069266 -0.06968312 0.017404735
-0.0046198517 -0.069297776 0.017648816
-0.0033812909 -0.067625821 0.017571688
-0.0022815117 -0.068445347 0.017834663
-0.0011388178 -0.068329066 0.018389285
0 -0.067404814 0.018619269
0.0011343112 -0.06805867 0.019213706
0.0022731076 -0.068193227 0.019217163
0.0034823203 -0.069646403 0.018973082
0.0045443401 -0.068165101 0.019099981
0.0056641283 -0.067969546 0.018827885
0.0068752733 -0.068752728 0.017909408
0.007915548 -0.06784755 0.016252249
0.0091550276 -0.068662703 0.01494661
0.010136665 -0.067577764 0.013425857
0.011522254 -0.069133528 0.012189984
0.012764721 -0.06962575 0.010406762
0.014157903 -0.070789516 0.0097249746
0.015318335 -0.070700012 0.0084337592
0.016428819 -0.070409223 0.0069375038
0.017891005 -0.071564019 0.0064812601
0.019067295 -0.07150235 0.0059243441
0.020075906 -0.070856139 0.0054025054
0.021511871 -0.071706235 0.0050400496
-0.029956616 -0.070697613 0.0054066181
-0.028408157 -0.069836721 0.0054637492
-0.027310977 -0.070058592 0.00639382
-0.026034877 -0.069820806 0.0071794093
-0.025050221 -0.07037919 0.008027494
-0.02346986 -0.069236085 0.0089450479
-0.022018181 -0.06837225 0.010345697
-0.020778494 -0.068107285 0.011858732
-0.019723514 -0.068452194 0.014219642
-0.018538922 -0.068362273 0.015527189
-0.017321661 -0.068131872 0.016248733
-0.016082276 -0.067775302 0.016693026
-0.015001272 -0.068082698 0.017595887
-0.013728595 -0.067498922 0.017429799
-0.012755557 -0.068416171 0.017674863
-0.011316636 -0.066768147 0.017780513
-0.010542339 -0.069110885 0.017780513
-0.0091999834 -0.067849882 0.017920077
-0.0079412339 -0.066933252 0.017743945
-0.0070131337 -0.068962485 0.017613977
-0.0059139072 -0.069784105 0.017870605
-0.0047176164 -0.069584839 0.017508328
-0.0035646004 -0.070103809 0.017351478
-0.0023642562 -0.069745556 0.017588168
-0.0011706885 -0.069070622 0.018192053
0 -0.068492286 0.018562526
0.0011750129 -0.06932576 0.018787295
0.0023301486 -0.068739384 0.018910766
0.0035561954 -0.069938511 0.018820465
0.004687408 -0.069139265 0.019060701
0.005857877 -0.069122948 0.018583238
0.0070306733 -0.069134951 0.017448664
0.0081130257 -0.06838122 0.01633516
0.0093816938 -0.069189996 0.015851706
0.010686468 -0.070055738 0.013677895
0.011814089 -0.069703132 0.011684895
0.012929685 -0.069350131 0.010706216
0.014218067 -0.069905497 0.0097922683
0.015348685 -0.069659412 0.0081045926
0.016449563 -0.06932316 0.0072273314
0.017863961 -0.070264913 0.0067521036
0.018753145 -0.069152221 0.0060636997
0.020168344 -0.069996014 0.0059090555
0.022532571 -0.069969565 0.0052274764
-0.029718399 -0.068946682 0.005168587
-0.028671183 -0.069288693 0.005575031
-0.027010594 -0.06811367 0.0066283941
-0.026048576 -0.068673521 0.0074544549
-0.024563847 -0.067843005 0.008672595
-0.023638042 -0.068550318 0.0099694729
-0.022352505 -0.068233967 0.010837942
-0.02085318 -0.067193583 0.012540191
-0.019693712 -0.067190312 0.014766008
-0.018395957 -0.066685341 0.015820563
-0.017566534 -0.067923933 0.016843528
-0.016011685 -0.066334121 0.017246723
-0.0148827 -0.066399738 0.018144071
-0.013907723 -0.067220658 0.018193364
-0.012576182 -0.066310778 0.018097043
-0.011482356 -0.066597663 0.017987043
-0.010407081 -0.067067854 0.01793775
-0.009180096 -0.066555694 0.018154711
-0.0081698122 -0.067692727 0.018142372
-0.0071045728 -0.068677537 0.017560422
-0.0058844392 -0.068259493 0.017527163
-0.0046224087 -0.067024924 0.017463505
-0.0034807699 -0.067294888 0.017317384
-0.0023339503 -0.067684561 0.017349929
-0.001142316 -0.066254333 0.0178186
0 -0.066674963 0.01842767
0.0011568135 -0.067095183 0.019165695
0.0023069049 -0.066900246 0.019060701
0.0034381922 -0.066471718 0.018755853
0.004628743 -0.067116775 0.018624991
0.0058737802 -0.06813585 0.018572837
0.0069620498 -0.067299813 0.017448664
0.0080777239 -0.066929713 0.016263068
0.0092434334 -0.067014895 0.015676081
0.010302944 -0.066396751 0.013912857
0.011633985 -0.067477114 0.011671484
0.01278382 -0.067405596 0.010610878
0.014251124 -0.068880431 0.008846879
0.015135968 -0.067529701 0.0079847872
0.016910834 -0.070059173 0.0069684088
0.017701669 -0.06844645 0.0064945817
0.018937415 -0.06864813 0.005826056
0.0201717 -0.068821095 0.0056094825
0.02126722 -0.068527706 0.00500229
-0.028560463 -0.067831099 0.0056713521
-0.027703175 -0.068655699 0.0061727464
-0.026001899 -0.067368552 0.0072007775
-0.024777321 -0.067252725 0.0085343719
-0.023741618 -0.06766361 0.0099105835
-0.022223135 -0.066669412 0.010891795
-0.020833544 -0.065972887 0.012417585
-0.02003628 -0.06718047 0.014651537
-0.018730078 -0.066725902 0.016075194
-0.01716209 -0.065215945 0.017139733
-0.016287895 -0.066314995 0.017234474
-0.015139993 -0.066383049 0.018064141
-0.013803287 -0.065565616 0.01793775
-0.012705498 -0.065837584 0.017989904
-0.011483001 -0.065453105 0.017787993
-0.010373135 -0.065696523 0.01758787
-0.0093165571 -0.066380471 0.017959267
-0.0082747396 -0.067380026 0.017573625
-0.0069993581 -0.066493906 0.017192185
-0.0058351303 -0.06652049 0.017123759
-0.0046207197 -0.065845259 0.016956568
-0.0034491674 -0.065534182 0.016989231
-0.0023275039 -0.06633386 0.017107636
-0.001154503 -0.065806672 0.017494828
0 -0.065872848 0.017810225
0.0011663825 -0.066483803 0.018149793
0.0022938761 -0.06537547 0.018469721
0.0034531879 -0.065610573 0.01803416
0.0046860231 -0.066775829 0.018562526
0.0058497502 -0.066687152 0.018807054
0.0070786681 -0.067247346 0.017731339
0.0080419369 -0.065484338 0.017062455
0.00925906 -0.065970801 0.015890479
0.010397802 -0.065852746 0.014156073
0.011672405 -0.066532701 0.011469096
0.012897752 -0.066833809 0.010576516
0.014099959 -0.066974804 0.0087138414
0.015653709 -0.068635494 0.0083485246
0.016547866 -0.067373455 0.007564187
0.017824138 -0.067731723 0.0069199502
0.018865459 -0.067208193 0.0052968562
0.019913148 -0.066767618 0.0058180392
-0.028658267 -0.066869289 0.0050610006
-0.027275123 -0.066408999 0.006305337
-0.026151789 -0.066568188 0.007145524
-0.024823306 -0.066195481 0.008503288
-0.023604101 -0.066091478 0.010282785
-0.022338739 -0.06584049 0.011451095
-0.020732699 -0.064501733 0.012557596
-0.019589225 -0.06452921 0.014285296
-0.018506024 -0.064771079 0.015824348
-0.017724596 -0.066171825 0.017200708
-0.016236715 -0.06494686 0.017457068
-0.014987973 -0.064563572 0.018272609
-0.013934055 -0.06502559 0.018220693
-0.012771122 -0.06501662 0.01837185
-0.011535344 -0.064597927 0.01747334
-0.010471234 -0.065154351 0.01756385
-0.0092234649 -0.06456425 0.017448336
-0.0082589611 -0.066071689 0.017446727
-0.0071448246 -0.066685028 0.016896069
-0.0059176716 -0.066277921 0.017020941
-0.0046947915 -0.065727077 0.016848832
-0.0034975926 -0.065288395 0.016857445
-0.0022942342 -0.064238563 0.017004609
-0.0011620549 -0.065075077 0.018152267
0 -0.06495586 0.018443704
0.0011300074 -0.063280419 0.01907748
0.0022411067 -0.062750988 0.019545138
0.003441846 -0.064247794 0.019099087
0.0045239609 -0.063335456 0.019888639
0.0057723727 -0.064650573 0.019942194
0.006860815 -0.064034276 0.018979222
0.008117388 -0.064939104 0.018562943
0.0092868153 -0.065007709 0.01738739
0.010314996 -0.0641822 0.015108079
0.011755831 -0.065832652 0.012452483
0.012994213 -0.066152357 0.011256427
0.014227104 -0.066393152 0.0088967979
0.01518588 -0.065416098 0.0082588792
0.016726878 -0.06690751 0.0071899891
0.017646056 -0.065878607 0.0065197051
0.019101169 -0.066854089 0.0054880977
0.020095255 -0.066196136 0.0053550601
-0.029119397 -0.066731952 0.0058535635
-0.027070679 -0.064734228 0.0063276589
-0.026037859 -0.06509465 0.0072970092
-0.02483209 -0.065036431 0.0090118349
-0.023662366 -0.065071508 0.010315001
-0.021943083 -0.063519448 0.011985779
-0.021129146 -0.064561285 0.013352722
-0.019746356 -0.063885272 0.015095294
-0.018589638 -0.063901879 0.016032845
-0.017409377 -0.063834384 0.017154902
-0.01596462 -0.062718146 0.017671764
-0.015277604 -0.064636014 0.01809755
-0.013809694 -0.063294433 0.018073797
-0.012630983 -0.063154921 0.018068433
-0.011509048 -0.063299768 0.017369032
-0.010420162 -0.063678764 0.017283142
-0.009135168 -0.062804282 0.017004222
-0.0083190389 -0.065363877 0.017305285
-0.0071352809 -0.06540674 0.016796887
-0.0058530504 -0.064383559 0.016596198
-0.0046564941 -0.064026795 0.016269326
-0.0035182207 -0.064500712 0.016037583
-0.0023135887 -0.063623689 0.016224265
-0.0011647264 -0.06405995 0.017816871
0 -0.064807497 0.018278241
0.0011429125 -0.062860191 0.018741071
0.0023742772 -0.065292619 0.018990934
0.0034851353 -0.063894145 0.018551618
0.0045811851 -0.062991291 0.019161284
0.0057494733 -0.063244201 0.019773394
0.0069897892 -0.064073071 0.01938957
0.0081723351 -0.064211205 0.018517315
0.0092360526 -0.063497864 0.01736185
0.010560515 -0.064536482 0.014906049
0.011761231 -0.064686775 0.012693286
0.013088599 -0.065442994 0.011216521
0.014309606 -0.065585688 0.0093507171
0.015487406 -0.065523639 0.0083595514
0.016632156 -0.065340608 0.0069912672
0.017852353 -0.065458626 0.0065236986
0.019444939 -0.066841982 0.0055233836
0.020260714 -0.065549366 0.0054655671
-0.028519087 -0.064167947 0.0055881143
-0.027560068 -0.064706251 0.0064294636
-0.026591724 -0.065270595 0.0073174834
-0.025235608 -0.064891562 0.008924216
-0.023724146 -0.064055197 0.0099912882
-0.022540677 -0.064062975 0.012254924
-0.020941485 -0.06282445 0.013527006
-0.019670514 -0.062482812 0.01584518
-0.018689716 -0.063077793 0.016748339
-0.017295856 -0.062265083 0.017826676
-0.016209057 -0.062520653 0.018175364
-0.014894971 -0.061871417 0.018566906
-0.013862109 -0.062379487 0.017961144
-0.012949069 -0.06356816 0.017461419
-0.011383986 -0.061473526 0.017528027
-0.010276352 -0.061658114 0.017380446
-0.0092247026 -0.062266745 0.016700596
-0.008381634 -0.064658321 0.017380446
-0.0070957113 -0.0638614 0.016669631
-0.005796303 -0.062600076 0.016614586
-0.0046554534 -0.06284862 0.016614586
-0.0034527278 -0.0621491 0.01654771
-0.0023707137 -0.064009272 0.016708225
-0.0011532536 -0.062275697 0.017852396
0 -0.061802033 0.018632233
0.0011606881 -0.06267716 0.018994778
0.0023496295 -0.063439995 0.019317716
0.0034562012 -0.062211622 0.019425213
0.0046227919 -0.062407691 0.019803554
0.0058261608 -0.062922537 0.019851118
0.0069805505 -0.062824957 0.019298971
0.0081154965 -0.062605254 0.019082814
0.0093938345 -0.063408382 0.017789453
0.010328442 -0.061970647 0.015728533
0.011707468 -0.06322033 0.013152778
0.013215756 -0.064877346 0.011196256
0.014373029 -0.064678632 0.009834528
0.015377956 -0.063877665 0.0085048676
0.016696753 -0.064401761 0.0077979863
0.017861271 -0.064300574 0.0068710446
0.018956656 -0.063978717 0.0060346425
0.020185953 -0.064120084 0.0057968199
0.021657029 -0.064971089 0.0055457056
0.022678303 -0.064454123 0.005303055
-0.027532995 -0.063445598 0.0061010718
-0.026203047 -0.063125521 0.0068749189
-0.024692001 -0.062317904 0.0090945363
-0.02347902 -0.062219404 0.010745019
-0.022164358 -0.061826892 0.012817025
-0.020911468 -0.061572656 0.014129877
-0.019788101 -0.061692312 0.016526699
-0.018344432 -0.06076593 0.017428249
-0.017459003 -0.061688483 0.018156797
-0.016056087 -0.060783755 0.018606097
-0.014809121 -0.060375649 0.019343466
-0.01371123 -0.060557932 0.018501461
-0.012755153 -0.061456647 0.017959267
-0.011376416 -0.060295004 0.017961055
-0.010417047 -0.061344832 0.017995089
-0.0091177532 -0.060405117 0.017985165
-0.0082799708 -0.062691204 0.018107831
-0.0071719922 -0.0633526 0.017833918
-0.0058126356 -0.06161394 0.017888874
-0.0046746153 -0.061938651 0.017679423
-0.0034396725 -0.06076755 0.017608821
-0.0022787682 -0.060387358 0.017974824
-0.0011706587 -0.062044911 0.019427359
0 -0.061185922 0.01996243
0.001138115 -0.060320094 0.019781977
0.0022716988 -0.060200021 0.020120144
0.0034471685 -0.060899977 0.020316184
0.004581742 -0.060708079 0.020875067
0.0057376809 -0.060819421 0.021042883
0.0070250132 -0.062054284 0.020535737
0.0079007782 -0.059820175 0.019954056
0.0091981823 -0.06093796 0.018999815
0.010492171 -0.061787233 0.017076582
0.011629253 -0.061635036 0.014042437
0.013173981 -0.063474633 0.011954784
0.014276288 -0.0630536 0.0098241568
0.015552665 -0.063407019 0.0086877942
0.016718624 -0.063291937 0.0076670349
0.017892009 -0.06321843 0.0072241127
0.01913655 -0.063389823 0.0062806308
0.020245617 -0.063118689 0.0061109066
0.021248996 -0.062566489 0.0053388178
0.0226085 -0.063065819 0.0051362216
-0.027504349 -0.062183745 0.0052519739
-0.026270688 -0.062094353 0.0065446496
-0.024898427 -0.061653245 0.0087414384
-0.024228359 -0.062993735 0.011149526
-0.022702796 -0.062133968 0.013185292
-0.021007348 -0.060687896 0.014759183
-0.019827945 -0.060650188 0.017071038
-0.018491047 -0.060095903 0.017793447
-0.017650388 -0.061188016 0.018790036
-0.016132381 -0.05992027 0.019368023
-0.015290174 -0.061160695 0.02011916
-0.01398571 -0.060604744 0.018770754
-0.012815123 -0.060580585 0.018410832
-0.011470526 -0.059646733 0.018552274
-0.010214406 -0.05901657 0.018552274
-0.0091564888 -0.059517179 0.018282473
-0.0082204696 -0.061066348 0.018749923
-0.0071469564 -0.06194029 0.018247515
-0.0057923682 -0.06024063 0.017811358
-0.0045942888 -0.059725754 0.017506033
-0.0034819939 -0.060354561 0.017500013
-0.0023088106 -0.060029075 0.018274456
-0.0011706891 -0.060875837 0.019779086
0 -0.060483031 0.02072078
0.0011447254 -0.059525717 0.020590246
0.0022493259 -0.058482472 0.020590246
0.0034649898 -0.060059827 0.020899385
0.0045170099 -0.058721133 0.021078676
0.0057314248 -0.05960682 0.021512747
0.006867236 -0.059516042 0.02150631
0.008092925 -0.060118873 0.020501822
0.009187201 -0.059716806 0.019341171
0.010348762 -0.05979285 0.017044693
0.011795278 -0.061335444 0.013867348
0.013140829 -0.062120281 0.011473894
0.014257661 -0.061783195 0.0092415214
0.015406585 -0.061626341 0.0084661543
0.01667729 -0.06194422 0.0077483356
0.017968316 -0.062290158 0.0071433187
0.01931051 -0.062759161 0.0059526265
0.020223387 -0.061859768 0.0059223473
0.021716435 -0.062736362 0.005127877
0.022986192 -0.062909573 0.0050010383
-0.027752649 -0.06153848 0.0050673783
-0.026330145 -0.061038062 0.0064207315
-0.025463916 -0.06184094 0.0089170337
-0.024213048 -0.061743271 0.011226982
-0.022618821 -0.060713679 0.013797283
-0.020946378 -0.059348073 0.015388846
-0.020017782 -0.060053345 0.017653614
-0.018797379 -0.059916645 0.018540561
-0.017549327 -0.05966771 0.019717038
-0.016573591 -0.060375221 0.020145267
-0.015148717 -0.059429582 0.020706594
-0.014305474 -0.060798269 0.019918621
-0.013201423 -0.061206598 0.019268364
-0.011880822 -0.060592189 0.019497365
-0.010657177 -0.060390674 0.019497365
-0.0095788538 -0.06106519 0.019359976
-0.0082513494 -0.060116973 0.019388258
-0.0070278943 -0.059737101 0.018934458
-0.005683688 -0.05797362 0.018525839
-0.0044537033 -0.056784716 0.018525839
-0.003425377 -0.058231406 0.018606275
-0.0022752089 -0.058017828 0.01914382
-0.0011422476 -0.058254626 0.020251721
0 -0.057353318 0.021027684
0.0011139048 -0.056809139 0.020714611
0.002240954 -0.057144329 0.020715684
0.0033838693 -0.057525776 0.021746665
0.0044912482 -0.057263415 0.022437483
0.0056535187 -0.057665892 0.022478521
0.0068238475 -0.058002707 0.021992356
0.0079424884 -0.057866704 0.021172583
0.0090981564 -0.058000743 0.019819856
0.010327568 -0.058522888 0.017760366
0.0111222 -0.056723218 0.014140755
0.012990972 -0.06023087 0.010890335
0.014324483 -0.060879055 0.0094468594
0.01557717 -0.061110437 0.0085811913
0.016681045 -0.060766667 0.0077432692
0.018304912 -0.062236704 0.0068591535
0.01902443 -0.060640372 0.0058061182
0.020242434 -0.060727298 0.0056295097
-0.026555482 -0.060353369 0.0060643256
-0.025037341 -0.059612714 0.0081295967
-0.024040515 -0.060101289 0.01173076
-0.022049965 -0.058026221 0.014822543
-0.020997074 -0.058325205 0.017837793
-0.019813063 -0.058273714 0.018477172
-0.018626118 -0.058206622 0.019348919
-0.017323878 -0.057746258 0.020739466
-0.016467214 -0.058811475 0.021336704
-0.015238415 -0.058609284 0.021580607
-0.013975201 -0.058230005 0.021191746
-0.012993833 -0.05906288 0.020561516
-0.011849303 -0.059246514 0.021016449
-0.01054544 -0.058585774 0.02138114
-0.0093254661 -0.058284163 0.020628899
-0.0082126409 -0.058661718 0.020631075
-0.0069182795 -0.057652332 0.020119399
-0.0058931252 -0.058931254 0.019483149
-0.0046900073 -0.058625091 0.019125372
-0.0035024048 -0.05837341 0.019120693
-0.0023104686 -0.057761714 0.019513607
-0.0011676194 -0.058380965 0.020400435
0 -0.057180304 0.021308899
0.0011500639 -0.057503194 0.02146101
0.0023140041 -0.057850104 0.021308899
0.0034905185 -0.05817531 0.022033721
0.0046670889 -0.058338609 0.022377461
0.0057523265 -0.057523265 0.022752225
0.0068820752 -0.057350628 0.021833539
0.0080236429 -0.057311736 0.021238327
0.0092596458 -0.057872787 0.020065844
0.010713819 -0.059521221 0.01777488
0.011399584 -0.056997921 0.014321357
0.013216363 -0.060074378 0.010660052
0.014306412 -0.05961005 0.0095129311
0.015384146 -0.059169792 0.0088914335
0.016622435 -0.059365839 0.0079887211
0.017834639 -0.059448801 0.0064430833
0.018860005 -0.058937512 0.0057260692
0.020423906 -0.06007031 0.0055324733
-0.026391005 -0.058779966 0.0061999559
-0.025274049 -0.058972783 0.0081373751
-0.023679066 -0.058013715 0.01171875
-0.02196103 -0.056636337 0.016394079
-0.021111226 -0.057469446 0.018838286
-0.019617513 -0.056544598 0.019578874
-0.018884512 -0.057833821 0.02029413
-0.017272819 -0.05642454 0.022589684
-0.01624899 -0.056871463 0.023127913
-0.015163279 -0.057153899 0.023584694
-0.013768371 -0.056220848 0.022421658
-0.012644034 -0.056323424 0.022006482
-0.011499595 -0.056348015 0.02183041
-0.010275653 -0.055945221 0.021867841
-0.0093523487 -0.057283133 0.02129373
-0.0082272068 -0.057590447 0.020673364
-0.0070649781 -0.057697322 0.020522207
-0.0057578492 -0.056426924 0.020359486
-0.0046281097 -0.056694344 0.019955128
-0.0035814319 -0.058496721 0.019758791
-0.0023179208 -0.056789059 0.019793212
-0.0011561062 -0.056649204 0.020455062
0 -0.057426013 0.021477252
0.0011485472 -0.05627881 0.021516889
0.002304388 -0.056457505 0.021498173
0.0034848738 -0.056919605 0.021963984
0.0046632211 -0.057124455 0.02276209
0.0058885985 -0.057708263 0.022880256
0.0069585536 -0.05682819 0.022252917
0.0081094494 -0.056766149 0.020938754
0.0091972975 -0.056333445 0.020593077
0.01037932 -0.056509633 0.017624289
0.011594662 -0.056813847 0.013842106
0.013055602 -0.058156773 0.010783583
0.014255347 -0.05820933 0.0096956491
0.015681289 -0.059106398 0.0084632635
0.016752211 -0.058632743 0.0075609088
0.017996518 -0.058788624 0.0065481663
0.019178838 -0.058735192 0.0062158406
0.020212863 -0.058260601 0.0059885681
-0.026562477 -0.057954494 0.0057429671
-0.025412183 -0.058084987 0.0086152554
-0.023630396 -0.056712948 0.013740093
-0.021891613 -0.055305127 0.017442107
-0.020839382 -0.055571686 0.019775271
