ply
format ascii 1.0
comment PCL generated
element vertex 1252
property float x
property float y
property float z
element camera 0
property float view_px
property float view_py
property float view_pz
property float x_axisx
property float x_axisy
property float x_axisz
property float y_axisx
property float y_axisy
property float y_axisz
property float z_axisx
property float z_axisy
property float z_axisz
property float focal
property float scalex
property float scaley
property float centerx
property float centery
property int viewportx
property int viewporty
property float k1
property float k2
end_header
-0.0081124492 -0.092713706 0.007653296
-0.0068700882 -0.091601171 0.0076110661
-0.005732548 -0.091720767 0.0076110661
-0.0046218405 -0.092436805 0.0074305832
-0.003486295 -0.09296786 0.0073650181
-0.0022855236 -0.091420941 0.0074245036
-0.0011390713 -0.091125704 0.0073070228
0 -0.092494771 0.0073953569
0.0011516307 -0.092130452 0.0074107349
0.0022951097 -0.091804385 0.0072174072
0.0034846568 -0.092924178 0.0070582032
0.0046063089 -0.092126176 0.0068300962
0.0058026202 -0.092841923 0.0067464709
0.0069053955 -0.092071943 0.0066765845
0.0080177533 -0.091631465 0.0063763559
0.0091568977 -0.091568969 0.0060946643
0.010415611 -0.092583209 0.0055656433
0.011491551 -0.091932409 0.0053724349
0.012764643 -0.092833765 0.005310148
0.013704294 -0.091361962 0.0051959455
0.014831769 -0.091272429 0.005081743
-0.03013297 -0.091557868 0.0052038729
-0.028907394 -0.091347367 0.005354166
-0.027854158 -0.091686606 0.005376935
-0.026700227 -0.091709472 0.0054795146
-0.025404247 -0.091224343 0.0058656335
-0.024401635 -0.091796629 0.0062106252
-0.023044998 -0.091027744 0.0062067807
-0.022060089 -0.091723524 0.0064760447
-0.020616593 -0.090483941 0.0066444278
-0.01956095 -0.090900883 0.0070301294
-0.018298665 -0.090349659 0.0072543025
-0.017173927 -0.090449348 0.0076723397
-0.016055061 -0.090596408 0.0079062283
-0.015046719 -0.09143775 0.0080760419
-0.013853956 -0.091205209 0.0080983937
-0.012576243 -0.090320289 0.0087011755
-0.011517414 -0.090987571 0.0083559752
-0.010320414 -0.090590298 0.0081706643
-0.009304272 -0.091879688 0.008066535
-0.0080553917 -0.090910852 0.0080704093
-0.006929657 -0.091240481 0.008066535
-0.0056996639 -0.090054691 0.0080651939
-0.0045969971 -0.090790689 0.0080207586
-0.003433258 -0.090409122 0.007884711
-0.0022916656 -0.090520792 0.0079504251
-0.0011601656 -0.091653086 0.0078806877
0 -0.089889057 0.0075918436
0.0011592554 -0.091581173 0.0074137449
0.0023082939 -0.091177613 0.007381916
0.0034312552 -0.090356387 0.0073345304
0.0046511278 -0.091859773 0.0070103407
0.0057342532 -0.090601198 0.0068789721
0.0068568396 -0.090281717 0.0063922107
0.0079997489 -0.090282887 0.0063354075
0.0092222383 -0.091069609 0.006101042
0.010419795 -0.091462649 0.0057058632
0.011558669 -0.091313489 0.0054746866
0.012713042 -0.09130276 0.0054919124
0.013741127 -0.090462424 0.0053881705
0.015175249 -0.092218824 0.0050143898
-0.031070212 -0.089758389 0.0051841736
-0.03032597 -0.090977907 0.0054040253
-0.028788546 -0.089820266 0.0056843162
-0.027529206 -0.089469917 0.0055707395
-0.026635485 -0.090329036 0.0054717362
-0.025291611 -0.089670256 0.0060533285
-0.024269953 -0.090145543 0.0061224997
-0.023155969 -0.090308279 0.0060198903
-0.02203308 -0.090451591 0.0061063468
-0.020738296 -0.089865953 0.0065866411
-0.01952746 -0.089596577 0.0069842935
-0.018644625 -0.090892553 0.0074697435
-0.017031521 -0.088563912 0.0079452693
-0.016232144 -0.090436228 0.0081421137
-0.014850756 -0.089104541 0.0082423687
-0.013508496 -0.087805226 0.0082474947
-0.012776813 -0.090599217 0.0087460279
-0.011390902 -0.08884903 0.0085525513
-0.010208175 -0.088470846 0.0085581839
-0.0091239335 -0.088958353 0.0084412098
-0.0080505144 -0.089705728 0.0087008178
-0.0069283955 -0.090069145 0.0087536275
-0.005801477 -0.090503044 0.0087338686
-0.0045886245 -0.089478172 0.0082882047
-0.0034754134 -0.090360753 0.0083023012
-0.0022902694 -0.089320511 0.0082245767
-0.0011534009 -0.089965269 0.0086051524
0 -0.090519518 0.0083467364
0.0011580749 -0.090329848 0.0080365837
0.0022846849 -0.089102715 0.0081471205
0.0034468237 -0.089617416 0.0081343651
0.0046221302 -0.090131536 0.0075306594
0.0057104309 -0.089082718 0.0071466565
0.006947333 -0.090315327 0.0065861344
0.0080785546 -0.090018176 0.0063639879
0.0092205526 -0.089900382 0.0061743557
0.010410808 -0.090227008 0.0059728324
0.011475252 -0.089506969 0.0057596266
0.012588584 -0.089264505 0.0056794286
0.013906039 -0.090389259 0.0057226121
0.015077119 -0.090462707 0.005548507
0.016121732 -0.089821085 0.0054031909
0.017392753 -0.090442307 0.0052261353
0.018334078 -0.089378625 0.0051809251
-0.034842834 -0.089429945 0.0052963197
-0.033346828 -0.088541575 0.0054016113
-0.032404415 -0.08911214 0.0054016113
-0.031559914 -0.090004206 0.0056126118
-0.030230591 -0.08952906 0.0058147907
-0.028886108 -0.088969208 0.0059260726
-0.027945776 -0.089659363 0.0059697032
-0.026767129 -0.089611694 0.0060180426
-0.025548218 -0.089418761 0.0062758923
-0.024217004 -0.088795684 0.0064640641
-0.023323854 -0.089796841 0.0067989528
-0.021967895 -0.089027785 0.0069105029
-0.020745289 -0.088743739 0.0071640611
-0.019544363 -0.088524461 0.0073282421
-0.018320858 -0.088169128 0.0078832805
-0.017343093 -0.089027874 0.0078477561
-0.016272441 -0.089498423 0.0082759857
-0.014888916 -0.088188194 0.0085655153
-0.013797843 -0.088536158 0.0088286996
-0.012653595 -0.088575162 0.0095886886
-0.011423896 -0.087963998 0.0091802776
-0.010411588 -0.089076914 0.0091286302
-0.0092615448 -0.089142367 0.0092383325
-0.0080426103 -0.088468708 0.0094432235
-0.0069740806 -0.089500703 0.0093170702
-0.0057685226 -0.088835254 0.0095763505
-0.0045896904 -0.08835154 0.0094972551
-0.0034519958 -0.088601224 0.0095839202
-0.0023200668 -0.089322567 0.009195447
-0.0011528189 -0.088767052 0.0091572106
0 -0.088229686 0.0088125467
0.0011453507 -0.088192008 0.0086193085
0.0022755014 -0.087606803 0.0086498857
0.003458553 -0.088769525 0.0085604191
0.004584833 -0.088258035 0.0080396235
0.0057245074 -0.088157408 0.0073379576
0.0069427541 -0.089098677 0.0070029199
0.0079928916 -0.087921806 0.0067772567
0.0093178786 -0.089684583 0.0064653754
0.010355318 -0.088595495 0.006159693
0.011551969 -0.088950157 0.0057805479
0.012747731 -0.089234114 0.005656153
0.013985737 -0.089741819 0.0058342218
0.014996206 -0.088823684 0.0056105852
0.016208727 -0.089148 0.0050776899
0.017255722 -0.088579372 0.0050250292
0.019546425 -0.088533811 0.0051462948
0.020762758 -0.088818461 0.0051659346
-0.034169398 -0.089547388 0.0051041842
-0.032099586 -0.087127447 0.0051041842
-0.0316341 -0.089044139 0.0054796636
-0.03011765 -0.088036209 0.0055359602
-0.029053245 -0.088321865 0.0060394406
-0.028036462 -0.088782132 0.0060088038
-0.026654635 -0.088076182 0.0062426031
-0.025415238 -0.087798096 0.0064529777
-0.024486102 -0.088616371 0.006739527
-0.023103483 -0.087793238 0.0067957342
-0.021867972 -0.087471887 0.0068807602
-0.020732502 -0.087537229 0.0073447227
-0.019698342 -0.08806318 0.0079980791
-0.018496847 -0.087860025 0.0081570446
-0.017207731 -0.087185837 0.0087029636
-0.016022904 -0.086981483 0.0088040829
-0.014887547 -0.087034889 0.0094714463
-0.013792947 -0.087355331 0.009564966
-0.0126224 -0.087209307 0.0098583102
-0.011424659 -0.086827405 0.0095725656
-0.010422138 -0.088009171 0.0095419288
-0.0092174932 -0.087566189 0.0094714463
-0.0081179626 -0.088137873 0.0096170604
-0.0068663559 -0.086973839 0.0099783838
-0.0057242834 -0.08700911 0.010095179
-0.0046337233 -0.088040739 0.01018858
-0.0034808337 -0.088181116 0.010262698
-0.0022988506 -0.087356322 0.0099875927
-0.0011480999 -0.08725559 0.009745717
0 -0.086457379 0.0093927681
0.0011536264 -0.087675601 0.0094857812
0.0022955711 -0.087231703 0.0092699826
0.0034460363 -0.087299585 0.0090405643
0.0046359091 -0.088082276 0.0084795058
0.00579928 -0.088149056 0.0082621574
0.0068281 -0.086489268 0.008108139
0.0080733327 -0.087653324 0.0076824725
0.0091917496 -0.087321617 0.007286787
0.010293726 -0.086924799 0.0068904757
0.011585544 -0.088050134 0.0063977838
0.012723234 -0.087905988 0.0058699548
0.013888373 -0.087959692 0.0059760809
0.01496172 -0.087468512 0.0056931674
0.016107876 -0.087442748 0.0055827796
0.017474454 -0.088537239 0.0056288838
0.018366747 -0.087242045 0.005320847
0.019551871 -0.087408364 0.0052748919
0.0208013 -0.087827712 0.0054164827
0.022075435 -0.088301741 0.0052710772
0.023139875 -0.087931529 0.0052149594
-0.031096119 -0.086378105 0.005287081
-0.030083276 -0.086778678 0.0056977272
-0.029094476 -0.087283425 0.0059433579
-0.027716639 -0.086614497 0.0062491894
-0.026779043 -0.087322965 0.0062225461
-0.025446169 -0.086748302 0.006493777
-0.024413774 -0.087192051 0.0071361363
-0.023204414 -0.087016553 0.0074089766
-0.02213447 -0.087372907 0.0072336197
-0.020950051 -0.087291881 0.0076805055
-0.019605691 -0.086495697 0.0080863833
-0.018316399 -0.085858122 0.0084291697
-0.017117733 -0.085588664 0.0090923905
-0.01634514 -0.087563246 0.0091926455
-0.014959487 -0.086304732 0.0095397234
-0.013618933 -0.085118331 0.010047585
-0.012781473 -0.087146401 0.010169417
-0.011409561 -0.085571706 0.0098542869
-0.01031676 -0.085973002 0.009992063
-0.0092214653 -0.08645124 0.010086358
-0.0080598043 -0.086355045 0.010443747
-0.0068587568 -0.085734457 0.010693163
-0.0057583428 -0.086375147 0.010874063
-0.0046318281 -0.086846776 0.01077053
-0.003444426 -0.086110651 0.010872096
-0.0023073745 -0.08652655 0.010827273
-0.0011452548 -0.085894108 0.010735154
0 -0.086217828 0.010751247
0.0011563101 -0.086723253 0.010695666
0.0023123554 -0.086713329 0.010509402
0.0034293013 -0.085732535 0.010060579
0.0046007289 -0.086263664 0.0095803142
0.0057118777 -0.085678168 0.0088888705
0.0069724564 -0.0871557 0.0086269677
0.0081958491 -0.08781267 0.0081875622
0.0092792818 -0.086993262 0.007599473
0.010372509 -0.086437576 0.0067862272
0.011574732 -0.086810492 0.0066158473
0.012702657 -0.086609028 0.0064459741
0.014241155 -0.089007221 0.0064919293
0.015075507 -0.086974077 0.0061598122
0.016307743 -0.087362915 0.0059021413
0.017338989 -0.086694941 0.0059673488
0.018487317 -0.086659305 0.0057310164
0.019832669 -0.08749707 0.0056607723
0.020952236 -0.087300986 0.0056607723
0.021888915 -0.086403608 0.0056279302
0.023021195 -0.086329482 0.0055414438
-0.030512156 -0.086842291 0.0051797032
-0.029329592 -0.086815588 0.005471617
-0.027718183 -0.085464396 0.0058611035
-0.026961938 -0.086747102 0.0059626698
-0.02560108 -0.086112723 0.0062354803
-0.024327245 -0.085724577 0.0067777932
-0.023391411 -0.086548224 0.0068986416
-0.021907426 -0.085323662 0.0073417127
-0.020836536 -0.085661314 0.0078918636
-0.019721329 -0.085845783 0.0083361566
-0.018435903 -0.085266054 0.0089542866
-0.017507533 -0.08637049 0.0093310773
-0.016051957 -0.084846057 0.009893328
-0.015107148 -0.085994542 0.010319769
-0.013672858 -0.084315956 0.010737211
-0.012604496 -0.084793881 0.010824949
-0.011432654 -0.084601641 0.010935336
-0.010379649 -0.085343778 0.010965645
-0.0091558909 -0.084691986 0.010978729
-0.0080538755 -0.085140966 0.011219233
-0.0068908427 -0.084987059 0.011135638
-0.0057222131 -0.084688753 0.011259675
-0.0046386514 -0.08581505 0.011092842
-0.0034559169 -0.085245945 0.011274904
-0.0022980259 -0.085026965 0.011228859
-0.0011485377 -0.08499179 0.01124981
0 -0.085306771 0.01124981
0.0011400318 -0.084362358 0.011254787
0.0023156451 -0.085678875 0.011095434
0.0034843499 -0.085947298 0.010403097
0.0046077888 -0.085244089 0.0098818839
0.005762917 -0.08529117 0.0095795393
0.006964107 -0.085890651 0.0088263452
0.0079939179 -0.08450713 0.0084792376
0.0093143117 -0.086157382 0.0078088045
0.010299834 -0.084687531 0.0075984001
0.011524974 -0.085284814 0.0071452558
0.01267531 -0.085270271 0.006917268
0.013849946 -0.085407995 0.0067904294
0.015019522 -0.08549574 0.0062799156
0.016262775 -0.085960381 0.0061414242
0.017513907 -0.086401939 0.0060135722
0.018418418 -0.085185185 0.0057132542
0.019681083 -0.085670598 0.0055593252
0.021079075 -0.086658418 0.005398035
0.021942019 -0.08545839 0.0050276816
0.023287039 -0.086162046 0.005017072
-0.028917169 -0.084438138 0.0051120222
-0.028038394 -0.085283443 0.005479753
-0.026915893 -0.0854287 0.0058586895
-0.025645101 -0.085095108 0.0060257316
-0.0243119 -0.0845128 0.0063823462
-0.023142565 -0.084470361 0.0071143508
-0.022069978 -0.084795177 0.0074490607
-0.020841952 -0.084525697 0.0079723001
-0.019749161 -0.08480522 0.0082600117
-0.01838824 -0.083896339 0.0091125071
-0.017191442 -0.083665021 0.0093412995
-0.01615647 -0.084244452 0.0098140538
-0.015028169 -0.084388956 0.010494024
-0.013621032 -0.082861274 0.011115789
-0.012670593 -0.084086664 0.011303037
-0.011512789 -0.084043361 0.011227369
-0.010261513 -0.083232276 0.011348069
-0.0092554912 -0.084456354 0.011477679
-0.0081019085 -0.084491335 0.011503488
-0.0069083166 -0.084051184 0.011432588
-0.0057155029 -0.083446346 0.011577964
-0.0046260045 -0.084424578 0.011502922
-0.0034575465 -0.084133632 0.011747479
-0.0023011777 -0.08399298 0.011666328
-0.0011563726 -0.084415197 0.011608541
0 -0.083412893 0.011602998
0.0011574057 -0.08449062 0.011638135
0.0023373957 -0.085314944 0.01143989
0.0034600988 -0.084195733 0.010813862
0.0045817667 -0.08361724 0.010676682
0.0057437588 -0.083858877 0.010268301
0.0069119623 -0.084095545 0.0097138882
0.0081440154 -0.08493045 0.0089689195
0.0092326468 -0.084247902 0.0085752606
0.010310723 -0.083631426 0.0079713762
0.011627 -0.084877096 0.0076647997
0.012873729 -0.08543475 0.0074621439
0.014072953 -0.085610464 0.0072298646
0.015126078 -0.084938742 0.0070838928
0.016213438 -0.0845415 0.0067850649
0.01725065 -0.083953165 0.0066398978
0.018643752 -0.085062116 0.0064644516
0.019643882 -0.084353141 0.0063536167
0.020963248 -0.085017614 0.0053769052
0.022193383 -0.085269317 0.0051762462
-0.029291518 -0.084359571 0.0052555501
-0.027800852 -0.083402559 0.0054239929
-0.02686269 -0.084091902 0.0060628057
-0.025700996 -0.084112354 0.0061430335
-0.024552606 -0.084180363 0.0063894689
-0.023074375 -0.083067752 0.0068688691
-0.022025971 -0.083466835 0.0076653659
-0.020976214 -0.083904855 0.0081202686
-0.019634418 -0.083157539 0.0083154142
-0.018570744 -0.083568342 0.0093023181
-0.017403545 -0.08353702 0.010266781
-0.016071282 -0.082652308 0.010393023
-0.014842451 -0.082204342 0.010639131
-0.013962787 -0.08377672 0.011427015
-0.012705898 -0.083165877 0.011892408
-0.011445235 -0.082405694 0.011923194
-0.01041015 -0.083281197 0.011905253
-0.0092500662 -0.083250597 0.011993974
-0.0080397334 -0.082694404 0.011933297
-0.0068907486 -0.08268898 0.011911064
-0.0058014402 -0.083540738 0.012083709
-0.0045958194 -0.08272475 0.011973321
-0.0034478512 -0.082748428 0.012393445
-0.0022928896 -0.082544029 0.01208815
-0.0011467595 -0.082566686 0.012189299
0 -0.083350286 0.011973321
0.0011456046 -0.08248353 0.011948138
0.0022824355 -0.082167678 0.011829674
0.0034737433 -0.083369836 0.011286318
0.0046001957 -0.082803525 0.011186123
0.0058114682 -0.083685137 0.010843188
0.0069625839 -0.083551005 0.010124624
0.0080478163 -0.082777537 0.009552151
0.0092680538 -0.083412483 0.0091924965
0.010401946 -0.083215572 0.0088112056
0.011637852 -0.08379253 0.0084936321
0.012844914 -0.084075801 0.0080547035
0.01388332 -0.08329992 0.0076567829
0.014978286 -0.082956664 0.0075065196
0.01628729 -0.083763205 0.0071193576
0.017472789 -0.083869383 0.0068610311
0.018632933 -0.083848201 0.0064039826
0.019689133 -0.083389275 0.0061078668
0.020741226 -0.082964905 0.0055809915
0.022005206 -0.08338815 0.0054201484
0.023411902 -0.084282845 0.0050855577
-0.031571869 -0.083022326 0.0052556098
-0.030481657 -0.083238371 0.0053354204
-0.029145539 -0.082773328 0.0057100952
-0.028014543 -0.082876354 0.0056764185
-0.02703684 -0.083461545 0.0060403645
-0.025531068 -0.082395718 0.0063889623
-0.024307515 -0.082182556 0.0065045059
-0.02332418 -0.082800843 0.0070117116
-0.021928739 -0.081944235 0.0073294044
-0.020890668 -0.08240208 0.0081047714
-0.019823082 -0.082790524 0.0084055066
-0.018457741 -0.081906222 0.009152174
-0.017365027 -0.082194462 0.010070741
-0.016158633 -0.081947349 0.010606587
-0.014860361 -0.081160434 0.011005253
-0.014086562 -0.083345495 0.01178655
-0.012703704 -0.081996635 0.012198329
-0.011313162 -0.080323443 0.012540847
-0.010361315 -0.081739262 0.012415528
-0.0092834821 -0.082390904 0.012540698
-0.008058751 -0.081738763 0.012635827
-0.0069431579 -0.082160696 0.012877822
-0.0057755238 -0.082012437 0.012890697
-0.0046040132 -0.081721239 0.012734324
-0.0034563679 -0.081800707 0.012831241
-0.0023176554 -0.082276769 0.012753397
-0.0011398103 -0.08092653 0.012638122
0 -0.082230315 0.012543201
0.0011375609 -0.080766827 0.012327224
0.002287016 -0.081189066 0.012299508
0.0034738758 -0.082215063 0.011719167
0.0045736181 -0.081181727 0.011581808
0.0057205101 -0.081231244 0.011047512
0.0069307568 -0.082013957 0.010449767
0.0080213081 -0.081358977 0.0098911822
0.0092183249 -0.081812635 0.0096147656
0.010517211 -0.082969107 0.0092892051
0.011607918 -0.082416214 0.0087189078
0.012642203 -0.081599675 0.0081143379
0.013897701 -0.082228065 0.0079956055
0.015079162 -0.082355425 0.0076592863
0.016213071 -0.08222343 0.0072571635
0.017344069 -0.082095258 0.0068570971
0.018573398 -0.082419455 0.0062529147
0.019808628 -0.082730144 0.0059509575
0.021635124 -0.08533854 0.0056775212
0.021941431 -0.081991658 0.0055577755
0.023428615 -0.083171584 0.0051820576
0.024522977 -0.082911015 0.0051117241
-0.031450063 -0.081537202 0.0057587922
-0.030673571 -0.08258269 0.0062071085
-0.029134352 -0.081576183 0.0062863231
-0.028005268 -0.081682034 0.0062891841
-0.026903722 -0.08188089 0.0066182613
-0.025734911 -0.081883803 0.0065413713
-0.024448551 -0.081495173 0.006637454
-0.023399035 -0.081896625 0.0071682632
-0.022266392 -0.082034074 0.0076458752
-0.020948196 -0.081465207 0.0082185566
-0.01977003 -0.081406012 0.0086464286
-0.018367911 -0.080359615 0.00909549
-0.017501384 -0.08167313 0.0099238753
-0.016131915 -0.080659576 0.010681987
-0.014929538 -0.08038982 0.011365026
-0.013779264 -0.080379039 0.012239754
-0.012651284 -0.080508173 0.013164461
-0.011512251 -0.080585755 0.013414711
-0.010422366 -0.081062846 0.013387442
-0.0091748415 -0.080279857 0.013567835
-0.0080687888 -0.080687888 0.01369375
-0.0068689613 -0.080137879 0.014051139
-0.005779963 -0.080919482 0.014363766
-0.0046309093 -0.081040911 0.014255673
-0.0034630424 -0.080804318 0.014158458
-0.0022822204 -0.079877712 0.014288753
-0.0011492078 -0.080444545 0.014155954
0 -0.081223704 0.01429677
0.0011464716 -0.080253012 0.014235228
0.0022968133 -0.080388464 0.014137328
0.0034526451 -0.08056172 0.012986243
0.0045781331 -0.08011733 0.012583762
0.0058477549 -0.081868567 0.012000024
0.0069426489 -0.080997571 0.011426687
0.0080692144 -0.08069215 0.010972619
0.0092653008 -0.081071384 0.01068908
0.010365467 -0.080620296 0.010096729
0.011569997 -0.080989979 0.0096644759
0.012689395 -0.080750689 0.0085723698
0.014022131 -0.081795767 0.0082365572
0.015204475 -0.08187025 0.0078516901
0.016394796 -0.081973985 0.0074371994
0.017679114 -0.082502536 0.0070464313
0.01885299 -0.082481839 0.0063498318
0.019932173 -0.082073659 0.0063770413
0.020785281 -0.080831647 0.0058418214
0.022025207 -0.081145503 0.0057258606
0.023469482 -0.082143188 0.0056039989
0.024576068 -0.081920229 0.0054860413
-0.031480379 -0.080449857 0.0055233538
-0.030360436 -0.080571927 0.0055562258
-0.02954635 -0.081547931 0.0057426095
-0.027946278 -0.080345549 0.0061606169
-0.026958913 -0.080876738 0.0064651966
-0.025579304 -0.080225997 0.0069387853
-0.024710653 -0.081192143 0.0070309043
-0.023259968 -0.080246888 0.0074236095
-0.022295859 -0.08096917 0.0079053044
-0.020880947 -0.080043629 0.008844465
-0.019780882 -0.080287106 0.0093662739
-0.018464614 -0.079628646 0.0097167194
-0.017515529 -0.080571435 0.010905892
-0.016048077 -0.079094097 0.0116041
-0.015108487 -0.080191195 0.012281239
-0.013700818 -0.078779705 0.01283437
-0.012691051 -0.079607502 0.013461232
-0.011568471 -0.079822443 0.013794571
-0.010320853 -0.079126544 0.013894588
-0.0091881976 -0.079248197 0.014251113
-0.008026002 -0.079113446 0.014365315
-0.006895761 -0.079301253 0.014925003
-0.0057676439 -0.079593487 0.015170634
-0.0045748372 -0.078915939 0.015302151
-0.0034582044 -0.079538703 0.015227318
-0.0022974778 -0.079262979 0.015278906
-0.0011531891 -0.079570048 0.015268177
0 -0.079100311 0.015506715
0.0011561691 -0.079775669 0.015467852
0.0022761924 -0.078528635 0.01497364
0.0034762663 -0.079954125 0.014345139
0.0045940541 -0.079247437 0.013788402
0.0057597384 -0.079484388 0.012967438
0.0068815318 -0.079137616 0.012324363
0.0081204949 -0.080044881 0.011670023
0.0092893746 -0.080120862 0.011152714
0.010494865 -0.080460638 0.010534793
0.011654803 -0.080418132 0.0099031329
0.012771297 -0.080110863 0.0092397928
0.013999899 -0.080499418 0.0090719461
0.015197778 -0.080665134 0.0081490874
0.016338237 -0.080524161 0.0079709589
0.017429838 -0.080177255 0.0077106059
0.018467531 -0.079641223 0.007281661
0.019774683 -0.080261953 0.0063735545
0.021065764 -0.080752097 0.0059140325
0.022023465 -0.079979956 0.0057791471
0.023297628 -0.080376819 0.0051810741
0.024362471 -0.080048122 0.005369544
0.025735609 -0.08071623 0.005708158
-0.031649794 -0.079710595 0.0052994192
-0.030443124 -0.079620481 0.0054344833
-0.029343639 -0.079814695 0.0056176484
-0.027926441 -0.07912492 0.0063239932
-0.02702513 -0.079900384 0.0066620111
-0.025668003 -0.079337463 0.0069853663
-0.024373155 -0.078922592 0.0071056187
-0.023487644 -0.07985799 0.0075983107
-0.022236308 -0.079582579 0.0079462528
-0.020815734 -0.078637213 0.0083310902
-0.019820541 -0.079282165 0.0092346072
-0.018482469 -0.078550488 0.010089427
-0.017424718 -0.078992046 0.010751456
-0.016328363 -0.079309188 0.011701673
-0.014878804 -0.077827588 0.012352884
-0.013879077 -0.078648098 0.01292944
-0.012788943 -0.079058915 0.013412684
-0.011394785 -0.077484533 0.013925433
-0.010334176 -0.078080446 0.014533758
-0.0092078261 -0.078266516 0.014581263
-0.0079959203 -0.07767465 0.014910638
-0.0069323801 -0.078566976 0.015198052
-0.0057577179 -0.078304969 0.015683085
-0.0045622671 -0.07755854 0.015818536
-0.0034431245 -0.078044154 0.015990645
-0.0022765959 -0.077404261 0.016043037
-0.0011417147 -0.077636607 0.015960842
0 -0.078530274 0.016300738
0.0011407416 -0.077570431 0.016118377
0.0022986149 -0.07815291 0.015620172
0.0034978671 -0.079284988 0.015254319
0.0046024108 -0.078240983 0.014659077
0.005780526 -0.078615159 0.013958186
0.00697617 -0.079063259 0.012900889
0.0080269976 -0.077976547 0.012566954
0.0093440507 -0.079424433 0.01177907
0.010363183 -0.078299604 0.010634691
0.011571128 -0.078683667 0.010098428
0.012790949 -0.079071321 0.0092955232
0.01390899 -0.078817613 0.0090937614
0.015309534 -0.080080643 0.0085327029
0.016355596 -0.079441465 0.0081450939
0.017483981 -0.079260714 0.0079852939
0.019075666 -0.081071578 0.007188648
0.01972446 -0.078897841 0.0067466497
0.020844171 -0.078744642 0.0065043569
0.022148574 -0.079268582 0.0064591467
0.023658963 -0.080440477 0.0055304468
0.024546638 -0.079484351 0.0054494143
0.025769552 -0.079651341 0.005717665
-0.028369905 -0.079199322 0.0056160092
-0.027159655 -0.079117261 0.0065131187
-0.025846113 -0.078713164 0.006911993
-0.024696272 -0.078792863 0.0072235465
-0.02333975 -0.078188166 0.0076992512
-0.022248186 -0.078454129 0.0082735121
-0.020984476 -0.078108884 0.0085654855
-0.019730927 -0.077763066 0.0094822645
-0.018677229 -0.078210898 0.0097075403
-0.017551715 -0.078397661 0.010861844
-0.016252842 -0.077781461 0.011366546
-0.01512323 -0.077942804 0.012548804
-0.013941286 -0.077838846 0.01309225
-0.012569035 -0.076556854 0.01359728
-0.011541481 -0.077327922 0.013833255
-0.010475529 -0.077984497 0.014998674
-0.00917242 -0.076819018 0.01519224
-0.0080109127 -0.076675877 0.015518159
-0.0069269962 -0.077351458 0.015866131
-0.0057185534 -0.076628618 0.016030908
-0.0046370216 -0.077670112 0.016209215
-0.0034493711 -0.077035956 0.016581148
-0.0022764986 -0.076262705 0.01675579
-0.0011481764 -0.076927818 0.016495794
0 -0.07704626 0.016977072
0.001135279 -0.076063685 0.016997516
0.0023097154 -0.077375464 0.016475737
0.0034555763 -0.077174537 0.016077667
0.0046370216 -0.077670112 0.015342355
0.0057736067 -0.07736633 0.014232874
0.0069722543 -0.077856839 0.013510913
0.0081088459 -0.077613235 0.012840509
0.009255142 -0.07751181 0.012173861
0.010458013 -0.077854097 0.011429876
0.011524452 -0.077213831 0.010773182
0.012718213 -0.077465475 0.0098541379
0.014066799 -0.078539625 0.0090665817
0.015204648 -0.078362413 0.0087054372
0.016412016 -0.078543223 0.0084886253
0.017242575 -0.07701683 0.0078647137
0.018534254 -0.077612191 0.0074792504
0.019886957 -0.078378007 0.0070312321
0.020970255 -0.078055948 0.0063756704
0.022631517 -0.079805881 0.0065205097
0.023366485 -0.078277729 0.0061681271
0.024214007 -0.077254213 0.0055952966
0.025951691 -0.079034694 0.0052781105
-0.029432409 -0.077701561 0.0054158568
-0.02845474 -0.078250535 0.0056170225
-0.027056538 -0.077640496 0.0065188408
-0.025950611 -0.077851832 0.0071128011
-0.024584211 -0.077264667 0.0072599053
-0.023624355 -0.077960372 0.0080107749
-0.022188334 -0.077075265 0.0084685683
-0.021366505 -0.078343853 0.0090684593
-0.019800318 -0.076871827 0.0098171532
-0.018698787 -0.077132501 0.010401547
-0.017457927 -0.076814875 0.011315614
-0.016094616 -0.075874619 0.011972606
-0.015009502 -0.076202087 0.013096005
-0.013796154 -0.075878851 0.013553053
-0.012579136 -0.075474814 0.014008582
-0.011610902 -0.076631956 0.014063269
-0.010243478 -0.07511884 0.015381902
-0.0092099458 -0.075982057 0.015649021
-0.0080169179 -0.075588085 0.015928566
-0.0068989354 -0.075888284 0.016139716
-0.0057541765 -0.07595513 0.016483158
-0.0045822966 -0.075607896 0.016749024
-0.0034397175 -0.075673789 0.017328858
-0.002282107 -0.07530953 0.017524272
-0.0011410032 -0.075306207 0.017329067
0 -0.07533858 0.017084539
0.0011438021 -0.075490937 0.01719898
0.0022835671 -0.07535772 0.016795516
0.003456146 -0.076035209 0.016171038
0.0046205064 -0.076238357 0.015611947
0.0057423124 -0.075798519 0.014526725
0.0070190341 -0.077209376 0.013678402
0.0081199771 -0.076559782 0.013204485
0.009368117 -0.077286966 0.012470841
0.010517769 -0.07713031 0.01150167
0.011594479 -0.076523557 0.01078245
0.012902964 -0.077417783 0.0098952651
0.014095389 -0.07752464 0.0094844699
0.015164459 -0.076988794 0.0089825988
0.016370451 -0.077174984 0.0087043643
0.017695064 -0.077858284 0.0084757209
0.018335942 -0.075635761 0.0080428421
0.019751744 -0.076683246 0.0075931847
0.021364316 -0.078335822 0.0067096353
0.021948135 -0.07624089 0.0067088008
0.023584245 -0.077828005 0.0059339404
0.024834316 -0.07805071 0.0052354634
0.02570066 -0.077101983 0.0052578151
-0.02960106 -0.076962754 0.0052096546
-0.028243463 -0.076492712 0.0059642792
-0.027243879 -0.07699357 0.0064316392
-0.025564361 -0.075531073 0.0070411265
-0.02454216 -0.075963825 0.0081861019
-0.023592843 -0.076676734 0.008128196
-0.022429774 -0.076733433 0.0090103745
-0.021015329 -0.075888693 0.0093521774
-0.020215876 -0.077295996 0.0099796057
-0.018413765 -0.074805915 0.010964543
-0.017453397 -0.07563138 0.011456788
-0.016384967 -0.076073058 0.012108237
-0.015045884 -0.075229421 0.013533801
-0.013915867 -0.075377613 0.013949513
-0.012743739 -0.075303912 0.014425576
-0.011435705 -0.074332081 0.014732599
-0.010319026 -0.074526303 0.015340865
-0.0092226025 -0.074933641 0.015888631
-0.007980708 -0.074106574 0.016309202
-0.0069354447 -0.075133987 0.016507924
-0.0057803434 -0.07514447 0.016916573
-0.0045586824 -0.07407859 0.017148554
-0.0034346045 -0.074416429 0.01738283
-0.0022776006 -0.074022017 0.017495126
-0.0011353422 -0.073797241 0.01726678
0 -0.074802212 0.016854316
0.0011466006 -0.074529044 0.017080069
0.0022794262 -0.074081354 0.016600698
0.0034419068 -0.074574649 0.016143024
0.0045915432 -0.07461258 0.015606731
0.0057681734 -0.074986257 0.014693677
0.0068806796 -0.074540697 0.013944447
0.0081297848 -0.075490855 0.01353541
0.009275659 -0.075364731 0.012539178
0.010378164 -0.074953407 0.011354804
0.011589626 -0.075332567 0.010311723
0.012779206 -0.07551349 0.010087401
0.013966233 -0.075650431 0.0098298192
0.015182679 -0.075913392 0.0095045269
0.016746843 -0.077753201 0.0092710555
0.017717939 -0.076777734 0.0087631941
0.0184916 -0.075122125 0.0082314909
0.019859271 -0.075932503 0.0077811778
0.021302041 -0.076924033 0.0073325932
0.022534877 -0.077092998 0.0070278049
0.023786126 -0.077304915 0.0061330199
0.024872707 -0.076986954 0.0056253374
0.025969423 -0.076727845 0.005477339
0.027329121 -0.077234469 0.0050274134
-0.029332191 -0.075090408 0.0053187311
-0.028395034 -0.075720094 0.0058561563
-0.027340263 -0.076077253 0.007058233
-0.025672538 -0.074683748 0.0078813434
-0.024589293 -0.074938796 0.0084759593
-0.023719227 -0.075901531 0.0090479851
-0.022105124 -0.074459367 0.0096568763
-0.020986788 -0.074619688 0.010317624
-0.019647269 -0.073966183 0.011068135
-0.018711412 -0.074845649 0.011897773
-0.017285446 -0.073751234 0.012557298
-0.016218847 -0.074143298 0.012992114
-0.015142287 -0.074546643 0.013900816
-0.013758833 -0.07338044 0.014331818
-0.01265533 -0.073631011 0.014769822
-0.011475175 -0.073441118 0.014841229
-0.010453133 -0.074333392 0.015302986
-0.0091529312 -0.073223449 0.016208529
-0.0082247443 -0.075197659 0.016364008
-0.0068243993 -0.072793595 0.016641706
-0.0057784864 -0.073964626 0.016990215
-0.0045910268 -0.073456429 0.017226845
-0.0034376846 -0.073337272 0.017458349
-0.0023262752 -0.074440807 0.017688304
-0.0011435496 -0.073187172 0.017126501
0 -0.073093913 0.016848296
0.0011346632 -0.072618447 0.017102987
0.0022886603 -0.073237129 0.016963452
0.003395688 -0.072441347 0.016288728
0.004604903 -0.073678449 0.015703976
0.0057696616 -0.073851667 0.014607042
0.0069175144 -0.073786817 0.013881713
0.0081429528 -0.074449852 0.01328513
0.009356427 -0.074851416 0.012454361
0.010505708 -0.074707262 0.011696458
0.011784887 -0.075423278 0.010749608
0.012890915 -0.075001687 0.010574281
0.014047209 -0.074918449 0.010430813
0.015224535 -0.074951559 0.0099337697
0.01633722 -0.074684434 0.0093988478
0.017526306 -0.074778907 0.0089009404
0.018805802 -0.075223207 0.0082622468
0.019785795 -0.074487701 0.0079316497
0.021203497 -0.075390212 0.0073378384
0.022296879 -0.07510528 0.0066826046
0.023443241 -0.075018369 0.0059787631
0.025010517 -0.076222524 0.0058295429
0.025890477 -0.075317755 0.0057081878
0.026916785 -0.074898884 0.0051041842
-0.029887835 -0.075317346 0.00554353
-0.028724397 -0.075401537 0.0056717992
-0.027323289 -0.074842051 0.0068172514
-0.026034664 -0.07455381 0.0074490011
-0.024932465 -0.074797392 0.0082366168
-0.023385864 -0.07366547 0.0090896189
-0.022420293 -0.074340969 0.0096489787
-0.021079615 -0.073778652 0.010392964
-0.019919997 -0.073821165 0.01147595
-0.018755995 -0.073851734 0.012397528
-0.017530693 -0.073628902 0.01281023
-0.016343866 -0.073547393 0.013098329
-0.014927778 -0.072342314 0.013981611
-0.013862339 -0.072777279 0.014584124
-0.012756249 -0.073058516 0.014973074
-0.011549272 -0.072760411 0.014939487
-0.010340733 -0.072385132 0.015186191
-0.0092535997 -0.072872095 0.015684098
-0.0080163255 -0.07214693 0.016410857
-0.00700216 -0.07352268 0.016513675
-0.0057571148 -0.072539642 0.016815275
-0.0045860983 -0.072231047 0.016870111
-0.0034730681 -0.072934426 0.016931653
-0.002284734 -0.071969122 0.017300338
-0.0011521786 -0.072587259 0.017049342
0 -0.071693897 0.016833633
0.0011456042 -0.072173059 0.01695475
0.0022614801 -0.071236625 0.017151833
0.0034392832 -0.072224945 0.016453236
0.0045162174 -0.071130425 0.015530348
0.0057519409 -0.072474457 0.014742613
0.0070379502 -0.073898479 0.01428932
0.0081432918 -0.073289625 0.013465941
0.009537464 -0.07510753 0.01284489
0.010626105 -0.074382737 0.012196064
0.0117361 -0.073937431 0.011079192
0.012833226 -0.073499389 0.011008084
0.014252982 -0.074828155 0.010546833
0.015774896 -0.076447576 0.01009661
0.016362604 -0.073631719 0.0094078481
0.017610991 -0.073966168 0.0089257061
0.018741397 -0.073794253 0.0086699128
0.020277742 -0.075146928 0.007876277
0.021100413 -0.073851444 0.0072503686
0.022673309 -0.07517992 0.0071046352
0.024166528 -0.076124564 0.006211251
0.024663098 -0.073989294 0.0061896741
0.026038677 -0.074565299 0.0056188107
0.027383395 -0.075006686 0.0051855147
-0.029399812 -0.072911531 0.0051721632
-0.02843523 -0.073457681 0.0057609081
-0.026953831 -0.072658159 0.006634891
-0.02598347 -0.073226139 0.0074843466
-0.024746984 -0.073062524 0.0078289211
-0.023636015 -0.073271647 0.0090026855
-0.02226628 -0.07265839 0.0095675588
-0.020945715 -0.072146349 0.010299861
-0.019806968 -0.072237179 0.011174262
-0.018573685 -0.071973026 0.012207568
-0.017453749 -0.072142161 0.012596279
-0.016396414 -0.072612688 0.013312012
-0.015239178 -0.072679155 0.013765395
-0.013848945 -0.07155288 0.014453977
-0.012656277 -0.071335383 0.015011102
-0.011444376 -0.070955135 0.015275121
-0.010426546 -0.071827315 0.015173107
-0.0092178863 -0.071438618 0.015937448
-0.0081440071 -0.072132632 0.015940487
-0.0068771262 -0.071063638 0.016385406
-0.0056918683 -0.070579164 0.016666502
-0.0045972127 -0.071256801 0.016907007
-0.0034507245 -0.071314968 0.016836524
-0.0022700774 -0.070372395 0.017287284
-0.0011245774 -0.0697238 0.016924471
0 -0.070762075 0.016878515
0.0011380325 -0.070558019 0.017061591
0.0023464244 -0.072739154 0.016865879
0.003545335 -0.073270254 0.015756279
0.0046663731 -0.072328784 0.014894754
0.0059134667 -0.07332699 0.014160067
0.0068800482 -0.071093835 0.014204204
0.008044295 -0.07124947 0.013656974
0.0092636617 -0.071793377 0.013064325
0.010489544 -0.072261304 0.011595905
0.011665924 -0.072328724 0.011558563
0.012986993 -0.073199421 0.011305928
0.014121338 -0.07296025 0.011044383
0.015043783 -0.071747273 0.01044932
0.016460303 -0.072895631 0.009911865
0.01754866 -0.072534464 0.0094168186
0.018837465 -0.072995171 0.0089235902
0.019859705 -0.072429515 0.0081827641
0.021140588 -0.072817586 0.0077115595
0.02266839 -0.073970534 0.0072425306
0.023942487 -0.074221708 0.0067057908
0.024680588 -0.072866499 0.0062627196
0.025869789 -0.072905764 0.0056668222
0.027417975 -0.073909327 0.0053714514
0.028306875 -0.073126093 0.0052057803
-0.028457992 -0.072330728 0.0055751204
-0.0269826 -0.071562551 0.0065264702
-0.025809038 -0.071561426 0.0071239173
-0.024549805 -0.07131134 0.0080202222
-0.023442131 -0.071498498 0.0093613565
-0.022330506 -0.071692675 0.0099557638
-0.02109962 -0.071504265 0.01083976
-0.019961648 -0.071627088 0.011657476
-0.018477844 -0.070446782 0.012772083
-0.017345645 -0.070538953 0.012856007
-0.016179653 -0.070497058 0.013687998
-0.015062412 -0.070677474 0.014335513
-0.013880745 -0.070560455 0.014814556
-0.012805943 -0.071014777 0.015226603
-0.011420342 -0.069664091 0.015672743
-0.010412602 -0.070574299 0.015813917
-0.0092390887 -0.070448056 0.016346157
-0.0080470778 -0.070124529 0.016296625
-0.0068780473 -0.069926813 0.016249985
-0.0057894406 -0.070631176 0.016391516
-0.0045440029 -0.069296047 0.016567558
-0.0034175755 -0.069490701 0.017111868
-0.0022757398 -0.069410063 0.017414927
-0.0011824532 -0.072129644 0.017190576
0 -0.070889257 0.01706779
0.0011767294 -0.071780495 0.017111868
0.0022914498 -0.069889218 0.017085373
0.0034305449 -0.069754414 0.015906185
0.0046937889 -0.071580283 0.014955282
0.0058323662 -0.071154863 0.014200389
0.0067987749 -0.069120876 0.013898432
0.0082094502 -0.071539499 0.013305217
0.0092507778 -0.07053718 0.012522489
0.010514509 -0.071265005 0.011794776
0.011568264 -0.070566408 0.011449009
0.012987394 -0.072021 0.011278749
0.013935522 -0.070838906 0.011278749
0.015347236 -0.072013952 0.010368049
0.016413091 -0.071514182 0.0098338127
0.017456084 -0.070988081 0.0094096661
0.01881662 -0.071738362 0.0087480545
0.020010257 -0.071801506 0.0081045926
0.021414964 -0.072572932 0.0075020194
0.022508474 -0.072264045 0.0072750747
0.023383746 -0.071320429 0.0066236854
0.025081025 -0.072854407 0.0063985288
0.026055159 -0.072243847 0.0056559443
0.027143395 -0.071989 0.0054354668
0.028870827 -0.073380016 0.0052519441
0.029443238 -0.071841501 0.0051754713
-0.02950169 -0.07080406 0.0051062703
-0.028384291 -0.070960723 0.0056790411
-0.027534204 -0.071828358 0.0069164932
-0.025808316 -0.070386313 0.0076292157
-0.024453318 -0.06986662 0.0087358057
-0.023530271 -0.070590816 0.0099846125
-0.022252446 -0.070270881 0.010382473
-0.021126401 -0.070421338 0.011195362
-0.01987317 -0.0701406 0.01246199
-0.018622352 -0.069833823 0.01359871
-0.017409019 -0.069636077 0.013572395
-0.01612889 -0.069123812 0.014044762
-0.015074622 -0.069575176 0.014818072
-0.013881056 -0.06940528 0.015126646
-0.012764721 -0.06962575 0.015580177
-0.011535648 -0.06921389 0.015713304
-0.010284613 -0.068564087 0.016038597
-0.0091779213 -0.068834409 0.01620239
-0.0080050565 -0.068614766 0.016437709
-0.006933365 -0.06933365 0.016275942
-0.0059351102 -0.071221322 0.016232938
-0.0047331192 -0.070996784 0.016494095
-0.0035265321 -0.070530638 0.016467124
-0.0022908901 -0.068726704 0.016467124
-0.0011630557 -0.069783337 0.01666218
0 -0.0690016 0.016481131
0.0011641518 -0.069849111 0.016929686
0.0023046532 -0.069139592 0.01666218
0.0035223302 -0.070446603 0.015656263
0.0046539539 -0.069809303 0.014974207
0.0058717793 -0.070461355 0.014381051
0.0071120239 -0.07112024 0.013991684
0.0080421381 -0.068932615 0.013529241
0.0093167443 -0.069875583 0.012916356
0.010352559 -0.06901706 0.012352049
0.011780997 -0.070685983 0.011782706
0.01269508 -0.06924589 0.011418849
0.014019114 -0.070095569 0.011401415
0.015176696 -0.070046291 0.010759473
0.016275447 -0.069751911 0.0099235475
0.017774159 -0.071096636 0.009447366
0.018844336 -0.070666261 0.0086706579
0.0199042 -0.070250116 0.0083553791
0.021275332 -0.070917778 0.0076901615
0.022284808 -0.070373081 0.0075330138
0.023616642 -0.070849925 0.0069862306
0.024969282 -0.071340799 0.0062040687
0.02584176 -0.070477523 0.0055698454
0.027351014 -0.07135047 0.0053364933
0.028464533 -0.071161337 0.0050327182
-0.029944459 -0.070668921 0.0054478347
-0.028319148 -0.069617905 0.0055501759
-0.027322164 -0.070087291 0.0067537129
-0.025915802 -0.069501467 0.0078492761
-0.025048945 -0.070375606 0.0089603662
-0.023479592 -0.069264799 0.010147601
-0.022094473 -0.068609156 0.010707378
-0.020808065 -0.068204217 0.011643171
-0.019823859 -0.068800449 0.013144046
-0.018565213 -0.068459228 0.01399976
-0.01740109 -0.068444282 0.014323622
-0.016156415 -0.068087749 0.014600873
-0.01505746 -0.068337701 0.015241355
-0.013815531 -0.067926362 0.015276223
-0.012816502 -0.068743058 0.015464455
-0.011258792 -0.066426873 0.015967667
-0.010621802 -0.069631815 0.016197115
-0.0094640236 -0.069797173 0.016279876
-0.0082741613 -0.069739357 0.016573846
-0.0070628282 -0.069451146 0.015967667
-0.0058371704 -0.068878613 0.0162341
-0.004670111 -0.068884142 0.016338229
-0.0035163637 -0.069155149 0.016601503
-0.0023439133 -0.069145441 0.01692754
-0.0011549137 -0.068139903 0.017095149
0 -0.067619063 0.01692754
0.0011592989 -0.06839864 0.016556054
0.0022957975 -0.067726023 0.016360402
0.0035627731 -0.070067875 0.015966058
0.0046445313 -0.068506837 0.015069753
0.0057598245 -0.067965932 0.014418423
0.0070675788 -0.069497854 0.014332473
0.0079710735 -0.067184761 0.013599724
0.0092545459 -0.068252273 0.013625771
0.010465615 -0.068607919 0.012688577
0.011708145 -0.069078058 0.012028396
0.012793731 -0.06862092 0.011432081
0.014119443 -0.069420591 0.011456788
0.015245806 -0.069192506 0.011109203
0.016334519 -0.068838336 0.010394543
0.01774893 -0.069812454 0.0098786354
0.018618768 -0.068656713 0.0090965927
0.0201011 -0.06976264 0.0090667307
0.021089537 -0.069126815 0.0080814064
0.0223823 -0.069502935 0.0078710318
0.023559891 -0.069501676 0.0073522627
0.024732176 -0.069485635 0.0066635311
0.025798064 -0.069185719 0.0061079562
0.026992107 -0.069240622 0.0057399571
-0.029716879 -0.068943158 0.0053847432
-0.02865367 -0.069246367 0.0056444705
-0.027129486 -0.068413489 0.0069120824
-0.025914768 -0.068320751 0.0082031488
-0.024499975 -0.067666598 0.0093709528
-0.023545569 -0.06828215 0.010432631
-0.022334009 -0.068177506 0.010892332
-0.020913424 -0.0673877 0.011310548
-0.01975579 -0.067402102 0.01313436
-0.018454386 -0.066897154 0.014170378
-0.017583882 -0.067991011 0.014807612
-0.016063673 -0.066549502 0.015348285
-0.014938893 -0.066650443 0.015771389
-0.013962521 -0.067485519 0.015897214
-0.012463655 -0.065717459 0.015877694
-0.011832502 -0.068628512 0.016098142
-0.010691538 -0.068901025 0.0163652
-0.0093866745 -0.068053387 0.016390473
-0.0080883829 -0.067018025 0.016571522
-0.006981784 -0.067490578 0.015657008
-0.0058820029 -0.068231232 0.015967667
-0.0046058409 -0.066784687 0.016109318
-0.0034857038 -0.067390271 0.016313612
-0.0023558792 -0.06832049 0.017026454
-0.0011511485 -0.066766612 0.017047971
0 -0.067491084 0.017177939
0.0011626612 -0.067434348 0.017026454
0.0023304173 -0.067582101 0.016600639
0.0034372786 -0.066454053 0.015997857
0.0046553002 -0.06750185 0.015047997
0.0058941846 -0.06837254 0.014622837
0.0071199215 -0.068825908 0.014197826
0.0080363704 -0.066587068 0.013668776
0.0092707174 -0.067212701 0.013879478
0.010538074 -0.067912035 0.012929976
0.011537162 -0.066915534 0.012039363
0.012742962 -0.067190163 0.011148989
0.014086 -0.068082333 0.011148989
0.015094812 -0.067346081 0.011012197
0.016777027 -0.069504827 0.010487497
0.017584797 -0.067994542 0.0095106661
0.0188225 -0.06823156 0.0087681115
0.020039272 -0.068369277 0.0081740618
0.021160971 -0.068185352 0.0078760087
0.022284297 -0.068025753 0.0073562562
0.023501765 -0.068155117 0.0068376362
0.024921529 -0.068830885 0.006296128
0.026174359 -0.069005124 0.006013453
0.027227396 -0.068660386 0.0054349601
-0.029992199 -0.068382211 0.0055420399
-0.028532732 -0.067765236 0.0059091747
-0.02744998 -0.068028212 0.0069777071
-0.025975134 -0.06729921 0.0082295835
-0.024690446 -0.067016922 0.0094387829
-0.023727015 -0.067621991 0.0105232
-0.022297133 -0.066891395 0.010993034
-0.020898176 -0.066177554 0.011661857
-0.020021794 -0.067131899 0.013565511
-0.018864485 -0.067204721 0.014442265
-0.017314589 -0.065795437 0.015110433
-0.016345002 -0.066547506 0.01518023
-0.015181153 -0.066563517 0.015292317
-0.013767482 -0.065395541 0.015565068
-0.012870958 -0.066694967 0.015690893
-0.01186668 -0.067640081 0.015690893
-0.010566083 -0.066918522 0.015657008
-0.0094890501 -0.067609482 0.015838832
-0.0081702769 -0.066529393 0.015511572
-0.0069247996 -0.065785594 0.014968604
-0.0057955352 -0.066069104 0.015072227
-0.0046246182 -0.06590081 0.015773922
-0.0033979954 -0.064561911 0.016099572
-0.0023011866 -0.065583818 0.016811609
-0.0011574272 -0.065973349 0.016942322
0 -0.066449285 0.017039597
0.0011643721 -0.066369213 0.016732246
0.0023025267 -0.065622009 0.016507834
0.0034709154 -0.065947391 0.015831769
0.0046872417 -0.066793196 0.015069753
0.0058680251 -0.066895485 0.01488933
0.0072248606 -0.068636179 0.014334619
0.0081608966 -0.06645301 0.01389733
0.0093107102 -0.066338807 0.013937861
0.010417535 -0.065977722 0.013173193
0.011670577 -0.066522293 0.011971563
0.012746361 -0.06604933 0.011647254
0.014012272 -0.066558294 0.011629701
0.015427326 -0.06764289 0.011468977
0.016325397 -0.066467687 0.010707349
0.017804047 -0.067655377 0.0097471178
0.018732026 -0.066732846 0.0085662603
0.019877968 -0.066649653 0.0088385642
0.021023059 -0.066573024 0.0079360902
0.022422001 -0.067266002 0.0076343417
0.024002034 -0.0684058 0.0071924627
0.025478711 -0.069156505 0.0062942207
0.025869412 -0.067025296 0.0059583783
0.027101664 -0.067164995 0.0051138699
-0.029707959 -0.066545829 0.0056393743
-0.028583828 -0.066695601 0.00643906
-0.027304502 -0.066480525 0.0070831478
-0.026009921 -0.066207074 0.0086886287
-0.024800308 -0.066134155 0.009883374
-0.023607751 -0.066101708 0.011039138
-0.022226576 -0.065509908 0.011937499
-0.020891558 -0.064995959 0.012881637
-0.019640967 -0.064699657 0.014381468
-0.01856349 -0.064972222 0.0150913
-0.017772086 -0.066349119 0.015436202
-0.01627337 -0.06509348 0.015678376
-0.015005388 -0.0646386 0.015943468
-0.013846361 -0.064616352 0.016248375
-0.013241421 -0.067410871 0.016393751
-0.011824657 -0.066218078 0.016272128
-0.010596773 -0.065935478 0.016372025
-0.0095587391 -0.066911176 0.015806139
-0.008113551 -0.064908408 0.015698969
-0.0070611206 -0.06590379 0.015023589
-0.0057988735 -0.064947382 0.0149782
-0.0047162366 -0.066027313 0.015424877
-0.0035228154 -0.065759219 0.015943736
-0.0023127557 -0.064757161 0.016759127
-0.0011625424 -0.065102376 0.017435521
0 -0.065860018 0.017435521
0.0011432286 -0.064020798 0.016875088
0.0022643805 -0.063402653 0.016660959
0.0034506191 -0.064411558 0.016526282
0.0045310282 -0.063434392 0.015994102
0.0058335993 -0.065336309 0.016180634
0.0070326095 -0.065637685 0.015553623
0.0083890194 -0.067112155 0.015600026
0.0093155671 -0.065208972 0.014905065
0.01044218 -0.064973563 0.014122993
0.011692487 -0.065477923 0.01232338
0.012850845 -0.065422483 0.012315333
0.014213219 -0.066328354 0.011767656
0.015012513 -0.064669289 0.011260092
0.016548714 -0.066194855 0.010778725
0.017582128 -0.065639943 0.0096356869
0.01877681 -0.065718837 0.009008944
0.019949345 -0.065715492 0.0087667704
0.02136375 -0.066465005 0.0080530345
0.022640534 -0.066729993 0.0076448619
0.023599233 -0.066077851 0.006877929
0.024853971 -0.066277258 0.0064281225
0.026110299 -0.066462576 0.0058827102
-0.031036636 -0.065654419 0.0052518845
-0.0301426 -0.066313721 0.0065789819
-0.028954443 -0.066353932 0.0073167086
-0.027028704 -0.064633861 0.0075786412
-0.025861178 -0.064652942 0.0090488791
-0.02463275 -0.064514346 0.010400385
-0.02360516 -0.064914189 0.011658549
-0.022036754 -0.063790604 0.012518048
-0.021117095 -0.064524457 0.013676763
-0.01976395 -0.063942194 0.014975727
-0.018656854 -0.064132936 0.015444875
-0.017370103 -0.063690379 0.015639216
-0.016047316 -0.063043028 0.01623714
-0.01528077 -0.064649411 0.016469598
-0.013817002 -0.063327931 0.016599834
-0.013086589 -0.065432951 0.016799033
-0.011687526 -0.064281397 0.016326696
-0.010505689 -0.064201437 0.016240805
-0.0092116836 -0.06333033 0.015689492
-0.0081684971 -0.064181045 0.015691459
-0.007114809 -0.065219082 0.015755355
-0.0058362954 -0.064199246 0.015588909
-0.0046913461 -0.064506009 0.015968144
-0.0035365003 -0.064835839 0.016288459
-0.0023033523 -0.063342191 0.016707122
-0.0011610095 -0.063855529 0.016922474
0 -0.064673446 0.016957253
0.0011330415 -0.062317282 0.017127544
0.002360994 -0.064927332 0.016864151
0.0034692322 -0.063602589 0.016594142
0.0046001952 -0.06325268 0.016280204
0.0057963878 -0.063760266 0.016293138
0.0071202926 -0.065269351 0.01617685
0.0083663762 -0.06573581 0.015777856
0.0091902399 -0.063182898 0.015152305
0.010471149 -0.063990355 0.013835877
0.011901942 -0.065460682 0.012676239
0.012915066 -0.064575337 0.012139201
0.014160508 -0.064902328 0.011583
0.015367066 -0.065014511 0.011279881
0.016496602 -0.064808086 0.0108096
0.017648675 -0.064711809 0.009878397
0.019339731 -0.066480324 0.009213239
0.020145837 -0.065177709 0.0086469054
0.021525785 -0.065773234 0.00819695
0.022524763 -0.065203264 0.0078372657
0.023760954 -0.06534262 0.0071270466
0.024708141 -0.064711794 0.0061153173
0.026132893 -0.065332234 0.0057742
0.027041297 -0.064663969 0.0050951838
-0.031031528 -0.064450093 0.0053493083
-0.030069292 -0.064949669 0.006385684
-0.028413974 -0.063931443 0.0073394179
-0.027511094 -0.064591266 0.0081320107
-0.026464555 -0.064958453 0.0085137486
-0.02502219 -0.064342774 0.010527909
-0.023760665 -0.06415379 0.011239707
-0.022530267 -0.064033389 0.012958944
-0.020938197 -0.062814586 0.013417423
-0.019738825 -0.062699802 0.015071392
-0.018645875 -0.062929831 0.015339553
-0.017417343 -0.06270244 0.016104877
-0.016216731 -0.062550247 0.016029596
-0.01495673 -0.062127959 0.016474456
-0.013858454 -0.062363043 0.016477495
-0.013381934 -0.065693125 0.016259193
-0.011609388 -0.06269069 0.016332597
-0.010459486 -0.062756918 0.016367495
-0.0093714138 -0.063257039 0.016115606
-0.0082993191 -0.064023316 0.016189009
-0.0069820131 -0.062838115 0.016184062
-0.0057100821 -0.061668888 0.016281456
-0.0046361978 -0.062588669 0.016570508
-0.0034549218 -0.062188592 0.016640157
-0.0023874107 -0.064460091 0.017431259
-0.0011559959 -0.062423777 0.017816782
0 -0.061673697 0.018386751
0.0011539849 -0.062315185 0.018030405
