ply
format ascii 1.0
comment PCL generated
element vertex 1260
property float x
property float y
property float z
element camera 0
property float view_px
property float view_py
property float view_pz
property float x_axisx
property float x_axisy
property float x_axisz
property float y_axisx
property float y_axisy
property float y_axisz
property float z_axisx
property float z_axisy
property float z_axisz
property float focal
property float scalex
property float scaley
property float centerx
property float centery
property int viewportx
property int viewporty
property float k1
property float k2
end_header
-0.020758905 -0.084188886 0.0087202191
-0.019678975 -0.084503837 0.0089495182
-0.018407669 -0.083984993 0.0094921589
-0.017123124 -0.083332539 0.0098507404
-0.016106306 -0.083982877 0.010602623
-0.015036065 -0.084433287 0.011496484
-0.013623948 -0.082879014 0.01228568
-0.012612459 -0.083700866 0.012788206
-0.011441104 -0.083520062 0.012982905
-0.010253311 -0.08316575 0.013277769
-0.0092574358 -0.084474094 0.013848126
-0.0080687338 -0.084145367 0.01395148
-0.0068412349 -0.083235025 0.014153838
-0.0056924131 -0.08310923 0.014837295
-0.0045958646 -0.083874524 0.01498726
-0.0034260082 -0.0833662 0.015744716
-0.0022698212 -0.082848474 0.016136616
-0.0011444619 -0.083545722 0.016591787
0 -0.082352653 0.016958147
0.001135772 -0.082911357 0.017230004
0.0023066467 -0.084192604 0.017081529
0.0034006683 -0.082749598 0.016962618
0.0045239171 -0.082561493 0.016918689
0.0056845136 -0.082993895 0.016306013
0.0068018604 -0.082755968 0.015764147
0.0080657573 -0.084114321 0.014825791
0.0091232834 -0.083249964 0.014292598
0.010280104 -0.083383068 0.013498396
0.01153709 -0.084220752 0.012814701
0.012779512 -0.084809482 0.011868119
0.013896558 -0.084537394 0.011184096
0.015053436 -0.084530838 0.010771811
0.01615477 -0.084235586 0.0099266768
0.017124945 -0.083341405 0.0092811882
0.018550485 -0.084636584 0.0090037882
0.019446742 -0.083506599 0.0087135732
0.020779666 -0.084273085 0.008215785
0.022338703 -0.085827649 0.0078555346
0.022626666 -0.082587332 0.007030189
0.024253279 -0.084309012 0.0064921975
0.025124483 -0.083367601 0.0064067245
0.026634023 -0.084534071 0.0053946078
-0.031627942 -0.084341176 0.0052989423
-0.030188704 -0.083599485 0.0055338442
-0.029004879 -0.083534054 0.0059567392
-0.027956661 -0.083869979 0.0064552128
-0.026771972 -0.083807908 0.0071617663
-0.025599523 -0.083780259 0.0073098838
-0.024355033 -0.083502971 0.0074946284
-0.023087731 -0.083115831 0.0080344677
-0.021939455 -0.083138987 0.0086691082
-0.020988235 -0.083952941 0.009319365
-0.019679843 -0.083349921 0.0096586049
-0.018518269 -0.083332211 0.010209888
-0.017329747 -0.083182782 0.01080057
-0.015972633 -0.082144976 0.01082927
-0.014791117 -0.081920028 0.011940122
-0.013924147 -0.08354488 0.012663066
-0.012671812 -0.082942769 0.013341933
-0.011465894 -0.082554437 0.013487875
-0.010308428 -0.082467422 0.013759524
-0.0091961026 -0.082764924 0.014150113
-0.0079976181 -0.08226122 0.014172226
-0.0068754335 -0.082505204 0.014359057
-0.0057546417 -0.08286684 0.014675081
-0.0045700492 -0.082260884 0.015202075
-0.0034153948 -0.081969477 0.016060531
-0.0022694285 -0.081699423 0.016357809
-0.0011302878 -0.081380717 0.016822875
0 -0.081980519 0.01726985
0.0011311386 -0.081441984 0.017453164
0.0022470611 -0.080894202 0.01744628
0.003413389 -0.081921332 0.017434895
0.0045095142 -0.081171259 0.017334849
0.0057090595 -0.082210451 0.01695469
0.0068973121 -0.082767747 0.016346097
0.0079520997 -0.081793025 0.015368342
0.0091139423 -0.082025483 0.015065074
0.010279442 -0.082235537 0.014149755
0.011521188 -0.082952552 0.013245761
0.012617677 -0.082588427 0.01243341
0.013784898 -0.082709394 0.011642367
0.014900892 -0.082528017 0.011115402
0.016160576 -0.083111532 0.010238349
0.017260505 -0.082850426 0.0098596811
0.018462881 -0.083082967 0.0093416572
0.019694295 -0.083411135 0.009578675
0.020552143 -0.082208574 0.0089588165
0.021945223 -0.08316084 0.0083539188
0.023198215 -0.083513573 0.0072956085
0.024440436 -0.083795778 0.0069519579
0.025576824 -0.083705969 0.0065388978
0.026540287 -0.083082639 0.0060443878
0.027889678 -0.083669037 0.0058368742
0.029167157 -0.084001414 0.0054955184
0.030529339 -0.084542789 0.0052219033
0.031688523 -0.084502734 0.0050632954
-0.032812044 -0.083201975 0.0050748885
-0.031609535 -0.083121374 0.0054626465
-0.030612575 -0.083595879 0.005831182
-0.029065143 -0.082545005 0.0064111054
-0.027895115 -0.082523048 0.006696552
-0.027218312 -0.084021747 0.0073728859
-0.025625885 -0.082701713 0.0077227354
-0.024273094 -0.082066171 0.0080856979
-0.023252534 -0.082546495 0.0082919598
-0.021977197 -0.082125321 0.008856535
-0.020764954 -0.081906207 0.0096163452
-0.019754935 -0.082505904 0.009898603
-0.018424693 -0.081759579 0.0104087
-0.017304884 -0.081909791 0.011043787
-0.016150977 -0.081908531 0.011185378
-0.014849302 -0.081100039 0.011978924
-0.013913014 -0.082318664 0.01292485
-0.01274047 -0.082233943 0.013617903
-0.011339295 -0.080508992 0.013977528
-0.010344905 -0.081609808 0.014000088
-0.0092664631 -0.082239859 0.014340311
-0.0080383271 -0.081531607 0.014704883
-0.0068840729 -0.081461534 0.01498872
-0.0057405704 -0.081516102 0.015104592
-0.0045770225 -0.081242152 0.015231103
-0.0034076739 -0.080648288 0.015677541
-0.002289691 -0.081284031 0.016375601
-0.0011334878 -0.080477633 0.016870588
0 -0.081129648 0.017176777
0.0011259494 -0.079942413 0.017623752
0.0022629423 -0.080334447 0.017748833
0.003412598 -0.080764823 0.017631769
0.0045240135 -0.08030124 0.017469138
0.0056658005 -0.080454364 0.017050713
0.0068362951 -0.080896161 0.016228646
0.0079404656 -0.080539003 0.015649498
0.0091342032 -0.081066057 0.015287638
0.010335059 -0.081532128 0.014597684
0.01144018 -0.081225276 0.013571233
0.012531905 -0.08088775 0.012775958
0.013791239 -0.081598163 0.01235792
0.014985954 -0.081846371 0.011826366
0.016064217 -0.08146853 0.011059195
0.017213758 -0.081478462 0.010497749
0.018493701 -0.082065798 0.0098910034
0.019608311 -0.081893533 0.009958446
0.021655895 -0.085420474 0.0094136298
0.021902202 -0.081845075 0.0083719492
0.023262247 -0.082580984 0.007378906
0.024441382 -0.082635149 0.0070390999
0.025601845 -0.082624137 0.0063585043
0.026747877 -0.082569532 0.0059354901
0.028016001 -0.082880668 0.0057869554
0.029272957 -0.083135195 0.005746603
0.030073132 -0.08212278 0.0050653219
-0.031491011 -0.081643365 0.0062531531
-0.030495299 -0.082102731 0.0068027973
-0.028924981 -0.080989949 0.006840378
-0.027916411 -0.081422865 0.0071870089
-0.026815759 -0.081613183 0.0077107847
-0.025797689 -0.082083561 0.0079492033
-0.024261104 -0.080870345 0.0082024634
-0.023471911 -0.082151689 0.0087038875
-0.022170609 -0.081681192 0.0091305971
-0.020915395 -0.081337646 0.0098853111
-0.019662624 -0.080963746 0.01027745
-0.018341664 -0.08024478 0.010915786
-0.017555159 -0.081924073 0.011449307
-0.016083423 -0.080417112 0.011861384
-0.014833942 -0.079875074 0.012366861
-0.013767595 -0.080310971 0.013387591
-0.012484803 -0.079448745 0.014385909
-0.011490367 -0.080432571 0.01472351
-0.010349601 -0.080496892 0.014831394
-0.0091466336 -0.080033042 0.015304863
-0.008035169 -0.080351695 0.015692592
-0.0068733389 -0.080188952 0.01602909
-0.0057814829 -0.080940761 0.016374081
-0.0045764311 -0.080087543 0.016266912
-0.0034365931 -0.080187172 0.016594857
-0.0022662897 -0.079320133 0.017006874
-0.0011321824 -0.079252772 0.017778158
0 -0.079567991 0.018529236
0.0011331554 -0.079320878 0.018826932
0.0022762616 -0.079669148 0.01914379
0.0034028473 -0.079399772 0.018684089
0.0045180609 -0.079066068 0.018089145
0.0056978823 -0.079770356 0.017700881
0.0068175262 -0.079537801 0.017165303
0.0080138911 -0.080138907 0.016836226
0.0091942949 -0.08045008 0.016566455
0.010246744 -0.079696901 0.015773147
0.01143019 -0.080011331 0.014685512
0.012518233 -0.079661481 0.01346916
0.013906168 -0.081119314 0.012788147
0.015031453 -0.080938593 0.01220569
0.016216138 -0.081080697 0.011304349
0.017412975 -0.081260554 0.010995626
0.018675096 -0.081703544 0.010495275
0.019839225 -0.08169093 0.010457695
0.020683598 -0.080436207 0.0093412399
0.021932887 -0.080805369 0.0081981719
0.023199843 -0.081199452 0.007712245
0.024624523 -0.082081743 0.0071770251
0.02539965 -0.080817066 0.0069438815
0.026794817 -0.081549443 0.0064599812
0.027737234 -0.080900267 0.0063069463
0.029022081 -0.081261829 0.0058141947
0.030534741 -0.082208917 0.005522877
0.031286262 -0.081112526 0.0052854121
-0.033615842 -0.079982519 0.0053911507
-0.033123195 -0.081625022 0.0052389801
-0.031460717 -0.08039961 0.0059767067
-0.030215269 -0.080186673 0.006185323
-0.029440129 -0.081254758 0.0061903298
-0.027837005 -0.080031388 0.0069263577
-0.026995219 -0.080985658 0.0077598989
-0.025521858 -0.080045827 0.0081606209
-0.02468642 -0.081112526 0.0088812709
-0.023269687 -0.080280423 0.0092925727
-0.022267004 -0.080864385 0.009904772
-0.020778151 -0.079649583 0.010663271
-0.019639369 -0.079712734 0.011160642
-0.018260434 -0.078748122 0.011319101
-0.017367849 -0.079892106 0.012431324
-0.015938312 -0.078553103 0.012886435
-0.015053174 -0.079897612 0.013370305
-0.013687687 -0.078704201 0.014135361
-0.012716462 -0.079766899 0.014585257
-0.011553271 -0.079717569 0.014885664
-0.010359159 -0.079420216 0.015051633
-0.0091813868 -0.079189464 0.015573055
-0.0080119548 -0.078974985 0.015634924
-0.0069048824 -0.07940615 0.016007543
-0.005742711 -0.079249412 0.016661525
-0.0045568366 -0.078605428 0.016731739
-0.0034425142 -0.079177827 0.01691398
-0.0022731517 -0.078423731 0.017241031
-0.0011362823 -0.07840348 0.017882854
0 -0.078089006 0.01849544
0.0011312955 -0.078059383 0.019360244
0.002224986 -0.076762021 0.019503981
0.0033888759 -0.077944145 0.019217968
0.004521565 -0.077996999 0.018910736
0.0056390278 -0.077818587 0.018149763
0.0068165874 -0.078390755 0.017502725
0.0079630064 -0.078492485 0.017311156
0.0091380952 -0.078816071 0.016577899
0.010285833 -0.078858048 0.015709847
0.011508889 -0.079411335 0.015037477
0.01267567 -0.079511024 0.014182538
0.013857652 -0.079681501 0.013597101
0.014982846 -0.079524338 0.012792766
0.016176565 -0.079727352 0.012405783
0.017322268 -0.07968244 0.011892825
0.018308075 -0.078953579 0.011600196
0.019548468 -0.079343781 0.010965258
0.020946564 -0.08029516 0.0095381439
0.021899965 -0.079531454 0.0087564886
0.023274546 -0.080297187 0.0079393685
0.024158409 -0.079377629 0.007587254
0.025630068 -0.080385216 0.0076759756
0.027104147 -0.08131244 0.0072593391
0.028106546 -0.080806322 0.006518513
0.028904468 -0.079776332 0.0060462952
0.030535584 -0.081036739 0.0054867268
0.031991534 -0.081756137 0.0053715706
0.034138285 -0.081225574 0.0050238073
-0.034253389 -0.080318287 0.0055841804
-0.033103552 -0.080394343 0.0057501197
-0.031513792 -0.079368062 0.0060437918
-0.030375265 -0.079443 0.0063706338
-0.029163031 -0.079323441 0.0064085722
-0.027789462 -0.078736804 0.0068731308
-0.026967864 -0.079731077 0.0081830323
-0.025587831 -0.079089664 0.0084943771
-0.024370603 -0.078914337 0.0091128647
-0.02348643 -0.079853863 0.0095374584
-0.022235155 -0.079578444 0.0098632872
-0.020841984 -0.07873638 0.010700256
-0.019731691 -0.078926764 0.0115605
-0.018389113 -0.078153729 0.012098551
-0.017464835 -0.079173915 0.012669712
-0.016227938 -0.078821413 0.013395071
-0.014825061 -0.07754647 0.013883561
-0.01381925 -0.078309081 0.01453349
-0.012693967 -0.078471795 0.014938623
-0.011365597 -0.077286065 0.01522553
-0.010319946 -0.077972926 0.015563071
-0.0091932304 -0.078142464 0.01574558
-0.0079912366 -0.077629156 0.016164243
-0.0069371238 -0.078620739 0.016164243
-0.0057029785 -0.077560507 0.016462296
-0.0044921981 -0.076367363 0.016736209
-0.0034336359 -0.077829078 0.017038286
-0.0022797589 -0.077511802 0.017630368
-0.0011541842 -0.078484528 0.017813295
0 -0.07875777 0.018924743
0.0011478582 -0.078054361 0.019667298
0.0023164977 -0.078760922 0.01974237
0.003480532 -0.078892052 0.01974237
0.0045727286 -0.077736393 0.019625962
0.005735822 -0.078007184 0.019329637
0.0068134163 -0.077218719 0.018241167
0.0077694356 -0.075474516 0.018263936
0.0091465255 -0.07774546 0.017391503
0.010236757 -0.07734438 0.015740812
0.011385055 -0.077418379 0.015307903
0.012744799 -0.07878603 0.01435107
0.01378131 -0.078094095 0.014074922
0.01496732 -0.078290597 0.013520211
0.016176023 -0.078569256 0.012812555
0.017317129 -0.078504317 0.012700468
0.018957999 -0.080571488 0.012231767
0.019507503 -0.078030013 0.011483371
0.020739168 -0.078347966 0.010554254
0.022038905 -0.078876078 0.0099652708
0.023581201 -0.080176085 0.0088187456
0.024389738 -0.078976296 0.008076489
0.025653303 -0.079292029 0.0080022514
0.026766738 -0.079136446 0.0073592067
0.027761774 -0.078658357 0.0066907406
0.029126605 -0.07922437 0.0063811541
0.030575693 -0.079967201 0.0057685077
0.03147446 -0.079269014 0.0058914721
0.03281812 -0.079701148 0.0052311122
0.03384345 -0.079357058 0.0053211749
0.035047751 -0.07944157 0.0051346421
-0.032536525 -0.077855259 0.0053785443
-0.0317191 -0.078710355 0.0060551465
-0.030883964 -0.079585597 0.0062369704
-0.029277297 -0.078463152 0.0063603818
-0.028447151 -0.079414964 0.0068425834
-0.02702415 -0.078722522 0.0079967082
-0.025637634 -0.078078248 0.0088143349
-0.024495967 -0.078153796 0.0092791021
-0.023185415 -0.07767114 0.0099356771
-0.022065759 -0.077810831 0.010382265
-0.020826945 -0.077522516 0.011056364
-0.019612096 -0.077294737 0.011994392
-0.018631518 -0.078019477 0.012257576
-0.017442284 -0.077908874 0.013097942
-0.016273271 -0.077879228 0.013644397
-0.014999916 -0.077307262 0.013971806
-0.013915016 -0.077692173 0.014515549
-0.012567029 -0.076544628 0.014903277
-0.011477013 -0.076895989 0.015017956
-0.01038521 -0.077312112 0.015837222
-0.0090931039 -0.076154746 0.016112685
-0.0079666302 -0.076252028 0.016281754
-0.006813487 -0.076083936 0.016337901
-0.0057535321 -0.077097327 0.01653856
-0.0047431164 -0.079447202 0.016549706
-0.0034727319 -0.077557676 0.016745597
-0.002310202 -0.077391766 0.017635852
-0.0011539559 -0.077315047 0.017920256
0 -0.077437565 0.019105434
0.0011357656 -0.076096296 0.019388705
0.0022875709 -0.076633625 0.020103872
0.0034771119 -0.077655502 0.020014793
0.0046377517 -0.077682339 0.019414008
0.0056686709 -0.075960189 0.019257307
0.0069664144 -0.077791631 0.018959194
0.0080964975 -0.077495046 0.018791139
0.0093295919 -0.078135334 0.017390162
0.010196357 -0.075906217 0.016688019
0.01121367 -0.075131588 0.016190648
0.012545622 -0.076414242 0.01509279
0.013861017 -0.077390678 0.014618993
0.015018098 -0.077400967 0.014261931
0.016226456 -0.077655181 0.013547361
0.017174181 -0.076711334 0.013108015
0.018314442 -0.076691724 0.012691736
0.019719562 -0.077718273 0.011633128
0.020961503 -0.078023374 0.0103392
0.022322081 -0.078714706 0.010082155
0.023231594 -0.077825837 0.0089747608
0.024187215 -0.077168733 0.0084343851
0.025681736 -0.078212559 0.0081326365
0.026368979 -0.076813981 0.0073533952
0.028441323 -0.079398692 0.0067788363
0.02920595 -0.078271948 0.0063772202
0.030209966 -0.077848755 0.0058291852
0.03161421 -0.078450076 0.0059366226
0.032687765 -0.078217149 0.0056185126
0.033868566 -0.078248069 0.005317241
-0.032800201 -0.077314757 0.0055518448
-0.031547278 -0.077115573 0.0060301423
-0.030990073 -0.078667112 0.0060784519
-0.029459737 -0.077773705 0.0066581666
-0.028259404 -0.077713363 0.0070158541
-0.026978295 -0.07741598 0.007777065
-0.02576883 -0.077306487 0.0088436007
-0.024531893 -0.07710024 0.0095316768
-0.023500379 -0.077551253 0.010189295
-0.022046292 -0.076581858 0.010887623
-0.02098793 -0.076955743 0.011588365
-0.019650465 -0.076290041 0.012401402
-0.018463375 -0.076161422 0.01284194
-0.017332973 -0.076265082 0.013828456
-0.016143994 -0.076107398 0.014269978
-0.014996063 -0.076133855 0.014660656
-0.013763313 -0.075698219 0.015051723
-0.012564416 -0.075386494 0.015262276
-0.011578663 -0.076419175 0.015369266
-0.010230887 -0.075026497 0.015782893
-0.0092449877 -0.076271147 0.016276777
-0.0079747578 -0.075190574 0.016554296
-0.0069398195 -0.076338015 0.016539127
-0.0059096287 -0.078007102 0.016749412
-0.0045947088 -0.075812697 0.016785711
-0.0034265751 -0.075384654 0.017268807
-0.0022617842 -0.074638881 0.017506987
-0.0011485482 -0.075804181 0.018270999
0 -0.075981125 0.018826455
0.0011465403 -0.075671658 0.019401073
0.0023020646 -0.075968131 0.019592851
0.0034351542 -0.075573392 0.019701928
0.0045433561 -0.07496538 0.019578665
0.0057772966 -0.076260313 0.019401073
0.0069551514 -0.076506667 0.018982053
0.007999884 -0.075427473 0.019143283
0.0092347665 -0.076186828 0.01769349
0.010513389 -0.077098191 0.016966313
0.011770881 -0.077687815 0.016519278
0.012643366 -0.075860195 0.015473694
0.013826809 -0.07604745 0.015015125
0.014966019 -0.075981326 0.014580607
0.016061414 -0.07571809 0.014059007
0.01731017 -0.076164752 0.013808131
0.018244499 -0.07525856 0.013068765
0.019544017 -0.075876772 0.012220472
0.021095157 -0.077348903 0.01089856
0.021809559 -0.075759523 0.01036191
0.023536844 -0.077671587 0.0093451142
0.024561243 -0.077192478 0.0084013045
0.025524227 -0.076572679 0.0082585812
0.027232584 -0.078145675 0.0072619915
0.028061155 -0.077168182 0.0067934096
0.029392935 -0.07759735 0.0062821209
0.030470679 -0.077348642 0.0057843328
0.03159973 -0.07724379 0.0058526993
0.032810397 -0.0773388 0.0053246617
0.034402113 -0.078294463 0.0050275624
-0.034657501 -0.07768061 0.0053175986
-0.033077355 -0.076786719 0.0060615242
-0.031448979 -0.075710505 0.0065568686
-0.030562337 -0.076405846 0.0065352023
-0.029405177 -0.076453462 0.0074245036
-0.028155986 -0.076255798 0.0076701641
-0.027109727 -0.076614447 0.0086070597
-0.02549752 -0.07533358 0.0092425346
-0.024380077 -0.07546214 0.010458022
-0.023532061 -0.076479197 0.010723144
-0.022243822 -0.076097287 0.011668086
-0.02097265 -0.075734571 0.01209259
-0.019934727 -0.076221019 0.012753993
-0.018422522 -0.074841492 0.013472855
-0.017404135 -0.075417921 0.014296621
-0.016376453 -0.076033525 0.014681131
-0.014988161 -0.074940808 0.015221238
-0.013847981 -0.075009897 0.015583664
-0.012676153 -0.074904539 0.015662313
-0.011446656 -0.074403264 0.015686125
-0.010290005 -0.074316703 0.015759259
-0.0091710063 -0.074514426 0.015872896
-0.0079325773 -0.073659651 0.016057163
-0.0070190523 -0.076039732 0.016516924
-0.0057429196 -0.074657954 0.016750574
-0.0046312199 -0.075257324 0.016914189
-0.0034705698 -0.075195678 0.017049193
-0.0023070551 -0.07497929 0.017435074
-0.0011431926 -0.074307524 0.018056124
0 -0.075996831 0.018932521
0.0011525037 -0.074912742 0.019398779
0.0022780874 -0.074037842 0.019701689
0.0034504875 -0.074760564 0.019925952
0.0045348275 -0.073690951 0.019924104
0.0057088425 -0.07421495 0.019740999
0.0067678634 -0.073318519 0.019536734
0.0080028567 -0.07431224 0.019911319
0.0091009131 -0.073944919 0.018371791
0.010211154 -0.073747225 0.017343938
0.011506886 -0.074794754 0.016394615
0.012712289 -0.075118072 0.015816748
0.013654542 -0.073962107 0.015441954
0.014926485 -0.074632421 0.014881164
0.016459895 -0.076420948 0.014541477
0.017412346 -0.075453497 0.013730973
0.018373875 -0.074643865 0.013041228
0.019677352 -0.075236931 0.012656301
0.020946387 -0.075639732 0.011599213
0.022159507 -0.075808845 0.01065743
0.023595273 -0.076684639 0.0094006658
0.02438263 -0.075470045 0.0083451569
0.026038939 -0.076933227 0.0078921914
0.026937846 -0.076128699 0.0075178444
0.028074343 -0.07603468 0.0069123507
0.029195629 -0.075908631 0.0066187382
0.030503916 -0.076259792 0.0061922073
0.031468656 -0.075757869 0.0060620606
0.032886975 -0.076344758 0.0056131184
0.033610154 -0.075333104 0.0053945482
-0.035581987 -0.075908236 0.0054376125
-0.03451664 -0.076174654 0.0059494078
-0.033143584 -0.075756758 0.0063901544
-0.031935818 -0.075699717 0.0069260001
-0.030593827 -0.075307883 0.0072136223
-0.029364083 -0.075172052 0.0078772008
-0.02846211 -0.07589896 0.00819996
-0.027109656 -0.075435564 0.0092676878
-0.025454601 -0.074049748 0.010331869
-0.024581634 -0.074915454 0.011076719
-0.023529561 -0.075294599 0.012023836
-0.021994228 -0.074085824 0.012751997
-0.020836843 -0.074086554 0.013165355
-0.019491166 -0.073378503 0.013971746
-0.018519716 -0.074078865 0.014406085
-0.017211543 -0.073435925 0.01523447
-0.015977841 -0.073041558 0.015564471
-0.015048968 -0.074087225 0.016039461
-0.013747882 -0.073322035 0.016050696
-0.012676747 -0.073755622 0.015896767
-0.011388163 -0.072884239 0.015899897
-0.010355103 -0.073636286 0.015850514
-0.0092084305 -0.073667444 0.01594758
-0.0081280423 -0.074313529 0.016136318
-0.0070204884 -0.074885204 0.016232342
-0.0058168294 -0.074455418 0.01629582
-0.0046411776 -0.074258842 0.016495585
-0.0034619696 -0.073855348 0.017067373
-0.0023184845 -0.074191503 0.017305642
-0.001149271 -0.073553346 0.017430902
0 -0.072345987 0.018262118
0.0011331416 -0.072521061 0.019311816
0.0022722266 -0.072711252 0.020056695
0.0033942275 -0.072410189 0.020224452
0.0046329 -0.0741264 0.020253092
0.0057425783 -0.073504999 0.020071357
0.0068784426 -0.073370054 0.020077795
0.0080709588 -0.073791623 0.019675374
0.0092415353 -0.073932283 0.018303335
0.010352364 -0.07361681 0.017831326
0.011811052 -0.07559073 0.016845971
0.013057564 -0.075971283 0.016304135
0.013662464 -0.072866477 0.015929341
0.015035523 -0.074021034 0.015310407
0.01607237 -0.073473692 0.014835238
0.017331975 -0.073949762 0.013991177
0.018728929 -0.074915715 0.01314202
0.019632794 -0.073911697 0.01254788
0.021029474 -0.074771464 0.011254907
0.02215595 -0.074630566 0.0098484457
0.023217099 -0.074294716 0.0089751184
0.024902018 -0.075891867 0.0086790621
0.025485354 -0.074139208 0.0082489848
0.026923774 -0.074918322 0.0074980557
0.028145686 -0.075055167 0.006967634
0.029347379 -0.075129285 0.0068251491
0.030555924 -0.075214587 0.0066317618
0.032355577 -0.076694697 0.0065410137
0.032737259 -0.074828021 0.0057967901
0.034129325 -0.075319886 0.0050947666
-0.035171941 -0.073861077 0.005219847
-0.034361433 -0.074647255 0.0059652925
-0.032940969 -0.074117176 0.0067462921
-0.031742044 -0.074064769 0.0069873035
-0.030321885 -0.073472261 0.0072924197
-0.029491397 -0.07431832 0.0081854761
-0.028555222 -0.07495746 0.008236438
-0.027116409 -0.074275382 0.009439379
-0.025847452 -0.074017704 0.010367244
-0.024581393 -0.073744178 0.011109442
-0.023109835 -0.07279598 0.011850715
-0.022207711 -0.073636092 0.012792081
-0.020980002 -0.073430009 0.013480276
-0.019773178 -0.073277071 0.014457643
-0.018585682 -0.073181123 0.015135318
-0.017246909 -0.072437018 0.015663356
-0.016447777 -0.074014999 0.015875578
-0.014835236 -0.071893834 0.016457647
-0.013757925 -0.072229102 0.016488016
-0.012635762 -0.072368458 0.016370505
-0.011431211 -0.072016627 0.016285419
-0.010312799 -0.072189592 0.016344279
-0.0092662591 -0.072971791 0.016468346
-0.008089182 -0.07280264 0.016558498
-0.0070204204 -0.073714413 0.016565233
-0.0059001599 -0.074342012 0.016599178
-0.0046016816 -0.072476484 0.016620994
-0.0034971738 -0.073440649 0.017139375
-0.0022945958 -0.072279766 0.017314911
-0.0011585705 -0.072989941 0.01764074
0 -0.071229845 0.018520117
0.0011384818 -0.071724355 0.019465923
0.0022784034 -0.071769699 0.020469815
0.0034566321 -0.072589278 0.020533621
0.004533018 -0.071395032 0.020765752
0.0056795049 -0.071561761 0.020479351
0.0070142117 -0.07364922 0.020568252
0.0079809623 -0.071828663 0.020469189
0.009121648 -0.071832977 0.018951088
0.010498482 -0.073489375 0.018437088
0.011551098 -0.072771914 0.017466545
0.012887446 -0.073809922 0.016869247
0.014042692 -0.073724136 0.016260654
0.015188004 -0.073603407 0.015728474
0.01609005 -0.072405227 0.0145064
0.01735732 -0.072900742 0.013846844
0.018444564 -0.072625466 0.013257354
0.02016194 -0.074717782 0.012988299
0.020832226 -0.07291279 0.010562897
0.022441087 -0.074409924 0.0099436939
0.024087489 -0.075875588 0.0092931092
0.024600543 -0.073801629 0.0088183284
0.025955768 -0.074327879 0.0081785619
0.027278557 -0.074719526 0.0077987909
0.028329171 -0.074364074 0.0070233941
0.029855939 -0.075236969 0.0065734982
0.030839939 -0.074727543 0.006297648
0.031679727 -0.073919363 0.006316632
0.033593904 -0.075586282 0.0059176981
0.034294523 -0.074501894 0.0052416325
-0.034147862 -0.073005773 0.0054947138
-0.033008486 -0.073090218 0.0067106783
-0.031951491 -0.073370084 0.0071813464
-0.030681541 -0.073163673 0.0077145696
-0.029311702 -0.07269302 0.0081758499
-0.028178521 -0.072794512 0.0085601807
-0.02658895 -0.071674556 0.0096747279
-0.025888512 -0.072958536 0.010440379
-0.024660161 -0.072806187 0.011262953
-0.023488861 -0.07281547 0.011826158
-0.022096423 -0.072104119 0.012495875
-0.020685151 -0.071248852 0.013375103
-0.019619796 -0.071554556 0.014513731
-0.018464668 -0.071550585 0.015087724
-0.017379826 -0.071836613 0.015649766
-0.016190266 -0.071699753 0.016279042
-0.015058022 -0.071815185 0.01643461
-0.013814623 -0.071375549 0.016688496
-0.012567908 -0.070837297 0.016607761
-0.011413945 -0.070766456 0.016528428
-0.010454484 -0.072019778 0.016192228
-0.0092061991 -0.071348041 0.016717732
-0.0081469901 -0.072159052 0.016393781
-0.0071496107 -0.073879309 0.016695678
-0.0057375273 -0.071145341 0.016742289
-0.0047382121 -0.073442288 0.017056465
-0.0034008622 -0.070284486 0.017449439
-0.0022882205 -0.070934832 0.017913014
-0.0011349884 -0.070369281 0.018464714
0 -0.071679346 0.019869715
0.0011601333 -0.071928263 0.020573139
0.0023136695 -0.071723752 0.021996737
0.0033930086 -0.070122175 0.021964163
0.0045699379 -0.070834041 0.021971196
0.0057320483 -0.071077399 0.021289915
0.0069392202 -0.071705274 0.020806521
0.0079075107 -0.070037946 0.021059424
0.0092261648 -0.071502775 0.019818306
0.010322461 -0.071110286 0.018974572
0.011515588 -0.071396649 0.018276602
0.013122896 -0.073965415 0.017267555
0.013787601 -0.07123594 0.016754657
0.014846016 -0.070804074 0.015639246
0.016230304 -0.071877055 0.014547765
0.017425457 -0.072025225 0.013414711
0.018725527 -0.072561421 0.012932211
0.019714933 -0.071901523 0.012742758
0.021065049 -0.07255739 0.01109764
0.022566708 -0.07363873 0.010459214
0.023608044 -0.073184937 0.0099948049
0.024251584 -0.071599916 0.0088528395
0.025844377 -0.072834156 0.008343637
0.02715235 -0.073193297 0.0077055097
0.028120177 -0.072643787 0.0066760778
0.02954413 -0.073269442 0.0059378743
0.030629411 -0.07303936 0.0055343211
0.03171039 -0.072816454 0.0057455301
0.033164937 -0.073436648 0.0054246485
0.034253523 -0.073231667 0.0050321221
-0.035726208 -0.072643287 0.0052985549
-0.034282748 -0.072111987 0.0056833029
-0.032868318 -0.07160598 0.0061882138
-0.031732664 -0.071692318 0.0071526468
-0.030936832 -0.072582565 0.007548064
-0.029909674 -0.072979607 0.0083310008
-0.028287314 -0.071896926 0.0086801946
-0.026862355 -0.071243636 0.0096153617
-0.025617762 -0.071031071 0.010473579
-0.024493618 -0.071148127 0.01132983
-0.023241436 -0.070886381 0.012167484
-0.022176804 -0.071199216 0.012497276
-0.020998884 -0.071162887 0.013778031
-0.019854089 -0.07124114 0.01489079
-0.018357132 -0.069986559 0.015426934
-0.017278101 -0.07026428 0.01560393
-0.01606549 -0.069999635 0.015912831
-0.014978548 -0.070283957 0.016823441
-0.013781414 -0.070055522 0.016801506
-0.012742337 -0.070662051 0.016705006
-0.011390516 -0.069482148 0.016366243
-0.010415888 -0.070596576 0.015977561
-0.0091874637 -0.070054412 0.017025739
-0.0080594365 -0.070232227 0.016949832
-0.0071450882 -0.07264173 0.017248243
-0.0059647956 -0.072770506 0.017608166
-0.004660666 -0.071075156 0.017799348
-0.0034606857 -0.070367277 0.01798752
-0.0022524795 -0.068700626 0.018455029
-0.0011334355 -0.069139563 0.019141346
0 -0.068445191 0.020775169
0.0011425084 -0.069693014 0.022078425
0.0022733044 -0.069335781 0.023251057
0.0033963856 -0.069059841 0.023251057
0.004571768 -0.069719464 0.023199588
0.0056448341 -0.068866976 0.022302687
0.0068049855 -0.06918402 0.021463752
0.0080730738 -0.070351072 0.021564394
0.0091806445 -0.070002414 0.020703882
0.010483827 -0.071057044 0.019406796
0.011647398 -0.071049131 0.018892646
0.01308314 -0.072551958 0.017753303
0.013635339 -0.069312975 0.017069995
0.015170803 -0.071186073 0.015611857
0.016146427 -0.070352286 0.013580799
0.017309135 -0.070390478 0.012712449
0.018607318 -0.070940405 0.012071162
0.019882012 -0.071341343 0.011663616
0.02126386 -0.072060861 0.010616958
0.022342062 -0.071729779 0.010390073
0.023119805 -0.070515402 0.0099387467
0.024900971 -0.072331391 0.0089630485
0.02569668 -0.071249887 0.0077891946
0.026939256 -0.071447589 0.0071157813
0.028735161 -0.073035203 0.00647825
0.029321691 -0.071544923 0.0062306821
0.030603481 -0.071800478 0.0056110919
0.03179336 -0.071829438 0.0056726038
0.033216987 -0.072365575 0.0051641762
-0.034137376 -0.07062906 0.0056109726
-0.033051107 -0.070823796 0.0063705444
-0.032000832 -0.071112961 0.0070368052
-0.030480973 -0.070340708 0.0079104304
-0.029238811 -0.070173144 0.0085554123
-0.028053103 -0.070132762 0.0087717175
-0.027234949 -0.071047693 0.009742856
-0.025574204 -0.069747828 0.011006445
-0.024202999 -0.069151424 0.011756092
-0.023339286 -0.070017859 0.01230517
-0.022080235 -0.069727056 0.012521863
-0.020913953 -0.069713183 0.013872027
-0.019708708 -0.06956014 0.014593393
-0.018439312 -0.069147415 0.0160532
-0.017377982 -0.069511928 0.015784472
-0.016024936 -0.068678297 0.01611805
-0.014969382 -0.069089457 0.017347485
-0.013832845 -0.069164224 0.017372191
-0.012710481 -0.069329895 0.017372191
-0.011589832 -0.069538996 0.016869932
-0.010338861 -0.068925738 0.016731858
-0.0092451405 -0.069338553 0.016913682
-0.0081141712 -0.069550045 0.017392933
-0.0071397913 -0.071397908 0.017531157
-0.0058882213 -0.070658654 0.018121213
-0.0046914662 -0.070371993 0.018416703
-0.0035042434 -0.07008487 0.018492252
-0.0022329143 -0.066987433 0.019226849
-0.0011250544 -0.067503266 0.020212024
0 -0.066410936 0.022040576
0.0011195126 -0.067170754 0.023222804
0.0022366901 -0.067100704 0.024001271
0.0033869543 -0.067739084 0.02375719
0.0045024431 -0.067536645 0.024239898
0.0056333765 -0.067600518 0.023441494
0.0068957331 -0.068957329 0.022973746
0.0078550223 -0.067328766 0.022209018
0.0091370046 -0.068527535 0.021452039
0.01012187 -0.067479134 0.02000773
0.011582526 -0.069495156 0.019370615
0.012894632 -0.07033436 0.017799795
0.013651689 -0.068258442 0.01668483
0.014972547 -0.069104061 0.014789075
0.016070949 -0.068875492 0.013118804
0.017511258 -0.070045032 0.012320906
0.018743079 -0.07028655 0.011764497
0.019842139 -0.070031077 0.011743456
0.021155968 -0.070519894 0.010686368
0.022300988 -0.070424177 0.010463506
0.023581363 -0.07074409 0.0096902847
0.024858171 -0.071023345 0.0081664622
0.025816342 -0.070408203 0.0073212683
0.027134266 -0.070785038 0.0068518519
0.028451404 -0.07112851 0.0062424541
0.029471299 -0.070731118 0.0059165955
0.03093919 -0.071398132 0.0053232312
0.032107469 -0.071349926 0.0050765276
-0.035525527 -0.069866866 0.0051129162
-0.034294773 -0.069772124 0.0053558052
-0.033017676 -0.069572963 0.0062187016
-0.031632252 -0.069122329 0.0069580674
-0.030865503 -0.070040949 0.007915616
-0.029748416 -0.070206262 0.0089285374
-0.028200958 -0.069327354 0.0090440512
-0.027080216 -0.069466636 0.009890765
-0.02573652 -0.069020666 0.011066258
-0.024741117 -0.069510758 0.012050748
-0.023225319 -0.06851469 0.012187719
-0.021864444 -0.067894854 0.01270771
-0.02071278 -0.067891888 0.013316423
-0.019757651 -0.068570673 0.014701873
-0.018528212 -0.068322785 0.015912682
-0.017325314 -0.068146236 0.01630953
-0.016096761 -0.067836352 0.016350716
-0.014979114 -0.06798213 0.017359853
-0.013757087 -0.067639008 0.017190903
-0.01272341 -0.068243742 0.01710996
-0.011322116 -0.066800483 0.016929686
-0.010416841 -0.068288177 0.016929686
-0.0091410382 -0.067415155 0.017355174
-0.0080917124 -0.068201572 0.017529786
-0.0070547895 -0.069372095 0.018003196
-0.0058249901 -0.068734884 0.018850148
-0.0046267477 -0.068244524 0.019056827
-0.0034465662 -0.067782469 0.018984497
-0.0023323412 -0.068804063 0.020470202
-0.0011466913 -0.067654788 0.022490144
0 -0.066591322 0.024252057
0.001132439 -0.066813901 0.024661899
0.0022451235 -0.066231146 0.025700837
0.0034483932 -0.067818403 0.025483429
0.0045475727 -0.067076698 0.025393993
0.0056343661 -0.066485524 0.024977148
0.0067372564 -0.066249683 0.023672849
0.0076846112 -0.064770296 0.022824198
0.009005121 -0.066412769 0.022093475
0.010330801 -0.067724138 0.020517111
0.011580889 -0.068327248 0.019148588
0.012935713 -0.069382459 0.017714173
0.013779003 -0.067746766 0.016094327
0.014968826 -0.067935437 0.014874488
0.01615471 -0.068080559 0.013267726
0.017577291 -0.069137342 0.012592256
0.018527238 -0.068319194 0.011915803
0.019892136 -0.069037408 0.012084246
0.021069823 -0.069062196 0.011030704
0.022223938 -0.069011174 0.010500729
0.023529474 -0.069411948 0.0095371008
0.024736008 -0.069496401 0.008228451
0.025745884 -0.069045782 0.0073978007
0.02698791 -0.069229856 0.0065684319
0.028886758 -0.071013279 0.0060611963
0.029929262 -0.070633061 0.0056656599
0.030873405 -0.070058882 0.0053337812
0.031883288 -0.069670893 0.0050341785
-0.034404423 -0.068808846 0.005269289
-0.032955114 -0.068264164 0.0062128603
-0.031967357 -0.068670623 0.0070786476
-0.030894337 -0.068918139 0.0074445903
-0.029461537 -0.06835077 0.0087932944
-0.028284464 -0.068354122 0.0091408193
-0.026839951 -0.067683354 0.0098930299
-0.025720745 -0.067809239 0.010760963
-0.02429303 -0.067095034 0.012535632
-0.023380088 -0.067802258 0.012844443
-0.02213401 -0.067566976 0.012698293
-0.020799508 -0.067020632 0.013001353
-0.019659569 -0.067073829 0.014356911
-0.018332655 -0.066455871 0.015392363
-0.017609449 -0.068089873 0.016360432
-0.015961399 -0.066125803 0.01685667
-0.014689581 -0.065538131 0.01700905
-0.013711913 -0.066274241 0.017243654
-0.012407391 -0.065420792 0.016802728
-0.011319158 -0.065651111 0.016695082
-0.010268415 -0.066174231 0.017037332
-0.009071934 -0.06577152 0.01755023
-0.0080043944 -0.066322125 0.01797536
-0.0070585269 -0.068232425 0.017629385
-0.0058344933 -0.067680128 0.019162476
-0.0045841564 -0.066470265 0.019419163
-0.0034137056 -0.065998308 0.019852966
-0.002292773 -0.066490419 0.021036178
-0.0011089352 -0.064318247 0.022998959
0 -0.064866059 0.025068253
0.0011270266 -0.065367542 0.02592507
0.0022782756 -0.06606999 0.026119083
0.0033411591 -0.064595744 0.025881082
0.0044462541 -0.064470686 0.026077628
0.0056828298 -0.065920822 0.0255934
0.0068008895 -0.065741934 0.024256259
0.007881185 -0.065301247 0.023599684
0.0091157835 -0.066089429 0.023104191
0.010125912 -0.065255873 0.021229655
0.011627286 -0.06743826 0.019426435
0.013037674 -0.068744101 0.017537624
0.013713373 -0.066281304 0.016124934
0.014824922 -0.066141963 0.014930964
0.016442936 -0.068120733 0.013514757
0.0173894 -0.067239009 0.012497962
0.018617017 -0.067486688 0.011853725
0.019877871 -0.067818619 0.012020528
0.021114968 -0.068037122 0.010610938
0.022210309 -0.067799896 0.0097852647
0.023386171 -0.067819901 0.0083651543
0.024819335 -0.068548635 0.0079286695
0.026139567 -0.068913408 0.0069020689
0.027220402 -0.06864275 0.0064001679
0.02871496 -0.069394484 0.0057576299
0.029681921 -0.068862058 0.0055961907
-0.033297315 -0.067783825 0.005712688
-0.032003656 -0.067563273 0.0067342818
-0.030971983 -0.067900121 0.0074499547
-0.029624347 -0.067543507 0.0083003938
-0.028099269 -0.066735759 0.0093083382
-0.027237352 -0.067501269 0.0092749
-0.025668677 -0.066505209 0.010464847
-0.024478368 -0.066441283 0.011936486
-0.023539612 -0.067087896 0.012574703
-0.022187294 -0.066561885 0.012559235
-0.020857643 -0.066049203 0.013033479
-0.01998144 -0.066996589 0.013679892
-0.018669693 -0.066510782 0.015457094
-0.017125564 -0.065077141 0.016155928
-0.016151516 -0.065759741 0.016752303
-0.015570597 -0.068271078 0.016827077
-0.014020311 -0.066596478 0.016684413
-0.012954692 -0.067128859 0.016684264
-0.011814915 -0.067345016 0.016595185
-0.010618704 -0.067251794 0.016678214
-0.0094900243 -0.067616425 0.017344385
-0.0082764449 -0.067393914 0.017571688
-0.0068842312 -0.065400198 0.018291593
-0.0058348258 -0.066517018 0.019047558
-0.0046056123 -0.065629974 0.019187123
-0.0034135296 -0.064857066 0.020252645
-0.0022735288 -0.064795576 0.021643519
-0.0011293428 -0.06437254 0.02396512
0 -0.064178281 0.025595397
0.0011275761 -0.064271837 0.025996715
0.0022229655 -0.063354515 0.026672691
0.0033608959 -0.063857019 0.026557058
0.0045329984 -0.06459523 0.026413739
0.0057050753 -0.065037861 0.026288122
0.0068615712 -0.065184928 0.024977148
0.0078735175 -0.064112924 0.024310112
0.0091479626 -0.065179236 0.023193508
0.010297491 -0.065217443 0.021491975
0.011659616 -0.066459805 0.020061225
0.012785214 -0.06625066 0.017960489
0.013543881 -0.064333439 0.016260475
0.01491915 -0.065414734 0.014969438
0.01600235 -0.065152429 0.014127851
0.017452477 -0.066319413 0.013043463
0.018600542 -0.066264436 0.011970967
0.019842789 -0.066531703 0.012278527
0.021004437 -0.066514045 0.010382384
0.022213886 -0.066641659 0.0095285177
0.023837753 -0.067937598 0.0087011456
0.025388002 -0.068910293 0.0070813596
0.02581856 -0.06689354 0.0066617131
0.027129639 -0.067234322 0.0060287118
0.028443705 -0.067553796 0.0054270327
-0.033322852 -0.066645704 0.0055036843
-0.032056171 -0.066486873 0.0066507459
-0.0306511 -0.066017754 0.006934762
-0.029557457 -0.066208705 0.0082578361
-0.02848749 -0.066470809 0.0089113712
-0.026986925 -0.065707296 0.009942323
-0.025876084 -0.065866396 0.010114729
-0.024553709 -0.065476559 0.012157649
-0.023423981 -0.065587148 0.012548923
-0.022260109 -0.06560874 0.013214499
-0.020848829 -0.064863026 0.013119847
-0.019766182 -0.065112129 0.013724267
-0.0185294 -0.064852901 0.014550894
-0.017645143 -0.065875195 0.016220957
-0.016856451 -0.067425802 0.016437411
-0.015203296 -0.065491125 0.016944975
-0.014021751 -0.065434843 0.016976595
-0.012821367 -0.065272413 0.017043948
-0.011508545 -0.06444785 0.016724706
-0.010478362 -0.06519869 0.017156333
-0.0094885649 -0.066419959 0.017638266
-0.0081446795 -0.065157436 0.018304586
-0.0070698927 -0.065985665 0.018480837
-0.0058223289 -0.065210082 0.01930204
-0.0046755397 -0.065457553 0.019646913
-0.0034407491 -0.06422732 0.020626456
-0.0022627963 -0.063358299 0.022336006
-0.0011331757 -0.063457839 0.025063485
0 -0.064461134 0.026924402
0.0011181268 -0.062615097 0.026995242
0.0022066224 -0.06178543 0.02781269
0.0033533825 -0.06259647 0.027686566
0.0044635246 -0.062489346 0.027462304
0.0056237224 -0.062985696 0.027469188
0.006657586 -0.06213747 0.026142657
0.0080150468 -0.064120375 0.025876164
0.0091094319 -0.063766025 0.024361342
0.010219061 -0.063585266 0.023157567
0.011758876 -0.065849707 0.020780116
0.012816007 -0.065245129 0.018191218
0.014012982 -0.065393917 0.016247153
0.014909601 -0.064225972 0.015042186
0.016405502 -0.065622009 0.014276922
0.017135542 -0.063972689 0.013035387
0.018657975 -0.065302916 0.012203127
0.019827235 -0.06531325 0.011735648
0.021379091 -0.066512726 0.010266036
0.022589656 -0.066580042 0.0091014504
0.023656433 -0.066238008 0.0074909031
0.024847582 -0.066260219 0.0070669949
0.026169188 -0.066612475 0.0064139068
0.027249942 -0.066347681 0.005757153
0.028410133 -0.066290312 0.0050597191
-0.033058852 -0.064937033 0.0056159198
-0.032315329 -0.065827519 0.0069571137
-0.031033475 -0.065647736 0.0074492097
-0.029820286 -0.065604627 0.0091046989
-0.028693145 -0.065755129 0.0095762014
-0.026892986 -0.064309314 0.010170817
-0.025740711 -0.064351775 0.010989577
-0.024568858 -0.064347006 0.011467189
-0.023555256 -0.064776957 0.012143016
-0.02200553 -0.063700221 0.012765348
-0.021155443 -0.064641632 0.013002157
-0.019881932 -0.064323895 0.01394552
-0.018682182 -0.064220004 0.014243484
-0.017971087 -0.065893985 0.014837712
-0.016367016 -0.064298995 0.016609579
-0.015235643 -0.064458489 0.016692787
-0.01376438 -0.063086741 0.01697892
-0.012756275 -0.063781373 0.017048776
-0.011432907 -0.062880985 0.016804963
-0.010301739 -0.062955074 0.017439932
-0.009190728 -0.063186251 0.018152595
-0.0081633795 -0.064140834 0.018474281
-0.0070665558 -0.064776763 0.018933386
-0.005789381 -0.063683189 0.020129979
-0.0046155495 -0.063463807 0.020190179
-0.0034721571 -0.063656211 0.021059275
-0.0022830009 -0.062782526 0.022932917
-0.0011526009 -0.063393041 0.025013894
0 -0.062880501 0.02695632
0.0011011128 -0.060561206 0.027271986
0.0022922626 -0.063037224 0.028015882
0.003375825 -0.061890125 0.027754426
0.0044719991 -0.061489988 0.027918398
0.0056200013 -0.061820012 0.028071254
0.006827848 -0.06258861 0.027207613
0.008092586 -0.063584603 0.026341587
0.0091653848 -0.063012019 0.024829894
0.010458539 -0.063913301 0.023045272
0.011775241 -0.064763829 0.021394074
0.01312478 -0.065623894 0.018307984
0.01409327 -0.06459415 0.016832829
0.015439903 -0.065322667 0.015348494
0.016530704 -0.064942047 0.014524013
0.017497059 -0.064155877 0.013385832
0.018842917 -0.064772524 0.01201877
0.020035101 -0.06481944 0.011633933
0.021421695 -0.065455176 0.0098884702
0.022243753 -0.06438981 0.0084683001
0.023563778 -0.064800389 0.007848084
0.024773311 -0.06488248 0.0065945089
0.026165016 -0.065412544 0.0063652396
0.027153227 -0.064931631 0.0056286454
-0.033849902 -0.065281957 0.0058312714
-0.032344505 -0.06468901 0.0065309405
-0.03088291 -0.06414143 0.0079611838
-0.030089058 -0.064992368 0.008985132
-0.028416894 -0.063938014 0.0097469985
-0.027155679 -0.063756809 0.010636508
-0.026261084 -0.064459026 0.011478186
-0.024980018 -0.064234331 0.011914134
-0.023652328 -0.063861288 0.012277842
-0.022605443 -0.064247049 0.013266414
-0.021034626 -0.063103877 0.013686836
-0.019755386 -0.062752403 0.014470905
-0.018747196 -0.063271783 0.014772266
-0.017605511 -0.063379839 0.014951527
-0.016556924 -0.063862421 0.015782267
-0.01545951 -0.064216428 0.016884267
-0.013832141 -0.062244631 0.01689896
-0.01285928 -0.063127376 0.016301215
-0.01136632 -0.061378129 0.016934782
-0.010308702 -0.061852213 0.017814904
-0.0092900163 -0.06270761 0.018841505
-0.0083833402 -0.064671479 0.019524425
-0.0070584211 -0.063525788 0.020242989
-0.0057679689 -0.062294066 0.021089703
-0.0046023177 -0.062131293 0.021254778
-0.0033975195 -0.061155349 0.021953464
-0.0023389044 -0.063150421 0.023668736
-0.0011315596 -0.061104223 0.024968177
0 -0.060156699 0.026651829
0.0011268065 -0.060847551 0.028021604
0.0022661451 -0.061185915 0.028367907
0.003373754 -0.060727574 0.028342009
0.0044948282 -0.060680181 0.028531939
0.005727753 -0.061859731 0.028569698
0.0068153045 -0.061337739 0.027819633
0.0080041792 -0.061746527 0.027197212
0.0092739314 -0.062599041 0.025721431
0.010231939 -0.061391637 0.024019241
0.011752549 -0.063463762 0.021918833
0.013061641 -0.064120784 0.019115388
0.014352563 -0.064586535 0.017844796
0.015105585 -0.062746279 0.016604751
0.016240604 -0.062642328 0.015395075
0.017853964 -0.064274274 0.013740033
0.018631263 -0.062880509 0.011723906
0.019965494 -0.063419804 0.011258274
0.021312956 -0.063938864 0.0096718371
0.022494417 -0.063931502 0.0085017383
0.023876304 -0.064466022 0.0076962709
0.025001744 -0.064290196 0.0065633059
0.026153995 -0.064196169 0.0062514246
-0.033561662 -0.063527428 0.0052115619
-0.032179762 -0.063167684 0.0065633059
-0.030825414 -0.062836424 0.0075754523
-0.030109834 -0.063832849 0.0088442266
-0.02852002 -0.06298171 0.0096471906
-0.027216733 -0.062716819 0.011008114
-0.026141465 -0.062977165 0.011634588
-0.024424886 -0.061643761 0.01227504
-0.023581278 -0.062490385 0.013354301
-0.022467392 -0.062672198 0.014058262
-0.021222696 -0.062489048 0.014289707
-0.020098632 -0.062660441 0.015131831
-0.018569499 -0.061511468 0.015584499
-0.018063748 -0.063825242 0.015254319
-0.016438091 -0.062229913 0.015803874
-0.015092603 -0.06153138 0.017042518
-0.013720002 -0.060596675 0.016987562
-0.012764535 -0.061501849 0.016884714
-0.011418454 -0.060517807 0.017287046
-0.01049272 -0.061790459 0.018398434
-0.0093102958 -0.061680712 0.019583732
-0.008120019 -0.061480142 0.020957321
-0.0070246472 -0.062051054 0.021677136
-0.0057538296 -0.060990594 0.02190724
-0.0046473136 -0.061576907 0.022408873
-0.0033897613 -0.059885785 0.023156881
-0.0022564633 -0.059796277 0.024898678
-0.0011420763 -0.060530048 0.025769949
0 -0.060704656 0.027522236
0.0011181866 -0.059263889 0.027784973
0.0022235543 -0.058924187 0.028818965
0.0033586812 -0.0593367 0.028665692
0.0045054443 -0.05969714 0.029038876
0.0056179366 -0.059550125 0.028495371
0.0069573736 -0.0614568 0.027517021
0.0078009679 -0.059064474 0.027256697
0.0090763196 -0.060130619 0.026398718
0.010405531 -0.061277017 0.024431527
0.011600618 -0.061483275 0.021055311
0.012583601 -0.060630079 0.019841254
0.013801142 -0.06095504 0.018341184
0.015090227 -0.061521694 0.017100751
0.016358789 -0.061929706 0.015850633
0.017754069 -0.062731043 0.013511211
0.0190323 -0.063044488 0.012321919
0.02001893 -0.062411956 0.010855198
0.021166805 -0.062324483 0.0094697475
0.022491682 -0.062739953 0.0086226463
0.023720054 -0.062858142 0.0074307323
0.024896489 -0.062833995 0.0067438781
0.026162885 -0.063028768 0.0057834983
-0.032779902 -0.06313166 0.0055504143
-0.031659584 -0.063319169 0.0070278347
-0.029461298 -0.061279502 0.0091001987
-0.028469672 -0.061684292 0.0096114576
-0.027185263 -0.061462332 0.011069626
-0.026018986 -0.061499424 0.011920869
-0.024810234 -0.061434865 0.01278168
-0.023584329 -0.061319258 0.013990194
-0.022258619 -0.060918327 0.014824778
-0.021233115 -0.061340112 0.014919013
-0.020066038 -0.061378468 0.015498638
-0.018532945 -0.060232073 0.015839726
-0.018164735 -0.062971085 0.015879124
-0.016314017 -0.06059492 0.01632458
-0.01524741 -0.060989641 0.017138451
-0.013945502 -0.060430508 0.017004997
-0.0125752 -0.059446398 0.017068148
-0.011455293 -0.059567522 0.017600745
-0.01040086 -0.060093857 0.018519998
-0.0092573995 -0.060173098 0.019551158
-0.0081842113 -0.060797002 0.020420969
-0.0069871685 -0.060555458 0.021030128
-0.0057622013 -0.059926894 0.021573573
-0.004555284 -0.05921869 0.021840185
-0.0034329931 -0.059505213 0.022214174
-0.0022758988 -0.059173372 0.024401337
-0.0011504545 -0.059823632 0.026307195
0 -0.059345249 0.026929677
0.0011173596 -0.058102701 0.027504176
0.0022106851 -0.057477813 0.028264076
0.0033722904 -0.058453035 0.028280586
0.0044421698 -0.057748206 0.027887464
0.0056272116 -0.058522999 0.027950317
0.0067290207 -0.058318179 0.027754247
0.0080319252 -0.059665728 0.026806384
0.009129677 -0.059342902 0.025728226
0.010254988 -0.059251036 0.023961276
0.011739832 -0.061047126 0.021477431
0.012846622 -0.060729485 0.019973457
0.013980593 -0.060582571 0.01870802
0.015159509 -0.060638037 0.017474681
0.016589455 -0.061617978 0.016280085
0.01765313 -0.061197519 0.013764054
0.019488825 -0.063338675 0.012213469
0.01990455 -0.060884506 0.010262996
0.02169561 -0.062676206 0.0095572174
0.022893656 -0.062656321 0.0080241561
0.023983652 -0.062357493 0.007558018
0.025579682 -0.063340165 0.0063312352
0.026035054 -0.0615374 0.005448997
-0.031293377 -0.061383162 0.0064080358
-0.032100555 -0.065485135 0.0088238418
-0.031089913 -0.066066064 0.0099413097
-0.029427968 -0.065253325 0.011777848
-0.028266245 -0.065526292 0.012805581
-0.026279436 -0.063821487 0.013298959
-0.024881473 -0.063447759 0.014644086
-0.02296586 -0.061645202 0.015319407
-0.021092152 -0.059761096 0.015539408
-0.019886304 -0.059658915 0.0157139
-0.018766196 -0.059817251 0.016399771
-0.017803321 -0.060531288 0.016579419
-0.016714305 -0.060887825 0.017440647
-0.015079024 -0.059156172 0.017883629
-0.014013033 -0.059555393 0.018157989
-0.012894459 -0.059783403 0.01796785
-0.011584684 -0.05908189 0.018639952
-0.010450418 -0.059219033 0.019366413
-0.0093253413 -0.059449051 0.020678014
-0.008072176 -0.058811568 0.021059304
-0.006891863 -0.058580838 0.021543443
-0.0057720626 -0.058875035 0.021792889
-0.0045341565 -0.057810497 0.022307485
-0.0034659703 -0.058921494 0.023140579
-0.0022971516 -0.058577366 0.024277627
-0.0011482817 -0.058562372 0.026231706
0 -0.057309795 0.026967138
0.0011349332 -0.057881594 0.026845902
0.0022421731 -0.057175413 0.02696535
0.0033994119 -0.05779 0.027822644
0.0045556109 -0.058084041 0.028467774
0.0055940947 -0.057059769 0.028075397
0.0069057588 -0.058698948 0.02741152
0.0080039194 -0.058314268 0.026774377
0.0091493456 -0.058327079 0.025072157
0.010245851 -0.058059826 0.02249065
0.011687662 -0.059607077 0.02100563
0.012712158 -0.058938187 0.019904882
0.0139041 -0.059092425 0.0182558
0.015213658 -0.059684351 0.017244458
0.016429465 -0.059850194 0.01487267
0.017859967 -0.06072389 0.01337871
