ply
format ascii 1.0
comment PCL generated
element vertex 1269
property float x
property float y
property float z
element camera 0
property float view_px
property float view_py
property float view_pz
property float x_axisx
property float x_axisy
property float x_axisz
property float y_axisx
property float y_axisy
property float y_axisz
property float z_axisx
property float z_axisy
property float z_axisz
property float focal
property float scalex
property float scaley
property float centerx
property float centery
property int viewportx
property int viewporty
property float k1
property float k2
end_header
0.012512215 -0.079623185 0.015213698
0.013786557 -0.080421582 0.014733016
0.01497378 -0.080628045 0.014101565
0.016149782 -0.080748908 0.013484627
0.017277172 -0.080626801 0.013507992
0.018671207 -0.081686534 0.013019413
0.019709097 -0.081155106 0.012221873
0.020503188 -0.079734616 0.011324167
0.021862494 -0.080546029 0.011178017
0.023118464 -0.080914624 0.010745794
0.024416672 -0.081388906 0.010269612
0.025330195 -0.080596074 0.0094100535
0.026592365 -0.080933288 0.0087785125
0.027585736 -0.080458395 0.0079339445
0.029052423 -0.081346788 0.0076007545
0.030370669 -0.081767187 0.0072253048
0.031133924 -0.080717579 0.0070743561
0.032296825 -0.080742061 0.0061132312
0.033724029 -0.081402831 0.0061807036
0.034796886 -0.081192739 0.0053378046
0.036070284 -0.081449032 0.0055035949
-0.025849164 -0.081072375 0.0052413344
-0.024667289 -0.081049666 0.0057451129
-0.023345005 -0.080540262 0.0072554648
-0.022267004 -0.080864385 0.0082537532
-0.020867825 -0.07999333 0.0092231035
-0.019699279 -0.079955891 0.010454983
-0.01830516 -0.078941002 0.010652333
-0.017377878 -0.079938233 0.012649894
-0.015880449 -0.078267932 0.013303518
-0.014987586 -0.079549499 0.014293045
-0.013562948 -0.077986956 0.015615016
-0.012590073 -0.078974098 0.016530663
-0.011536248 -0.079600111 0.016591161
-0.010272153 -0.078753173 0.017116338
-0.0091162054 -0.078627273 0.017417103
-0.007989821 -0.078756809 0.017474979
-0.0068545323 -0.07882712 0.017847121
-0.0057071364 -0.078758486 0.018088818
-0.0045361603 -0.078248762 0.018143684
-0.0034408723 -0.07914006 0.018071502
-0.0022808143 -0.078688093 0.018143684
-0.0011475941 -0.079183996 0.018210888
0 -0.078840144 0.018895984
0.0011536148 -0.079599425 0.019012868
0.002241771 -0.077341102 0.018994838
0.0034385005 -0.079085514 0.018949449
0.0045551341 -0.078576066 0.018666238
0.0056502782 -0.077973835 0.018187463
0.0068147634 -0.078369774 0.018086433
0.0079910988 -0.078769401 0.017867118
0.0091225291 -0.078681812 0.017783582
0.010334535 -0.079231426 0.01766932
0.011476059 -0.079184808 0.017494798
0.012699744 -0.079662032 0.016851425
0.013771576 -0.079186559 0.01653862
0.014942546 -0.07931044 0.015406728
0.016047226 -0.079089902 0.014948159
0.017184617 -0.079049237 0.014620811
0.018182652 -0.078412689 0.014258891
0.01949992 -0.079146735 0.012910753
0.020862358 -0.079972371 0.012174845
0.021648347 -0.078617685 0.011996239
0.023054665 -0.079538599 0.010995388
0.024071682 -0.079092674 0.010251105
0.025334826 -0.079459228 0.010444552
0.026896071 -0.080688216 0.0094625652
0.027989987 -0.080471218 0.0085136592
0.028769415 -0.079403587 0.0081349015
0.030502446 -0.0809488 0.0075757205
0.031891596 -0.081500746 0.0070393384
0.032795344 -0.080817103 0.0062998235
0.03395886 -0.080798671 0.0061993897
0.034770485 -0.079972118 0.0059507489
0.036309943 -0.080818906 0.0057182312
0.037093706 -0.079983309 0.0050429702
-0.024567049 -0.079550445 0.0055713356
-0.023502225 -0.079907566 0.0062361956
-0.022150882 -0.079276845 0.0077907443
-0.020837609 -0.078719854 0.0085455775
-0.019776117 -0.079104468 0.0095100999
-0.018406617 -0.078228123 0.011168927
-0.017383687 -0.07880605 0.011784911
-0.016216023 -0.078763545 0.013390243
-0.014783173 -0.077327363 0.014327288
-0.013769638 -0.078027949 0.015396476
-0.012678584 -0.078376703 0.016841918
-0.011231211 -0.076372236 0.01698482
-0.010225262 -0.077257544 0.017374694
-0.0091927443 -0.078138329 0.017653108
-0.0079324869 -0.077058449 0.018045485
-0.0069101201 -0.078314692 0.018424898
-0.0057501155 -0.07820157 0.018660069
-0.0045493725 -0.077339329 0.018805414
-0.0034296215 -0.077738084 0.01883927
-0.0022701484 -0.077185042 0.018887162
-0.0011379436 -0.077380165 0.019132167
0 -0.078021526 0.019638568
0.0011353889 -0.07720644 0.019662589
0.0022865713 -0.077743426 0.01970768
0.0034569926 -0.078358501 0.019822568
0.0045415871 -0.077206977 0.019694567
0.0057011535 -0.077535689 0.019470453
0.0068736281 -0.077901118 0.019009739
0.007860966 -0.076363668 0.019245714
0.0091582015 -0.077844709 0.018815309
0.010251534 -0.077456035 0.018354654
0.011358907 -0.077240571 0.018371254
0.012615712 -0.077988036 0.017779589
0.013697407 -0.077618644 0.017290473
0.014994192 -0.078431159 0.016712159
0.016067939 -0.078044273 0.015832543
0.017161218 -0.077797517 0.015606225
0.018762534 -0.07974077 0.015085161
0.019384561 -0.077538244 0.013743371
0.020604633 -0.077839725 0.013239354
0.021895757 -0.078363761 0.012903005
0.023313897 -0.079267249 0.011969954
0.024227735 -0.078451708 0.01108852
0.025448868 -0.078660138 0.010680556
0.026709473 -0.078967139 0.0099936724
0.027509673 -0.07794407 0.0091843903
0.029017329 -0.078927137 0.0086174905
0.030304246 -0.079257257 0.0076370835
0.031490851 -0.079310291 0.0073896646
0.032840207 -0.079754785 0.0066585243
0.03386984 -0.079418942 0.0064135492
0.034843944 -0.078979604 0.006162852
0.036541943 -0.08015652 0.005854845
0.036844119 -0.078293756 0.0050368011
-0.023435753 -0.07850977 0.0054673851
-0.022230867 -0.078393057 0.0070539117
-0.02100745 -0.078194395 0.0082310438
-0.019740228 -0.077799723 0.0093938112
-0.01867334 -0.078194611 0.010964125
-0.017362036 -0.077550426 0.011716336
-0.016156657 -0.077321149 0.013279587
-0.015067897 -0.077657618 0.014142096
-0.013871233 -0.07744772 0.015028685
-0.012541608 -0.076389797 0.017100662
-0.011424101 -0.076541476 0.017156512
-0.010450349 -0.077797048 0.018134832
-0.009072667 -0.075983584 0.018300682
-0.0079636499 -0.076223508 0.018509656
-0.00685838 -0.076585241 0.018843114
-0.0056902664 -0.07624957 0.019048154
-0.0045873807 -0.076838627 0.019049853
-0.0034433485 -0.076901451 0.019361377
-0.0022677381 -0.075969227 0.019418657
-0.001138625 -0.076287873 0.019586861
0 -0.077221535 0.020496488
0.001135644 -0.076088145 0.020496488
0.002285989 -0.076580636 0.020396888
0.0034316678 -0.076640584 0.020583808
0.004577891 -0.076679669 0.020448595
0.0056784041 -0.076090612 0.020179808
0.0068824682 -0.076854229 0.020011395
0.0079789776 -0.076370217 0.019930869
0.0090746135 -0.075999886 0.019361824
0.010179935 -0.075783961 0.019318372
0.011241038 -0.075314954 0.01928106
0.012490099 -0.076076061 0.018699884
0.013849341 -0.077325493 0.018305004
0.014981735 -0.077213563 0.017487496
0.016225604 -0.077651106 0.01660955
0.016998179 -0.075925201 0.016224504
0.01811311 -0.075848646 0.015725732
0.019659629 -0.077482067 0.014688402
0.020634407 -0.076805845 0.013591588
0.022288596 -0.078596629 0.013358593
0.023052955 -0.077227399 0.012042612
0.023990737 -0.076541878 0.011138648
0.025536066 -0.077768929 0.010767102
0.026201343 -0.076325648 0.010136008
0.02819938 -0.078723267 0.0092949271
0.029055672 -0.077869199 0.0081716478
0.030058434 -0.07745827 0.0076747537
0.031643711 -0.078523278 0.007779479
0.032420974 -0.077578761 0.0069762766
0.033884406 -0.078284658 0.0067961514
0.035166554 -0.078538641 0.0063258708
0.036627132 -0.079161867 0.0059514642
0.037321955 -0.078142844 0.0054900646
-0.023733743 -0.078321353 0.0052271783
-0.022219513 -0.077183574 0.0069393814
-0.021405894 -0.078488283 0.0079196692
-0.019807553 -0.076899908 0.0090833008
-0.018477967 -0.076221615 0.010602921
-0.017401377 -0.076566063 0.012460142
-0.016138034 -0.076079302 0.012847245
-0.014997643 -0.076141886 0.014688611
-0.013678651 -0.07523258 0.015564859
-0.012593186 -0.075559117 0.017555684
-0.011512969 -0.075985596 0.017566651
-0.01017997 -0.074653119 0.018497676
-0.0091617648 -0.075584561 0.018738717
-0.0079943473 -0.075375274 0.018920064
-0.0068719219 -0.075591139 0.019182712
-0.0057432246 -0.075810567 0.019383311
-0.0045538214 -0.075138055 0.019418448
-0.0034174484 -0.075183861 0.019866765
-0.00228089 -0.075269364 0.01988396
-0.0011352227 -0.0749247 0.020161003
0 -0.075077541 0.02058351
0.0011406381 -0.075282112 0.020594865
0.0022627579 -0.074671008 0.020732075
0.0034499399 -0.075898677 0.020906359
0.0045859469 -0.075668126 0.020832568
0.0056556114 -0.074654073 0.020527929
0.0069135367 -0.076048903 0.020443141
0.0079713501 -0.075158447 0.020326257
0.0091466783 -0.075460091 0.019872785
0.010292753 -0.075480185 0.019705504
0.011332917 -0.074797258 0.019643873
0.012603222 -0.075619332 0.019278079
0.013719521 -0.075457372 0.018804044
0.014882216 -0.075555868 0.01827082
0.015926901 -0.075083964 0.017455071
0.017379489 -0.076469749 0.017328978
0.01799936 -0.07424736 0.016888499
0.019379694 -0.075238816 0.015310168
0.021027319 -0.077100173 0.014373839
0.021568205 -0.074921131 0.014184564
0.02327431 -0.076805219 0.012762427
0.024529343 -0.077092223 0.011936247
0.025334425 -0.076003276 0.011365563
0.026916819 -0.077239566 0.010535419
0.027911009 -0.076755278 0.0096771717
0.029221375 -0.077144429 0.0085838735
0.030298598 -0.076911829 0.0079541504
0.031475153 -0.07693927 0.0075654685
0.032698225 -0.077074386 0.0071256459
0.034116998 -0.077645585 0.0069474876
0.035314307 -0.077691481 0.0063251853
0.035976786 -0.076595739 0.0053702295
-0.022599556 -0.077314273 0.0067511797
-0.021214494 -0.076607898 0.0074760914
-0.020187968 -0.077189289 0.0094451606
-0.018523706 -0.075252555 0.010734081
-0.017507216 -0.075864606 0.01247251
-0.016264908 -0.075515643 0.013187259
-0.014874296 -0.074371479 0.015159577
-0.013718048 -0.074306093 0.016175449
-0.012561725 -0.074228376 0.018097222
-0.011354791 -0.073806144 0.018042475
-0.010254961 -0.074063599 0.018495649
-0.009211407 -0.074842684 0.018916011
-0.0079308739 -0.073643826 0.019085377
-0.0068511064 -0.074220322 0.019405484
-0.0057301405 -0.074491829 0.019592255
-0.0045343409 -0.073683038 0.019636124
-0.0034395338 -0.074523233 0.019904852
-0.0022734622 -0.073887527 0.020007461
-0.0011361941 -0.073852614 0.020101309
0 -0.074529268 0.020320356
0.0011386283 -0.074010842 0.020412743
0.0022750446 -0.073938951 0.020486087
0.0034258412 -0.074226558 0.020691752
0.0045435904 -0.073833346 0.020631075
0.0056927167 -0.074005313 0.020489097
0.0068138661 -0.073816888 0.020601064
0.0079445038 -0.073770389 0.020867705
0.0090989657 -0.073929094 0.020582229
0.010175562 -0.073490173 0.020094842
0.011334714 -0.073675647 0.019561827
0.012558379 -0.074208602 0.01929453
0.013596146 -0.073645793 0.019249529
0.014846622 -0.074233107 0.01831615
0.016373897 -0.076021664 0.017905802
0.017368561 -0.075263761 0.017643511
0.018143289 -0.073707111 0.016959876
0.019488197 -0.074513689 0.015921414
0.020897143 -0.075461902 0.014988065
0.02199088 -0.075231962 0.015060931
0.023504101 -0.076388329 0.013571352
0.024408154 -0.075549051 0.012507349
0.025845097 -0.076360516 0.011738271
0.026884744 -0.075978622 0.011054337
0.027692357 -0.075000137 0.0098246038
0.029136408 -0.075754657 0.0090532899
0.030401282 -0.076003209 0.0083446205
0.031293236 -0.07533557 0.0081064105
0.032835979 -0.076226376 0.0076024532
0.033640079 -0.075400174 0.0068370104
0.035086844 -0.076021492 0.0053964853
-0.022375431 -0.075369872 0.0062693954
-0.021271355 -0.075631484 0.0073959231
-0.019772356 -0.074437104 0.0096545815
-0.018816506 -0.075266026 0.011516362
-0.017226143 -0.073498204 0.013397068
-0.016307414 -0.074548177 0.014105856
-0.015748072 -0.077528976 0.016139925
-0.014003404 -0.074684829 0.016494423
-0.013218191 -0.076905832 0.017483979
-0.011374168 -0.072794676 0.017770797
-0.01034634 -0.073573977 0.018640667
-0.0091246953 -0.072997563 0.018891901
-0.0081493426 -0.074508272 0.019289553
-0.0067656096 -0.072166502 0.019358575
-0.0057486645 -0.07358291 0.019473284
-0.0045659509 -0.073055215 0.019617289
-0.00341906 -0.072939947 0.01994592
-0.0023153194 -0.07409022 0.020064801
-0.0011397151 -0.072941765 0.020068973
0 -0.072852395 0.020553648
0.0011337502 -0.072560012 0.020648003
0.0022719833 -0.072703466 0.02091676
0.0033745074 -0.071989492 0.020948231
0.0045715505 -0.073144808 0.021014571
0.005708192 -0.073064856 0.020931423
0.006785328 -0.072376832 0.021128625
0.007990445 -0.073055498 0.021104753
0.0091806808 -0.073445447 0.020800978
0.010293765 -0.073200107 0.020569235
0.011503165 -0.073620252 0.020150512
0.012532183 -0.072914518 0.019781917
0.013629611 -0.072691262 0.019781917
0.014726304 -0.072498724 0.018745393
0.015923338 -0.072792403 0.018269628
0.017066481 -0.072816983 0.018174231
0.018451599 -0.073806398 0.017328411
0.019370211 -0.072923146 0.016243935
0.020763513 -0.073825821 0.015455842
0.02183597 -0.073552743 0.014916897
0.022965426 -0.073489361 0.013646722
0.024785863 -0.075537868 0.013022363
0.025482679 -0.074131429 0.01202786
0.026592538 -0.073996626 0.010988027
0.027982371 -0.074619651 0.010246038
0.029280555 -0.07495822 0.0094973445
0.030459594 -0.074977465 0.0089651644
0.032276869 -0.076508135 0.0082992613
0.032699857 -0.074742526 0.0071654618
0.034094114 -0.075242184 0.0062194467
0.03525969 -0.075220674 0.0055757463
-0.021554692 -0.07544142 0.0066583753
-0.020137126 -0.07462582 0.0095483363
-0.019064508 -0.075066499 0.011584997
-0.017942224 -0.07535734 0.01315102
-0.016302131 -0.073359586 0.014347762
-0.015256027 -0.07393305 0.016294211
-0.014012024 -0.073563129 0.01684764
-0.012664544 -0.072533302 0.017564893
-0.011704455 -0.073738068 0.017705828
-0.010284864 -0.071994051 0.01880309
-0.0092229247 -0.072630532 0.019021779
-0.0080009876 -0.072008885 0.019045949
-0.0070222463 -0.073733591 0.019104362
-0.0057565062 -0.072531976 0.019543111
-0.0045627235 -0.071862891 0.019126892
-0.0034544407 -0.072543256 0.019649982
-0.0022715854 -0.071554936 0.019825518
-0.0011410995 -0.071889266 0.02001965
0 -0.071479127 0.020513773
0.0011454824 -0.072165392 0.020670235
0.0022715854 -0.071554936 0.02129519
0.0034619281 -0.072700493 0.021240592
0.0045510358 -0.071678817 0.02132988
0.0056956359 -0.071765013 0.02132988
0.0069159702 -0.072617687 0.021504462
0.007950712 -0.071556412 0.021386474
0.0093110539 -0.073324554 0.021204531
0.01036319 -0.072542332 0.021068841
0.011414779 -0.071913108 0.020553619
0.012501887 -0.071601719 0.020527691
0.01390834 -0.073018782 0.020489872
0.015189586 -0.073611073 0.019524783
0.015836233 -0.071263053 0.018884122
0.017248733 -0.072444677 0.018515259
0.018212937 -0.07171344 0.017575443
0.01976594 -0.073250249 0.016377151
0.020561846 -0.071966462 0.015484661
0.02200784 -0.072973363 0.014505535
0.023771331 -0.074879691 0.013858259
0.024226492 -0.072679475 0.012668341
0.025510468 -0.073052704 0.011980563
0.027108023 -0.074252412 0.011224568
0.028240211 -0.07413055 0.010420203
0.029726829 -0.074911609 0.0099392831
0.030712003 -0.074417546 0.0091918111
0.031715803 -0.07400354 0.008054018
0.033456177 -0.07527639 0.007149756
0.034357913 -0.074639603 0.0067128539
0.035313994 -0.074159384 0.006020993
0.036536913 -0.074252434 0.0051530898
-0.021181097 -0.072957113 0.0053203702
-0.020668363 -0.075378738 0.0079510808
-0.018848171 -0.073036663 0.01129061
-0.017309554 -0.07154616 0.013105333
-0.016445821 -0.072831497 0.014803052
-0.014862628 -0.070883304 0.016429782
-0.013923433 -0.07193774 0.017343909
-0.01250163 -0.070463732 0.018154681
-0.011237437 -0.069672108 0.018338799
-0.010815494 -0.074506737 0.019238293
-0.0091219526 -0.070695132 0.01995784
-0.0080754021 -0.071524985 0.019432336
-0.0068727429 -0.071018346 0.019322813
-0.0056547318 -0.070118673 0.019284219
-0.0045713997 -0.07085669 0.019238293
-0.0034180309 -0.070639305 0.019932538
-0.0022535173 -0.069859035 0.020158559
-0.0011201937 -0.069452018 0.020186067
0 -0.070358172 0.02064085
0.0011325531 -0.070218287 0.020911604
0.0022837152 -0.070795171 0.021281987
0.0034087161 -0.070446797 0.021274954
0.0045058918 -0.069841325 0.021212071
0.0056863888 -0.070511222 0.021104753
0.0068698209 -0.070988148 0.021328002
0.0079825073 -0.07070221 0.021714538
0.0090596201 -0.070212059 0.021439314
0.010338896 -0.071223505 0.021030128
0.01149672 -0.07127966 0.021096021
0.012741969 -0.071818367 0.020925999
0.013769345 -0.071141616 0.020875931
0.014676727 -0.0699967 0.019412845
0.01594834 -0.070628367 0.018764228
0.017093265 -0.070652165 0.018462777
0.018287515 -0.070864119 0.017355114
0.019434696 -0.070879474 0.016806662
0.020686246 -0.071252629 0.015562922
0.022065226 -0.072002314 0.015010148
0.023335624 -0.072340436 0.01392591
0.023997501 -0.070849761 0.012764126
0.025740059 -0.072540164 0.012000054
0.026846185 -0.072367974 0.010947973
0.027948063 -0.072199158 0.010467052
0.029208401 -0.072436839 0.0097195804
0.03063257 -0.0730469 0.0086637437
0.031551298 -0.07245113 0.0076267421
0.033232965 -0.073587276 0.0072449148
0.033929493 -0.07253892 0.0065835118
0.035592124 -0.073557056 0.0058761239
0.037232615 -0.07446523 0.005238831
-0.019846849 -0.07121516 0.0071918666
-0.018094288 -0.068984471 0.011594474
-0.016930349 -0.068850085 0.012905896
-0.015799677 -0.06884145 0.015031427
-0.015698519 -0.073662281 0.0173361
-0.013332235 -0.067772195 0.018427521
-0.012621816 -0.069993705 0.01870212
-0.011224332 -0.068468429 0.018916607
-0.01056327 -0.071595497 0.01999402
-0.0097723948 -0.074514508 0.02053684
-0.0079895435 -0.069623165 0.020246476
-0.0068517448 -0.069659404 0.020062923
-0.0058259731 -0.07107687 0.019886881
-0.0045437594 -0.069292329 0.020027906
-0.0035273603 -0.071722992 0.019607693
-0.002325305 -0.070921808 0.019994736
-0.0011740502 -0.071617059 0.019952506
0 -0.069971807 0.02087304
0.0011302083 -0.068942703 0.021100849
0.002270625 -0.069254063 0.021517068
0.0034124607 -0.069386706 0.021395922
0.0046124416 -0.070339739 0.02135998
0.0057148542 -0.069721222 0.021328002
0.0067651668 -0.068779193 0.021714538
0.0081156921 -0.070722453 0.021660209
0.0091509353 -0.069775879 0.021453321
0.010390138 -0.070422046 0.021186441
0.011375905 -0.069393024 0.021274447
0.012689441 -0.070368715 0.021146268
0.013594438 -0.069105066 0.021100163
0.01491288 -0.069975823 0.019750506
0.016257182 -0.070834868 0.019408822
0.017216949 -0.070015587 0.018903732
0.018527493 -0.070636064 0.01772362
0.019489005 -0.069931135 0.017000556
0.020853257 -0.070669368 0.015187144
0.021891361 -0.070282787 0.015155345
0.022833971 -0.069643609 0.013691127
0.024437431 -0.070984922 0.01265651
0.025560247 -0.070871592 0.012005836
0.026751896 -0.070950679 0.011469275
0.028354418 -0.072067477 0.010912389
0.028993515 -0.070744179 0.0096076727
0.030265391 -0.071007267 0.0086526573
0.031450525 -0.071054891 0.007799387
0.033087723 -0.072083965 0.0071849227
0.034497619 -0.072563961 0.0061510205
0.035181534 -0.071535781 0.0053457916
0.037115246 -0.073033221 0.0050199926
-0.019466667 -0.068705879 0.006649524
-0.018054733 -0.067705251 0.009634614
-0.017046615 -0.068186462 0.013214618
-0.016941767 -0.072607577 0.014673054
-0.014520727 -0.06701874 0.018419415
-0.013575722 -0.067878604 0.019310623
-0.012767401 -0.069640361 0.01996398
-0.011622707 -0.06973625 0.020084023
-0.010346532 -0.068976879 0.021109283
-0.0093060285 -0.069795214 0.021273077
-0.0081214178 -0.069612153 0.02057761
-0.0068014711 -0.068014711 0.02035141
-0.0058675166 -0.070410199 0.020018756
-0.0046882993 -0.070324488 0.020060152
-0.0034766567 -0.069533132 0.02005592
-0.0022584917 -0.067754753 0.02005592
-0.0011453949 -0.068723693 0.020216376
0 -0.068658136 0.020567
0.0011805338 -0.070832022 0.021195203
0.0022491135 -0.067473404 0.021472603
0.0034591181 -0.069182366 0.021228522
0.0045704041 -0.068556055 0.021520227
0.0057046236 -0.06845548 0.021645844
0.0069059627 -0.069059633 0.021867812
0.0080024982 -0.068592846 0.021773636
0.0091930209 -0.068947658 0.021665394
0.010175021 -0.067833476 0.021587074
0.011479639 -0.068877831 0.021190464
0.012379677 -0.067525513 0.020576566
0.013555999 -0.067779996 0.020140141
0.015258198 -0.070422456 0.019467264
0.016354689 -0.070091523 0.018818319
0.017820714 -0.071282856 0.018215418
0.018927094 -0.0709766 0.017674774
0.020117279 -0.071002163 0.016565055
0.020682892 -0.068942972 0.015477121
0.021584399 -0.068161257 0.014664322
0.023052197 -0.069156595 0.013794869
0.02423365 -0.069238998 0.012806714
0.025402969 -0.069280826 0.011712909
0.026976248 -0.07037282 0.01128599
0.028034136 -0.070085339 0.010459661
0.029196264 -0.070071034 0.0089632273
0.030885467 -0.071274154 0.0083689094
0.031866305 -0.070814013 0.0075282454
0.032947343 -0.070601448 0.0062856972
0.03458127 -0.071547449 0.0060266256
0.035275273 -0.070550546 0.0052262247
-0.018424021 -0.067938581 0.0090861917
-0.018371569 -0.072261505 0.013025016
-0.015837701 -0.066744596 0.014499605
-0.014376088 -0.065245323 0.018470645
-0.013619742 -0.066963732 0.019763917
-0.012557988 -0.067356482 0.020018727
-0.011160153 -0.065844901 0.020051211
-0.01041136 -0.068252251 0.020574242
-0.0091804974 -0.067706175 0.020763576
-0.0081232572 -0.068467453 0.020521015
-0.007118735 -0.070000894 0.02042973
-0.0058901552 -0.069503829 0.020364463
-0.0046476987 -0.068553552 0.019809484
-0.0034920622 -0.068677224 0.019983262
-0.0023280778 -0.06867829 0.019496202
-0.0011472395 -0.067687124 0.019567192
0 -0.067155503 0.020219952
0.0011567408 -0.068247713 0.020620346
0.0023283213 -0.068685479 0.020991176
0.003450403 -0.067857929 0.020991176
0.0045436746 -0.067019202 0.021401286
0.005684915 -0.067081995 0.021537036
0.0068684351 -0.06753961 0.020542324
0.0079237558 -0.066785946 0.020751119
0.0091454219 -0.067447491 0.021128178
0.010250241 -0.067196034 0.021122098
0.011381176 -0.067148939 0.02087
0.012716044 -0.068204232 0.020672292
0.014204917 -0.069840841 0.020605385
0.015249764 -0.069210462 0.020097107
0.016108692 -0.067886628 0.019529611
0.017126286 -0.067363396 0.018932998
0.018623637 -0.068674661 0.018316478
0.020265585 -0.070333496 0.018024117
0.021064347 -0.069044247 0.015948802
0.021782372 -0.067639999 0.015324652
0.022906564 -0.067574359 0.014305353
0.02415484 -0.067863598 0.01296553
0.025472945 -0.068313807 0.011822164
0.026653655 -0.068372421 0.011246562
0.028520511 -0.070112921 0.0092878044
0.029544774 -0.06972567 0.0087746978
0.030740662 -0.069757655 0.0083205104
0.031797968 -0.06948445 0.0071306229
0.033495728 -0.070580281 0.0066946149
0.034631256 -0.070456691 0.0060457289
-0.018734854 -0.067913845 0.0090206861
-0.017488925 -0.067623839 0.013240308
-0.01550458 -0.064233258 0.015945256
-0.014681667 -0.065502822 0.019613802
-0.013595009 -0.065709211 0.020739585
-0.012334383 -0.065035842 0.02098313
-0.011215637 -0.065050691 0.02081424
-0.010349532 -0.066696979 0.0210329
-0.0091148093 -0.066082366 0.021738112
-0.0080444701 -0.066654183 0.021239221
-0.007006268 -0.06772726 0.020659298
-0.0058436301 -0.067786105 0.02042973
-0.0045787962 -0.066392541 0.019749939
-0.0034330757 -0.066372797 0.019246548
-0.0023237169 -0.067387789 0.018998682
-0.0011414023 -0.066201329 0.018945962
0 -0.06604255 0.019523472
0.0011616866 -0.067377821 0.019664466
0.002324935 -0.06742312 0.020493597
0.0035025156 -0.067715302 0.020285159
0.0045188596 -0.065523468 0.020620316
0.0057525705 -0.066729821 0.020768285
0.0069503556 -0.067186773 0.020076811
0.0079822261 -0.066138439 0.020420581
0.0090772938 -0.065810375 0.020957142
0.010262386 -0.066135377 0.02146396
0.011719847 -0.067975111 0.021147847
0.012893667 -0.06798479 0.021027535
0.014008552 -0.067708001 0.021027535
0.014821757 -0.066127837 0.020494133
0.01603299 -0.066422388 0.019865602
0.017458791 -0.067507327 0.019177824
0.018811787 -0.068192728 0.018508911
0.0198189 -0.067617424 0.017214805
0.020962715 -0.067546524 0.016139209
0.022256553 -0.067941055 0.0150778
0.022791175 -0.066094406 0.014163852
0.02431858 -0.067165598 0.012691617
0.025763564 -0.067922123 0.011479229
0.026761623 -0.067485832 0.0095437169
0.028145829 -0.068019085 0.0088884234
0.029470656 -0.068371922 0.0076926351
0.030622503 -0.068311736 0.0073996782
0.031978846 -0.068695299 0.006557554
0.033450231 -0.069289766 0.0052291453
0.034256428 -0.068512857 0.0051445663
-0.018871302 -0.06722901 0.0085417628
-0.017320981 -0.065819725 0.013951868
-0.016084177 -0.065485582 0.016412109
-0.014810707 -0.064939253 0.020288557
-0.013440119 -0.063840568 0.02098313
-0.012335058 -0.063918032 0.021825165
-0.011224168 -0.063977763 0.0210329
-0.010174157 -0.064436331 0.021949112
-0.0092566237 -0.065953441 0.022334754
-0.0079664672 -0.064869806 0.02134183
-0.0069123735 -0.065667547 0.020559698
-0.0057985811 -0.066103823 0.019705355
-0.0046151155 -0.065765396 0.018348455
-0.0034069505 -0.06473206 0.017803282
-0.0023102027 -0.065840773 0.017803103
-0.0011479235 -0.06543164 0.017981946
0 -0.065792985 0.018479973
0.0011663825 -0.066483803 0.019153744
0.0022813266 -0.065017812 0.020088464
0.003493577 -0.066377968 0.020011514
0.0046204757 -0.065841779 0.02074483
0.0056931968 -0.06490244 0.021122307
0.0069953375 -0.066455707 0.020223528
0.0078718113 -0.064099036 0.021121114
0.009373568 -0.066786669 0.02171731
0.010452068 -0.066196434 0.022260845
0.011553646 -0.065855779 0.022111207
0.012667986 -0.065643199 0.022420764
0.013722177 -0.065180339 0.022295237
0.014772713 -0.064772666 0.021746725
0.016156629 -0.065780565 0.021307349
0.01734381 -0.06590648 0.019984782
0.018266477 -0.065074325 0.018903971
0.019752767 -0.066229865 0.018353909
0.02116766 -0.067030922 0.015667826
0.021914434 -0.065743305 0.015126526
0.023633314 -0.067354947 0.013888925
0.024585685 -0.066732571 0.012208968
0.025276575 -0.065489307 0.011011779
0.026898827 -0.066662312 0.009458065
0.028220404 -0.067023464 0.0081166029
0.029446499 -0.067138016 0.0076165199
0.030872406 -0.067681819 0.0059140325
0.03207422 -0.067712247 0.0054339468
-0.017497195 -0.065322861 0.013892829
-0.016287863 -0.065151453 0.015981197
-0.014654696 -0.06312792 0.020208985
-0.013784243 -0.064326465 0.021236122
-0.012589567 -0.064092338 0.021685988
-0.011189996 -0.06266398 0.021114498
-0.010250309 -0.063779697 0.021518826
-0.0093170293 -0.065219209 0.021541744
-0.0079719778 -0.063775823 0.02135694
-0.0069660847 -0.065016791 0.020266682
-0.0058509619 -0.065530777 0.018400908
-0.0046791951 -0.065508731 0.017968297
-0.0034846154 -0.065046154 0.017552316
-0.0022719353 -0.06361419 0.017487556
-0.0011503571 -0.064419992 0.018201351
0 -0.06567236 0.018651426
0.0011358564 -0.063607961 0.019113451
0.0022626745 -0.063354887 0.019718796
0.0034540917 -0.064476378 0.020103037
0.004599263 -0.064389683 0.020728588
0.0057071857 -0.063920483 0.021183908
0.0067763804 -0.063246213 0.021183908
0.0082700476 -0.066160381 0.022445768
0.0092566023 -0.064796217 0.022870302
0.01031719 -0.064195842 0.023659408
0.011618179 -0.0650618 0.02337569
0.01255071 -0.063894525 0.023531109
0.013723588 -0.06404341 0.02337569
0.014833604 -0.063898601 0.022885054
0.016039798 -0.064159192 0.022241265
0.016913619 -0.063144177 0.020493895
0.01811835 -0.063414223 0.01974234
0.019957624 -0.065742761 0.018220097
0.021110674 -0.06567765 0.016187638
0.022203449 -0.065441743 0.015410781
0.023767181 -0.066548109 0.013388395
0.024304558 -0.064812154 0.011481524
0.025631163 -0.065242961 0.009991467
0.026897389 -0.065489292 0.008754611
0.028252492 -0.065922484 0.0076241195
0.029843256 -0.066848896 0.005653888
-0.017872445 -0.065532297 0.0096214712
-0.016024297 -0.062952593 0.015973836
-0.014939544 -0.063205764 0.017645091
-0.013386523 -0.061354898 0.021462768
-0.012464822 -0.06232411 0.02159071
-0.011192907 -0.061560985 0.021213591
-0.010212373 -0.062408946 0.021422863
-0.0089270631 -0.061373558 0.021422863
-0.0079569705 -0.062519051 0.021297872
-0.0068205371 -0.062521592 0.020237833
-0.0058036991 -0.063840687 0.019055098
-0.0046652681 -0.064147435 0.018511564
-0.0034966513 -0.064105272 0.018058002
-0.0022960405 -0.063141115 0.017630547
-0.0011574754 -0.063661151 0.018494695
0 -0.064207613 0.018640161
0.0011429125 -0.062860191 0.019326508
0.0023451515 -0.064491667 0.020029604
0.0034721571 -0.063656211 0.020259976
0.0046065319 -0.063339815 0.021101922
0.0059529725 -0.065482698 0.021917284
0.0070694806 -0.064803571 0.022375733
0.0081616733 -0.06412743 0.023206174
0.0091917021 -0.063192949 0.024073631
0.010421258 -0.063685469 0.02439633
0.011577272 -0.063674994 0.024372101
0.012772356 -0.06386178 0.024372101
0.013829427 -0.063384876 0.024426669
0.015340939 -0.064903975 0.024006575
0.016007246 -0.062885612 0.023763597
0.017413029 -0.06384778 0.021479815
0.018586716 -0.063891836 0.020451158
0.019561104 -0.063285924 0.01955989
0.021277064 -0.065013252 0.016496152
0.02264503 -0.0655514 0.015336037
0.023297224 -0.064067371 0.013058424
0.024542022 -0.064276725 0.010570675
0.025885269 -0.064713173 0.0098102093
0.026834223 -0.064168796 0.0084988177
0.028646434 -0.065648079 0.0061961412
0.030042257 -0.066092968 0.0050017536
-0.01766945 -0.063610025 0.0071405172
-0.016448643 -0.063444763 0.013465106
-0.015278985 -0.063466549 0.016569555
-0.013614323 -0.061264455 0.019057721
-0.012691094 -0.062301733 0.02021715
-0.011103149 -0.059957001 0.020290554
-0.0099912332 -0.059947398 0.021805704
-0.0090453373 -0.061056025 0.022027463
-0.0079790158 -0.061552405 0.022100866
-0.0069279061 -0.062351156 0.021537691
-0.005764313 -0.062254578 0.019925028
-0.0047115139 -0.063605435 0.019576162
-0.0034386516 -0.061895728 0.018879324
-0.0023648636 -0.063851319 0.018366367
-0.0011466114 -0.061917014 0.018974066
0 -0.061413735 0.019359499
0.001167635 -0.063052289 0.020099461
0.0023311044 -0.062939823 0.021051347
0.0034850852 -0.062731534 0.021543175
0.0046883584 -0.063292839 0.022361875
0.0057749762 -0.062369745 0.022582471
0.0069385078 -0.062446572 0.023260653
0.0080899065 -0.062407847 0.024208665
0.0092753936 -0.062608905 0.025392115
0.010055386 -0.060332313 0.025701135
0.011529583 -0.062259749 0.025645196
0.012736658 -0.062525406 0.025633395
0.01419322 -0.063869491 0.026242614
0.014843505 -0.061657637 0.025648236
0.015779341 -0.060863171 0.025214106
0.017167063 -0.061801426 0.024187863
0.018210392 -0.061460074 0.021849036
0.019017419 -0.060408268 0.020740867
0.021486087 -0.064458266 0.01823619
0.022310529 -0.063408874 0.016140908
0.023816658 -0.064304978 0.013798624
0.024793439 -0.063754559 0.011435717
0.026186122 -0.064275026 0.0096050203
0.027204653 -0.063871793 0.0079520047
0.028342439 -0.063770488 0.0059280694
-0.01670498 -0.063240282 0.010354608
-0.015184456 -0.061905861 0.015533417
-0.013686376 -0.060448162 0.017563611
-0.012627829 -0.060843177 0.019568354
-0.01117171 -0.059210062 0.020451277
-0.010120388 -0.059597842 0.020905197
-0.0090100262 -0.059691425 0.021476269
-0.007856844 -0.059487533 0.021687359
-0.0070045386 -0.061873421 0.021260917
-0.0059262863 -0.062818639 0.020418704
-0.0046899719 -0.062142126 0.019995242
-0.0033895785 -0.059882555 0.019670933
-0.0022334268 -0.059185814 0.018990993
-0.0011550572 -0.061218031 0.01928407
0 -0.061179463 0.020187497
0.001160725 -0.061518423 0.020449996
0.0022922975 -0.060745884 0.021247298
0.003502016 -0.061868951 0.021576732
0.0045388397 -0.060139626 0.023079753
0.0057638846 -0.061097179 0.02330336
0.0070696184 -0.062448297 0.024075985
0.0078841429 -0.059694223 0.025198817
0.0091538243 -0.060644086 0.026170909
0.010308473 -0.060705457 0.026638836
0.011433075 -0.0605953 0.026675433
0.012365811 -0.059580725 0.027204067
0.013475119 -0.059515107 0.027078629
0.014670548 -0.059810698 0.02651611
0.01595206 -0.06038994 0.025744021
0.016953833 -0.059903543 0.025162846
0.017896246 -0.059281316 0.022506982
0.019125635 -0.059626978 0.021232963
0.020615581 -0.06070143 0.019186229
0.022585368 -0.06300129 0.016896993
0.023824748 -0.063135579 0.014443427
0.025253065 -0.063733928 0.011910081
0.026132094 -0.06295459 0.010261923
0.027507806 -0.06338755 0.0076458752
0.028648499 -0.063265435 0.0061039925
-0.016793264 -0.062374983 0.010450602
-0.015340064 -0.061360255 0.013247401
-0.013914067 -0.060294293 0.017169327
-0.012512874 -0.059151769 0.017589897
-0.011196953 -0.058224156 0.018724889
-0.0099703697 -0.057606582 0.019404262
-0.0090970155 -0.059130602 0.020189643
-0.0081308894 -0.060400896 0.021240145
-0.0070420154 -0.061030801 0.020945311
-0.0058301534 -0.060633592 0.020307243
-0.0044636223 -0.058027089 0.019254178
-0.0034668182 -0.060091518 0.019248158
-0.0023160023 -0.060216058 0.019069016
-0.0011711158 -0.060898021 0.019968092
0 -0.060004465 0.020743936
0.0011344252 -0.058990106 0.020978838
0.002291014 -0.05956636 0.021812469
0.0035083229 -0.060810931 0.02284357
0.0044472893 -0.057814758 0.023636997
0.0056732236 -0.059001528 0.024733692
0.0067586377 -0.058574863 0.026023
0.0080024917 -0.05944708 0.026477069
0.0090823909 -0.059035543 0.026619971
0.010207825 -0.058978546 0.027338475
0.011557044 -0.060096633 0.027302086
0.012439154 -0.058803272 0.027601272
0.013702795 -0.059378777 0.027472168
0.014839577 -0.05935831 0.02730307
0.015979737 -0.059353311 0.026590973
0.016964288 -0.058809537 0.026077926
0.018603101 -0.060460079 0.024184376
0.019004973 -0.058132857 0.022566944
0.020205105 -0.058370303 0.020152837
0.022344215 -0.061152589 0.017574728
0.023592852 -0.061341416 0.014089406
0.025445476 -0.063007846 0.011738837
0.02580611 -0.060996264 0.0087425709
0.027591119 -0.062379919 0.0074502826
0.028684311 -0.062149342 0.0064808428
-0.017263517 -0.062888525 0.0053503215
-0.015345124 -0.060200099 0.012576371
-0.013993294 -0.059471499 0.016700476
-0.012501708 -0.057962466 0.017935157
-0.011188617 -0.057061948 0.018464744
-0.010472904 -0.059346452 0.019348562
-0.0094282087 -0.060104832 0.019714713
-0.0081425654 -0.059324406 0.020593733
-0.0068000788 -0.057800673 0.020192116
-0.0059024906 -0.060205407 0.019810528
-0.0045790155 -0.058382448 0.019490838
-0.0035394768 -0.060171105 0.019438773
-0.0023348199 -0.059537906 0.019538522
-0.0011684571 -0.059591308 0.019912988
0 -0.058820568 0.020593733
0.0011434057 -0.058313686 0.021105379
0.0022949574 -0.058521416 0.021779478
0.0035786072 -0.060836323 0.023483783
0.0045548794 -0.058074713 0.025084138
0.0057364078 -0.058511361 0.026017517
0.0069130724 -0.058761116 0.027032435
0.0080743087 -0.05882711 0.027381063
0.0091118068 -0.058087766 0.027666926
0.010194847 -0.057770804 0.028187037
0.011394572 -0.05811232 0.02851218
0.012350237 -0.057260189 0.028952867
0.013733022 -0.058365341 0.02869764
0.01473135 -0.05779222 0.028148562
0.015819702 -0.057628918 0.027117878
0.017008448 -0.057828724 0.026600033
0.017892104 -0.05703108 0.024107575
0.019200962 -0.057602886 0.022291839
0.021142568 -0.059903946 0.020020276
0.021855336 -0.058664322 0.016831815
0.023784477 -0.060650416 0.014273673
0.025246615 -0.061313208 0.011548728
0.026340855 -0.061062891 0.0083546638
0.027709261 -0.061442275 0.0072954595
0.028633794 -0.060846813 0.0060693026
-0.015552846 -0.05981864 0.012694567
-0.013962041 -0.058175169 0.016312331
-0.012995845 -0.059072021 0.017371297
-0.012003476 -0.060017377 0.018510401
-0.010490043 -0.05827802 0.019369274
-0.0091460459 -0.057162784 0.019704968
-0.0080240695 -0.057314787 0.02027145
-0.0069292504 -0.057743754 0.02027145
-0.0058760587 -0.058760587 0.019627482
-0.0046295412 -0.057869267 0.019439936
-0.0035130109 -0.058550183 0.019562215
-0.0022712131 -0.056780331 0.019326299
-0.0011601216 -0.058006085 0.019372046
0 -0.057085823 0.020596892
0.0011486008 -0.057430044 0.021445096
0.0022938887 -0.057347216 0.022622675
0.0034996618 -0.058327697 0.023640692
0.0047126818 -0.058908526 0.025481343
0.0056730891 -0.056730893 0.026774168
0.0067416471 -0.056180395 0.027648509
0.0078858407 -0.056327436 0.028227925
0.0090748621 -0.056717891 0.028183073
0.010303564 -0.057242021 0.029469639
0.011304522 -0.056522608 0.029626369
0.012424106 -0.056473207 0.029636115
0.01382166 -0.05759025 0.029606283
0.01464361 -0.056321576 0.028783053
0.015952934 -0.056974761 0.027759045
0.016919106 -0.056397021 0.026200265
0.017818237 -0.055681989 0.023834586
0.019402038 -0.05706482 0.021906972
0.020811832 -0.057810642 0.01944837
0.021359313 -0.056208719 0.016514152
0.023053033 -0.05763258 0.013405383
0.024872435 -0.059220087 0.0097010434
0.026372036 -0.059936445 0.0076240599
0.028105784 -0.061099529 0.0062682331
-0.016926209 -0.059241727 0.0052650869
-0.015674952 -0.059082516 0.012835473
-0.014056462 -0.057397217 0.015296102
-0.013002648 -0.057920888 0.017272681
-0.011346633 -0.055598501 0.018068075
-0.010146207 -0.05524046 0.018243372
-0.0092884749 -0.056891911 0.018705189
-0.0081132893 -0.056793027 0.019537866
-0.0071794484 -0.058632161 0.019563615
-0.0057935081 -0.056776382 0.01951462
-0.00473003 -0.057942867 0.019341707
-0.0034426295 -0.056229614 0.019094855
-0.0022723232 -0.055671919 0.018675566
-0.0011472061 -0.056213096 0.018674403
0 -0.05739614 0.02021727
0.0011444018 -0.056075692 0.021660537
0.0023123126 -0.056651659 0.022760689
0.00344647 -0.05629234 0.023621589
0.0047146687 -0.057754692 0.026215047
0.0056624538 -0.055492047 0.027315676
0.0068093399 -0.055609606 0.02823481
0.0079259882 -0.055481914 0.02839455
0.0090198163 -0.055246376 0.028796256
0.010089163 -0.054929882 0.030124933
0.011361258 -0.055670165 0.029971242
0.01257298 -0.056006912 0.030119985
0.013557056 -0.055357981 0.029876173
0.014876552 -0.056073159 0.028949469
0.01564768 -0.054766882 0.027714163
0.016814111 -0.054926097 0.026805282
0.018377729 -0.056281794 0.024414063
0.019455994 -0.056079041 0.022726268
0.020865681 -0.056801021 0.018708706
0.022051269 -0.056869064 0.015554756
0.022902185 -0.056110356 0.01332888
0.024582433 -0.05735901 0.0090564787
0.026595889 -0.059236296 0.0067153573
0.027163999 -0.057871129 0.0057475269
-0.015553799 -0.057429414 0.012179404
-0.014305826 -0.057223305 0.014618367
-0.01267688 -0.055317294 0.017300308
-0.011466077 -0.055037167 0.017940551
-0.010604769 -0.056558769 0.018283993
-0.0094176969 -0.056506183 0.018486232
-0.0080407588 -0.055136628 0.019118786
-0.0070156129 -0.056124903 0.018689841
-0.0058419728 -0.056082938 0.018565446
-0.0047361329 -0.056833595 0.018516481
-0.0034856074 -0.055769719 0.018937349
-0.0023582792 -0.056598704 0.01884374
-0.0011596425 -0.055662841 0.019128472
0 -0.055265047 0.01977855
0.0011731153 -0.056309536 0.021700621
0.0023671798 -0.056812316 0.022894681
0.0035423017 -0.056676827 0.024488002
0.004528624 -0.054343484 0.025597274
0.0056670215 -0.054403406 0.027341485
0.0067947065 -0.054357652 0.028622627
0.0079204347 -0.054311555 0.028785765
0.0091187917 -0.054712754 0.029088736
0.010298139 -0.054923411 0.030218691
0.011215595 -0.053834856 0.030549645
0.012680232 -0.055331919 0.030456036
0.013566551 -0.054266203 0.0301117
0.015031802 -0.055502038 0.028886467
0.015790956 -0.054140419 0.027992278
0.017365117 -0.055568371 0.025363773
0.017873844 -0.053621531 0.023599297
0.019698281 -0.055618677 0.022073656
0.020786762 -0.055431366 0.018423855
0.022042025 -0.055685114 0.014688939
0.02313599 -0.055526376 0.010557681
0.024749935 -0.056571282 0.0077148378
0.02681558 -0.058506723 0.005835712
-0.015232126 -0.055069994 0.010104001
-0.013618373 -0.053338632 0.014362097
-0.012847079 -0.054892067 0.015994161
-0.011533655 -0.054208182 0.017878175
-0.010479096 -0.054724172 0.018421322
-0.0093718125 -0.055059399 0.01840499
-0.0081806649 -0.054927323 0.018921793
-0.0070148441 -0.054949611 0.018896818
-0.0058623636 -0.055106219 0.018496424
-0.0046519819 -0.054660786 0.018496424
-0.0035219837 -0.055177744 0.018592179
-0.0023286387 -0.054723009 0.018961042
-0.0011588433 -0.054465633 0.018953979
0 -0.055523138 0.019752443
0.0011406754 -0.053611744 0.02096653
0.0023504645 -0.055235915 0.022254139
0.0034318171 -0.053765137 0.0232113
0.004578582 -0.05379834 0.025277019
0.0057197134 -0.053765308 0.026394218
0.0067291884 -0.052711975 0.028378695
0.0077902367 -0.052305873 0.028525889
0.0090568019 -0.053208712 0.029428095
0.010123083 -0.052864991 0.029827595
0.011433702 -0.0537384 0.029976368
0.012495131 -0.053388286 0.029964
0.013632268 -0.053393047 0.028999597
0.014710104 -0.053182684 0.027844131
0.01634956 -0.054887809 0.025649935
0.017258095 -0.054075364 0.024240762
0.018240184 -0.053580537 0.023257017
0.019694025 -0.054448187 0.019540071
0.020554228 -0.053669371 0.016721606
0.021786189 -0.053892151 0.013610452
0.023652202 -0.055582672 0.0086375475
0.025010632 -0.055976178 0.0057357848
-0.015071932 -0.053331453 0.0091951489
-0.013807601 -0.052929137 0.014418483
-0.01276313 -0.053373087 0.016012847
-0.011674307 -0.053701814 0.01715228
-0.01038791 -0.053093761 0.018342763
-0.0094580203 -0.054383617 0.018403232
-0.008106322 -0.05327012 0.018894017
-0.0070187864 -0.053810697 0.019117475
-0.0057281763 -0.052699223 0.018882841
-0.0046977731 -0.054024391 0.018879831
-0.0035817525 -0.054920204 0.018788129
-0.0023161739 -0.053271998 0.019221038
-0.001169255 -0.05378573 0.019096911
0 -0.053833582 0.019699723
0.001165475 -0.053611849 0.020554036
0.002333123 -0.053661827 0.022251308
0.0035429774 -0.054325655 0.023560882
0.00470265 -0.054080479 0.02432999
0.0057745092 -0.053125482 0.025702477
0.0068428507 -0.052461855 0.026968002
0.0078848563 -0.051814772 0.02709648
0.0090186456 -0.051857214 0.027242541
0.01018329 -0.052047923 0.028284699
0.011557894 -0.053166311 0.028829813
0.012318653 -0.051514365 0.027995348
0.013846359 -0.053077709 0.026895702
0.015044999 -0.053236149 0.025836557
0.016342545 -0.053696938 0.024690509
0.016938934 -0.051946066 0.023875326
0.018804312 -0.054062396 0.020657867
0.019592306 -0.053014476 0.018558264
0.021086778 -0.053888433 0.014434695
0.0225982 -0.054711431 0.0099887848
0.023480225 -0.054004516 0.0053614378
-0.015209501 -0.052648272 0.0081275105
-0.013861462 -0.051980481 0.01409173
-0.012731388 -0.052082952 0.015290946
-0.011898402 -0.053542808 0.016564131
-0.010490855 -0.052454274 0.017824888
-0.0093608117 -0.052654564 0.018509537
-0.008172744 -0.052539069 0.018811077
-0.00707353 -0.053051475 0.018871397
-0.0058829221 -0.052946299 0.018774241
-0.0046818391 -0.052670691 0.0186387
-0.0035833386 -0.053750079 0.018682599
-0.0023422267 -0.052700102 0.019005239
-0.001180148 -0.053106658 0.01895982
0 -0.052113608 0.019369572
0.001163259 -0.052346658 0.020674467
0.0023306424 -0.052439455 0.021721601
0.003578766 -0.053681489 0.022444844
0.004606727 -0.051825676 0.023672342
0.0057326406 -0.051593766 0.023818642
0.0069641601 -0.052231204 0.025317729
0.0079013426 -0.050794348 0.026468754
0.0090921056 -0.051143095 0.026528507
0.010196257 -0.050981287 0.026776254
0.011277302 -0.05074786 0.026745707
0.012453832 -0.050947495 0.026642054
0.014051605 -0.05269352 0.025451005
0.015034424 -0.052042238 0.024775565
0.016311543 -0.052429959 0.0236893
0.017480556 -0.052441668 0.021090925
0.018724054 -0.0526614 0.019520879
0.019876724 -0.052614857 0.017138779
0.021209197 -0.053022992 0.0116947
0.023069931 -0.05463931 0.0054199696
-0.015320839 -0.051855147 0.0062403083
-0.014062239 -0.051561542 0.011747003
-0.013026071 -0.052104283 0.014874429
-0.011597625 -0.051029552 0.016850352
-0.010667255 -0.052151024 0.017694026
-0.0093547339 -0.051451039 0.01777029
-0.0082719782 -0.051995292 0.018410087
-0.0070338566 -0.051581617 0.018313736
-0.0058934521 -0.051862381 0.018290579
-0.0046731913 -0.051405102 0.018039525
-0.0035410039 -0.051934723 0.01819399
-0.0023190011 -0.051018026 0.018536597
-0.0011539629 -0.050774369 0.018737853
0 -0.051882528 0.01927647
0.0011701817 -0.051487993 0.020040125
0.0023318054 -0.051299717 0.021068931
0.0034660099 -0.050834808 0.021735132
0.0046717278 -0.051389009 0.022608548
0.0058373618 -0.051368784 0.022680312
0.0069098528 -0.050672252 0.022747785
0.008124752 -0.051069867 0.024034441
0.0090036029 -0.049519815 0.025215119
0.010389656 -0.050793875 0.02480793
0.011509242 -0.050640669 0.025215119
0.012686825 -0.050747301 0.024793774
0.013876477 -0.050880417 0.022726059
0.014905713 -0.050450105 0.021582872
0.016348686 -0.051381581 0.021618098
0.01735675 -0.050913133 0.020407349
0.018799637 -0.051699001 0.017697871
0.02016725 -0.052197587 0.012346238
0.021238299 -0.051915843 0.0051249862
-0.013889214 -0.049769685 0.011493027
-0.012650898 -0.049453508 0.014647603
-0.01178623 -0.050680786 0.015528768
-0.010649383 -0.050880387 0.017314851
-0.0094729615 -0.050917167 0.017158717
-0.0083528161 -0.051310156 0.01728484
-0.0070563247 -0.050570328 0.017534167
-0.0058722417 -0.050501276 0.017534167
-0.0046874387 -0.050389964 0.017028242
-0.0035621165 -0.051057003 0.017473131
-0.002362465 -0.050793 0.01812166
-0.0011905725 -0.051194619 0.018333673
0 -0.049902193 0.018838614
0.0011699634 -0.050308429 0.019727677
0.0023316126 -0.050129671 0.020899028
0.0035008395 -0.050178699 0.021539062
0.0046698791 -0.0502012 0.022058219
0.0058749854 -0.050524872 0.02213949
0.0070757126 -0.050709274 0.022312582
0.0081897965 -0.050308749 0.022635579
0.0091925375 -0.049409889 0.022657573
0.010371231 -0.049551435 0.022555292
0.011698455 -0.050303355 0.022668511
0.012829239 -0.050150663 0.022608519
0.014035486 -0.050293826 0.021797925
0.015173025 -0.050187699 0.020909876
0.016617773 -0.051040303 0.019305766
0.017847929 -0.051164065 0.017866999
0.019373231 -0.052065559 0.013122618
0.020878125 -0.052809376 0.0057021677
-0.013002422 -0.04964561 0.012885839
-0.01176386 -0.049408209 0.015891463
-0.010452589 -0.04877875 0.016750336
-0.009490666 -0.049825996 0.01649645
-0.0081438338 -0.048863005 0.017595947
-0.0071017952 -0.049712565 0.017175704
-0.0058686757 -0.049296875 0.018084317
-0.0046928772 -0.049275208 0.018021673
-0.0035400391 -0.049560547 0.017736167
-0.0024131103 -0.050675318 0.017921329
-0.0011375431 -0.047776811 0.019190073
0 -0.049894866 0.018926799
0.0011926643 -0.0500919 0.020203561
0.0023250636 -0.048826337 0.020838916
0.0035008942 -0.049012519 0.021289051
0.0046423925 -0.048745118 0.021922469
0.0058266064 -0.048943494 0.022130311
0.0069569354 -0.048698545 0.0223113
0.0082197972 -0.049318783 0.022660971
0.0096203946 -0.050507069 0.022660971
0.010508002 -0.049037341 0.02269572
0.011663282 -0.048985787 0.022452056
0.012695346 -0.048473142 0.02201429
0.014117618 -0.049411662 0.020883441
0.015292892 -0.049407806 0.019482434
0.016835578 -0.050506733 0.018070757
0.018311596 -0.051272467 0.014855504
0.019813178 -0.05200959 0.0083527267
-0.012867779 -0.047961719 0.011264622
-0.011593292 -0.047532499 0.013772905
-0.010750598 -0.04897495 0.016713411
-0.0094692959 -0.048530139 0.016778231
-0.0081315348 -0.047627557 0.017007172
-0.0071227127 -0.048671871 0.017541617
-0.0059982925 -0.049185999 0.017967165
-0.0047043837 -0.048219934 0.017625839
-0.0035874487 -0.049028467 0.017901719
-0.0023584994 -0.048349243 0.018084317
-0.0011498098 -0.0471422 0.018942863
0 -0.047547352 0.019329309
0.0011697487 -0.047959697 0.020056456
0.0023481341 -0.048136745 0.020408511
0.0034733061 -0.047468517 0.021141082
0.0047165784 -0.048344929 0.02191487
0.0058687301 -0.048123587 0.022044599
0.0071362476 -0.048764359 0.02208218
0.0081498846 -0.047735039 0.0224787
0.0095205046 -0.048792586 0.02235043
0.010595882 -0.048270129 0.022641689
0.011673145 -0.047859896 0.021357864
0.012987793 -0.048409048 0.020540237
0.014031448 -0.047940779 0.020295709
0.015548144 -0.049036454 0.017668903
0.016956881 -0.049659435 0.01543951
0.018436983 -0.05039442 0.010035157
0.020175023 -0.051698498 0.0066606998
-0.011523839 -0.046095356 0.011516184
-0.010721554 -0.047651354 0.014022976
-0.0094766412 -0.047383208 0.015793264
-0.0082915956 -0.047380548 0.016819239
-0.0071772416 -0.047848277 0.017077744
-0.0059193545 -0.047354836 0.017230928
-0.0047578108 -0.047578108 0.01727736
-0.0034738656 -0.046318211 0.017911345
-0.0023633852 -0.047267701 0.018155634
-0.0011841427 -0.047365706 0.01854077
0 -0.047143903 0.018753022
0.0011775573 -0.047102291 0.018801659
0.0023604583 -0.047209166 0.019388735
0.0035152058 -0.046869412 0.020401865
0.0046770833 -0.046770833 0.020932019
0.0058876495 -0.047101196 0.021269202
0.0069566565 -0.046377707 0.021724612
0.0081908796 -0.046805024 0.022334397
0.009474203 -0.047371015 0.021748513
0.010555864 -0.04691495 0.021626681
0.011973699 -0.047894794 0.020756125
0.01306695 -0.047516182 0.020049244
0.014117794 -0.047059312 0.018622488
0.015834199 -0.048720613 0.016624123
0.017300747 -0.049430706 0.014473945
0.018513815 -0.049370177 0.0088687241
-0.010608501 -0.045970172 0.011607111
-0.0095444024 -0.046528962 0.013870955
-0.0083457688 -0.046497855 0.015364587
-0.0070426003 -0.0457769 0.016518503
-0.0059461631 -0.046380069 0.017166525
