ply
format ascii 1.0
comment PCL generated
element vertex 1241
property float x
property float y
property float z
element camera 0
property float view_px
property float view_py
property float view_pz
property float x_axisx
property float x_axisy
property float x_axisz
property float y_axisx
property float y_axisy
property float y_axisz
property float z_axisx
property float z_axisy
property float z_axisz
property float focal
property float scalex
property float scaley
property float centerx
property float centery
property int viewportx
property int viewporty
property float k1
property float k2
end_header
0.004424029 -0.014274418 0.0485004
0.005074434 -0.01476556 0.045057289
0.0062439917 -0.014359277 0.049742788
0.0069712596 -0.014741503 0.047519594
0.0076464736 -0.015196752 0.04338311
0.0087109329 -0.014891259 0.043254763
0.0096447542 -0.014924233 0.043345504
0.010119522 -0.016024714 0.046748608
0.011315785 -0.015501058 0.050404876
0.011935491 -0.016160602 0.052394398
0.01287552 -0.01614121 0.051618006
0.013645352 -0.016425909 0.056530468
0.014234279 -0.017113743 0.052296538
0.015193895 -0.016951261 0.058746248
0.015664835 -0.017797226 0.056798212
0.01640122 -0.018156223 0.055422664
0.017796634 -0.017532958 0.050441973
0.018640198 -0.018124565 0.03904108
0.019550379 -0.018373489 0.035972361
0.021161187 -0.018926268 0.037186231
0.022120424 -0.019025186 0.036575716
0.023370685 -0.018685026 0.036616337
0.023909222 -0.019989505 0.025431113
-0.021977233 -0.0056818277 0.031762257
-0.020854823 -0.0067345179 0.034027912
-0.02018458 -0.0066625071 0.031933922
-0.019768393 -0.0066270987 0.026841927
-0.017095333 -0.0077137398 0.037352402
-0.016798247 -0.0073833098 0.030409267
-0.014465746 -0.0081575699 0.048511948
-0.013276855 -0.0082278969 0.052868146
-0.012326102 -0.0086829457 0.054677546
-0.011547755 -0.0093369558 0.054584123
-0.010533004 -0.0088109709 0.056381918
-0.010043502 -0.0094535071 0.052305073
-0.0093005709 -0.0096722888 0.051109053
-0.0082030576 -0.0094555514 0.054371532
-0.0077098543 -0.010306818 0.050574392
-0.0075881574 -0.0099528432 0.037502285
-0.0062158238 -0.0096991584 0.044838089
-0.0053131501 -0.010839052 0.048776992
-0.0047183372 -0.011151848 0.044725031
-0.0036048363 -0.010831697 0.047868568
-0.0030823823 -0.011624505 0.04403092
-0.0019742555 -0.01130463 0.047052428
-0.00112385 -0.011407772 0.046628904
-0.00062693155 -0.012759369 0.045557294
0.0003263129 -0.012496362 0.045278147
0.0016791583 -0.011901634 0.052919727
0.0020483336 -0.012853487 0.045994282
0.0029210839 -0.012758475 0.043943133
0.0037774236 -0.013344541 0.048639033
0.0044670403 -0.013744242 0.045764197
0.0055218562 -0.013389666 0.046313107
0.0064059505 -0.013546878 0.047335628
0.0069536483 -0.014247439 0.041839417
0.0080210473 -0.014135888 0.047463574
0.0085682068 -0.01498976 0.046026364
0.0096684555 -0.014631948 0.047814995
0.010594857 -0.014558723 0.042585563
0.011385942 -0.014907879 0.042769831
0.011999427 -0.015632017 0.047555741
0.013013192 -0.015471616 0.051901132
0.013556943 -0.016224368 0.052617971
0.01481384 -0.01555321 0.056725599
0.015269302 -0.016458485 0.054815307
0.015976366 -0.016778532 0.058391899
0.017054057 -0.016586145 0.05539811
0.017752174 -0.017065961 0.05297447
0.018477349 -0.017610449 0.047607828
0.02000168 -0.017194271 0.034800403
0.021254305 -0.01786291 0.0096283387
0.021951318 -0.018594699 0.0063548293
0.022543401 -0.017928019 0.035372432
0.023134651 -0.018502666 0.036221936
0.023807624 -0.018810991 0.039404795
-0.021460798 -0.0055340403 0.034358062
-0.020677997 -0.0055572568 0.033492237
-0.019826427 -0.0055963318 0.033281349
-0.019329077 -0.0060615996 0.018932898
-0.017204737 -0.0060358043 0.033138633
-0.015329443 -0.0071176453 0.045470383
-0.013890564 -0.0073614595 0.052859604
-0.01298988 -0.0080322018 0.054150291
-0.012405614 -0.0080306381 0.050904706
-0.011077315 -0.0079416744 0.057317879
-0.010632457 -0.0084862104 0.052595153
-0.010139084 -0.0089581599 0.048269063
-0.0088277627 -0.0086003505 0.054391477
-0.0086791115 -0.0089179603 0.044254772
-0.0079196785 -0.0091260197 0.04288372
-0.0068314904 -0.0092914635 0.046726614
-0.0061344393 -0.0096598966 0.044729948
-0.0051667383 -0.0099222809 0.047135327
-0.0042276797 -0.0098147849 0.047864288
-0.0034873383 -0.010280276 0.046979543
-0.002830266 -0.010309189 0.042407792
-0.001700548 -0.010585255 0.048757855
-0.0010642391 -0.011176177 0.046389475
-0.00021423551 -0.011231414 0.045712985
0.00070719968 -0.01143485 0.047743805
0.0013153716 -0.012077653 0.044971157
0.0025092284 -0.011509561 0.048450403
0.0033828905 -0.011652545 0.048861321
0.0039404086 -0.012510449 0.046619773
0.0047722198 -0.012649791 0.045518763
0.005912215 -0.012156051 0.04737813
0.006396994 -0.013279725 0.04665583
0.0073772823 -0.013032167 0.044836149
0.0083761811 -0.013068634 0.050026283
0.0088151591 -0.014080189 0.045648351
0.010031467 -0.01342792 0.046127316
0.010499858 -0.01449459 0.047202047
0.011256105 -0.014818274 0.04301399
0.012520435 -0.014141453 0.041676901
0.013061717 -0.014988302 0.044193938
0.014078924 -0.014814238 0.051243477
0.014915267 -0.014990296 0.052952364
0.01553443 -0.015586926 0.05238859
0.016671807 -0.015104298 0.058464818
0.017047688 -0.016187545 0.053983659
0.017527647 -0.016972041 0.053611632
0.018672284 -0.016552469 0.05567066
0.019692549 -0.016921749 0.042030048
0.021000484 -0.016945979 0.028646711
0.022563357 -0.017967496 0.022636861
0.023182048 -0.017801054 0.038170356
0.024315212 -0.017523285 0.039961964
0.025340723 -0.018326042 0.025365382
-0.02266852 -0.0039104978 0.028717818
-0.021362061 -0.0045128684 0.032979708
-0.020123273 -0.0038815807 0.03709954
-0.021096636 -0.005406619 0.01666761
-0.018038999 -0.0050511286 0.030943692
-0.016643485 -0.0065044444 0.037353262
-0.014440415 -0.0063835382 0.053532109
-0.013465532 -0.0063139554 0.055243529
-0.012696612 -0.0070322761 0.054943789
-0.011921826 -0.0065274015 0.053690713
-0.011163159 -0.0076176729 0.053750899
-0.010483476 -0.007861929 0.05185936
-0.0095859906 -0.0069113481 0.051099394
-0.0095421253 -0.0077101476 0.040331926
-0.0081929183 -0.008200272 0.048528828
-0.0073321536 -0.0081736753 0.048401192
-0.0071308808 -0.0092104655 0.040052187
-0.0059878407 -0.0090860119 0.044177722
-0.0047054812 -0.0084096324 0.049143746
-0.0040254155 -0.0092621129 0.048530199
-0.0034660441 -0.009903701 0.044934597
-0.0024492049 -0.0094271004 0.045442723
-0.0015719705 -0.010314994 0.049651723
-0.00076278718 -0.0099859508 0.04615099
-0.00010695437 -0.010815287 0.045631576
0.0006664691 -0.011010014 0.043937113
0.0017249649 -0.010873605 0.047162961
0.0024924213 -0.011273742 0.046848428
0.003227371 -0.011746607 0.046354312
0.0042905593 -0.011351539 0.047334671
0.0050830632 -0.011683541 0.047200091
0.005785862 -0.012202231 0.046252374
0.0071863709 -0.011253774 0.052277565
0.0071707214 -0.013291214 0.044929095
0.0081636142 -0.013095169 0.044851433
0.0092101302 -0.012867416 0.046837792
0.0099994475 -0.013195697 0.047164988
0.011018762 -0.013006838 0.047841791
0.011975876 -0.012984538 0.049700778
0.012185263 -0.014477236 0.04491986
0.013333894 -0.014045819 0.047517005
0.013773652 -0.015048932 0.043774594
0.014924205 -0.014588241 0.050219607
0.015521315 -0.015214017 0.050712436
0.016869454 -0.014342948 0.057136193
0.016902832 -0.016010989 0.053573638
0.018563287 -0.01465145 0.057367459
0.019098323 -0.015304397 0.058209568
0.019830577 -0.015827604 0.052843109
0.021428991 -0.015348021 0.038957659
0.023995545 -0.016933765 0.020797802
0.02430284 -0.017080817 0.03850041
0.025139851 -0.017488111 0.035448086
-0.021836126 -0.003784406 0.034503069
-0.021027379 -0.0034369729 0.034080915
-0.020968221 -0.0045184446 0.025112839
-0.017483259 -0.0046831323 0.034713902
-0.015223745 -0.005438576 0.051401645
-0.014282128 -0.0055708736 0.052761387
-0.013226757 -0.0061903503 0.05590567
-0.012447471 -0.0059339041 0.055088226
-0.012008228 -0.0064718947 0.050370544
-0.01084017 -0.0062988568 0.054556996
-0.010408601 -0.0066532386 0.049268831
-0.010141122 -0.0067179948 0.04084364
-0.0090854503 -0.0078930808 0.045672782
-0.0078137936 -0.0069341697 0.05002531
-0.0070494413 -0.0072954921 0.049244262
-0.0065556006 -0.0078466674 0.044470429
-0.0054623424 -0.0077522676 0.047896318
-0.0046276269 -0.0080336053 0.048069712
-0.0040663444 -0.0087634856 0.044833615
-0.002784451 -0.0078623341 0.048902325
-0.0023099117 -0.0090547381 0.045878679
-0.0012760006 -0.0090281628 0.048906352
-0.00070152257 -0.0094459038 0.044171512
0.00019524829 -0.0097669456 0.046199635
0.0012973314 -0.0092746057 0.047989413
0.0018764432 -0.0099645024 0.044644706
0.0027034502 -0.010141933 0.04387008
0.0032779127 -0.011091975 0.042768728
0.0046039 -0.010182726 0.046683118
0.0051639881 -0.01119758 0.046497226
0.0061486261 -0.010939149 0.045726471
0.0068398076 -0.011630973 0.047080684
0.0074726949 -0.012228513 0.044518556
0.0087213553 -0.011491941 0.046516664
0.0095557757 -0.011831172 0.049818441
0.010021081 -0.012762917 0.0449889
0.011170352 -0.012338202 0.048587542
0.01164745 -0.013264596 0.04421971
0.012975663 -0.012456307 0.046634626
0.013485542 -0.013346548 0.045818366
0.014257744 -0.013692303 0.043392986
0.015088956 -0.013943858 0.040774934
0.015917677 -0.014063733 0.050104361
0.016616855 -0.01443822 0.053540722
0.017624073 -0.014359523 0.051016942
0.018544752 -0.01421642 0.057994395
0.018909045 -0.015340671 0.05250309
0.02023403 -0.014406837 0.061321467
0.020493621 -0.015850862 0.051658761
0.022830948 -0.014872103 0.023157645
0.024502018 -0.01665709 0.030743364
0.025646769 -0.016212841 0.035740212
-0.021626236 -0.0028879871 0.034258045
-0.021079581 -0.0031322856 0.030848842
-0.019543953 -0.0034071864 0.018470487
-0.016209101 -0.0038735676 0.04684025
-0.014890341 -0.0042863335 0.052602135
-0.014147082 -0.0052004135 0.051926415
-0.013151847 -0.0051333238 0.053927176
-0.01231686 -0.0051585659 0.053960044
-0.011743834 -0.0059888498 0.051284369
-0.010925057 -0.0054985229 0.050396021
-0.010623334 -0.005923559 0.043232508
-0.009464683 -0.0063284165 0.048130989
-0.0087662088 -0.0059019965 0.044922501
-0.0079988893 -0.0072402083 0.046122268
-0.0073171025 -0.0072137602 0.043157
-0.0058258921 -0.0062326631 0.050800651
-0.0053396644 -0.0075044641 0.047939803
-0.004629327 -0.0077175582 0.045770187
-0.0034998222 -0.0073217936 0.049014643
-0.0030515706 -0.008224953 0.044284344
-0.0022981386 -0.0084180003 0.042447694
-0.0011905923 -0.0080551021 0.045211531
-0.00053230894 -0.0085811121 0.042784043
0.00047931442 -0.0084379902 0.044522204
0.0011412021 -0.0090203797 0.04244557
0.0019409615 -0.0096280156 0.044337332
0.0029046475 -0.0093296235 0.043489471
0.0034428218 -0.010728781 0.045741696
0.004523132 -0.010083365 0.04474723
0.0055512786 -0.0098845484 0.046520784
0.0062118531 -0.010459992 0.044539221
0.0073469914 -0.01015918 0.049284156
0.007914653 -0.010911494 0.04629349
0.0087877223 -0.011068717 0.047241125
0.0093559232 -0.011721296 0.04150106
0.010602875 -0.011204572 0.049291968
0.011196223 -0.011881219 0.045724154
0.012056403 -0.012051245 0.04660077
0.01294002 -0.01214974 0.045706704
0.013518719 -0.012891637 0.045248099
0.014876105 -0.012062909 0.042194523
0.015450598 -0.012778357 0.047336884
0.016304633 -0.01303663 0.040478639
0.017047163 -0.013262923 0.051412847
0.017998911 -0.013198044 0.053551223
0.018376946 -0.014163472 0.054074168
0.019483026 -0.013793241 0.056702331
0.020097645 -0.014344068 0.056129765
0.020573184 -0.015145604 0.054494508
0.021916697 -0.014871649 0.045455061
0.023443323 -0.01556778 0.010141349
0.025528414 -0.015477082 0.013658201
0.025275934 -0.01625872 0.03459613
0.026785247 -0.016152721 0.024000458
-0.023766166 -0.0012301723 0.01906619
-0.021785518 -0.0021105981 0.030100269
-0.017527785 -0.0033318645 0.038844939
-0.015720885 -0.0035270983 0.050023913
-0.014459211 -0.0037648492 0.055221099
-0.013458289 -0.0037152197 0.057321381
-0.012865566 -0.0038039356 0.054391403
-0.012227123 -0.0048788507 0.052730519
-0.011452919 -0.0047383979 0.051763836
-0.010976599 -0.0046278872 0.046564121
-0.010310384 -0.0056552668 0.045304395
-0.0093039563 -0.0054117544 0.047075212
-0.0087440386 -0.005774111 0.043218289
-0.0077132983 -0.0065478561 0.047412395
-0.0066417055 -0.0055331644 0.048379947
-0.0061025652 -0.0065901587 0.045696795
-0.0050668591 -0.0064437343 0.048115596
-0.0042270459 -0.0061043813 0.046347942
-0.0035382872 -0.0070150127 0.046086408
-0.0027670413 -0.0069691921 0.043718655
-0.0019970292 -0.0072994754 0.042735066
-0.0011666501 -0.0077957772 0.043897066
-0.00050494564 -0.0082457922 0.04121298
0.00061830808 -0.0080778943 0.045569193
0.0011839187 -0.0088605788 0.042684853
0.0022401998 -0.0087645566 0.046230357
0.0029821824 -0.0092725065 0.046230633
0.0036704657 -0.0095752552 0.042736154
0.0048148381 -0.0092907576 0.047628567
0.0055264505 -0.0096450187 0.045043003
0.0062211412 -0.01016494 0.043829549
0.0073438431 -0.0097119678 0.045693576
0.0082746828 -0.0097225187 0.046438918
0.0089210123 -0.010380171 0.045570727
0.0097728772 -0.010541421 0.045252759
0.010666893 -0.010605221 0.04471818
0.011434585 -0.010995584 0.045325894
0.012507027 -0.010703249 0.04614858
0.012926979 -0.011813865 0.046282724
0.014048916 -0.01142659 0.047765266
0.014931996 -0.011539874 0.047385339
0.015474862 -0.01234265 0.044309732
0.016532559 -0.012129907 0.044683523
0.017593127 -0.011911028 0.046346311
0.017772095 -0.013277918 0.048129193
0.018724263 -0.01317421 0.05169576
0.01958615 -0.013204482 0.055366296
0.020261504 -0.013627647 0.055690706
0.021209026 -0.013598965 0.055957802
0.022102173 -0.013574272 0.058541629
0.023147427 -0.014652913 0.029485803
0.025033716 -0.014318371 0.0080885524
0.025845574 -0.014848883 0.035684492
0.026944069 -0.014960703 0.031442262
-0.022774896 -0.00026412867 0.026796633
-0.021423079 -0.0010410468 0.031490568
-0.019480437 -0.0016110956 0.023864672
-0.016200233 -0.0016943463 0.051361084
-0.015364002 -0.0029558397 0.0516661
-0.014360433 -0.0031417508 0.053831499
-0.013520001 -0.0027505357 0.053740736
-0.012816347 -0.0036201852 0.0526715
-0.01202427 -0.0036149437 0.052093703
-0.01156506 -0.0033983197 0.04670921
-0.010955031 -0.0043895408 0.044523533
-0.010321862 -0.0050698454 0.04232781
-0.0088660484 -0.0039176662 0.049082551
-0.0083689578 -0.0048277313 0.045283228
-0.0069567114 -0.0042445045 0.052534781
-0.0063496372 -0.0050795213 0.050441224
-0.0058464846 -0.0057665389 0.046282895
-0.0048028333 -0.0054211346 0.048249651
-0.0040144771 -0.0056206677 0.047364268
-0.0033344501 -0.0059473547 0.044829629
-0.0023212894 -0.0055151614 0.045491174
-0.0018367397 -0.0073362011 0.045557659
-0.00064770435 -0.0066907606 0.048942916
6.9886213e-05 -0.0066704415 0.045000684
0.0006093175 -0.0079417089 0.044474974
0.0017601234 -0.0071335374 0.045396362
0.0024461127 -0.0080106203 0.04644325
0.0031834603 -0.0083973156 0.045276642
0.0043144776 -0.0075918608 0.044542268
0.0048457636 -0.0087149404 0.044086739
0.0056772283 -0.0087951971 0.042270962
0.0068545984 -0.0084963823 0.048446059
0.00746636 -0.0091308635 0.045530837
0.0082549248 -0.0094111366 0.044509657
0.0093545467 -0.0091587445 0.048968296
0.0099580325 -0.0096888561 0.042453289
0.010863076 -0.0098931864 0.047059305
0.011729441 -0.010000852 0.045828551
0.012483162 -0.010424975 0.047490209
0.013196616 -0.010816566 0.040868364
0.014021411 -0.011105271 0.047880791
0.014787962 -0.011437723 0.044361036
0.015986849 -0.010901025 0.050361279
0.016694458 -0.011391996 0.045560539
0.017405098 -0.011844925 0.045110792
0.018153956 -0.012198702 0.045807835
0.019317221 -0.011611558 0.055034611
0.019731615 -0.012600197 0.051931869
0.020988647 -0.011959571 0.055589523
0.021235917 -0.013227396 0.051968336
0.022040129 -0.013220163 0.058016352
0.02342416 -0.012923747 0.048345931
0.024032144 -0.013870146 0.039554987
0.025727013 -0.01414631 0.011903219
0.026609322 -0.013359865 0.032680698
0.026559405 -0.01475783 0.035142113
-0.022237316 -0.00019906508 0.029543743
-0.021598402 0.00079845777 0.027415067
-0.020500917 -3.6231242e-05 0.019790096
-0.018148959 -0.00084508839 0.036220379
-0.01579372 -0.0018412499 0.053636909
-0.015475517 -0.00177183 0.047593147
-0.014120242 -0.0020094074 0.05392018
-0.013122858 -0.0021984738 0.056085814
-0.01260414 -0.0029492013 0.052675992
-0.012163417 -0.0032679827 0.047806852
-0.011906654 -0.0030159354 0.039563756
-0.010373665 -0.0024778845 0.048049077
-0.0096690468 -0.003438249 0.047237981
-0.0088722296 -0.0039705839 0.047242012
-0.007914762 -0.0039954213 0.048795842
-0.0071583921 -0.0040142001 0.04720068
-0.0066638552 -0.0046561933 0.042720862
-0.0056984774 -0.0046591256 0.044244878
-0.0048486567 -0.0049879523 0.044790499
-0.0038357945 -0.004760053 0.046463236
-0.0028757802 -0.0045532505 0.047145717
-0.0023067473 -0.0053389403 0.044168688
-0.0013025138 -0.0055920677 0.047730722
-0.00019652396 -0.0049677086 0.049274154
0.00028991408 -0.0062299664 0.047241934
0.0012792491 -0.0058503533 0.0472316
0.0017806892 -0.006769327 0.043600943
0.0027864352 -0.0069089485 0.047555182
0.0035871016 -0.0069360533 0.045027703
0.0043430915 -0.007230625 0.043234259
0.0051130699 -0.0077890516 0.044628996
0.0062758173 -0.0072206473 0.046808336
0.0070076259 -0.0076578446 0.045675252
0.0075943307 -0.0083980849 0.043099441
0.0086329319 -0.0081859753 0.044914622
0.009310591 -0.0087876096 0.044424213
0.010330189 -0.0085865762 0.045292523
0.011005321 -0.0091269976 0.043256819
0.011875526 -0.0093032336 0.044546649
0.012500204 -0.0099487407 0.04224202
0.013620128 -0.0095686251 0.043384396
0.013999497 -0.010756373 0.044363622
0.015302806 -0.010006024 0.047052596
0.016270094 -0.0099635422 0.045371756
0.016743507 -0.010896435 0.043959435
0.017884038 -0.010513261 0.045924429
0.018142408 -0.011917012 0.038412381
0.018845599 -0.012195288 0.046518911
0.020044398 -0.011656877 0.05019984
0.020550406 -0.012414444 0.049700327
0.021697242 -0.012003951 0.05197224
0.022676246 -0.011710782 0.058606427
0.022823919 -0.013269559 0.050843433
0.024589708 -0.012745296 0.034154583
0.026039014 -0.012308038 0.029348087
0.026374368 -0.01324976 0.03091564
0.027166776 -0.013267348 0.036793064
-0.021964271 0.0016952665 0.030305441
-0.021216573 0.00053774985 0.028605003
-0.019587815 0.000986767 0.027244559
-0.016746985 -0.00014585955 0.049541563
-0.015795376 -0.001464077 0.051135104
-0.014610663 -0.0010729877 0.055269562
-0.014056819 -0.0018008985 0.05229336
-0.013285609 -0.0017283484 0.051511925
-0.01244616 -0.0010333857 0.050976694
-0.012314295 -0.0020555772 0.042493273
-0.011240593 -0.0016087259 0.044851314
-0.010392802 -0.002551045 0.045874063
-0.0095373727 -0.0025327692 0.045798235
-0.0086330678 -0.0025524227 0.046430323
-0.0077410629 -0.0030980238 0.047912613
-0.0070240283 -0.0036351546 0.046828788
-0.0060779629 -0.0029954622 0.04653449
-0.0053587048 -0.0039129211 0.046467632
-0.0046130749 -0.0041866503 0.045113623
-0.0034353579 -0.0038745292 0.049530901
-0.0030062236 -0.004586325 0.043779686
-0.0021647103 -0.004884827 0.044197842
-0.0011925767 -0.0049838321 0.04646714
-0.00036640372 -0.0051354761 0.045983199
0.00051523559 -0.0052050278 0.046209708
0.001401552 -0.0051497286 0.045682538
0.0019167897 -0.0063741184 0.044542249
0.0030633016 -0.005813614 0.04699241
0.0038784607 -0.0059781559 0.045974799
0.0042581018 -0.0074589527 0.044185985
0.0054870457 -0.0064657941 0.044358801
0.0061176019 -0.0071876505 0.04301909
0.0069514234 -0.0074752159 0.04389549
0.0080226641 -0.0070552179 0.044014331
0.0087802764 -0.0076027289 0.046063419
0.0094370395 -0.0081935013 0.044502109
0.010345879 -0.0080775153 0.040770929
0.011294862 -0.008194047 0.045449983
0.011837444 -0.0090254387 0.043163043
0.013110129 -0.0083268723 0.046740312
0.013677155 -0.0091199214 0.046390422
0.014452109 -0.0094349701 0.044403028
0.015598804 -0.0090167532 0.048185982
0.016184669 -0.0097321831 0.044511616
0.017232947 -0.0095323119 0.04479041
0.017914392 -0.01001641 0.047024369
0.018501302 -0.010715575 0.044709109
0.019453023 -0.010708236 0.04488441
0.020623351 -0.01014261 0.052547809
0.021133812 -0.010954557 0.050234672
0.022086341 -0.010861153 0.052992888
0.022364216 -0.011864694 0.055303082
0.023252599 -0.011979606 0.054288011
0.024681181 -0.011698853 0.043316014
0.025374282 -0.012734732 0.030221477
0.026616585 -0.012367601 0.030718751
0.02750086 -0.012182923 0.038102347
-0.021667963 0.0021617832 0.030762443
-0.021221664 0.001299975 0.025976166
-0.020611836 0.0022643567 0.02315251
-0.019166159 0.0011758949 0.029272731
-0.016543422 4.3182168e-05 0.049366936
-0.015447835 0.00013494398 0.052418396
-0.014485888 -0.00068347878 0.05428515
-0.013997538 -0.00085909967 0.050244395
-0.012955042 -0.00058061257 0.0526595
-0.012160168 -0.00063716015 0.052142378
-0.011819489 -0.00068341615 0.04551154
-0.011216557 -0.00089842617 0.042242087
-0.010182799 -0.0017227128 0.045682665
-0.009421397 -0.001475245 0.043871365
-0.0083333803 -0.0013436584 0.046867393
-0.0078567173 -0.002373474 0.042926971
-0.0065673627 -0.0016228691 0.047812581
-0.0060731014 -0.0025946116 0.044053674
-0.0053832848 -0.0028918101 0.041712258
-0.0041821296 -0.0030083412 0.047686532
-0.0035905894 -0.003167659 0.043041222
-0.0024439935 -0.0034404998 0.049048483
-0.0017205193 -0.0032855994 0.045307312
-0.0008635819 -0.0038117275 0.047078703
-0.00015322375 -0.0041299947 0.044883285
0.00086582382 -0.0038843628 0.046330277
0.001224692 -0.0051677176 0.041516662
0.0023418735 -0.0048787971 0.045039374
0.0031285195 -0.0051810476 0.044341866
0.0039310418 -0.0057698153 0.046590026
0.0049247341 -0.004995638 0.042029552
0.0058498569 -0.0057549449 0.050453197
0.0063946573 -0.0062132804 0.043331783
0.0073131323 -0.0062119737 0.043466881
0.0081542432 -0.006621615 0.046577837
0.0089910002 -0.0065654465 0.041868191
0.0098792966 -0.0067357118 0.043228138
0.010725133 -0.0071166921 0.047621526
0.011548281 -0.007305441 0.046265207
0.012235556 -0.0078200195 0.044736397
0.013110356 -0.007937246 0.044432525
0.01387475 -0.0082703233 0.041721005
0.014734598 -0.0084733106 0.045154054
0.015454881 -0.008920948 0.045895256
0.016671721 -0.0083613945 0.044878654
0.017269649 -0.0090495367 0.04465241
0.017517157 -0.010384131 0.04384451
0.019114727 -0.0091822967 0.04301817
0.019915987 -0.0095307054 0.040112026
0.020309377 -0.010372059 0.047220215
0.021634821 -0.0095759323 0.052636229
0.021787371 -0.010857232 0.054205697
0.022835441 -0.010640787 0.055108942
0.023995258 -0.010347293 0.053705204
0.024936756 -0.01054603 0.049447779
0.025964048 -0.011353228 0.029442608
0.02696139 -0.011502893 0.026948113
0.027621392 -0.011579247 0.036045644
0.029573044 -0.011458947 0.013207532
-0.021724179 0.0028020237 0.027577827
-0.020791685 0.0029434795 0.028201735
-0.020568382 0.0024737627 0.020889327
-0.018168217 0.0016026548 0.037858255
-0.016038291 0.0013052723 0.052542198
-0.015505163 4.9740309e-05 0.049375575
-0.014420956 0.00088271941 0.052098662
-0.013570156 0.00060305884 0.052419446
-0.012816554 -1.7661136e-05 0.051789571
-0.012585534 0.00016240473 0.043746859
-0.011593634 -0.00018360093 0.0458638
-0.011146792 -0.00085140462 0.041063096
-0.0098319435 -0.00061848224 0.047081705
-0.0091441125 -0.0011228253 0.045413353
-0.0081632677 -0.0012320797 0.047391236
-0.0076777274 -0.001057931 0.041217156
-0.0066646105 -0.0016986865 0.044819172
-0.0057088453 -0.0019436955 0.046847552
-0.0050809546 -0.0016378418 0.041826688
-0.0040792874 -0.0022694129 0.045865662
-0.0035023927 -0.0027283372 0.041958898
-0.0024571689 -0.002486981 0.044061061
-0.0018148546 -0.0030578789 0.041602779
-0.00090087997 -0.0031041044 0.042260114
0.00022409367 -0.0029144399 0.046260975
0.00075609877 -0.0039186035 0.043768048
0.0018222313 -0.0033917816 0.044551089
0.0026640245 -0.0037952801 0.045837604
0.0034706285 -0.0041319611 0.045923196
0.0040070275 -0.0050073625 0.04301643
0.0049725678 -0.0048478353 0.043387048
0.0057254462 -0.0053643608 0.043800883
0.0070825294 -0.0040757237 0.044175748
0.007803903 -0.0049081864 0.047566961
0.0082366653 -0.0060438071 0.044666681
0.0092834812 -0.0056954846 0.044727046
0.010106036 -0.0061496976 0.048866466
0.010909788 -0.0062150015 0.043746129
0.012038662 -0.0058051744 0.045707908
0.012019143 -0.0078887492 0.040684629
0.013189252 -0.0074250121 0.044747204
0.01437488 -0.0068523041 0.043926589
0.014799049 -0.0079492154 0.04313425
0.016225532 -0.0069492278 0.045471299
0.016603287 -0.0080987383 0.046514478
0.017422847 -0.0083507923 0.04325005
0.018539093 -0.0080114789 0.045319065
0.019242659 -0.0084732007 0.045576625
0.019782728 -0.0092488257 0.044083357
0.021184474 -0.008364806 0.048115451
0.021263395 -0.0098179802 0.050475545
0.022037344 -0.010088434 0.050763167
0.02313854 -0.009741283 0.053288702
0.02367186 -0.010372188 0.054098397
0.024587328 -0.010455569 0.05302766
0.026292881 -0.010402211 0.027721655
0.027927708 -0.009774182 0.021538649
0.027534077 -0.011442427 0.030673694
0.029626185 -0.010776727 0.013823614
-0.021355873 0.0039787837 0.029041031
-0.020780737 0.0036192718 0.025686249
-0.020558601 0.0035818815 0.018323764
-0.017207514 0.0026026503 0.046116121
-0.01589236 0.001708908 0.051725086
-0.015174929 0.0012859334 0.050530069
-0.014177894 0.0018060948 0.052296109
-0.013497258 0.00084592006 0.050909027
-0.012702925 0.00076299976 0.050445952
-0.012498308 0.0011511724 0.041789137
-0.011466282 0.00045674155 0.044765636
-0.010380116 0.00064464845 0.047675807
-0.0094731627 0.00036693783 0.048766781
-0.0090885097 -0.0011159924 0.044338502
-0.0080509782 0.00038172631 0.044246793
-0.0075280825 -0.00075825187 0.041176602
-0.0064659016 -0.0010595802 0.044881344
-0.0056372667 -0.001018572 0.044097863
-0.0049419994 -0.0015061869 0.042424601
-0.0040456178 -0.0013661213 0.042272739
-0.0029465873 -0.0012620476 0.045828052
-0.0022615343 -0.0016518224 0.04352944
-0.0015041663 -0.0021912367 0.04321995
-0.00072318385 -0.0023220677 0.041570392
0.00022918754 -0.002856853 0.045617782
0.0009674154 -0.0029047721 0.042473666
0.0020078083 -0.0029547848 0.046230897
0.0024495476 -0.004214501 0.043598399
0.0035851477 -0.0034385095 0.044134799
0.0043808427 -0.0039587291 0.045542493
0.0050436035 -0.0043417597 0.041953743
0.0061602425 -0.0040124217 0.045269646
0.0069425898 -0.0043713432 0.045044228
0.0076741306 -0.0047973027 0.043862864
0.0088534541 -0.0044031423 0.049007416
0.0092836255 -0.0053246645 0.042619035
0.010314047 -0.005213839 0.046077114
0.011263905 -0.0051638037 0.046612188
0.011836294 -0.0060682283 0.048227269
0.01257809 -0.0063053733 0.042149991
0.013835386 -0.0056126686 0.044071816
0.014197473 -0.0068966718 0.044631265
0.015226974 -0.0066573336 0.041917127
0.015934398 -0.007166056 0.044856016
0.016733203 -0.0074461331 0.044878878
0.017446723 -0.0078895297 0.045011375
0.018584337 -0.0074753566 0.048617609
0.018519131 -0.009462866 0.040647928
0.020570816 -0.0073034144 0.048323914
0.021085842 -0.0082080122 0.042778861
0.021569636 -0.0088528208 0.050004654
0.022712694 -0.0084565254 0.051958915
0.022935538 -0.0096158395 0.053158607
0.023760758 -0.0098393746 0.051903728
0.025476946 -0.0084789786 0.055425681
0.026086003 -0.009656718 0.040418066
0.027904632 -0.0097723026 0.010375345
0.02822829 -0.0096150059 0.036301415
0.029242301 -0.010681694 0.015407627
-0.021216013 0.0045721312 0.027912006
-0.02070274 0.0037068804 0.023806617
-0.016738016 0.0026791012 0.048947141
-0.015664568 0.002327553 0.051832825
-0.014748547 0.0028308085 0.052710641
-0.014443768 0.0014109458 0.046927262
-0.01310971 0.0014523526 0.05311681
-0.0128084 0.0015918755 0.046249814
-0.012020493 0.002027258 0.045037881
-0.011351306 0.0017450231 0.042775676
-0.010763015 0.00092938216 0.039984774
-0.0095416401 0.00041996432 0.045774769
-0.0086542144 0.0010624495 0.04514654
-0.0081781885 -4.61163e-05 0.041348517
-0.0071943747 0.00070505007 0.041516926
-0.0065264003 -3.909925e-05 0.039869536
-0.0053742118 -0.00026232016 0.044959031
-0.0048934999 -0.00080868055 0.039818317
-0.003716527 -0.00070691016 0.044725604
-0.0028574532 -0.001209706 0.046174694
-0.0021716105 -0.0013800561 0.04320607
-0.0010336903 -0.00067839184 0.045214564
-0.0005972595 -0.002151065 0.042744998
0.00042937323 -0.0015342289 0.04254299
0.001184228 -0.0020878532 0.042454276
0.0019539329 -0.0028416002 0.04419804
0.003038316 -0.0021081057 0.043944716
0.0037637758 -0.0029650778 0.045807682
0.004486463 -0.0032369955 0.043191765
0.0055100042 -0.0032154154 0.046667147
0.0061881151 -0.0035163122 0.042553637
0.0069962642 -0.0038767937 0.043201026
0.0080508217 -0.003520438 0.043891236
0.0084812464 -0.0048695048 0.043948084
0.0095594022 -0.0043416601 0.042612821
0.010242143 -0.0049756793 0.042930771
0.01125337 -0.0048053549 0.044288665
0.012098029 -0.0049569299 0.043120287
0.012798839 -0.0055191098 0.043957047
0.013557188 -0.0058690002 0.04246749
0.014635957 -0.0055998247 0.045791052
0.015126551 -0.0065181283 0.043067701
0.016164765 -0.0063126003 0.045434073
0.017220724 -0.006069608 0.046626221
0.01801182 -0.0063646836 0.047331531
0.01851286 -0.0072074095 0.048039608
0.019416463 -0.0073063504 0.044840455
0.020169403 -0.0076071643 0.04802404
0.020971172 -0.0080084298 0.040691894
0.022134572 -0.0074144565 0.050322823
0.022180079 -0.0089022974 0.052082714
0.023472048 -0.0082835983 0.052623719
0.02404798 -0.0089532547 0.050550804
0.024817687 -0.0092344154 0.050475679
0.026253439 -0.0087271268 0.044430494
0.028641811 -0.0083285412 0.0052689537
0.027885253 -0.010015572 0.027516577
0.029821722 -0.0093948934 0.013152685
-0.021179199 0.0051014912 0.02566552
-0.019758144 0.0054066959 0.021831028
-0.016309606 0.0041210488 0.051217243
-0.015388686 0.0036553675 0.052341484
-0.014798716 0.0025888453 0.049844291
-0.014132004 0.0024817423 0.047894169
-0.012792043 0.0030695191 0.05381177
-0.012757041 0.0024143287 0.044034258
-0.012025779 0.0022379579 0.042598236
-0.011015638 0.0023122346 0.044561636
-0.010369958 0.0013900949 0.042805761
-0.0095161675 0.0016635752 0.042320073
-0.0083895456 0.0015572442 0.046319939
-0.0080317715 0.00073351245 0.040274408
-0.0068818107 0.0011077216 0.043821443
-0.0060726982 0.0012989345 0.042333879
-0.0053650551 0.00039935613 0.041852601
-0.0046093119 0.0006725553 0.038921703
-0.0035893382 6.5024709e-05 0.043215416
-0.0026366627 -4.7918176e-05 0.04494936
-0.0017796084 0.00019072514 0.043520194
-0.00098239398 -0.00060645957 0.045123715
-0.00043528038 -0.00073053746 0.0386388
0.0007962985 -0.00092561281 0.04691837
0.0013334478 -0.0015506371 0.042515207
0.0025357187 -0.001059632 0.046812214
0.0030793417 -0.0018201768 0.043209393
0.0040652407 -0.0020094875 0.047016326
0.0047535924 -0.0021983401 0.042738575
0.0057029268 -0.0021691313 0.043764707
0.0063118716 -0.0028816077 0.041506387
0.0074994192 -0.002359299 0.045020018
0.0079605412 -0.0033259967 0.040586423
0.0087697813 -0.003851583 0.043981913
0.0096542221 -0.003893001 0.043519702
0.010711461 -0.0036241198 0.045437902
0.011294569 -0.0043568537 0.042868908
0.012533482 -0.0036314549 0.044032451
0.012807707 -0.0051416294 0.042626161
0.013860508 -0.0048549958 0.042962391
0.014630792 -0.0052047567 0.042443171
0.01524431 -0.0058777854 0.040903986
0.016408898 -0.0054324046 0.046174955
0.01732247 -0.0054701283 0.044227071
0.017621066 -0.0067471382 0.04592938
0.019072939 -0.0057091261 0.049197081
0.020015575 -0.0057159266 0.048186284
0.020175047 -0.0072119953 0.045403909
0.021733928 -0.0061686877 0.041991238
0.021782862 -0.0076937275 0.045697864
0.022789199 -0.0075198729 0.048187599
0.023900447 -0.0070379018 0.054876834
0.024273396 -0.0080303345 0.05309898
0.025219845 -0.008098634 0.050958432
0.026381023 -0.0079967687 0.045304455
0.027980305 -0.0084590362 0.012661425
0.029120337 -0.0080575161 0.01851414
0.030660748 -0.0077364151 0.010470659
-0.020899834 0.0064126886 0.026189608
-0.019154334 0.005315579 0.025948899
-0.016287442 0.0046238243 0.048940074
-0.015426882 0.003606854 0.049513716
-0.01442031 0.0037832826 0.051580191
-0.013744842 0.0041756313 0.049443562
-0.012755049 0.0030159161 0.052091617
-0.01274055 0.0035389562 0.041090362
-0.011686199 0.0035304718 0.04364555
-0.011222498 0.0020138565 0.040025618
-0.0099899126 0.0031295363 0.043744862
-0.0090990588 0.0025736396 0.044958014
-0.0085557867 0.0013503495 0.042392399
-0.0076604122 0.0021408864 0.041372754
-0.0068228738 0.0021395204 0.040791672
-0.0060373768 0.0011652297 0.041651972
-0.0050694006 0.0018203313 0.041450094
-0.0041079614 0.00097948103 0.045303583
-0.003450491 0.0010939379 0.041052371
-0.0022063414 0.0014676421 0.046311893
-0.0018189335 0.00049385341 0.040581115
-0.0011185498 -7.5243763e-05 0.039238885
-4.5212917e-05 -0.00019507925 0.043607157
0.00074724574 -0.00074828241 0.044462025
0.0015888875 -0.00060164975 0.042613409
0.002336937 -0.0013037755 0.043571349
0.0030100553 -0.001713337 0.040939324
0.0044570789 -0.00044985593 0.045946192
0.0050517246 -0.0012173691 0.04367644
0.0057732686 -0.0016372977 0.042060655
0.0065716803 -0.0019225897 0.041457143
0.007294565 -0.0025511102 0.042232562
0.0082985265 -0.002447119 0.044476505
0.0096105197 -0.0014942127 0.046855085
0.0099963639 -0.0026976627 0.042909835
0.01059028 -0.0035391082 0.042787515
0.011785473 -0.0028761206 0.043626197
0.012511674 -0.0034141557 0.044892486
0.013053487 -0.0041956138 0.040930118
0.014341629 -0.003503449 0.046363264
0.01493676 -0.0042539109 0.046562441
0.015769497 -0.0044440073 0.045693278
0.016611548 -0.0046276236 0.045258489
0.01719409 -0.005342789 0.042517643
0.018006671 -0.0055826837 0.047841642
0.018557087 -0.006313256 0.048451658
0.019530458 -0.00625211 0.045075305
0.020630255 -0.0059673637 0.043877639
0.02169781 -0.0057825893 0.042288892
0.022186857 -0.0065285494 0.046104778
0.023371609 -0.0060871714 0.047317602
0.023716819 -0.0068534445 0.056113254
0.024400555 -0.0073594386 0.053082567
0.025653608 -0.0067916671 0.054651279
0.026207995 -0.0076804403 0.047779471
0.027967842 -0.0073083029 0.027455114
0.029585933 -0.0069785947 0.01483007
0.030748025 -0.0071692867 0.0078126388
-0.021092935 0.0075934012 0.021524845
-0.016077913 0.005395602 0.048779611
-0.015213421 0.0047953408 0.049301837
-0.014072107 0.0046819868 0.053078931
-0.013454175 0.0043060696 0.050675217
-0.012682553 0.0038907188 0.050178364
-0.012593804 0.0045039523 0.039935447
-0.011607466 0.0037628938 0.042312037
-0.010456551 0.0040919976 0.045911562
-0.0096997414 0.0030800148 0.045885283
-0.0089100134 0.0031308029 0.0448885
-0.0080294935 0.0033477799 0.044798855
-0.0075726369 0.0026713978 0.039888348
-0.0066972757 0.0021159691 0.041149907
-0.005685715 0.0024516946 0.042602412
-0.0045715971 0.0027870629 0.045670681
-0.0039982852 0.0018014059 0.043374166
-0.0031589791 0.0019622198 0.042156618
-0.0022338126 0.00139845 0.044966746
-0.0015940117 0.0012426665 0.040961217
-0.00035454123 0.0023645097 0.043026917
6.9914851e-05 0.00018227292 0.043577179
0.00075513974 0.00010947854 0.0396243
0.0020327158 0.00091806747 0.043707266
0.0025684971 -0.00025713679 0.042440057
0.0033870686 -0.00045400899 0.041892968
0.004619766 0.00029415291 0.045068197
0.0050177039 -0.00080823264 0.04003945
0.0060618301 -0.00079523312 0.044042565
0.0067571364 -0.0014985662 0.044639677
0.0077337357 -0.0011253541 0.04290713
0.0086851427 -0.0010619391 0.043488197
0.0095097497 -0.0014350212 0.045153338
0.010205208 -0.0018093432 0.041494198
0.011218372 -0.0017464625 0.044736661
0.011786217 -0.0026730238 0.045431986
0.012620056 -0.002742358 0.04197209
0.013664102 -0.0025862658 0.045775373
0.014290389 -0.003271108 0.045499623
0.015064039 -0.003572447 0.043686859
0.0157497 -0.0041476609 0.046803452
0.016580617 -0.0043327468 0.046200395
0.017549142 -0.0042359307 0.044249672
0.018085457 -0.0050369981 0.047442682
0.018762197 -0.0055350326 0.044970635
0.020353213 -0.0042966441 0.042298272
0.020989342 -0.0047736741 0.050969511
0.02151284 -0.0056721237 0.042673044
0.022827663 -0.0050563798 0.041130755
0.023095377 -0.006192537 0.044162367
0.024000872 -0.0060074194 0.053192373
0.024995685 -0.0058630905 0.05466643
0.025870558 -0.006013683 0.053420249
0.026163774 -0.007224489 0.048932482
0.028665164 -0.0057145515 0.027258784
0.029372763 -0.0066367947 0.017487014
-0.020790448 0.007727772 0.02209032
-0.016013445 0.0053785122 0.047103684
-0.014947744 0.0059740534 0.049691968
-0.014020632 0.0051993323 0.051159751
-0.013326026 0.0054488759 0.04931565
-0.01238071 0.0055005923 0.050608385
-0.012492016 0.0048034387 0.038784087
-0.011221739 0.005064521 0.043957297
-0.010584716 0.0045124106 0.041581742
-0.0095535759 0.0044573406 0.044023417
-0.0085175559 0.0038709065 0.047481455
-0.0080962926 0.0033269224 0.042020701
-0.0072539803 0.0029802551 0.042399004
-0.0064252997 0.0039056686 0.039737787
-0.0051412918 0.0037796474 0.046580575
-0.0045194142 0.0032515167 0.043811213
-0.0038413852 0.0036422662 0.039125461
-0.0029589348 0.0021935068 0.043770023
-0.0020981422 0.0023670988 0.042839505
-0.0010134922 0.0030477638 0.043954972
-0.00050216727 0.0017794474 0.041860126
0.00016399892 0.00094546104 0.041224517
0.0012274686 0.0018059432 0.040514667
0.0020007081 0.00089326233 0.042889543
0.0028484522 0.001182695 0.039949436
0.0036416641 0.00090038183 0.039056581
0.0044515776 -4.2497617e-05 0.043687642
0.0054552136 0.00049209438 0.042216159
0.0062116864 -5.5947632e-05 0.04277987
0.0068445588 -0.00072402385 0.040927324
0.0078240829 -0.00063339714 0.042373702
0.0088245133 -0.00049977796 0.044004072
0.0094819609 -0.0013649028 0.046232332
0.010508306 -0.00073569338 0.041249849
0.011284932 -0.0012945102 0.044405412
0.011854645 -0.0020492165 0.041579291
0.013343113 -0.00096722646 0.049585331
0.013600167 -0.002354597 0.043507811
0.014307867 -0.0028325645 0.04267903
0.015810918 -0.0015781079 0.044907562
0.015726894 -0.0037930666 0.043105092
0.017396348 -0.0022571045 0.048634153
0.018086113 -0.0027575796 0.047058761
0.018560052 -0.0036941897 0.049940743
0.019621419 -0.0034490565 0.044419758
0.020050056 -0.0044172057 0.047262065
0.020806463 -0.0047933422 0.043648589
0.022076063 -0.0041545779 0.045883235
0.022964528 -0.0042225709 0.04789092
0.023456972 -0.0050217994 0.047862574
0.024480384 -0.0047649457 0.052266262
0.025083551 -0.0053804298 0.050742105
0.02589968 -0.0056329407 0.049496572
0.027135793 -0.0051134122 0.051146071
0.028387252 -0.0057094647 0.025234867
0.0293277 -0.0058734193 0.024256667
-0.020725317 0.0097765503 0.020275738
-0.020100432 0.0091265477 0.017171917
-0.015665963 0.0072538466 0.048305042
-0.014418816 0.0067205466 0.053377926
-0.01402171 0.0058736252 0.048516843
-0.013130106 0.005860013 0.04924456
-0.012097387 0.0054273107 0.052092582
-0.012212407 0.0059508085 0.039183911
-0.010963421 0.0061192666 0.044154923
-0.010324386 0.0051480737 0.042316124
-0.0094256597 0.0054644626 0.042400926
-0.008529095 0.0046469471 0.044167291
-0.0078531299 0.00378486 0.043006599
-0.0067522693 0.0055555562 0.043077134
-0.0062223794 0.0037489058 0.041662831
-0.0050879745 0.0040558362 0.045215432
-0.0043463572 0.0041182935 0.042863429
-0.0036957581 0.0034928736 0.040788349
-0.0028365548 0.0030632839 0.041832823
-0.001673446 0.0036296705 0.045020841
-0.00090829702 0.0031060958 0.044830382
-0.00032158731 0.002645703 0.040864184
0.0005740081 0.0026583516 0.040879842
0.0015295129 0.0023025647 0.044082128
0.0023259921 0.0019776814 0.043803491
0.0030723237 0.0017305076 0.041843027
0.0041473676 0.0018568482 0.045431647
0.0050086821 0.0021618991 0.042076677
0.0057243025 0.0018990624 0.038691364
0.0062916763 0.00024202012 0.043566506
0.0072050011 0.00030946417 0.043350492
0.0081405379 0.00045797008 0.042705759
0.0086487681 -0.00057154079 0.040930089
0.010190091 0.00080054696 0.046624489
0.010280333 -0.0010467231 0.040211901
0.011365499 -0.00082868221 0.044458084
0.01234293 -0.00075797935 0.046414126
0.013365234 -0.0004600198 0.045515068
0.01398884 -0.0011711267 0.045123763
0.014769639 -0.0015572764 0.047105681
0.01538459 -0.0021850073 0.044229522
0.016393902 -0.002008046 0.044902314
0.017096382 -0.0024898893 0.044461779
0.017945264 -0.0026539254 0.043514993
0.019001041 -0.0024131718 0.04671273
0.019466307 -0.0033541778 0.044632543
0.020123929 -0.0039055033 0.042658791
0.021293702 -0.0034597546 0.043387819
0.022339305 -0.0032407497 0.045789234
0.023069052 -0.0037352848 0.040823165
0.023950024 -0.0036436487 0.050735097
0.024264487 -0.004629415 0.054310516
0.025115227 -0.0047832215 0.053552158
0.026434954 -0.0041524144 0.053456608
0.026595945 -0.0056273872 0.04775212
0.02829057 -0.0052906116 0.026626613
0.029792683 -0.0046095937 0.02476972
-0.019855523 0.0099375537 0.017186899
-0.015397992 0.0074378899 0.048994049
-0.014504297 0.0069455705 0.049928743
-0.013372317 0.0075094486 0.053336635
-0.013011411 0.0064929621 0.048075754
-0.012135141 0.0061382866 0.048865616
-0.011859946 0.0072663175 0.040368702
-0.010874948 0.0061931745 0.043164458
-0.010159534 0.0066169701 0.040657096
-0.009239764 0.0060333377 0.042233102
-0.0081361895 0.0052506579 0.047023468
-0.0075469846 0.0058548842 0.041927904
-0.0067028403 0.0051408987 0.04297705
-0.006117668 0.0050946097 0.038578521
-0.0049110157 0.0050871307 0.043946508
-0.0042804275 0.0044238376 0.041687943
-0.0034651854 0.0043110442 0.040959779
-0.0023167958 0.0050328765 0.043320201
-0.0017958977 0.0033375309 0.042757601
-0.00092788157 0.0039463942 0.040077657
0.00035463413 0.0044653509 0.045634583
0.00077820313 0.0028887789 0.043460064
0.0015329067 0.0030059887 0.039957546
0.0024120081 0.0026971011 0.041339796
0.0030874817 0.0021532762 0.03948861
0.0041343491 0.002428992 0.041307129
0.0049409214 0.0020310557 0.041790813
0.0058670798 0.002025028 0.04250782
0.0068591367 0.0020348709 0.045007832
0.0075065629 0.0013650607 0.043640684
0.0081590936 0.00068908068 0.042685691
0.0091955494 0.0010318066 0.04315934
0.0099350493 0.00051534374 0.043596011
0.01056054 0.00010517566 0.037679683
0.011932043 0.00081579981 0.046264134
0.012385027 -0.00044063386 0.047730137
0.013210722 -0.00046410202 0.043372422
0.014105927 -0.00047345785 0.041862633
0.014965143 -0.00069562811 0.044000842
0.015903886 -0.00056340941 0.039290767
0.016452951 -0.0015771617 0.047745332
0.017149771 -0.0019848517 0.041895822
0.018184884 -0.0017895401 0.045223542
0.018851025 -0.0023324937 0.045837261
0.019591816 -0.0027085717 0.045059208
0.020740855 -0.002303421 0.042410832
0.021426991 -0.0027742069 0.044653524
0.022222124 -0.003093313 0.041490216
0.02326986 -0.0028808974 0.043431491
0.023669163 -0.0037500919 0.048404597
0.024425911 -0.0040020985 0.050695021
0.025372682 -0.0039717299 0.050983313
0.026482098 -0.0036605191 0.051882591
0.026827604 -0.0046876851 0.050360553
0.029474333 -0.0033216281 0.015908331
0.030417245 -0.0032545645 0.021435454
-0.019591007 0.011300048 0.017390355
-0.018312974 0.0092193894 0.022051822
-0.015444802 0.0077372179 0.045967523
-0.014249604 0.0087118149 0.049921509
-0.013522938 0.0076189404 0.049141623
-0.012445439 0.0078318939 0.052059535
-0.011586962 0.0075813322 0.052566275
-0.011673412 0.0072934497 0.040637724
-0.010798731 0.0067160027 0.041514602
-0.009429669 0.0073976545 0.04773172
-0.0089810658 0.0068146326 0.042794246
-0.0079760244 0.0077010673 0.043347105
-0.0071973298 0.0062440308 0.044656646
-0.0067379819 0.0058398433 0.039248217
-0.0055216216 0.0064993165 0.043161269
-0.0046715075 0.0059300484 0.044182956
-0.0041032596 0.0054229591 0.040426977
-0.0029673697 0.0060514277 0.042925034
-0.0025161039 0.0050660707 0.038393453
-0.0013630358 0.0046733371 0.044824939
-0.00043790601 0.0053781644 0.042825911
-1.0220101e-05 0.0038614552 0.040181991
0.0009090536 0.0044660713 0.037861984
0.0018891792 0.0039600218 0.042271551
0.0026167375 0.0033509843 0.042002112
0.0036020339 0.0036562737 0.042270843
0.0043300358 0.0032657823 0.040630203
0.0051051863 0.0028445194 0.040418688
0.0058755437 0.0022797419 0.041395042
0.0072073368 0.0032746822 0.045041285
0.0072903256 0.00090887386 0.042941701
0.0087437183 0.002683701 0.041885737
0.0094772317 0.0021312265 0.042039119
0.010383662 0.0018112621 0.046127964
0.011167388 0.0015636266 0.044551399
0.011624615 0.00066203461 0.038935531
0.012537906 0.0003616896 0.044712637
0.013562192 0.00077166059 0.04151981
0.014150687 -2.8622802e-05 0.040955007
0.014902895 -0.00040252274 0.03983897
0.016085332 0.00012972229 0.041835114
0.016326051 -0.0013977133 0.041020457
0.017969582 9.5758354e-05 0.045800038
0.018480789 -0.00078263832 0.04339271
0.019130796 -0.0013770619 0.045274299
0.019826178 -0.0018462362 0.046548355
0.020555843 -0.0022444446 0.044542596
0.021546291 -0.0021191032 0.045972496
0.02261007 -0.0019226829 0.043008074
0.023374483 -0.0021994207 0.046462856
0.023875557 -0.0029937844 0.046191648
0.024975508 -0.0025275997 0.053732157
0.025491951 -0.0032937923 0.051786326
0.026513571 -0.0031898483 0.050484207
0.02763512 -0.0029974799 0.047708604
0.029348858 -0.0029208721 0.017888246
-0.019166984 0.011388599 0.019522898
-0.018304989 0.011673152 0.019035645
-0.014776627 0.010414773 0.05063992
-0.01431326 0.0090004308 0.046681285
-0.013231454 0.0080500375 0.050241213
-0.012266549 0.0086003859 0.051560413
-0.011610821 0.0078428546 0.049880538
-0.011094201 0.0082937675 0.045166969
-0.010137429 0.0091904132 0.045505073
-0.0096376436 0.0072941026 0.042978618
-0.0085660443 0.00799633 0.044984754
-0.0078950003 0.0072669643 0.043416318
-0.0073161935 0.0064128689 0.040765829
-0.0057348525 0.0076777576 0.049201895
-0.0055906419 0.0070865923 0.039045684
-0.0050010234 0.005818191 0.037531286
-0.0036767302 0.0062985881 0.04376217
-0.0031202221 0.0057719401 0.039818946
-0.0024943594 0.0050999788 0.037491478
-0.00090834871 0.0062906574 0.046231922
-0.00046025682 0.0053857132 0.041446157
0.00027224235 0.0050219302 0.039923567
0.0012083803 0.0046927147 0.042488646
0.0018919318 0.0043198429 0.039979648
0.0029285674 0.0047961087 0.040479101
0.0036506348 0.0043362565 0.039070357
0.0046069976 0.0040628682 0.042300005
0.0054130084 0.0036018607 0.043326769
0.0062533319 0.0035540261 0.042098597
0.0067954138 0.0025393527 0.04065977
0.0078930669 0.00306611 0.041530132
0.0085911471 0.0025625667 0.040009011
0.0094051389 0.0020937084 0.042317081
0.010470549 0.0025375723 0.042333517
0.011280344 0.0019517486 0.046983927
0.012104915 0.0018845904 0.044331975
0.012890755 0.0018433433 0.03834166
0.013567174 0.00099378498 0.043388583
0.014097885 0.00017468678 0.040148597
0.01581835 0.0019074385 0.045264456
0.016202278 0.00066856761 0.044433888
0.016865185 0.00010927976 0.042972401
0.017647289 -0.00018561166 0.041404314
0.018519135 -0.00033293269 0.043596059
0.019641984 5.2045798e-05 0.04622462
0.020028107 -0.0010519638 0.047543097
0.020760359 -0.0014550944 0.042325746
0.021827875 -0.0012050269 0.042107195
0.022458514 -0.0017865049 0.04263268
0.023472302 -0.0015630489 0.048050135
0.024564361 -0.0012974846 0.047535159
0.024755223 -0.0024208743 0.055849008
0.025723089 -0.0025004982 0.049950175
0.027151357 -0.0016524084 0.05079563
0.027582649 -0.0026826118 0.045576427
0.029519387 -0.0021504723 0.017311763
-0.015207633 0.010087522 0.043223795
-0.013785264 0.0096051488 0.050505161
-0.012989113 0.0094487434 0.05015514
-0.012667174 0.0089463275 0.043992877
-0.011269622 0.0094831996 0.050708301
-0.010799946 0.0094582886 0.045749255
-0.0099835107 0.0090305014 0.045734346
-0.0094482731 0.0092024105 0.040997632
-0.0086715342 0.0079015074 0.04169821
-0.007510541 0.0078391805 0.04624908
-0.0068283575 0.0080313878 0.043233465
-0.0061551249 0.0078947386 0.040494688
-0.0054243207 0.00694336 0.040458839
-0.0041830726 0.0078093181 0.044303708
-0.0038713263 0.0071145357 0.036668792
-0.002816488 0.006533877 0.041467492
-0.0016123061 0.0074310242 0.044294685
-0.0011412152 0.0061797267 0.041216332
-0.00019586785 0.006310604 0.041883461
0.00062590674 0.0063322377 0.040429384
0.0013853114 0.0056894664 0.040720113
0.0025037769 0.0057559768 0.045347724
0.0031408174 0.0057725562 0.039413285
0.0038314231 0.0049301255 0.0396244
0.0049034776 0.0049855369 0.043580472
0.0057919435 0.004860335 0.044272847
0.0062816618 0.0038933479 0.040824503
0.0075092651 0.00458821 0.044142812
0.0082052927 0.0041672485 0.041713554
0.0086854361 0.0031504962 0.038492162
0.0096569294 0.0031055114 0.041216128
0.010449955 0.0027906229 0.040958408
0.011313432 0.0027662807 0.039215706
0.012492027 0.0030627614 0.046064161
0.013042991 0.0023588198 0.041329194
0.013805875 0.0019245355 0.042182148
0.014730315 0.0019778954 0.040999286
0.01542642 0.0013771644 0.042709123
0.016380481 0.001442041 0.04299495
0.017204177 0.0012056937 0.043153092
0.017412793 -0.0003332966 0.040822376
