ply
format ascii 1.0
comment PCL generated
element vertex 836
property float x
property float y
property float z
element camera 1
property float view_px
property float view_py
property float view_pz
property float x_axisx
property float x_axisy
property float x_axisz
property float y_axisx
property float y_axisy
property float y_axisz
property float z_axisx
property float z_axisy
property float z_axisz
property float focal
property float scalex
property float scaley
property float centerx
property float centery
property int viewportx
property int viewporty
property float k1
property float k2
end_header
-0.017882073 -0.0031556599 0.012489974
-0.016634036 -0.0031188815 0.013869166
-0.015574895 -0.003114979 0.014328539
-0.014416743 -0.003089302 0.014128208
-0.013497433 -0.0031147923 0.015289843
-0.012284615 -0.0030711538 0.015190899
-0.011360263 -0.0030982534 0.015483528
-0.01027394 -0.003082182 0.015096068
-0.0093173189 -0.0031057729 0.015036196
-0.0083234673 -0.0031213001 0.014887393
-0.0073525091 -0.0031510752 0.013333976
-0.0062925299 -0.0031462649 0.013198376
-0.0051671336 -0.0031002802 0.01350683
-0.0041555287 -0.0031166465 0.013065398
-0.0031181781 -0.0031181781 0.013182253
-0.0020691843 -0.0031037764 0.014097214
-0.0010366749 -0.0031100246 0.015410334
0 -0.003099242 0.014999777
0.0010383822 -0.0031151464 0.014865816
0.0020711352 -0.0031067028 0.014231563
0.0031004352 -0.0031004352 0.013475507
-0.018942056 -0.0021046731 0.012102664
-0.017806752 -0.0020949119 0.014466196
-0.016848756 -0.0021060945 0.014140487
-0.015730515 -0.002097402 0.015319943
-0.014638781 -0.0020912543 0.015655667
-0.013529333 -0.0020814359 0.015900195
-0.012571503 -0.0020952506 0.015502155
-0.011479114 -0.0020871116 0.01610899
-0.010433803 -0.0020867607 0.015427977
-0.0093915295 -0.0020870066 0.015500903
-0.0083479816 -0.0020869954 0.015902638
-0.0072758067 -0.0020788019 0.016290128
-0.0062692161 -0.0020897386 0.015503287
-0.0052303183 -0.0020921275 0.015634775
-0.0041755922 -0.0020877961 0.015148222
-0.0031460305 -0.0020973538 0.01535064
-0.0021039716 -0.0021039716 0.01532501
-0.0010412032 -0.0020824063 0.015113652
0 -0.0020952176 0.015119165
0.0010487031 -0.0020974062 0.015533715
0.0020734845 -0.0020734845 0.015816927
0.0031324946 -0.0020883298 0.015364647
0.0041429116 -0.0020714558 0.015609145
-0.01993094 -0.0010489969 0.011953831
-0.018824914 -0.0010458286 0.014118135
-0.018005762 -0.0010591624 0.015584677
-0.016715363 -0.0010447102 0.015866697
-0.015807437 -0.0010538291 0.015967935
-0.014745559 -0.0010532542 0.015797734
-0.013458157 -0.0010352428 0.015672117
-0.012568695 -0.0010473913 0.016179204
-0.011512745 -0.0010466132 0.016608506
-0.010330276 -0.0010330277 0.016398251
-0.0094881775 -0.001054242 0.016385108
-0.0083821993 -0.0010477749 0.016198456
-0.0073236725 -0.0010462389 0.016682118
-0.0063475585 -0.0010579264 0.015697479
-0.0052730464 -0.0010546093 0.015688807
-0.0042170929 -0.0010542732 0.015438408
-0.0031738642 -0.0010579547 0.015531093
-0.0020953331 -0.0010476665 0.01532492
-0.001045908 -0.001045908 0.015188128
0 -0.0010373138 0.015682906
0.0010401154 -0.0010401154 0.016135305
0.002085699 -0.0010428495 0.016293824
0.0031257558 -0.0010419186 0.015744001
0.0042063617 -0.0010515904 0.016272396
0.0051489715 -0.0010297943 0.014481455
-0.019920589 0 0.013638794
-0.019042069 0 0.014527202
-0.017842187 0 0.0159747
-0.016832393 0 0.015686721
-0.015735282 0 0.015393943
-0.014656878 0 0.015651435
-0.013668148 0 0.015389949
-0.012603111 0 0.015422523
-0.011644865 0 0.015483499
-0.010420525 0 0.015239716
-0.0094772344 0 0.015607297
-0.0084383124 0 0.014994681
-0.0073403395 0 0.016171485
-0.0063669668 0 0.015256584
-0.0052328226 0 0.015256584
-0.0041985707 0 0.015420794
-0.0031221071 0 0.015452325
-0.0021083883 0 0.015022844
-0.0010474358 0 0.014752001
0 0 0.014513314
0.0010534724 0 0.014995843
0.0020855838 0 0.015109152
0.0031489967 0 0.014981776
0.0041993023 0 0.01585573
0.0052163606 0 0.015197217
0.0062027168 0 0.014280558
-0.021068735 0.0010534368 0.013157725
-0.020109152 0.0010583764 0.014215261
-0.018865483 0.0010480824 0.015165806
-0.017665034 0.0010391197 0.015766084
-0.016852813 0.0010533008 0.015281618
-0.015702328 0.0010468218 0.01447475
-0.014550191 0.0010392994 0.014600903
-0.013697419 0.0010536477 0.014116555
-0.012573085 0.0010477571 0.014711499
-0.011670307 0.0010609371 0.014670908
-0.010439998 0.0010439998 0.014104396
-0.0093992986 0.0010443665 0.013428062
-0.0084153637 0.0010519205 0.014360636
-0.0073070284 0.0010438613 0.014119089
-0.0062915892 0.0010485982 0.013937742
-0.0052709123 0.0010541825 0.013528824
-0.0042005084 0.0010501271 0.013524204
-0.0031639864 0.0010546622 0.014653683
-0.0020948453 0.0010474226 0.015173882
-0.001053164 0.001053164 0.014879316
0 0.0010456674 0.014975578
0.001060847 0.001060847 0.014508069
0.0020970404 0.0010485202 0.014129847
0.0031553891 0.0010517965 0.01413691
0.0041892896 0.0010473224 0.014851511
0.0052151242 0.0010430249 0.014608979
0.0062425705 0.0010404284 0.014625102
0.0073334882 0.0010476412 0.014280558
-0.020984499 0.00209845 0.012276679
-0.020029118 0.0021083283 0.013671398
-0.018875174 0.0020972416 0.014527202
-0.017819179 0.0020963741 0.014472723
-0.01665964 0.002082455 0.015266836
-0.015776215 0.0021034952 0.01447475
-0.014781252 0.0021116075 0.014104724
-0.013608559 0.0020936246 0.01398325
-0.012567116 0.0020945193 0.013381839
-0.011463693 0.0020843078 0.012759835
-0.010362485 0.0020724973 0.012782067
-0.0094299335 0.002095541 0.0126504
-0.0084372312 0.0021093078 0.012596339
-0.0073696938 0.002105627 0.013570368
-0.0063295742 0.0021098582 0.013695121
-0.0052300137 0.0020920055 0.012839675
-0.0041912012 0.0020956006 0.012839675
-0.0031363359 0.0020908907 0.01343891
-0.002091289 0.002091289 0.013323426
-0.0010462641 0.0020925282 0.012560934
0 0.0021081443 0.013294935
0.0010374837 0.0020749674 0.013566673
0.0021010449 0.0021010449 0.013571471
0.0031374334 0.0020916222 0.013914227
0.004156813 0.0020784065 0.014668643
0.0052425126 0.002097005 0.014631897
0.0062736059 0.002091202 0.014752626
0.0072378255 0.0020679501 0.014625102
-0.022210861 0.0031729802 0.011948615
-0.021208275 0.0031812412 0.013085008
-0.020080881 0.0031706654 0.01446569
-0.018918738 0.003153123 0.014938504
-0.017994955 0.0031755804 0.014457941
-0.016702272 0.0031316758 0.015307039
-0.015798816 0.0031597631 0.012994736
-0.014640258 0.003137198 0.012994736
-0.013688364 0.0031588532 0.012894481
-0.012602756 0.0031506889 0.012481183
-0.011588889 0.0031606061 0.012343079
-0.010573838 0.0031721513 0.011242718
-0.0095757209 0.0031919072 0.010137141
-0.0085643884 0.0032116454 0.0094375908
-0.0074933367 0.00321143 0.0096288323
-0.006425316 0.003212658 0.009380281
-0.0053232145 0.0031939289 0.0093446672
-0.0042842994 0.0032132245 0.0089298487
-0.0031746994 0.0031746994 0.0097218156
-0.0021249137 0.0031873705 0.011481792
-0.0010529549 0.0031588646 0.011323243
0 0.0031279607 0.012392402
0.0010627717 0.0031883148 0.013062268
0.0021107679 0.0031661519 0.013303041
0.0031695778 0.0031695778 0.013812631
0.0042469855 0.0031852389 0.014662504
0.0052189576 0.0031313745 0.014631897
0.006286677 0.0031433385 0.015198588
0.0073059928 0.0031311398 0.015469521
0.0083127385 0.0031172768 0.015141934
-0.023420263 0.0042582299 0.010810703
-0.022049265 0.0041998597 0.012552738
-0.02114448 0.004228896 0.013065636
-0.020132516 0.0042384244 0.014750987
-0.018949023 0.004210894 0.014674127
-0.017817477 0.0041923472 0.014137149
-0.01682473 0.0042061824 0.014056325
-0.015688797 0.0041836794 0.012960166
-0.014771315 0.0042203758 0.013176084
-0.013793429 0.004244132 0.012156367
-0.012681465 0.0042271549 0.011027247
-0.011801167 0.0042913337 0.0095270276
-0.010596768 0.0042387075 0.0089243352
-0.0095930677 0.0042635859 0.006875366
-0.0085690767 0.0042845383 0.0068603754
-0.0074590333 0.0042623049 0.0073140264
-0.0064211511 0.0042807674 0.0071808398
-0.0053221835 0.004257747 0.0070111752
-0.0042878636 0.0042878636 0.0065180063
-0.003206091 0.0042747878 0.0072257221
-0.0021488899 0.0042977799 0.00759691
-0.0010690895 0.0042763581 0.0095632672
0 0.0042322273 0.010743082
0.0010558584 0.0042234338 0.012133509
0.0020824308 0.0041648615 0.01239273
0.0031534119 0.0042045494 0.013895333
0.0042137252 0.0042137252 0.014745206
0.0052310368 0.0041848295 0.014576554
0.0063392133 0.0042261421 0.015168756
0.0073536281 0.0042020734 0.015469521
0.0083266981 0.004163349 0.015292019
0.0093741706 0.0041662985 0.014030933
-0.023224061 0.0052781957 0.011687994
-0.022044811 0.0052487641 0.012511134
-0.021212088 0.005303022 0.013032079
-0.019841507 0.0052214488 0.014709353
-0.018773071 0.0052147424 0.014507532
-0.017960921 0.0052826232 0.014270902
-0.016551325 0.005172289 0.013799697
-0.015845552 0.0052818502 0.012103021
-0.014932984 0.005333208 0.011762351
-0.013684511 0.0052632731 0.0093889236
-0.012756434 0.0053151809 0.0087257624
-0.011691557 0.0053143441 0.0077752173
-0.010703746 0.0053518731 0.0065817833
-0.0096399775 0.005355543 0.0059880614
-0.0086258939 0.0053911838 0.0060138702
-0.0032078298 0.005346383 0.0061456561
-0.002135538 0.0053388453 0.0063109994
-0.0010659499 0.0053297495 0.0073431432
0 0.0053806766 0.0096082985
0.0010599748 0.0052998737 0.010942131
0.0021181006 0.0052952515 0.01141125
0.0031441778 0.0052402965 0.012579411
0.0041740993 0.0052176239 0.014431298
0.0052869786 0.0052869786 0.015403152
0.0062903864 0.0052419887 0.015073717
0.0073111746 0.0052222675 0.015362382
0.0083420705 0.0052137938 0.015389234
0.0093771983 0.0052095549 0.014807642
-0.024218069 0.0063177571 0.012065202
-0.022951391 0.0062594702 0.013263732
-0.02218342 0.00633812 0.013695419
-0.020954397 0.0062863189 0.014235944
-0.019960009 0.0063031605 0.014472485
-0.019038836 0.0063462788 0.014060944
-0.01780601 0.0062844744 0.013030857
-0.016940646 0.0063527417 0.011659265
-0.015983006 0.0063932026 0.011339813
-0.014801956 0.0063436949 0.0089260936
-0.013839308 0.006387373 0.0075886548
0 0.0063695274 0.0068612993
0.001074266 0.006445596 0.0095900297
0.0021449756 0.0064349268 0.010876924
0.0031332788 0.0062665576 0.012294769
0.0041281097 0.006192164 0.013730586
0.0052471706 0.0062966049 0.014492124
0.0062268917 0.0062268917 0.014568716
0.0073446343 0.0062954007 0.01489678
0.0083778705 0.0062834024 0.015440911
0.0093966248 0.006264417 0.015178204
0.010416305 0.0062497826 0.013708562
-0.024131695 0.0073444284 0.012580395
-0.023247773 0.0073970188 0.013695419
-0.021979235 0.007326412 0.014668524
-0.020915793 0.0073205279 0.014668524
-0.020049449 0.0073866392 0.014295191
-0.018915281 0.0073559429 0.012614757
-0.01776801 0.0073162396 0.01142785
-0.017162185 0.0075084558 0.010864437
-0.01561773 0.0072882739 0.0081248283
-0.015008635 0.0075043174 0.0075747371
0.0010555057 0.0073885401 0.0061885417
0.0021256236 0.0074396823 0.0085270405
0.0032075895 0.0074843755 0.011254907
0.0042164605 0.0073788059 0.01359877
0.0051677073 0.0072347904 0.014801741
0.0063063735 0.0073574358 0.014950633
0.0073392158 0.0073392158 0.014975309
0.0084038619 0.0073533789 0.015644342
0.0094692018 0.0073649348 0.01589343
0.010440871 0.0073086098 0.014649123
-0.025196485 0.0083988281 0.012033999
-0.024229959 0.0084278118 0.013935477
-0.02314491 0.0084163304 0.014823884
-0.022126511 0.0084291473 0.014894634
-0.020996405 0.0083985627 0.014668524
-0.019943224 0.0083971471 0.014343619
-0.019054715 0.008468763 0.011724293
-0.017954594 0.008449221 0.011035025
-0.016860221 0.0084301103 0.010314882
-0.016083041 0.0085776225 0.0073743165
0.0021238169 0.0084952675 0.0072942376
0.003190065 0.0085068401 0.010120124
0.0042140684 0.0084281368 0.011618674
0.0052832868 0.0084532592 0.015013278
0.0062658475 0.0083544636 0.015093535
0.0073111374 0.0083555859 0.0156914
0.008404444 0.008404444 0.0164648
0.0094950888 0.0084400792 0.0164648
0.010388579 0.0083108637 0.016421497
0.011479644 0.0083488328 0.014157891
-0.025208296 0.0094531104 0.012815028
-0.024274869 0.0094988607 0.014613748
-0.023041911 0.0094262371 0.014577776
-0.022034574 0.0094433883 0.01475507
-0.021185251 0.0095333625 0.013689369
-0.01979408 0.0093761431 0.012617677
-0.019071244 0.0095356219 0.011472583
-0.017978493 0.0095180254 0.010450751
0.0031827635 0.0095482897 0.0091550648
0.0042635859 0.0095930677 0.010303766
0.0053409138 0.0096136453 0.01359877
0.006252714 0.0093790703 0.014947414
0.0073359222 0.0094318995 0.015121907
0.0084059481 0.0094566904 0.016162753
0.0093618473 0.0093618473 0.016554862
0.010467251 0.0094205262 0.016427338
0.011439488 0.0093595814 0.016321242
0.012485126 0.009363845 0.015473217
-0.026204417 0.010481766 0.012945026
-0.024970232 0.010404263 0.013777822
-0.024092872 0.010475161 0.014499456
-0.023084735 0.010493062 0.014400631
-0.022007702 0.010479858 0.014194995
-0.020942912 0.010471456 0.012945354
-0.020064773 0.010560406 0.011500239
-0.019069016 0.010593898 0.010762751
-0.018024016 0.010602362 0.0097654462
0.004215789 0.010539472 0.0090368092
0.005292445 0.01058489 0.010924488
0.0062933015 0.010488835 0.012874782
0.0073133032 0.010447576 0.014965266
0.0083810715 0.010476339 0.016133904
0.0094874399 0.010541599 0.016497403
0.010439818 0.010439818 0.016450971
0.011428085 0.010389169 0.016506463
0.012545072 0.010454225 0.016155779
-0.026274184 0.01156064 0.013708025
-0.025092719 0.01150083 0.014118671
-0.02422566 0.011586185 0.014376879
-0.023206411 0.011603205 0.014291883
-0.022034386 0.01154182 0.014400631
-0.021093732 0.011601552 0.012905717
-0.02006346 0.011615687 0.01207605
-0.019007487 0.011615687 0.010120839
0.0052917935 0.011641946 0.010189414
0.0064040534 0.011740765 0.013608575
0.0073111169 0.011488898 0.014890075
0.0084531624 0.011623099 0.016261429
0.0094221029 0.011515903 0.016506791
0.010484225 0.011532648 0.016825706
0.011510445 0.011510445 0.016266674
0.012471139 0.011431878 0.016266674
0.013447574 0.011378717 0.015720159
-0.02709748 0.012506529 0.012850821
-0.026127836 0.01254136 0.014518917
-0.025172692 0.012586346 0.014291883
-0.02403919 0.012542186 0.014708042
-0.023076219 0.012587029 0.014314651
-0.021965064 0.012551465 0.013840377
-0.021047175 0.012628306 0.012124985
-0.020080531 0.01268244 0.011460483
-0.01905873 0.012705821 0.0096916556
0.0052834903 0.012680377 0.0095340014
0.0063611786 0.012722357 0.012033671
0.0073715914 0.012637014 0.013571739
0.0083521334 0.012528201 0.01547724
0.0094214259 0.012561901 0.016416162
0.01050236 0.012602832 0.016489893
0.011468737 0.01251135 0.015975296
0.012533846 0.012533846 0.015538335
0.013507587 0.012468542 0.015145749
0.014713399 0.012611485 0.013197362
-0.027188666 0.013594333 0.012850821
-0.026303716 0.013677932 0.013675749
-0.025090432 0.013590651 0.013505071
-0.023968751 0.013547554 0.01414144
-0.023153407 0.01368156 0.014156938
-0.021870058 0.013538606 0.012915999
-0.021007799 0.01365507 0.012703151
-0.020165714 0.013797593 0.011309564
0.0063815229 0.013826633 0.011103362
0.0073744287 0.013695368 0.013431579
0.0083700046 0.013601257 0.014727086
0.0094091753 0.013591032 0.015403807
0.010444272 0.013577554 0.015739739
0.011511401 0.013604384 0.015521765
0.012518249 0.013561437 0.015584409
0.01363798 0.01363798 0.015018582
0.014457299 0.013424635 0.013891995
-0.028237214 0.014641518 0.010813564
-0.027384015 0.014745239 0.012983114
-0.026275659 0.014714369 0.015078247
-0.025114605 0.014650187 0.01414144
-0.024239596 0.014754537 0.015147299
-0.023109967 0.014706343 0.014569312
-0.021782598 0.014521731 0.013678282
-0.021087589 0.014761313 0.012727141
-0.020076122 0.014792932 0.011042982
0.0052299257 0.014643792 0.0091927946
0.0063934154 0.014917969 0.012037575
0.0073750871 0.014750174 0.014073104
0.008330795 0.014578891 0.014352113
0.0094319601 0.014671939 0.015328914
0.010448266 0.014627573 0.015600026
0.011537235 0.014683755 0.015741408
0.0124346 0.014507033 0.015584409
0.013626539 0.014674734 0.015028566
0.01464792 0.01464792 0.013816357
-0.028515358 0.015841866 0.010628849
-0.027416328 0.015817113 0.012534201
-0.026089329 0.015653597 0.014207751
-0.02511234 0.015695212 0.014123768
-0.024219221 0.015795143 0.01532051
-0.023154726 0.015787315 0.01540193
-0.021953138 0.015680812 0.013420969
-0.020993182 0.015744887 0.012605727
-0.019963291 0.015760493 0.010684967
0.006337638 0.015844095 0.012916327
0.0073586409 0.015768517 0.01396215
0.0083807269 0.015713863 0.014124066
0.0093395477 0.015565913 0.014989167
0.010449149 0.015673723 0.015194446
0.011552941 0.015754011 0.015478849
0.012529949 0.015662435 0.015132397
0.013706061 0.015814686 0.014067233
0.014587771 0.015629753 0.013406545
-0.028574981 0.016933322 0.010328621
-0.027285645 0.016791165 0.01200968
-0.026079215 0.016690698 0.013975084
-0.024974175 0.016649451 0.014123768
-0.024086775 0.016756017 0.015037954
-0.023192648 0.016867381 0.015078247
-0.021823248 0.016627235 0.013395548
-0.020970467 0.016776375 0.013073266
-0.019997211 0.016839758 0.011588395
0.0052380851 0.016761873 0.010762155
0.0063103419 0.016827578 0.012581915
0.0073498269 0.016799605 0.0139364
0.008314616 0.016629232 0.013825566
0.0094038825 0.016718013 0.013987482
0.010518182 0.016829092 0.015045911
0.011479471 0.016697412 0.015057862
0.012583548 0.016778065 0.014511824
0.013573325 0.016705632 0.013698846
0.014725313 0.016828928 0.013091326
-0.02855072 0.017976379 0.0098024011
-0.027300235 0.017850153 0.010703355
-0.026421592 0.017966682 0.013298631
-0.024971614 0.017688228 0.013737142
-0.024141658 0.017843835 0.015358329
-0.022965442 0.017746026 0.014974326
-0.021933436 0.017755639 0.013810009
-0.020923289 0.017784795 0.013228267
-0.020084184 0.017970059 0.012311697
0.0052786637 0.017947458 0.010902524
0.0063692657 0.018046254 0.012581915
0.0073482175 0.017845672 0.013113707
0.0083658984 0.017777534 0.013810873
0.0093535818 0.017667877 0.014097124
0.010378853 0.017644051 0.015011013
0.011523841 0.017809574 0.015026629
0.012549372 0.017778277 0.014664561
0.013559265 0.017731348 0.013501793
0.014693966 0.017842673 0.012104839
-0.028593566 0.019062376 0.0095480084
-0.027578585 0.019092865 0.010703355
-0.026003789 0.018722728 0.013361633
-0.025189253 0.01889194 0.014198482
-0.024167007 0.018913308 0.015491158
-0.022992382 0.018811949 0.015042275
-0.021918273 0.01878709 0.014600515
-0.021022003 0.018919801 0.013642132
-0.019997602 0.018945096 0.012047112
0.0052796104 0.019006597 0.010267168
0.0062958477 0.018887542 0.012146801
0.0073832283 0.018985445 0.012817115
0.0083518308 0.01879162 0.01337105
0.0094249081 0.018849816 0.01442036
0.010480025 0.018864045 0.014837354
0.011533971 0.01887377 0.015026242
0.0124406 0.018660899 0.014515638
0.013568076 0.018786566 0.013779283
0.014694068 0.018892372 0.011882663
-0.027417392 0.020035787 0.010501623
-0.026402006 0.020065524 0.013439089
-0.024995208 0.019787874 0.013962239
-0.024020178 0.019842755 0.014606535
-0.023083393 0.019935658 0.014955401
-0.022011548 0.01991521 0.014432639
-0.020873588 0.019829908 0.013607562
-0.019964091 0.019964091 0.012341499
0.0052585993 0.019982679 0.01035738
0.0063298349 0.020044478 0.0128766
0.0073670303 0.019996226 0.013774842
0.0083157914 0.019750005 0.013951421
0.0094550578 0.019960679 0.01507479
0.010413666 0.019785967 0.01507479
0.01148844 0.01984367 0.01493603
0.012566281 0.019896613 0.014375776
0.013534065 0.019780558 0.013271064
-0.026221024 0.020976817 0.013179928
-0.025065128 0.020887608 0.013996273
-0.024087185 0.020945378 0.014604986
-0.023020396 0.020927632 0.015013874
-0.021957794 0.020912183 0.014965028
-0.02106691 0.02106691 0.014097244
-0.019863427 0.02090887 0.013008952
-0.018990982 0.021101091 0.011217058
0.0042069736 0.021034867 0.0098541379
0.0052719656 0.021087863 0.011276245
0.0063020289 0.021006763 0.012894541
0.0072540361 0.020725816 0.013879597
0.008388333 0.020970833 0.013675421
0.0093229469 0.02071766 0.015244693
0.010492155 0.020984311 0.01507479
0.011483026 0.020878229 0.01499334
0.012522387 0.020870646 0.013812155
0.013578316 0.020889716 0.012866974
-0.026251111 0.022050934 0.011834055
-0.025206357 0.022055564 0.013854802
-0.024186186 0.02208304 0.014360756
-0.023117783 0.022066975 0.015013874
-0.022038 0.022038 0.014965028
-0.020817311 0.021858178 0.014574558
-0.019779999 0.021862105 0.014082372
-0.018940384 0.022097114 0.012383848
0.0041730688 0.021908613 0.010753483
0.005224409 0.021942521 0.011917144
0.0062928214 0.022024876 0.012848824
0.0072658942 0.021797683 0.01413542
0.0082961861 0.021777488 0.014342785
0.0094214724 0.021983437 0.015589267
0.010409854 0.021860695 0.015026242
0.011446074 0.021851597 0.014903128
0.012586523 0.022026416 0.01313743
-0.025131522 0.023037229 0.013550788
-0.024010999 0.022967042 0.014102727
-0.023073234 0.023073234 0.014772534
-0.021963554 0.023009436 0.014847159
-0.02085223 0.022937454 0.014328778
-0.020134402 0.023313517 0.014415741
-0.018822895 0.023005763 0.012804985
0.0031661624 0.023218524 0.010367423
0.0041971058 0.02308408 0.012468219
0.0052160998 0.022950839 0.012981325
0.0063277739 0.023201838 0.013836861
0.0072994372 0.022941086 0.014802784
0.0083832163 0.023053845 0.015396476
0.0094382884 0.023071373 0.015426278
0.010393243 0.022865137 0.014294237
0.011480692 0.022961384 0.013338566
0.012678313 0.023243574 0.01188758
-0.024024421 0.024024421 0.013962567
-0.023056637 0.024104668 0.014514506
-0.022037081 0.024135852 0.013937384
-0.020794595 0.023913786 0.014239132
-0.019981394 0.024188004 0.01509735
-0.018815884 0.024042521 0.014266998
-0.017823156 0.024113681 0.013540268
0.0031432561 0.024098298 0.012754828
0.0042213532 0.024272781 0.013355553
0.0052649779 0.0242189 0.013836861
0.0063020531 0.024157872 0.014213979
0.0073018223 0.023991702 0.015005618
0.0083698696 0.024063375 0.015220404
0.0093591884 0.023917926 0.015396476
0.01042465 0.023976697 0.013965368
0.011546691 0.024143083 0.013245523
-0.024231955 0.025285518 0.012447268
-0.023102744 0.025202993 0.013962626
-0.022121938 0.025282213 0.014359206
-0.021032289 0.025238747 0.014301568
-0.019694306 0.024877017 0.015096992
-0.019022183 0.025362911 0.014838964
-0.017696498 0.024983291 0.013911098
-0.016773032 0.025159547 0.013512909
0.0031378663 0.02510293 0.013504297
0.0041696103 0.025017662 0.013822526
0.0052499049 0.025199546 0.014616817
0.0062280996 0.024912398 0.014111638
0.0073284442 0.025126094 0.01526311
0.0082912389 0.024873717 0.014891595
0.009393963 0.025050569 0.014412522
0.010483973 0.025161536 0.012976915
-0.023135325 0.026290145 0.012642294
-0.02189268 0.026062714 0.012815148
-0.020816356 0.026020445 0.013857484
-0.019817201 0.026075264 0.014399409
-0.018763216 0.026060026 0.015052259
-0.017839545 0.026234625 0.014831334
-0.016704319 0.0261005 0.013981462
-0.015637178 0.026061963 0.013512909
0.0010403449 0.026008623 0.012643307
0.0020799399 0.02599925 0.013862669
0.003141952 0.026182933 0.013996422
0.0042364001 0.026477503 0.014661103
0.0051903822 0.025951913 0.014920861
0.006278994 0.026162477 0.015259832
0.007320086 0.026143165 0.015717119
0.0083605535 0.026126731 0.015094429
0.0094423601 0.02622878 0.014601171
0.010426404 0.026066011 0.012557268
-0.02319983 0.027417982 0.012197405
-0.022005333 0.027244696 0.013071239
-0.021067085 0.027387211 0.012822926
-0.019871803 0.027192993 0.014054626
-0.018806199 0.027164511 0.01485005
-0.017807782 0.02723543 0.015309721
-0.016744472 0.027209766 0.014923155
-0.015502448 0.02687091 0.014795035
-0.014517079 0.026960289 0.014179051
-0.013584055 0.02716811 0.013514847
-0.0010390235 0.027014613 0.011800498
0 0.027236182 0.012624085
0.0010358596 0.026932348 0.013557494
0.0020864247 0.027123522 0.013953954
0.003165548 0.027434748 0.014541179
0.0041490858 0.026969058 0.014724433
0.0052111573 0.027098017 0.015276223
0.0062977104 0.027290078 0.015357375
0.0072950758 0.027095996 0.015357375
0.0084103299 0.027333571 0.015009046
0.0095262704 0.027520338 0.013434172
-0.02208337 0.028392904 0.012245983
-0.021089138 0.028470339 0.012822926
-0.01979002 0.028122662 0.013902634
-0.018879682 0.028319526 0.014831334
-0.017637456 0.02801243 0.015529007
-0.016644454 0.028087517 0.015412301
-0.015829099 0.028492378 0.015374511
-0.014545332 0.028051713 0.015262961
-0.013581026 0.028206749 0.015157163
-0.012583278 0.028312378 0.014986545
-0.011279955 0.027687162 0.013514847
-0.0031467753 0.028320979 0.011251479
-0.0021073734 0.028449541 0.013156325
-0.0010505939 0.028366035 0.013403267
0 0.027809279 0.01335907
0.0010516889 0.028395602 0.013771325
0.0021055483 0.028424904 0.014179677
0.0031423953 0.028281558 0.015975773
0.0041812523 0.028223453 0.015437156
0.0051847487 0.027997645 0.015533149
0.0062769628 0.028246334 0.015241414
0.0072542746 0.027980775 0.015047878
0.008325249 0.028097715 0.014309525
0.0093785459 0.028135641 0.01257816
-0.022170169 0.029560225 0.011023939
-0.021047875 0.029467026 0.012831926
-0.019969041 0.029428059 0.013675243
-0.018867709 0.029349772 0.014525205
-0.017713996 0.029175993 0.014923155
-0.016647447 0.029133031 0.016038835
-0.015618512 0.029154558 0.015872896
-0.014660291 0.029320583 0.015762687
-0.013553414 0.029191971 0.015697718
-0.012284183 0.028663093 0.014882296
-0.01145527 0.02915887 0.015079707
-0.010467465 0.029308902 0.014336318
-0.0095148627 0.029601797 0.012630761
-0.0085043218 0.029765127 0.012778342
-0.0063014338 0.029406691 0.012521476
-0.005335005 0.029876027 0.013484508
-0.0042245737 0.029572016 0.013843209
-0.0031287197 0.029201385 0.014117271
-0.0020877919 0.029229086 0.01429069
-0.0010421417 0.029179968 0.014438838
0 0.029052323 0.014457494
0.0010568009 0.029590426 0.01378721
0.0020947261 0.029326167 0.01378721
0.0031403981 0.029310383 0.014787555
0.0042201942 0.02954136 0.014847517
0.0051975469 0.029106265 0.015225649
0.0062266253 0.029057585 0.015143871
0.0073317927 0.029327171 0.0148049
0.0083997212 0.029399022 0.013188988
-0.021155916 0.030676082 0.010973573
-0.019840855 0.030283412 0.012784243
-0.018891713 0.03043665 0.013854533
-0.017878197 0.030498102 0.014806628
-0.016657142 0.030191069 0.015772372
-0.015581109 0.030123478 0.016146362
-0.014615152 0.030274244 0.016234815
-0.01356603 0.030262684 0.016067296
-0.012538049 0.030300288 0.015429914
-0.011583642 0.030538695 0.015337586
-0.010316051 0.029916547 0.015736371
-0.0093730921 0.030202189 0.015800416
-0.0082999747 0.030087408 0.015837342
-0.0072415341 0.030000642 0.013611645
-0.0062579941 0.030246973 0.013824522
-0.0051960177 0.030136904 0.015174806
-0.0041574175 0.030141275 0.0161075
-0.0031396591 0.030350039 0.0161075
-0.0020967876 0.030403418 0.015905291
-0.0010552758 0.030602997 0.015696406
0 0.030414378 0.014787555
0.0010363011 0.030052735 0.014166772
0.0020970309 0.030406948 0.014166772
0.0031263407 0.030221296 0.014566272
0.0041472004 0.030067204 0.014621794
0.0051744301 0.030011695 0.014873415
0.0062733181 0.030321039 0.014630437
0.0073147449 0.030303946 0.013910532
0.0084609827 0.030671064 0.010005176
-0.019870693 0.031374779 0.011988729
-0.018875133 0.031458557 0.013471305
-0.017667342 0.03117766 0.013637006
-0.016643398 0.031206371 0.013987631
-0.015852597 0.031705193 0.014878869
-0.014447431 0.030958781 0.015247345
-0.013610158 0.031408057 0.015711844
-0.012443857 0.031109644 0.015041739
-0.011423731 0.031155631 0.015337586
-0.010439986 0.031319961 0.016120374
-0.009388335 0.03129445 0.015800416
-0.0084190657 0.031571496 0.016313642
-0.0073529822 0.031512782 0.016380489
-0.0062995269 0.031497635 0.016454339
-0.0051968894 0.031181337 0.016345054
-0.0041654105 0.031240581 0.016434968
-0.003138171 0.031381711 0.016356111
-0.0020880119 0.031320181 0.015643686
-0.0010409756 0.031229265 0.015158176
0 0.031099847 0.015159935
0.0010435901 0.031307701 0.014763921
0.0020912956 0.031369433 0.014284074
0.0031398127 0.031398129 0.014419764
0.004189488 0.031421158 0.014214069
0.0052555613 0.031533372 0.013954937
0.006226934 0.031134671 0.012525231
0.0073819207 0.031636804 0.01069662
0.008470132 0.031762995 0.0094712079
-0.018869378 0.032497264 0.01203385
-0.017787907 0.032436773 0.012882411
-0.016746188 0.03244574 0.013682663
-0.015564372 0.032166369 0.014623135
-0.014606308 0.032342538 0.015121549
-0.01353807 0.03228309 0.015519679
-0.012391916 0.032012451 0.015285969
-0.011539219 0.03251962 0.015478879
-0.010324361 0.032005522 0.015800387
-0.0093159936 0.032088425 0.015572131
-0.0083294595 0.032276656 0.015588701
-0.0073086149 0.032366727 0.015623093
-0.0062567564 0.032326575 0.016058028
-0.0052129254 0.032320138 0.015442729
-0.0041711866 0.032326698 0.015817583
-0.0031069377 0.032105025 0.015732527
-0.0020741206 0.032148868 0.015545279
-0.0010450337 0.032396048 0.014936537
0 0.032437611 0.014957935
0.0010466144 0.032445047 0.015027046
0.0020733909 0.032137562 0.014403254
0.0031109499 0.032146484 0.014475942
0.0041848035 0.032432228 0.013613433
0.0051904335 0.032180689 0.013742775
0.0063227699 0.032667648 0.012066364
0.0074107321 0.032818958 0.0098209679
-0.017774109 0.033457145 0.0097453892
-0.016748749 0.033497497 0.012722731
-0.015664283 0.033417139 0.013618648
-0.014719961 0.033645626 0.014111936
-0.013496726 0.033222709 0.015051633
-0.012543324 0.033448864 0.015102834
-0.011486169 0.033414312 0.015639037
-0.010473033 0.03351371 0.015588701
-0.0093705021 0.033317342 0.015319049
-0.0083224829 0.033289932 0.015319049
-0.0073203729 0.033464562 0.015348256
-0.0062296418 0.033224758 0.015265197
-0.0052258843 0.03344566 0.015255481
-0.0041375505 0.033100404 0.01533854
-0.0031262049 0.033346187 0.015545279
-0.002088059 0.033408944 0.01561746
-0.0010400884 0.033282828 0.015519381
0 0.033333503 0.014910638
0.0010440393 0.033409256 0.014436454
0.0020794279 0.033270847 0.013482451
0.0031356865 0.033447322 0.013197601
0.0041706138 0.033364911 0.012684464
0.0052553611 0.033634312 0.0112966
0.0063499762 0.03386654 0.010268301
0.0073880125 0.033773772 0.0090047121
-0.018088432 0.035112839 0.0089372396
-0.016912477 0.034881983 0.0097288489
-0.015796851 0.034753073 0.010920763
-0.014552897 0.034303255 0.012523979
-0.0136385 0.034620807 0.012545615
-0.012557561 0.034533292 0.014214665
-0.011453783 0.034361351 0.014796793
-0.010403489 0.034331512 0.014583379
-0.0093839224 0.034407716 0.014627129
-0.0083358716 0.034385473 0.015267193
-0.0073371846 0.034589585 0.015267193
-0.0062327604 0.034280181 0.015172601
-0.0051789531 0.034181092 0.015214741
-0.0041999123 0.034649275 0.015098721
-0.0031394288 0.034533717 0.015004665
-0.0020811961 0.034339733 0.014771789
-0.0010418231 0.03438016 0.014459044
0 0.034255937 0.013916135
0.0010407292 0.034344066 0.013541728
0.0021022218 0.034686662 0.012694985
0.0031188286 0.034307115 0.012463182
0.0042021 0.034667321 0.010587156
0.0052476167 0.03463427 0.0090462267
0.0063381223 0.034859672 0.0088684559
-0.016991531 0.036107004 0.0070761442
-0.015840929 0.035906106 0.0093416572
-0.014750493 0.035822626 0.0099323392
-0.013712241 0.035862785 0.010421783
-0.01253236 0.035508353 0.011633277
-0.011564308 0.035744227 0.013620764
-0.01036367 0.035236482 0.013801157
-0.0093551865 0.035341818 0.01373297
-0.0083705857 0.035574991 0.014054507
-0.0072744265 0.035332929 0.013955235
-0.006269373 0.035526447 0.013688087
-0.0052115936 0.035438839 0.012775332
-0.0041715787 0.035458419 0.013339132
-0.0031072448 0.035215441 0.013175219
-0.0021130855 0.035922453 0.01177451
-0.0010403914 0.035373308 0.012759566
0 0.035825811 0.011485249
0.0010479252 0.035629459 0.011188865
0.0020937652 0.035594005 0.010547936
0.0031661161 0.035882652 0.011057168
-0.013722728 0.036945805 0.0085843503
-0.012755546 0.037203673 0.0095794499
-0.011589888 0.036876917 0.010100305
-0.010458005 0.036603019 0.010732621
-0.0095171509 0.037011143 0.010664433
0 0 0 1 0 0 0 1 0 0 0 1 0 0 0 0 0 836 1 0 0
