ply
format ascii 1.0
comment PCL generated
element vertex 1291
property float x
property float y
property float z
element camera 0
property float view_px
property float view_py
property float view_pz
property float x_axisx
property float x_axisy
property float x_axisz
property float y_axisx
property float y_axisy
property float y_axisz
property float z_axisx
property float z_axisy
property float z_axisz
property float focal
property float scalex
property float scaley
property float centerx
property float centery
property int viewportx
property int viewporty
property float k1
property float k2
end_header
-0.049155455 0.0087387469 0.010858208
-0.047468387 0.0086306166 0.010841727
-0.045943294 0.0085475901 0.011024237
-0.045194753 0.0086085238 0.010813445
-0.043431308 0.0084744012 0.010822654
-0.042870332 0.0085740667 0.010890186
-0.042173211 0.0086509148 0.011103064
-0.041037064 0.0086393822 0.011080414
-0.039925996 0.0086326478 0.010878593
-0.038895044 0.0086433431 0.010977924
-0.037716668 0.0086209532 0.011003494
-0.036004577 0.008471665 0.01175046
-0.035355881 0.0085711237 0.012315452
-0.033548564 0.0083871409 0.012611955
-0.033571117 0.0086635137 0.012848467
-0.032098569 0.0085596181 0.013280869
-0.030762756 0.0084862774 0.013706774
-0.029882621 0.0085378913 0.014010727
-0.028950056 0.0085777938 0.014217943
-0.027605625 0.0084940391 0.014897585
-0.026958782 0.0086268103 0.015356153
-0.025631713 0.0085439039 0.01599589
-0.024434336 0.0084988996 0.015847892
-0.023510503 0.0085492739 0.015996158
-0.02217765 0.0084486287 0.016133249
-0.020996405 0.0083985627 0.016257644
-0.020128345 0.0084750922 0.016412586
-0.019015251 0.0084512224 0.016257644
-0.01804675 0.0084925881 0.016037494
-0.017075617 0.0085378084 0.015818924
-0.015947798 0.0085054925 0.015429944
-0.014947372 0.0085413558 0.015343368
-0.013933942 0.0085747335 0.014315903
-0.012800951 0.0085339667 0.014200121
-0.01176454 0.0085560298 0.013755888
-0.010712193 0.0085697547 0.013755888
-0.0095208697 0.0084629953 0.013738394
-0.0085853469 0.0085853469 0.013648748
-0.0074988762 0.0085701449 0.013994277
-0.0063876384 0.0085168518 0.014331341
-0.0053268718 0.0085229957 0.01449877
-0.0042104106 0.0084208213 0.014760315
-0.0031961 0.0085229333 0.014914185
-0.0021323517 0.008529407 0.01557529
-0.0010529568 0.0084236544 0.016016006
0 0.0084826937 0.016390145
0.0010586873 0.0084694987 0.016727954
0.0020932136 0.0083728544 0.017321289
0.0031986604 0.0085297618 0.016956985
0.0042067529 0.0084135057 0.016946435
0.0052842014 0.0084547224 0.016641319
0.0063880039 0.0085173389 0.016286612
0.0074062869 0.008464328 0.01593253
0.0084912386 0.0084912386 0.016012967
0.0095943725 0.0085283313 0.016365796
0.010576287 0.0084610302 0.015752763
0.01166399 0.0084829014 0.01593852
0.012781207 0.0085208043 0.016151488
0.01368126 0.0084192371 0.016151488
0.014787869 0.0084502101 0.016321957
0.015957849 0.0085108532 0.016507179
0.016815389 0.0084076943 0.017166078
0.018006366 0.0084735844 0.017483383
0.018821217 0.0083649857 0.017560184
0.020061238 0.0084468368 0.017410874
0.021253349 0.0085013406 0.016821355
0.022136739 0.008433043 0.016765565
0.023036435 0.0083768861 0.016504914
0.024323747 0.0084604332 0.015815377
0.025373206 0.0084577352 0.015156507
0.026639348 0.0085245911 0.015125066
0.028111773 0.0086497767 0.014961243
0.028805535 0.0085349726 0.014772803
0.029695312 0.0084843747 0.014755696
0.03088795 0.0085208137 0.014528334
0.031354468 0.0083611915 0.014500886
0.033062376 0.0085322261 0.014701188
0.03387915 0.0084697874 0.014849067
0.03512932 0.008516199 0.014623582
0.036421768 0.0085698282 0.014547974
0.037166137 0.0084951175 0.014448613
0.037933268 0.0084296158 0.014233083
0.039505985 0.0085418336 0.013594061
0.040594269 0.0085461624 0.013094693
0.041025527 0.0084154932 0.012910753
0.042957682 0.0085915364 0.012178987
0.043384064 0.008465183 0.011297196
0.045003764 0.0085721454 0.010049075
0.046266492 0.00860772 0.0078466237
0.046580505 0.008469183 0.0069006979
0.048653841 0.0086495718 0.0058519542
-0.057325687 0.0097345505 0.0054849684
-0.056535695 0.0097850235 0.0061916113
-0.05511136 0.0097255334 0.0067767501
-0.053856984 0.0096942559 0.0076000094
-0.052970849 0.0097293397 0.0082737207
-0.051809434 0.0097142681 0.0087465942
-0.050340842 0.0096397353 0.0095611811
-0.04996641 0.0097760363 0.009696722
-0.048749425 0.0097498838 0.0098792315
-0.047191281 0.0096527617 0.0098792315
-0.046383951 0.0097082686 0.010236353
-0.044998854 0.0096426113 0.010103524
-0.043593124 0.0095692212 0.010179847
-0.043210186 0.0097222915 0.010331422
-0.042045582 0.0097028269 0.010822654
-0.040878091 0.0096816523 0.010967255
-0.03978914 0.0096784383 0.010773003
-0.03849956 0.0096248901 0.010993093
-0.037395857 0.0096160769 0.011117995
-0.036477678 0.0096558547 0.011767894
-0.034746543 0.0094763292 0.012748957
-0.034501553 0.0097035617 0.012910694
-0.033379048 0.0096906899 0.013240159
-0.031843383 0.0095530143 0.013594002
-0.031032665 0.0096308263 0.014178813
-0.029778881 0.0095717823 0.014468223
-0.028588884 0.0095296269 0.014809817
-0.028103959 0.0097282929 0.015390724
-0.026811337 0.0096520809 0.015647888
-0.025526667 0.0095725004 0.015898347
-0.024652807 0.0096467501 0.016111523
-0.023323122 0.0095412778 0.016263247
-0.022144515 0.0094905058 0.016449004
-0.021341113 0.0096035013 0.016567349
-0.020013899 0.0094802668 0.016637027
-0.0190548 0.0095274001 0.016438991
-0.01810481 0.0095848991 0.016213238
-0.016826192 0.0094647324 0.016260892
-0.015920455 0.009552272 0.015587479
-0.014890287 0.0095723271 0.015367627
-0.013846076 0.0095857447 0.014677614
-0.01294651 0.0097098825 0.014505267
-0.011762577 0.0096239261 0.013961613
-0.010715283 0.009643754 0.014014184
-0.00964652 0.00964652 0.01379624
-0.0085419845 0.0096097318 0.013802946
-0.0074656256 0.0095986612 0.014297634
-0.0063865674 0.0095798504 0.014449149
-0.0053040357 0.0095472643 0.014754593
-0.0042489562 0.009560151 0.015170485
-0.0032006854 0.0096020559 0.015541285
-0.0021029778 0.0094634006 0.016087621
-0.0010531448 0.0094783027 0.016599417
0 0.0095639201 0.017175615
0.0010524133 0.0094717192 0.017288059
0.0021232166 0.0095544737 0.01767993
0.0031617328 0.0094851982 0.01757434
0.0042345701 0.0095277829 0.017522067
0.0052994643 0.0095390351 0.01736173
0.0063441438 0.0095162159 0.016706407
0.0073747481 0.0094818184 0.016655087
0.0085244309 0.009589985 0.016813576
0.0095390137 0.0095390137 0.016741991
0.010679327 0.0096113943 0.016347468
0.011779334 0.0096376371 0.016321957
0.012708141 0.0095311049 0.016342908
0.013646476 0.0094475597 0.016285151
0.014921845 0.0095926141 0.016502738
0.015785217 0.0094711296 0.016841918
0.016932422 0.009524487 0.017039448
0.018003343 0.0095311813 0.017372191
0.018976972 0.0094884858 0.017524451
0.020000016 0.0094736917 0.017288417
0.020991638 0.0094462372 0.016888857
0.022170084 0.0095014637 0.016989589
0.023407487 0.0095757898 0.016251594
0.02432386 0.009518031 0.015814841
0.02560845 0.0096031688 0.015248328
0.02694671 0.0097008152 0.015203953
0.027795542 0.0096215336 0.014939934
0.028960019 0.0096533392 0.014711171
0.030437833 0.0097835893 0.014500886
0.030568939 0.0094869118 0.014106512
0.031896267 0.0095688794 0.014296919
0.032908015 0.0095539391 0.01413697
0.03385403 0.0095214453 0.014248163
0.034570113 0.0094282124 0.014260203
0.036260828 0.0095984545 0.014057726
0.036696572 0.0094362609 0.014082521
0.03825913 0.0095647825 0.013525665
0.039339952 0.0095691765 0.013359815
0.040373053 0.0095620388 0.013074785
0.041733239 0.0096307471 0.012488663
0.042804994 0.0096311234 0.011260182
0.043530963 0.0095555764 0.01060307
0.045312054 0.0097097252 0.0083740652
0.046751436 0.0097851837 0.007275641
0.047767177 0.0097705591 0.0056986809
-0.056654982 0.010895188 0.0054884851
-0.054738078 0.010732956 0.0061695874
-0.053605843 0.010721168 0.0071076155
-0.053044833 0.010825476 0.0077697337
-0.052059144 0.010845655 0.0083862841
-0.051299643 0.010914817 0.0090288818
-0.048885435 0.010627268 0.0097468197
-0.048384026 0.010752006 0.0096955299
-0.047804363 0.010864628 0.0096955299
-0.046016369 0.010701481 0.0098261237
-0.044644844 0.010629724 0.0098139346
-0.04355327 0.010622748 0.010200083
-0.042717561 0.01067939 0.010199934
-0.041768644 0.010709909 0.010285765
-0.041323047 0.010874486 0.010315955
-0.039721671 0.010735585 0.01016444
-0.038742084 0.01076169 0.010483682
-0.037361775 0.010674792 0.010590971
-0.036277279 0.010669787 0.011678249
-0.035125397 0.01064406 0.012485117
-0.034573406 0.010804189 0.012910694
-0.033377077 0.010766799 0.013414562
-0.032291926 0.010763976 0.013821751
-0.030766368 0.010609091 0.014320672
-0.029388925 0.010496045 0.014760077
-0.029076541 0.010769089 0.014959753
-0.027888793 0.010726458 0.015338421
-0.026364116 0.010545646 0.015793592
-0.025586493 0.010661039 0.015818387
-0.024336418 0.010581051 0.016063541
-0.023237385 0.010562448 0.016219795
-0.022328563 0.010632648 0.016417652
-0.021107288 0.010553644 0.016623944
-0.02009948 0.010578673 0.01663211
-0.019044902 0.010580502 0.016386122
-0.018097525 0.010645603 0.016274601
-0.017202336 0.01075146 0.016464174
-0.01596885 0.0106459 0.015874803
-0.014805823 0.010575587 0.015434533
-0.013879313 0.010676394 0.015200168
-0.012936967 0.010780807 0.014674217
-0.011710938 0.010646308 0.014264017
-0.010728053 0.010728053 0.014253944
-0.00959823 0.010664701 0.014125347
-0.0085039353 0.010629919 0.013950199
-0.0074502514 0.010643216 0.014355421
-0.0063693663 0.010615611 0.014707237
-0.005327492 0.010654984 0.014808357
-0.0042777173 0.010694293 0.015382737
-0.0031584364 0.010528121 0.015730768
-0.0021033408 0.010516703 0.016159624
-0.0010585684 0.010585683 0.016669869
0 0.010525369 0.017131656
0.0010728932 0.010728931 0.017260671
0.0021072419 0.01053621 0.017349243
0.0031633738 0.010544579 0.017405927
0.0042226156 0.010556539 0.017280459
0.0052631884 0.010526377 0.017044246
0.0062622167 0.010437028 0.016745061
0.0073734578 0.010533511 0.016521156
0.0084824832 0.010603103 0.016494691
0.0095351562 0.010594619 0.016450822
0.0106726 0.0106726 0.016174287
0.011591631 0.010537846 0.016174287
0.012727858 0.010606549 0.016279846
0.01383496 0.010642276 0.016045421
0.014792176 0.01056584 0.016435146
0.015898496 0.010598997 0.016834766
0.016963577 0.010602235 0.017184138
0.017972251 0.010571912 0.017443389
0.019201646 0.01066758 0.017497659
0.020157324 0.010609117 0.017329305
0.021204699 0.010602349 0.016971827
0.022374583 0.010654562 0.016808331
0.023430204 0.010650093 0.016089857
0.024365811 0.010593831 0.015882403
0.025501793 0.010625747 0.015229791
0.026612032 0.010644812 0.015099823
0.027653145 0.010635825 0.01458025
0.028974731 0.01073138 0.014137805
0.030219803 0.010792786 0.013833731
0.030923286 0.010663201 0.013644874
0.03176856 0.01058952 0.013371021
0.033030421 0.010654974 0.013354748
0.034149528 0.010671726 0.013496161
0.034971029 0.010597282 0.013503075
0.03606458 0.010607229 0.013272643
0.037295889 0.010655968 0.013159275
0.038228467 0.010619018 0.013096869
0.039142251 0.010578985 0.012737602
0.04125848 0.010857494 0.012177646
0.04156043 0.01065652 0.011461228
0.042055219 0.010513805 0.010526717
0.04398587 0.010728261 0.0088271201
0.045034412 0.010722479 0.0073157847
0.046441171 0.010800272 0.0059689581
-0.054962739 0.011854708 0.0054943562
-0.054288857 0.011943548 0.006300211
-0.052549288 0.011796779 0.0071447194
-0.052331746 0.011992691 0.0078274608
-0.051111385 0.011962239 0.0085842609
-0.048756927 0.011659265 0.0089111626
-0.048558068 0.011869749 0.0089249909
-0.047572006 0.011893001 0.0092055798
-0.045961272 0.011757535 0.0093485117
-0.045260631 0.011853974 0.0095734298
-0.043823909 0.011757634 0.0095551312
-0.042879757 0.011791933 0.0097818673
-0.041993059 0.011844196 0.0098834038
-0.041117448 0.011902419 0.010047585
-0.039921191 0.011868462 0.0099687874
-0.039023675 0.011923901 0.0097982585
-0.037380595 0.011748187 0.0098693371
-0.036246009 0.011726649 0.010893852
-0.035848785 0.011949595 0.011854589
-0.034172576 0.011746823 0.012957364
-0.033403162 0.011852734 0.013485581
-0.032023598 0.011741986 0.013582706
-0.030579245 0.011599023 0.014197737
-0.029802419 0.011708093 0.014858961
-0.028912084 0.011778996 0.015142083
-0.027436262 0.01160765 0.015558094
-0.026604209 0.011705851 0.015676409
-0.025269408 0.011581812 0.016014606
-0.024336228 0.011639065 0.0160622
-0.023546498 0.011773249 0.016365916
-0.022246573 0.011652966 0.016476989
-0.021228878 0.011675883 0.016747922
-0.020033384 0.011598274 0.016831934
-0.019085305 0.011663242 0.016551107
-0.017847877 0.011548626 0.01638329
-0.016960518 0.011660356 0.016127199
-0.01582893 0.011607882 0.015438437
-0.014784385 0.011616303 0.01517272
-0.013899787 0.011761358 0.014894605
-0.012920036 0.011843367 0.014607221
-0.011837514 0.011837514 0.014275849
-0.010756598 0.011832258 0.014215916
-0.0095471451 0.011668733 0.014272451
-0.0085833315 0.01180208 0.014109433
-0.0073887585 0.011610906 0.014386266
-0.0063693142 0.011677076 0.014694989
-0.0053164773 0.01169625 0.015074104
-0.0042625656 0.011722055 0.015557617
-0.003175966 0.011645208 0.015697449
-0.002129656 0.011713108 0.016543239
-0.0010549028 0.01160393 0.016831279
0 0.011591227 0.017430067
0.0010611808 0.011672989 0.017607689
0.0021089325 0.011599128 0.017667711
0.0031772458 0.011649901 0.017660469
0.0041933269 0.011531649 0.017512441
0.0052680238 0.011589653 0.017160416
0.0063883299 0.011711937 0.016663432
0.0074079558 0.011641073 0.01644361
0.0084916763 0.011676055 0.016814679
0.0095444033 0.011665382 0.016528189
0.010584765 0.011643241 0.016317397
0.01161701 0.01161701 0.016301483
0.012665613 0.011610145 0.016470045
0.013654278 0.011553619 0.016354352
0.014595062 0.011467548 0.016528189
0.015904762 0.011663493 0.016962677
0.016753932 0.011518328 0.017443389
0.018082881 0.011700688 0.017600894
0.019038176 0.011634441 0.017600894
0.019965133 0.011558761 0.017443389
0.021153392 0.011634366 0.01714018
0.022474101 0.011772147 0.016853958
0.023420639 0.01171032 0.016360074
0.024589555 0.011760222 0.015913188
0.025311755 0.011601221 0.015228242
0.026395854 0.011614175 0.015044123
0.027943904 0.01182242 0.014314353
0.028844763 0.01175157 0.013858318
0.030073116 0.011814438 0.013607055
0.031464271 0.011934723 0.013270527
0.032014482 0.011738642 0.013086319
0.032610048 0.011571306 0.013048649
0.034046199 0.011703381 0.012946904
0.03466405 0.011554683 0.01301685
0.036543362 0.011822851 0.012759924
0.036641017 0.011515749 0.012761176
0.0382981 0.011702198 0.01258117
0.039474305 0.011735604 0.012081325
0.040667813 0.011772262 0.011329323
0.04100173 0.011564591 0.010766923
0.043260638 0.011896675 0.0087507665
0.043751813 0.01173829 0.0076361299
0.045242809 0.011849307 0.0064180195
-0.053985652 0.012956556 0.0053504109
-0.052438855 0.012842169 0.0059325099
-0.051993996 0.012998499 0.0070039928
-0.050749294 0.012957267 0.0074551105
-0.049990136 0.013040904 0.0079241991
-0.048328403 0.012887573 0.0080651045
-0.047203433 0.012873664 0.0082201362
-0.046549518 0.012990562 0.0086408257
-0.045384709 0.012967058 0.0085296929
-0.043534916 0.012741926 0.0088187754
-0.043543816 0.013063144 0.0088540912
-0.042269234 0.013005918 0.0091624558
-0.040466633 0.012778937 0.0091117322
-0.040234968 0.013049179 0.0090079606
-0.038360927 0.012786976 0.0093502104
-0.037424684 0.01283132 0.0096046031
-0.036650188 0.01293536 0.0099361539
-0.035491437 0.012905977 0.011325002
-0.034619235 0.012982213 0.012389809
-0.032837536 0.012711303 0.013132006
-0.031760573 0.012704229 0.013403118
-0.030772738 0.012733547 0.014139891
-0.029844549 0.012790521 0.014837712
-0.028484773 0.012659899 0.015103221
-0.027597176 0.012737158 0.015457422
-0.026714841 0.012823123 0.015532345
-0.025439898 0.012719949 0.016041309
-0.024394663 0.012727649 0.01590237
-0.023246251 0.012679773 0.016278803
-0.022250092 0.012714338 0.016279489
-0.021151876 0.012691126 0.016520798
-0.02015109 0.012727004 0.016752809
-0.019047771 0.012698514 0.016341239
-0.018095044 0.012772973 0.015986532
-0.01677027 0.012577701 0.015643001
-0.015882609 0.012706087 0.015050024
-0.014928293 0.01279568 0.014847577
-0.013802177 0.012740471 0.014455289
-0.013037539 0.013037539 0.014200151
-0.011872854 0.012952205 0.014125884
-0.01072536 0.012870433 0.014355868
-0.0093994904 0.012532654 0.014136434
-0.0085734539 0.01286018 0.014226824
-0.0074475212 0.012767179 0.014425248
-0.0063966466 0.012793293 0.014597148
-0.0052786153 0.012668677 0.014751852
-0.0042642099 0.012792629 0.015641004
-0.0031914623 0.012765849 0.015688032
-0.0020973228 0.012583937 0.016457111
-0.0010544613 0.012653536 0.016601473
0 0.012663083 0.017289579
0.0010515358 0.012618429 0.017472446
0.0021118284 0.01267097 0.017653167
0.0031775662 0.012710265 0.017653167
0.0042037521 0.012611256 0.017907381
0.0053029922 0.012727181 0.017337739
0.0063421647 0.012684329 0.016604692
0.0073425844 0.012587287 0.016779602
0.0085373791 0.012806068 0.016965151
0.009482298 0.012643064 0.01661098
0.010667478 0.012800974 0.016503185
0.011740158 0.012807446 0.016384274
0.012670552 0.012670552 0.016517729
0.013672304 0.012620589 0.016507864
0.014917208 0.012786178 0.016503185
0.015702633 0.012562106 0.016676784
0.016927145 0.012695359 0.017146975
0.017978068 0.012690401 0.017427564
0.018932696 0.012621798 0.017427564
0.020195045 0.012754764 0.017146975
0.02126875 0.01276125 0.016656071
0.022237312 0.012707034 0.016451418
0.023686729 0.012920035 0.01590091
0.024345681 0.012702093 0.015229791
0.025372729 0.012686364 0.014876157
0.026520187 0.012729689 0.014448494
0.027488064 0.012686799 0.013675481
0.028916584 0.012851815 0.013346821
0.030426765 0.013040042 0.013035357
0.031118263 0.012876522 0.01282987
0.032057773 0.01282311 0.012595862
0.033336729 0.01290454 0.012585819
0.033880461 0.012705173 0.012585819
0.03535112 0.012854953 0.012576312
0.035801556 0.012635843 0.012409508
0.036755286 0.012601811 0.012287587
0.038502976 0.012834325 0.011617273
0.039406378 0.012780447 0.010937661
0.040284485 0.012721416 0.0099055469
0.041961681 0.012911286 0.0085451603
0.04303439 0.012910317 0.0071612597
0.04427819 0.01295947 0.0063844025
-0.0536916 0.014244711 0.0052160621
-0.051676318 0.01399567 0.0056079626
-0.051098138 0.014133528 0.0065065026
-0.050314922 0.014219434 0.0070493817
-0.048193868 0.013922672 0.0071199238
-0.047647588 0.014077697 0.0073136389
-0.0462984 0.01399719 0.0075541735
-0.045231011 0.014000075 0.0078652501
-0.044396572 0.014076961 0.0081655383
-0.043608367 0.014172719 0.0083182156
-0.042081449 0.014027149 0.0086456835
-0.041150533 0.014077813 0.0085870028
-0.039454971 0.013862556 0.0088245273
-0.038679179 0.013967481 0.0089983344
-0.037821267 0.0140479 0.0093637705
-0.036535855 0.013969592 0.0098229349
-0.035761274 0.014087774 0.011245698
-0.034404654 0.013976891 0.011843055
-0.03300263 0.013839811 0.012984842
-0.032004237 0.013868502 0.013237625
-0.030664589 0.013746195 0.013913363
-0.029624343 0.013754159 0.014714897
-0.028689422 0.013813425 0.014952928
-0.027663022 0.013831511 0.015386999
-0.026563743 0.013813146 0.015734434
-0.025340097 0.013725885 0.01590535
-0.023984144 0.013556254 0.01579535
-0.0233743 0.013812087 0.016278803
-0.022226635 0.013759346 0.016279489
-0.021325527 0.013861593 0.016476989
-0.020122919 0.013768313 0.016551107
-0.019139439 0.013822928 0.016204178
-0.018028423 0.013786441 0.015851527
-0.017033003 0.013839315 0.015577883
-0.015960848 0.013832734 0.014991581
-0.014907518 0.013842695 0.014834881
-0.013934922 0.013934922 0.014665425
-0.013062839 0.014151409 0.014625907
-0.01172115 0.013852268 0.014439106
-0.010765953 0.01399574 0.014541924
-0.0095895836 0.013851621 0.014259756
-0.0085181901 0.013842058 0.013731152
-0.0074217753 0.013783297 0.014025509
-0.0063010864 0.013652354 0.014244109
-0.0052614454 0.013679758 0.014825642
-0.0042309691 0.013750649 0.015415311
-0.003208033 0.013901477 0.015482605
-0.0021273866 0.013828013 0.0160546
-0.0010557198 0.013724357 0.016698003
0 0.013525541 0.017739415
0.001058767 0.01376397 0.017747909
0.0021182452 0.013768595 0.018022329
0.0031573905 0.013682025 0.018048644
0.0042480323 0.013806105 0.017998219
0.0052529136 0.013657575 0.017340928
0.006316077 0.013684833 0.016720593
0.0074251872 0.013789633 0.016693413
0.0084172878 0.013678093 0.016650856
0.0094623659 0.013667862 0.016430348
0.010586835 0.013762886 0.016153961
0.011760017 0.013898202 0.016153961
0.012608161 0.013658842 0.016227067
0.013820104 0.013820104 0.016058415
0.014639774 0.013594076 0.016262174
0.015824735 0.013714771 0.016369134
0.016919008 0.013746693 0.016648501
0.017853489 0.013652668 0.017004043
0.019138344 0.013822136 0.017095685
0.020058148 0.013723996 0.016656071
0.021029713 0.013669313 0.016470671
0.022322489 0.013818683 0.016225904
0.023280589 0.013756711 0.01542455
0.02433819 0.013756367 0.015106529
0.025483178 0.013803388 0.014505744
0.026504438 0.013782308 0.013998479
0.027748408 0.013874204 0.013493836
0.028815836 0.013874291 0.013047308
0.030014159 0.013935145 0.012820452
0.031105272 0.013943743 0.012479961
0.032779094 0.014204274 0.011921197
0.033062905 0.013865088 0.01099661
0.034507688 0.014018747 0.011046469
0.034963548 0.013773519 0.0107961
0.036226165 0.01385118 0.010929674
0.038001888 0.014114986 0.010636508
0.038373258 0.01385701 0.0099102259
0.03901713 0.01370872 0.0095651746
0.041162059 0.014081758 0.0079436898
0.041771557 0.013923852 0.0069050789
0.042866118 0.013931489 0.0062279105
0.044980701 0.014262173 0.0050412416
-0.052218016 0.015230255 0.0050148666
-0.050852101 0.015147435 0.0054480731
-0.049764913 0.015145842 0.0056783557
-0.048931073 0.015223 0.0058909357
-0.048022084 0.015279755 0.0065552592
-0.046346646 0.015089606 0.0071870089
-0.045779597 0.015259866 0.0072215497
-0.044807941 0.015300272 0.0071954429
-0.043226361 0.015129226 0.0075376034
-0.042416185 0.015226323 0.0079264343
-0.040727533 0.015004881 0.0079389215
-0.039804164 0.015061034 0.0083805025
-0.038719643 0.015057639 0.0088672936
-0.037497271 0.014998909 0.0093245804
-0.036739249 0.015127925 0.009734869
-0.035924625 0.01524075 0.01064539
-0.033999398 0.014874738 0.011584818
-0.033112869 0.014954199 0.012484908
-0.031855714 0.014866 0.012988776
-0.030626763 0.014785334 0.013746917
-0.029618455 0.014809228 0.014354348
-0.028716562 0.014890069 0.014688402
-0.027622756 0.014873791 0.015167117
-0.026733328 0.014970663 0.015350163
-0.025447462 0.014844353 0.015750676
-0.024239596 0.014754537 0.015542567
-0.023435252 0.014913343 0.015952617
-0.021962788 0.014641858 0.015790552
-0.021161841 0.014813289 0.015797019
-0.020155923 0.014851732 0.015901953
-0.018984416 0.014765658 0.015659243
-0.017994821 0.014819263 0.015391022
-0.016881537 0.014771345 0.015587628
-0.015932102 0.014869961 0.015098989
-0.014971914 0.014971914 0.014952421
-0.013963837 0.015037978 0.014631063
-0.01285854 0.01500163 0.014680266
-0.011923195 0.015174976 0.014285982
-0.01073215 0.01502501 0.014140368
-0.0095970007 0.014928668 0.013994008
-0.0084950523 0.014866341 0.013775826
-0.0074591083 0.014918217 0.014038891
-0.0063605122 0.014841195 0.014426768
-0.0052878126 0.014805876 0.01518774
-0.0042155008 0.014754253 0.01527524
-0.0031887505 0.014880836 0.015590817
-0.0021491449 0.015044015 0.0160833
-0.0010527667 0.014738733 0.016542166
0 0.014776317 0.017581135
0.0010481355 0.014673896 0.017581135
0.0021111199 0.014777839 0.017972291
0.003176685 0.01482453 0.018013775
0.0042371936 0.014830179 0.017998219
0.0052640485 0.014739336 0.017367721
0.0063546631 0.014827547 0.016689837
0.0073819109 0.014763822 0.016689837
0.0084160911 0.01472816 0.016647279
0.009591518 0.014920139 0.016361505
0.010537817 0.014752944 0.016084015
0.011705423 0.014897811 0.015989423
0.012816877 0.014953023 0.016093284
0.013738972 0.014795816 0.015874088
0.014672646 0.014672646 0.015947193
0.015757635 0.014707127 0.016040117
0.016880563 0.014770492 0.016170204
0.017933754 0.014768974 0.016391218
0.019102762 0.014857705 0.016286612
0.019814746 0.01460034 0.015882671
0.02125557 0.014878899 0.015741438
0.022154478 0.014769652 0.015483439
0.02338974 0.014884381 0.014781505
0.024590813 0.014968321 0.014553368
0.025266435 0.014738754 0.0140692
0.026474845 0.014825912 0.013414979
0.027630661 0.014878049 0.012975842
0.028810132 0.014938586 0.012592047
0.029592922 0.014796461 0.012022942
0.031324748 0.015122292 0.010813892
0.032180212 0.015017433 0.010507584
0.033709925 0.015223836 0.010475397
0.034392055 0.015046523 0.010240942
0.034794278 0.014761209 0.0099062026
0.036576156 0.015060769 0.0095863938
0.037771359 0.015108544 0.0091117918
0.038114406 0.01482227 0.0078143477
0.04000847 0.01513834 0.0075115561
0.040974203 0.015095758 0.0061432719
0.042465862 0.015244155 0.0054615736
-0.048602447 0.016200814 0.0052656531
-0.047266264 0.016113499 0.005438596
-0.04677495 0.016316842 0.0058183968
-0.045597337 0.016284764 0.0057528913
-0.044560373 0.016302574 0.0063395202
-0.043663874 0.016373955 0.0067567229
-0.042107277 0.016195107 0.0070281029
-0.040728491 0.016077036 0.0070187151
-0.040038552 0.016231846 0.0077791214
-0.038628776 0.016095323 0.0081852078
-0.037957054 0.016267309 0.0089880526
-0.037280917 0.016447462 0.0094062686
-0.035558674 0.016163034 0.010252416
-0.034532793 0.016187247 0.011009455
-0.033070344 0.01600178 0.011868417
-0.03177264 0.01588632 0.012879223
-0.030927146 0.015996799 0.013631344
-0.029779177 0.015953131 0.014226913
-0.028653242 0.015918467 0.014531523
-0.027533315 0.015884606 0.014697701
-0.026686829 0.016012097 0.015106678
-0.025496259 0.015935162 0.01538077
-0.024497649 0.015976727 0.015190721
-0.023422427 0.015969837 0.01527217
-0.022360766 0.015971975 0.015371561
-0.021178188 0.015883641 0.015629411
-0.019891594 0.015703889 0.015716046
-0.019103229 0.015919358 0.015368193
-0.017946623 0.015835255 0.014977902
-0.016783571 0.015734598 0.014873356
-0.015877688 0.015877688 0.014954418
-0.015038763 0.016112961 0.014353752
-0.013883404 0.016019313 0.014078945
-0.012917307 0.016146634 0.014140368
-0.011854445 0.016165152 0.014041841
-0.010630063 0.015945094 0.013839394
-0.0096169654 0.016028276 0.0135943
-0.008517676 0.015970644 0.013679028
-0.0074110962 0.01588092 0.01405713
-0.0063811392 0.015952848 0.014469445
-0.0053028706 0.015908612 0.014900774
-0.0042126821 0.015797557 0.015059739
-0.0032096657 0.016048329 0.015587091
-0.0021529719 0.016147289 0.015819371
-0.0010523667 0.0157855 0.016463131
0 0.015864154 0.017201513
0.0010526105 0.015789157 0.017376423
0.0021211656 0.015908742 0.017746478
0.0031723762 0.01586188 0.017935634
0.0041707624 0.015640359 0.017787963
0.0052739293 0.015821788 0.017325729
0.0063515292 0.015878823 0.016689599
0.0073300679 0.015707288 0.016693413
0.0084850229 0.015909418 0.016430348
0.0094365897 0.015727649 0.016153961
0.010589859 0.015884789 0.015989423
0.011747244 0.01601897 0.015896618
0.012720705 0.015900882 0.015944451
0.013837486 0.01596633 0.015499115
0.014801757 0.015859026 0.015364468
0.015570802 0.015570802 0.015295506
0.0169784 0.015917249 0.015618175
0.017960077 0.015847126 0.015745848
0.019092271 0.015910227 0.015785694
0.02014138 0.015901089 0.015558124
0.021153845 0.015865384 0.015410185
0.022084754 0.015774824 0.014743775
0.02334881 0.015919643 0.014366806
0.024522834 0.015993152 0.014229387
0.025378017 0.015861262 0.013551176
0.026624495 0.015974697 0.0129655
0.027658207 0.015956659 0.012501061
0.028567884 0.015871046 0.01173842
0.03026934 0.016215717 0.010694355
0.03112454 0.0160989 0.010289669
0.032290336 0.016145168 0.0099627674
0.033735141 0.016323455 0.0095873475
0.03408381 0.015976785 0.0092581511
0.035578713 0.016172143 0.0080953836
0.03670498 0.016193375 0.0076142251
0.037272952 0.015974123 0.0067382753
0.039056987 0.016273746 0.0060684085
0.039957736 0.016199082 0.0056690872
-0.046929371 0.017462092 0.0051288605
-0.045129795 0.017192302 0.0053421855
-0.045115232 0.017605944 0.0053484142
-0.043390524 0.017356209 0.0058270991
-0.04195898 0.017213941 0.0062184036
-0.041229352 0.017359728 0.0064257979
-0.039776571 0.017200679 0.0068586767
-0.03932194 0.017476419 0.0074621439
-0.038008641 0.01737538 0.0083366632
-0.036823239 0.017328583 0.0091724694
-0.035527203 0.017225312 0.0099640191
-0.034300145 0.017150072 0.010315269
-0.032777164 0.016917245 0.011584818
-0.032055747 0.017096398 0.0123353
-0.030908309 0.017052859 0.013306528
-0.029548269 0.016884726 0.013911217
-0.028663613 0.016985843 0.014354348
-0.027625509 0.017000314 0.014391035
-0.026609769 0.017030252 0.014773071
-0.025601814 0.017067876 0.015031964
-0.02406719 0.016742393 0.014911413
-0.023255551 0.016913129 0.015004903
-0.022211671 0.016923178 0.015151501
-0.021073915 0.016859133 0.015212208
-0.019823765 0.016693696 0.015513867
-0.018921709 0.016819298 0.015046
-0.017841408 0.016791914 0.014912754
-0.016921239 0.016921239 0.014812052
-0.015849669 0.016906314 0.014438897
-0.01489836 0.017026698 0.014426082
-0.013897895 0.017105101 0.014073461
-0.012942368 0.017256491 0.014000386
-0.011783626 0.017139819 0.01398319
-0.010793486 0.017269578 0.013887972
-0.0094970763 0.016883692 0.013731986
-0.0084851775 0.016970355 0.014004171
-0.0074159224 0.01695068 0.014155626
-0.0063432381 0.016915303 0.014540225
-0.0052709831 0.016867146 0.014960736
-0.0042327452 0.016930981 0.015211314
-0.0031682309 0.016897231 0.015471518
-0.0021325364 0.017060291 0.015725732
-0.0010624398 0.016999036 0.015999556
0 0.016802173 0.016671598
0.0010602464 0.016963942 0.016705751
0.0020989052 0.016791241 0.016776949
0.0031466633 0.016782206 0.016830534
0.0042566271 0.017026508 0.01711309
0.0052319928 0.016742378 0.016472638
0.006263555 0.016702814 0.016043484
0.0074240244 0.016969198 0.01611191
0.0084320605 0.016864121 0.016013175
0.0094526717 0.016804751 0.015934736
0.010640607 0.017024972 0.015635431
0.011720651 0.017048219 0.015534937
0.012699745 0.016932992 0.015534937
0.013974682 0.017199609 0.014977306
0.01491882 0.01705008 0.01482147
0.015823184 0.016878063 0.01472193
0.016920265 0.016920265 0.014892459
0.017893149 0.016840611 0.015324116
0.019207655 0.017073471 0.015281826
0.020209974 0.017018924 0.015141666
0.020933958 0.016747167 0.014607668
0.022189951 0.016906628 0.014508218
0.023250198 0.016909234 0.014089644
0.024372175 0.016954556 0.013439357
0.025739018 0.017159346 0.01274693
0.026492711 0.016955335 0.012343466
0.027704548 0.017048953 0.011413038
0.028996794 0.017183285 0.010479033
0.030120073 0.017211471 0.01003921
0.03110392 0.017160783 0.0094432235
0.032540586 0.017354978 0.0086826384
0.033470146 0.017274912 0.0076767206
0.034673288 0.017336644 0.0070287883
0.035923954 0.017417675 0.0062022209
0.036509499 0.017180942 0.0057997108
0.037970405 0.017357899 0.0052729547
-0.043332752 0.018416421 0.0050148666
-0.042432372 0.018496163 0.0052389503
-0.040775746 0.018241782 0.0053777993
-0.040178761 0.018460512 0.006260097
-0.039796293 0.018792694 0.0070597827
-0.038006887 0.018460488 0.00779441
-0.036695644 0.018347822 0.0088587999
-0.035942324 0.018515741 0.0096750557
-0.034288861 0.018215958 0.010427952
-0.033353746 0.018290764 0.011268675
-0.032141767 0.018213669 0.011677057
-0.030646119 0.017964967 0.012890786
-0.030016592 0.01822436 0.013614118
-0.028727962 0.018087976 0.014071196
-0.027379265 0.017901827 0.014195174
-0.026970332 0.018339826 0.01445958
-0.025307292 0.017925998 0.014572769
-0.024329107 0.017982384 0.014812052
-0.022988195 0.017763605 0.01446563
-0.022228556 0.017994545 0.014486164
-0.02125185 0.018064074 0.014391154
-0.020174367 0.018050749 0.014537156
-0.01933166 0.018257681 0.014696062
-0.018082732 0.018082732 0.014639586
-0.017061697 0.018128054 0.014161766
-0.015936617 0.0180615 0.014185995
-0.014960757 0.018166633 0.014185995
-0.013902007 0.018179547 0.013766795
-0.012870888 0.018233759 0.013825566
-0.011883563 0.018365508 0.01375711
-0.01069067 0.01817414 0.013725251
-0.0094802026 0.017907051 0.013672292
-0.0085632419 0.018196888 0.01371631
-0.007407058 0.01798857 0.013927132
-0.00632285 0.017914742 0.014247477
-0.0053133857 0.018065512 0.014770597
-0.0041952711 0.017829902 0.014752686
-0.0031669908 0.017946282 0.014823139
-0.0021264683 0.018074982 0.015487075
-0.0010536797 0.017912555 0.015939415
0 0.017970607 0.016332775
0.0010637315 0.018083436 0.016406775
0.00210405 0.017884424 0.016740829
0.0031571221 0.017890358 0.016740829
0.004179189 0.017761555 0.016639888
0.0052073924 0.017705135 0.016482681
0.0063769412 0.018068001 0.015873253
0.0073652728 0.017887091 0.015977472
0.0084687117 0.017996011 0.015896618
0.0095240548 0.017989883 0.015556484
0.010583484 0.017991923 0.015104532
0.01174356 0.018149137 0.014927506
0.012698439 0.017989457 0.014727533
0.013720742 0.017942509 0.014451653
0.014848244 0.018030012 0.014250815
0.015974971 0.018104967 0.013656974
0.016797757 0.017847616 0.013846129
0.018174822 0.018174822 0.01455304
0.019092849 0.018032137 0.0140329
0.019965097 0.017863508 0.014327019
0.021285923 0.018093036 0.01404506
0.022039475 0.017841479 0.014006376
0.023222385 0.017944571 0.013224125
0.024520753 0.018124035 0.012809873
0.02553351 0.018086238 0.012208849
0.026725601 0.01817341 0.01125282
0.027992541 0.018302817 0.01044777
0.028831352 0.018153073 0.0097635686
0.030018292 0.018225392 0.0089163482
0.031456675 0.01844012 0.0076890886
0.032198265 0.018245684 0.0065684319
0.033961926 0.01862428 0.0057997108
0.034685288 0.01842656 0.0054568052
0.035976384 0.018533289 0.0053352714
-0.041078851 0.019984303 0.0056824684
-0.039508056 0.019754028 0.0063278675
-0.037845593 0.019463448 0.0072338879
-0.036803104 0.019483995 0.008218199
-0.03539551 0.019306643 0.0093870163
-0.034487221 0.019399062 0.0099521875
-0.033276703 0.019321954 0.010781616
-0.03176653 0.019059917 0.011440784
-0.030929981 0.019197917 0.012177885
-0.029878918 0.019207874 0.013065398
-0.028629666 0.019086443 0.013481379
-0.027869385 0.019294189 0.01359272
-0.026730297 0.019245813 0.013681591
-0.025438797 0.019079097 0.013849139
-0.024498502 0.019172739 0.013949722
-0.023360357 0.019113017 0.013852775
-0.022373043 0.019176893 0.01383996
-0.021343226 0.019208904 0.013987362
-0.020186042 0.019123618 0.0142304
-0.018947279 0.018947279 0.014158756
-0.01799489 0.019053413 0.014226466
-0.016889416 0.019000592 0.014024019
-0.015987838 0.019185405 0.013968259
-0.014876455 0.01912687 0.013960898
-0.013843506 0.01916793 0.01364252
-0.012951316 0.019426974 0.013582528
-0.01180457 0.019316571 0.013685524
-0.010579892 0.019043805 0.013707906
-0.009532881 0.019065762 0.013475507
-0.0084809428 0.01908212 0.013775796
-0.007391755 0.01900737 0.013929367
-0.0063846502 0.019153951 0.013843387
-0.0052646878 0.018952876 0.014375716
-0.0041906717 0.018858023 0.014345616
-0.0031882084 0.01912925 0.014461458
-0.0021174648 0.019057183 0.015270472
-0.0010606307 0.019091351 0.015466601
0 0.019158294 0.015738517
0.001054722 0.018984996 0.016231358
0.0021219724 0.019097749 0.016418636
0.0031659144 0.018995486 0.016494572
0.0042118686 0.018953409 0.016375244
0.0053295558 0.019186402 0.016457111
0.0063261795 0.018978538 0.015735835
0.0073218364 0.018827578 0.016097903
0.0084984824 0.019121585 0.015520304
0.0094912266 0.018982453 0.015007704
0.010623737 0.019122725 0.01465711
0.011708119 0.01915874 0.01458171
0.012699245 0.019048868 0.014068395
0.013682839 0.018945469 0.013716161
0.014880716 0.019132348 0.013365686
0.016091928 0.019310312 0.013189107
0.017286746 0.019447587 0.01322636
0.018069383 0.019132286 0.013878167
0.019171825 0.019171825 0.013517737
0.020123614 0.019064475 0.013368189
0.021318892 0.019187002 0.012816995
0.022350049 0.019157182 0.012883365
0.02347677 0.019208265 0.012443006
0.024551652 0.019214336 0.011904001
0.025634345 0.019225758 0.010983676
0.027008437 0.019446073 0.01044777
0.02770818 0.019182585 0.0097852647
0.028993959 0.019329304 0.008336246
0.030355319 0.019514132 0.0069136322
0.03095817 0.019215414 0.0055029094
0.032163791 0.019298274 0.0050610602
-0.038176801 0.02072455 0.0061721802
-0.03652858 0.020413032 0.0072178841
-0.035147075 0.020236196 0.0084456801
-0.034467723 0.020465212 0.0093117058
-0.033335008 0.020431133 0.009878099
-0.03229494 0.020453462 0.010494322
-0.030993372 0.020306002 0.011371464
-0.029814241 0.020231092 0.011777997
-0.028910229 0.020344235 0.012582868
-0.027714478 0.020252887 0.01276207
-0.026620843 0.020231841 0.013210863
-0.025565736 0.020239541 0.013415486
-0.024413172 0.020167403 0.013453543
-0.02339647 0.020206043 0.013427407
-0.022309156 0.020184474 0.01354
-0.021032965 0.019981317 0.013662547
-0.020005705 0.020005705 0.0138942
-0.019147713 0.020211475 0.013861597
-0.017936956 0.020047186 0.013930351
-0.017047163 0.020243505 0.013705313
-0.015917523 0.020162195 0.013562739
-0.014810828 0.020100409 0.013542026
-0.013877521 0.020282531 0.013308257
-0.01288115 0.020395154 0.013502479
-0.011663238 0.020145593 0.013699651
-0.0105805 0.02010295 0.013654321
-0.0095564425 0.020174714 0.01333496
-0.0084575545 0.020086693 0.013541579
-0.0074488763 0.02021838 0.013825387
-0.0063462774 0.020096546 0.013827711
-0.0052997083 0.020138891 0.014227122
-0.0042579137 0.020225089 0.014127463
-0.0031838208 0.020164199 0.014182836
-0.0021041867 0.019989774 0.014770597
-0.0010569756 0.020082537 0.014886439
0 0.020039784 0.014963597
0.0010655025 0.020244548 0.01600492
0.0021227021 0.020165671 0.015992016
0.0031459988 0.019924659 0.016244501
0.0042223455 0.020056143 0.015735835
0.0052881367 0.020094922 0.01600492
0.0063539511 0.020120846 0.01493454
0.0074156267 0.020128129 0.015140057
0.0083922762 0.019931655 0.014858156
0.0095257536 0.020109925 0.014357328
0.010663307 0.020260284 0.01363638
0.011664577 0.020147907 0.013129354
0.012724081 0.020146461 0.013010472
0.013780975 0.020141425 0.012775898
0.014795488 0.02007959 0.012634516
0.015976865 0.020237362 0.01259318
0.017147457 0.020362606 0.012441933
0.017984543 0.02010037 0.012705505
0.01939523 0.020472744 0.012482464
0.020343237 0.020343237 0.012160927
0.021086497 0.020032173 0.011374027
0.022399845 0.020266525 0.011479884
0.023496814 0.020292705 0.011237949
0.024450934 0.020198597 0.010357946
0.025816709 0.02043823 0.0097803771
0.02685944 0.020413173 0.0090589523
0.027814034 0.02032564 0.0074076951
0.029335186 0.020643279 0.0061370432
0.030363742 0.020603968 0.0052135289
-0.036454022 0.021443542 0.0059505701
-0.035539404 0.021539032 0.0068228841
-0.034100294 0.021312684 0.0074587464
-0.033524852 0.021628935 0.008580327
-0.032232732 0.021488488 0.009134084
-0.031100597 0.021448687 0.010307878
-0.030098109 0.021498648 0.010730356
-0.028901808 0.021408744 0.011095971
-0.027591038 0.021223875 0.01159966
-0.026707273 0.021365818 0.012262523
-0.025539296 0.021282746 0.012561589
-0.024536068 0.02133571 0.012608916
-0.023542127 0.021401934 0.012625486
-0.022372862 0.021307487 0.012952209
-0.021312637 0.021312637 0.013149738
-0.020197451 0.021260474 0.013236552
-0.019120203 0.021244669 0.013195455
-0.018143719 0.02134555 0.013032168
-0.017032437 0.021290544 0.012640327
-0.015882729 0.02117697 0.01292026
-0.014967514 0.021382162 0.012719452
-0.013752397 0.021157533 0.012709767
-0.012780243 0.021300405 0.01304397
-0.011784365 0.021426119 0.013375223
-0.010756376 0.021512752 0.013367712
-0.0095503498 0.021222999 0.013302505
-0.0086094765 0.02152369 0.013420671
-0.0074347584 0.021242166 0.013582528
-0.0063495254 0.021165084 0.013654888
-0.0053234217 0.021293687 0.014016122
-0.004183589 0.020917945 0.013733953
-0.0031523758 0.02101584 0.013730884
-0.0021088028 0.021088026 0.014259398
-0.0010605621 0.02121124 0.014484018
0 0.021260027 0.014600486
0.001065495 0.021309897 0.01466772
0.002113431 0.021134309 0.015329868
0.0031794144 0.021196095 0.01534766
0.0042215884 0.021107942 0.015118867
0.0052643539 0.021057416 0.014570326
0.006353179 0.021177262 0.014069349
0.0073750857 0.021071672 0.014205605
0.0084701655 0.021175414 0.0140751
0.0095826788 0.021294843 0.013283968
0.010639486 0.021278972 0.012776047
0.011790392 0.021437077 0.012612492
0.01277659 0.021294316 0.012395412
0.01373578 0.02113197 0.011832833
0.014861005 0.021230007 0.01159519
0.016040651 0.021387534 0.011094809
0.016958442 0.021198051 0.011139899
0.018295771 0.021524435 0.011314631
0.019303082 0.021447869 0.011395454
0.020054132 0.021109613 0.010704964
0.021518221 0.021518221 0.010150105
0.022441829 0.021373169 0.0098720789
0.023610353 0.021463957 0.0095444024
0.024899647 0.021651866 0.0088604093
0.025851516 0.021542929 0.0082679391
0.02729685 0.021837479 0.0070159733
0.028104557 0.02161889 0.0057814121
-0.035452783 0.022560863 0.0051813126
-0.034814637 0.022847105 0.0062789321
-0.033409555 0.02263228 0.007201612
-0.032112055 0.022478437 0.0085815787
-0.031396057 0.022735076 0.009134084
-0.030179324 0.022634493 0.0096377432
-0.028781667 0.022385743 0.010176659
-0.027976172 0.022596139 0.010575384
-0.026851248 0.02255505 0.010738105
-0.025620652 0.022418072 0.01128599
-0.024654588 0.022510709 0.01125595
-0.023240842 0.022184441 0.011940569
-0.022330428 0.022330428 0.012229949
-0.021093417 0.022148088 0.012168378
-0.020141717 0.022261897 0.012333393
-0.01923164 0.022436915 0.012461752
-0.018226212 0.022514733 0.012398481
-0.017019553 0.022338165 0.011989653
-0.016094282 0.022531996 0.012391448
-0.014917894 0.022376843 0.012543887
-0.013807607 0.022304596 0.012475312
-0.01273698 0.022289716 0.012832105
-0.011644263 0.022229958 0.013022333
-0.01067039 0.02240782 0.012815833
-0.0095776198 0.022347782 0.012865961
-0.0084661618 0.022223676 0.012845546
-0.0073690298 0.022107089 0.013320178
-0.0063801305 0.022330457 0.013367027
-0.0052472418 0.022038417 0.013542473
-0.004211307 0.022109363 0.013471007
-0.0032020246 0.022414174 0.013412505
-0.0021237559 0.022299439 0.013516158
-0.0010564077 0.022184562 0.013996273
0 0.022390505 0.013939112
0.0010592696 0.022244662 0.014086246
0.0021429975 0.022501474 0.014869452
0.0031634814 0.02214437 0.014800817
0.0041937712 0.022017298 0.014704168
0.0053507495 0.022473149 0.014261484
0.006418488 0.022464707 0.013090849
0.007346442 0.022039326 0.013437271
0.0085455487 0.022432067 0.013091832
0.0096022747 0.02240531 0.012585133
0.010620474 0.022302996 0.011431366
0.011839774 0.022603204 0.011040032
0.012880133 0.022540234 0.010796815
0.013834506 0.02234805 0.010468274
0.015038873 0.022558311 0.010268867
0.016029477 0.02244127 0.010033429
0.017259033 0.022652481 0.010143727
0.018192083 0.022472573 0.0098332167
0.019098056 0.022281067 0.0098935962
0.020369377 0.022513524 0.0093548
0.021391414 0.022460988 0.0084865391
0.022528358 0.022528358 0.0080486238
0.023908306 0.022821566 0.007907927
0.024630817 0.022489008 0.0067487359
0.02586427 0.022631237 0.0061914623
0.027352631 0.02297621 0.0051528215
-0.033384405 0.023692157 0.0064249337
-0.032495733 0.023830203 0.007201612
-0.031428851 0.023842577 0.0083110929
-0.030020544 0.02358757 0.008741051
-0.029312512 0.023884267 0.0089847744
-0.027920311 0.023624878 0.009395957
-0.026641065 0.023444137 0.010146916
-0.025887072 0.023729816 0.010364562
-0.024701623 0.023627639 0.010516524
-0.023544006 0.023544006 0.010556042
-0.02252024 0.023592632 0.010956973
-0.021455444 0.02360099 0.011237502
-0.020438297 0.023665395 0.011408061
-0.019319937 0.023613255 0.011408061
-0.01809348 0.023415091 0.011271685
-0.017069841 0.023471029 0.01108247
-0.015872188 0.023279209 0.011632264
-0.01487501 0.023375014 0.012004733
-0.01398454 0.023666145 0.011959016
-0.012901777 0.023653258 0.01241073
-0.011751826 0.023503652 0.012530625
-0.010703045 0.023546699 0.012288243
-0.0096146846 0.023502564 0.012143195
-0.0084971683 0.023367211 0.012232959
-0.0074562491 0.023433926 0.012502819
-0.0063818325 0.023400052 0.012670845
-0.0053275079 0.023441035 0.012990266
-0.0042477585 0.02336267 0.012926638
-0.0031433317 0.0230511 0.012678027
-0.0021248108 0.023372918 0.012924701
-0.0010602846 0.023326259 0.013307214
0 0.023389284 0.013186932
0.0010727656 0.023600843 0.013284713
0.0021463635 0.023609996 0.013605863
0.0031731031 0.023269422 0.013523281
0.0042324164 0.02327829 0.0128842
0.0053241593 0.023426302 0.012783289
0.006316816 0.023161659 0.011954933
0.0074886344 0.023535708 0.011175573
0.0084961941 0.023364533 0.011398315
0.0096579622 0.023608353 0.010800034
0.010739564 0.023627041 0.010468274
0.011667474 0.023334948 0.0099024773
0.012849198 0.023556862 0.0097242296
0.014021721 0.023729065 0.009265244
0.015080306 0.023697622 0.0089714527
0.016046498 0.023534862 0.008592248
0.017221685 0.023679815 0.0085224509
0.018066593 0.023380296 0.0082232356
0.019502766 0.023836715 0.0080916286
0.020470649 0.023702856 0.0076552629
0.021580709 0.023738779 0.0070332289
0.022596849 0.023672888 0.0065104663
0.023818178 0.023818178 0.0056212842
-0.032542195 0.024949016 0.006213367
-0.031146267 0.024702212 0.0066370368
-0.030582575 0.025121402 0.0071157515
-0.029352698 0.02500415 0.0069704056
-0.027755311 0.024552776 0.0072219074
-0.027074793 0.024908809 0.0080222487
-0.025680739 0.024610709 0.0083523393
-0.024562582 0.024562582 0.0090307593
-0.023753338 0.024833037 0.0094850361
-0.022676671 0.024836354 0.0097465515
-0.021412315 0.024624165 0.010094374
-0.020278314 0.024547433 0.010148555
-0.019276731 0.024631381 0.010148555
-0.018150918 0.024557123 0.010094374
-0.017149201 0.024651976 0.010353416
-0.015946615 0.024451477 0.010835856
-0.014922327 0.024515253 0.011206985
-0.013951734 0.024683839 0.011391252
-0.01285616 0.024640974 0.0115982
-0.011788335 0.024648339 0.011617988
-0.010674769 0.024551969 0.011685342
-0.0095563736 0.024421845 0.01172626
-0.0085329823 0.024532326 0.011715829
-0.007404929 0.024330482 0.011892766
-0.0063747303 0.024436466 0.012012452
-0.0053693708 0.024699107 0.012279809
-0.0042442409 0.024404386 0.012221277
-0.0031828848 0.024402117 0.011916786
-0.0021393662 0.024602713 0.012057394
-0.001062023 0.024426529 0.012323767
0 0.024544215 0.012429655
0.0010664669 0.024528738 0.01230821
0.0021661511 0.024910739 0.012407899
0.0032086342 0.02459953 0.012226194
0.0042593372 0.024491189 0.011810243
0.005348675 0.024603905 0.011802346
0.0064835623 0.024853656 0.01094532
0.0075220955 0.024715457 0.010393977
0.0085889762 0.024693307 0.01060167
0.0096976887 0.024782985 0.0097551346
0.010704588 0.024620555 0.0093047619
0.011773609 0.024617547 0.008757472
0.0128547 0.024638176 0.0085549057
0.013893995 0.024581682 0.0078553855
0.01493851 0.024541838 0.0077979267
0.016216712 0.024865624 0.0072089136
0.017157961 0.024664568 0.0071647763
0.018478677 0.025000565 0.0070594549
0.019622639 0.025073374 0.0064190626
0.020406555 0.024702672 0.00614205
0.021621466 0.024864687 0.0052388906
-0.030549219 0.026185045 0.005854696
-0.029187737 0.025944654 0.0060933232
-0.028405055 0.02622005 0.0061970353
-0.026795961 0.02572412 0.0061033368
-0.025935093 0.025935093 0.0061967671
-0.024926573 0.026010336 0.0070587993
-0.023898285 0.026070856 0.0076000988
-0.022822702 0.026083088 0.0080878437
-0.02178609 0.026143309 0.0084379017
-0.020334264 0.025685385 0.0085459352
-0.019316601 0.025755467 0.0086137056
-0.018404646 0.02598303 0.0086315274
-0.017117502 0.025676254 0.0088781118
-0.01619062 0.025904993 0.0096903443
-0.01495932 0.025644548 0.0096858144
-0.013857957 0.025583921 0.0099576116
-0.012946999 0.025893997 0.010009378
-0.0118609 0.025878327 0.010137439
-0.010637917 0.025531001 0.010126591
-0.0095714042 0.025523746 0.010420054
-0.0085034976 0.025510492 0.010192692
-0.0074447417 0.025524829 0.010596573
-0.0064716586 0.025886634 0.010997713
-0.0053357198 0.025611455 0.011456609
-0.004242646 0.025455875 0.011458278
-0.0032109036 0.025687229 0.010754347
-0.0021522001 0.025826402 0.010868222
-0.0010687454 0.025649888 0.011017501
0 0.025739076 0.010825962
0.0010663716 0.025592918 0.010908663
0.002143679 0.025724148 0.010951251
0.0032057911 0.025646329 0.010720134
0.0042455676 0.025473405 0.010288775
0.0053871474 0.025858309 0.010135025
0.0064552268 0.025820907 0.0095943511
0.0074775433 0.025637291 0.0091686547
0.0085755484 0.025726646 0.0088279247
0.0096743647 0.025798306 0.0083507597
0.010758394 0.025820145 0.0082806051
0.011900387 0.02596448 0.0076816678
0.012890054 0.025780108 0.0073316097
0.013913316 0.025686121 0.0068641901
0.015120273 0.025920469 0.0067640841
0.016065627 0.025705004 0.0061611533
0.017239138 0.025858708 0.0061019063
0.01854731 0.026184436 0.0055759251
-0.02397486 0.027244162 0.0057789087
-0.023112766 0.027515199 0.0064136088
