ply
format ascii 1.0
comment PCL generated
element vertex 1291
property float x
property float y
property float z
element camera 0
property float view_px
property float view_py
property float view_pz
property float x_axisx
property float x_axisy
property float x_axisz
property float y_axisx
property float y_axisy
property float y_axisz
property float z_axisx
property float z_axisy
property float z_axisz
property float focal
property float scalex
property float scaley
property float centerx
property float centery
property int viewportx
property int viewporty
property float k1
property float k2
end_header
-0.067128323 0.0097444337 0.0076993704
-0.065555751 0.0096721593 0.0080609918
-0.065564722 0.0098347077 0.0078921914
-0.063908331 0.009748728 0.00788638
-0.062784642 0.0097424434 0.007796973
-0.061500259 0.0097105671 0.0072828829
-0.060347553 0.0096987141 0.0067424178
-0.059589025 0.0097509306 0.005800724
-0.058815494 0.0098025817 0.0051263273
0.046967756 0.0098304609 0.0056168139
0.047505889 0.0097171133 0.0068554282
0.048460465 0.0096920924 0.0072396994
0.049451038 0.009675202 0.0066711307
0.050705072 0.0097094811 0.0055417717
-0.069899663 0.010753795 0.0053364336
-0.069590949 0.010873585 0.0064548254
-0.068336636 0.010847084 0.0073897243
-0.066541813 0.010732549 0.0080586076
-0.066912018 0.010969183 0.0081494749
-0.064815827 0.010802638 0.0082798004
-0.063637771 0.010786062 0.0081928372
-0.063393295 0.010929878 0.0081331432
-0.061462283 0.010782856 0.0076556206
-0.060584065 0.010818583 0.0072339773
-0.059289955 0.010779992 0.0067311823
-0.058733776 0.010876624 0.0058469772
0.044261839 0.010795569 0.0056402981
0.04519482 0.010760671 0.0066078007
0.046329103 0.01077421 0.007083863
0.04787901 0.010881593 0.0076447129
0.048179589 0.010706575 0.0087764263
0.049080435 0.010669659 0.0083515644
0.050542768 0.01075378 0.0084221661
0.051216666 0.010670139 0.007083863
0.05343321 0.010904737 0.0060427785
-0.07029409 0.011895923 0.0052491426
-0.069220565 0.011897284 0.0062081218
-0.068066731 0.011884667 0.0072515011
-0.067452505 0.01196738 0.0081635714
-0.066617355 0.012012966 0.0082244277
-0.064374045 0.011801908 0.0083073676
-0.063669264 0.01187054 0.0083073676
-0.062839933 0.011917917 0.0082735419
-0.061248519 0.01181989 0.0080241561
-0.06092497 0.011967405 0.007474333
-0.059017122 0.011803424 0.0067688525
-0.057640523 0.011741588 0.0066345632
-0.057405122 0.011914271 0.0050424337
0.041518666 0.01201856 0.0055107474
0.041673657 0.011754109 0.005992949
0.043682769 0.012012761 0.0061655045
0.043714523 0.011728286 0.0066005886
0.045006029 0.011787293 0.0073413849
0.046834268 0.011980859 0.0077254474
0.047337413 0.011834353 0.0084785819
0.04800475 0.011734494 0.0093737245
0.049163606 0.011756513 0.0092041194
0.050400082 0.011795763 0.0090257227
0.050789241 0.011639201 0.0088950992
0.052178722 0.011713591 0.0084785819
0.053641696 0.011801173 0.0077027082
0.05536361 0.01194117 0.0052320063
-0.070801429 0.013071033 0.0051716566
-0.068676479 0.012876839 0.0061060786
-0.069086075 0.013159252 0.0071348548
-0.067014597 0.012970567 0.008041054
-0.06601727 0.012987004 0.0080271065
-0.064930074 0.012986015 0.0081970096
-0.064401187 0.013098546 0.0082083941
-0.062475171 0.012925897 0.0082083941
-0.061835773 0.013018058 0.0080317259
-0.060251411 0.012911016 0.0074766874
-0.059149124 0.012905263 0.0067786276
-0.058882412 0.01308498 0.0066345632
-0.056965556 0.012897862 0.0051862299
0.032096066 0.012838426 0.0050652027
0.033672035 0.013034335 0.0050092041
0.034242071 0.012840777 0.0053821206
0.035651796 0.012964289 0.0059142411
0.03672865 0.012963053 0.0057747066
0.03706767 0.012708915 0.0059397817
0.039543182 0.013181061 0.0063247085
0.040062066 0.012993102 0.0067262948
0.04052658 0.012797867 0.0068253279
0.042673782 0.013130394 0.0068501532
0.04303924 0.012911772 0.0071682334
0.04390531 0.012850334 0.0073567033
0.045119941 0.012891411 0.0081897676
0.046049207 0.012850942 0.008690536
0.046910211 0.012793695 0.0092489719
0.049009774 0.013069273 0.0098512173
0.048639275 0.012688505 0.010045946
0.049548697 0.012650731 0.010041982
0.051093541 0.012773385 0.010008365
0.052020885 0.012739809 0.0092262328
0.053441346 0.012825923 0.0089854002
0.054604258 0.012848061 0.00783059
0.056565616 0.013053603 0.0062144101
-0.070415944 0.014303239 0.0059489906
-0.068083324 0.01404894 0.0073882341
-0.066707052 0.013986962 0.008048445
-0.06603428 0.014072879 0.0080810785
-0.064621359 0.014001294 0.0082083941
-0.063236609 0.01393349 0.0082378983
-0.062981129 0.014116459 0.0082427561
-0.061521526 0.014031226 0.0080774724
-0.060050759 0.013940355 0.0077622831
-0.059685864 0.014107567 0.007304579
-0.05817996 0.014006286 0.0069317222
-0.057284594 0.014050938 0.0059444308
-0.056809541 0.014202385 0.0050498247
0.028733492 0.014366746 0.0055440366
0.029649839 0.014275848 0.0054348409
0.030349504 0.014090842 0.0062494278
0.03097483 0.013885268 0.0070206523
0.032837436 0.014229556 0.00744313
0.033247497 0.013942499 0.0073450506
0.034956746 0.014201177 0.0076050758
0.035574868 0.014014342 0.0075036883
0.036624637 0.014003538 0.0073263347
0.038242001 0.014204172 0.0073440969
0.039819818 0.014379379 0.0073852837
0.039807487 0.013986414 0.0075185299
0.041590881 0.014228459 0.0075912774
0.042116933 0.014038977 0.0076062679
0.04254593 0.013827428 0.0082859993
0.044341885 0.014059622 0.0084337294
0.045253921 0.014007166 0.0088393688
0.04570172 0.013816799 0.0095805228
0.047399703 0.014004458 0.010208309
0.048193868 0.013922672 0.010776162
0.049003158 0.013848717 0.010789573
0.050401166 0.013940748 0.010824442
0.050465152 0.013667646 0.010824442
0.052298475 0.013875106 0.010444999
0.053573307 0.013929059 0.0097921491
0.053903271 0.013740049 0.0091772676
0.056357004 0.014089251 0.0083898008
0.058043476 0.01423708 0.0068932772
0.059500821 0.014324271 0.0055521131
-0.070036605 0.015320508 0.005196929
-0.067740202 0.015053377 0.0064917803
-0.067489356 0.015239531 0.0076845884
-0.066583738 0.015281514 0.008005619
-0.064475015 0.01504417 0.0082342625
-0.064099289 0.015210001 0.0082672536
-0.062752068 0.01514705 0.0082941651
-0.061255097 0.015045112 0.0080424249
-0.060613576 0.015153394 0.007660836
-0.059162941 0.015059657 0.0074875951
-0.058468647 0.015158538 0.0068557858
-0.057750508 0.015254851 0.0058908463
-0.056691706 0.015263151 0.0051862299
0.025723383 0.015005307 0.0050727427
0.026987251 0.01511286 0.0063346624
0.028392734 0.015288395 0.0069776475
0.029220534 0.015151387 0.0071084797
0.029664412 0.014832206 0.007850647
0.031164354 0.01504486 0.0087685585
0.032141928 0.014999567 0.0088706315
0.033338886 0.01505627 0.0090263486
0.034870233 0.015255727 0.0093657672
0.035241205 0.014950815 0.0093541145
0.036524545 0.015039518 0.0088614523
0.037794735 0.015117894 0.0085534751
0.038415931 0.014939529 0.0082765222
0.040715691 0.015405936 0.0083937943
0.041064106 0.015128881 0.0084935725
0.042931844 0.015411431 0.0085500181
0.043624133 0.015268448 0.0088692307
0.044455007 0.015179757 0.0092375576
0.045097422 0.015032474 0.0096396208
0.046190325 0.015038711 0.010442406
0.046649493 0.014843021 0.010989338
0.048132632 0.014974595 0.011016309
0.049258072 0.014991587 0.010841638
0.049956068 0.014880531 0.010994971
0.050989527 0.014871946 0.011007667
0.051876232 0.014821781 0.011016309
0.052169021 0.014607325 0.010818541
0.053945042 0.014808442 0.010146648
0.055981528 0.01507195 0.0093565881
0.056588266 0.014947844 0.0079759359
0.059636127 0.015461218 0.0062226355
-0.068773247 0.016374582 0.0059283376
-0.067184724 0.016254369 0.0072340369
-0.065798864 0.016180048 0.0077556074
-0.064917631 0.016229408 0.00818488
-0.063656144 0.016183766 0.0082444847
-0.062158909 0.016075579 0.0083369911
-0.061394077 0.016156336 0.0080424249
-0.06042571 0.016185459 0.0076651871
-0.059539501 0.016238045 0.0072560608
-0.058469966 0.016241657 0.0067242086
-0.056877766 0.016097482 0.0063305497
-0.056149367 0.016196933 0.0057660937
-0.045429353 0.016224768 0.0069905221
-0.044122972 0.016142549 0.0070224702
-0.043736633 0.016401239 0.0065748394
-0.042069431 0.016180551 0.0063290298
-0.040663946 0.016051557 0.0052402616
-0.03998692 0.016210914 0.0050145686
0.02271728 0.016226629 0.0050045848
0.023951136 0.01633032 0.0054846704
0.025342733 0.016527869 0.0064356327
0.02572982 0.016081138 0.0069504082
0.027080601 0.01624836 0.0080403686
0.028137228 0.016233016 0.0093123019
0.02864011 0.015911171 0.0094675124
0.030083828 0.016116336 0.0097759366
0.03100998 0.016039643 0.0098830163
0.031976804 0.015988402 0.010258615
0.033593897 0.016255111 0.010488063
0.033833079 0.015859256 0.010985851
0.035526611 0.016148461 0.011247814
0.036521263 0.016112322 0.010487109
0.036994636 0.015854845 0.010200769
0.038967412 0.016236423 0.0097275674
0.040132839 0.016270069 0.0097143948
0.041094996 0.01622171 0.0097506642
0.04203159 0.016165998 0.0095430017
0.043249164 0.016218437 0.010087103
0.044346642 0.016224381 0.010403663
0.045327544 0.016188409 0.01056096
0.045365579 0.015825203 0.010792285
0.047660682 0.01624796 0.010873765
0.04819373 0.016064575 0.011140794
0.048833199 0.015923869 0.011165768
0.050270174 0.016043672 0.011472076
0.05135959 0.016049873 0.011348218
0.051504124 0.015766568 0.011584729
0.05335851 0.016007554 0.011379749
0.053789187 0.015820349 0.010368377
0.055253867 0.015938615 0.0096017122
0.056964207 0.016121946 0.0086967349
0.058176491 0.016160136 0.0068816841
0.05952622 0.016234424 0.0057852566
-0.068948761 0.017510796 0.0051479042
-0.066297404 0.017109007 0.0066401362
-0.065708138 0.017234921 0.0072436035
-0.064759657 0.017269243 0.0079799592
-0.063038439 0.017095171 0.0081357062
-0.062506244 0.0172431 0.008130312
-0.06167363 0.017311897 0.0079321265
-0.060328748 0.017236784 0.0076495111
-0.060028497 0.017462835 0.0069150925
-0.058288343 0.017270621 0.0065905154
-0.057285316 0.01729368 0.006169945
-0.057337902 0.017642433 0.005613476
-0.056619834 0.017763086 0.0051492155
-0.052387018 0.017833877 0.0053632259
-0.049744576 0.017302461 0.0054256916
-0.048556935 0.017264687 0.0069831014
-0.047664121 0.017332409 0.007660538
-0.046192195 0.017187793 0.0086128116
-0.044745505 0.017045906 0.0086213946
-0.044680357 0.017436236 0.0086011589
-0.042954024 0.017181609 0.0082708299
-0.041580584 0.017058702 0.0077604055
-0.041008089 0.017266562 0.0074103475
-0.039462309 0.017064782 0.007370472
-0.038957123 0.017314278 0.0068257153
-0.038044754 0.017391888 0.0061339736
-0.037242249 0.017525764 0.0051558912
0.01829466 0.017218504 0.0052667856
0.019557144 0.017384131 0.0056809783
0.020848256 0.017556425 0.0058758259
0.021536382 0.017229106 0.0062072277
0.022780253 0.017356383 0.0066070259
0.023924738 0.01739981 0.00676772
0.024526065 0.01706161 0.0073895454
0.026248427 0.017498951 0.0081160963
0.026565682 0.017002037 0.0097857118
0.027993828 0.017226972 0.010121346
0.028952479 0.017157024 0.010450423
0.029883524 0.0170763 0.010626376
0.0307127 0.016944937 0.010790378
0.032072153 0.017105149 0.011434764
0.032696191 0.016875453 0.011811376
0.034342904 0.017171452 0.012050778
0.0356314 0.017275831 0.0121288
0.035756111 0.016826404 0.011857569
0.037409581 0.017101523 0.011592329
0.038253695 0.017001644 0.010871351
0.039076213 0.016897822 0.010366201
0.041176341 0.017337406 0.010591626
0.042514741 0.017441945 0.010483801
0.043186821 0.01727473 0.010755688
0.044511378 0.017370293 0.010698408
0.044699695 0.017028457 0.01074788
0.045337796 0.016869878 0.010816038
0.047093868 0.017125044 0.010970384
0.048281755 0.017166846 0.01126501
0.048931554 0.01701967 0.011333913
0.050319411 0.017130012 0.011588842
0.050820414 0.016940137 0.011550546
0.052376352 0.017102484 0.011545509
0.053571075 0.017142743 0.011150926
0.053676184 0.016839588 0.010792494
0.055927236 0.017208381 0.0096305609
0.056984406 0.017202839 0.0087586641
0.058242697 0.017257094 0.0066676736
0.061167188 0.017794091 0.0052391589
-0.067115635 0.018402675 0.0053350925
-0.066046856 0.018406501 0.0065675378
-0.064449489 0.018260688 0.0072452724
-0.063892618 0.018409736 0.0076657534
-0.062325098 0.0182677 0.0080281496
-0.061388943 0.018308982 0.0079695582
-0.060815934 0.01846198 0.0077018142
-0.059248999 0.018313326 0.0070009232
-0.058416117 0.018390259 0.0066550076
-0.058527861 0.018773088 0.0060016811
-0.056527883 0.018480269 0.0059194863
-0.055892903 0.018630967 0.0063634217
-0.054934863 0.018677853 0.0063634217
-0.053926613 0.018709235 0.0066521168
-0.052536972 0.018606843 0.0069979429
-0.050885893 0.018405536 0.0075113475
-0.049438845 0.018270876 0.007725805
-0.048827153 0.018445812 0.0087038577
-0.047097068 0.018196596 0.0095167756
-0.045387879 0.017944045 0.0098700523
-0.045262609 0.018320579 0.01042971
-0.044017352 0.018251097 0.0098647177
-0.043056332 0.018298941 0.0097239912
-0.042091854 0.018347731 0.0089365542
-0.040326346 0.018040733 0.0083734095
-0.039772511 0.018273855 0.0082987845
-0.03920871 0.018515225 0.0077464581
-0.038130082 0.018520325 0.0074303448
-0.036772005 0.018386003 0.0073827505
-0.036284935 0.01869224 0.0063335001
-0.034452099 0.018302677 0.0050353706
0.01621696 0.018379221 0.0050848722
0.017108448 0.018177725 0.0060750246
0.018629063 0.018629063 0.0064431131
0.01950803 0.018424252 0.00671345
0.020444917 0.01829282 0.0071877837
0.021751994 0.018489195 0.0072984099
0.022362702 0.018103139 0.0077212751
0.02362787 0.018257899 0.0077965558
0.024969788 0.01845593 0.0089190006
0.025759729 0.018246476 0.0095947981
0.026576636 0.018072113 0.010721058
0.028153762 0.01840823 0.010958225
0.028498204 0.017943313 0.011716992
0.029725617 0.018047696 0.011826873
0.030979151 0.018160192 0.011587977
0.031664271 0.017943088 0.011707217
0.033120267 0.018162725 0.012308329
0.033944905 0.018033231 0.012470901
0.035030689 0.018046115 0.01262489
0.036481 0.0182405 0.012435555
0.037431248 0.018180892 0.012350678
0.038217027 0.01804693 0.011436343
0.039045293 0.01793973 0.010897368
0.041176751 0.018421179 0.010843188
0.041876663 0.018253932 0.010758758
0.043216363 0.018366955 0.010791898
0.043977592 0.018234611 0.010667741
0.045489088 0.018412249 0.01074788
0.045791596 0.018103654 0.010781556
0.04728891 0.018270716 0.010758758
0.047380563 0.017899323 0.011145294
0.049397085 0.018255444 0.01117605
0.050010022 0.018088732 0.011503309
0.051352385 0.018187305 0.011550546
0.052702893 0.018284678 0.011559814
0.053130403 0.018064337 0.011188805
0.054410435 0.018136812 0.010822505
0.055308986 0.018081784 0.0097557008
0.056344867 0.018072883 0.0087440312
0.059407219 0.018702272 0.0075161159
0.059760194 0.018471332 0.0055218041
-0.066098586 0.019504501 0.0053350925
-0.064934179 0.019480253 0.0066053569
-0.063594237 0.01940163 0.0070712566
-0.062286962 0.019330435 0.0076233447
-0.061915178 0.01955216 0.0075865388
-0.061049286 0.019622985 0.0074012876
-0.05950154 0.01947323 0.0067543089
-0.059120506 0.019706834 0.0061255991
-0.057033338 0.019369813 0.0058479905
-0.055755369 0.019299936 0.0063634217
-0.056253619 0.019854218 0.0066002905
-0.053856071 0.019388184 0.0066868365
-0.052960906 0.019455027 0.0070509911
-0.051944897 0.019479336 0.0075381398
-0.050064351 0.019173581 0.0085759163
-0.04927206 0.01928037 0.0096880496
-0.048119102 0.019247638 0.010384321
-0.046537843 0.019038208 0.010888666
-0.045877803 0.019204661 0.011503518
-0.044570729 0.019101739 0.011624783
-0.043801408 0.019229885 0.011731148
-0.043386258 0.019523816 0.011282653
-0.041628595 0.019213198 0.010959059
-0.040692981 0.019275622 0.010347992
-0.040084645 0.019500637 0.0097936988
-0.038874667 0.019437334 0.0087686181
-0.037541877 0.019307252 0.0082915425
-0.036889777 0.019529881 0.0079205632
-0.035694014 0.019469462 0.0078585148
-0.034733988 0.019537868 0.0070044696
-0.033589229 0.019503422 0.0065540075
-0.032295 0.019376999 0.0056800842
0.011984747 0.019611405 0.0052826405
0.012891403 0.019337105 0.0062315166
0.013792852 0.019097794 0.0062769353
0.015150886 0.019479711 0.0061808228
0.016269976 0.019523971 0.0063327253
0.017140668 0.01928325 0.007346034
0.018271131 0.019345902 0.0076306164
0.019511381 0.019511381 0.0083476305
0.020654248 0.01956718 0.0087866783
0.021805597 0.019625038 0.008775562
0.0225736 0.019348798 0.0090782046
0.023674807 0.019370297 0.0093204379
0.02467474 0.019310664 0.0096818805
0.025618292 0.019213719 0.01062265
0.027002357 0.019441696 0.011834949
0.027540654 0.019066606 0.011999428
0.028534491 0.019022992 0.012287349
0.030077986 0.019335847 0.012405157
0.030611077 0.018999977 0.012639999
0.031604342 0.018962605 0.012861401
0.03336519 0.019373333 0.013005316
0.033472952 0.018828534 0.013977319
0.035279319 0.019243265 0.014582187
0.036588483 0.019370373 0.014298856
0.036492679 0.018767662 0.014312595
0.037998848 0.018999424 0.013789088
0.038915388 0.018931808 0.012391835
0.040321976 0.019099884 0.011970639
0.041571848 0.019187007 0.011351079
0.042818926 0.019268516 0.011217743
0.043923151 0.019283332 0.010890186
0.044954937 0.0192664 0.010781556
0.04604448 0.019274432 0.010805696
0.04705203 0.019248558 0.010748416
0.048140891 0.019256355 0.011013865
0.048676342 0.019047262 0.010986537
0.049831189 0.019084284 0.011337996
0.052043598 0.019516349 0.011328965
0.052089874 0.019135056 0.011454523
0.053889312 0.019400151 0.011140794
0.053979315 0.019051522 0.010438859
0.055328175 0.01915206 0.0095858872
0.057308584 0.019463293 0.0086873174
0.05799586 0.019331951 0.0075497031
0.05931567 0.0194124 0.0055988133
-0.065375 0.020702083 0.0053056777
-0.062993363 0.020285998 0.0061962605
-0.062916219 0.020610485 0.0064985156
-0.062124711 0.020708237 0.0071269572
-0.060562719 0.020548066 0.0070249438
-0.060327802 0.020840513 0.0066153407
-0.059038837 0.020772923 0.0064873397
-0.057622101 0.020656981 0.006650269
-0.057193812 0.020897739 0.0066915154
-0.055544682 0.020693118 0.0068692565
-0.054167245 0.020583553 0.0071818829
-0.052537195 0.020371567 0.0081344247
-0.050841745 0.020124858 0.0092721581
-0.050479431 0.020406578 0.010216504
-0.048848942 0.020176737 0.011006743
-0.047775883 0.020172039 0.011254758
-0.047177196 0.020371972 0.011547595
-0.045755386 0.020217497 0.011917382
-0.044481684 0.020122666 0.012150079
-0.043865968 0.020328131 0.012132138
-0.042273436 0.020079883 0.011844456
-0.041498538 0.020217238 0.011573851
-0.040529348 0.020264674 0.011355102
-0.039009672 0.020031992 0.010731578
-0.038378853 0.020255506 0.0097042322
-0.037854008 0.020549318 0.0091646612
-0.036819521 0.020575617 0.0087141991
-0.035363413 0.020360753 0.0084367096
-0.034549326 0.020513663 0.0080618262
-0.033406541 0.020474976 0.0078225732
-0.032655716 0.020681953 0.0068329275
-0.031634629 0.020726135 0.0064125955
-0.030162996 0.020467747 0.0060635507
-0.029745378 0.020931931 0.0059983432
-0.028368702 0.020730976 0.0057527721
-0.026743941 0.020325394 0.0050915778
0.0021795884 0.020706091 0.005016923
0.0032585517 0.020637494 0.0052387118
0.0054370426 0.020660764 0.0055674911
0.006473437 0.020499218 0.0052716732
0.0076586078 0.020787651 0.005213201
0.0085837292 0.020386357 0.0054291189
0.0096961893 0.020469734 0.0062923431
0.01084171 0.020599248 0.006318301
0.011851429 0.020470651 0.0070327818
0.013025801 0.020624185 0.0077011585
0.014059538 0.020548556 0.0077204704
0.015009385 0.020369878 0.0078327358
0.015944911 0.020196889 0.0079770982
0.017036451 0.020230787 0.0082281232
0.01806213 0.020187085 0.0087725222
0.019534323 0.020619566 0.0091549456
0.020636844 0.020636844 0.0093380511
0.021366319 0.020298004 0.00965482
0.02257611 0.020426005 0.010079324
0.023441959 0.020245329 0.010315835
0.024476107 0.020219393 0.011275947
0.025462136 0.020157523 0.011879414
0.026538778 0.02016947 0.012437165
0.027695514 0.020239029 0.012801319
0.028880695 0.020323452 0.013141721
0.029860176 0.020262262 0.013420641
0.030676268 0.020098245 0.013895333
0.032052599 0.020299979 0.01435867
0.032875683 0.020149611 0.014904529
0.034075275 0.020232195 0.015203983
0.034355834 0.019780634 0.015438527
0.035492748 0.019834183 0.015270799
0.037374061 0.020288777 0.01524955
0.038079668 0.020097602 0.014934421
0.038574334 0.019808441 0.014347643
0.04032889 0.020164445 0.013881207
0.041247934 0.020095149 0.012358129
0.042525556 0.02019964 0.012004614
0.044216242 0.020490453 0.011333734
0.045163512 0.020431112 0.010953397
0.045966316 0.020310698 0.010913759
0.047443584 0.020487003 0.010782182
0.04804825 0.020287037 0.010852754
0.048826676 0.020167541 0.010906398
0.050905898 0.02057898 0.011035889
0.050702412 0.020069705 0.011201203
0.052957848 0.020534677 0.011106461
0.053795554 0.020442311 0.010945916
0.054438472 0.020281 0.0092693269
0.055827569 0.020398535 0.0088375509
0.056642849 0.020305928 0.0082834661
0.057562295 0.020253399 0.0074225068
0.058884155 0.020341801 0.005332619
-0.06369324 0.021590929 0.0050252378
-0.063066036 0.021746907 0.0060430765
-0.061354369 0.021527849 0.0070762634
-0.061149932 0.021839261 0.0069005787
-0.059633706 0.021684984 0.006714493
-0.059051339 0.021870865 0.0068397522
-0.05829357 0.021997573 0.0069661736
-0.05626997 0.021642296 0.0070746541
-0.055196051 0.021645509 0.007443279
-0.054085221 0.021634087 0.0087994337
-0.052874494 0.021581426 0.0096982718
-0.051268108 0.021361712 0.01032275
-0.050186258 0.021355854 0.011299402
-0.048765153 0.021202238 0.011394024
-0.048110567 0.021382472 0.011561871
-0.046795968 0.021270895 0.01202783
-0.045848832 0.021325037 0.012603045
-0.045086857 0.02146993 0.012780994
-0.043751396 0.021342143 0.012562126
-0.042571336 0.021285668 0.012406528
-0.041767757 0.021419361 0.012182444
-0.040561322 0.021348065 0.0116494
-0.039303385 0.02124507 0.011307538
-0.038909197 0.02161622 0.010914057
-0.0376371 0.021506915 0.010309637
-0.036317855 0.021363443 0.0096999109
-0.035517372 0.021525679 0.0090394318
-0.034076985 0.021298116 0.008875519
-0.033630259 0.02169694 0.0082548261
-0.032761078 0.021840718 0.0076652467
-0.030975532 0.021362433 0.0077421665
-0.030351564 0.021679688 0.0073837936
-0.029623656 0.021943448 0.007448256
-0.02788493 0.021449946 0.0069999099
-0.027021818 0.021617452 0.0066870153
-0.026036803 0.021697335 0.0062381327
-0.024997534 0.021736985 0.0060225129
-0.023914028 0.021740025 0.0055788457
-0.022731738 0.021649273 0.0054990649
-0.021661766 0.021661766 0.0054960549
-0.020885147 0.021984363 0.0055535734
-0.019367691 0.021519657 0.0055417717
-0.018480921 0.021742258 0.0056421459
-0.017456934 0.021821165 0.0054132938
-0.010890314 0.021780629 0.005589366
-0.0096380226 0.021417828 0.0058167875
-0.0087682707 0.021920675 0.0056602657
-0.0074803648 0.021372469 0.0058669448
-0.0064675356 0.021558451 0.0062069893
-0.0054327282 0.021730913 0.0073288679
-0.0042802929 0.021401463 0.0069763064
-0.00322253 0.021483533 0.0069732368
-0.0021637334 0.021637334 0.0071988404
-0.0010761523 0.021523045 0.0073924959
0 0.021736259 0.0067960024
0.0010780402 0.021560803 0.0063953102
0.0021403481 0.02140348 0.0069940984
0.0032450014 0.021633342 0.0070118904
0.0043531251 0.021765625 0.0067031682
0.0053913197 0.021565279 0.0067148805
0.0065285498 0.021761833 0.0067648888
0.0075622015 0.021606289 0.0068987906
0.0086357798 0.021589449 0.0074621141
0.009790903 0.021757562 0.0074502528
0.010738721 0.021477442 0.0074032247
0.011819186 0.021489428 0.0078612268
0.012945328 0.021575546 0.0081328154
0.013867923 0.021335267 0.0081903934
0.014923207 0.021318866 0.0084487498
0.016131938 0.021509249 0.0088340938
0.016982783 0.021228477 0.0088587999
0.018268876 0.021492796 0.0093598664
0.019504577 0.021671753 0.010317743
0.020129258 0.021188693 0.010447919
0.021602158 0.021602158 0.010547996
0.022446938 0.021378035 0.010917991
0.023476576 0.021342341 0.011125505
0.024741629 0.021514459 0.011950165
0.025526164 0.021271804 0.01239863
0.026816679 0.021453343 0.012918502
0.027707962 0.021313816 0.013141721
0.029103598 0.021558218 0.013752937
0.029917801 0.021369856 0.01455164
0.03095087 0.021345427 0.014502406
0.031953983 0.021302655 0.015173674
0.032621369 0.021046042 0.015259832
0.033740915 0.021088073 0.015991926
0.03472222 0.02104377 0.015838802
0.036138359 0.021257857 0.016017646
0.037076525 0.021186585 0.016150385
0.037489872 0.020827707 0.015904605
0.039473906 0.021337247 0.015208185
0.039971542 0.021037653 0.014670759
0.040945116 0.020997496 0.013945907
0.042927656 0.021463828 0.012545645
0.043957565 0.021442711 0.011983961
0.044980016 0.021419054 0.011160463
0.04565616 0.021235421 0.010923326
0.047022369 0.021373805 0.010758758
0.047590408 0.021151291 0.010723948
0.049513802 0.021527739 0.010690808
0.050015692 0.021283273 0.010731548
0.051288426 0.021370178 0.010852754
0.052649383 0.021489544 0.01058495
0.053453725 0.021381488 0.010107428
0.054795519 0.021488437 0.0091919303
0.056072123 0.021566201 0.0087687075
0.05710325 0.021548396 0.0083938837
0.059025269 0.021861209 0.0076524615
0.059779715 0.021738077 0.0057354271
-0.062679932 0.023092609 0.0059967637
-0.060966663 0.0228625 0.0062279999
-0.06033295 0.023036217 0.0061968565
-0.059431713 0.023112332 0.0065341294
-0.057886325 0.022936093 0.0070261359
-0.055917498 0.022582067 0.0074352026
-0.054847158 0.022584125 0.0087994337
-0.053661503 0.022537831 0.0092721581
-0.052269589 0.022401253 0.010184795
-0.0516157 0.02258187 0.010606974
-0.050387431 0.022513533 0.011394769
-0.049220935 0.022470428 0.011586428
-0.047954727 0.022378871 0.011793137
-0.046297364 0.02209647 0.012204707
-0.045900311 0.022416431 0.01284188
-0.044717435 0.022358717 0.013074517
-0.043373328 0.022215607 0.013021171
-0.042881023 0.022512538 0.012719154
-0.041467015 0.022328394 0.012380272
-0.040420279 0.022337524 0.012159377
-0.039726902 0.022547701 0.011743277
-0.038814753 0.02264194 0.01159659
-0.037515555 0.022509335 0.011296302
-0.03663506 0.022627536 0.01101765
-0.035338633 0.022488222 0.010083884
-0.034560189 0.022680124 0.0093755126
-0.033445314 0.022656502 0.0087822974
-0.032026436 0.022418505 0.0087167323
-0.031327367 0.022685336 0.0086662173
-0.030522889 0.022892166 0.0085968971
-0.029052326 0.022596253 0.0086103678
-0.028198933 0.022776062 0.0079967082
-0.027255394 0.02289453 0.0078917146
-0.025894905 0.022658043 0.0076552033
-0.025113199 0.022929443 0.0077470541
-0.023400016 0.022336381 0.0077286065
-0.022446632 0.022446632 0.007589817
-0.021586025 0.022665329 0.0067385733
-0.020602817 0.022771535 0.0065268874
-0.019403545 0.022637472 0.0069695413
-0.018527173 0.022886507 0.0067578554
-0.017193809 0.022566874 0.006603986
-0.016264964 0.022770951 0.0067275465
-0.015145368 0.022718053 0.0064527094
-0.013999863 0.022615163 0.0065881312
-0.012993341 0.022738347 0.0066497028
-0.011953598 0.022820506 0.0071580708
-0.010738567 0.022550991 0.0075246096
-0.0097688334 0.022793945 0.0078154504
-0.0085509066 0.022446129 0.0076271296
-0.0074517075 0.022355124 0.0083113015
-0.0064740148 0.022659052 0.0081672966
-0.0053717555 0.022561375 0.0084578097
-0.0042690295 0.022412406 0.0083627701
-0.0032360014 0.02265201 0.0083278418
-0.0021383697 0.022452883 0.0084097683
-0.0010744925 0.022564344 0.0087991953
0 0.022661595 0.0088211298
0.0010613399 0.022288138 0.0086012483
0.0021611429 0.022692002 0.0086583197
0.0032243105 0.022570174 0.0086545646
0.0042675682 0.022404732 0.0086171031
0.0054414715 0.022854181 0.0086545646
0.0065507297 0.022927554 0.0078802109
0.0075177653 0.022553295 0.0084089637
0.0087632546 0.023003543 0.0081773698
0.0096926764 0.022616247 0.0080316067
0.010713609 0.02249858 0.007923156
0.011808974 0.022544406 0.0085563064
0.012853839 0.022494219 0.0089609623
0.01387802 0.022418343 0.0093610883
0.015136849 0.022705274 0.0097079873
0.016060511 0.022484716 0.0098878443
0.017199649 0.02257454 0.010353416
0.018212767 0.022498125 0.010596573
0.018979801 0.022143103 0.011168659
0.020452585 0.022605488 0.011524588
0.021384116 0.022453323 0.011723369
0.022473447 0.022473447 0.012101769
0.023774546 0.022693885 0.012251198
0.024303637 0.022190278 0.012682885
0.025442682 0.022262348 0.012894273
0.026866443 0.022567812 0.013011992
0.027420063 0.022146974 0.014199853
0.029176991 0.022693215 0.014704883
0.029925901 0.022444427 0.015180856
0.030314649 0.021951986 0.015111327
0.031627495 0.022139246 0.015686661
0.032556999 0.022054743 0.015954494
0.033260759 0.021827372 0.016591966
0.034365349 0.021868858 0.016698837
0.03562424 0.022003207 0.016702235
0.036623847 0.021974308 0.016688287
0.038030948 0.022184722 0.016427249
0.038825039 0.022035832 0.015752971
0.03982136 0.022006541 0.015292555
0.041025024 0.022090398 0.014445841
0.042175751 0.022142271 0.013857067
0.043875013 0.022472566 0.012725115
0.045083702 0.022541851 0.011626959
0.046327267 0.022624945 0.011087924
0.04680071 0.022336703 0.010862321
0.048809748 0.022777881 0.010618269
0.04958269 0.022635575 0.010639459
0.049909905 0.022300171 0.010717362
0.051650524 0.022597104 0.010614872
0.052006006 0.022288291 0.010136306
0.053401686 0.022428708 0.0094953477
0.054351185 0.022379899 0.0089782774
0.055666298 0.02248062 0.0085151494
0.056648165 0.022445502 0.0080752969
0.058639854 0.022804389 0.0070788264
-0.06288816 0.024272623 0.0056279302
-0.061394237 0.024119165 0.0054907203
-0.060613636 0.024245452 0.0062278807
-0.05910458 0.024079643 0.0068104267
-0.057104554 0.023703778 0.0071903169
-0.056195837 0.02377516 0.008538574
-0.054488786 0.023504965 0.0090819001
-0.052977778 0.023310222 0.0098742247
-0.052760176 0.023688242 0.010485202
-0.051292602 0.023509109 0.011009306
-0.050619502 0.023694234 0.011479259
-0.049556658 0.02370101 0.011902422
-0.04803551 0.023484025 0.012096941
-0.046882391 0.023441195 0.012619227
-0.045935884 0.02350208 0.012853354
-0.044510599 0.023315076 0.01305601
-0.043826979 0.023516914 0.013138622
-0.042284049 0.023256227 0.012808949
-0.041541863 0.023433872 0.012683749
-0.041112792 0.023802143 0.012572587
-0.039463665 0.023464881 0.012194544
-0.038281303 0.02339413 0.012068838
-0.037597604 0.02363278 0.011960834
-0.036378548 0.023539059 0.011783957
-0.035141703 0.023427801 0.011416733
-0.034479845 0.023704892 0.010356665
-0.033119075 0.023503859 0.010066479
-0.032329984 0.023708655 0.0099204779
-0.031344324 0.023778452 0.009678334
-0.030059658 0.023618301 0.0094265044
-0.029099295 0.023710536 0.009752959
-0.027966121 0.02366364 0.0098512769
-0.026583336 0.023393335 0.0099070072
-0.026218174 0.024033325 0.0096136034
-0.024859598 0.023778744 0.0093950927
-0.023336707 0.023336707 0.0095598996
-0.022485767 0.023556516 0.0098041594
-0.021401934 0.023542127 0.0095544457
-0.020457938 0.023688139 0.0089729428
-0.019522473 0.023860801 0.0092061162
-0.018254798 0.023623854 0.0089867115
-0.017383263 0.023901984 0.0086353719
-0.016229933 0.023803901 0.0086928904
-0.01502749 0.023614626 0.0086810887
-0.014047035 0.023771904 0.0087971985
-0.012901777 0.023653258 0.008793503
-0.011839527 0.023679053 0.0087901354
-0.010746259 0.023641771 0.0084525943
-0.0096426234 0.023570858 0.0086548626
-0.0086106323 0.023679238 0.0086933672
-0.0075431778 0.023707131 0.0089035332
-0.0064088623 0.023499161 0.0088059902
-0.0053122882 0.023374068 0.0089987516
-0.0042803902 0.023542145 0.010062665
-0.0031736509 0.02327344 0.009804666
-0.0021380833 0.023518916 0.0096215606
-0.0010741659 0.023631649 0.0094496608
0 0.02365985 0.0095016658
0.0010654596 0.02344011 0.0094353259
0.0021479463 0.02362741 0.009862721
0.0032047008 0.023501139 0.0098162293
0.004267727 0.023472499 0.0088554323
0.0054166955 0.023833459 0.0088554323
0.0063873115 0.023420142 0.009085387
0.0075879204 0.023847749 0.0091318786
0.0086335205 0.02374218 0.0090386868
0.0096930219 0.023694055 0.0089857876
0.010726173 0.023597581 0.0090109706
0.011619941 0.023239883 0.0091381967
0.012821447 0.023505986 0.0096785128
0.01389594 0.023516206 0.0099339187
0.01490738 0.023425881 0.010399431
0.015912343 0.023338102 0.010848403
0.017226551 0.023686508 0.010864526
0.017952843 0.02323309 0.011460066
0.01945788 0.023781853 0.011828274
0.020350479 0.023563711 0.012190074
0.021422608 0.02356487 0.012225181
0.022564927 0.023639446 0.012461632
0.0234544 0.0234544 0.012594253
0.024282217 0.023226468 0.012844652
0.025554514 0.023424972 0.012915611
0.026451172 0.023277029 0.013587534
0.027539616 0.023302751 0.014625609
0.028725345 0.023405835 0.015039414
0.029591996 0.023250854 0.015276879
0.03088646 0.023431106 0.015341312
0.032000311 0.023466894 0.015812248
0.032541372 0.023093877 0.0162476
0.033596195 0.023097383 0.016618103
0.034825329 0.023216886 0.016730279
0.035433862 0.022927793 0.017053127
0.036841873 0.023157749 0.016946793
0.037757382 0.023073956 0.016717732
0.038723424 0.023024738 0.016415179
0.040265203 0.023311432 0.016062975
0.040702898 0.022960609 0.015059292
0.042010218 0.023105619 0.01481995
0.043993358 0.02360619 0.01384604
0.045105703 0.023626795 0.012391865
0.046086859 0.023579322 0.011415571
0.047209922 0.023604961 0.010755718
0.04820431 0.02356655 0.010558367
0.049517706 0.02368238 0.010417342
0.051193591 0.023962958 0.010380119
0.050636828 0.023208547 0.0099747777
0.052733526 0.023676276 0.0095664561
0.053415786 0.023502946 0.0092274845
0.053586289 0.023115654 0.0083934963
0.055737451 0.023581229 0.0080126226
0.056429572 0.023423597 0.0070903301
0.057745893 0.023526102 0.0055287182
-0.061973255 0.025453303 0.0051851273
-0.059825797 0.025018061 0.0061146319
-0.057917126 0.024668405 0.0069618821
-0.056933563 0.024707019 0.0075964332
-0.05642353 0.024956562 0.0090235174
-0.054552101 0.024601929 0.0094765425
-0.053813133 0.024754042 0.010226309
-0.052495301 0.024640653 0.01081717
-0.051511813 0.024682743 0.011310965
-0.050416429 0.024671869 0.01175648
-0.048948895 0.024474448 0.012357414
-0.047990747 0.024528604 0.012599111
-0.047104869 0.024623001 0.012751937
-0.045700479 0.024444442 0.013055027
-0.044629026 0.024439704 0.013103098
-0.043942563 0.024650706 0.013158202
-0.042418715 0.024390761 0.013092756
-0.041446302 0.024442691 0.012787074
-0.040687948 0.024626916 0.012497663
-0.039272022 0.024412338 0.012376785
-0.039048661 0.024947757 0.01222235
-0.037405588 0.024580816 0.012062371
-0.036363173 0.024598617 0.012159973
-0.03550319 0.02474465 0.011922985
-0.034354649 0.024692405 0.011669487
-0.033599887 0.024928948 0.011067331
-0.032412894 0.024849886 0.011094034
-0.030956104 0.024551393 0.011103183
-0.030283315 0.024875579 0.011016846
-0.029103434 0.024791813 0.011312008
-0.027467856 0.024298489 0.011570424
-0.027018592 0.024857106 0.011570424
-0.025804702 0.024729509 0.011488169
-0.024361297 0.024361297 0.011425763
-0.023400307 0.024463959 0.011207014
-0.022406027 0.024539934 0.011523575
-0.021192223 0.024371058 0.01121676
-0.020294489 0.024567014 0.010885298
-0.019161794 0.024484515 0.010885298
-0.018182969 0.024600487 0.010751009
-0.017163798 0.024672961 0.010215372
-0.01608075 0.024657151 0.010017663
-0.015089266 0.02478951 0.010044664
-0.013951734 0.024683839 0.010044664
-0.012815271 0.024562603 0.0098952651
-0.011934258 0.024953451 0.0098952651
-0.010711283 0.024635952 0.0096417964
-0.0095815696 0.024486234 0.01009053
-0.00859774 0.024718504 0.010127753
-0.0074603171 0.024512472 0.010370404
-0.0064225723 0.024619861 0.010266453
-0.0053781969 0.024739707 0.010430813
-0.0042486237 0.024429588 0.010799229
-0.0032278092 0.024746539 0.010749668
-0.0021346181 0.02454811 0.010934442
-0.0010662843 0.024524538 0.01096791
0 0.024734633 0.011036724
0.0010649449 0.024493733 0.010908008
0.0021446017 0.024662919 0.010629982
0.0032124689 0.02462893 0.010543287
0.0043114438 0.024790803 0.0097834468
0.0053684576 0.024694907 0.010359287
0.0065266569 0.025018854 0.0098381341
0.0076396884 0.025101833 0.0096433163
0.0085836202 0.02467791 0.0097272396
0.0096927593 0.024770387 0.0098596811
0.010645558 0.024484785 0.010086209
0.011764906 0.024599351 0.010114759
0.012886098 0.024698354 0.010373563
0.013777724 0.024375973 0.010972649
0.014754537 0.024239596 0.011625051
0.016024176 0.024570405 0.0117926
0.016832903 0.024197299 0.011464596
0.018302906 0.024762757 0.012157947
0.019203389 0.024537666 0.012468129
0.020057647 0.02428031 0.01266259
0.02135638 0.024559839 0.012735635
0.022384323 0.024516163 0.012962312
0.023283968 0.02434233 0.013197631
0.024657635 0.024657635 0.013193965
0.025399271 0.024340969 0.014230072
0.026356341 0.024247834 0.01458171
0.027820067 0.024610061 0.014842272
0.028362194 0.024160387 0.015220433
0.029400829 0.024150683 0.01549229
0.030720161 0.024364267 0.015341341
0.031327486 0.02401774 0.016549945
0.032807775 0.024341252 0.016658008
0.03356627 0.024125757 0.016961217
0.034372006 0.023956249 0.017068297
0.036119819 0.024433995 0.017113805
0.036928017 0.024266982 0.017200917
0.037632082 0.02404272 0.016825587
0.038866069 0.024159988 0.01651445
0.040236577 0.024353718 0.016101211
0.041054051 0.024211366 0.015374452
0.042246681 0.024291843 0.015176684
0.043259762 0.024267672 0.013848364
0.045012992 0.02464997 0.01267761
0.046174169 0.02469781 0.011779994
0.047182079 0.024663361 0.011084825
0.047998913 0.024532776 0.010690778
0.049644388 0.024822194 0.010507315
0.050555669 0.024740009 0.010230273
0.052190706 0.025008049 0.0093781948
0.052593008 0.024686515 0.0092054307
0.053468816 0.024595656 0.008826226
0.054983273 0.024796378 0.0080803037
0.056112748 0.024819102 0.0072308481
0.056233089 0.024403039 0.005953759
-0.059594989 0.026005086 0.0060757399
-0.058550492 0.02602244 0.0068665445
-0.056957357 0.025792012 0.0077991784
-0.056029346 0.025859699 0.0092197657
-0.054670498 0.025727293 0.0096459091
-0.053177238 0.025525074 0.010305226
-0.052469965 0.025699576 0.01085636
-0.051463768 0.025731884 0.0111323
-0.04928118 0.025164858 0.01175639
-0.049303431 0.025723528 0.012223125
-0.048217893 0.025716208 0.012502462
-0.046972938 0.025621604 0.012672126
-0.04607641 0.025717065 0.012977332
-0.045016643 0.025723796 0.013030857
-0.043809589 0.025644636 0.013139844
-0.04247313 0.025483878 0.013030857
-0.041478097 0.025524983 0.012665302
-0.040461 0.025554316 0.012578189
-0.039557848 0.025659144 0.012386262
-0.038617425 0.02574495 0.012272239
-0.037646335 0.02581463 0.012345523
-0.036318708 0.025636734 0.01234898
-0.035568096 0.025867704 0.012435853
-0.034229279 0.025671959 0.012241274
-0.03331846 0.025794934 0.011813104
-0.031898327 0.025518661 0.011996865
-0.030937513 0.025603458 0.012059242
-0.030090192 0.025791593 0.012321651
-0.028795855 0.025596315 0.012510747
-0.028026048 0.025870198 0.012224764
-0.026707875 0.02563956 0.012395024
-0.025647832 0.025647832 0.012528896
-0.024577167 0.025645738 0.012528896
-0.023482462 0.025617233 0.012446076
-0.022234265 0.025410589 0.012635142
-0.021516182 0.025819417 0.0124861
-0.020167921 0.025475267 0.012468278
-0.019254215 0.025672287 0.012468278
-0.01821753 0.025718864 0.012142509
-0.016896613 0.025344919 0.011382461
-0.016143179 0.025829086 0.011023343
-0.015070881 0.025835795 0.010587037
-0.013841349 0.025553258 0.010580778
-0.012951379 0.025902757 0.010498792
-0.011798657 0.025742525 0.010504633
-0.010664081 0.025593795 0.010551393
-0.0096321944 0.025685852 0.010528058
-0.0084942477 0.025482742 0.010325968
-0.0074336655 0.025486853 0.010849833
-0.0064727543 0.025891017 0.010768831
-0.0053098537 0.025487296 0.010864764
-0.0042667477 0.025600486 0.01141122
-0.0032213116 0.025770493 0.011639357
-0.0021284625 0.025541551 0.011766374
-0.0010587025 0.025408858 0.011804551
0 0.025654349 0.011796266
0.0010626587 0.025503809 0.011630833
0.0021425835 0.025711002 0.011350632
0.0032182073 0.025745658 0.011009485
0.0042533581 0.025520148 0.010563582
0.0053634117 0.025744377 0.01061812
0.0064479234 0.025791693 0.010608941
0.0075252554 0.025800876 0.010376126
0.0085692201 0.025707658 0.01057443
0.0096135736 0.025636198 0.010831624
0.010640959 0.025538303 0.011058867
0.011741769 0.025618404 0.011283189
0.012836028 0.025672056 0.011634678
0.013868237 0.025602899 0.012428731
0.014914185 0.025567174 0.012909174
0.015702512 0.025124019 0.012722015
0.016951106 0.025426658 0.012929529
0.018191686 0.025682379 0.013264477
0.019094421 0.025459228 0.014149755
0.020269576 0.025603674 0.014103711
0.021294903 0.025553884 0.014264792
0.022263624 0.025444141 0.014264792
0.023335388 0.025456788 0.014313281
0.024332585 0.025390523 0.014264792
0.025284747 0.025284747 0.014564723
0.026440585 0.02538296 0.014582574
0.027375417 0.025269616 0.014900923
0.028436769 0.025277127 0.015217781
0.029668566 0.025430199 0.015579253
0.030416403 0.025172194 0.015506357
0.031628836 0.02530307 0.016549945
0.033079542 0.025609968 0.016750902
0.033516735 0.025137549 0.017024994
0.034693304 0.025231494 0.016961426
0.036073327 0.025463523 0.017095655
0.036644638 0.025127752 0.017037094
0.038414463 0.025609642 0.016638905
0.039068982 0.02534204 0.016390532
0.039606743 0.025014784 0.016324937
0.041246559 0.025382498 0.01527679
0.042373803 0.025424281 0.015152067
0.042923316 0.025125843 0.013821751
0.044859011 0.025633719 0.012017101
0.045696475 0.025505008 0.011376232
0.046925023 0.025595466 0.010397553
0.04846286 0.025846856 0.009909004
0.049845837 0.026006524 0.0096760094
0.050627925 0.025852557 0.009205997
0.052075848 0.026037924 0.0085628033
0.052271619 0.025602426 0.0081832409
0.054059047 0.025948342 0.0080105662
0.054821387 0.025798298 0.0067223608
0.055583645 0.02565399 0.0054467022
-0.060023781 0.027283538 0.0063591003
-0.057984799 0.026844814 0.0072984695
-0.056622662 0.026708804 0.0087679923
-0.055907965 0.02687883 0.0093480647
-0.054105017 0.026522068 0.009701699
-0.053145099 0.02657255 0.010243952
-0.052766953 0.026921917 0.010783583
-0.050916556 0.026519042 0.011083841
-0.050103284 0.026650684 0.011479259
-0.048848242 0.026547957 0.011873096
-0.048014686 0.026674824 0.012049466
-0.047056358 0.026736569 0.012573957
-0.046295829 0.02691618 0.012672126
-0.045022566 0.026799146 0.012900889
-0.044314303 0.027020916 0.012921005
-0.042585403 0.026615879 0.012807161
-0.041658446 0.026704134 0.012472689
-0.040319052 0.026525691 0.012402028
-0.039444242 0.026651515 0.012300909
-0.038509026 0.026742382 0.012173533
-0.037439052 0.026742183 0.012176245
-0.036455467 0.02680549 0.012423247
-0.035188422 0.026657898 0.012341172
-0.034212444 0.026728472 0.012274534
-0.032681409 0.026355976 0.012106895
-0.032146554 0.026788797 0.012187243
-0.030924018 0.026658636 0.012331039
-0.029947935 0.026739229 0.012741148
-0.028945588 0.026801471 0.012824833
-0.027568631 0.0265083 0.012787938
-0.026445679 0.026445679 0.013176948
-0.025785355 0.026859745 0.013184965
-0.024412729 0.026535574 0.013187289
-0.023453493 0.026651697 0.013549924
-0.022431254 0.026703874 0.013600051
-0.021126339 0.026407925 0.013463825
-0.020198347 0.026576772 0.01346913
-0.019170303 0.026625423 0.013404757
-0.017984252 0.026447432 0.01343596
-0.017060412 0.026656896 0.013174355
-0.015792252 0.026320422 0.012806982
-0.014818249 0.02646116 0.012498766
-0.013943615 0.026814645 0.011398315
-0.012998313 0.027079819 0.011496931
-0.011590084 0.026341103 0.011456728
-0.010704433 0.026761083 0.011199534
-0.0095803495 0.026612082 0.011284411
-0.008561098 0.026753433 0.01128602
-0.0074414765 0.026576703 0.011627644
-0.0063812225 0.026588427 0.011735976
-0.0053136079 0.02656804 0.011772692
-0.0043062605 0.026914129 0.012245119
-0.0031802906 0.026502423 0.012216747
-0.0021227826 0.026534785 0.012621582
-0.0010626792 0.026566982 0.012565941
0 0.026702471 0.012717932
0.0010605493 0.026513731 0.012700558
0.0021332498 0.026665624 0.012479156
0.0031813858 0.02651155 0.012155473
0.0042979843 0.026862403 0.011700034
0.0053400784 0.026700394 0.011731148
0.0064213835 0.026755765 0.011750489
0.0075505152 0.026966127 0.011196345
0.0085645057 0.02676408 0.011471063
0.0096865781 0.026907163 0.011926502
0.010642379 0.026605947 0.012137949
0.011661686 0.026503833 0.0123941
0.012761078 0.026585579 0.01254186
0.014013198 0.026948459 0.013458759
0.015007277 0.02679871 0.013902664
0.015910842 0.026518069 0.014050931
0.017090574 0.026704023 0.014466286
0.017848847 0.026248306 0.014657736
0.019370565 0.026903564 0.01481092
0.020339254 0.026762178 0.014564067
0.021014502 0.02626813 0.014490575
0.022787325 0.027127769 0.014564067
0.023433441 0.026628911 0.014859438
0.024194734 0.026298624 0.014783382
0.025572494 0.026638016 0.014980763
0.026498826 0.026498826 0.015080005
0.02743284 0.026377732 0.015433401
0.028358676 0.026258033 0.015705258
0.029708255 0.026525229 0.016141564
0.030584291 0.026365768 0.016549945
0.031766046 0.026471706 0.017052025
0.032655079 0.02633474 0.017181456
0.034095969 0.026637478 0.017438769
0.034754097 0.026328864 0.017113805
0.035414297 0.026039924 0.017225862
0.036713358 0.026223829 0.017076761
0.038146805 0.026490839 0.016852647
0.038888182 0.026275799 0.016677082
0.040065806 0.026359083 0.016503036
0.041344266 0.026502736 0.015344232
0.042226914 0.026391823 0.015180379
0.04336115 0.026439724 0.013312936
0.045030188 0.026803683 0.011906385
0.046275012 0.026904076 0.011063635
0.047620639 0.027057182 0.010326833
0.048278663 0.026821479 0.0098460913
0.049248725 0.026765611 0.009485364
0.051654361 0.027475724 0.008784771
0.051514041 0.02683023 0.0081517398
0.053258307 0.027172606 0.0074665248
0.054165669 0.027082834 0.0058693886
0.054868583 0.026896363 0.0050154924
-0.059079457 0.02792847 0.0059588253
-0.058106016 0.027976969 0.007514447
-0.05723726 0.028078657 0.0089885592
-0.055814516 0.027907258 0.009565413
-0.054481365 0.027774815 0.010070443
-0.053997196 0.028078541 0.010434777
-0.052587055 0.027903337 0.010822773
-0.051534973 0.027914777 0.011083841
-0.050328348 0.027841212 0.011464983
-0.048779413 0.02757097 0.01175648
-0.048439801 0.027987439 0.011784881
-0.047261883 0.027927475 0.012055695
-0.045695417 0.027629787 0.012426496
-0.045521285 0.028179841 0.012633622
-0.044116244 0.027976153 0.01275596
-0.04317449 0.028063418 0.012808949
-0.041760545 0.027840363 0.012500376
-0.040057201 0.027407557 0.012301713
-0.039350607 0.027651776 0.012231469
-0.038417872 0.027746242 0.01206854
-0.036881544 0.02739772 0.012172788
-0.036381695 0.027821297 0.012425363
-0.035228904 0.027756108 0.01242128
-0.033826623 0.027484132 0.012335092
-0.033073068 0.027738702 0.012296677
-0.031964909 0.027702922 0.012298793
-0.030651622 0.027480762 0.012527734
-0.029829334 0.027698668 0.012961328
-0.028655801 0.027594473 0.013345271
-0.027349569 0.027349569 0.013579965
-0.026651012 0.027717052 0.013956994
-0.025402268 0.027519124 0.013831675
-0.024495492 0.027690554 0.013976991
-0.023332158 0.027574368 0.014167398
-0.022210777 0.027499055 0.014474213
-0.021221444 0.027587879 0.014463514
-0.020247115 0.027706577 0.014495075
-0.018956097 0.027381031 0.014250994
-0.017856356 0.027309719 0.014336169
-0.016946811 0.027538566 0.014078289
-0.015718609 0.027245589 0.013558358
-0.014843144 0.027565837 0.013125956
-0.013788029 0.027576057 0.012899399
-0.012738617 0.027600337 0.012837589
-0.011763542 0.027804736 0.012598842
-0.010582296 0.02751397 0.012426913
-0.0095793763 0.027673755 0.012337834
-0.0085670408 0.027842883 0.012256384
-0.0074075041 0.027513588 0.012694329
-0.006372544 0.027614357 0.012542635
-0.0053492696 0.027816202 0.012575865
-0.0042162579 0.027405677 0.0129655
-0.0031994996 0.027728997 0.013231128
-0.0021234194 0.027604451 0.013330609
-0.0010533227 0.027386388 0.013453245
0 0.027674405 0.013613433
0.0010584947 0.027520861 0.013705343
0.0021302341 0.027693044 0.013300955
0.003220126 0.027907761 0.013108522
0.004278319 0.027809074 0.012615889
0.0052996827 0.027558351 0.012790293
0.0064897221 0.028122129 0.012763083
0.0075390968 0.028002359 0.01243186
0.0085587669 0.027815992 0.012902439
0.009709131 0.028048601 0.012887716
0.010557964 0.027450709 0.01269123
0.011723398 0.027709851 0.013341904
0.012768541 0.027665172 0.013646811
0.013747708 0.027495416 0.014099061
0.014749495 0.02739192 0.014540136
0.015799783 0.027386291 0.015067488
0.016609255 0.026990041 0.015156865
0.017906994 0.027387168 0.015418917
0.018883884 0.027276723 0.01539427
0.019981509 0.027343117 0.014994591
0.02132111 0.027717443 0.015054494
0.022407286 0.027742354 0.015055805
0.023269335 0.027500123 0.015214086
0.024421442 0.027606847 0.015251786
0.025450373 0.027571237 0.015214086
0.026350403 0.027404418 0.015321851
0.027545327 0.027545327 0.015365988
0.028327968 0.027278783 0.015399426
0.029610088 0.027495081 0.015687943
0.030663941 0.027491808 0.015687943
0.031416994 0.027228059 0.016907483
0.032484427 0.027245004 0.01712364
0.033597596 0.027298044 0.017336607
0.034784641 0.027406083 0.017086565
0.036078673 0.027589573 0.01712364
0.036336299 0.026992681 0.017028958
