ply
format ascii 1.0
comment PCL generated
element vertex 1241
property float x
property float y
property float z
element camera 0
property float view_px
property float view_py
property float view_pz
property float x_axisx
property float x_axisy
property float x_axisz
property float y_axisx
property float y_axisy
property float y_axisz
property float z_axisx
property float z_axisy
property float z_axisz
property float focal
property float scalex
property float scaley
property float centerx
property float centery
property int viewportx
property int viewporty
property float k1
property float k2
end_header
-0.052892528 -0.018350471 0.0063680708
-0.052191466 -0.018484479 0.0059837699
-0.05089727 -0.018409651 0.0065863431
-0.049747869 -0.018385082 0.0062083602
-0.04876177 -0.018421112 0.0056848228
-0.04745144 -0.018333511 0.0051329732
0.027187699 -0.018487634 0.0052064359
0.027843963 -0.018205669 0.0061122477
0.028878946 -0.01818304 0.0066345036
0.030627474 -0.018595252 0.0090387762
0.031037299 -0.018194279 0.0091235936
0.032611977 -0.01848012 0.0096202493
0.033195585 -0.01820403 0.0096776187
0.034605615 -0.018384233 0.0097889602
0.035457455 -0.018265963 0.0098430216
0.036910288 -0.018455144 0.010673314
0.037267689 -0.01810145 0.010235012
0.038972802 -0.018403824 0.010202914
0.040205698 -0.018472888 0.009803921
0.040722739 -0.018218068 0.0096567571
0.041765522 -0.018205484 0.0097186863
0.043010261 -0.018279362 0.010316372
0.044081952 -0.018277882 0.010299444
0.045456007 -0.01839886 0.010508001
0.046091124 -0.018222073 0.011049062
0.047467429 -0.01833969 0.010880828
0.047693856 -0.018017678 0.010753244
0.049828611 -0.01841492 0.010925561
0.050649866 -0.018320164 0.010659903
0.051320449 -0.018175993 0.010119766
0.052211039 -0.018114034 0.010118455
0.053753044 -0.018276036 0.0096633434
0.054583035 -0.018194344 0.0094763935
0.056430496 -0.018448431 0.0084582269
0.056937031 -0.018262822 0.0072815716
0.058034677 -0.018270176 0.0056086183
-0.073492773 -0.017292418 0.0050357282
-0.072606735 -0.01733892 0.0053959787
-0.072289914 -0.017524827 0.0057046413
-0.070577964 -0.017373037 0.0064145327
-0.06945011 -0.017362528 0.0069306493
-0.069073886 -0.017542575 0.0070476532
-0.06626007 -0.017099373 0.007058531
-0.066453986 -0.017430553 0.007091254
-0.065092258 -0.017357936 0.0072282553
-0.063418962 -0.017198363 0.0071619749
-0.06271258 -0.017300021 0.00689587
-0.061989941 -0.017400686 0.0070896149
-0.061014686 -0.017432768 0.0069820881
-0.060778774 -0.017681098 0.0067764223
-0.060322911 -0.017873455 0.0069047511
-0.059289262 -0.017898645 0.0076533854
-0.056140877 -0.017274115 0.0077411234
-0.054613218 -0.017133558 0.0082539618
-0.054193784 -0.017342011 0.0083015263
-0.052752692 -0.01722537 0.0084278882
-0.051435996 -0.017145332 0.0081446171
-0.051024728 -0.01737012 0.0082339942
-0.050073124 -0.017416738 0.008190155
-0.048886608 -0.017381905 0.0075574815
-0.047589511 -0.017305277 0.0070033669
-0.046981469 -0.017481476 0.0065150559
-0.045262132 -0.017242717 0.0054503083
0.024682755 -0.017170612 0.0053924024
0.025879143 -0.017252762 0.0059781075
0.027173767 -0.01739121 0.0066827834
0.027881594 -0.017157905 0.0081582665
0.029420249 -0.017434221 0.0090497136
0.03039236 -0.017367063 0.0096202493
0.031084536 -0.017150087 0.009929657
0.032309104 -0.01723152 0.01050967
0.032850605 -0.01695515 0.010609299
0.033927001 -0.016963501 0.011679053
0.035302781 -0.0171165 0.01169309
0.035855185 -0.016873028 0.012450904
0.037732478 -0.017249133 0.012082666
0.038799834 -0.017244371 0.012037694
0.039700247 -0.017167674 0.011802942
0.040996559 -0.01726171 0.011669815
0.042216759 -0.017319696 0.011493176
0.043087397 -0.017234959 0.011359394
0.04382303 -0.01710167 0.011312902
0.044999998 -0.017142856 0.011312902
0.046007246 -0.017118976 0.011355489
0.047075219 -0.017118262 0.011176497
0.047706876 -0.016962444 0.011151314
0.049287949 -0.017143633 0.01113382
0.050336473 -0.017135821 0.011165977
0.051125299 -0.017041767 0.010119528
0.052524518 -0.017150864 0.010049552
0.053909637 -0.017251084 0.0097763538
0.053824134 -0.016886003 0.0095789731
0.056363944 -0.017342752 0.0085320771
0.056673888 -0.017109098 0.007361263
0.058017723 -0.017190436 0.005610466
-0.071122199 -0.016164135 0.0051238239
-0.070956007 -0.016374463 0.0056548417
-0.070219114 -0.016457604 0.006139189
-0.067756973 -0.016132612 0.0067079663
-0.067233257 -0.016266111 0.0064822137
-0.065677606 -0.016150231 0.0065345764
-0.064885095 -0.016221274 0.007044971
-0.06375929 -0.016209988 0.0069322884
-0.063802764 -0.016500715 0.0069057047
-0.062673189 -0.016492946 0.0073643625
-0.061591581 -0.016497744 0.0076597333
-0.060153719 -0.01640556 0.0076597333
-0.058776487 -0.016326802 0.0085310042
-0.057396408 -0.016244266 0.0088574886
-0.055448677 -0.015994811 0.0094105005
-0.054125197 -0.015919175 0.010231227
-0.05333735 -0.016001206 0.010305345
-0.052274656 -0.016002446 0.0098540783
-0.050953038 -0.015922824 0.0098201036
-0.050224666 -0.016029147 0.0096564293
-0.049328852 -0.016085494 0.0098379552
-0.048915803 -0.016305268 0.0091785491
-0.048148375 -0.01641422 0.0085874498
-0.046725452 -0.016299576 0.0075051486
-0.045383539 -0.016208407 0.0070033669
-0.044962984 -0.016449871 0.0061861575
-0.043603245 -0.016351217 0.0054503083
0.020620137 -0.016279057 0.0053536296
0.021798927 -0.016349196 0.005776912
0.022777339 -0.016269527 0.0063065886
0.02375973 -0.016199816 0.0068409741
0.024802662 -0.01617565 0.0069349408
0.026055349 -0.016284592 0.0070955157
0.027256962 -0.016354177 0.0084428191
0.027974393 -0.016139073 0.0095516443
0.028986456 -0.016103586 0.0097692013
0.030170627 -0.016162835 0.010512352
0.031055802 -0.016063346 0.010887653
0.031951282 -0.015975641 0.011834413
0.033094823 -0.016013624 0.012202293
0.034171276 -0.016017785 0.012697786
0.034883332 -0.015856061 0.012723595
0.036217812 -0.015978446 0.013097167
0.037555516 -0.016095221 0.012939483
0.037632521 -0.015680218 0.013064861
0.039484054 -0.016007047 0.01306206
0.041401576 -0.016342727 0.01248762
0.04162005 -0.016007712 0.012265533
0.043566868 -0.016337575 0.011959136
0.043983798 -0.016091634 0.011784315
0.045373358 -0.016204771 0.011662781
0.046522252 -0.016228693 0.011379451
0.047149006 -0.016073525 0.011299908
0.048087459 -0.016029153 0.010880828
0.049860708 -0.016258927 0.010870159
0.050830502 -0.016222501 0.010359049
0.051234722 -0.016010851 0.0097622573
0.052816991 -0.016168468 0.0095404387
0.053482462 -0.016044738 0.0093275011
0.0544273 -0.016008029 0.0089288652
0.056187067 -0.016207809 0.0083297491
0.05605498 -0.015864618 0.0071033835
0.057749324 -0.016041478 0.0054559112
-0.070508733 -0.015186497 0.0050344467
-0.068885118 -0.01506862 0.0056066811
-0.068601079 -0.015244684 0.0060221553
-0.0679598 -0.01534576 0.0063212514
-0.065646663 -0.015066448 0.006403774
-0.064984851 -0.015163132 0.0068152547
-0.064017482 -0.015190588 0.0071349442
-0.06308087 -0.015226415 0.0070505142
-0.062255785 -0.015290895 0.0077312589
-0.06146862 -0.015367155 0.0081430972
-0.05956139 -0.015161081 0.0086993873
-0.058357768 -0.015129791 0.0097909868
-0.057167783 -0.015100924 0.010805368
-0.055211645 -0.014864674 0.011452615
-0.054780517 -0.015037788 0.011649847
-0.053133491 -0.014877377 0.011765808
-0.052258566 -0.014931019 0.011903852
-0.051491961 -0.015018488 0.011998624
-0.049725659 -0.014811899 0.011309862
-0.049539339 -0.01507719 0.010787636
-0.048737593 -0.015162806 0.010138512
-0.047113243 -0.014990577 0.0095948875
-0.046414386 -0.015111661 0.0088632703
-0.045433421 -0.015144473 0.00830248
-0.043853525 -0.014974373 0.0077231824
-0.043636262 -0.015272692 0.0066373944
-0.042735517 -0.015340954 0.0057110488
0.016312089 -0.015224616 0.0053172112
0.017229339 -0.015075671 0.0058467984
0.018419178 -0.015168734 0.0067028999
0.019428208 -0.01511083 0.0070066154
0.02080589 -0.015330655 0.0071455538
0.02211738 -0.015482167 0.0071765184
0.022642653 -0.015095103 0.0082081854
0.023985425 -0.015263453 0.0085125268
0.024984008 -0.015207657 0.0091132224
0.025908791 -0.015113462 0.0093817711
0.026885377 -0.015055811 0.0098500848
0.02802909 -0.015092587 0.010173172
0.02882655 -0.0149471 0.010882765
0.030132491 -0.015066246 0.011896729
0.030840037 -0.014888293 0.01228404
0.031976033 -0.014922149 0.012388915
0.032933943 -0.014873393 0.013107777
0.034059659 -0.014901101 0.013610005
0.035120957 -0.0148998 0.01342079
0.036446095 -0.015007215 0.013964623
0.037076574 -0.014830629 0.013982326
0.038398452 -0.014932732 0.013806969
0.038993664 -0.014754359 0.013970882
0.040201928 -0.014811236 0.013626993
0.04151734 -0.01490366 0.013295203
0.043075986 -0.015076595 0.012988806
0.044159237 -0.015078763 0.012422949
0.044822514 -0.014940838 0.011917859
0.046742659 -0.01521854 0.011615098
0.047358446 -0.015068596 0.011288583
0.047789276 -0.014867774 0.01091978
0.050255038 -0.015295012 0.010618091
0.050522137 -0.015049146 0.0097251832
0.051468723 -0.015011711 0.0090897083
0.052581627 -0.015023323 0.0089077055
0.053574909 -0.015000974 0.0086888373
0.055298444 -0.015179965 0.0079812706
0.056578577 -0.015232694 0.0069828033
0.057436734 -0.015171968 0.0056042075
-0.069391817 -0.014318947 0.0054807365
-0.067061774 -0.014061339 0.0058101416
-0.066060007 -0.014078363 0.0063022077
-0.065514557 -0.01419482 0.0067185163
-0.063926712 -0.014085547 0.0071956813
-0.063292466 -0.014186242 0.0075159073
-0.062694252 -0.014298689 0.0082347095
-0.060250174 -0.013986647 0.0095090866
-0.059035007 -0.013953729 0.010391086
-0.057436362 -0.013827272 0.011371762
-0.055898108 -0.013710856 0.012508661
-0.055678193 -0.013919548 0.012877017
-0.054378081 -0.013861079 0.012718916
-0.053273965 -0.013851231 0.012641191
-0.05178865 -0.013739847 0.012723804
-0.05112737 -0.013846996 0.012847364
-0.050435305 -0.013950191 0.012239784
-0.049228746 -0.013912472 0.012075841
-0.048161164 -0.013913224 0.011017114
-0.047463674 -0.014023358 0.010402054
-0.04670747 -0.014120864 0.0098471045
-0.044994269 -0.013926797 0.0090186596
-0.044257373 -0.014032824 0.008731693
-0.043132938 -0.014018205 0.0076539516
-0.041714784 -0.013904928 0.0065105259
-0.041685406 -0.014260796 0.0051783919
0.013089886 -0.01418071 0.0056363642
0.014168518 -0.014168518 0.0060689151
0.015114721 -0.014035097 0.0071099401
0.016178263 -0.014021162 0.0073876679
0.01727853 -0.014038805 0.008089751
0.017952859 -0.013728658 0.0085299611
0.019290669 -0.01393215 0.0089866817
0.020421328 -0.013972487 0.0090418458
0.021360831 -0.013884541 0.0091633201
0.022778753 -0.014101133 0.0096258819
0.024075797 -0.014226608 0.0099452734
0.02463346 -0.013923259 0.009980619
0.026125586 -0.01415136 0.010376394
0.026876992 -0.013976035 0.010733217
0.027985588 -0.013992794 0.011112392
0.029439695 -0.014174668 0.011733085
0.030245665 -0.014042631 0.01228404
0.030846149 -0.013827584 0.012409836
0.032150093 -0.013931707 0.012916833
0.033226777 -0.013933809 0.013698846
0.034210257 -0.013897916 0.014190614
0.0354045 -0.013947227 0.014125228
0.035606772 -0.013614354 0.014457017
0.036958557 -0.013727464 0.014538556
0.038191892 -0.013791516 0.01445511
0.039178792 -0.013765521 0.014395148
0.040498082 -0.013854607 0.014229745
0.041208547 -0.013736183 0.01411283
0.042223319 -0.013722579 0.01361981
0.043675724 -0.0138484 0.012729198
0.045368478 -0.014042623 0.011841595
0.046436492 -0.014038939 0.011587858
0.047301076 -0.013975319 0.011186779
0.047915887 -0.013842367 0.010760546
0.049462695 -0.013978587 0.010365129
0.050699867 -0.014023367 0.0093629658
0.05122903 -0.013874529 0.0086300969
0.052968364 -0.014052832 0.0085089803
0.053990573 -0.014037549 0.0078994036
0.053977266 -0.013758911 0.006796211
0.056052163 -0.014013041 0.006239146
-0.068627119 -0.013071832 0.0051081181
-0.067447774 -0.013054407 0.0055834055
-0.066774398 -0.013135947 0.0060570836
-0.065671451 -0.01313429 0.0064820647
-0.065059319 -0.013232404 0.0075102448
-0.063671641 -0.013173442 0.0075435042
-0.0624239 -0.013141873 0.0091445148
-0.059568614 -0.012764703 0.010519475
-0.058289003 -0.0127176 0.011607289
-0.057691913 -0.012820425 0.012117505
-0.056715779 -0.012841308 0.012686759
-0.055085313 -0.012711995 0.013012528
-0.054548755 -0.012835001 0.013002753
-0.05334156 -0.012801974 0.013014555
-0.051671095 -0.012654146 0.013133734
-0.050991878 -0.012747969 0.013036788
-0.050200205 -0.012817074 0.012853712
-0.04944979 -0.012899945 0.01278016
-0.048391089 -0.012904289 0.012120008
-0.047741894 -0.013020516 0.011836559
-0.045840748 -0.012792767 0.011130422
-0.045267601 -0.0129336 0.0099840164
-0.044467118 -0.013014765 0.0093679428
-0.042466741 -0.012740023 0.0084647238
-0.041741665 -0.012843589 0.0072034001
-0.040505826 -0.012791313 0.006262064
0.0097740442 -0.013032059 0.0052601993
0.01093252 -0.013119024 0.0058606863
0.011963998 -0.013051635 0.0065638423
0.013210067 -0.013210067 0.0074189305
0.013890871 -0.012822342 0.0080905259
0.015019538 -0.012873889 0.0083849728
0.016313819 -0.013051055 0.0088168383
0.017240901 -0.012930675 0.0094154775
0.018295871 -0.012914732 0.0098133385
0.019513553 -0.013009036 0.010344774
0.020338478 -0.012845353 0.0098685026
0.021627897 -0.012976739 0.010284841
0.022958189 -0.013118966 0.010695219
0.023496613 -0.012816335 0.011130184
0.02487609 -0.012978829 0.011031359
0.02590568 -0.01295284 0.011271477
0.026815211 -0.012871301 0.011673421
0.02787707 -0.01286634 0.012118667
0.028801655 -0.012800735 0.012242734
0.030191837 -0.012939358 0.012547314
0.030975468 -0.012817435 0.012758523
0.031851739 -0.012740696 0.013225049
0.03287521 -0.012725887 0.013805181
0.034051549 -0.01276933 0.014285654
0.035305019 -0.012838189 0.014591515
0.036247555 -0.012793254 0.015083224
0.037210051 -0.012757732 0.015202254
0.037812416 -0.012604139 0.015106678
0.039440062 -0.012791371 0.015015274
0.040505826 -0.012791313 0.014742255
0.040949136 -0.012599734 0.014322877
0.042381838 -0.012714552 0.013813019
0.043440454 -0.012714279 0.013391584
0.044895906 -0.012827401 0.012432992
0.046888269 -0.013085098 0.011780024
0.046984848 -0.01281405 0.011219442
0.048306599 -0.01288176 0.010288388
0.049263179 -0.012851263 0.0096273124
0.050686702 -0.012941286 0.0088748932
0.051668674 -0.012917168 0.0079906881
0.053067293 -0.012996072 0.0078994036
0.053795144 -0.012910835 0.0067607164
0.055486117 -0.013055556 0.0057062209
0.056945901 -0.013141362 0.0051102936
-0.068848148 -0.012021105 0.005235076
-0.068767048 -0.012200605 0.0056888461
-0.066815838 -0.012048759 0.0062341094
-0.065430127 -0.011995522 0.0071880519
-0.065725632 -0.012253931 0.0079065859
-0.062339615 -0.01182303 0.008525759
-0.060880482 -0.011748865 0.01030165
-0.05965732 -0.011718403 0.011035919
-0.058030736 -0.011606147 0.011767238
-0.057223003 -0.011656538 0.012290984
-0.056249015 -0.011674324 0.01292944
-0.055453811 -0.011730613 0.013110965
-0.054441601 -0.011742306 0.013217151
-0.053148765 -0.011692728 0.013112426
-0.051837798 -0.011637057 0.013305575
-0.051236596 -0.01174172 0.013325691
-0.049754221 -0.011644605 0.013392806
-0.048801497 -0.011669923 0.013220936
-0.048451763 -0.011843763 0.012753934
-0.046681613 -0.011670403 0.012299091
-0.046135869 -0.011802199 0.011736333
-0.045685817 -0.011965333 0.011062711
-0.044109803 -0.011834336 0.010281652
-0.042947683 -0.011810613 0.0095341802
-0.042310096 -0.011933617 0.008451134
-0.041092087 -0.011895077 0.0070738494
-0.039909963 -0.011865124 0.0064775944
-0.0086530466 -0.011897939 0.0054589212
-0.0074301385 -0.011675932 0.0053805113
-0.0064585391 -0.011840655 0.0053642094
0.0075576929 -0.011876374 0.0052127838
0.0086935116 -0.011953577 0.0060023367
0.009823557 -0.01200657 0.0066597462
0.010835811 -0.011919393 0.0079447627
0.011984964 -0.011984964 0.0083849728
0.012974869 -0.01189363 0.008720696
0.013944137 -0.011798885 0.0090925395
0.015008676 -0.011792531 0.0099268556
0.016073788 -0.011787444 0.010857403
0.016976109 -0.011671075 0.011220336
0.017983496 -0.01163638 0.011463881
0.019168604 -0.011714147 0.011802822
0.020400088 -0.011810577 0.011842191
0.021476038 -0.011811821 0.011641294
0.022539293 -0.011806295 0.011653155
0.023732612 -0.011866306 0.011874318
0.02488487 -0.011901459 0.011917681
0.025698718 -0.011778579 0.011975974
0.027319008 -0.012020363 0.012302071
0.027790504 -0.01175752 0.012433738
0.028756095 -0.011715446 0.01274848
0.030016934 -0.011792366 0.013200253
0.030806672 -0.011685289 0.013506681
0.031883191 -0.011690503 0.013833493
0.033346646 -0.011832681 0.014370769
0.034252293 -0.011774225 0.01457876
0.034754258 -0.011584752 0.014939427
0.036093201 -0.011677212 0.015372843
0.036847163 -0.011580537 0.015715122
0.037747361 -0.011533916 0.015663505
0.039564133 -0.011762309 0.015274525
0.039867692 -0.011540648 0.015296251
0.041004095 -0.011565258 0.01466006
0.041902073 -0.01152307 0.01423496
0.043726955 -0.011731621 0.013677061
0.044820167 -0.011738615 0.012915552
0.045638133 -0.011674871 0.012432992
0.047667976 -0.011916994 0.011432856
0.048250064 -0.011794459 0.010632962
0.049447726 -0.011824455 0.0098075271
0.051199585 -0.011982881 0.0088692605
0.052639663 -0.012063256 0.0080379546
0.052807201 -0.011854678 0.0077442527
0.053820118 -0.011840425 0.0062759221
0.05618386 -0.012118087 0.0053341389
-0.067923665 -0.010955429 0.0058345199
-0.065993048 -0.010818533 0.0065710247
-0.065177523 -0.01086292 0.0077620745
-0.063602194 -0.010780032 0.0088393986
-0.061958741 -0.010682541 0.0097104013
-0.060660809 -0.010642247 0.011026561
-0.059333239 -0.010595221 0.011910617
-0.058589142 -0.010652571 0.012616426
-0.057888895 -0.010720165 0.013051838
-0.056262244 -0.010615517 0.013151109
-0.055416521 -0.010657023 0.013351977
-0.054565385 -0.010699094 0.013384163
-0.05302215 -0.010604429 0.013313562
-0.052193958 -0.010651828 0.013404906
-0.051065601 -0.010638667 0.013597429
-0.050434642 -0.010730775 0.013530821
-0.049021933 -0.010656942 0.013480037
-0.048288625 -0.010730805 0.013154775
-0.046935242 -0.010667101 0.012763292
-0.046832088 -0.010891183 0.012330413
-0.044896916 -0.010689742 0.011508197
-0.043704931 -0.010659738 0.01104188
-0.043287713 -0.010821928 0.010052025
-0.042345971 -0.010857942 0.0094662309
-0.041599762 -0.010947305 0.0082688928
-0.039957479 -0.010799319 0.0073174834
-0.038722415 -0.010756226 0.0068320334
-0.037982382 -0.010852109 0.0054094791
-0.036892675 -0.010850786 0.0052567124
-0.0097479625 -0.01083107 0.0076053739
-0.008573656 -0.010717069 0.0079382658
-0.0075197923 -0.01074256 0.0086227059
-0.0063423044 -0.010570507 0.0087408125
-0.0053433399 -0.01068668 0.0078444481
-0.0043835333 -0.010958832 0.0055012703
0.0075863465 -0.010837638 0.0056559443
0.008625824 -0.01078228 0.0072674453
0.0098933075 -0.010992564 0.0079447627
0.010880396 -0.010880396 0.0085907876
0.011911349 -0.010828499 0.0092635751
0.012923076 -0.01076923 0.0099375546
0.013847632 -0.010652024 0.011078686
0.014932047 -0.010665747 0.011583775
0.015928648 -0.010619098 0.011729717
0.016896335 -0.010560209 0.012109905
0.01801884 -0.010599317 0.012579262
0.019224664 -0.010680369 0.012905926
0.020279951 -0.010673658 0.012884319
0.021314284 -0.010657142 0.012696058
0.022447448 -0.01068926 0.012728274
0.024038121 -0.010926418 0.012993515
0.024592562 -0.010692418 0.012616247
0.026252404 -0.010938502 0.012937397
0.027069837 -0.010827934 0.013156354
0.027765434 -0.010679013 0.013308167
0.028948458 -0.01072165 0.013828933
0.030100621 -0.010750221 0.013885885
0.031000864 -0.010689952 0.014125645
0.032326575 -0.010775525 0.014190823
0.033151001 -0.01069387 0.014854431
0.034032863 -0.01063527 0.014789462
0.03470039 -0.01051527 0.015395373
0.035672214 -0.010491827 0.015550315
0.036760297 -0.010502942 0.01583752
0.038298409 -0.010638447 0.015806407
0.039061401 -0.010557135 0.015441954
0.040020172 -0.010531624 0.015678525
0.041931905 -0.01075177 0.0148063
0.042479798 -0.01061995 0.014665395
0.043846641 -0.010694302 0.013824522
0.044357125 -0.010561219 0.013259202
0.045617633 -0.010608751 0.01273334
0.046868593 -0.010651953 0.011511147
0.048702955 -0.010822877 0.010538012
0.049776845 -0.010821053 0.0097662508
0.050534233 -0.010751965 0.0084438026
0.051565275 -0.010742766 0.0073904693
0.052623838 -0.010739559 0.0066064596
0.054204654 -0.01084093 0.0055354238
-0.0680658 -0.0098805185 0.00596264
-0.066669606 -0.0098364986 0.006675154
-0.064135939 -0.0096203908 0.0081292391
-0.063392393 -0.0096700257 0.009435147
-0.063351497 -0.0098304031 0.010630488
-0.060671221 -0.0095796669 0.011238426
-0.05954292 -0.0095693981 0.011853427
-0.058120891 -0.0095106903 0.012382776
-0.057327896 -0.0095546488 0.012795001
-0.05680041 -0.0096453531 0.013074785
-0.055416614 -0.0095913364 0.013176411
-0.054044291 -0.0095372275 0.013313085
-0.053067595 -0.0095521659 0.013239682
-0.052428272 -0.0096296826 0.013220698
-0.05089137 -0.0095421318 0.013359636
-0.050420519 -0.0096549923 0.013529181
-0.048824225 -0.0095525654 0.013437301
-0.048179686 -0.0096359365 0.013355106
-0.047332589 -0.0096816663 0.013100028
-0.045839239 -0.0095942589 0.012404442
-0.045548864 -0.0097604701 0.012044936
-0.044386268 -0.0097433263 0.011407822
-0.042855944 -0.009642587 0.010787636
-0.042310599 -0.009763984 0.0099223554
-0.040988784 -0.00970787 0.0092727244
-0.039876729 -0.0096997442 0.0084183514
-0.038956378 -0.0097390944 0.0081669688
-0.037833706 -0.0097286673 0.0072539151
-0.037105497 -0.0098220436 0.006793499
-0.035975534 -0.0098115085 0.0058290362
-0.035059631 -0.0098605203 0.0054623187
-0.03405733 -0.0098876106 0.0050222278
-0.012899714 -0.0096747847 0.0050741732
-0.011889936 -0.009728129 0.005907625
-0.010756112 -0.0096805012 0.0077962279
-0.0095072007 -0.0095072007 0.0087815821
-0.0086482773 -0.0097293109 0.0092355609
-0.0074093072 -0.0095262518 0.009603709
-0.0064249677 -0.0096374517 0.0096125603
-0.0053921165 -0.0097058099 0.0095486343
-0.0043118643 -0.0097016934 0.008865118
-0.0032440268 -0.0097320797 0.0077207983
0.0064439857 -0.0096659781 0.0057016909
0.0075603435 -0.009720441 0.0073372722
0.0085853785 -0.0096585508 0.0076925457
0.0096393898 -0.0096393898 0.008767128
0.010729908 -0.0096569173 0.0097466409
0.011882562 -0.0097220959 0.01052776
0.012969176 -0.009726882 0.011232764
0.013954589 -0.0096608689 0.011640489
0.014944021 -0.0096068699 0.012110144
0.016090412 -0.0096542472 0.01250729
0.017019158 -0.0095732762 0.012982935
0.018000236 -0.0095295366 0.013368696
0.019185245 -0.0095926225 0.013532698
0.020475518 -0.0096989293 0.013939917
0.02122787 -0.0095525412 0.013699859
0.022616247 -0.0096926764 0.013647944
0.023288308 -0.0095270351 0.013662845
0.024664005 -0.0096511319 0.013303816
0.025729666 -0.0096486239 0.013562739
0.026818942 -0.009654819 0.013914138
0.028116612 -0.0097326729 0.013704777
0.028838499 -0.0096128322 0.013920456
0.030020667 -0.0096494993 0.014036626
0.03106793 -0.0096417712 0.014301598
0.031772256 -0.0095316768 0.014201492
0.032719605 -0.0094992388 0.014597356
0.034365434 -0.0096652787 0.014628202
0.034856811 -0.0095064025 0.0153355
0.036267027 -0.0096000945 0.015772641
0.037325714 -0.009598041 0.015794724
0.037856955 -0.0094642388 0.015864193
0.039261341 -0.0095500555 0.015660703
0.040444545 -0.0095789703 0.015733182
0.040897958 -0.0094379904 0.01529938
0.042722497 -0.0096125621 0.014798522
0.04384673 -0.009624891 0.014017791
0.044313889 -0.009495833 0.013450503
0.045870513 -0.0096008042 0.012888104
0.046929996 -0.0095993178 0.011641413
0.048051562 -0.0096103111 0.010286957
0.049835477 -0.0097504193 0.0097524226
0.051038004 -0.0097732348 0.0083131492
0.052361429 -0.0098177679 0.0066669583
0.053611264 -0.0098469667 0.0058418512
-0.067505322 -0.0087103639 0.0060636699
-0.064717278 -0.0084875124 0.0070726275
-0.064327374 -0.0085769836 0.0084915161
-0.063925885 -0.0086679161 0.010173738
-0.0618046 -0.0085247718 0.011149973
-0.06092551 -0.0085509494 0.011863977
-0.059968647 -0.0085669495 0.012365818
-0.058466062 -0.0085041542 0.012883872
-0.057696279 -0.0085475966 0.013038129
-0.05705642 -0.00861229 0.01321128
-0.055513814 -0.0085405866 0.013338268
-0.054337025 -0.0085234549 0.013410389
-0.05296148 -0.0084738368 0.013353229
-0.052368741 -0.0085499994 0.013278097
-0.051222347 -0.0085370578 0.01333797
-0.049785718 -0.0084741646 0.013823569
-0.048924293 -0.0085085733 0.013502926
-0.048593868 -0.0086389091 0.013303846
-0.046724487 -0.0084953615 0.012999564
-0.04673304 -0.0086945193 0.01280427
-0.045263506 -0.00862162 0.012150407
-0.043737143 -0.0085340766 0.011602491
-0.043006212 -0.0086012427 0.011085123
-0.041903444 -0.0085955784 0.01039812
-0.040954042 -0.0086219031 0.0097881854
-0.039461061 -0.0085321218 0.0093369782
-0.039174832 -0.0087055191 0.0090163052
-0.037967488 -0.0086782835 0.0085327327
-0.037188001 -0.0087501174 0.0075968504
-0.036167901 -0.0087679764 0.0074024498
-0.035516519 -0.0088791298 0.006831944
-0.034111887 -0.0088030668 0.0062196255
-0.032415908 -0.0086442428 0.0056838393
-0.031078389 -0.0085733486 0.0050499141
-0.029268656 -0.0086721946 0.0050880313
-0.028262036 -0.0086960113 0.0057041645
-0.015600745 -0.008914711 0.0050446987
-0.014148603 -0.0087068332 0.0058469474
-0.013342062 -0.008894708 0.0062714815
-0.012145966 -0.0088334307 0.0084180236
-0.010691472 -0.008553179 0.0091851652
-0.0096837832 -0.0086078076 0.010032833
-0.0085521899 -0.0085521899 0.010574907
-0.0073209512 -0.0083668018 0.011049718
-0.0064172633 -0.0085563511 0.011282623
-0.0053424165 -0.0085478667 0.011043102
-0.0042864894 -0.0085729789 0.0099096894
-0.0032352374 -0.0086273002 0.0096103847
-0.0021996545 -0.0087986179 0.0088989139
-0.0011150173 -0.0089201387 0.0055296421
0.0043016071 -0.0086032143 0.0054043829
0.0053774677 -0.0086039491 0.0061402619
0.0065591703 -0.0087455604 0.0074202418
0.0075257574 -0.0086008655 0.0084688365
0.0086472733 -0.0086472733 0.0092067122
0.0097183408 -0.0086385254 0.010108501
0.010668314 -0.0085346512 0.011053443
0.01191805 -0.008667673 0.011493474
0.012924529 -0.0086163525 0.011850893
0.013823048 -0.0085064908 0.012453675
0.015146114 -0.0086549222 0.013221771
0.016110456 -0.0085922433 0.013451576
0.017002517 -0.0085012587 0.013532698
0.018205171 -0.0085671395 0.013744533
0.019270673 -0.0085647441 0.014060229
0.020186195 -0.0084994501 0.014513195
0.021282576 -0.0085130306 0.014857441
0.021984601 -0.0083750859 0.014300436
0.02315964 -0.0084216874 0.014215708
0.024729703 -0.0086016357 0.014164507
0.025796749 -0.0085989162 0.013993442
0.026896417 -0.008606853 0.014052778
0.027928295 -0.0085933218 0.01386857
0.028820315 -0.0085393526 0.014169842
0.029960949 -0.008560271 0.014223903
0.030940851 -0.0085354066 0.014379829
0.031731989 -0.0084618637 0.01399982
0.03309441 -0.0085404925 0.01447022
0.033984158 -0.0084960395 0.014555454
0.035279695 -0.0085526537 0.014861643
0.036624171 -0.0086174514 0.015660703
0.037113 -0.0084829712 0.015797019
0.038145296 -0.0084767332 0.015812844
0.039328545 -0.0085034687 0.015609354
0.040156085 -0.0084539121 0.015733182
0.041449104 -0.0085023809 0.015205592
0.042372908 -0.0084745819 0.014743626
0.04339898 -0.0084680934 0.013961732
0.045026682 -0.0085765114 0.013391584
0.045401163 -0.0084467279 0.012935817
0.047156427 -0.0085738963 0.011862367
0.048443928 -0.0086122537 0.010549426
0.049952317 -0.0086873593 0.0097524226
0.050989456 -0.0086790565 0.0082307458
0.052454241 -0.0087423734 0.0066669583
0.05249624 -0.0085708145 0.0057231784
-0.066006809 -0.0074523818 0.0060636699
-0.065797441 -0.0075505264 0.0071157515
-0.065354079 -0.0076246425 0.0089483857
-0.063263372 -0.0075058234 0.010188252
-0.062206369 -0.0075076651 0.011091053
-0.060993675 -0.0074904514 0.011863977
-0.060191181 -0.0075238976 0.012365818
-0.058707923 -0.0074719172 0.012814581
-0.057672836 -0.0074761081 0.013169795
-0.056780364 -0.0074992934 0.013312578
-0.055456638 -0.0074653164 0.013453871
-0.054647963 -0.0075007007 0.013353229
-0.053571902 -0.0075000664 0.013299853
-0.052489772 -0.0074985391 0.013299853
-0.0513235 -0.0074846768 0.013649255
-0.050451107 -0.0075139944 0.013916433
-0.049191236 -0.007485623 0.013593823
-0.048053578 -0.0074750008 0.013421744
-0.047057286 -0.0074863867 0.012966961
-0.046250384 -0.0075291325 0.012896925
-0.044682439 -0.0074470732 0.0122706
-0.043783929 -0.0074753044 0.011904567
-0.042704888 -0.0074733556 0.011205345
-0.041798897 -0.0075023663 0.010443896
-0.040801417 -0.0075160502 0.010021031
-0.03953702 -0.0074799759 0.00956285
-0.038853131 -0.007554776 0.009296447
-0.037939493 -0.007587899 0.0091693103
-0.036923293 -0.0076018544 0.0089075267
-0.036761083 -0.0077978056 0.0086071193
-0.035428718 -0.0077500325 0.00772807
-0.033299454 -0.0075192316 0.0076567531
-0.032165725 -0.0075053354 0.0073845088
-0.031337295 -0.0075641745 0.0071813762
-0.030216079 -0.0075540198 0.0071440339
-0.029373489 -0.0076153488 0.0076747835
-0.028160539 -0.0075816833 0.0071440339
-0.026903758 -0.007533052 0.0068151057
-0.025979063 -0.007577227 0.0066740215
-0.024782654 -0.0075425464 0.0065116584
-0.023874534 -0.0075964425 0.0062906146
-0.023062153 -0.0076873838 0.0060205758
-0.021997204 -0.0076990216 0.0050052106
-0.015252595 -0.0076262974 0.0062780976
-0.014270465 -0.0076840962 0.006516099
-0.013076505 -0.0076279612 0.0078929961
-0.011856264 -0.0075448947 0.0098359287
-0.010709648 -0.0074967542 0.010643095
-0.0096310265 -0.0074907984 0.011808872
-0.0085818479 -0.0075091165 0.011949986
-0.0075256834 -0.0075256834 0.01208517
-0.0064270729 -0.0074982522 0.01216042
-0.0053527253 -0.0074938154 0.012290299
-0.004304735 -0.0075332867 0.011811584
-0.003168633 -0.007393477 0.010958791
-0.002151229 -0.0075293016 0.0097674131
-0.0010964751 -0.007675325 0.0089069009
0 -0.0078131938 0.0077780187
0.0011210443 -0.00784731 0.0070063472
0.0022206078 -0.0077721272 0.0070723295
0.0032503866 -0.0075842352 0.0072591901
0.0043917904 -0.0076856334 0.0075037777
0.0054435576 -0.007620981 0.0083372891
0.0063890344 -0.0074538733 0.0088128746
0.0074480241 -0.0074480241 0.0095246136
0.0085301585 -0.0074638887 0.010652721
0.0095591648 -0.0074349064 0.011187732
0.010729762 -0.007510833 0.011666805
0.011764422 -0.0074864505 0.012201935
0.012825681 -0.0074816472 0.012319088
0.01392509 -0.0074981255 0.013279468
0.01495319 -0.0074765948 0.013401985
0.015919302 -0.0074290074 0.013631582
0.017074464 -0.0074700778 0.013803005
0.017801147 -0.0073298835 0.014060944
0.019170716 -0.0074552787 0.014232934
0.020064492 -0.0073921811 0.014612943
0.021163009 -0.0074070534 0.014875084
0.022177408 -0.0073924693 0.015054554
0.023433926 -0.0074562491 0.014605343
0.024224088 -0.0073725483 0.014385283
0.025689872 -0.0074928794 0.014226556
0.026782064 -0.0074989777 0.014080763
0.027934343 -0.0075207846 0.014001518
0.028903777 -0.0074935714 0.013987482
0.030142857 -0.0075357142 0.014086932
0.030914079 -0.0074620191 0.014236867
0.032054469 -0.0074793762 0.014175743
0.032862294 -0.007420518 0.014281958
0.033865172 -0.0074080066 0.014387935
0.035108902 -0.0074473424 0.015008241
0.036101259 -0.0074326126 0.015360743
0.037184872 -0.007436974 0.015639871
0.038002796 -0.0073894328 0.015585452
0.038982216 -0.0073750135 0.015348107
0.040330928 -0.0074293809 0.015427291
0.041406065 -0.0074318582 0.014866084
0.042345759 -0.0074105081 0.014452457
0.043759063 -0.007471059 0.013704836
0.044807218 -0.0074678697 0.013174236
0.045736898 -0.0074455417 0.012687683
0.0473026 -0.0075254138 0.011641413
0.047475606 -0.0073850942 0.010491729
0.049436413 -0.0075229323 0.0096431375
0.050940588 -0.007586896 0.0082052648
0.052067321 -0.0075931507 0.0061006546
-0.066592164 -0.0064444025 0.0061773658
-0.066263303 -0.0065177022 0.0077465177
-0.06450291 -0.0064502908 0.0090765357
-0.063465171 -0.0064540855 0.010156751
-0.062982261 -0.0065154056 0.011068732
-0.061082114 -0.006429696 0.011902273
-0.06039983 -0.0064714104 0.012255013
-0.058391351 -0.0063699652 0.012779713
-0.057463057 -0.0063847839 0.013033897
-0.056917172 -0.0064434535 0.013316184
-0.0555626 -0.0064110695 0.013339162
-0.05445582 -0.0064065671 0.01307711
-0.053507499 -0.0064208996 0.013082176
-0.052322846 -0.0064068791 0.013137281
-0.051313933 -0.0064142416 0.013305575
-0.050404746 -0.0064346483 0.013385087
-0.049368743 -0.0064394008 0.013502926
-0.048418116 -0.0064557483 0.01328671
-0.04746449 -0.0064724302 0.013129622
-0.0455276 -0.0063526882 0.012896925
-0.044722434 -0.0063889185 0.012061536
-0.044071659 -0.0064495108 0.011761904
-0.043005083 -0.006450763 0.011407822
-0.041921273 -0.0064494265 0.010513872
-0.040563192 -0.0064047147 0.01003924
-0.039839607 -0.0064604767 0.0096571445
-0.038767256 -0.0064612096 0.0099707842
-0.037756082 -0.0064724712 0.009981066
-0.037170578 -0.0065595135 0.0096142888
-0.037001181 -0.0067274878 0.0093578696
-0.034578331 -0.006483437 0.0088237226
-0.033476051 -0.0064792349 0.0088151693
-0.032597471 -0.0065194941 0.0086051524
-0.031021135 -0.0064181653 0.0086313188
-0.030004431 -0.0064295209 0.0088284612
-0.029483076 -0.0065517942 0.0088899434
-0.028090494 -0.0064824214 0.0081043839
-0.027108695 -0.0065060868 0.0076169074
-0.026253253 -0.0065633133 0.0074882507
-0.024838258 -0.006479545 0.007252723
-0.023921037 -0.0065239193 0.0067533553
-0.022891754 -0.006540501 0.0066170394
-0.021636395 -0.0064909183 0.0058667362
-0.020874118 -0.0065918267 0.0056367517
-0.019559592 -0.0065198638 0.0054703057
-0.018541239 -0.0065439665 0.005184263
-0.017851034 -0.0066941376 0.0055373609
-0.016595311 -0.0066381246 0.0060621798
-0.015394819 -0.0065977792 0.0064634681
-0.014206877 -0.0065570204 0.0074414015
-0.012829858 -0.0064149289 0.0083761811
-0.011956635 -0.0065218005 0.010766685
-0.010789926 -0.0064739562 0.012175083
-0.0094130831 -0.0062753889 0.012334138
-0.0084836911 -0.0063627679 0.012535006
-0.007354876 -0.0063041793 0.012810111
-0.0063329651 -0.0063329651 0.012845665
-0.0052678986 -0.0063214782 0.012872368
-0.0042405301 -0.0063607953 0.012726486
-0.0032057075 -0.0064114151 0.011968881
-0.0021460732 -0.006438219 0.011298507
-0.0010691446 -0.0064148675 0.010150045
0 -0.0066109635 0.0089709461
0.0011147491 -0.0066884947 0.0090673268
0.0022166742 -0.0066500222 0.0088965297
0.0033405058 -0.0066810115 0.0087268353
0.0044775647 -0.0067163468 0.0092659593
0.0054059816 -0.0064871782 0.0095246136
0.0064273342 -0.0064273342 0.010678381
0.0075507383 -0.0064720609 0.010789245
0.0085890237 -0.0064417678 0.01155135
0.009710962 -0.0064739743 0.011829704
0.01066498 -0.006398988 0.01227352
0.011701882 -0.0063828449 0.013092101
0.012856916 -0.0064284578 0.012980014
0.013850398 -0.0063924915 0.013456881
0.014907732 -0.0063890279 0.013798147
0.016152989 -0.0064611956 0.014066637
0.016867543 -0.0063253283 0.014463663
0.017988265 -0.006348799 0.014323831
0.019138601 -0.006379534 0.01474753
0.019924138 -0.0062918332 0.015514374
0.021044517 -0.0063133552 0.016070157
0.022147618 -0.0063278908 0.016171575
0.023154963 -0.0063149896 0.01604107
0.024307668 -0.0063411305 0.014921993
0.025407549 -0.0063518872 0.014954865
0.026235497 -0.0062965192 0.014406353
0.027982928 -0.0064575984 0.014175743
0.02879983 -0.0063999621 0.01405865
0.029866491 -0.0063999621 0.014001638
0.030790122 -0.0063703698 0.014142931
0.032015633 -0.0064031268 0.014012456
0.032897543 -0.0063672662 0.014100552
0.034220491 -0.0064163418 0.014051229
0.034953915 -0.0063552577 0.014826834
0.036301006 -0.0064060595 0.014889896
0.037439339 -0.0064181723 0.015253723
0.037927818 -0.0063213031 0.015122056
0.039437529 -0.0063952748 0.015016735
0.040602401 -0.0064109052 0.014975071
0.041277569 -0.0063503953 0.014435649
0.04235474 -0.0063532116 0.013961732
0.043449987 -0.0063585346 0.01331681
0.0449007 -0.0064143855 0.012788445
0.045532811 -0.0063534155 0.012182593
0.047115173 -0.0064247963 0.010950714
0.047611102 -0.0063481466 0.010376543
0.049630642 -0.0064735617 0.0093621612
0.050467357 -0.0064426414 0.0069542527
0.052572083 -0.0065715103 0.005649507
-0.067786045 -0.0054666162 0.0060450137
-0.065346353 -0.0053562582 0.007594496
-0.064895801 -0.0054079834 0.0087493658
-0.064349882 -0.0054533798 0.0097658634
-0.061969463 -0.0053421948 0.010677248
-0.061589934 -0.0054026255 0.011178672
-0.060060352 -0.0053625312 0.011863977
-0.058762077 -0.0053420071 0.01222679
-0.057461735 -0.0053205309 0.012373358
-0.056617972 -0.005341318 0.012811631
-0.055586491 -0.0053448547 0.012952715
-0.055358358 -0.0054272898 0.012764066
-0.053451832 -0.005345183 0.01302141
-0.052203037 -0.0053268406 0.012764066
-0.05185033 -0.0054010758 0.013091505
-0.050147463 -0.0053348364 0.01336351
-0.049353693 -0.0053645317 0.01328671
-0.048283435 -0.0053648259 0.013131648
-0.046743445 -0.005311755 0.012784749
-0.046162579 -0.0053677415 0.012653053
-0.044632267 -0.0053133648 0.012394667
-0.043856807 -0.0053483909 0.011930138
-0.04321282 -0.0054016025 0.011150181
-0.041794904 -0.0053583211 0.010764658
-0.040866729 -0.0053772009 0.010246009
-0.039856691 -0.0053860391 0.010104865
-0.038560897 -0.0053556804 0.010146499
-0.03812727 -0.0054467525 0.009965539
-0.037836958 -0.005564258 0.009965539
-0.03629861 -0.0054997895 0.0099265873
-0.034532834 -0.0053957552 0.0096600056
-0.033332087 -0.0053761429 0.0096827745
-0.032202777 -0.0053671296 0.010116667
-0.031473659 -0.0054264925 0.01016745
-0.03029497 -0.0054098158 0.01016745
-0.028878011 -0.0053477795 0.0099487901
-0.027969647 -0.0053787781 0.0095535219
-0.027251104 -0.0054502208 0.0089916885
-0.026087634 -0.0054349238 0.0086410046
-0.024882508 -0.0054092407 0.0081743598
-0.023812031 -0.0054118251 0.0077147484
-0.022604849 -0.0053821066 0.0072067678
-0.022019554 -0.0055048885 0.006662935
-0.020533478 -0.0054035466 0.0065466166
-0.019560263 -0.0054334062 0.0064926147
-0.01869721 -0.0054991795 0.0062165856
-0.017464671 -0.0054577095 0.0063808858
-0.016909353 -0.0056364513 0.0067931414
-0.015536956 -0.0055489126 0.0076951981
-0.014056054 -0.0054061743 0.0078929961
-0.012945847 -0.005394103 0.0087751746
-0.011796814 -0.0053621884 0.012096226
-0.010522109 -0.0052610547 0.01271984
-0.0095209321 -0.0052894065 0.013082117
-0.0084922723 -0.0053076702 0.013263881
-0.007348727 -0.0052490905 0.013837397
-0.0063631777 -0.0053026476 0.014212579
-0.0052756998 -0.0052756998 0.014096916
-0.0042475043 -0.0053093806 0.013365924
-0.0032354489 -0.0053924145 0.012881547
-0.002119442 -0.0052986047 0.012365669
-0.0010766197 -0.0053830985 0.01168704
0 -0.0054901196 0.010524154
0.0010814364 -0.005407182 0.010299772
0.0022247983 -0.0055619958 0.010161966
0.0033814088 -0.0056356811 0.01023075
0.0044087032 -0.0055108787 0.010256797
0.0054598176 -0.0054598176 0.01063329
0.006575332 -0.0054794434 0.011441916
0.0074319397 -0.005308528 0.011587262
0.0085790781 -0.0053619235 0.01178509
0.0096196793 -0.0053442665 0.012326121
0.010645842 -0.0053229211 0.012876183
0.011750555 -0.005341161 0.012934357
0.012904894 -0.0053770388 0.013168812
0.013873055 -0.0053357901 0.013474494
0.01507374 -0.005383478 0.01373443
0.015982639 -0.0053275465 0.014464468
0.017084517 -0.005338911 0.014668345
0.018164927 -0.0053426255 0.014854074
0.018985767 -0.0052738241 0.015581638
0.020157406 -0.0053045806 0.016069353
0.02137894 -0.005344735 0.01633361
0.022002615 -0.0052387174 0.016601622
0.023007091 -0.0052288841 0.016433537
0.024403702 -0.0053051524 0.016409904
0.025608532 -0.0053351107 0.016228586
0.026717128 -0.0053434251 0.015699565
0.027764 -0.0053392309 0.014625162
0.028800813 -0.0053334837 0.01457715
0.029954366 -0.0053489939 0.014302224
0.030775301 -0.005306086 0.014199853
0.031905469 -0.0053175776 0.013948768
0.033066381 -0.0053332867 0.014088273
0.03418665 -0.005341664 0.014100552
0.034856852 -0.0052813413 0.014363587
0.036630668 -0.0053868629 0.014514476
0.037283305 -0.0053261863 0.014903665
0.038099628 -0.0052916151 0.014592707
0.039596114 -0.0053508263 0.014431357
0.040668368 -0.0053511006 0.014218479
0.041397307 -0.005307347 0.013598144
0.04281969 -0.0053524612 0.013533622
0.04406321 -0.0053735622 0.012777805
0.044874214 -0.0053421678 0.012201935
0.045589101 -0.0053010578 0.011900812
0.047247436 -0.0053690267 0.01061368
0.047991704 -0.0053324108 0.0098838508
0.048935749 -0.0053191027 0.0079018772
0.050229996 -0.0053436165 0.0063320696
-0.066839047 -0.0043121967 0.0059529543
-0.066355601 -0.004351187 0.0070496798
-0.065769494 -0.0043846332 0.0083973408
-0.063383646 -0.0042971959 0.0093771517
-0.062352646 -0.0043001822 0.010413557
-0.061835919 -0.004339363 0.011091053
-0.060454253 -0.0043181609 0.011464477
-0.059175659 -0.0043036845 0.011962295
-0.057466585 -0.004256784 0.012291282
-0.056254335 -0.0042456104 0.012458801
-0.055770386 -0.0042900299 0.012754768
-0.054915704 -0.0043071141 0.012745529
-0.053619694 -0.0042895754 0.012978792
-0.052658204 -0.0042986292 0.012978792
-0.051183421 -0.0042652851 0.013212979
-0.050234232 -0.004275254 0.013324052
-0.049031846 -0.004263639 0.013295591
-0.048039388 -0.0042701676 0.013180941
-0.046838079 -0.0042580073 0.012812704
-0.045991816 -0.0042783087 0.012655914
-0.044569835 -0.0042447462 0.0125148
-0.043865491 -0.0042795599 0.011930346
-0.043148499 -0.0043148501 0.011160254
-0.041862335 -0.0042935731 0.010811955
-0.040913999 -0.0043067369 0.010341793
-0.039830845 -0.004306037 0.010203481
-0.039047305 -0.0043385895 0.010374188
-0.038638555 -0.0044158348 0.010536581
-0.036945663 -0.0043465486 0.010360479
-0.035447378 -0.0042966516 0.010129482
-0.034636881 -0.0043296102 0.010317832
-0.033082381 -0.0042686942 0.010404676
-0.032057755 -0.0042743674 0.010736644
-0.031174731 -0.0042999624 0.010885119
-0.029921144 -0.0042744493 0.010774314
-0.029115342 -0.0043133837 0.010708779
-0.028000489 -0.0043077674 0.010404676
-0.02698411 -0.0043174573 0.0096431673
-0.026123423 -0.0043539037 0.0091272295
-0.024946207 -0.0043384708 0.0085308254
-0.023893062 -0.0043441933 0.0080412328
-0.022812627 -0.004345262 0.0076419115
-0.021713253 -0.0043426505 0.0069042444
-0.020530583 -0.004322228 0.0067455173
-0.019465426 -0.0043256502 0.0067324936
-0.018400518 -0.0043295333 0.0066388845
-0.017565563 -0.0043913908 0.0067076087
-0.016886981 -0.0045031952 0.0074792802
-0.015172269 -0.0043349341 0.0079102218
-0.013978017 -0.0043009287 0.008659482
-0.012998868 -0.0043329559 0.010052174
-0.01179044 -0.0042874329 0.012786001
-0.010627854 -0.0042511416 0.013363212
-0.0095557617 -0.0042470056 0.014503002
-0.0084037529 -0.0042018765 0.014510423
-0.007373685 -0.0042135343 0.0147551
-0.006327508 -0.0042183385 0.015206844
-0.0052551189 -0.0042040953 0.015033782
-0.0042756698 -0.0042756698 0.01448527
-0.0032059078 -0.0042745438 0.013355762
-0.0021257207 -0.0042514415 0.01290825
-0.0010711625 -0.0042846501 0.012223154
0 -0.0042739329 0.011384219
0.001094454 -0.0043778159 0.011118829
0.0021852292 -0.0043704584 0.010648698
0.0032810851 -0.0043747802 0.010675758
0.0044829664 -0.0044829664 0.010694444
0.0055556907 -0.0044445526 0.010964006
0.0064526093 -0.0043017399 0.011514634
0.0075896168 -0.0043369238 0.011531234
0.008534451 -0.0042672255 0.011920393
0.0096984021 -0.0043104012 0.012796402
0.010754028 -0.0043016113 0.012976587
0.011713339 -0.0042593963 0.013089955
0.01282042 -0.0042734733 0.01324439
0.013911471 -0.0042804526 0.013605148
0.015039186 -0.0042969105 0.014027238
0.015943788 -0.0042516771 0.014348418
0.017131785 -0.0042829462 0.014943033
0.01786615 -0.0042037996 0.015227526
0.018929288 -0.0042065084 0.015643895
0.020174174 -0.0042471946 0.016162962
0.021070188 -0.0042140377 0.016333163
0.022001954 -0.0041908482 0.01657325
0.023242127 -0.0042258413 0.016494811
0.024211178 -0.0042106397 0.016446382
0.025493855 -0.0042489758 0.016264856
0.026523143 -0.0042437026 0.016070157
0.0275876 -0.0042442465 0.015181184
0.028928095 -0.0042856433 0.015037864
0.030254945 -0.0043221349 0.014228076
0.030970156 -0.0042717457 0.014267385
0.032130718 -0.004284096 0.014085978
0.033195451 -0.0042832838 0.014085978
0.033928934 -0.0042411168 0.013781428
0.035441361 -0.0042959228 0.013995826
0.036127679 -0.004250315 0.013890862
0.037120648 -0.0042423597 0.013629019
0.038520433 -0.0042800484 0.013621062
0.039069317 -0.0042237099 0.013467669
0.040263545 -0.0042382679 0.013440132
0.041923869 -0.0042998842 0.013104886
0.042517532 -0.0042517534 0.01283735
0.043770991 -0.0042703403 0.012172252
0.04474812 -0.0042617256 0.011766642
0.045772843 -0.0042579388 0.011008859
0.046960749 -0.0042691589 0.010289758
0.048241153 -0.0042881025 0.0082760453
0.049906768 -0.0043397192 0.0065308511
0.050772153 -0.0043210345 0.0053942502
-0.067023523 -0.0032430736 0.0054634511
-0.066430554 -0.0032670766 0.0062999129
-0.064374372 -0.0032187183 0.0078004897
-0.063666157 -0.0032372621 0.0086373389
-0.063081957 -0.0032628598 0.0094285011
-0.06097706 -0.003209319 0.010437101
-0.060682118 -0.0032508275 0.010787278
-0.058818117 -0.0032082608 0.011288822
-0.057542868 -0.0031968257 0.011799008
-0.056479797 -0.0031969696 0.012159109
-0.055447735 -0.0031989077 0.012317568
-0.054303028 -0.0031942956 0.012290597
-0.053330436 -0.003199826 0.012588173
-0.052632648 -0.0032224071 0.012825042
-0.051478028 -0.0032173768 0.013059229
-0.049973469 -0.0031897959 0.01328671
-0.049032904 -0.003197798 0.013336003
-0.048217658 -0.0032145104 0.013295591
-0.046865758 -0.0031953927 0.012927979
-0.045354132 -0.0031642416 0.012742937
-0.044822946 -0.0032016388 0.012545794
-0.043928612 -0.0032142883 0.012394667
-0.043074202 -0.0032305652 0.011628985
-0.042007614 -0.003231355 0.011030704
-0.040804166 -0.0032213815 0.010998815
-0.039771054 -0.00322468 0.010886371
-0.039730255 -0.0033108545 0.011120677
-0.038788211 -0.0033247038 0.011163592
-0.036591172 -0.0032286327 0.011005312
-0.03556646 -0.0032333145 0.010913342
-0.034141671 -0.0032007815 0.010910571
-0.03302091 -0.0031955719 0.011042148
-0.032166075 -0.0032166073 0.011341423
-0.030880887 -0.0031945745 0.011286676
-0.03017045 -0.003232548 0.011240661
-0.0290667 -0.0032296332 0.011119068
-0.02798686 -0.003229253 0.010846734
-0.026768664 -0.0032122394 0.0099287331
-0.025916567 -0.0032395709 0.009468168
-0.024787141 -0.0032331052 0.0090227723
-0.023947159 -0.0032655217 0.0082882643
-0.022856601 -0.0032652286 0.0080412328
-0.021665009 -0.0032497514 0.0073856115
-0.020555332 -0.0032455786 0.0072723925
-0.019371558 -0.0032285932 0.007411629
-0.01849309 -0.0032634863 0.0073508024
-0.017649779 -0.0033093335 0.0073597133
-0.016353594 -0.0032707187 0.0076714158
-0.015226346 -0.0032627885 0.008284986
-0.014134396 -0.0032617836 0.0087150633
-0.01266419 -0.0031660474 0.01137656
-0.011772595 -0.0032107078 0.013335884
-0.010532998 -0.0031598993 0.014621317
-0.009382057 -0.0031273523 0.015019238
-0.0084883077 -0.0031831153 0.015007168
-0.0073964647 -0.0031699133 0.015346318
-0.0063722748 -0.0031861374 0.015474617
-0.0053094965 -0.0031856978 0.015356541
-0.00426991 -0.0032024325 0.015143514
-0.0031940883 -0.0031940883 0.0140194
-0.0021336938 -0.0032005406 0.013269454
-0.0010599059 -0.0031797176 0.012524843
0 -0.0031908858 0.012056768
0.0010785029 -0.0032355087 0.011384219
0.002149059 -0.0032235885 0.011118829
0.0032200625 -0.0032200625 0.010994285
0.0043018591 -0.0032263941 0.011058837
0.0053140693 -0.0031884417 0.011006564
0.0063634957 -0.0031817479 0.011829704
0.0074335919 -0.0031858252 0.01229465
0.0084570954 -0.0031714106 0.01297012
0.0096157705 -0.003205257 0.013044834
0.010607363 -0.0031822089 0.013605148
0.011649231 -0.0031770631 0.013615191
0.0128207 -0.003205175 0.013704032
0.013852357 -0.0031966979 0.014043957
0.014961882 -0.0032061175 0.014331698
0.015976125 -0.003195225 0.014838248
0.016963519 -0.0031806596 0.015426844
0.017937997 -0.0031655286 0.015438318
0.019209288 -0.0032015482 0.015903533
0.020038065 -0.0031639049 0.016278654
0.020961031 -0.0031441546 0.016313672
0.022208303 -0.0031726146 0.016506582
0.023044404 -0.0031424186 0.016716719
0.024245307 -0.0031624311 0.016642541
0.025574751 -0.0031968439 0.016224265
0.026251396 -0.0031501674 0.016223878
0.027422091 -0.0031640874 0.01574409
0.028600214 -0.0031778014 0.015375763
0.030194292 -0.0032351026 0.015037864
0.031080173 -0.0032151903 0.014444649
0.032051153 -0.0032051154 0.014088839
0.032836229 -0.0031776992 0.014036775
0.034178622 -0.0032042458 0.013756722
0.034824491 -0.0031658628 0.013841748
0.036221419 -0.0031960076 0.013450831
0.037597671 -0.0032226576 0.01324442
0.038007509 -0.0031672926 0.013114452
0.039573368 -0.0032086512 0.012805939
0.041002534 -0.0032370423 0.012657076
0.041131914 -0.0031639934 0.012116581
0.043348435 -0.0032511328 0.011730283
0.043891307 -0.003211559 0.011367321
0.045077637 -0.003219831 0.01048556
0.045932855 -0.0032046176 0.010089844
0.047460448 -0.0032359397 0.0085073709
