ply
format ascii 1.0
comment PCL generated
element vertex 1299
property float x
property float y
property float z
element camera 0
property float view_px
property float view_py
property float view_pz
property float x_axisx
property float x_axisy
property float x_axisz
property float y_axisx
property float y_axisy
property float y_axisz
property float z_axisx
property float z_axisy
property float z_axisz
property float focal
property float scalex
property float scaley
property float centerx
property float centery
property int viewportx
property int viewporty
property float k1
property float k2
end_header
0.036997635 0.039111786 0.012615889
0.038100831 0.03915919 0.012339681
0.039320417 0.039320417 0.011965692
0.04111575 0.040033758 0.011692017
0.04175882 0.039617341 0.011573881
0.042768426 0.039560799 0.011536032
0.044044681 0.039747637 0.011158973
0.04454441 0.039241508 0.01119706
0.04585271 0.039454661 0.011342734
0.046720657 0.039287828 0.011389434
0.047709744 0.039228011 0.011554182
0.04887015 0.0393086 0.011423081
0.050581582 0.039819546 0.011742294
0.050462127 0.038897891 0.011554182
0.052295525 0.039488457 0.011430174
0.053208083 0.039373983 0.011167556
0.053223375 0.03861304 0.010608852
0.055599455 0.039561152 0.0098727643
0.056995101 0.039789036 0.0083938241
0.058240037 0.039905209 0.0053178668
-0.066097409 0.041175436 0.005338937
-0.064536974 0.040873416 0.0058100224
-0.063296445 0.0407672 0.0061613023
-0.062932171 0.041231424 0.0061694086
-0.061519302 0.041012868 0.0063946545
-0.060723368 0.041205145 0.0063585937
-0.059153058 0.040869385 0.0064052641
-0.059090909 0.041582491 0.0061790943
-0.057176653 0.040994585 0.0061401725
-0.056100138 0.040996257 0.0062724054
-0.055262756 0.04117617 0.0064757466
-0.054942802 0.041756529 0.0068530738
-0.0527412 0.040901341 0.0075473785
-0.051581785 0.040835582 0.0083328784
-0.051145233 0.041351464 0.0091679692
-0.049003202 0.040480904 0.01008752
-0.04834488 0.040824566 0.010484129
-0.046699315 0.04033123 0.010650694
-0.045437299 0.040153895 0.011648089
-0.044909455 0.040632363 0.011554897
-0.043846384 0.040638108 0.011436403
-0.042645026 0.040512778 0.011238903
-0.041871741 0.040798105 0.010378093
-0.040536769 0.040536769 0.0094841123
-0.039613292 0.040683921 0.0092625618
-0.038819019 0.040975634 0.0079302788
-0.037562694 0.040782355 0.00760746
-0.036772791 0.041099001 0.0073671341
-0.035972107 0.041422427 0.0061522126
-0.034600504 0.041088097 0.0057784319
-0.033794038 0.041424949 0.0055058897
0.01081016 0.041078612 0.0052955747
0.011746897 0.040580191 0.0053792596
0.013091292 0.041455761 0.005887568
0.013862493 0.040521137 0.0064773858
0.014953922 0.040589217 0.0069178343
0.016048828 0.040657032 0.0064494908
0.016899725 0.040136851 0.0070559978
0.018425303 0.041185971 0.00755319
0.019393509 0.040941853 0.0084761083
0.020417897 0.040835794 0.0085968077
0.021505693 0.040860821 0.0086099505
0.022525929 0.040761203 0.0086134672
0.023286095 0.040221438 0.0091530979
0.024781637 0.040943574 0.010073334
0.02550778 0.040387318 0.011073589
0.026695332 0.040576901 0.011676699
0.027966671 0.040874366 0.012125373
0.028604219 0.040257789 0.012130886
0.029692516 0.040296987 0.012566239
0.030703669 0.040232394 0.013176739
0.03176209 0.04023198 0.013748795
0.032649558 0.040022038 0.014401376
0.034205489 0.040619019 0.013964921
0.03467042 0.039923515 0.014200896
0.036073569 0.04031752 0.014423102
0.03689386 0.040056191 0.013705552
0.03783739 0.039939471 0.01345849
0.03940082 0.040465709 0.013127267
0.040357646 0.040357646 0.012909114
0.041237891 0.040180512 0.012474149
0.043096848 0.040942006 0.011990994
0.043321487 0.040151618 0.011355847
0.044769991 0.040506184 0.011132866
0.045686457 0.040374078 0.011130035
0.046173621 0.039877221 0.011130035
0.047554921 0.040157489 0.01148203
0.049779974 0.041122589 0.01139313
0.049912576 0.040354848 0.011804819
0.051871099 0.04106462 0.011976272
0.052177262 0.040464003 0.011442602
0.052602571 0.039977953 0.010969102
0.054630093 0.040704776 0.01039651
0.055912312 0.040858999 0.0097016692
0.056073055 0.040203322 0.0076458454
0.058710806 0.041315012 0.0053527057
-0.063232072 0.04179747 0.005556941
-0.06236355 0.04193411 0.0058042109
-0.061922763 0.042368207 0.0059301853
-0.061177045 0.042605441 0.0059898198
-0.060187533 0.042678431 0.0061542392
-0.058817234 0.042479113 0.0059547722
-0.057354584 0.042204317 0.0060852766
-0.056828715 0.042621534 0.0062606931
-0.055507705 0.042447068 0.0066607893
-0.054050643 0.042159501 0.007864356
-0.052536938 0.041815117 0.0087633431
-0.051479992 0.041827492 0.0094875693
-0.049813021 0.041334208 0.01022011
-0.048897374 0.041456468 0.010534078
-0.047606144 0.041258655 0.010915786
-0.046337932 0.041072261 0.011764348
-0.045727585 0.041473854 0.0119555
-0.044810139 0.041609414 0.01214087
-0.043454837 0.041335087 0.012127221
-0.042666364 0.041599706 0.011786819
-0.041152768 0.041152768 0.011465997
-0.040348113 0.041409902 0.01081416
-0.039887898 0.042043999 0.0099702179
-0.038635757 0.041855406 0.0091834366
-0.037682883 0.041989502 0.0091045201
-0.036500912 0.041868694 0.008459568
-0.035266992 0.041679174 0.00760746
-0.034354195 0.041869171 0.0070337951
-0.033572197 0.042235985 0.0066378713
-0.032242954 0.041915838 0.0059615076
-0.031340614 0.042147718 0.0055007041
-0.030549999 0.042551786 0.0055394471
-0.029271007 0.042280339 0.0053926706
-0.02829542 0.04244313 0.0050185025
0.0054557174 0.042554595 0.0055370927
0.0065353508 0.04247978 0.0053322613
0.007533798 0.041974016 0.0055235028
0.0087518794 0.042665415 0.0056554973
0.0096919052 0.041998256 0.0059826672
0.010714156 0.04178521 0.0063546896
0.011999014 0.042541958 0.0071261227
0.012928758 0.042018462 0.007314235
0.013804784 0.041414354 0.0074483454
0.015166886 0.042250611 0.0078409314
0.01604501 0.041717023 0.0082715452
0.01708781 0.041651536 0.0089147091
0.018374532 0.042153336 0.0091863275
0.019429272 0.042096756 0.0094803572
0.020583505 0.04225035 0.009603411
0.021656964 0.042231079 0.0096594989
0.022324575 0.041459925 0.0098435879
0.023651171 0.041927077 0.010315567
0.024633607 0.041770026 0.011510432
0.025673281 0.041719083 0.012139797
0.026941875 0.042029325 0.012376606
0.027490802 0.041236203 0.012913734
0.028677542 0.041423112 0.01320523
0.029821085 0.04153651 0.013969928
0.030487496 0.041000422 0.014531463
0.031678308 0.041181799 0.014787644
0.032756243 0.041209463 0.015208304
0.033496596 0.040823977 0.015396506
0.034843843 0.041179087 0.015515804
0.035742234 0.040998444 0.015190512
0.0366841 0.040876571 0.01507926
0.038154852 0.041334424 0.014423102
0.039371382 0.041499566 0.013715804
0.040141478 0.041197833 0.013265252
0.041741706 0.041741706 0.012871265
0.042721923 0.041653875 0.012097329
0.04367514 0.041544646 0.011634976
0.045124486 0.041901309 0.011132866
0.045470707 0.041240871 0.011264682
0.046834305 0.041512229 0.011226535
0.048132662 0.04171497 0.011895865
0.04872264 0.041308325 0.011264682
0.049725194 0.04126133 0.012169242
0.051170498 0.041576028 0.011725128
0.052082356 0.041453302 0.011472523
0.053264726 0.041546486 0.010845542
0.054488312 0.041667532 0.010038733
0.05530769 0.041480765 0.0087113976
0.056815669 0.04180776 0.0073791742
0.058349531 0.042141326 0.0053088665
-0.063280694 0.042902164 0.0050618351
-0.062756121 0.043280084 0.0053382516
-0.061709322 0.043304786 0.0058042109
-0.06110853 0.043648947 0.0058251619
-0.060249131 0.04381755 0.0061689317
-0.058923259 0.043646857 0.0061492324
-0.057726566 0.043567222 0.0064208508
-0.056558482 0.043506522 0.0068981647
-0.055147476 0.043252919 0.0073003471
-0.053682398 0.042945914 0.0090429783
-0.052565597 0.042910691 0.0095827878
-0.051091656 0.04257638 0.010045677
-0.050395794 0.042890035 0.010562181
-0.048885573 0.042509191 0.011344016
-0.047670633 0.042373892 0.011753052
-0.046998139 0.042725582 0.012249291
-0.045335196 0.042172272 0.012558162
-0.044272128 0.042163931 0.012378335
-0.043684375 0.042618901 0.012218088
-0.042218924 0.042218924 0.011934221
-0.041100409 0.042154264 0.011714906
-0.040168475 0.042282604 0.011082619
-0.038834274 0.041982997 0.01067099
-0.038330514 0.042589463 0.010418713
-0.037724517 0.043113735 0.0098964572
-0.036089167 0.042457845 0.0092571974
-0.035296343 0.042783447 0.0090385973
-0.034359399 0.042949248 0.0084581375
-0.033200227 0.042838998 0.0077969134
-0.032630816 0.043507751 0.0078847706
-0.03144706 0.043375254 0.0065995753
-0.030107019 0.043010026 0.0065964162
-0.029497614 0.043700166 0.0064254105
-0.028014619 0.043099411 0.0061400831
-0.026823282 0.042917252 0.0056413412
-0.026172869 0.043621447 0.0053813756
-0.0086104628 0.043052316 0.0052537918
-0.0075761201 0.043292113 0.0051782131
-0.0064653228 0.043102153 0.0051356256
-0.0053891656 0.043113325 0.0053218901
-0.0043277121 0.043277122 0.0053207576
-0.0032320214 0.043093618 0.0052940547
-0.0021602961 0.043205917 0.0054077804
-0.0010922319 0.043689277 0.0054533482
0 0.043274406 0.0054533482
0.0010910184 0.043640736 0.00534904
0.0021698822 0.043397643 0.0055511594
0.003228745 0.043049932 0.0054949224
0.0043456703 0.043456703 0.0057066679
0.0054103993 0.043283194 0.0059026182
0.0064576785 0.043051191 0.006118685
0.0076207081 0.0435469 0.0060841441
0.0085925078 0.042962536 0.0068543255
0.0096971793 0.043098576 0.007176131
0.010769766 0.043079063 0.0077731013
0.011896009 0.043258213 0.0082921088
0.012989641 0.043298803 0.0091629326
0.013922029 0.042837013 0.0092014372
0.014950956 0.042717017 0.0093809068
0.015834643 0.042225715 0.0095704794
0.01703514 0.042587847 0.0099340081
0.017913528 0.042149473 0.0099590123
0.019465992 0.043257762 0.01029858
0.020376969 0.042898882 0.010322332
0.021239614 0.042479228 0.010499686
0.022470549 0.042801045 0.010736018
0.023381513 0.042511839 0.011181742
0.024204073 0.042094037 0.012264788
0.025578361 0.042630602 0.01227051
0.026735479 0.042776763 0.013176739
0.027479388 0.04227598 0.013878882
0.028685272 0.042496696 0.014428258
0.029571481 0.042244971 0.014969558
0.030615212 0.042227875 0.015320033
0.031844858 0.042459808 0.015723258
0.032463238 0.041888043 0.015769362
0.033503946 0.04187993 0.016127139
0.034563996 0.041895751 0.016052157
0.035523895 0.041792817 0.015846223
0.036628664 0.041861329 0.015828669
0.037688736 0.041876376 0.015542537
0.03860179 0.041731659 0.015129417
0.040340628 0.042463817 0.014141589
0.041248783 0.042306446 0.0132671
0.042733315 0.042733315 0.012608647
0.044268418 0.043188695 0.0117791
0.044261996 0.042154279 0.011295408
0.046227582 0.043002401 0.011273414
0.047064483 0.04278589 0.011078984
0.047553957 0.04227018 0.011712521
0.048819024 0.042451322 0.011223465
0.050305162 0.042812899 0.011675626
0.051129248 0.042607706 0.01131168
0.052167192 0.042585466 0.011088014
0.053751636 0.043001305 0.010353088
0.054116052 0.042443957 0.0091909766
0.055416424 0.042628016 0.0084467232
0.056460898 0.042612001 0.0065439939
0.057569187 0.042643841 0.0053088665
-0.061875604 0.044507015 0.0053382516
-0.061641905 0.045130681 0.0057605207
-0.060359925 0.044995584 0.0061163604
-0.058489975 0.044409055 0.0062606931
-0.057661351 0.044605955 0.0067001879
-0.056256752 0.04435629 0.0075536668
-0.054919049 0.04415061 0.0086284876
-0.053651098 0.043993901 0.0095827878
-0.052720796 0.044113323 0.0099745095
-0.051316101 0.043832503 0.010318547
-0.050032213 0.043645125 0.011336982
-0.048382808 0.043123808 0.011503041
-0.047995202 0.043728963 0.01214087
-0.046572622 0.043397218 0.012566149
-0.045368057 0.043257914 0.012845933
-0.044854082 0.043786127 0.012843341
-0.043455817 0.043455817 0.012677073
-0.042367801 0.043426998 0.012373626
-0.041688275 0.043826137 0.011814445
-0.04039716 0.043586411 0.011259079
-0.039264902 0.043509755 0.011024028
-0.038810361 0.044200692 0.010961831
-0.0374423 0.043860983 0.010746509
-0.03609252 0.043523334 0.010572135
-0.035371348 0.043946225 0.010080278
-0.034238618 0.043868233 0.0094833374
-0.033490054 0.044293299 0.0092539787
-0.032145422 0.043932077 0.0091039836
-0.03099533 0.043820985 0.0088753998
-0.030684048 0.044930216 0.0085511208
-0.029354626 0.044575546 0.0079987347
-0.027768411 0.043788649 0.0078137219
-0.027264593 0.044713933 0.0074352622
-0.025973059 0.044370644 0.0068480372
-0.024666026 0.043969873 0.0062465668
-0.023900669 0.044542156 0.0058926642
-0.022486558 0.04390233 0.0057135224
-0.021784401 0.044658024 0.0052408874
-0.020737963 0.044750344 0.0052408874
-0.019523297 0.044469737 0.0053801835
-0.018553993 0.044747867 0.0051147938
-0.012795039 0.043716386 0.0054412186
-0.01200842 0.044758659 0.0055226684
-0.010739782 0.044033106 0.0068519711
-0.0096019683 0.043742303 0.0072402656
-0.0086699231 0.044433359 0.0073590577
-0.0075504482 0.044224054 0.0071569383
-0.0064003835 0.043735959 0.0070165992
-0.0053859958 0.044165172 0.0070165992
-0.0042885365 0.043957502 0.0069323778
-0.0032010048 0.043747067 0.006916523
-0.0021653352 0.044389375 0.007030338
-0.0010838908 0.044439524 0.0069461167
0 0.044350132 0.0069461167
0.0010777644 0.044188343 0.0067329109
0.002131246 0.043690544 0.0067991018
0.0032428575 0.044319056 0.0061173439
0.004320805 0.044288252 0.0069310069
0.0053408095 0.043794639 0.0072532296
0.0065219281 0.044566512 0.0073805749
0.0075644576 0.044306111 0.0074483454
0.0086184954 0.044169791 0.0077809095
0.0097416891 0.04437881 0.0082360208
0.010657312 0.043694984 0.0092637837
0.011721617 0.043689664 0.009709239
0.01301622 0.044472087 0.010044396
0.013898053 0.043832324 0.010231614
0.014883564 0.04358758 0.010088503
0.016040716 0.043844625 0.010280192
0.017009543 0.043586954 0.010653228
0.018206794 0.043910503 0.010653228
0.019287696 0.04393309 0.010813862
0.020112853 0.043401424 0.011230886
0.021602651 0.044285439 0.011342913
0.022388609 0.043711092 0.01161328
0.023139823 0.043124218 0.011845767
0.024507241 0.043686822 0.012890011
0.025339464 0.043288253 0.01328817
0.026362533 0.043234557 0.013870627
0.027911628 0.044014491 0.014489442
0.028405227 0.043133862 0.014893085
0.029540386 0.043255568 0.015626281
0.03070759 0.043414179 0.015694678
0.031444952 0.04297477 0.016413569
0.032243293 0.042644355 0.016430765
0.033586547 0.043032762 0.017127842
0.034377839 0.042711865 0.016926229
0.035660964 0.04300293 0.016804218
0.036706273 0.042998776 0.016445965
0.037627172 0.042853169 0.016052306
0.038525149 0.042690031 0.015568852
0.040091954 0.04325711 0.015089571
0.04090419 0.043001845 0.01369077
0.043273199 0.044355031 0.013020724
0.043500349 0.043500349 0.012243688
0.044446129 0.04338789 0.01153329
0.045845259 0.043712921 0.011573881
0.046893649 0.043696359 0.010978013
0.047691382 0.043452147 0.011426151
0.049871467 0.044450656 0.010832489
0.049969919 0.04359078 0.011247724
0.051318992 0.043834977 0.011074603
0.052422807 0.043863982 0.010617346
0.052853525 0.043339893 0.0099885166
0.054682739 0.043960635 0.0088480413
0.05529641 0.043599091 0.0083547235
0.05638006 0.043614767 0.006568104
0.05881786 0.044658005 0.0053088665
-0.061676838 0.04625763 0.0052666366
-0.059908517 0.045748323 0.0060096681
-0.0592282 0.046066377 0.0065218508
-0.056846999 0.045048568 0.0072500408
-0.055685889 0.044977065 0.0080096722
-0.054978818 0.045276672 0.0093151629
-0.052930433 0.044461563 0.010074258
-0.052388903 0.044904776 0.010270506
-0.051534347 0.045092557 0.010788828
-0.050062016 0.04473627 0.011532843
-0.049315628 0.045027312 0.01182732
-0.047559973 0.044389307 0.012471437
-0.046574075 0.044457074 0.012767643
-0.045833629 0.04476773 0.012901664
-0.044614706 0.044614706 0.012893677
-0.04299213 0.044040717 0.0128434
-0.042738412 0.044875335 0.012677073
-0.041324578 0.044503395 0.0120278
-0.040212527 0.044445425 0.01179257
-0.039464939 0.044798039 0.011336714
-0.038293842 0.044676151 0.011454642
-0.037157878 0.044589456 0.011522233
-0.036512718 0.045103945 0.011172801
-0.035120998 0.044699453 0.010739535
-0.034440741 0.045203473 0.010654062
-0.033037294 0.044760205 0.010045916
-0.031814288 0.044540003 0.0098914504
-0.031396121 0.045470241 0.0095797479
-0.030388257 0.045582384 0.0095797479
-0.028917477 0.044982739 0.0094269812
-0.028107464 0.045404367 0.0094665885
-0.027192561 0.045683503 0.0089397132
-0.025946077 0.045405637 0.0088779926
-0.024826819 0.04533593 0.0079255402
-0.023359036 0.044594526 0.0080166161
-0.022497339 0.044994678 0.0078425109
-0.021662535 0.045491327 0.0072236359
-0.020444924 0.045194041 0.0072236359
-0.019616442 0.045771699 0.0073480606
-0.01838238 0.045415293 0.0074873567
-0.017065296 0.044796403 0.0066031218
-0.016275672 0.045571886 0.0066260099
-0.015204716 0.045614146 0.0070592165
-0.013800727 0.044586964 0.0071268976
-0.013032524 0.045613833 0.0081296563
-0.011682603 0.044606306 0.0082482398
-0.010777039 0.045263566 0.0084216297
-0.0096786236 0.045166913 0.0085770786
-0.0085963979 0.045131087 0.0086197853
-0.007466597 0.044799581 0.0085060596
-0.0064740507 0.045318358 0.0083087385
-0.0053173066 0.044665378 0.0081181526
-0.0042522657 0.044648789 0.008058697
-0.0032318381 0.045245733 0.0090659857
-0.0021429488 0.045001924 0.0092844367
-0.0010746984 0.045137331 0.0091982186
0 0.045201149 0.0084946156
0.0010659052 0.044768021 0.0079260767
0.0021366419 0.044869483 0.0076667964
0.0032260166 0.045164235 0.0075800419
0.0043148454 0.045305878 0.0076667964
0.0054273633 0.045589853 0.0080305934
0.0065027922 0.045519546 0.0083047152
0.0074980045 0.044988029 0.0085515976
0.0086482977 0.045403562 0.0091198087
0.0096802609 0.04517455 0.0096049905
0.010657005 0.044759423 0.010326952
0.011754619 0.044881277 0.010638654
0.012799761 0.044799164 0.010748446
0.013793635 0.044564053 0.0108262
0.015010413 0.045031238 0.011234701
0.01597752 0.044737056 0.011458099
0.017257258 0.045300305 0.0116207
0.018221701 0.045018319 0.011598796
0.019179164 0.044751383 0.012226075
0.020293003 0.044858217 0.012632996
0.021423899 0.044990189 0.0128299
0.022230271 0.044460543 0.01300475
0.023521557 0.044904791 0.013475031
0.024382612 0.04452477 0.01394248
0.025385287 0.044424254 0.014553666
0.026317967 0.044214185 0.014674127
0.027514288 0.044446159 0.015279472
0.028634852 0.044543102 0.015626281
0.029566724 0.044350088 0.016052157
0.030285792 0.043862183 0.016786098
0.03110311 0.043544356 0.01724866
0.032385021 0.04387648 0.017239511
0.033113718 0.043461755 0.017476588
0.034448855 0.043844 0.017464042
0.035884038 0.044327341 0.017358214
0.036515079 0.043818094 0.017521173
0.038291667 0.044673614 0.016880542
0.038752187 0.043988969 0.016339481
0.039494447 0.043651756 0.015723258
0.041202169 0.044371568 0.014764875
0.042540483 0.044667508 0.013486624
0.043796021 0.044864219 0.012475431
0.044994686 0.044994686 0.011711329
0.04508689 0.044038359 0.011657029
0.047255751 0.045107767 0.010862619
0.048349157 0.045125879 0.01099208
0.049099453 0.044829935 0.010648608
0.050223377 0.044880465 0.010825157
0.051476542 0.045041975 0.010427237
0.052161779 0.0447101 0.0099668205
0.053517181 0.04495443 0.0088231862
0.05380984 0.044313986 0.0083017051
0.055982985 0.045217026 0.0070706904
0.057423756 0.045505621 0.00625512
-0.060857277 0.046729695 0.0054612756
-0.060504258 0.047303326 0.0063633919
-0.057908546 0.046112359 0.007366538
-0.056854624 0.046127338 0.008267343
-0.056015424 0.04632045 0.0091830194
-0.054065865 0.045584943 0.0099134445
-0.053370982 0.045899045 0.010264218
-0.052478559 0.046052616 0.010497242
-0.051139574 0.045812536 0.011050791
-0.050793387 0.046470545 0.011592686
-0.049341634 0.046123702 0.012249291
-0.047439188 0.045330774 0.012506038
-0.046933234 0.045866568 0.01285997
-0.045793213 0.045793213 0.012940109
-0.044329599 0.045385066 0.012922466
-0.043754961 0.045889348 0.01288268
-0.042382218 0.045560885 0.012468696
-0.041214984 0.04544216 0.012250632
-0.04028463 0.045585237 0.012162536
-0.039517205 0.045925397 0.01161027
-0.038318641 0.04576949 0.01190123
-0.037395522 0.045943074 0.011949033
-0.036238234 0.045830708 0.011493176
-0.035071958 0.045699827 0.01138401
-0.034503311 0.046363823 0.011274099
-0.032968704 0.045730781 0.011116832
-0.032281183 0.046269692 0.010718554
-0.031077527 0.04608047 0.010898858
-0.029648745 0.045532003 0.010869294
-0.029096106 0.046338242 0.011167079
-0.027960116 0.04624173 0.011069894
-0.02663481 0.045811873 0.010667264
-0.025795497 0.046216935 0.010211945
-0.024498736 0.045801986 0.010010689
-0.023279671 0.045501176 0.0098843575
-0.02251433 0.046100773 0.0097382665
-0.021348048 0.045898307 0.009359926
-0.020365927 0.046091307 0.0092519522
-0.019430328 0.046416897 0.009359926
-0.018241638 0.046140615 0.0092519522
-0.017371951 0.046687119 0.0092994273
-0.016194161 0.04642326 0.0094521344
-0.015005629 0.046088714 0.0094547272
-0.013979072 0.046238467 0.0091401041
-0.01286694 0.046106536 0.0094788373
-0.011767534 0.046000361 0.010261506
-0.010677238 0.045912124 0.010251313
-0.0097219059 0.046449106 0.010310888
-0.0085136462 0.045760848 0.010605812
-0.0075253136 0.046226926 0.010371149
-0.0063937884 0.045822151 0.010337472
-0.0052825687 0.04543009 0.010332793
-0.0042841281 0.046054378 0.010359466
-0.0032142568 0.046071015 0.011123061
-0.0021505097 0.04623596 0.011359632
-0.0010808425 0.046476226 0.011058062
0 0.045556128 0.010673285
0.0010689597 0.045965269 0.0096791685
0.0021285636 0.045764115 0.0096978247
0.0031842478 0.045640886 0.0094896257
0.0043263221 0.046507962 0.0095078349
0.0053813816 0.046279881 0.010009885
0.0063992441 0.045861248 0.01068151
0.0075940536 0.046649188 0.01067242
0.0085519543 0.045966752 0.010765135
0.0095658926 0.045703709 0.011132777
0.010703905 0.046026796 0.01100105
0.011666204 0.045604255 0.011463106
0.012787676 0.045822509 0.011616588
0.013799469 0.045644399 0.011716157
0.014822406 0.045525961 0.012011707
0.015850648 0.045438524 0.012099952
0.017059851 0.045848351 0.012831807
0.01793169 0.045356628 0.012766391
0.019360555 0.04625022 0.013260752
0.020153062 0.045609564 0.013260752
0.021084044 0.045330696 0.013393998
0.022570275 0.046215322 0.013886005
0.023463458 0.045860395 0.014054149
0.024136784 0.045125287 0.014633179
0.025409145 0.04552472 0.014767349
0.026256625 0.045161393 0.015287727
0.027293164 0.045138694 0.015644968
0.028299084 0.045068908 0.016043901
0.029457387 0.04523813 0.016677618
0.030439211 0.045134 0.016972423
0.031747937 0.045505375 0.0173195
0.032481499 0.045054983 0.017521173
0.034112655 0.045838881 0.017658204
0.034717035 0.045237347 0.017565757
0.035449509 0.044833202 0.017421365
0.03687761 0.045306776 0.01756826
0.038129516 0.045543592 0.01733619
0.03891186 0.045221891 0.016782463
0.039906185 0.045156997 0.016131788
0.040913749 0.045110032 0.015157998
0.042051613 0.045205489 0.014449418
0.044153094 0.046306901 0.012704372
0.04464617 0.045709174 0.011787981
0.045764696 0.045764696 0.011646777
0.047487449 0.046408188 0.010602027
0.047973305 0.045841157 0.010466307
0.049410906 0.046188455 0.010226905
0.050833009 0.046506792 0.010156065
0.05109334 0.045771118 0.0096274316
0.052965131 0.046479605 0.0089632273
0.054068878 0.046499234 0.0081243515
0.054421682 0.045884948 0.0070182979
0.056065448 0.046361815 0.006467849
0.057122219 0.046344444 0.0055462718
-0.059028443 0.047222752 0.0063633919
-0.057844602 0.047132634 0.0074386895
-0.056992486 0.047314517 0.0090574026
-0.055491127 0.046954032 0.0099420846
-0.054039299 0.046622138 0.010124862
-0.053251602 0.04686141 0.010415226
-0.052199334 0.046872873 0.010674804
-0.051495802 0.047204483 0.011420608
-0.050352674 0.047138672 0.011767328
-0.048425525 0.046320066 0.012317687
-0.048269585 0.047196925 0.012503952
-0.047456279 0.047456279 0.012891412
-0.045436386 0.046493046 0.013000399
-0.045069788 0.047215968 0.013009876
-0.043441717 0.046620376 0.012734324
-0.042156227 0.046371851 0.012583464
-0.041326359 0.046624608 0.012363613
-0.040484861 0.046877202 0.012107402
-0.039515607 0.046991531 0.011920989
-0.038469255 0.04701798 0.011999279
-0.037286229 0.046874113 0.012208849
-0.036084823 0.046698008 0.012250632
-0.035305798 0.0470744 0.01215291
-0.034188617 0.047009349 0.01222086
-0.033308346 0.047276355 0.01215291
-0.03212931 0.047122989 0.012246311
-0.030886894 0.04686287 0.012358785
-0.029915085 0.04700942 0.012508839
-0.028673593 0.046727333 0.012743622
-0.02741796 0.046399623 0.012842059
-0.026940733 0.047415689 0.012408972
-0.025535932 0.046815876 0.01214388
-0.024307072 0.046500482 0.012523323
-0.023445189 0.046890378 0.012307912
-0.022200698 0.046515748 0.012168616
-0.021402862 0.047086298 0.011518359
-0.020353567 0.047134571 0.01139915
-0.019134119 0.04677229 0.011491328
-0.018082326 0.046801314 0.011077672
-0.01712117 0.047083214 0.010846943
-0.015927253 0.046719939 0.010846943
-0.014994817 0.047126569 0.011007816
-0.013885542 0.046997216 0.01081726
-0.012892566 0.047272742 0.011069298
-0.011805695 0.047222778 0.011392772
-0.010693154 0.04704988 0.011454314
-0.0095082428 0.046484746 0.011571437
-0.0085991053 0.047295079 0.011794895
-0.0074325125 0.04671865 0.011441439
-0.0063978885 0.046917848 0.01169017
-0.0053535728 0.04711144 0.011685491
-0.0042158249 0.046374071 0.01169017
-0.0031804829 0.046647083 0.011768013
-0.002135386 0.046978489 0.012172937
-0.0010620662 0.046730909 0.011812419
0 0.047152411 0.011802673
0.0010657633 0.046893585 0.011612445
0.0021163544 0.046559796 0.011620611
0.0032135751 0.047132432 0.011098176
0.0042647952 0.046912748 0.01126197
0.0053093308 0.04672211 0.011404455
0.0064666127 0.047421824 0.011526436
0.0074787508 0.047009293 0.011577189
0.0085452944 0.046999115 0.011552334
0.0096702129 0.047276597 0.011554956
0.010609539 0.04668197 0.011786878
0.011651742 0.046606969 0.011891901
0.012876572 0.047214095 0.012002021
0.013641411 0.046170928 0.012105554
0.014736169 0.046313673 0.01300317
0.015761903 0.046234909 0.013384998
0.016850818 0.04633975 0.013781548
0.018142033 0.04695585 0.013384998
0.01913303 0.046769626 0.013564199
0.020112 0.046575159 0.013793766
0.02136654 0.047006387 0.014023572
0.022194343 0.04650243 0.014619619
0.023065731 0.046131462 0.014837384
0.024318207 0.046521783 0.01498884
0.025135165 0.046081133 0.015364468
0.026520304 0.04667573 0.015675902
0.02760038 0.046708334 0.015770644
0.028000878 0.045631059 0.016225696
0.02904997 0.045649949 0.016994447
0.030383741 0.046099465 0.017010778
0.031376801 0.046019308 0.017696887
0.032210555 0.045718204 0.017696887
0.033395916 0.045919385 0.017301351
0.034370877 0.045827836 0.017297208
0.035536561 0.045988493 0.017483741
0.036819171 0.046286959 0.017176598
0.037973747 0.04641236 0.016882926
0.038879164 0.046234675 0.016819865
0.040725622 0.04715598 0.016090155
0.04055465 0.045753967 0.015454501
0.042481914 0.046730105 0.014532566
0.04372108 0.04692018 0.01250115
0.044836853 0.04697194 0.011574358
0.046278615 0.047354862 0.011106014
0.046862449 0.046862449 0.010677755
0.048177425 0.047106814 0.010306358
0.050134625 0.047954857 0.0099308491
0.050740309 0.047501568 0.0097330809
0.051643129 0.047339533 0.0088559687
0.052334949 0.046994649 0.0085106492
0.053182434 0.046800539 0.0074900389
0.05553579 0.047913231 0.0062852502
0.056235053 0.047583506 0.0058535933
-0.060441706 0.048569229 0.005281359
-0.059332818 0.048545033 0.0066221952
-0.058399759 0.04866647 0.0073253512
-0.056954809 0.048357859 0.0094316602
-0.055013653 0.047607969 0.0096708834
-0.054555062 0.048136823 0.0099278092
-0.053516809 0.048165128 0.010449618
-0.052176367 0.047917075 0.010783464
-0.0511324 0.04793663 0.01126802
-0.049725212 0.047609247 0.011630177
-0.049445327 0.048370432 0.01188013
-0.048115578 0.048115578 0.012350678
-0.046547592 0.047605496 0.012553334
-0.046540666 0.048705351 0.012739718
-0.045095507 0.048316617 0.012709588
-0.043363173 0.047593728 0.012709588
-0.042458303 0.047765598 0.01253745
-0.041324519 0.04768214 0.012448192
-0.040313371 0.047739517 0.01235944
-0.039609779 0.048174053 0.012115568
-0.038460944 0.048076183 0.012364447
-0.037208449 0.04783944 0.012597233
-0.036543041 0.04836579 0.012574643
-0.035443641 0.04833224 0.012616903
-0.034316521 0.048257608 0.01263997
-0.032977119 0.047870014 0.012546062
-0.031939253 0.047908884 0.012597233
-0.031123824 0.048295591 0.012843937
-0.029735962 0.047789942 0.012954146
-0.028482925 0.047471542 0.013272882
-0.027684014 0.047914643 0.013364106
-0.026588643 0.047859561 0.013285816
-0.025393939 0.047613639 0.013389587
-0.024447903 0.047832854 0.013182908
-0.023281701 0.047621667 0.013160199
-0.022286108 0.047755949 0.013383478
-0.021358265 0.0480561 0.013057739
-0.020204239 0.047852147 0.013040751
-0.018933835 0.047334593 0.013180047
-0.018112361 0.047944486 0.012724549
-0.016836509 0.047352683 0.012565166
-0.016243504 0.048730515 0.011892617
-0.0149729 0.048127182 0.011839062
-0.013797491 0.047760546 0.011634797
-0.012834517 0.048129443 0.011803359
-0.011689187 0.047819406 0.011759698
-0.010528484 0.047378182 0.011847496
-0.00960813 0.048040655 0.012140393
-0.0084528029 0.04754702 0.012345821
-0.0073935757 0.04753013 0.012345821
-0.0064193965 0.048145477 0.012461573
-0.0053021167 0.047719054 0.012523919
-0.0042413264 0.047714926 0.012616277
-0.0031896073 0.047844112 0.01274994
-0.0021093504 0.047460388 0.013097227
-0.0010575328 0.047588978 0.013109058
0 0.047853615 0.013023257
0.0010534731 0.04740629 0.012911201
0.0021332239 0.047997542 0.012899965
0.0031846992 0.047770493 0.01204747
0.0042403573 0.047704022 0.012016207
0.0053112046 0.047800846 0.011942446
0.0064702895 0.048527174 0.012016207
0.0074368324 0.047808211 0.012117326
0.0085536102 0.048114061 0.012098253
0.0096010435 0.04800522 0.012280196
0.010583607 0.047626238 0.012257189
0.011714505 0.04792298 0.012951046
0.012867223 0.048252091 0.012916833
0.013710887 0.047460768 0.013602465
0.014817754 0.0476285 0.014108717
0.015800269 0.04740081 0.01448673
0.016879134 0.047472566 0.01474306
0.018189549 0.048148811 0.014573485
0.019082019 0.047705054 0.014472127
0.020307738 0.048097275 0.014454335
0.021288063 0.047898147 0.014868677
0.022123454 0.047407404 0.014767349
0.023545254 0.04816075 0.014837652
0.024024924 0.047005288 0.015507519
0.025174737 0.047202636 0.01574406
0.026228808 0.047211852 0.016049951
0.027413605 0.047446627 0.016124338
0.02817278 0.046954636 0.016698778
0.029377146 0.047213275 0.016936421
0.030517403 0.04735459 0.017296731
0.031622019 0.04743303 0.01756081
0.032877862 0.047725927 0.017555177
0.033516303 0.047132302 0.017696857
0.034793954 0.047446307 0.017463595
0.035475548 0.046952933 0.017547846
0.036585175 0.047038086 0.017147303
0.037746128 0.047182664 0.016589135
0.038754717 0.047134113 0.0161753
0.04006809 0.047449052 0.015604466
0.040945824 0.047245186 0.014934093
0.042214707 0.04749155 0.014077663
0.043993417 0.048285458 0.012144476
0.044963881 0.048175588 0.01106748
0.04589038 0.048024818 0.010636628
0.047178373 0.048250612 0.0098385215
0.048625022 0.048625022 0.0095354617
0.049475793 0.048400234 0.0091210902
0.050661501 0.048505694 0.0087750256
0.052088335 0.048832819 0.0079450607
0.052506465 0.048220228 0.0069975257
0.054457866 0.04901208 0.0060936809
0.055450264 0.048926704 0.005381763
-0.060421694 0.04963211 0.005281359
-0.059441909 0.04971505 0.0069596171
-0.05779684 0.049234346 0.0075373054
-0.05689453 0.049380161 0.0093806982
-0.056029391 0.049564462 0.0097244382
-0.054539993 0.049192935 0.0099914968
-0.053613223 0.049324166 0.010602921
-0.052530244 0.049314111 0.010778099
-0.050662071 0.048551153 0.01132828
-0.049702954 0.048645444 0.011585653
-0.049052343 0.049052343 0.01188013
-0.047909889 0.048974555 0.012130797
-0.047279213 0.049428273 0.012384444
-0.0460978 0.049313929 0.012441069
-0.044746432 0.049007997 0.012383699
-0.044045437 0.049416833 0.012323946
-0.042784065 0.049201678 0.012415588
-0.04147293 0.048916791 0.012423664
-0.040574867 0.049116943 0.012214512
-0.039587591 0.049217001 0.012101829
-0.038013645 0.048572991 0.012364447
-0.037662771 0.049499642 0.012691259
-0.0363071 0.049121372 0.012809306
-0.035308238 0.049217548 0.012887925
-0.033905022 0.048738468 0.012834311
-0.032834984 0.048722878 0.012942731
-0.031912215 0.048932064 0.013051331
-0.030712135 0.0487158 0.013272882
-0.029242037 0.048040491 0.013438344
-0.028740967 0.048966091 0.013569653
-0.027559968 0.048759945 0.013630062
-0.026404364 0.048584029 0.013791263
-0.025485521 0.048847251 0.013899267
-0.024164256 0.048328511 0.013942093
-0.023335068 0.048791505 0.01418671
-0.022014361 0.048221935 0.014238536
-0.021106647 0.04854529 0.014546365
-0.020037627 0.04851215 0.014391661
-0.01906905 0.04873202 0.014137924
-0.017896364 0.048425458 0.013723999
-0.016980933 0.048820183 0.013428062
-0.016005589 0.049083807 0.013147116
-0.014652564 0.048144139 0.012894839
-0.013847144 0.048997588 0.012809604
-0.012692866 0.048655987 0.012863308
-0.011613304 0.048564728 0.012864739
-0.01063393 0.048916079 0.012833208
-0.0095743677 0.048935659 0.012740225
-0.0084780483 0.04874878 0.012915194
-0.0074305064 0.048829045 0.013066679
-0.0063841608 0.048945237 0.013163269
-0.0052648913 0.048437003 0.013218403
-0.0042617004 0.049009554 0.013750404
-0.0031627251 0.048495121 0.013855368
-0.002107668 0.048476364 0.014198631
-0.0010588716 0.048708092 0.014092416
0 0.048295841 0.014273942
0.001062809 0.048889216 0.014201015
0.0021326251 0.049050376 0.013568729
0.003152367 0.048336294 0.013349384
0.004269938 0.049104292 0.013264537
0.0053678635 0.049384344 0.013114601
0.006377256 0.048892301 0.013220817
0.0075250519 0.049450342 0.013281554
0.0084765945 0.04874042 0.013221204
0.0095640114 0.04888273 0.01333034
0.010693276 0.049189072 0.013554573
0.011594654 0.048486736 0.013927996
0.012727016 0.048786897 0.014284283
0.013841634 0.04897809 0.014619619
0.014738167 0.048425406 0.014971435
0.01577677 0.048382096 0.015319645
0.016889898 0.048558455 0.01546967
0.017970445 0.048625909 0.015404224
0.019115888 0.048851717 0.015193522
0.020116953 0.048704203 0.014934868
0.021023154 0.048353259 0.015005231
0.022296386 0.048839703 0.0152345
0.023420231 0.048969578 0.0152345
0.024421589 0.048843179 0.015899479
0.025521802 0.048916791 0.016049951
0.026222983 0.048250288 0.016352117
0.027526964 0.048701551 0.016396999
0.028556561 0.048651919 0.016933084
0.029473847 0.048421323 0.017472386
0.030430032 0.048268326 0.017442852
0.031589631 0.048437439 0.017771959
0.032591581 0.0483617 0.018078625
0.03346831 0.048110694 0.017698139
0.034672681 0.048331618 0.017456084
0.035036735 0.047402643 0.017591655
0.037050229 0.048694588 0.017130286
0.037876803 0.048398141 0.01664108
0.038536355 0.047910061 0.016215086
0.040095899 0.048537143 0.015514433
0.041070826 0.048442513 0.014814109
0.042542946 0.04892439 0.014270782
0.043949071 0.049308714 0.012105525
0.044759084 0.049021855 0.010797054
0.046152189 0.049372114 0.010221988
0.047880672 0.050057068 0.0092966557
0.04834605 0.049420405 0.0085575581
0.050253879 0.050253879 0.0081101358
0.051362924 0.050270099 0.0072764456
0.051597532 0.049447633 0.0060735643
0.05235935 0.049153678 0.0055500865
-0.058395538 0.049901642 0.0067797303
-0.05769629 0.05021714 0.0079292357
-0.056665286 0.050250348 0.0095777512
-0.055735629 0.050376434 0.0097996294
-0.0547636 0.050468415 0.01005578
-0.053880546 0.05064771 0.010568202
-0.052376959 0.050239127 0.010763705
-0.051294297 0.050225668 0.011091858
-0.050319336 0.050319336 0.01152581
-0.048828118 0.049889598 0.011755645
-0.048454236 0.050607756 0.012004554
-0.04716251 0.05037814 0.012043536
-0.045843925 0.050108477 0.012153119
-0.045186564 0.050565917 0.011994958
-0.043899547 0.05032387 0.011887044
-0.042511586 0.049951117 0.011951923
-0.041693877 0.05024647 0.012035668
-0.040604576 0.050221447 0.011985481
-0.038777534 0.049257949 0.011745304
-0.038406726 0.050142121 0.011934787
-0.037191723 0.049943168 0.012285233
-0.036259834 0.050123885 0.012697965
-0.035156768 0.050071765 0.012831599
-0.033740815 0.049556825 0.012979448
-0.032926701 0.049921125 0.013140053
-0.031770859 0.049774349 0.013096333
-0.03043887 0.049331959 0.013426185
-0.029458674 0.049448486 0.013615042
-0.028505996 0.049621549 0.013733625
-0.027437396 0.049598373 0.014209747
-0.026481442 0.049785111 0.014559925
-0.025298337 0.049542576 0.014558703
-0.024269989 0.049595192 0.014652133
-0.023299132 0.049775418 0.014832556
-0.022089349 0.049438067 0.015069664
-0.021185288 0.049785428 0.015114784
-0.020084763 0.049683362 0.014999002
-0.018767392 0.04900375 0.014832556
-0.017961187 0.049657397 0.014603108
-0.016841494 0.049471889 0.014346004
-0.015763177 0.049391285 0.014172077
-0.014881378 0.049958911 0.013542503
-0.013710985 0.049570486 0.013293087
-0.012634024 0.049483262 0.013374507
-0.011677233 0.049893633 0.013339072
-0.010576397 0.049709067 0.013254672
-0.0095285773 0.049760349 0.013266146
-0.0085516656 0.050241034 0.013443232
-0.0073631038 0.049437985 0.013843924
-0.006387054 0.050031926 0.014318019
-0.0053287805 0.05009054 0.014467537
-0.0041967733 0.049312089 0.014961958
-0.0031483748 0.049324539 0.015094399
-0.0021091227 0.049564384 0.015446365
-0.0010502714 0.049362756 0.015414923
0 0.049408451 0.015652418
0.0010583863 0.049744152 0.015481263
0.002102219 0.049402148 0.015345156
0.0031870708 0.049930777 0.014790237
0.0042285048 0.049684931 0.014541894
0.0052494546 0.049344875 0.014120162
0.006474976 0.050720647 0.014181256
0.0074410923 0.049961619 0.014020264
0.0085279308 0.050101597 0.014120162
0.0096021378 0.050144497 0.014466017
0.010651466 0.050061896 0.014668852
0.011554708 0.049370114 0.015151054
0.012873732 0.050422113 0.015315443
0.013699969 0.049530659 0.015594542
0.014744114 0.049498096 0.015897036
0.015836705 0.049621675 0.015863925
0.016552977 0.048624367 0.015863925
0.0178717 0.049409993 0.01595217
0.019092998 0.04985394 0.015706092
0.019911213 0.049254052 0.015384346
0.021168353 0.04974563 0.015294105
0.022121098 0.049509123 0.015426487
0.02321399 0.049593527 0.015319079
0.024418782 0.04989925 0.015939564
0.025344763 0.049633496 0.016091436
0.02612181 0.049109001 0.016352117
0.027368261 0.049473394 0.016352117
0.028357536 0.049363118 0.016696274
0.029583849 0.049658604 0.016951859
0.030650822 0.049675472 0.017276585
0.031111382 0.048741166 0.017493516
0.032309011 0.048984624 0.017552644
0.033555362 0.04928444 0.01727435
0.034310266 0.048866134 0.017130286
0.035707925 0.049360953 0.016998053
0.036439989 0.0489337 0.016633004
0.037640199 0.049141373 0.016082674
0.038944881 0.049470522 0.016080648
0.039745428 0.049158815 0.015508324
0.040932219 0.049328569 0.014764071
0.042330801 0.04973869 0.014137447
0.043704409 0.050100174 0.012417287
0.04407094 0.049317483 0.010597557
0.046304826 0.050612252 0.0099769831
0.04730555 0.050530929 0.0089090765
0.048475903 0.050630387 0.0081189573
0.050330989 0.05142514 0.0078081489
0.051371016 0.051371016 0.0062213838
0.052212175 0.051124424 0.0054916739
-0.058652591 0.051187716 0.006315738
-0.058444399 0.051950574 0.0071584582
-0.056757145 0.051402699 0.008556962
-0.05575081 0.051462285 0.0094518363
-0.054677367 0.051461048 0.0097709894
-0.053684775 0.05153738 0.010162234
-0.052188106 0.051123042 0.010460526
-0.051063076 0.051063076 0.010758787
-0.050027832 0.051092252 0.011157274
-0.049262252 0.051404085 0.011285514
-0.047982655 0.051181499 0.011308223
-0.046484206 0.050710045 0.011412591
-0.045685697 0.050997987 0.011487931
-0.045052089 0.051488101 0.01155898
-0.043528765 0.0509605 0.011568099
-0.042819772 0.051383726 0.011548609
-0.041409172 0.050965134 0.011465818
-0.040812675 0.051552851 0.011377811
-0.039161108 0.050803594 0.01136452
-0.038161121 0.050881494 0.011883229
-0.037278023 0.051124148 0.012311667
-0.036035981 0.050874326 0.012615085
-0.034891676 0.05075153 0.012957752
-0.033674996 0.050512493 0.013343394
-0.032930218 0.050988723 0.013424844
-0.031890206 0.051024333 0.013495773
-0.030883558 0.05111761 0.01382187
-0.029695297 0.050906222 0.014032185
-0.028584126 0.050816223 0.014655232
-0.027544068 0.050850585 0.014816791
-0.026248638 0.050397385 0.015063822
-0.025325768 0.050651535 0.015478015
-0.024374124 0.050867736 0.01538071
-0.023171309 0.050555583 0.015303016
-0.021987677 0.050257545 0.0156537
-0.021154916 0.050771799 0.015794456
-0.019847948 0.050142184 0.015671372
-0.018811988 0.050165303 0.015536487
-0.017971363 0.050742671 0.014999002
-0.016757205 0.050271615 0.015102148
-0.016000869 0.051202778 0.014975876
-0.014850768 0.050916921 0.014605016
-0.013593703 0.050192133 0.014026016
-0.012668817 0.050675269 0.013820529
-0.011577956 0.050521992 0.013542503
-0.01054183 0.050600786 0.013758153
-0.0096211182 0.051312633 0.013807207
-0.0084576439 0.05074586 0.014322877
-0.0073753563 0.050573871 0.014881015
-0.0063706562 0.05096525 0.015158445
-0.0052191634 0.05010397 0.015230179
-0.0041877963 0.050253555 0.015570134
-0.0031708821 0.050734114 0.015852392
-0.0021122589 0.050694212 0.016355187
-0.0010481478 0.050311092 0.01656872
0 0.050442014 0.01668492
0.0010459077 0.050203569 0.016756624
0.0021189183 0.050854038 0.016738296
0.0031726984 0.050763175 0.016387999
0.0041902177 0.050282612 0.015651256
0.0053363019 0.051228497 0.015389591
0.0063928124 0.051142499 0.015291929
0.0074550165 0.05112011 0.015268058
0.0085264044 0.051158428 0.015475273
0.0095290579 0.050821643 0.015910506
0.010512175 0.050458439 0.016066611
0.011713094 0.051111683 0.016087234
0.01261871 0.050474841 0.016280442
0.013625167 0.050308309 0.01636669
0.014770298 0.050641023 0.016550303
0.015842058 0.050694585 0.016639382
0.016689453 0.050068356 0.016563714
0.01797959 0.050765898 0.01660645
0.018734694 0.049959186 0.016482413
0.020051323 0.050655972 0.01598236
0.020991655 0.050379973 0.015888155
0.022123529 0.050568063 0.016061872
0.023527728 0.051333223 0.016035467
0.024401927 0.050925758 0.016343832
0.025556384 0.051112767 0.016688406
0.026336255 0.050565608 0.016734719
0.027225194 0.0502619 0.016674846
0.028399829 0.050488584 0.01697892
0.029534645 0.050630819 0.017160922
0.030253138 0.050074156 0.017473996
0.031518906 0.050430249 0.017721355
0.033165995 0.051353797 0.017454386
0.033750314 0.05062547 0.017136961
0.034913577 0.050783385 0.016938716
0.035785746 0.050521053 0.016664684
0.036568731 0.050151404 0.01637724
0.038100336 0.05080045 0.015938461
0.039056264 0.050667584 0.015898526
0.039956063 0.050470818 0.014968246
0.041195311 0.05070192 0.014538616
0.042188402 0.050626084 0.013775736
0.0434127 0.050824624 0.011966258
0.044553872 0.050918709 0.010398179
0.046027388 0.051379409 0.0092365146
0.047103856 0.051386029 0.0081224442
0.04902776 0.052296273 0.0074160695
0.049920775 0.052091245 0.0060844719
0.050872885 0.051955286 0.0054830909
-0.05948633 0.052996907 0.0058444738
-0.057513766 0.052188415 0.0063091218
-0.056788191 0.052502289 0.0076331496
-0.05635557 0.053104285 0.0088339448
-0.054477561 0.052341182 0.0091804564
-0.05363895 0.052566167 0.0099101961
-0.052408263 0.052408263 0.010128021
-0.050949957 0.052011415 0.0103333
-0.050643165 0.052798193 0.010702729
-0.049535401 0.052765969 0.010980815
-0.048103839 0.052379731 0.011022836
-0.046226934 0.051479995 0.011186451
-0.045568697 0.051927116 0.011226326
-0.044444628 0.051852066 0.011380315
-0.043738078 0.052272335 0.011282355
-0.042821556 0.052456405 0.011105567
-0.041730538 0.052430674 0.011234313
-0.040603679 0.052357372 0.011103243
-0.039180722 0.051887982 0.011103243
-0.038395047 0.052259922 0.011228114
-0.037020061 0.051828086 0.011805207
-0.035842799 0.051655795 0.012655079
-0.03477383 0.051633868 0.013133198
-0.034095537 0.052208792 0.013426185
-0.032922309 0.052038487 0.013514161
-0.031873491 0.052060034 0.013655752
-0.030538259 0.051599123 0.014115959
-0.029730424 0.052028242 0.014655232
-0.028560953 0.051832836 0.014876127
-0.027631668 0.052075066 0.015696585
-0.026523229 0.051985528 0.015957654
-0.02534288 0.051741712 0.01632601
-0.02410559 0.051355384 0.01603803
-0.022963647 0.051146306 0.016170919
-0.022128362 0.05163284 0.01650545
-0.021123223 0.051751897 0.016921341
-0.019876491 0.051260423 0.016516685
-0.018858621 0.051337358 0.016488224
-0.017879656 0.051535472 0.015751094
-0.016814135 0.051493287 0.015892953
-0.015879972 0.051874571 0.015530437
-0.014781134 0.051733971 0.015375763
-0.01382006 0.052090991 0.014916718
-0.012696978 0.05184599 0.014833212
-0.011708932 0.052157968 0.014573485
-0.010655458 0.052211743 0.014573485
-0.0095670559 0.052087307 0.014524341
-0.0085044941 0.052090026 0.015216082
-0.0074396585 0.052077606 0.015486509
-0.0063313548 0.051706064 0.015739888
-0.0052826623 0.051770091 0.015894234
-0.0042487606 0.052047316 0.016117632
-0.0031267225 0.0510698 0.01647082
-0.0020975866 0.051390871 0.01680389
-0.0010490451 0.05140321 0.017413616
0 0.051510133 0.017744064
0.0010502556 0.05146252 0.017824322
0.0021078757 0.051642951 0.017767936
0.00313453 0.051197324 0.017513156
0.0042579598 0.052160002 0.017520279
0.005274795 0.051692992 0.01717034
0.0062975865 0.051430289 0.016939044
0.0074413531 0.052089468 0.016853094
0.0084289769 0.051627479 0.016747832
0.0094635878 0.05152398 0.017023444
0.010662113 0.052244354 0.016550303
0.011511942 0.051280469 0.016646266
0.012573565 0.051342059 0.016511679
0.013717827 0.051705658 0.016499788
0.01457197 0.051001895 0.017039031
0.015869992 0.051841971 0.017240435
0.016763819 0.051339198 0.016741157
0.017632939 0.050824352 0.017042786
0.019005544 0.051737316 0.016522348
0.019814465 0.051100463 0.016408443
0.020764157 0.050872188 0.016349822
0.022345407 0.052139279 0.016245842
0.023387767 0.052090935 0.016031325
0.024344631 0.051864646 0.016497165
0.025618374 0.052304182 0.016648889
0.02627556 0.051500097 0.016368896
0.027221808 0.051302638 0.016348422
0.028684869 0.052057724 0.016510218
0.029419359 0.051483877 0.01649493
0.030214392 0.0510519 0.016810656
0.031518597 0.051480375 0.017130286
0.032798845 0.051843334 0.016897887
0.033914056 0.051930893 0.016758293
0.034947012 0.051891018 0.016540527
0.035676707 0.051416431 0.016353726
0.036870226 0.051618315 0.015897453
0.038160663 0.051940903 0.015540004
0.038556326 0.051061079 0.015210271
0.040594518 0.052345559 0.014441192
0.041300591 0.051890485 0.014116794
0.042069919 0.051535651 0.012907118
0.043343086 0.05180027 0.010987908
0.044866849 0.052344657 0.009352833
0.045444481 0.05178557 0.008428365
0.048305053 0.053794265 0.0076183081
0.048296016 0.052588992 0.0069181323
-0.057936963 0.053645339 0.0061113536
-0.057181321 0.053944644 0.0068931878
-0.055714604 0.053571735 0.0079357028
-0.054592863 0.053522415 0.0088335872
-0.05394109 0.05394109 0.0094232857
-0.052248314 0.053314611 0.0097846091
-0.051670037 0.053822957 0.010134071
-0.050859556 0.054105911 0.01024875
-0.049349055 0.053640276 0.010530472
-0.048416782 0.053796422 0.010638982
-0.046766136 0.053143337 0.011022836
-0.045482531 0.052886665 0.01109302
-0.044850804 0.053393815 0.011067718
-0.043974157 0.053627018 0.011155427
-0.042965181 0.053706482 0.011200875
-0.041764915 0.053544763 0.010980487
-0.040440336 0.05321097 0.01088351
-0.039505512 0.053385824 0.010892481
-0.038580868 0.053584542 0.011156797
-0.036850635 0.052643768 0.011980563
-0.035544969 0.052272018 0.012895823
-0.034980215 0.053000327 0.013239235
-0.034002222 0.053128473 0.013482213
-0.033013325 0.053247299 0.013389587
-0.031731695 0.052886158 0.0138174
-0.030508002 0.052600004 0.01463449
-0.029900558 0.053393856 0.014985412
-0.028822869 0.053375684 0.015609264
-0.027613863 0.053103585 0.01632601
-0.026566511 0.053133022 0.016183794
-0.025109055 0.05231053 0.016628444
-0.024155231 0.052511372 0.016734898
-0.023161359 0.052639455 0.016803265
-0.021871669 0.052075405 0.016908437
-0.020856952 0.052142385 0.017405629
-0.020078294 0.052837618 0.017102689
-0.018912727 0.052535359 0.016921341
-0.017975956 0.05287046 0.016552418
-0.016853517 0.052667242 0.016221046
-0.015669264 0.05223088 0.015964568
-0.014983196 0.053511415 0.015947193
-0.013776546 0.052986719 0.0153929
-0.012754075 0.053141985 0.015355468
-0.011731315 0.053324163 0.015328914
-0.01073508 0.053675402 0.015042365
-0.0094421953 0.052456643 0.015117466
-0.0084951296 0.053094562 0.015899777
-0.0073895403 0.052782431 0.015998721
-0.0063620955 0.053017464 0.016308188
-0.0052931528 0.052931529 0.016751409
-0.0041859965 0.052324958 0.017170966
-0.0031442842 0.052404739 0.017532766
-0.0021144939 0.05286235 0.017943323
-0.0010520533 0.052602667 0.018241435
0 0.052502997 0.018375158
0.0010442482 0.052212413 0.018492639
0.002085936 0.052148402 0.018347651
0.0031591679 0.052652802 0.01801616
0.0042491602 0.053114504 0.017928034
0.0052078473 0.052078478 0.018065393
0.0063424944 0.052854124 0.017958909
0.0074208775 0.053006269 0.017932236
