ply
format ascii 1.0
comment PCL generated
element vertex 1277
property float x
property float y
property float z
element camera 0
property float view_px
property float view_py
property float view_pz
property float x_axisx
property float x_axisy
property float x_axisz
property float y_axisx
property float y_axisy
property float y_axisz
property float z_axisx
property float z_axisy
property float z_axisz
property float focal
property float scalex
property float scaley
property float centerx
property float centery
property int viewportx
property int viewporty
property float k1
property float k2
end_header
0.034163643 -0.10676138 0.01332432
0.034917109 -0.10580943 0.013441384
0.036958367 -0.10870108 0.013349712
0.037491016 -0.1071172 0.012696356
0.037805304 -0.10501473 0.01182431
0.039573107 -0.10695434 0.010950565
0.04095161 -0.1077674 0.010408491
0.04232762 -0.10853236 0.010045499
0.043855138 -0.10963785 0.0097647905
0.044388231 -0.10826398 0.0094354749
0.046305213 -0.1102505 0.0093391836
0.046626888 -0.10843462 0.0091306865
0.048219375 -0.10958949 0.0087920725
0.047847066 -0.10632682 0.0084174573
0.050271213 -0.10928525 0.0080388188
0.051557373 -0.10969654 0.0073538125
0.05205036 -0.10843825 0.0070981383
0.05302193 -0.10820802 0.0060833693
-0.065524541 -0.10811549 0.0051199794
-0.064416558 -0.10808881 0.0054965019
-0.062788621 -0.10717369 0.0055639446
-0.06218107 -0.10799871 0.0055051148
-0.061317053 -0.10839979 0.0054754913
-0.060002659 -0.10800479 0.0052720904
-0.058724292 -0.1076612 0.005161196
-0.053758156 -0.10861342 0.0059967041
-0.052692823 -0.10867896 0.0065070689
-0.050733116 -0.10686337 0.0069561899
-0.050579008 -0.10885482 0.0071816146
-0.048711468 -0.10716523 0.0072683692
-0.046066839 -0.1036504 0.0070869029
-0.046370391 -0.10675974 0.0073419809
-0.044872899 -0.10577183 0.0084017217
-0.043109961 -0.10409478 0.00919348
-0.043430496 -0.10749048 0.0087698698
-0.041851208 -0.10623768 0.0087698698
-0.040570013 -0.10569556 0.0085628331
-0.040145777 -0.10741708 0.0087595582
-0.038661517 -0.10631918 0.0082084835
-0.038150661 -0.10791188 0.0079150796
-0.037158374 -0.10819644 0.0073589981
-0.036216628 -0.10864989 0.0068334341
-0.034727391 -0.10743786 0.0050089657
-0.022843733 -0.10769189 0.0051719844
-0.0087674176 -0.10849679 0.0051113069
-0.0075156498 -0.10629276 0.0055342317
-0.0065778806 -0.10853504 0.0059332252
-0.0055421139 -0.10973386 0.0061487257
-0.0043225372 -0.1069828 0.0063873827
-0.0033138832 -0.10935815 0.0066018403
-0.0021799302 -0.10790655 0.0070526302
-0.0010702055 -0.10595034 0.0066326857
0 -0.1085231 0.0069290996
0.0010667132 -0.10560462 0.0064345598
0.0021722356 -0.10752568 0.0058045685
0.0032819216 -0.10830342 0.0052131414
0.0042742407 -0.10578746 0.0061144531
0.0055394503 -0.10968113 0.0064500272
0.0066208481 -0.109244 0.0063494146
0.0076324735 -0.10794498 0.0073693097
0.0087816203 -0.10867256 0.0071996152
0.0096530141 -0.10618316 0.007355243
0.010936216 -0.10826855 0.0082361996
0.012148852 -0.10933968 0.0085309148
0.01286049 -0.10609905 0.0085309148
0.014061918 -0.10708693 0.0096435845
0.015323773 -0.10836097 0.0099012256
0.016211083 -0.10699315 0.0096435845
0.01746437 -0.10806079 0.010022849
0.018535996 -0.10794492 0.010593981
0.019128317 -0.10520576 0.011016756
0.020868473 -0.10873573 0.011201739
0.02169589 -0.10739467 0.011461616
0.022426635 -0.10572556 0.011802137
0.023941513 -0.10773682 0.01201725
0.024622761 -0.10598493 0.012455642
0.025764933 -0.10628036 0.012828588
0.026753379 -0.10594338 0.013112336
0.027837779 -0.1059977 0.013705939
0.02917826 -0.10698695 0.013654441
0.030412793 -0.10753095 0.014126837
0.031072484 -0.10607503 0.014120251
0.031982545 -0.10554241 0.014825404
0.034016136 -0.10863218 0.014574617
0.034058902 -0.10536973 0.014275759
0.035280112 -0.10584034 0.013857186
0.036602814 -0.10657878 0.013622612
0.037496306 -0.10606099 0.013160139
0.038814355 -0.10673948 0.012208641
0.039962552 -0.10692683 0.011451751
0.040184781 -0.10469194 0.01076737
0.042303938 -0.10738692 0.010176361
0.043147713 -0.10679059 0.0099324286
0.044428471 -0.1072785 0.0094826519
0.045629684 -0.10755568 0.0091607273
0.047124747 -0.10849652 0.0085179806
0.047737148 -0.10740858 0.0082839131
0.048690289 -0.10711864 0.0072465837
0.049290996 -0.1060828 0.006991297
0.050730351 -0.10685755 0.0065339506
0.052475527 -0.10823078 0.0057233572
-0.063885614 -0.10794465 0.0051790178
-0.061651375 -0.1059971 0.0053672493
-0.060918212 -0.10660687 0.0055088997
-0.060417864 -0.10765365 0.0052997172
-0.058783177 -0.10668057 0.0052941144
-0.057429198 -0.10618983 0.0052833557
-0.05688832 -0.1072126 0.0052833557
-0.055493262 -0.1066341 0.0060019493
-0.054882638 -0.10756997 0.0069632828
-0.053909961 -0.10781992 0.0067785382
-0.051678263 -0.10550978 0.0070406199
-0.050834097 -0.1059945 0.0073959231
-0.049243446 -0.10490995 0.0076251924
-0.048116829 -0.10478775 0.0080292225
-0.047412157 -0.10559981 0.0087266564
-0.046561658 -0.10611726 0.0091045797
-0.044525024 -0.10389172 0.0094462633
-0.04432112 -0.10593828 0.0096600354
-0.042969752 -0.10527589 0.0097472668
-0.042155821 -0.10593001 0.0098440945
-0.041379958 -0.10671673 0.0096571445
-0.039756406 -0.10530074 0.0095598996
-0.038673177 -0.10527698 0.0091119111
-0.038439088 -0.10762945 0.0090196431
-0.036353007 -0.10478219 0.0084511638
-0.035224486 -0.10460605 0.0079838634
-0.035410635 -0.10844507 0.0074521005
-0.033781298 -0.10679248 0.0068606436
-0.032911841 -0.107512 0.006636709
-0.031935073 -0.10791852 0.0054360926
-0.029990284 -0.10496599 0.0055938363
-0.029673815 -0.10770495 0.0067696273
-0.027950693 -0.10535261 0.0064029396
-0.027357047 -0.10723962 0.0061488152
-0.026510609 -0.10825165 0.0065648556
-0.024619332 -0.10489976 0.0068370104
-0.023442751 -0.10442679 0.0084244609
-0.023010984 -0.10738458 0.0088059604
-0.021497868 -0.10533955 0.0087874234
-0.020978356 -0.10820414 0.0086041987
-0.019799713 -0.10779843 0.009044379
-0.018536681 -0.10685851 0.0089415312
-0.017761396 -0.10878855 0.008295238
-0.016211607 -0.10591582 0.0082888007
-0.015011968 -0.10508378 0.0077294707
-0.014327098 -0.10800427 0.0075630844
-0.013190467 -0.10772215 0.0075630844
-0.011963136 -0.10658067 0.0071303248
-0.011095316 -0.1087341 0.0071051717
-0.0099053439 -0.1078582 0.0072068274
-0.0087582953 -0.10728911 0.0077421665
-0.0076406342 -0.10696887 0.0082123578
-0.0065333773 -0.10671183 0.0081229508
-0.0053262184 -0.10439388 0.0083613396
-0.0043622372 -0.10687481 0.00877437
-0.0032036991 -0.10465417 0.0090724826
-0.0021322777 -0.1044816 0.0093783438
-0.0010975368 -0.1075586 0.0095346868
0 -0.10399529 0.0099940598
0.0010808948 -0.10592769 0.0097132027
0.0022044114 -0.10801616 0.0090739131
0.0032456287 -0.10602386 0.0087371767
0.0043034903 -0.10543551 0.009152472
0.0054890723 -0.10758582 0.0095647573
0.0064214556 -0.10488378 0.009254396
0.007710686 -0.1079496 0.009254396
0.008561234 -0.10487512 0.0092398822
0.009816885 -0.10689497 0.0096460879
0.010999401 -0.10779413 0.010048777
0.011820517 -0.10531005 0.010540485
0.013028499 -0.1063994 0.010540485
0.014193969 -0.10700069 0.011409849
0.014901756 -0.10431229 0.011537075
0.016001202 -0.10454119 0.011455178
0.017354241 -0.10629472 0.01139614
0.018257026 -0.10524638 0.01139614
0.019690016 -0.1072012 0.011762828
0.020796256 -0.1072649 0.011940986
0.021245871 -0.10410476 0.011923343
0.02254023 -0.10518774 0.012232065
0.02369646 -0.10555696 0.012649208
0.024749894 -0.10545607 0.012715101
0.025958631 -0.10599774 0.013046294
0.02673634 -0.10480644 0.01335904
0.027832363 -0.1049066 0.014144868
0.028925467 -0.10498872 0.014425308
0.029848 -0.104468 0.014591992
0.031251486 -0.10560846 0.014574617
0.032456432 -0.10602433 0.014888972
0.03330896 -0.10529929 0.014845639
0.034507468 -0.10567912 0.0145652
0.035499174 -0.10542179 0.014331937
0.036284775 -0.10458553 0.013625175
0.038028076 -0.10647862 0.013359547
0.039114963 -0.10647962 0.012553602
0.039917909 -0.10572851 0.011719495
0.040938482 -0.10557818 0.011002183
0.041981064 -0.10549087 0.010083526
0.042366136 -0.10379703 0.0096226931
0.044881687 -0.10727817 0.0093269348
0.045262445 -0.10561237 0.0089009404
0.046513535 -0.10600758 0.008802861
0.048915002 -0.10894705 0.008205086
0.049205698 -0.10715906 0.0073363185
0.049592715 -0.10565403 0.007017076
0.051912669 -0.10824344 0.0059290528
0.051768616 -0.10569426 0.0054498911
-0.061231151 -0.10420038 0.0050022602
-0.061712191 -0.10689433 0.0052248836
-0.060636152 -0.10694012 0.0052720904
-0.059171773 -0.10629003 0.0053331554
-0.058252897 -0.1066138 0.0055372417
-0.056461968 -0.10532328 0.0057369471
-0.056070566 -0.10664401 0.0064477921
-0.055207886 -0.1071033 0.0072242022
-0.052867964 -0.10465699 0.0073731542
-0.052241564 -0.10557149 0.008038491
-0.051493879 -0.1062746 0.0079797506
-0.048905719 -0.10312727 0.0091987252
-0.048897017 -0.10540023 0.0093639493
-0.047579128 -0.10489035 0.0092381537
-0.045579504 -0.10281888 0.0096156001
-0.044921774 -0.1037479 0.0097539425
-0.044578463 -0.10546611 0.01005435
-0.042928185 -0.10410085 0.010217845
-0.042483557 -0.10566423 0.010263443
-0.040887844 -0.10437159 0.010055512
-0.040113211 -0.10516165 0.010106802
-0.039475195 -0.10636373 0.0094112754
-0.037754275 -0.10463328 0.0093384087
-0.036705092 -0.10471746 0.0089733303
-0.036511645 -0.10732211 0.0088653862
-0.034341928 -0.10409896 0.0083948076
-0.033688884 -0.1054136 0.0080269277
-0.033928897 -0.10970344 0.0075110495
-0.031439088 -0.10515832 0.0076458454
-0.03086496 -0.10692503 0.0077412128
-0.029593429 -0.10631713 0.0082925558
-0.02820966 -0.10524373 0.0079529881
-0.027122825 -0.10523656 0.0084084272
-0.026136791 -0.1056362 0.0084527731
-0.024897451 -0.10500229 0.0089779496
-0.023693131 -0.10446517 0.0098360777
-0.022713486 -0.10491467 0.010323733
-0.021571763 -0.10462306 0.010494798
-0.020495528 -0.10463507 0.010472387
-0.019427456 -0.10469241 0.010695934
-0.018129617 -0.10344546 0.010629505
-0.017290313 -0.10482252 0.010071367
-0.01602461 -0.10362581 0.0098336339
-0.015144136 -0.10492723 0.010117501
-0.014004244 -0.10449321 0.0098727942
-0.012812798 -0.10357012 0.0098101795
-0.011930918 -0.10520901 0.0092335641
-0.010842222 -0.10516956 0.0088269114
-0.0096956296 -0.10449734 0.0089285672
-0.0086908145 -0.10537612 0.0093454123
-0.0075815734 -0.10505895 0.0093454123
-0.0065083392 -0.10521815 0.0094217956
-0.0054839347 -0.10638833 0.0098558664
-0.0043955604 -0.10659233 0.010398448
-0.0031685662 -0.1024503 0.01059866
-0.0021926432 -0.10634319 0.010782689
-0.0010698431 -0.10377477 0.010995924
0 -0.10455681 0.011084378
0.0010811021 -0.10486689 0.010990798
0.0021165565 -0.10265299 0.010807186
0.0033255366 -0.10752568 0.010520071
0.0043462599 -0.10539679 0.010501444
0.0053823143 -0.1044169 0.010914654
0.006566287 -0.10615497 0.010530025
0.0077624028 -0.10756472 0.010867655
0.0088026728 -0.10673241 0.011162192
0.0097969361 -0.1055892 0.011162192
0.010638434 -0.10319281 0.011162192
0.011742604 -0.10354842 0.011384159
0.012891696 -0.10420787 0.011505395
0.013667768 -0.10198257 0.011907935
0.014883787 -0.10312338 0.012143433
0.016105445 -0.10414854 0.012022197
0.016858293 -0.10220339 0.012137204
0.018533235 -0.10574846 0.012007296
0.019337943 -0.10421003 0.011942625
0.020034399 -0.10228088 0.011895984
0.021641606 -0.10496179 0.012184292
0.022827825 -0.1054428 0.012629151
0.023293473 -0.10270304 0.012757987
0.024693329 -0.10414142 0.012744665
0.025602954 -0.1034786 0.012822509
0.0265269 -0.10292436 0.013079941
0.028201971 -0.10521505 0.013797969
0.029350756 -0.1054453 0.014019281
0.03001905 -0.10399456 0.014533997
0.031583082 -0.10563996 0.014528364
0.031838484 -0.10294443 0.014845639
0.03280412 -0.10264514 0.014559954
0.03438352 -0.10422504 0.014333576
0.034704678 -0.10201072 0.014529109
0.036229208 -0.1033598 0.013791114
0.037958868 -0.10520029 0.013238996
0.038219217 -0.10297956 0.012553602
0.040014941 -0.10490403 0.011719495
0.040311579 -0.1029006 0.011000305
0.040983461 -0.10193323 0.010092676
0.043199494 -0.10475878 0.0094354749
0.044788793 -0.10596372 0.008993715
0.045669522 -0.10547484 0.0087624788
0.046694599 -0.10533433 0.008205086
0.047000986 -0.10361581 0.0076425672
0.049082574 -0.1058002 0.0063763857
0.050333366 -0.10613775 0.0059214234
0.050959822 -0.1051724 0.0054147542
-0.061194014 -0.10490402 0.0052453876
-0.059558209 -0.10395614 0.0054780841
-0.05931922 -0.10545639 0.0058580339
-0.057867929 -0.10481738 0.0063154399
-0.057154365 -0.10551575 0.0065613985
-0.055882979 -0.10519149 0.0073343217
-0.054255959 -0.10417144 0.0076840222
-0.052851524 -0.10354584 0.0082766116
-0.051979784 -0.10395957 0.0090486109
-0.050016679 -0.10216173 0.0096883476
-0.050020181 -0.10438994 0.0099612176
-0.048985571 -0.10450254 0.0098619163
-0.047655232 -0.10397506 0.0097201765
-0.046180822 -0.10310137 0.010159492
-0.045293953 -0.10352903 0.010159492
-0.043921474 -0.10284051 0.010549188
-0.043273468 -0.10385632 0.010392845
-0.041632783 -0.10248069 0.010460228
-0.040989477 -0.10355236 0.01026383
-0.04003102 -0.10386426 0.010345608
-0.038819216 -0.1035179 0.00997293
-0.037285589 -0.10226905 0.0098207295
-0.037370786 -0.10551751 0.0094622374
-0.03571317 -0.10389286 0.0094509125
-0.034541093 -0.10362328 0.0091550052
-0.033581518 -0.10399437 0.0090933144
-0.032124419 -0.10279814 0.0087280571
-0.031628441 -0.10470105 0.0087264478
-0.030450169 -0.10440058 0.0088328123
-0.029185304 -0.10376997 0.0089645088
-0.0277272 -0.10237735 0.0088324547
-0.026932573 -0.10342108 0.0095417202
-0.025756717 -0.10302687 0.009804666
-0.024947003 -0.10412662 0.010470271
-0.023578951 -0.10288997 0.010828882
-0.022537388 -0.10302805 0.011646867
-0.021473879 -0.10307463 0.01173088
-0.020204471 -0.10208575 0.011921912
-0.019364942 -0.10327969 0.011691898
-0.018094616 -0.10218136 0.011614114
-0.017132368 -0.10279421 0.010868847
-0.016072841 -0.10286618 0.010283858
-0.015184286 -0.10412082 0.010514617
-0.013790341 -0.10183637 0.010511339
-0.012987941 -0.10390352 0.010469496
-0.011663885 -0.10179391 0.010178685
-0.010527724 -0.10106616 0.010329157
-0.0097918492 -0.1044464 0.010148078
-0.0085255122 -0.10230615 0.010410666
-0.0074477051 -0.10213995 0.010413498
-0.0065326802 -0.10452288 0.010448188
-0.0053180913 -0.10210735 0.010782689
-0.0042360881 -0.10166611 0.01129353
-0.0032354733 -0.10353515 0.011753291
-0.0021343648 -0.10244951 0.012000829
-0.0010797024 -0.10365143 0.012995511
0 -0.1017506 0.012638301
0.0010513017 -0.10092496 0.012464643
0.0021375665 -0.10260319 0.012705117
0.0032290698 -0.10333023 0.012371302
0.0042235185 -0.10136445 0.01194641
0.0054268842 -0.10419618 0.011625797
0.0064679403 -0.10348704 0.011414319
0.0074182409 -0.10173588 0.012271732
0.0085890619 -0.10306874 0.011934131
0.0095923208 -0.10231809 0.011929333
0.010814613 -0.10382029 0.012359798
0.011875778 -0.10364315 0.012688696
0.012802317 -0.10241853 0.012688696
0.013985256 -0.10327573 0.012909353
0.014929596 -0.10237437 0.013033777
0.015942188 -0.10203 0.012933403
0.017287832 -0.10372699 0.013377011
0.018495442 -0.10444485 0.012980312
0.019155961 -0.10216513 0.012865365
0.020296751 -0.102552 0.012913018
0.021693001 -0.1041264 0.012933403
0.022450343 -0.10263013 0.012763381
0.023651894 -0.10320827 0.012634546
0.024914326 -0.10399023 0.012744665
0.025537945 -0.10215178 0.012822509
0.026460592 -0.10160866 0.013074547
0.027885668 -0.10296246 0.013797969
0.028768372 -0.10228754 0.013877958
0.030191779 -0.10351467 0.014316887
0.031264819 -0.10349732 0.014063895
0.032285858 -0.10331474 0.014708787
0.033871107 -0.10489117 0.014151663
0.034401111 -0.10320333 0.014029205
0.035785336 -0.1041028 0.014029205
0.037242204 -0.10515446 0.013533145
0.037180137 -0.1019798 0.013137341
0.039484773 -0.10529273 0.012640625
0.039504439 -0.10249799 0.01200369
0.040738203 -0.10291757 0.01115334
0.041927446 -0.10320602 0.010204583
0.04212388 -0.10109732 0.0095326006
0.043691669 -0.10230244 0.009136349
0.046014871 -0.10517684 0.0084936917
0.046933938 -0.10478274 0.0081867874
0.047639668 -0.10394109 0.0063171089
0.049614169 -0.10584355 0.0056799948
0.051562473 -0.10760864 0.0050832629
0.051293056 -0.10476879 0.0053219497
-0.061395835 -0.10415365 0.0051466525
-0.061211538 -0.10572901 0.0055372417
-0.059869897 -0.10532667 0.0058510303
-0.057959333 -0.10388937 0.0063683093
-0.056469969 -0.10316629 0.007027477
-0.055415638 -0.10322521 0.0073731542
-0.054091819 -0.10277445 0.0081537068
-0.053299502 -0.10333577 0.0087693036
-0.051567517 -0.10206071 0.0093639493
-0.051230233 -0.10355047 0.009809196
-0.04978773 -0.10282248 0.010184914
-0.04803101 -0.10139879 0.010184914
-0.047411915 -0.10236664 0.010191739
-0.046810467 -0.10341847 0.010663688
-0.045098666 -0.10200889 0.010472327
-0.045115061 -0.10453489 0.010567635
-0.043092199 -0.10234398 0.010462284
-0.042001594 -0.10231157 0.010852963
-0.041573633 -0.10393408 0.010697544
-0.039939765 -0.10254804 0.01076749
-0.038796298 -0.10237913 0.010783195
-0.03800372 -0.10315296 0.010073394
-0.036927395 -0.10317948 0.010280907
-0.035742972 -0.10289644 0.010378391
-0.034405284 -0.10214069 0.009658426
-0.033251937 -0.1019011 0.010040164
-0.032220572 -0.10203181 0.009416461
-0.031184569 -0.10215634 0.0095021427
-0.029731462 -0.1008746 0.0095087886
-0.029144181 -0.10254434 0.010135472
-0.027810531 -0.1016154 0.010129273
-0.026776005 -0.10174881 0.011767298
-0.025468459 -0.10081266 0.011596739
-0.02451011 -0.1012374 0.011314243
-0.023632631 -0.10205 0.011781931
-0.022322394 -0.10098226 0.012524486
-0.021190889 -0.10065673 0.012565553
-0.020441055 -0.10220528 0.012679756
-0.019501746 -0.10292589 0.012534976
-0.0179315 -0.10020544 0.012122065
-0.01711737 -0.10163438 0.011406839
-0.016108586 -0.10202105 0.011065423
-0.015033478 -0.10201289 0.011319011
-0.014030919 -0.10253365 0.01111871
-0.013002385 -0.10293555 0.011288315
-0.011717437 -0.10119605 0.010466486
-0.010971953 -0.10423356 0.010557711
-0.0096484469 -0.10184473 0.010534972
-0.0085806251 -0.10189492 0.010952324
-0.0076400037 -0.10368577 0.01103282
-0.0064167823 -0.10159905 0.011214674
-0.0052967728 -0.10063869 0.011565447
-0.0043058707 -0.10226443 0.012225419
-0.0032373008 -0.10251452 0.013392538
-0.0021169425 -0.10055477 0.014030039
-0.0010912875 -0.1036723 0.014109731
0 -0.10003182 0.013906389
0.0010782359 -0.10243241 0.014014453
0.0021289261 -0.10112399 0.014037609
0.0032399702 -0.10259905 0.013693571
0.0042788195 -0.10162196 0.013043851
0.0052994424 -0.1006894 0.01295194
0.0063996981 -0.10132855 0.012488335
0.0075478256 -0.10243477 0.01277265
0.0085853701 -0.10195127 0.012655616
0.0096858134 -0.10223914 0.01295194
0.010877654 -0.10333771 0.012954205
0.011557613 -0.099815741 0.013470918
0.012838717 -0.10163984 0.013389051
0.013893709 -0.10153095 0.01366353
0.015083282 -0.10235085 0.014090776
0.015792888 -0.10002162 0.013909578
0.017384842 -0.1032225 0.013815671
0.018067535 -0.10096564 0.013703942
0.019228635 -0.10148447 0.013580441
0.02017645 -0.10088225 0.013074219
0.020957423 -0.099547766 0.012996376
0.022645889 -0.10244569 0.012918413
0.023721255 -0.10243269 0.012629151
0.02455098 -0.10140622 0.012711018
0.025920462 -0.10260183 0.012596041
0.026866309 -0.10209197 0.012986839
0.027993718 -0.10228474 0.013351828
0.029329589 -0.1031967 0.013791233
0.03009109 -0.10209477 0.013911605
0.030903118 -0.10123435 0.013825923
0.032378551 -0.10253207 0.014137626
0.033444494 -0.10249119 0.013924867
0.034272797 -0.10174736 0.013859123
0.03541708 -0.10195826 0.013736665
0.036495201 -0.10197188 0.013641566
0.037267189 -0.10115381 0.013220489
0.038977142 -0.10285635 0.0129731
0.039207388 -0.10066761 0.012254804
0.040567964 -0.10141991 0.011023879
0.042100634 -0.10255283 0.01004985
0.043224461 -0.1026581 0.009316653
0.044219531 -0.10245989 0.0085410774
0.046003416 -0.10405534 0.0083456337
0.046508547 -0.10275143 0.0063039064
0.048906919 -0.10559449 0.0056295097
0.048747532 -0.10291145 0.0050699711
-0.062440708 -0.10481119 0.0050058067
-0.061643198 -0.10535382 0.0057369471
-0.058212113 -0.1013322 0.0062317252
-0.058272053 -0.10335043 0.0069508553
-0.056118291 -0.10144461 0.0073019266
-0.054782242 -0.10097118 0.0079037845
-0.053782832 -0.10111172 0.0082117617
-0.053025655 -0.10172269 0.0090786517
-0.051714845 -0.10127491 0.0093809962
-0.050815046 -0.10163009 0.0099537075
-0.048645705 -0.099406444 0.010567635
-0.04895239 -0.1022561 0.010550588
-0.047381014 -0.10122307 0.010423481
-0.046001188 -0.10056074 0.010821939
-0.045651909 -0.10217332 0.010549188
-0.045525104 -0.10437462 0.010549188
-0.043283872 -0.10171711 0.010536373
-0.042619474 -0.10272386 0.010948718
-0.040904921 -0.10118586 0.010769665
-0.03980663 -0.10113035 0.010918289
-0.039164826 -0.10226372 0.010783195
-0.037933752 -0.10187922 0.010073394
-0.036543641 -0.10103242 0.010378391
-0.036092825 -0.10280988 0.010485947
-0.03407976 -0.10010929 0.010202944
-0.033705309 -0.1022032 0.010513395
-0.032240279 -0.10101955 0.010325104
-0.030975273 -0.1004026 0.010581911
-0.030485917 -0.10234558 0.010637552
-0.029029282 -0.10106491 0.011596739
-0.0276412 -0.099933572 0.012237728
-0.027113838 -0.10194803 0.012082756
-0.025829677 -0.10116624 0.012158662
-0.024707804 -0.10097972 0.012158662
-0.023540191 -0.10058082 0.012551695
-0.022525324 -0.10082763 0.012984246
-0.021308253 -0.10014879 0.013209105
-0.020277845 -0.10032196 0.013137907
-0.019132633 -0.099914864 0.012924135
-0.018028226 -0.099685483 0.01273492
-0.017084228 -0.10036984 0.011811286
-0.015669135 -0.098193251 0.011752576
-0.01528855 -0.1026517 0.011819154
-0.013834374 -0.10003316 0.011828423
-0.012811008 -0.1003529 0.011861831
-0.01183495 -0.10113503 0.011711299
-0.010813121 -0.10164334 0.011443198
-0.0095860129 -0.10012058 0.011336356
-0.0085726064 -0.10072812 0.011577547
-0.0075765587 -0.10174236 0.011859
-0.0063943756 -0.10017855 0.012299716
-0.0054602893 -0.10265344 0.012941509
-0.0042921351 -0.10086518 0.013556659
-0.0031842662 -0.099773675 0.01412192
-0.0021578968 -0.10142115 0.014327198
-0.0010582418 -0.099474736 0.014406443
0 -0.10035105 0.014771879
0.0010676205 -0.10035633 0.014678627
0.0021087483 -0.099111177 0.014756501
0.0032223733 -0.10096771 0.014402807
0.0042726668 -0.10040767 0.013913095
0.0052664978 -0.099010162 0.014046997
0.0065193716 -0.10213682 0.013746142
0.0076409536 -0.10260709 0.013806075
0.0084719528 -0.099545442 0.014107764
0.0095838765 -0.10009827 0.01391536
0.010639845 -0.10001455 0.013880014
0.011630652 -0.09938921 0.01417169
0.012901432 -0.10106122 0.013834089
0.013775758 -0.099609323 0.013984084
0.014881587 -0.099919222 0.014536947
0.01597967 -0.10013927 0.014430255
0.017022541 -0.10000743 0.013909578
0.018317588 -0.10128549 0.013699204
0.019379208 -0.10120254 0.013674349
0.020224893 -0.10006 0.013074219
0.021507462 -0.10108507 0.012962729
0.022250198 -0.099596128 0.012629151
0.023705803 -0.10128843 0.012461036
0.024784137 -0.10129169 0.012554646
0.025977585 -0.10174554 0.012299269
0.026608739 -0.10004886 0.01257509
0.028041663 -0.1013814 0.01295957
0.028861362 -0.1004803 0.013441384
0.029842537 -0.10018566 0.013692349
0.030664472 -0.099395178 0.013575345
0.031861987 -0.099834226 0.01380077
0.033428241 -0.10136305 0.013792098
0.034651671 -0.10178929 0.013991922
0.035358667 -0.10071863 0.013792098
0.037014291 -0.10233363 0.013783813
0.036896653 -0.099093869 0.013338238
0.0386816 -0.10100196 0.012944937
0.039856941 -0.10125817 0.012611419
0.04084203 -0.10103029 0.011412412
0.041780591 -0.10070194 0.010652989
0.0436478 -0.10257233 0.0098182559
0.043888047 -0.10062137 0.0091575384
0.045180682 -0.10111867 0.0090554655
0.048176732 -0.10531658 0.0067049265
0.048676882 -0.10399152 0.0057566464
-0.059708282 -0.10096128 0.0053210855
-0.058863882 -0.10137668 0.0062880516
-0.056555577 -0.099239036 0.0070246756
-0.056158096 -0.1004366 0.00727579
-0.054986484 -0.10026947 0.0077171624
-0.05337593 -0.099279232 0.0083205998
-0.053196229 -0.10096428 0.0090140998
-0.052139536 -0.10102035 0.0094919205
-0.049933206 -0.098804004 0.0099253058
-0.049516704 -0.10010986 0.010567635
-0.048211407 -0.099636905 0.010250658
-0.047386188 -0.10015717 0.0099537075
-0.046361685 -0.10027062 0.010758281
-0.045277428 -0.10025716 0.010075957
-0.044219855 -0.10030357 0.01026383
-0.043778162 -0.10178424 0.010443568
-0.041789707 -0.09965238 0.010764927
-0.04084425 -0.099960931 0.010727644
-0.04025967 -0.10119322 0.011188477
-0.038210861 -0.098711401 0.010822415
-0.037662588 -0.10007488 0.010440707
-0.037042718 -0.10132273 0.010485947
-0.035094861 -0.098903708 0.010823697
-0.034545705 -0.10039845 0.010585755
-0.033160262 -0.099480785 0.010891348
-0.031835128 -0.098688893 0.01077947
-0.031188214 -0.10001738 0.01148203
-0.030107867 -0.10000113 0.011908561
-0.028664473 -0.098733187 0.012337118
-0.028047897 -0.10032517 0.01247862
-0.027238481 -0.10132715 0.012419462
-0.025567885 -0.099075563 0.012613505
-0.024969678 -0.10096435 0.012347281
-0.023298778 -0.09849029 0.01267454
-0.022198975 -0.09830974 0.013554662
-0.021155121 -0.098371312 0.013740957
-0.020234952 -0.09904477 0.013622284
-0.019390997 -0.10018682 0.013436705
-0.018295441 -0.10008682 0.013322502
-0.01665784 -0.096823707 0.012240708
-0.016174585 -0.10028242 0.012122065
-0.015003672 -0.099667251 0.011924863
-0.013990201 -0.10008375 0.011985302
-0.012745437 -0.098777145 0.012208015
-0.011847382 -0.10016423 0.011720747
-0.01080783 -0.10051282 0.011939555
-0.0097521767 -0.1007725 0.011828423
-0.0086414851 -0.10045727 0.012063354
-0.0075396057 -0.10016905 0.012613982
-0.0064004133 -0.09920641 0.012703747
-0.0053558247 -0.099618345 0.013578951
-0.004304254 -0.1000739 0.013881415
-0.0032590805 -0.1010315 0.014377087
-0.0021160939 -0.098398365 0.014700055
-0.0010419613 -0.0969024 0.014806986
0 -0.097421885 0.015012801
0.0010657771 -0.099117279 0.015000492
0.0021415132 -0.099580362 0.014948815
0.0031890597 -0.098860852 0.014823079
0.004250329 -0.09882015 0.014619917
0.0054018497 -0.10047441 0.014591366
0.0063829538 -0.09893579 0.014467537
0.0074294498 -0.098705553 0.014529198
0.0087079918 -0.10123041 0.014682651
0.0096351439 -0.099563166 0.014431536
0.010535304 -0.097978324 0.014651537
0.011742891 -0.099280812 0.014529198
0.012838761 -0.099500403 0.014453202
0.013734767 -0.098256417 0.014857352
0.015131646 -0.10051736 0.015137821
0.016056178 -0.099548303 0.014817417
0.017067095 -0.099202491 0.014635891
0.017966576 -0.098287739 0.014428377
0.019048162 -0.098415509 0.014250845
0.020258624 -0.099160641 0.013663203
0.021151559 -0.098354757 0.013474584
0.022605039 -0.10010803 0.012918413
0.023422729 -0.099014267 0.012730688
0.025020141 -0.1011684 0.012629151
0.025987662 -0.1007022 0.01257509
0.027044335 -0.10060492 0.012627661
0.027841391 -0.099586517 0.013054729
0.028840486 -0.099339455 0.013466209
0.029613454 -0.098358974 0.013655603
0.030732926 -0.098557308 0.013588667
0.031936415 -0.09900289 0.013666779
0.032862842 -0.098588526 0.014134645
0.034015164 -0.098856576 0.014134645
0.035571545 -0.10024709 0.014124304
0.036809273 -0.1006842 0.013905972
0.037418187 -0.099425472 0.013338238
0.039118212 -0.10105538 0.012940347
0.039795682 -0.10002698 0.012310833
0.04057233 -0.099295437 0.011548162
0.042326979 -0.10093357 0.010161251
0.043369111 -0.10083319 0.0095837712
0.044486385 -0.10090814 0.0088841319
0.046386655 -0.10271331 0.0080229938
0.046895076 -0.10142423 0.0060306489
0.048306007 -0.10210133 0.0052338243
-0.061088059 -0.10218366 0.0054439008
-0.058975182 -0.10047624 0.0064911246
-0.057644993 -0.10006301 0.0073648095
-0.056452073 -0.099876747 0.0075190365
-0.054210201 -0.097790956 0.0080755353
-0.053620111 -0.098661005 0.0083480775
-0.053699184 -0.10082296 0.0086464882
-0.051456671 -0.098625295 0.0091740191
-0.050690033 -0.099223047 0.0097750127
-0.050290588 -0.10058118 0.010232359
-0.048391733 -0.098934211 0.0099612176
-0.047856465 -0.10006352 0.0097059608
-0.046458013 -0.099398538 0.0099314153
-0.044529855 -0.097541593 0.0096950233
-0.044842694 -0.10062263 0.0096950233
-0.043534636 -0.10012967 0.0098548234
-0.042550728 -0.10037608 0.010258615
-0.041280203 -0.099941544 0.010416687
-0.039975017 -0.099397339 0.0099247694
-0.0384661 -0.09830226 0.010040343
-0.038172178 -0.1003383 0.0099263191
-0.036638055 -0.099138275 0.010520548
-0.035434574 -0.0987873 0.010629117
-0.034520946 -0.099247724 0.010522872
-0.033062637 -0.098121375 0.01077947
-0.032649044 -0.10012374 0.011209548
-0.03143388 -0.099721268 0.011793882
-0.029956656 -0.098429017 0.012156516
-0.029186055 -0.099448778 0.012126267
-0.028383957 -0.10043554 0.012445599
-0.026550505 -0.097705856 0.012428731
-0.026094424 -0.10002863 0.012397796
-0.024423851 -0.097695403 0.012387037
-0.023568705 -0.098560043 0.012685984
-0.022187449 -0.097202159 0.01322183
-0.021281851 -0.097896516 0.013231218
-0.0201231 -0.097438172 0.013626814
-0.019461464 -0.099469706 0.013132781
-0.018162141 -0.098289236 0.012952238
-0.017058397 -0.098085783 0.01260668
-0.015903749 -0.097543001 0.012190282
-0.015071763 -0.099043012 0.011988312
-0.014027986 -0.099274978 0.012000561
-0.012794483 -0.098091036 0.012477815
-0.011681375 -0.097698778 0.011996627
-0.010935542 -0.10060699 0.011814564
-0.0096794628 -0.098945625 0.012063354
-0.0086486032 -0.09945894 0.012234986
-0.007653126 -0.10058395 0.012553662
-0.0064046392 -0.098204471 0.012919903
-0.0053917426 -0.099208064 0.013736904
-0.0043291962 -0.099571519 0.013948321
-0.0031455304 -0.096462935 0.014606893
-0.0021325864 -0.098098986 0.014910489
-0.0010667782 -0.098143592 0.014936656
0 -0.09782134 0.015157133
0.001070819 -0.098515354 0.01537323
0.0021309226 -0.098022446 0.01521942
0.0031829665 -0.09761098 0.015079886
0.0042593172 -0.097964294 0.014924347
0.0053581703 -0.098590337 0.014882237
0.0064142644 -0.09835206 0.014769942
0.0075133811 -0.098747298 0.014764428
0.0085136183 -0.097906604 0.014967203
0.0097521804 -0.099688962 0.014693201
0.010789402 -0.099262506 0.014663994
0.011847347 -0.099086903 0.014718771
0.01285507 -0.098555543 0.014617711
0.013875105 -0.098193057 0.014454693
0.014981966 -0.098452918 0.014915556
0.016019549 -0.098253235 0.014819294
0.017178105 -0.098774113 0.014786363
0.018049093 -0.097677447 0.014458358
0.019293692 -0.098612204 0.014617205
0.020319346 -0.098388411 0.013765305
0.021235555 -0.097683564 0.013655871
0.022499017 -0.098567128 0.013037443
0.023648337 -0.098893054 0.012633055
0.024325598 -0.097302392 0.012634546
0.026289476 -0.10077633 0.0125736
0.026759587 -0.098475277 0.01261735
0.027919834 -0.098793261 0.012828588
0.029192459 -0.0994706 0.013560236
0.030023057 -0.098647192 0.013587177
0.031148523 -0.098816007 0.013446867
0.032373458 -0.099278606 0.013529152
0.033081006 -0.098175883 0.013653487
0.034606259 -0.099492997 0.013913184
0.035094459 -0.097839095 0.01377809
0.03629173 -0.098201156 0.013571203
0.037890345 -0.099597484 0.012809843
0.039105423 -0.09993609 0.012556285
0.03981078 -0.098988973 0.011950791
0.040985651 -0.099228419 0.010760218
0.042301558 -0.099788293 0.0096272826
0.042160135 -0.096968316 0.0090150833
0.044900879 -0.1007532 0.0083929002
0.045155533 -0.09891212 0.0065613091
0.047085721 -0.10074154 0.0055095851
-0.059989534 -0.099255413 0.0056324899
-0.058370057 -0.098364353 0.0066075623
-0.058872771 -0.10108344 0.0076015592
-0.055801362 -0.097652383 0.0077557862
-0.054552171 -0.097338185 0.0082766116
-0.054289192 -0.098806329 0.008725673
-0.052793592 -0.098045252 0.0086133182
-0.051739376 -0.09808924 0.0093127489
-0.050259147 -0.097310267 0.0097858012
-0.049415223 -0.0977562 0.010408998
-0.049590599 -0.10028321 0.010093361
-0.047348946 -0.097926237 0.0097507834
-0.046127014 -0.097617641 0.0098548234
-0.045671698 -0.098955348 0.0096851289
-0.043976627 -0.097606659 0.0097507834
-0.043300077 -0.09850768 0.0098563433
-0.042564418 -0.099316977 0.0099489093
-0.041293453 -0.098886959 0.0099456012
-0.040121462 -0.098677106 0.0099247694
-0.038975131 -0.098520473 0.010449648
-0.037375845 -0.0971772 0.010254771
-0.036347587 -0.097283252 0.010639518
-0.035657112 -0.09832719 0.010935009
-0.034211446 -0.097288802 0.010963887
-0.033609826 -0.098661095 0.011220962
-0.032213069 -0.097712979 0.011502624
-0.030733664 -0.096440114 0.012271196
-0.030384773 -0.098750517 0.012357056
-0.029296363 -0.098739594 0.012777954
-0.027953463 -0.097837128 0.013126791
-0.02685865 -0.097765483 0.013060749
-0.025768099 -0.097704045 0.013206571
-0.024636425 -0.097474553 0.013244957
-0.023682054 -0.097957589 0.013597637
-0.022356596 -0.096878581 0.013810366
-0.021070102 -0.095868975 0.013973206
-0.020559445 -0.098468922 0.013803303
-0.019335166 -0.097750008 0.01355955
-0.018078076 -0.096770883 0.013243228
-0.017069558 -0.097083107 0.012841791
-0.015947143 -0.096746005 0.012216568
-0.015060811 -0.09789528 0.011922151
-0.014013972 -0.098097809 0.011988312
-0.012903416 -0.097850904 0.01252383
-0.012068224 -0.099837132 0.012265295
-0.010806556 -0.098339669 0.011946619
-0.0095060384 -0.096116625 0.012314796
-0.0085895788 -0.097706459 0.012442201
-0.007457125 -0.096942633 0.012821645
-0.0064173937 -0.097330473 0.013515145
-0.0053887274 -0.098074846 0.014138132
-0.0042514061 -0.096719489 0.014423549
-0.0032053869 -0.097230077 0.015344173
-0.0021343403 -0.097112492 0.015424103
-0.0010628394 -0.096718386 0.015234292
0 -0.096518494 0.015525877
0.0010632556 -0.096756265 0.015671134
0.002136362 -0.097204469 0.015364259
0.0031952201 -0.096921682 0.015331924
0.0042889807 -0.097574316 0.015236527
0.005230288 -0.095191248 0.015160829
0.0065112058 -0.098753296 0.014925271
0.0073976177 -0.096169032 0.014914453
0.0086181117 -0.098031029 0.015143514
0.0095429523 -0.096489854 0.014693201
0.010700756 -0.097376883 0.014609993
0.011717794 -0.096938126 0.01440233
0.012832811 -0.09731549 0.014131278
0.013768302 -0.096378118 0.014536947
0.015005074 -0.09753298 0.014817417
0.016085288 -0.097584076 0.014542311
0.016866133 -0.095926136 0.01455763
0.018369935 -0.098333187 0.014438093
0.019368308 -0.097917564 0.014261842
0.020427415 -0.097836569 0.013765305
0.021662774 -0.098565631 0.013666868
0.022508722 -0.097537801 0.013312191
0.023290204 -0.09633676 0.012631834
0.024598196 -0.097323298 0.01261735
0.025725363 -0.097542003 0.012396365
0.027195441 -0.098991401 0.012466252
0.028177164 -0.098620079 0.012614399
0.02928675 -0.098707192 0.013019592
0.029853282 -0.097023167 0.012677014
0.030936616 -0.097076967 0.012579203
0.032010268 -0.097097822 0.012849033
0.033008829 -0.096896879 0.012760401
0.034370784 -0.097741917 0.012809843
0.035469361 -0.097809449 0.0129731
0.036528904 -0.097768538 0.012924731
0.037635021 -0.097851068 0.012269318
0.038608387 -0.097593434 0.011601269
0.039624106 -0.097453877 0.011327296
0.041126978 -0.098488286 0.0098024011
0.041964237 -0.097916551 0.0090153515
0.043766379 -0.099568523 0.0082972944
0.043615207 -0.096804485 0.0066649616
0.045224544 -0.097986512 0.005446285
-0.060825467 -0.099532589 0.0051452518
-0.058900964 -0.098168276 0.0065089166
-0.05799089 -0.098475099 0.0071880221
-0.056214523 -0.097294368 0.0076600015
-0.055228382 -0.097461857 0.0079901516
-0.053999107 -0.097198397 0.0085702837
-0.053174715 -0.097667851 0.0084111094
-0.051054996 -0.095728122 0.009337008
-0.050460845 -0.096627153 0.0097419918
-0.049642727 -0.097127073 0.0098520517
-0.048728198 -0.097456396 0.0099736154
-0.047319483 -0.096789859 0.0095591843
-0.046459403 -0.097240619 0.0095591843
-0.04489072 -0.096194409 0.0093671679
-0.043978218 -0.096537553 0.0095887184
-0.043922339 -0.098825268 0.0096132457
-0.042561714 -0.09821935 0.0095915794
-0.04123896 -0.097671226 0.0095887184
-0.040583506 -0.098716639 0.009578675
-0.038870081 -0.097175211 0.009755075
-0.037711143 -0.096971519 0.010118037
-0.036489975 -0.096591115 0.010581911
-0.035155673 -0.095879115 0.011116922
-0.035024952 -0.09850768 0.011186898
-0.033627808 -0.097629122 0.011502624
-0.031840518 -0.095521554 0.011834323
-0.031340379 -0.097263247 0.012337118
-0.029998895 -0.096425019 0.012682199
-0.029312061 -0.097706869 0.01310119
-0.028162939 -0.097487107 0.013590038
-0.026778048 -0.096400969 0.013552487
-0.025352912 -0.095073424 0.01384756
-0.024691993 -0.096620843 0.013713986
-0.023590215 -0.096505426 0.014099091
-0.022396041 -0.095983036 0.014499992
-0.021377318 -0.09619794 0.014273077
-0.020239672 -0.095872127 0.014499992
-0.019118764 -0.095593825 0.013593823
-0.018346461 -0.097128324 0.0127922
-0.016861882 -0.094848096 0.012470484
-0.016142087 -0.096852526 0.011932671
-0.015207078 -0.097759798 0.011546612
-0.013960443 -0.09664923 0.011789441
-0.012984564 -0.097384229 0.011988312
-0.011975939 -0.09798497 0.011923492
-0.010733868 -0.096604817 0.011787593
-0.0097557688 -0.097557701 0.01197803
-0.0086275069 -0.097059451 0.012024075
-0.0074436497 -0.095704071 0.012654752
-0.0064993636 -0.09749046 0.013023138
-0.0053743771 -0.096738793 0.013483316
-0.0042855786 -0.096425518 0.014284223
-0.0032149644 -0.096448943 0.014904022
-0.0021273987 -0.09573295 0.01523307
-0.0010669213 -0.096022919 0.015215963
0 -0.095771566 0.015236527
0.0010470522 -0.094234705 0.015538841
0.0021511938 -0.096803732 0.015377551
0.0032022938 -0.096068814 0.015363604
0.0042044404 -0.09459991 0.015503347
0.0053160829 -0.095689498 0.015491009
0.0064633167 -0.096949756 0.015096992
0.0074744606 -0.096100211 0.015339106
0.0085961027 -0.096706159 0.015264511
0.009685114 -0.096851148 0.014840066
0.010633958 -0.095705621 0.014837712
0.011756149 -0.096186683 0.014965475
0.012644911 -0.094836846 0.014731139
0.01387619 -0.096065938 0.014764696
0.01490993 -0.095849551 0.014914155
0.015918262 -0.095509581 0.014733881
0.017152917 -0.09648516 0.014655203
0.018426284 -0.097550921 0.014525115
0.019147648 -0.09573824 0.014443696
0.020765817 -0.098364398 0.013862878
0.021505661 -0.09677548 0.013738215
0.022387309 -0.095945612 0.013316363
0.023679081 -0.09686897 0.012560308
0.024346372 -0.095268421 0.012559086
0.025951529 -0.09731824 0.012480408
0.027152129 -0.097747669 0.012437224
0.028005494 -0.096942097 0.012452781
0.029225513 -0.097418383 0.012208521
0.0305207 -0.098102257 0.01203382
0.031116666 -0.096568964 0.012024343
0.031650066 -0.094950207 0.011673301
0.033269223 -0.096588075 0.012138903
0.034345523 -0.096596777 0.011708051
0.035658564 -0.09725064 0.012081176
0.036786281 -0.097375453 0.012034714
0.037536882 -0.096523419 0.011439413
0.038663141 -0.096657857 0.010879934
0.040120959 -0.097591527 0.01015985
0.040887814 -0.096839562 0.00948897
0.042697981 -0.098533809 0.0086643994
0.043377634 -0.097599685 0.0078316033
0.043907836 -0.09638305 0.0064196289
-0.058103316 -0.095762864 0.005102098
-0.05758642 -0.096701726 0.0065204501
-0.056351464 -0.096447699 0.0071219206
-0.055362787 -0.096613489 0.0077287853
-0.054260835 -0.096584275 0.0082395673
-0.053428527 -0.097043656 0.0081641972
-0.051708933 -0.095876977 0.0088030696
-0.051282238 -0.097108915 0.0092603862
-0.049685176 -0.096130006 0.0096140206
-0.048780479 -0.096476942 0.009547025
-0.048448473 -0.097998045 0.0088820457
-0.046361707 -0.09595795 0.0088820457
-0.045038734 -0.095439218 0.0088782012
-0.044156823 -0.095852613 0.0088991225
-0.043059312 -0.095806971 0.0090951324
-0.042390082 -0.096736334 0.0094844699
-0.041648109 -0.097544245 0.0094127059
-0.040381238 -0.097133234 0.0093521774
-0.039153177 -0.09679535 0.0095306635
-0.038285293 -0.097354025 0.0095874369
-0.03658592 -0.095769025 0.010356694
-0.035634372 -0.096104823 0.011116922
-0.034764368 -0.09668839 0.011157781
-0.032999832 -0.094741449 0.011425257
-0.03254123 -0.096538983 0.011719704
-0.031117668 -0.095499046 0.012144536
-0.029757088 -0.094585031 0.012532771
-0.028957188 -0.095451467 0.012846917
-0.028140821 -0.096328191 0.013590038
-0.026520465 -0.094412848 0.013619334
-0.025747128 -0.09547893 0.013634861
-0.02468734 -0.095529266 0.01370725
-0.023354312 -0.094478808 0.014123738
-0.022420429 -0.095019907 0.014253527
-0.021261457 -0.094613492 0.014558047
-0.020348713 -0.095317654 0.01456672
-0.019391162 -0.095878519 0.013991237
-0.018224793 -0.09541215 0.013472319
-0.01710685 -0.095156848 0.01293391
-0.016274691 -0.09656316 0.012040108
-0.015204347 -0.096656203 0.011554211
-0.014104761 -0.096563362 0.011686921
-0.012972915 -0.096215785 0.011753082
-0.011885453 -0.096164122 0.011789441
-0.010746129 -0.095640548 0.011576384
-0.0096731344 -0.095656551 0.011687577
-0.0085645001 -0.095280066 0.011835456
-0.0075201001 -0.095612705 0.01244694
-0.0064239106 -0.095288001 0.012761533
-0.0053709908 -0.095603637 0.013378054
-0.0043533305 -0.096861601 0.014012933
-0.0031848946 -0.094485201 0.014948279
-0.0021290085 -0.094740883 0.015023977
-0.0010752274 -0.095695227 0.01506868
0 -0.093629576 0.015173703
0.0010767749 -0.095832959 0.01526469
0.0021481737 -0.095593728 0.015074611
0.0031631109 -0.093838952 0.015346497
0.0042757201 -0.095134765 0.015288591
0.005305524 -0.094438322 0.015160829
0.0064092702 -0.095070839 0.015080005
0.0074571962 -0.094812922 0.015035659
0.0086492412 -0.096222803 0.014882237
0.0095563838 -0.094502024 0.014737964
0.010671752 -0.094978593 0.014384151
0.011747357 -0.095046796 0.014230162
0.012910088 -0.095749818 0.014203995
0.014159671 -0.096939288 0.014261842
0.014907039 -0.09476617 0.01415509
0.015932085 -0.094530366 0.014149457
0.017260058 -0.096009068 0.014147758
0.018319825 -0.09590967 0.014060855
0.019366544 -0.095756799 0.014057636
0.020492181 -0.095989689 0.013765305
0.021518281 -0.095756344 0.013659537
0.022577712 -0.095686488 0.013258129
0.023503374 -0.095081836 0.012451559
0.024375707 -0.094323382 0.012444645
0.026224852 -0.097250491 0.012442619
0.027026929 -0.096215867 0.012345016
0.028159354 -0.096391626 0.012019187
0.029792644 -0.09820538 0.011844099
0.030412186 -0.096667305 0.011622339
0.031508513 -0.09669853 0.011252046
0.03234534 -0.095957838 0.011500806
0.03305687 -0.094905198 0.011615932
0.034504224 -0.095964871 0.011822999
0.035272177 -0.095127992 0.011852324
0.03577115 -0.093636245 0.011805654
0.03806112 -0.096783988 0.011422873
0.038783908 -0.095882438 0.010519743
0.039624542 -0.09531308 0.0099155009
0.04129678 -0.096721403 0.0093403161
0.042279158 -0.096483208 0.0086486638
0.043447919 -0.096671619 0.0068630874
0.0456356 -0.099062636 0.0050808787
-0.057710197 -0.09582071 0.0061123669
-0.056402218 -0.095449902 0.0068126023
-0.054629043 -0.094261877 0.0072765946
-0.054794446 -0.096438222 0.0079600811
-0.052928988 -0.095056146 0.0080863833
-0.052280929 -0.095848374 0.0083852708
-0.051192146 -0.095849127 0.0086087286
-0.048976045 -0.093693301 0.0088677108
-0.049304031 -0.096416764 0.0084932148
-0.047864102 -0.095728204 0.0082169771
-0.04557604 -0.093271896 0.0079040825
-0.045622062 -0.095589079 0.0079761147
-0.044058412 -0.094564393 0.0079877377
-0.043290436 -0.095238961 0.0084061921
-0.042419173 -0.095715053 0.0081324875
-0.040655911 -0.094150528 0.0081942081
-0.040064413 -0.095288329 0.0081942081
-0.039590113 -0.096775837 0.0091447234
-0.037603404 -0.0945457 0.009231478
-0.03652034 -0.094523229 0.0099758506
-0.03577058 -0.095388211 0.010504663
-0.034651503 -0.095291629 0.010760844
-0.033521529 -0.095157884 0.011062592
-0.032312423 -0.094783105 0.011461258
-0.030982405 -0.094015568 0.011936426
-0.030263457 -0.095113724 0.012476951
-0.028701251 -0.093544811 0.013016015
-0.027843468 -0.094239429 0.013491809
-0.026935626 -0.094813399 0.013586342
-0.025542362 -0.093655325 0.013540179
-0.024611432 -0.094165474 0.013680279
-0.02372767 -0.094910681 0.014025927
-0.022336055 -0.093598709 0.014088273
-0.021554584 -0.094840169 0.014215022
-0.020293869 -0.093992651 0.014088273
-0.019262154 -0.094170526 0.0134404
-0.018375998 -0.095122814 0.013180614
-0.017254865 -0.094901755 0.01291427
-0.015926195 -0.093433671 0.012269229
-0.015219023 -0.09566243 0.01191166
-0.014270045 -0.096597224 0.011916041
-0.012824032 -0.094042897 0.01199618
-0.011953926 -0.095631406 0.011968166
-0.010722623 -0.094359085 0.011753082
-0.0095142694 -0.093028411 0.011801124
-0.0085104285 -0.093614712 0.011957914
-0.0074644634 -0.093838967 0.012573928
-0.0064001451 -0.0938688 0.012875348
-0.0053812671 -0.094710298 0.013172776
-0.0043294253 -0.095247351 0.013647944
-0.003170853 -0.093011692 0.014604807
-0.0021395404 -0.094139777 0.014831036
-0.0010574526 -0.093055829 0.015066445
0 -0.094093725 0.015173703
0.0010824046 -0.095251605 0.015272766
0.0021343001 -0.093909197 0.015263528
0.0032501738 -0.095338427 0.015388131
0.004268209 -0.093900591 0.015274018
0.0053413706 -0.094008125 0.015051752
0.0064158654 -0.094099358 0.014986098
0.0074798847 -0.094032831 0.014961064
0.008641893 -0.095060825 0.015129775
0.0095983949 -0.09385097 0.014619917
0.010722027 -0.09435384 0.01437065
0.011665801 -0.093326405 0.014306217
0.012940465 -0.094896741 0.014008164
0.013928807 -0.094287314 0.013934046
0.01493239 -0.093860738 0.014033824
0.016231488 -0.095224731 0.014078319
0.016732164 -0.092026897 0.014044523
0.018170664 -0.094059899 0.014250845
0.019443134 -0.095055327 0.013920903
0.020366205 -0.094327681 0.013424367
0.0212893 -0.093672916 0.013324261
0.022428477 -0.093985997 0.012902409
0.023460791 -0.093843162 0.012226403
0.024633311 -0.094249189 0.012173921
0.025750672 -0.094419137 0.011943072
0.02687767 -0.094609395 0.011843443
0.028512551 -0.096504018 0.011288375
0.029015714 -0.094569735 0.010472834
0.030281758 -0.095171236 0.010117084
0.031885091 -0.096754752 0.010621399
0.032116428 -0.094208181 0.010049075
0.033289585 -0.094499461 0.010113001
0.034566008 -0.095056526 0.01025486
0.035280865 -0.094082311 0.010496348
0.036752388 -0.095123827 0.010374159
0.03766986 -0.094712786 0.0096525848
0.038545799 -0.09422306 0.0091818869
0.039899826 -0.094896883 0.0086824
0.040831666 -0.094557546 0.0083909929
0.042234212 -0.095297709 0.0076755583
0.043835718 -0.096438579 0.00536713
-0.057551928 -0.094472028 0.0050608814
-0.056535698 -0.09458857 0.0059165061
-0.055489376 -0.094658345 0.0067127943
-0.054163188 -0.094243944 0.0071178675
-0.053051893 -0.094194181 0.0072717071
-0.052353304 -0.094890364 0.0078008175
-0.051073857 -0.094540969 0.0082395673
-0.050158851 -0.09486565 0.0082683265
-0.048964333 -0.094664373 0.0079773664
-0.046900894 -0.092735864 0.0072870553
-0.046509221 -0.094100051 0.0073386431
-0.046492029 -0.096304908 0.0074131489
-0.044538159 -0.094507799 0.007473439
-0.043649644 -0.09493798 0.0075755715
-0.042711768 -0.095280103 0.0072998703
-0.041314963 -0.094589524 0.0077600479
-0.040357415 -0.094894454 0.0075513422
-0.038815763 -0.093804762 0.0081627369
-0.037402641 -0.092972286 0.008487165
-0.036961216 -0.094577223 0.0095340908
-0.035863604 -0.094549499 0.010157317
-0.034525018 -0.093864888 0.010645747
-0.033148471 -0.093029574 0.010946274
-0.031906702 -0.092529431 0.011446744
-0.031179473 -0.093538411 0.011696965
-0.030162675 -0.093719736 0.012476951
-0.028801246 -0.092804015 0.013001144
-0.028100673 -0.094029173 0.013566166
-0.026905028 -0.093629494 0.013491809
-0.02565415 -0.092996292 0.013678789
-0.024700861 -0.093433686 0.013986409
-0.02362222 -0.093415149 0.014080286
-0.02254387 -0.09339603 0.014091969
-0.021603897 -0.093976952 0.014153898
-0.020272776 -0.092827976 0.014092654
-0.019113615 -0.092382476 0.013600171
-0.018182158 -0.093049869 0.012904197
-0.016979033 -0.092323497 0.012778312
-0.016289966 -0.094481803 0.012508124
-0.015181941 -0.094344914 0.012151271
-0.014038264 -0.093948379 0.01221326
-0.01312517 -0.095157482 0.012192905
-0.012074161 -0.095495641 0.012223661
-0.0106621 -0.092760272 0.012026608
-0.0096741701 -0.093516983 0.01199618
-0.0085101044 -0.092547379 0.012073278
-0.0074341632 -0.092396028 0.012840241
-0.0064524575 -0.093560636 0.01322335
-0.0053858631 -0.093714021 0.01369679
-0.0042992737 -0.093509197 0.014012933
-0.0032650973 -0.094687819 0.014921248
-0.0021325541 -0.092766106 0.015023977
-0.0010630692 -0.092487015 0.015160263
0 -0.093301132 0.01526469
0.0010639033 -0.092559591 0.01534903
0.0021331499 -0.092792019 0.015423417
0.0032214839 -0.093423031 0.015739113
0.004221105 -0.091809034 0.015632451
0.0053831823 -0.093667373 0.015231818
0.006422074 -0.093120076 0.014907241
0.0074416697 -0.092489325 0.015185207
0.0086973961 -0.094584174 0.015193492
0.0097245649 -0.094004132 0.014833361
0.010667461 -0.092806913 0.0145109
0.011795058 -0.093288191 0.014520437
0.012797845 -0.092784375 0.014341265
0.013851686 -0.092699751 0.013697773
0.015112746 -0.093914919 0.013846278
0.01596665 -0.092606567 0.013962686
0.017339114 -0.094281428 0.013920903
0.018310687 -0.093707629 0.01383689
0.019087901 -0.092258193 0.013543665
0.020234328 -0.092651919 0.013228357
