ply
format ascii 1.0
comment PCL generated
element vertex 1263
property float x
property float y
property float z
element camera 0
property float view_px
property float view_py
property float view_pz
property float x_axisx
property float x_axisy
property float x_axisz
property float y_axisx
property float y_axisy
property float y_axisz
property float z_axisx
property float z_axisy
property float z_axisz
property float focal
property float scalex
property float scaley
property float centerx
property float centery
property int viewportx
property int viewporty
property float k1
property float k2
end_header
-0.052447263 -0.072783962 0.010861456
-0.051672652 -0.073202923 0.010905325
-0.050136231 -0.072537526 0.011036426
-0.049624469 -0.07335791 0.010696292
-0.048515912 -0.073312931 0.010561228
-0.047500413 -0.073409729 0.010480314
-0.046137381 -0.072961442 0.010326177
-0.045964941 -0.074419431 0.0096375048
-0.044675753 -0.074096367 0.0081285238
-0.043484252 -0.07392323 0.0075144768
-0.042131849 -0.073460661 0.0063087642
0.022766782 -0.073721007 0.0055821538
0.023842523 -0.073695078 0.0061227381
0.02470478 -0.073040225 0.006699264
0.026315307 -0.074560039 0.0079793036
0.026939718 -0.073276028 0.0079786181
0.027691675 -0.072424382 0.0088601112
0.029098701 -0.073285617 0.0099066794
0.030377951 -0.073775023 0.010128886
0.031214021 -0.073191494 0.010606378
0.031933904 -0.072383516 0.010471404
0.033074044 -0.072549514 0.011070192
0.033618603 -0.071439534 0.011028528
0.035755783 -0.073678583 0.011329085
0.036803335 -0.07360667 0.011584848
0.03662229 -0.071151875 0.012068361
0.039283749 -0.074202642 0.012062401
0.040270846 -0.074011281 0.012059808
0.040121756 -0.071796827 0.011891842
0.042248532 -0.073664106 0.011618674
0.04282859 -0.072808608 0.011520326
0.043709606 -0.072493978 0.011603802
0.044915203 -0.07271985 0.011551231
0.046147663 -0.072977699 0.011523634
0.046651062 -0.0720971 0.011677355
0.048405677 -0.073146358 0.011677355
0.049434882 -0.073077649 0.011580586
0.050248496 -0.072699949 0.011407733
0.051930543 -0.07356827 0.011460066
0.052420944 -0.072747439 0.011135936
0.053200472 -0.07235264 0.010474026
0.055781174 -0.074374899 0.0096819103
0.056249712 -0.073557317 0.0083237886
0.056937519 -0.073051915 0.0072642267
0.060097687 -0.075678572 0.0056940615
-0.06984625 -0.073120296 0.0052421689
-0.069260016 -0.073657483 0.0067619085
-0.066918068 -0.07231468 0.0072728395
-0.065514557 -0.071958609 0.0078251362
-0.065398924 -0.073028803 0.0091454983
-0.064563453 -0.073317826 0.0096821189
-0.063643202 -0.073518872 0.0097402632
-0.062957712 -0.074002922 0.010280102
-0.060436189 -0.072307587 0.010119647
-0.059252083 -0.072179809 0.010063857
-0.057749487 -0.071652144 0.010663092
-0.056871992 -0.071894787 0.011180818
-0.055735812 -0.071813449 0.011600167
-0.054227401 -0.071239918 0.011785775
-0.053001139 -0.071021527 0.011855543
-0.052339751 -0.071566604 0.011526585
-0.050779108 -0.070879176 0.01162073
-0.050670341 -0.072232187 0.011524379
-0.049707789 -0.072400481 0.011745036
-0.048027225 -0.071507201 0.011485875
-0.048443019 -0.073765509 0.01122281
-0.046431255 -0.072346374 0.011187494
-0.044777665 -0.071431041 0.010665238
-0.044828821 -0.07325685 0.0098856091
-0.042403117 -0.071025223 0.0082799196
-0.042046256 -0.072233312 0.0074305534
-0.040729646 -0.071812794 0.0064425468
0.016228823 -0.072488748 0.005559653
0.017334113 -0.072586603 0.0064180195
0.018031586 -0.071065664 0.006813556
0.019315178 -0.071895383 0.0071670413
0.020940658 -0.073843375 0.0076955259
0.021365061 -0.071572959 0.0084196925
0.023266707 -0.07423187 0.0087363422
0.024269743 -0.073912404 0.0093071759
0.024467692 -0.07127545 0.0091162622
0.026326066 -0.0734936 0.0096455514
0.026682124 -0.071508087 0.0099567771
0.027837185 -0.071734287 0.01012218
0.029450815 -0.07308165 0.010415912
0.030234128 -0.072345957 0.010864854
0.030991923 -0.071602032 0.011351496
0.032684617 -0.072995648 0.011225462
0.033154458 -0.071656406 0.011715621
0.034240462 -0.071690969 0.012037843
0.036094747 -0.073283277 0.01223886
0.036129635 -0.071196638 0.012672991
0.037127912 -0.071073428 0.0131374
0.038874913 -0.072350539 0.012849748
0.038824741 -0.07030426 0.012745798
0.040090293 -0.070685521 0.012190789
0.041579336 -0.071431167 0.012273788
0.042625751 -0.071398139 0.011818022
0.044487834 -0.072699629 0.011846453
0.046099167 -0.073539145 0.011609852
0.046444111 -0.072366409 0.01145786
0.04684886 -0.071338043 0.011422008
0.04848985 -0.072195999 0.011422008
0.04949614 -0.072092205 0.011178404
0.051251531 -0.073060691 0.01101917
0.050673045 -0.070731126 0.011035144
0.052693736 -0.072050624 0.010323703
0.054335121 -0.072809063 0.010052264
0.054309566 -0.071347862 0.0087403655
0.056464728 -0.072752632 0.0078520179
0.056527503 -0.071459301 0.0065330565
-0.069877617 -0.072061293 0.0052310526
-0.068242453 -0.071492091 0.0061682463
-0.068076484 -0.072468504 0.006973356
-0.066335224 -0.071772538 0.007740438
-0.065278411 -0.071806252 0.0091338456
-0.065337211 -0.073089086 0.0096029639
-0.064013854 -0.07284335 0.0099175274
-0.060160741 -0.069659807 0.010218084
-0.060186516 -0.070934109 0.010299414
-0.058160804 -0.069792964 0.010384083
-0.057157364 -0.069858998 0.011229962
-0.056524694 -0.070389241 0.011514515
-0.056291711 -0.071447171 0.0120202
-0.05462344 -0.070689157 0.012420774
-0.053347673 -0.070418924 0.012704372
-0.05251573 -0.070735477 0.012792438
-0.051619545 -0.070976876 0.01280719
-0.050881565 -0.071450703 0.012519091
-0.049315169 -0.070756547 0.012134552
-0.048350468 -0.070914015 0.012117386
-0.047651835 -0.071477748 0.011805713
-0.045608606 -0.070003904 0.011732846
-0.044632223 -0.070136346 0.01113683
-0.044645529 -0.071868412 0.010823786
-0.043830682 -0.072320625 0.009875834
-0.04185291 -0.070827998 0.0093678832
-0.040682245 -0.070658632 0.007936269
-0.039671607 -0.07076557 0.006524682
-0.040128835 -0.073569536 0.0050360858
0.0098488843 -0.072225153 0.0053344071
0.010992492 -0.072550446 0.0065095723
0.011952046 -0.071712278 0.0071256161
0.013324171 -0.073282942 0.0070359409
0.014296625 -0.072582863 0.0077030659
0.015193076 -0.071624503 0.0078091025
0.016282273 -0.071641997 0.0082305074
0.017037172 -0.070278332 0.008544147
0.018235065 -0.070794962 0.0096194744
0.0196313 -0.071981438 0.0099823177
0.020212632 -0.070212297 0.011207968
0.021843581 -0.072083816 0.010930628
0.022679301 -0.071277805 0.010596782
0.023546031 -0.07063809 0.010596782
0.02504674 -0.071873248 0.010381162
0.026420278 -0.072655767 0.010843337
0.026907548 -0.071035922 0.010866582
0.027857766 -0.070715867 0.010573953
0.029067205 -0.07105317 0.010865569
0.030451326 -0.071778126 0.011358231
0.031395949 -0.071452849 0.012098312
0.032434978 -0.071356945 0.01223886
0.033143617 -0.070563823 0.012531757
0.034206245 -0.070550382 0.012500077
0.035301901 -0.070603803 0.013097197
0.036468249 -0.070791312 0.013281971
0.037027434 -0.069823161 0.013644785
0.038269203 -0.070160203 0.013897598
0.040270142 -0.071833223 0.013425112
0.041055541 -0.071306989 0.013401777
0.041103199 -0.069559261 0.013183564
0.04296853 -0.070898071 0.012918442
0.044640623 -0.071860515 0.011845171
0.045532007 -0.071550295 0.01180011
0.047226734 -0.072487541 0.011395395
0.047291294 -0.070936941 0.01139009
0.049098503 -0.072011136 0.011290163
0.05123454 -0.073510423 0.010927737
0.050561361 -0.071001053 0.010759175
0.051995222 -0.071493432 0.010307729
0.052451342 -0.070648752 0.0099083781
0.053508889 -0.070631728 0.0092640817
0.054678239 -0.070760071 0.008159101
0.056273095 -0.071423538 0.0065768957
0.056284409 -0.070090018 0.0052984357
-0.070106462 -0.071201868 0.0051531196
-0.068130389 -0.070293255 0.006257236
-0.067686193 -0.070961326 0.0070669055
-0.066270337 -0.070615932 0.0082761943
-0.065461062 -0.070916146 0.009346962
-0.064962134 -0.071568452 0.0097096264
-0.062649734 -0.070210904 0.010483325
-0.060666665 -0.069181286 0.010722876
-0.05958239 -0.069158129 0.011175364
-0.059134826 -0.06988661 0.011002719
-0.057405267 -0.069098927 0.011196315
-0.056398202 -0.069167607 0.011794955
-0.055966124 -0.069957651 0.012362063
-0.055159569 -0.070301406 0.01263988
-0.052926604 -0.068804577 0.012953281
-0.052305076 -0.069384284 0.012957871
-0.051298447 -0.06946665 0.013041556
-0.05000522 -0.069156155 0.012957305
-0.049197044 -0.06951756 0.012565672
-0.048722144 -0.070376426 0.012801409
-0.046820249 -0.069166273 0.012338758
-0.046591673 -0.070429273 0.011970907
-0.046238899 -0.071560204 0.011691004
-0.044123035 -0.069951147 0.011196196
-0.043526951 -0.070731297 0.010934353
-0.042170849 -0.070284747 0.010422081
-0.040413693 -0.069128685 0.0097725689
-0.040121958 -0.070484519 0.0076021254
-0.03865771 -0.069798648 0.0067388713
-0.0098289819 -0.07098709 0.0052374601
-0.0086593395 -0.070357136 0.0056307316
-0.0073902369 -0.068623632 0.006536752
-0.0065647461 -0.071118079 0.0065763891
-0.0053269709 -0.069250621 0.0061664879
-0.0043546166 -0.070762515 0.0054606795
0.0075473594 -0.070082627 0.0054198205
0.0087893158 -0.071413189 0.0061884224
0.00984577 -0.071108341 0.007337153
0.010735143 -0.069778435 0.0081674457
0.011830404 -0.069906935 0.0084447861
0.012933148 -0.070054553 0.0089065135
0.013981692 -0.069908462 0.009288013
0.015210075 -0.070618205 0.010245621
0.015708659 -0.068070851 0.011456698
0.017094953 -0.069448248 0.011614293
0.018013338 -0.068874523 0.01251018
0.019123949 -0.069058701 0.012824833
0.020225244 -0.06919162 0.012917578
0.021841448 -0.070984706 0.01274547
0.022473745 -0.069561586 0.012847841
0.023724627 -0.070095487 0.012343109
0.025139621 -0.071046747 0.012063652
0.02563771 -0.069435462 0.012015134
0.026795091 -0.069667235 0.011888921
0.027786061 -0.069465153 0.011609077
0.028913358 -0.06960623 0.012008369
0.030007806 -0.069660977 0.012508214
0.030691139 -0.06879048 0.012796104
0.031952657 -0.06923075 0.012569308
0.033547424 -0.070341371 0.012957633
0.033689886 -0.068432584 0.013092011
0.034969456 -0.068879239 0.013556063
0.036947619 -0.070635155 0.013989717
0.036488034 -0.067763492 0.013995886
0.038653392 -0.069790848 0.014204711
0.039529845 -0.069444314 0.014077157
0.039694134 -0.067897856 0.014001071
0.041530658 -0.069217764 0.013425112
0.042757899 -0.069481589 0.013137221
0.043175366 -0.068448745 0.012184173
0.044501483 -0.068871342 0.011825055
0.047281384 -0.071471862 0.011290163
0.046988741 -0.069415189 0.011112243
0.048127253 -0.069517136 0.01105991
0.049326334 -0.069700256 0.010708094
0.050651502 -0.070049949 0.010181248
0.051731646 -0.070053272 0.010153681
0.052246518 -0.069306605 0.0090778172
0.05420788 -0.070470236 0.0086066425
0.05497684 -0.070068523 0.0074397027
0.05563397 -0.06954246 0.0057300925
-0.070182815 -0.070182815 0.0052246749
-0.068902411 -0.069996104 0.006321162
-0.068612561 -0.070825867 0.0068951845
-0.067098439 -0.070398368 0.0077805221
-0.066250987 -0.070667721 0.0092041492
-0.063036144 -0.068378188 0.0096764863
-0.062442236 -0.068901777 0.010491699
-0.06153626 -0.069093347 0.010815591
-0.059588663 -0.068101332 0.011404067
-0.058990289 -0.068643242 0.011290878
-0.057359751 -0.067981929 0.011773705
-0.056233309 -0.067904375 0.012029916
-0.056183401 -0.069148801 0.012593299
-0.054946315 -0.06895224 0.012669891
-0.053051662 -0.067906126 0.01295349
-0.052216958 -0.068201743 0.013278037
-0.05075581 -0.067674413 0.013320982
-0.049990881 -0.068072692 0.013218611
-0.049813304 -0.069305465 0.013278067
-0.048318282 -0.068719335 0.013151765
-0.047910362 -0.069687799 0.012720257
-0.046697315 -0.06950298 0.012237996
-0.044616885 -0.067987636 0.011808962
-0.04433177 -0.069200814 0.011599779
-0.043500748 -0.069601201 0.011429131
-0.042040017 -0.068988748 0.010755539
-0.040937424 -0.068947241 0.010519981
-0.039842535 -0.068916813 0.0094740689
-0.038880054 -0.069120102 0.0076169968
-0.037915245 -0.06933073 0.0068385899
-0.037019156 -0.069683112 0.0066787899
-0.011748319 -0.068353862 0.005117029
-0.011026472 -0.070569426 0.00574103
-0.0097900443 -0.069618098 0.0075146854
-0.0086434782 -0.069147825 0.0088216066
-0.0075751878 -0.069258861 0.0099634826
-0.0063791303 -0.068044059 0.010519594
-0.0052887267 -0.0676957 0.0097747147
-0.0043401918 -0.069443069 0.0084693134
-0.0032743595 -0.069853 0.0077127516
-0.0022014841 -0.07044749 0.0067868233
-0.00115187 -0.07371968 0.0051863194
0.0043409145 -0.069454633 0.0051394403
0.0054865004 -0.070227206 0.0054472089
0.0064921915 -0.06925004 0.0066586733
0.0076333415 -0.06979055 0.0077115595
0.0085726855 -0.068581484 0.0087391734
0.0097337021 -0.069217436 0.0088051558
0.010962669 -0.070161082 0.0092351139
0.011877422 -0.069104999 0.0095905364
0.013058111 -0.069643259 0.010401249
0.01392303 -0.068544149 0.011456698
0.014994485 -0.068546221 0.012419343
0.016017171 -0.068339929 0.012776822
0.017057382 -0.068229526 0.012774497
0.018064378 -0.068007067 0.013268828
0.019093554 -0.067888193 0.013556778
0.020527998 -0.069146939 0.013977438
0.021159643 -0.067710862 0.013967723
0.022552 -0.068729907 0.014229804
0.023465421 -0.068263046 0.013544112
0.024557715 -0.068334505 0.013501137
0.025683809 -0.068490162 0.01330775
0.027233759 -0.069718421 0.01330775
0.028045334 -0.069034673 0.013114661
0.029263683 -0.069365762 0.013133019
0.029987587 -0.068543054 0.01330775
0.030626507 -0.067589529 0.013266951
0.032577608 -0.069498897 0.012856096
0.033419095 -0.068994254 0.01324746
0.034352254 -0.068704508 0.013184875
0.034961324 -0.067803785 0.014012337
0.035748262 -0.067290843 0.01419881
0.037060741 -0.067768209 0.014302015
0.038439609 -0.068337083 0.014225394
0.038988404 -0.0674394 0.01409784
0.040322371 -0.067911364 0.014226109
0.041969895 -0.068873674 0.013992071
0.042259239 -0.067614786 0.013700932
0.042666566 -0.06660147 0.013216943
0.045467064 -0.069283143 0.012290716
0.046118036 -0.068640798 0.011295468
0.047633819 -0.069285557 0.011202514
0.048032835 -0.06831336 0.01105991
0.049337212 -0.068643078 0.010808021
0.051309243 -0.069867909 0.010153681
0.050893571 -0.067858092 0.0091921389
0.052363407 -0.068393022 0.0085208714
0.054996733 -0.070395812 0.0078318715
0.053928737 -0.067675278 0.0062790811
-0.069772124 -0.069772124 0.0058183372
-0.068247221 -0.069347978 0.0064170659
-0.064951174 -0.067080721 0.0076472461
-0.06382367 -0.067014851 0.0090555251
-0.063225329 -0.067511797 0.0099175274
-0.063299365 -0.068756208 0.01058802
-0.061093856 -0.067524791 0.010848522
-0.060206048 -0.067731805 0.011626452
-0.059485424 -0.068137847 0.011512011
-0.057620153 -0.067223512 0.0120354
-0.057546176 -0.068403952 0.012166202
-0.055387765 -0.067104407 0.012703687
-0.054208349 -0.066963255 0.012806177
-0.053657733 -0.067608744 0.013160795
-0.052280843 -0.067218229 0.013442427
-0.051251791 -0.067267977 0.01343444
-0.050603326 -0.067829996 0.013524175
-0.048899073 -0.066970475 0.013332486
-0.048444517 -0.067822322 0.0133439
-0.047760077 -0.068383746 0.013155609
-0.045283187 -0.066345133 0.012549669
-0.045338538 -0.068007804 0.012160897
-0.044319276 -0.068100348 0.011941969
-0.042193923 -0.066455431 0.011775285
-0.041604858 -0.067207851 0.010884464
-0.041003268 -0.067979105 0.010613501
-0.03972467 -0.067639299 0.010275185
-0.039445758 -0.069030084 0.0092544854
-0.037595861 -0.067672551 0.0085808337
-0.03681707 -0.06821987 0.0077750087
-0.035989109 -0.068706483 0.0067848861
-0.034486525 -0.067895345 0.0066787899
-0.034513649 -0.070140637 0.0058777332
-0.013043655 -0.068479188 0.0059845746
-0.012141647 -0.069538526 0.006857127
-0.01091031 -0.068734951 0.008693397
-0.0095895128 -0.067126594 0.010507166
-0.0086029824 -0.067748487 0.011678785
-0.0073732375 -0.06635914 0.012349188
-0.0063595567 -0.066775344 0.013315976
-0.0053184787 -0.067012832 0.012708157
-0.0042286394 -0.066601075 0.011395812
-0.0031990127 -0.06717927 0.010375023
-0.0021682449 -0.068299711 0.0090563297
-0.0011202119 -0.070573352 0.0073513389
0 -0.070152357 0.0066566467
0.0011182242 -0.070448123 0.0065313578
0.0021816164 -0.068720914 0.0062097311
0.0032365974 -0.067968547 0.0065849423
0.0043902975 -0.069147184 0.0068182647
0.0053245015 -0.067088723 0.0075473487
0.0065008481 -0.068258904 0.0088460445
0.0076784533 -0.06910608 0.0096197128
0.0086265886 -0.067934386 0.010196835
0.0096648457 -0.067653924 0.010400623
0.010762784 -0.067805544 0.011130124
0.011936328 -0.068362609 0.011495233
0.012911441 -0.067785069 0.012385786
0.013776585 -0.066763453 0.012776822
0.014953089 -0.067288898 0.013168722
0.016125388 -0.067726634 0.013675898
0.016824191 -0.066245258 0.013761461
0.018276997 -0.067732401 0.014213383
0.019014282 -0.066549994 0.014463782
0.020259282 -0.067175515 0.014265597
0.02125565 -0.066955298 0.014206707
0.022177963 -0.066533886 0.014793158
0.022980934 -0.065809041 0.014156222
0.024798175 -0.067925438 0.013877481
0.025527768 -0.067010395 0.013407737
0.026525846 -0.066845134 0.013490736
0.028126476 -0.068152621 0.013222367
0.029114317 -0.067933403 0.013324589
0.029734988 -0.066903725 0.013360858
0.031185387 -0.067747563 0.013389379
0.031820677 -0.066823423 0.01343143
0.032921828 -0.066905655 0.01353538
0.03455954 -0.068039097 0.013338268
0.035180811 -0.067163363 0.014188677
0.036274232 -0.06721402 0.01419881
0.0372115 -0.066980705 0.014302015
0.03786473 -0.066263281 0.014225394
0.038885742 -0.066210859 0.014261037
0.040456347 -0.067072362 0.01421693
0.041139539 -0.066456184 0.014115006
0.042508017 -0.066950127 0.013502568
0.043400358 -0.066688351 0.01331687
0.044913284 -0.067369923 0.012398481
0.04682079 -0.068597905 0.01139009
0.047022346 -0.067327455 0.011159837
0.04868697 -0.068161756 0.010789841
0.049777288 -0.068173237 0.010160774
0.051075757 -0.068463251 0.0086820722
0.052965831 -0.069517657 0.008618027
0.052509386 -0.067512073 0.0075032115
0.054401979 -0.068546496 0.0063145757
0.05636315 -0.069625072 0.0052427948
-0.069910623 -0.068800934 0.0054502189
-0.067353144 -0.067353144 0.0063785315
-0.064913608 -0.065977767 0.0070032477
-0.064423271 -0.066570714 0.008389473
-0.063811816 -0.067056485 0.0098638535
-0.062302463 -0.066599183 0.010565221
-0.061259545 -0.066633195 0.010902911
-0.060292087 -0.066751957 0.011708081
-0.059405897 -0.066966645 0.011752546
-0.058019102 -0.066614524 0.0120354
-0.05641197 -0.065991364 0.01251781
-0.055480026 -0.066149265 0.012779325
-0.055103753 -0.066988878 0.013042659
-0.052960269 -0.065670736 0.013194352
-0.053115353 -0.067207187 0.013462812
-0.051647317 -0.06671112 0.013521701
-0.05031855 -0.066377662 0.01358971
-0.048906468 -0.065917417 0.013433635
-0.048982885 -0.06748753 0.013471454
-0.046673704 -0.065767497 0.01329124
-0.046109293 -0.06648317 0.013050646
-0.0452323 -0.066771492 0.012324929
-0.043805096 -0.066241853 0.012205571
-0.042399347 -0.065718994 0.011944085
-0.042032268 -0.066820532 0.011254787
-0.041025613 -0.066936523 0.010582268
-0.040312514 -0.067550696 0.010395736
-0.038879454 -0.066959068 0.0097698271
-0.037387379 -0.066229068 0.0091153979
-0.036753435 -0.067020975 0.0089896917
-0.036187056 -0.067987807 0.0084933937
-0.035754789 -0.06927491 0.0070312321
-0.03380968 -0.067619361 0.0065972209
-0.032063495 -0.066264562 0.0065661967
-0.03162773 -0.067617901 0.0064700842
-0.030820122 -0.068244562 0.0066295266
-0.029058814 -0.066727646 0.0066758692
-0.028490495 -0.067938872 0.0066758692
-0.027426019 -0.068016529 0.0063492954
-0.026148118 -0.067549311 0.0062333345
-0.02529465 -0.068185583 0.0052951276
-0.024302766 -0.068489619 0.0051328242
-0.014127888 -0.067379162 0.0061646402
-0.013198236 -0.068190888 0.007265985
-0.011988582 -0.067572013 0.0089214742
-0.010475335 -0.064947076 0.01118955
-0.0096116019 -0.066213265 0.012686551
-0.0084520364 -0.065503284 0.013440937
-0.0074241259 -0.065756544 0.013930053
-0.0063840328 -0.065968342 0.014530957
-0.0053313519 -0.066108771 0.014518529
-0.0042126584 -0.065296203 0.013758272
-0.0032259012 -0.06666863 0.013306677
-0.0021600337 -0.06696105 0.01167044
-0.0010852689 -0.067286678 0.010073125
0 -0.070141092 0.0087869763
0.0011191929 -0.069389969 0.0082940757
0.0022069123 -0.068414286 0.0074466169
0.0032996526 -0.068192825 0.0084879696
0.0043493123 -0.067414343 0.0086377859
0.0053397873 -0.066213369 0.0093979239
0.006508749 -0.067257077 0.0098202825
0.0074675642 -0.066141285 0.010378361
0.0086443359 -0.066993602 0.011536032
0.0097872652 -0.067423388 0.01228261
0.010639784 -0.065966666 0.012624711
0.011982619 -0.067538403 0.013178289
0.012803611 -0.066151999 0.013366997
0.013813935 -0.065881848 0.013456881
0.015014429 -0.066492476 0.014030814
0.01591295 -0.065773532 0.01427412
0.017063729 -0.066121951 0.014375061
0.018138623 -0.066152632 0.014921397
0.018874157 -0.065010995 0.014820397
0.020249838 -0.066078417 0.014494151
0.021374473 -0.066260874 0.014475137
0.022134587 -0.065349735 0.014690161
0.023507234 -0.066247664 0.014551669
0.024529489 -0.066122971 0.014478624
0.025687607 -0.066359654 0.014189154
0.027033595 -0.067043319 0.014015973
0.027982378 -0.066727214 0.013554037
0.028570199 -0.06560564 0.013495713
0.030439733 -0.067402266 0.013648003
0.031110071 -0.066511184 0.013526976
0.031850774 -0.065824933 0.01343143
0.03344091 -0.066881821 0.01353538
0.033871036 -0.065625139 0.013297141
0.035055406 -0.06586168 0.01390183
0.035971534 -0.065595157 0.014274329
0.036607862 -0.064848214 0.014377534
0.038648259 -0.066560894 0.014395744
0.039249029 -0.065768644 0.014274389
0.040453404 -0.066002928 0.014302015
0.041957416 -0.066701539 0.014158279
0.04237536 -0.065681815 0.013570696
0.043692034 -0.066070877 0.013430506
0.045166854 -0.066674881 0.012563288
0.046191741 -0.066602051 0.011514366
0.046096474 -0.064954132 0.01105991
0.04989377 -0.068742529 0.010293484
0.05006868 -0.067483872 0.0095674992
0.050996516 -0.067272 0.0084986091
0.053020213 -0.068484448 0.0077690482
0.052948274 -0.066995777 0.0067447722
0.055268608 -0.068533078 0.0051773787
-0.065985158 -0.06492088 0.0061175823
-0.065435573 -0.065435573 0.0068099201
-0.064797543 -0.065877505 0.0083767772
-0.063965492 -0.066133812 0.0094991028
-0.06278567 -0.066033207 0.0099806488
-0.061707392 -0.066037737 0.010771573
-0.060638651 -0.066052817 0.01119405
-0.059220839 -0.065681294 0.011498183
-0.057911448 -0.065418489 0.011935174
-0.056616526 -0.065162413 0.012108356
-0.054916039 -0.064420737 0.012665123
-0.054974668 -0.065754011 0.012911081
-0.053957976 -0.065828733 0.012716532
-0.052915093 -0.065873891 0.013230443
-0.051476818 -0.065418459 0.013374656
-0.050480723 -0.06551753 0.01343444
-0.04971531 -0.06592682 0.013239533
-0.048197672 -0.065334618 0.013287693
-0.047632333 -0.066035733 0.013268232
-0.046144459 -0.065460742 0.013033032
-0.044453368 -0.064563222 0.012332052
-0.04363697 -0.064923294 0.012064189
-0.043185342 -0.065857649 0.011965662
-0.042059612 -0.065785542 0.011495262
-0.041136667 -0.066035174 0.011064619
-0.039798915 -0.065614425 0.010582268
-0.038455158 -0.065160133 0.010246754
-0.037481185 -0.065324351 0.010104716
-0.037341025 -0.06699419 0.0098509192
-0.03676362 -0.067956999 0.0090683401
-0.035372015 -0.067427903 0.0086101294
-0.033037901 -0.065010063 0.0078089833
-0.032831099 -0.066756569 0.0078089833
-0.031430315 -0.066112034 0.0079807937
-0.030109303 -0.065595269 0.0080147684
-0.029326258 -0.066255622 0.0078004003
-0.028254034 -0.066288307 0.007951498
-0.027139975 -0.066221535 0.0075432658
-0.026344199 -0.066958174 0.0079163611
-0.024862569 -0.065939851 0.0075959563
-0.024058947 -0.0667089 0.0073923767
-0.022417199 -0.065116622 0.0068331063
-0.021630526 -0.065973103 0.006267786
-0.020552587 -0.065984622 0.0051731467
-0.019699611 -0.066759795 0.0051161945
-0.018480217 -0.066311367 0.0051095486
-0.017477775 -0.066634014 0.0055719912
-0.01688844 -0.068679653 0.0060406327
-0.015289105 -0.066616811 0.0070046484
-0.014336824 -0.06727279 0.0074647069
-0.013169207 -0.066943467 0.0080760121
-0.01172729 -0.06503316 0.009627074
-0.010634135 -0.064868227 0.012708157
-0.0095143281 -0.064486004 0.013894379
-0.0084523167 -0.064448915 0.014382333
-0.007460664 -0.065014355 0.014580429
-0.0063911309 -0.064976498 0.014906108
-0.0052757924 -0.064364672 0.01480031
-0.0042880177 -0.065392271 0.014785171
-0.0031876918 -0.0648164 0.014528573
-0.0021065946 -0.064251132 0.013805807
-0.0010878466 -0.066358641 0.012097836
0 -0.065612413 0.010921776
0.0011238932 -0.068557478 0.010240734
0.0022882724 -0.069792308 0.010202318
0.003360928 -0.068338871 0.0097202361
0.0044577545 -0.067980751 0.010120243
0.0055177929 -0.067317076 0.010515511
0.0063998103 -0.065064736 0.011247039
0.0075205718 -0.06553641 0.011602819
0.0086639747 -0.066062801 0.012776047
0.0095978538 -0.065052122 0.013316751
0.010819737 -0.066000395 0.013424873
0.011804841 -0.065463208 0.014050037
0.01268044 -0.064458907 0.013963193
0.01404155 -0.065887272 0.014124095
0.014871624 -0.064797789 0.014690757
0.015902655 -0.064670794 0.014815032
0.017451756 -0.066534817 0.014976084
0.017782986 -0.063809544 0.015084654
0.018712137 -0.063413352 0.014741063
0.019966841 -0.064104065 0.014753371
0.021036902 -0.064162552 0.014753371
0.022298368 -0.064771444 0.014947444
0.023308141 -0.064627118 0.015105844
0.024386412 -0.064677 0.01514259
0.025398282 -0.064553969 0.014563113
0.02681208 -0.06542147 0.014349014
0.02819773 -0.066156216 0.014072061
0.029248312 -0.06607952 0.013994217
0.029977968 -0.065309145 0.013879657
0.030929897 -0.065059438 0.013645172
0.0320899 -0.065249458 0.013426214
0.032624278 -0.064196154 0.013636172
0.0340029 -0.064818032 0.013492465
0.035274681 -0.06520471 0.013795584
0.035799105 -0.064227805 0.014252931
0.036951508 -0.064401202 0.014096409
0.038364377 -0.065006308 0.014140368
0.038963806 -0.064237617 0.01409784
0.0402769 -0.064655021 0.013609439
0.041940268 -0.065598883 0.013355762
0.04256868 -0.064917237 0.013197064
0.044232007 -0.065808594 0.012958974
0.04442063 -0.064515673 0.012058854
0.046201166 -0.065541185 0.011174738
0.04722628 -0.065472797 0.010570884
0.048701808 -0.066018 0.0099290013
0.049916431 -0.066193521 0.0085102618
0.051676746 -0.067069821 0.0083089471
0.052827235 -0.067134611 0.0067766905
0.053850476 -0.06703835 0.0054052174
-0.065839007 -0.063715167 0.0056627989
-0.066830456 -0.065734878 0.0065187812
-0.065032147 -0.065032147 0.0083662868
-0.06400273 -0.06508752 0.0093845129
-0.062735721 -0.06489902 0.0099554658
-0.060296886 -0.063470408 0.010535061
-0.060613822 -0.064943381 0.010706574
-0.059186473 -0.064567059 0.011096388
-0.058300436 -0.064778261 0.011418343
-0.056789208 -0.064289674 0.011709601
-0.054970227 -0.063427188 0.011981696
-0.055003829 -0.064710386 0.012423754
-0.05442946 -0.065315351 0.012435526
-0.052652776 -0.064472795 0.013004899
-0.051294383 -0.064117976 0.013306916
-0.05096646 -0.065063566 0.013349146
-0.048752293 -0.063589945 0.013210624
-0.049005471 -0.065340623 0.013218611
-0.04739916 -0.064635217 0.013325959
-0.045970529 -0.064144924 0.013009369
-0.044983517 -0.064262167 0.012070954
-0.044213757 -0.064703055 0.011965662
-0.042802699 -0.064204052 0.011887312
-0.04202586 -0.06465517 0.011468619
-0.040606491 -0.064115509 0.011064619
-0.039960153 -0.064800248 0.010630935
-0.038698472 -0.064497456 0.01025781
-0.037633721 -0.06451495 0.0097599328
-0.037583552 -0.066323914 0.010242641
-0.036420126 -0.066218406 0.0094275475
-0.034540541 -0.064763516 0.0092533231
-0.03361107 -0.065053679 0.0089643598
-0.032664571 -0.065329142 0.0090707839
-0.031150585 -0.064449489 0.0092004538
-0.030017635 -0.0643235 0.0091888905
-0.029190848 -0.064868547 0.0090722442
-0.028014103 -0.064647928 0.0090857148
-0.026868597 -0.064484634 0.0090857148
-0.026012961 -0.065032408 0.0092301667
-0.025019892 -0.065269276 0.0089706779
-0.023971118 -0.065375775 0.0085244179
-0.023126062 -0.066074461 0.0081556737
-0.021381935 -0.064145811 0.0071728528
-0.020584203 -0.065002747 0.0067918301
-0.019576758 -0.065255865 0.0067906082
-0.018528007 -0.065392964 0.0067145526
-0.017976863 -0.067413241 0.0071081519
-0.01661266 -0.066450641 0.0077645481
-0.015391778 -0.065964766 0.0081686378
-0.01422146 -0.065637507 0.0086221695
-0.012995417 -0.064977087 0.0093010664
-0.011819811 -0.064471692 0.011409879
-0.010686291 -0.064117752 0.014077574
-0.0093670087 -0.062446725 0.014717251
-0.0085480446 -0.064110331 0.014787883
-0.0073904083 -0.063346356 0.015034914
-0.0063562319 -0.063562319 0.015447587
-0.0053657759 -0.064389311 0.015474468
-0.0042744079 -0.06411612 0.014824361
-0.0032116633 -0.064233266 0.014962822
-0.0021349909 -0.064049728 0.013996214
-0.0010640079 -0.063840471 0.013062418
0 -0.065229997 0.011972666
0.0010894547 -0.065367289 0.010763407
0.002186005 -0.065580152 0.010691196
0.0033234584 -0.06646917 0.010679543
0.0044567492 -0.066851243 0.010809302
0.0054501905 -0.065402284 0.011165738
0.0066496241 -0.066496238 0.011501431
0.0076681129 -0.065726683 0.01240012
0.0086666932 -0.065000199 0.013316751
0.009662169 -0.064414464 0.013881803
0.010644094 -0.063864566 0.014284909
0.011841028 -0.064587429 0.014526755
0.0128334 -0.064167 0.014722735
0.013910406 -0.064201877 0.015010059
0.014842523 -0.063610815 0.015333086
0.016186927 -0.064747706 0.01537627
0.01676793 -0.062879734 0.015292227
0.017943183 -0.063328877 0.01571098
0.019163623 -0.063878745 0.015631109
0.020132143 -0.063575186 0.015516937
0.021416867 -0.064250603 0.015497476
0.022321766 -0.063776471 0.016022801
0.023238579 -0.063377947 0.015672326
0.024175232 -0.063065819 0.015795469
0.025417751 -0.063544378 0.015415668
0.026862578 -0.064470187 0.015018553
0.027923357 -0.064438514 0.014622808
0.028999157 -0.064442568 0.014622808
0.029785188 -0.063825406 0.014303595
0.030911624 -0.063955083 0.014200091
0.032011498 -0.064022996 0.01399833
0.032953128 -0.063780241 0.01399833
0.034609791 -0.064893357 0.013691425
0.034881052 -0.063420095 0.014291734
0.036786772 -0.064917833 0.014297098
0.037429761 -0.064165309 0.014160663
0.03807573 -0.063459553 0.014081627
0.039409131 -0.063906699 0.014032573
0.040709157 -0.064277612 0.013723195
0.041009918 -0.06309218 0.013329566
0.043045133 -0.0645677 0.013179302
0.043613583 -0.06382475 0.012786329
0.044540156 -0.063628793 0.012340575
0.045679167 -0.063738376 0.011472523
0.046803042 -0.063822329 0.010582507
0.047694772 -0.06359303 0.0099039376
0.049540531 -0.064618081 0.0091391206
0.050789103 -0.06483715 0.0081949234
0.052763142 -0.065953925 0.0062481761
-0.067803241 -0.064522438 0.0050962269
-0.066366673 -0.064190723 0.0062550902
-0.065105423 -0.064020336 0.0067858994
-0.064296715 -0.064296715 0.0089340508
-0.06261263 -0.06369216 0.0095092356
-0.061533883 -0.063692972 0.0098846555
-0.060073309 -0.06329152 0.010603338
-0.059138577 -0.06343957 0.010874003
-0.058134008 -0.063516788 0.011095047
-0.055953629 -0.062288009 0.011578619
-0.055067685 -0.062480643 0.01179871
-0.054648105 -0.063220359 0.012232155
-0.053425245 -0.063041784 0.012389719
-0.052627645 -0.063367985 0.012546808
-0.051729709 -0.063584432 0.013054729
-0.050210305 -0.06302996 0.01305607
-0.049384635 -0.063341163 0.013084501
-0.048394483 -0.063450538 0.013047129
-0.046870008 -0.062848426 0.013149351
-0.045765247 -0.062794179 0.012922078
-0.045037515 -0.063266985 0.012246668
-0.043801539 -0.06303148 0.012010068
-0.043291159 -0.063854463 0.011942327
-0.041959051 -0.063476518 0.011580408
-0.040381506 -0.062697604 0.011468619
-0.039934564 -0.063679442 0.011007816
-0.038729742 -0.063473754 0.010610044
-0.038448721 -0.064813562 0.010547042
-0.037345748 -0.064805858 0.010639936
-0.035846006 -0.064088315 0.010592908
-0.034260534 -0.063167863 0.010360926
-0.033718321 -0.064173579 0.010476619
-0.032075416 -0.063081652 0.010254413
-0.031360779 -0.063802965 0.010589421
-0.030427851 -0.06411583 0.010750145
-0.028674889 -0.062659942 0.010284126
-0.027994517 -0.063526019 0.010558903
-0.027099602 -0.063955061 0.010642201
-0.025730461 -0.063254051 0.010559916
-0.024839196 -0.063717939 0.0099080801
-0.023967888 -0.064277522 0.0090857148
-0.022705594 -0.063791908 0.008978188
-0.021799391 -0.064308211 0.008513242
-0.020510392 -0.063690163 0.0082538724
-0.019439597 -0.063718684 0.008048594
-0.018432278 -0.063970849 0.007964313
-0.017299626 -0.06379237 0.0084468722
-0.016651249 -0.06549491 0.0085909069
-0.015574615 -0.065635882 0.0088157058
-0.013909193 -0.063126341 0.0097083151
-0.012893056 -0.063390858 0.010902613
-0.011865234 -0.063640803 0.013531864
-0.010482128 -0.061844558 0.014766723
-0.0095218495 -0.062421016 0.014994562
-0.0085608037 -0.063135929 0.015675068
-0.0074028075 -0.062395092 0.015907258
-0.0063632489 -0.06257195 0.015769631
-0.0053396798 -0.063008226 0.015905827
-0.0042602802 -0.062839136 0.015658975
-0.0032403385 -0.063726656 0.0152812
-0.0021418 -0.063183099 0.014613003
-0.0010710305 -0.063190795 0.013180882
0 -0.063678585 0.012138397
0.0010768818 -0.063536026 0.011549115
0.0021658083 -0.063891344 0.011494756
0.0032186226 -0.063299581 0.010864109
0.0042984025 -0.063401438 0.011203557
0.005390347 -0.063606098 0.012088805
0.0063505825 -0.062447395 0.012225062
0.0073525659 -0.061971631 0.012982249
0.0086442744 -0.063751519 0.014050037
0.009468657 -0.062072311 0.014852971
0.010648568 -0.062826551 0.015277177
0.011673538 -0.062612616 0.015416712
0.012861944 -0.063237891 0.015594274
0.01394368 -0.063282855 0.015743285
0.015171176 -0.063935675 0.015959054
0.016234402 -0.063855313 0.015909821
0.017137606 -0.063194916 0.016099364
0.018237608 -0.063295223 0.01600337
0.018978585 -0.062207583 0.016323954
0.020252794 -0.062890254 0.016290426
0.021120986 -0.062306911 0.016290426
0.022028778 -0.061890375 0.016392797
0.023122445 -0.062010195 0.016287059
0.024587091 -0.063071236 0.016580671
0.025392283 -0.062422697 0.015601397
0.026581815 -0.062733084 0.015466869
0.027717482 -0.062897369 0.015018553
0.028767522 -0.062862359 0.014800966
0.030412685 -0.064083874 0.014606774
0.031072874 -0.063217223 0.01426661
0.032250475 -0.063425936 0.01399833
0.033199981 -0.063187063 0.014109343
0.033812169 -0.062341187 0.013902128
0.035401575 -0.063293733 0.014365554
0.036571164 -0.063461721 0.014114231
0.037176143 -0.062668361 0.014071286
0.03867567 -0.063385129 0.014196515
0.039350007 -0.062747307 0.014099211
0.040523004 -0.0629173 0.013457119
0.041504759 -0.062789254 0.01305306
0.043156687 -0.063656121 0.01295051
0.043720335 -0.062914625 0.012141615
0.045549076 -0.063985609 0.01157853
0.046193417 -0.063381664 0.010925412
0.04704152 -0.063078403 0.010104269
0.047309935 -0.062028576 0.009124428
0.048744991 -0.06252075 0.0081400871
0.050990392 -0.064009219 0.0066644847
0.052736066 -0.064821422 0.0057192147
-0.066648327 -0.063370548 0.006131947
-0.064863205 -0.062701099 0.0067224205
-0.063096769 -0.062027331 0.0086720586
-0.063268594 -0.063268594 0.0094055533
-0.061957389 -0.063044362 0.0098576844
-0.059923697 -0.062063832 0.010462105
-0.059527695 -0.062774658 0.010323048
-0.05840316 -0.062729321 0.010918081
-0.057406664 -0.062822394 0.011424094
-0.056300864 -0.062797122 0.011516303
-0.054560494 -0.062049191 0.011935174
-0.053267416 -0.061790202 0.012255609
-0.052117843 -0.061690513 0.012647718
-0.050824676 -0.06141315 0.012995571
-0.050368898 -0.062157366 0.013129294
-0.049854405 -0.0628599 0.012912393
-0.04805265 -0.061934523 0.013024479
-0.046949942 -0.061888561 0.013050288
-0.045946587 -0.06197447 0.012914151
-0.044914819 -0.062025227 0.01237309
-0.044245359 -0.062590994 0.012069643
-0.043361753 -0.062874548 0.01204747
-0.041442174 -0.061631951 0.011749476
-0.040891252 -0.062412966 0.011600822
-0.039517395 -0.061946183 0.011162728
-0.03947055 -0.06359145 0.010890543
-0.038352966 -0.063556351 0.010969996
-0.037780192 -0.064448565 0.011016101
-0.035630506 -0.062623315 0.010864496
-0.034517203 -0.062562428 0.010896534
-0.033146515 -0.062016062 0.011396289
-0.032018233 -0.06190192 0.011580139
-0.031225329 -0.062450659 0.011730224
-0.030020665 -0.062185667 0.011738837
-0.029221587 -0.062772296 0.011851937
-0.028237792 -0.062991999 0.011461586
-0.027021935 -0.062690891 0.010910362
-0.025898669 -0.062588453 0.010713011
-0.024759376 -0.062436689 0.010659367
-0.023930049 -0.063088313 0.010011971
-0.022861768 -0.063142024 0.0095546246
-0.021869861 -0.063422598 0.0089959502
-0.020471906 -0.06249319 0.0087204874
-0.019478012 -0.062762491 0.0087843239
-0.018445017 -0.062930055 0.0087843239
-0.017494904 -0.063419029 0.0090420246
-0.016661724 -0.064425334 0.0092443824
-0.015146205 -0.062748566 0.010077655
-0.014101562 -0.062914662 0.010600835
-0.013137251 -0.063496716 0.01242128
-0.011758666 -0.062000245 0.015046209
-0.010674095 -0.061909754 0.016067564
-0.0095643504 -0.061636928 0.01649335
-0.0084403064 -0.061192222 0.016140908
-0.0073412601 -0.060827587 0.016257614
-0.0063307718 -0.061197463 0.015957803
-0.0052779326 -0.061224025 0.015736848
-0.0043223877 -0.062674627 0.015873224
-0.0031880951 -0.061636508 0.015267938
-0.0021179465 -0.061420448 0.014606953
-0.0010658622 -0.061820012 0.013352692
0 -0.061316207 0.012671739
0.0010607933 -0.061526015 0.012029409
0.002132067 -0.061829943 0.01190424
0.0031517083 -0.060933031 0.011519641
0.0042736321 -0.061967667 0.012039036
0.0053044823 -0.061531998 0.012447178
0.0062417132 -0.060336564 0.012871802
0.0073682903 -0.061051551 0.013445109
0.0084267911 -0.061094239 0.014768988
0.009500823 -0.06122753 0.015500695
0.010649362 -0.0617663 0.015995383
0.011766629 -0.062042229 0.015994459
0.012820943 -0.061967898 0.015840024
0.013862419 -0.06184772 0.015867323
0.014979875 -0.062059484 0.015909821
0.015968842 -0.061746195 0.016052872
0.017009629 -0.06165991 0.016046286
0.018119084 -0.061818048 0.016413331
0.018921344 -0.060968779 0.016392797
0.020253159 -0.061825432 0.016355753
0.021011604 -0.060933653 0.016353905
0.022313794 -0.061628573 0.016353905
0.023390522 -0.061665922 0.016435146
0.023829585 -0.060091995 0.016554832
0.025498206 -0.061620668 0.016268492
0.026657548 -0.061845511 0.016027808
0.027379777 -0.061077967 0.015364408
0.028919209 -0.062122747 0.01518169
0.030032463 -0.062210105 0.014798969
0.030905902 -0.061811805 0.014579177
0.032372087 -0.062586039 0.014334619
0.033226717 -0.062166117 0.014159739
0.034163002 -0.061920442 0.013766736
0.035521343 -0.062431458 0.013840526
0.036126196 -0.061627045 0.01379174
0.037456587 -0.062070917 0.013691425
0.038840875 -0.062576964 0.013710529
0.039257251 -0.061538395 0.013550937
0.040829614 -0.062318884 0.012913883
0.04168814 -0.061997753 0.012832016
0.043085515 -0.062474001 0.012782276
0.044348743 -0.062737241 0.011918485
0.044377867 -0.061283723 0.011396468
0.046083339 -0.062158924 0.011374503
0.047612473 -0.062761903 0.010193557
0.049056612 -0.063228525 0.0088330209
0.049151104 -0.061973128 0.0075538754
0.051270403 -0.063269861 0.0060447454
-0.06744682 -0.063024081 0.0055990517
-0.06623622 -0.062924407 0.0063551962
-0.064665653 -0.062473595 0.0080168843
-0.063182995 -0.062093627 0.0091336668
-0.061730061 -0.061730061 0.0094782114
-0.061531577 -0.062630355 0.0097766221
-0.059620652 -0.061788674 0.0098286271
-0.058265049 -0.061501991 0.010016084
-0.056757204 -0.061040767 0.010623008
-0.05572883 -0.06108737 0.010954082
-0.054435853 -0.060840067 0.011309087
-0.053175058 -0.060619563 0.011740416
-0.052705601 -0.061310597 0.012292087
-0.051184725 -0.060781863 0.012701392
-0.051155765 -0.062039968 0.013010383
-0.04895575 -0.060662556 0.012895107
-0.048647113 -0.061619669 0.013231069
-0.047998711 -0.06218015 0.0131194
-0.046045184 -0.061036639 0.012863189
-0.045003597 -0.061076306 0.012373328
-0.044337116 -0.061639398 0.01215595
-0.042917922 -0.061158042 0.012149185
-0.041566774 -0.060751438 0.011869788
-0.040896393 -0.06134459 0.011838406
-0.040051665 -0.061701208 0.0115363
-0.039412912 -0.062403779 0.011207581
-0.038185347 -0.062187567 0.011282057
-0.036834203 -0.061751455 0.011224151
-0.035474204 -0.061273627 0.011331081
-0.034038235 -0.060630601 0.011331081
-0.033025645 -0.060724568 0.01200223
-0.03267058 -0.062074099 0.012361526
-0.030969113 -0.060870323 0.012214392
-0.030329641 -0.061742485 0.01229623
-0.029462758 -0.062199153 0.012022316
-0.027878055 -0.061117277 0.011681259
-0.027038945 -0.061648794 0.01115194
-0.026029242 -0.061819449 0.010819048
-0.024949657 -0.061831757 0.010178089
-0.023690473 -0.061379861 0.010038674
-0.02254824 -0.061202366 0.0097490549
-0.021428971 -0.061072566 0.0092421472
-0.020379426 -0.061138276 0.0088931322
-0.019419728 -0.061495811 0.0088931322
-0.018446375 -0.061849605 0.0092014074
-0.017585983 -0.062650062 0.0097465515
-0.016585242 -0.063023917 0.0098843277
-0.015491068 -0.063070774 0.010280639
-0.014011616 -0.061435547 0.011025399
-0.012724085 -0.0604394 0.013545692
-0.011802631 -0.061159089 0.015589237
-0.010768976 -0.061383165 0.016529828
-0.0092331311 -0.0584765 0.016660422
-0.0084775584 -0.060402602 0.016513675
-0.0074194716 -0.060415696 0.016615808
-0.0063083745 -0.059929557 0.016209424
-0.0053003137 -0.060423575 0.015856564
-0.0042915558 -0.061154667 0.015934348
-0.0031953747 -0.060712121 0.015516639
-0.0021371641 -0.060909174 0.014631897
-0.0010598992 -0.060414255 0.013627261
0 -0.060307771 0.01280418
0.0010681693 -0.060885649 0.012290269
0.0021081888 -0.060083382 0.012227446
0.0031836038 -0.060488474 0.012046158
0.0042485772 -0.060542226 0.012449175
0.0052991062 -0.060409814 0.012863547
0.0063391575 -0.060221992 0.013282299
0.0073903194 -0.060178317 0.014627159
0.0084418291 -0.060148031 0.014988035
0.0096117118 -0.060874179 0.015733272
0.010558968 -0.060186118 0.016391337
0.011582257 -0.06001715 0.016118854
0.012974613 -0.061629411 0.0158948
0.013918279 -0.061026298 0.016071945
0.014844094 -0.060436666 0.016298443
0.016279398 -0.061861709 0.016136557
0.017016577 -0.060621552 0.016145825
0.018174667 -0.060938589 0.016386241
0.019434925 -0.061543934 0.016475916
0.019974999 -0.059924994 0.016524613
0.021211918 -0.060453966 0.016440153
0.022176044 -0.060192116 0.016454816
0.023039365 -0.059692904 0.016440153
0.024558757 -0.060863003 0.016552031
0.025401579 -0.060328752 0.016294032
0.026382215 -0.06015145 0.016049594
0.027633717 -0.060581613 0.015583962
0.028864298 -0.060935736 0.015005797
0.030135728 -0.061347734 0.014632672
0.031349767 -0.061618503 0.014366329
0.032316603 -0.061401546 0.014200091
0.033251412 -0.061139692 0.014149696
0.034092151 -0.060726643 0.013597041
0.035116825 -0.060656331 0.01369828
0.036482427 -0.061161716 0.013291836
0.037728582 -0.06144369 0.013143301
0.038094673 -0.06031657 0.013071179
0.039575681 -0.060967933 0.012867361
0.040784486 -0.061176728 0.011801243
0.041426171 -0.06054594 0.011670738
0.043453768 -0.061921619 0.011670738
0.043605793 -0.060622685 0.011011124
0.04510447 -0.061213203 0.010704815
0.046140686 -0.061163235 0.01040861
0.046881787 -0.060733225 0.0093737543
0.04820165 -0.061055422 0.0081774592
0.049066111 -0.060799308 0.0070677996
0.05005667 -0.060707025 0.005392164
-0.065129742 -0.060787756 0.0057831407
-0.064669952 -0.061381649 0.0066613257
-0.061890487 -0.059756331 0.0084716082
-0.061706711 -0.060624138 0.0087402463
-0.060460504 -0.060460504 0.0093035102
-0.059565235 -0.060648236 0.0090862513
-0.058821406 -0.060999975 0.0095789433
-0.057077985 -0.060308814 0.009945631
-0.056190059 -0.060512371 0.01036942
-0.054821059 -0.060195673 0.010951608
-0.053480852 -0.059898555 0.011622906
-0.052447464 -0.059939962 0.011895537
-0.051642582 -0.060249683 0.012421131
-0.050510745 -0.060183015 0.012933016
-0.049880505 -0.060724091 0.012891114
-0.048628647 -0.060515646 0.012951225
-0.0470616 -0.059896581 0.013015598
-0.046283003 -0.060275536 0.012679577
-0.044981174 -0.059974898 0.012416363
-0.043391667 -0.059266664 0.01210779
-0.042906202 -0.060068682 0.012058109
-0.041838896 -0.060076363 0.012043655
-0.040908147 -0.060285687 0.011886358
-0.040370245 -0.061100908 0.011751503
-0.039437279 -0.061346877 0.01146397
-0.037688907 -0.06030225 0.0114474
-0.036822315 -0.060648523 0.011768073
-0.035440728 -0.060141839 0.012116998
-0.0342368 -0.059914403 0.012163818
-0.033188201 -0.059952877 0.012475103
-0.031991698 -0.059717838 0.012913525
-0.031007729 -0.059876993 0.012865961
-0.030461542 -0.060923085 0.012505621
-0.02911339 -0.060383324 0.012434125
-0.027967576 -0.060237855 0.012029082
-0.027104026 -0.060713015 0.011560172
-0.025879085 -0.060384531 0.010911882
-0.02480574 -0.060396578 0.01055789
-0.023630997 -0.060151629 0.010061026
-0.022671271 -0.060456723 0.0099706948
-0.021625753 -0.060552109 0.009706378
-0.020521706 -0.060485024 0.0092187226
-0.019318936 -0.060103361 0.0096188486
-0.018339926 -0.060413875 0.0095648468
-0.017453041 -0.061085641 0.0099598467
-0.016470589 -0.061490197 0.010023654
-0.015200709 -0.060802836 0.010507703
-0.014027447 -0.060425926 0.011804938
-0.01274225 -0.059463833 0.014190763
-0.011798083 -0.060062967 0.016426444
-0.010597636 -0.059346762 0.017184585
-0.0094840927 -0.059012134 0.017199129
-0.0083534643 -0.058474246 0.01723215
-0.007364138 -0.058913104 0.017073184
-0.0063884486 -0.059625521 0.01656574
-0.0053480393 -0.059898041 0.016269356
-0.0043164701 -0.060430583 0.016263306
-0.0032185821 -0.0600802 0.015644193
-0.0021380249 -0.059864696 0.014987856
-0.0010690826 -0.05986863 0.014102638
0 -0.059862051 0.013039827
0.0010595417 -0.059334334 0.012463093
0.0021267931 -0.059550211 0.012428999
0.0032385089 -0.060452171 0.012287676
0.0042705787 -0.0597881 0.01269275
0.0053492468 -0.059911568 0.013082087
0.0064185178 -0.059906166 0.013460815
0.0074803648 -0.059842918 0.014709324
0.0086316718 -0.060421702 0.014999598
0.0095661376 -0.059522636 0.015639246
0.010830053 -0.060648296 0.016119659
0.011705786 -0.059593096 0.016114205
0.012857417 -0.06000128 0.015959054
0.013999986 -0.060307633 0.016342223
0.014871196 -0.059484784 0.016277552
0.016163735 -0.060344607 0.016106546
0.017034044 -0.059619155 0.016165793
0.017984021 -0.059241477 0.016511142
0.019163657 -0.059620265 0.016490579
0.020192781 -0.059515562 0.016584396
0.021654705 -0.060633175 0.016475916
0.022449648 -0.059865728 0.016492128
0.023240995 -0.059158899 0.016449094
0.024776619 -0.060325678 0.017007679
0.025468212 -0.059425827 0.016358376
0.026554048 -0.059481062 0.015888155
0.027771724 -0.059816021 0.015583962
0.028731091 -0.059590407 0.015005797
0.029995993 -0.059991986 0.014632672
0.031208603 -0.060264885 0.01466462
0.032365672 -0.06041592 0.014209598
0.03324233 -0.060050659 0.014067799
0.033849608 -0.059236813 0.01393953
0.035601605 -0.060414847 0.013886452
0.036832545 -0.060665369 0.013625056
0.03732042 -0.059712674 0.012548238
0.038458545 -0.059824407 0.012352407
0.040345766 -0.06106386 0.011890739
0.040407818 -0.059548363 0.011627257
0.042326484 -0.060776491 0.01131326
0.04286053 -0.060004745 0.01131326
0.043788239 -0.059808325 0.010748744
0.045795988 -0.061061315 0.010730535
0.046102256 -0.06004015 0.0098911524
0.047312532 -0.06021595 0.0084933937
0.048499011 -0.060354322 0.0070582628
0.050001942 -0.060871929 0.0058197975
-0.06409198 -0.059746761 0.0059951544
-0.063260183 -0.059988104 0.0068036914
-0.062392138 -0.060202945 0.0079858601
-0.06052091 -0.059440181 0.0086410344
-0.06034559 -0.06034559 0.008975178
-0.057693288 -0.058761679 0.0092210174
-0.057084385 -0.059238516 0.0098846555
-0.056046873 -0.059280347 0.010246903
-0.054952517 -0.059262522 0.010975361
-0.053399868 -0.058739856 0.011375397
-0.052491505 -0.058919039 0.011706263
-0.050698239 -0.058091734 0.012324601
-0.050930977 -0.059600081 0.012780309
-0.05009605 -0.059897453 0.012973219
-0.048177619 -0.058883756 0.012987256
-0.04745527 -0.05931909 0.012910873
-0.046079032 -0.058938295 0.01265052
-0.044764161 -0.058619734 0.012379169
-0.044170134 -0.059252616 0.012198746
-0.042701852 -0.058715049 0.012075037
-0.042312618 -0.05967164 0.012122363
-0.041363023 -0.059867535 0.012043655
-0.040902466 -0.060800962 0.011875004
-0.039272979 -0.060000386 0.011759013
-0.038198743 -0.060026597 0.011993289
-0.036791783 -0.059516121 0.012198746
-0.03527787 -0.058796454 0.012316495
-0.033992089 -0.058423907 0.012286425
-0.033274114 -0.05903472 0.012696743
-0.032338675 -0.059287574 0.012704879
-0.031421855 -0.059593175 0.01305604
-0.029913349 -0.058758367 0.012334973
-0.028900307 -0.058870997 0.012486011
-0.027948845 -0.059122559 0.012261569
-0.026796682 -0.0589527 0.011434764
-0.026068764 -0.05974092 0.010833353
-0.024703184 -0.05907283 0.010456413
-0.023714656 -0.059286643 0.0099231303
-0.022682767 -0.059407249 0.01006034
-0.021647576 -0.059530839 0.010020435
-0.02049428 -0.059325546 0.0096098483
-0.01960358 -0.059899833 0.0099437833
-0.018435422 -0.059644014 0.009761095
-0.017508227 -0.060184531 0.010160238
-0.01635123 -0.059954513 0.010211617
