ply
format ascii 1.0
comment PCL generated
element vertex 1260
property float x
property float y
property float z
element camera 0
property float view_px
property float view_py
property float view_pz
property float x_axisx
property float x_axisy
property float x_axisz
property float y_axisx
property float y_axisy
property float y_axisz
property float z_axisx
property float z_axisy
property float z_axisz
property float focal
property float scalex
property float scaley
property float centerx
property float centery
property int viewportx
property int viewporty
property float k1
property float k2
end_header
0.032797236 -0.083580054 0.014382482
0.034303032 -0.084685601 0.014918894
0.034907699 -0.083566919 0.014918894
0.036527857 -0.08487355 0.015172392
0.037577771 -0.084818393 0.015247762
0.038044725 -0.083487041 0.015128195
0.039335482 -0.083986565 0.015242755
0.041057255 -0.085355863 0.014960796
0.041775037 -0.084621228 0.014462113
0.042786095 -0.084502541 0.013436973
0.043161884 -0.083165571 0.01305005
0.045343332 -0.085288644 0.011795014
0.046654209 -0.08571355 0.011432022
0.046536162 -0.08355356 0.010578781
0.04835983 -0.08489836 0.0099824071
0.051357068 -0.088200182 0.0091048181
0.050699417 -0.085218169 0.009668529
0.052211244 -0.085931003 0.0086653531
0.0526172 -0.084831811 0.0088290274
0.052805424 -0.083432563 0.0077461004
0.055171352 -0.085461505 0.0071004033
0.056745119 -0.086208932 0.006318599
0.056343865 -0.083984256 0.0056481957
-0.065848805 -0.084200114 0.0053777695
-0.066280946 -0.086165234 0.0060662031
-0.064384893 -0.085119002 0.006082505
-0.063349836 -0.085194603 0.0060712993
-0.061944261 -0.084765829 0.0058423579
-0.060728423 -0.084586017 0.0058166385
-0.059846237 -0.084872842 0.006106168
-0.059049394 -0.085293569 0.0060316026
-0.05770373 -0.084922478 0.0060046613
-0.05638871 -0.084583066 0.0057097971
-0.055412054 -0.084747843 0.0050883889
-0.049407661 -0.085639946 0.0051680207
-0.047440197 -0.084098533 0.0062836111
-0.047566645 -0.086283684 0.00687325
-0.044776943 -0.083157174 0.0073499382
-0.043562941 -0.08287584 0.0079937279
-0.043520868 -0.084865689 0.0081750751
-0.041936327 -0.083872654 0.0082274675
-0.041298401 -0.084770396 0.0079218745
-0.040231634 -0.084812634 0.007635802
-0.038695689 -0.083840661 0.0075002015
-0.037403394 -0.083356135 0.0073499382
-0.036987059 -0.084852666 0.0072158873
-0.035754818 -0.084511384 0.0067078471
-0.035229862 -0.085872784 0.0068187714
-0.033757973 -0.084939413 0.0054700077
-0.0021895857 -0.085393839 0.0060051084
-0.0010804392 -0.084274255 0.0065413415
0 -0.084237158 0.0065083802
0.0010869028 -0.084778421 0.0069795251
0.0021893461 -0.085384503 0.0071858764
0.0032683499 -0.084977098 0.0064087212
0.0042899633 -0.083654277 0.0070024133
0.005457161 -0.085131712 0.0064087212
0.0066560917 -0.086529188 0.0069154799
0.0075033382 -0.083608627 0.0073367357
0.0088434042 -0.086223193 0.0075347722
0.0097781541 -0.084744006 0.0073131621
0.010796985 -0.084216483 0.0072462857
0.012208269 -0.086567722 0.0075280964
0.012918055 -0.083967358 0.0080243945
0.013632685 -0.08179611 0.0083138049
0.015402824 -0.085815735 0.0084634721
0.01617055 -0.084086858 0.0090492666
0.017214447 -0.083920427 0.0092415512
0.018303784 -0.083982065 0.0091743469
0.019034047 -0.08248087 0.0098896921
0.020957077 -0.08603432 0.010075063
0.021777745 -0.084933206 0.010489076
0.02268433 -0.084256075 0.010530114
0.024208482 -0.085830078 0.010935783
0.024605919 -0.08344616 0.011175334
0.025705099 -0.083541572 0.011664152
0.026893176 -0.08390671 0.011832386
0.02785437 -0.083563112 0.012848526
0.028814683 -0.083242409 0.013170689
0.030199625 -0.08412753 0.0135324
0.031108376 -0.083670802 0.013602048
0.031550471 -0.082031228 0.013610125
0.033284385 -0.083747797 0.014775932
0.033650894 -0.082024053 0.014927149
0.035349295 -0.083552882 0.014917314
0.036299635 -0.083275631 0.015008032
0.037342869 -0.083221257 0.015137315
0.038371615 -0.083138503 0.01499337
0.039439924 -0.083143622 0.014948398
0.040283941 -0.082688093 0.015037537
0.042052504 -0.084105007 0.014189035
0.042427305 -0.082733244 0.013456166
0.043521438 -0.082796879 0.013097972
0.045414541 -0.084341288 0.011543065
0.046317719 -0.084018193 0.011460572
0.047712479 -0.084581211 0.010654747
0.049030218 -0.084985711 0.010088265
0.049641155 -0.084174126 0.0092382729
0.050952196 -0.084558964 0.0096001029
0.051539447 -0.083751604 0.0083705783
0.052295234 -0.083245471 0.0086295605
0.055125929 -0.085996449 0.0074000955
0.055508967 -0.084896065 0.0069620311
0.056731377 -0.08509706 0.0059455037
0.058131516 -0.085552044 0.0054340959
-0.06517034 -0.083635271 0.0060876906
-0.063764043 -0.083217479 0.0057123899
-0.062704951 -0.083246231 0.0057059526
-0.062503301 -0.084434278 0.0055969059
-0.060819373 -0.083626643 0.0057059526
-0.060043391 -0.084060743 0.0055899024
-0.058913026 -0.084005609 0.0058659315
-0.058095265 -0.084402561 0.0058659315
-0.056627724 -0.083852589 0.0053394437
-0.052093931 -0.085345373 0.0050558746
-0.050351012 -0.08428321 0.0057511032
-0.047925338 -0.082005575 0.0066644549
-0.047040384 -0.082320675 0.0076373816
-0.046666846 -0.083566211 0.0081750751
-0.043771997 -0.080248661 0.0084597766
-0.044408675 -0.083401658 0.0089142323
-0.042635228 -0.082072824 0.0090050697
-0.042257924 -0.083432317 0.0091516078
-0.040914267 -0.082905225 0.0088711083
-0.039299332 -0.08178509 0.0086062551
-0.038541842 -0.082436718 0.0084630549
-0.038005363 -0.083611801 0.0074798465
-0.03649297 -0.082645841 0.0073705912
-0.035863969 -0.083682604 0.0072779953
-0.034827884 -0.0838046 0.0073697865
-0.033529341 -0.083282553 0.0071918368
-0.032727767 -0.084001265 0.0068058372
-0.031800054 -0.084434621 0.0059663653
-0.030349141 -0.083460137 0.0051481426
-0.016507486 -0.084738426 0.0051594675
-0.015171242 -0.083441831 0.0053924322
-0.014204648 -0.084135227 0.0050428808
-0.013156062 -0.084418066 0.0055130422
-0.012032247 -0.084225729 0.0054787993
-0.011120468 -0.085627608 0.0058947206
-0.0097476989 -0.083396986 0.0062449574
-0.0085841278 -0.08262223 0.0060769916
-0.0077038049 -0.084741853 0.0061849356
-0.0064935992 -0.08333452 0.0064177811
-0.0054600085 -0.084084131 0.0082471073
-0.0043963855 -0.084630415 0.0083550811
-0.0031980264 -0.082082681 0.0084158182
-0.0021690528 -0.083508529 0.0087474287
-0.0010846559 -0.083518505 0.0087737441
0 -0.08231543 0.0093882382
0.0011005232 -0.084740281 0.0090862215
0.0021819859 -0.084006459 0.0092774034
0.0032269461 -0.082824953 0.0089756846
0.0043063355 -0.082896963 0.009227246
0.0053713978 -0.082719535 0.0082212687
0.0064777932 -0.083131686 0.0082212687
0.0077712759 -0.085484035 0.0088636875
0.008883452 -0.085503221 0.0090532005
0.0097423103 -0.083350882 0.0088498592
0.01122582 -0.086438812 0.0085689723
0.011770204 -0.082391426 0.0087041855
0.013059104 -0.08379592 0.0089485645
0.014222542 -0.084241211 0.0090004802
0.015075736 -0.082916543 0.009455055
0.016111672 -0.082706586 0.010370076
0.017314373 -0.083325416 0.010457903
0.018130269 -0.082119457 0.01051417
0.019629732 -0.083971635 0.010950893
0.020821383 -0.084381394 0.010637552
0.021451788 -0.082589388 0.011250138
0.022946041 -0.084135488 0.011593789
0.02396589 -0.083880618 0.011780053
0.024228258 -0.08111199 0.012058675
0.02608861 -0.083700955 0.011972427
0.026591927 -0.08190313 0.011977285
0.027559707 -0.081619129 0.013419032
0.028803881 -0.082144402 0.013751656
0.030048074 -0.082632206 0.013973922
0.030928845 -0.082121409 0.014023542
0.031903706 -0.08188618 0.014276981
0.033131413 -0.082294151 0.014948398
0.034365628 -0.082692295 0.014998436
0.034898933 -0.081430845 0.01499337
0.036474712 -0.08260449 0.015277863
0.037821621 -0.083207563 0.015440941
0.038505342 -0.082358651 0.015256613
0.038734511 -0.080609649 0.015247196
0.04100262 -0.083084255 0.014988333
0.041867401 -0.082661279 0.014672339
0.042005964 -0.080861479 0.014167756
0.044008091 -0.082649343 0.013690203
0.044532467 -0.081642859 0.011734813
0.045540243 -0.08154881 0.011460572
0.048080254 -0.084140442 0.010325193
0.048466325 -0.082931258 0.0097587109
0.049182352 -0.082326978 0.0087285936
0.051766843 -0.084809504 0.0083304048
0.051237792 -0.082193956 0.0078585148
0.053630125 -0.084275916 0.0077594817
0.054595616 -0.084077246 0.0066985488
0.054458827 -0.082222149 0.0062705576
0.057158947 -0.084639214 0.0054960549
-0.065775812 -0.083316036 0.0051364899
-0.065143004 -0.083913021 0.0055777431
-0.063218303 -0.082837775 0.005592227
-0.061797787 -0.082397051 0.0052972138
-0.061052956 -0.082857586 0.0052972138
-0.059943259 -0.082830682 0.0051257312
-0.058622271 -0.082505412 0.0057492256
-0.058231819 -0.083502233 0.005610615
-0.056835737 -0.083067618 0.0054833293
-0.056426696 -0.084086843 0.0051560104
-0.054968257 -0.08355175 0.0051010847
-0.052834548 -0.083654702 0.0055029988
-0.051177893 -0.082755737 0.0058091879
-0.048799504 -0.080625266 0.007465452
-0.048528608 -0.081959419 0.0080095232
-0.047261 -0.081632636 0.0090443492
-0.045886349 -0.081101455 0.0089306235
-0.045716546 -0.082725175 0.0090135336
-0.044211466 -0.081952959 0.009981513
-0.043134034 -0.081954673 0.010283321
-0.041781887 -0.081421115 0.010335714
-0.041168693 -0.082337387 0.00966838
-0.040083267 -0.082333192 0.0094919205
-0.038941856 -0.082210593 0.0091205239
-0.038277619 -0.08311712 0.0084722042
-0.036603056 -0.081818596 0.0083199143
-0.036061682 -0.083051153 0.0077073574
-0.033949498 -0.080630057 0.0080372691
-0.033848394 -0.082983159 0.0078287721
-0.03265138 -0.082716838 0.0074069202
-0.031454224 -0.082431763 0.0071283877
-0.030433357 -0.082604825 0.0071472526
-0.029327093 -0.082550332 0.0070484579
-0.028377518 -0.082949668 0.006669879
-0.02750401 -0.083612189 0.0065866113
-0.026324494 -0.083360903 0.0061310828
-0.025220202 -0.083336323 0.0066121817
-0.024678323 -0.085252397 0.0058354735
-0.02295283 -0.083067387 0.0053216219
-0.021428157 -0.081426993 0.0062975585
-0.020910552 -0.083642207 0.0068435967
-0.019426558 -0.082023256 0.0064189434
-0.018267842 -0.081667997 0.0074274838
-0.017126972 -0.081353121 0.0066747367
-0.01602032 -0.081169628 0.0069900453
-0.015174042 -0.082373373 0.0070897341
-0.014194849 -0.082985274 0.0071882904
-0.012993989 -0.082295269 0.006904006
-0.011962044 -0.082646854 0.0074662864
-0.010983666 -0.083475865 0.0081565082
-0.0096842786 -0.081778355 0.0083685517
-0.0087763881 -0.083375692 0.0084158182
-0.0074428022 -0.080807567 0.0085641444
-0.0065145632 -0.082517803 0.0086501837
-0.0054319776 -0.082566068 0.0097479522
-0.0042913104 -0.081534892 0.0098338723
-0.0031960872 -0.080967546 0.010007173
-0.0021659802 -0.082307249 0.010007977
-0.0010695215 -0.081283636 0.010423809
0 -0.08352381 0.010664314
0.001092884 -0.083059192 0.010614038
0.0021489677 -0.08166077 0.010784656
0.0032758769 -0.082988888 0.010564834
0.0042879558 -0.08147116 0.010264248
0.0053190677 -0.080849834 0.0098813772
0.0065217507 -0.082608849 0.0098813772
0.0075723557 -0.082214147 0.0098509789
0.0086345635 -0.082028352 0.0099696219
0.0098039377 -0.08278881 0.0094233155
0.010954322 -0.083252855 0.0094976723
0.011922522 -0.08237379 0.009570539
0.012886208 -0.081612654 0.010269701
0.013916199 -0.081356242 0.010360152
0.014834588 -0.080530621 0.010749042
0.016249299 -0.08232978 0.01098156
0.017163366 -0.081525989 0.011282742
0.018010419 -0.080517173 0.011262327
0.019579524 -0.082669102 0.011735469
0.020411437 -0.08164575 0.011359453
0.021672269 -0.082354628 0.011642873
0.022465382 -0.081303284 0.011765927
0.023750568 -0.082047418 0.012393594
0.025035871 -0.082727231 0.012292802
0.025540873 -0.080879435 0.012615532
0.026855275 -0.081640035 0.012893796
0.02807753 -0.08207278 0.013798267
0.028608924 -0.080528826 0.013996273
0.030030077 -0.081510209 0.014031589
0.031043546 -0.081355497 0.014071018
0.031938061 -0.080909759 0.01482594
0.033322521 -0.081693918 0.015210032
0.03460307 -0.082182288 0.015183181
0.035234127 -0.081145264 0.015208215
0.036174793 -0.0808613 0.015348613
0.036911458 -0.080150597 0.015414923
0.038093336 -0.080419265 0.015434712
0.039198119 -0.080515057 0.015115112
0.040844586 -0.081689171 0.014974207
0.041156299 -0.080202021 0.014558017
0.04225409 -0.080282778 0.014078408
0.043600544 -0.080820516 0.01345095
0.045256048 -0.081891902 0.01203841
0.046375617 -0.081966214 0.011889189
0.047182381 -0.081496842 0.010838419
0.048970699 -0.082706071 0.010271937
0.050269898 -0.08305461 0.0087960362
0.050411534 -0.081516527 0.0080818832
0.053165801 -0.084179185 0.0072434247
0.053543773 -0.083047494 0.00697878
0.052908063 -0.080420256 0.0062705576
0.055532429 -0.08275421 0.0056470633
-0.059704006 -0.082922228 0.0052972138
-0.05787994 -0.081905581 0.0051586032
-0.057037424 -0.082265519 0.0053042173
-0.056291282 -0.0827813 0.0050102472
-0.054656852 -0.08198528 0.0052476525
-0.053223789 -0.081464984 0.0052003562
-0.052552611 -0.08211346 0.0063878894
-0.05051256 -0.080605149 0.0070568621
-0.049851477 -0.081279583 0.0083272159
-0.048504885 -0.080841474 0.0088874996
-0.047457941 -0.080894224 0.0096098781
-0.046701495 -0.081456095 0.0097610354
-0.044888366 -0.080157802 0.010343462
-0.043798685 -0.080119543 0.010697126
-0.043134417 -0.080877036 0.01076591
-0.042266089 -0.081280939 0.010833055
-0.040588669 -0.080109216 0.010588229
-0.039851841 -0.080780752 0.010414928
-0.03868223 -0.080587983 0.010071963
-0.037603188 -0.08057826 0.0094551742
-0.037171938 -0.081996925 0.0091092288
-0.035382155 -0.080413997 0.00859496
-0.034591973 -0.081074946 0.0087944865
-0.033445064 -0.080915481 0.0084861815
-0.032099571 -0.08024893 0.0079189539
-0.031888023 -0.082469024 0.0077813566
-0.030423723 -0.081492119 0.0077030659
-0.028977117 -0.08049199 0.007640928
-0.028466593 -0.082115173 0.0075464249
-0.027256286 -0.081768863 0.0076050758
-0.026083739 -0.081511691 0.0076494813
-0.025414696 -0.082874015 0.0081850886
-0.023978595 -0.081745215 0.0078325868
-0.022540951 -0.080503397 0.0074481964
-0.021439096 -0.080396615 0.0081398189
-0.020628873 -0.081429765 0.0089944899
-0.019323314 -0.080513813 0.0090983212
-0.018567285 -0.081914492 0.0094514191
-0.017245911 -0.080840215 0.0093557537
-0.016209083 -0.081045412 0.0095258355
-0.015135667 -0.081083938 0.0097093582
-0.013856345 -0.079940453 0.010038584
-0.013014284 -0.081339277 0.0092018843
-0.012051185 -0.082167171 0.0091665387
-0.010784365 -0.080882743 0.0094096959
-0.0098574748 -0.082145631 0.0093277693
-0.0087012928 -0.081574619 0.0094452202
-0.0076404009 -0.081861444 0.0094096959
-0.0065815318 -0.082269154 0.010125011
-0.0053574471 -0.080361716 0.010227203
-0.0042841565 -0.080327943 0.010276228
-0.0032462669 -0.081156671 0.010464281
-0.002202566 -0.082596228 0.011188656
-0.0010671323 -0.080034927 0.012221009
0 -0.081343167 0.01232481
0.0010633566 -0.079751745 0.012240708
0.0021302898 -0.079885863 0.012314588
0.0032254111 -0.080635279 0.011980951
0.0042815199 -0.080278501 0.011762559
0.0054647159 -0.081970744 0.011447519
0.0065340716 -0.081675895 0.011447519
0.0075367955 -0.080751382 0.011346698
0.0086672576 -0.081255548 0.011267722
0.0097404579 -0.081170484 0.01089412
0.010930554 -0.081979156 0.010798991
0.011835691 -0.080697894 0.01099351
0.013058134 -0.081613339 0.010943711
0.013818966 -0.079724804 0.011156797
0.015240486 -0.081645459 0.011824101
0.015961135 -0.079805672 0.012042135
0.016950797 -0.079456866 0.011864126
0.018389143 -0.081128575 0.011998266
0.019057119 -0.079404674 0.012276471
0.019850854 -0.078358635 0.012154043
0.021161349 -0.079355069 0.012236565
0.021989178 -0.078532778 0.01245442
0.023824556 -0.081220083 0.012877613
0.024233896 -0.079023577 0.012968034
0.02591718 -0.080991186 0.012892157
0.026988599 -0.080965802 0.012969345
0.027808812 -0.080217727 0.01351124
0.029267741 -0.081299283 0.01398015
0.030103967 -0.08063563 0.014031589
0.030894663 -0.079899989 0.014037728
0.031929228 -0.079823069 0.014681548
0.033183862 -0.080283538 0.014875054
0.033328209 -0.078112997 0.015043765
0.03490511 -0.079329804 0.01516974
0.03669678 -0.080948785 0.01522994
0.036890537 -0.079051159 0.015233099
0.03840284 -0.080005921 0.015212417
0.039520588 -0.080109298 0.015139282
0.040411804 -0.079760142 0.014920026
0.041233052 -0.079294331 0.01486358
0.042905387 -0.080447599 0.014055103
0.043456413 -0.079493433 0.013400465
0.045121223 -0.080573611 0.011885285
0.045225337 -0.078881405 0.011600167
0.047064688 -0.080223903 0.010811388
0.048791707 -0.081319511 0.00993222
0.049700812 -0.08103393 0.0079642236
0.051061001 -0.081480317 0.0076072812
0.051558413 -0.080560029 0.006649226
0.052964304 -0.081067815 0.0070167184
0.054790691 -0.082186036 0.0062310398
0.055487595 -0.081599407 0.0055796802
-0.059107758 -0.080999523 0.0051817298
-0.057426583 -0.080180518 0.0052966774
-0.056802906 -0.08083491 0.0054509342
-0.055809528 -0.080978535 0.0053461492
-0.054916151 -0.08127591 0.0057656765
-0.054358732 -0.082092784 0.0062575042
-0.051126853 -0.078820571 0.0075532794
-0.050974499 -0.080257721 0.0082264543
-0.049018558 -0.078855947 0.0087688565
-0.049062807 -0.080681056 0.0099588037
-0.048507217 -0.081580319 0.010867149
-0.046650495 -0.080282249 0.011162698
-0.044943426 -0.079186037 0.011204094
-0.044199761 -0.079775177 0.011143863
-0.042487729 -0.078602299 0.011140049
-0.041749571 -0.079217136 0.011045307
-0.040960677 -0.079765528 0.01099351
-0.039878469 -0.079756938 0.010666639
-0.038495246 -0.07912913 0.010426223
-0.037793528 -0.079906315 0.0099288225
-0.036570981 -0.07959567 0.0095277429
-0.035877209 -0.080451928 0.0089773834
-0.034754731 -0.080370322 0.0092993975
-0.033189442 -0.079226412 0.0087619424
-0.032483481 -0.08012592 0.0085813105
-0.03160052 -0.080635808 0.0085253119
-0.030489273 -0.080578797 0.0082646012
-0.029374545 -0.080508016 0.0084332228
-0.02855403 -0.081269167 0.0081796646
-0.026750848 -0.079182506 0.0082373023
-0.02611555 -0.080522954 0.0084638596
-0.024968989 -0.080335014 0.0088599324
-0.023615284 -0.079433233 0.009406805
-0.02252089 -0.07935933 0.0091790557
-0.02164874 -0.080100343 0.010058641
-0.020584656 -0.080171816 0.010260582
-0.019398842 -0.079750799 0.010825664
-0.018514523 -0.080592632 0.011981279
-0.017405121 -0.080498688 0.0118424
-0.016113009 -0.079490848 0.011106461
-0.01486563 -0.078575477 0.01120317
-0.013885166 -0.079038642 0.011195421
-0.012869108 -0.079359502 0.010279715
-0.011635313 -0.07827393 0.010072976
-0.010822783 -0.080088601 0.010276049
-0.0097200237 -0.079920202 0.010321915
-0.008554142 -0.079125814 0.010905504
-0.0076253749 -0.08061111 0.010591835
-0.0064111133 -0.079070397 0.01086998
-0.0053706504 -0.079485632 0.011244863
-0.0043604295 -0.08066795 0.011631012
-0.0032241649 -0.079529405 0.011914015
-0.0021602679 -0.079929918 0.012452066
-0.0010765463 -0.079664432 0.012656182
0 -0.077481709 0.012788802
0.0010722294 -0.07934498 0.012788802
0.0021480366 -0.079477355 0.012854487
0.0031705636 -0.07820724 0.012565434
0.004338366 -0.080259778 0.012518525
0.0053982288 -0.079893798 0.012711734
0.0063424087 -0.078223042 0.012711734
0.0076085893 -0.080433659 0.012464195
0.0085325614 -0.078926198 0.012093872
0.0096930489 -0.079698414 0.011934996
0.010958847 -0.081095472 0.011913598
0.011777062 -0.079227515 0.012084216
0.012833148 -0.07913775 0.01200527
0.014129791 -0.080431119 0.012139201
0.014756571 -0.077999018 0.012551546
0.015845178 -0.078169547 0.012844861
0.017015934 -0.078698695 0.013347834
0.017982917 -0.078278586 0.01344496
0.019379435 -0.079671018 0.013626546
0.02039234 -0.079422794 0.013477802
0.020854654 -0.077162221 0.013287544
0.022719568 -0.080059431 0.013189435
0.023212234 -0.078077517 0.01363042
0.024386587 -0.078461193 0.013348371
0.026108367 -0.080500804 0.012926817
0.026925895 -0.079700649 0.012945414
0.02774349 -0.078962244 0.013798267
0.029145172 -0.079879358 0.014029771
0.029588196 -0.078197375 0.014200121
0.030811373 -0.078622125 0.014421999
0.032433253 -0.080002025 0.014760941
0.033078242 -0.07896097 0.014970601
0.034016408 -0.078662947 0.015152276
0.035403896 -0.079390556 0.015219837
0.035898555 -0.078132153 0.015233099
0.037063833 -0.078363538 0.015268356
0.038628556 -0.079403147 0.015255094
0.039237764 -0.078475527 0.015110761
0.041182991 -0.080198459 0.014899135
0.04188225 -0.079468891 0.014545441
0.042692993 -0.07898204 0.01376766
0.044427227 -0.080185726 0.013047069
0.044840723 -0.079005085 0.011374891
0.046073612 -0.079289481 0.010788202
0.047578722 -0.080018766 0.0099547207
0.048665904 -0.080028377 0.0090814829
0.050161395 -0.080694422 0.0074125826
0.051500786 -0.081086345 0.0070441365
0.052424457 -0.080821045 0.0057939887
0.054895435 -0.082903311 0.0051020086
0.055436872 -0.082046568 0.0054454207
-0.058590915 -0.079206243 0.0051172972
-0.058930214 -0.081168041 0.0054005384
-0.057332065 -0.080485404 0.005700767
-0.05593412 -0.080062568 0.0057656765
-0.054585956 -0.0796955 0.0063703358
-0.052987672 -0.078940824 0.0072095394
-0.051766898 -0.078728832 0.0080586076
-0.050170667 -0.077924661 0.0084421337
-0.04882073 -0.077476375 0.0095666945
-0.04864971 -0.07892064 0.010259241
-0.047667854 -0.079085305 0.011366189
-0.046091296 -0.078248017 0.011367828
-0.045732543 -0.079487517 0.011641294
-0.044339109 -0.078945242 0.01135692
-0.042723726 -0.077970803 0.011299342
-0.042415339 -0.079392821 0.011232436
-0.04070184 -0.078190379 0.011011481
-0.039449565 -0.07783293 0.010893196
-0.038903713 -0.078888096 0.0106121
-0.038054932 -0.079371721 0.010374963
-0.036300555 -0.077939428 0.010227799
-0.035798345 -0.079190284 0.0096305609
-0.033796061 -0.077097274 0.0099411905
-0.033762213 -0.079504564 0.0098594129
-0.032718584 -0.079615228 0.0098388195
-0.030783353 -0.07748913 0.0091387033
-0.030480979 -0.079468273 0.0093069971
-0.02928412 -0.079175584 0.0095213652
-0.028014138 -0.078655086 0.0096027255
-0.027195266 -0.07941018 0.0095863044
-0.025687356 -0.078132384 0.0097239017
-0.024558553 -0.077946715 0.010511458
-0.02375357 -0.078818671 0.010899395
-0.022479296 -0.078142315 0.011215478
-0.021140696 -0.077163555 0.012251735
-0.020355845 -0.078209296 0.012347817
-0.019156115 -0.077688701 0.012612551
-0.017985802 -0.077233151 0.012723267
-0.016962107 -0.077389613 0.012749314
-0.01596011 -0.077672541 0.012612551
-0.015139963 -0.078944102 0.012370497
-0.013890553 -0.078000806 0.012360483
-0.012795676 -0.077840365 0.011700839
-0.011788889 -0.078235358 0.011458337
-0.010792211 -0.078783147 0.011700839
-0.0096871005 -0.078573152 0.011428297
-0.008643345 -0.078870527 0.011729062
-0.0075624296 -0.078865342 0.011742979
-0.006449949 -0.07847438 0.011868387
-0.005418322 -0.079107508 0.01184693
-0.0042944681 -0.078374043 0.01219207
-0.0032059832 -0.078012265 0.012479752
-0.0021456324 -0.078315586 0.012842387
-0.0010671273 -0.077900298 0.013196856
0 -0.078136995 0.013481736
0.0010679072 -0.077957228 0.013861626
0.0021463521 -0.078341857 0.014082462
0.003224158 -0.078454517 0.01385507
0.0042942283 -0.07836967 0.013793916
0.0052965619 -0.077329807 0.013603151
0.0065190438 -0.079315037 0.013519883
0.0075783832 -0.079031713 0.0130876
0.0085987244 -0.078463361 0.013234079
0.0097502479 -0.079085357 0.013049513
0.010827592 -0.079041421 0.013127089
0.011700504 -0.077648804 0.01308763
0.013002174 -0.079096563 0.013197631
0.01403942 -0.078836747 0.013471991
0.014947766 -0.077941932 0.013406515
0.016151633 -0.078604616 0.014018118
0.016864287 -0.076943308 0.013868719
0.018259874 -0.078410044 0.013911337
0.019141015 -0.077627458 0.014014572
0.020106519 -0.077251367 0.014208049
0.021503765 -0.078488752 0.01424247
0.022361044 -0.077731252 0.013789177
0.023188259 -0.076942869 0.014096051
0.024250004 -0.076967411 0.013321847
0.025289269 -0.07692153 0.012717098
0.02669833 -0.077959128 0.012945414
0.027947214 -0.078467183 0.013400793
0.029106356 -0.078694969 0.013741106
0.029728632 -0.077506796 0.013801098
0.03089961 -0.077781774 0.01423341
0.031918164 -0.077667534 0.014681548
0.033094719 -0.077932723 0.014918894
0.034400757 -0.078476734 0.014967948
0.035224199 -0.077920198 0.015111893
0.036727358 -0.078855798 0.015179574
0.037362568 -0.077927642 0.015258282
0.037916385 -0.076886013 0.01516974
0.039621972 -0.078173079 0.014974773
0.040586092 -0.077968024 0.014861047
0.041420978 -0.077531576 0.014377922
0.043373223 -0.079156138 0.01342532
0.044101752 -0.07852263 0.012331694
0.04516618 -0.078503124 0.011268526
0.046691518 -0.079267003 0.010590106
0.046754692 -0.077570289 0.0097322762
0.047501411 -0.077057846 0.0088668168
0.051203363 -0.081257515 0.0072619021
0.050674785 -0.07870765 0.0060656071
0.052501768 -0.079846442 0.0057758093
0.053434145 -0.079605982 0.0050590336
0.054794338 -0.079999737 0.0050436258
-0.057526935 -0.078149796 0.0052966774
-0.057065859 -0.079014264 0.0056618154
-0.055894509 -0.078909889 0.0062070489
-0.054216441 -0.078071669 0.0071542263
-0.051985878 -0.076387413 0.0080293417
-0.051989548 -0.077984318 0.0087901652
-0.050004672 -0.076602899 0.0093072951
-0.050564483 -0.079144403 0.0099339485
-0.048450705 -0.077521123 0.010342062
-0.046184313 -0.075574324 0.011409879
-0.04628323 -0.077497497 0.011478066
-0.044752061 -0.076717816 0.011645019
-0.044245757 -0.077699862 0.01161629
-0.04348046 -0.078264825 0.01131466
-0.042480379 -0.078425311 0.011018246
-0.041216791 -0.078094967 0.011018246
-0.04029154 -0.078405149 0.010697126
-0.038823813 -0.077647626 0.010697126
-0.037554622 -0.077255219 0.010447145
-0.036601033 -0.077508062 0.010272712
-0.035205998 -0.076813087 0.0098260045
-0.034254946 -0.077073626 0.010087162
-0.033725001 -0.078329027 0.010045379
-0.031635839 -0.075926013 0.010256678
-0.031005103 -0.076978184 0.010085315
-0.030350126 -0.078043178 0.01022926
-0.028831294 -0.076883443 0.010427624
-0.028301988 -0.078374736 0.010744423
-0.026772894 -0.077105932 0.01081562
-0.025406722 -0.076220162 0.010993272
-0.025030941 -0.078357726 0.011498243
-0.023632132 -0.077341519 0.012809873
-0.02266659 -0.077714019 0.012945682
-0.021712175 -0.078163832 0.012980551
-0.02039437 -0.077283926 0.012932032
-0.019120261 -0.076481044 0.01341033
-0.018273987 -0.077395707 0.013176888
-0.016810272 -0.075646222 0.013166338
-0.016144317 -0.077492721 0.013056934
-0.01512141 -0.077767245 0.012991279
-0.013722759 -0.07600297 0.013076872
-0.012722826 -0.07633695 0.012399405
-0.011992682 -0.078497551 0.012260795
-0.010655359 -0.076718591 0.012031049
-0.0098231016 -0.078584813 0.012196481
-0.0085012168 -0.076510951 0.011798382
-0.0075653275 -0.077814795 0.012028933
-0.0064387377 -0.077264853 0.01220426
-0.0053498913 -0.077038437 0.012250394
-0.0043093143 -0.077567652 0.01253131
-0.00320739 -0.076977357 0.012885839
-0.0021292907 -0.076654464 0.013701946
-0.0010798379 -0.077748321 0.013983876
0 -0.076184422 0.014225364
0.0010494123 -0.075557679 0.01466468
0.0021632568 -0.077877238 0.015067518
0.0031850664 -0.076441593 0.015086144
0.0042517059 -0.076530702 0.015036821
0.0053792945 -0.077461846 0.014971673
0.006403815 -0.07684578 0.014432311
0.0074565434 -0.076695874 0.014182955
0.0086250557 -0.077625498 0.014039665
0.0095887557 -0.076710045 0.013655871
0.010679357 -0.07689137 0.013842404
0.011743248 -0.076864891 0.013990372
0.012821442 -0.076928645 0.013867289
0.013838162 -0.076642126 0.013973266
0.015087822 -0.077594511 0.014036238
0.015906835 -0.076352805 0.014517188
0.0168333 -0.075749844 0.014238298
0.0182536 -0.077309363 0.014479488
0.019023139 -0.076092556 0.014872283
0.020523073 -0.077771641 0.014836222
0.021564726 -0.077633016 0.014517188
0.022228613 -0.076212384 0.014358282
0.023717821 -0.077621959 0.014263958
0.024722258 -0.077391408 0.013155997
0.025425412 -0.076276235 0.012793362
0.02742129 -0.078973308 0.012793362
0.027771015 -0.076904342 0.013083667
0.028891113 -0.07704296 0.013531387
0.02997295 -0.077073298 0.013750702
0.031213412 -0.077495366 0.01423341
0.032289386 -0.077494524 0.014525056
0.033396672 -0.07756646 0.014624208
0.034073077 -0.076664418 0.014610291
0.035401411 -0.077239439 0.014696062
0.036070347 -0.076384261 0.014852554
0.036960311 -0.076032639 0.014914155
0.038513929 -0.077027857 0.014749646
0.039561819 -0.076985151 0.014456421
0.040512927 -0.076761335 0.014389664
0.042126257 -0.077771544 0.013833612
0.042747069 -0.076944724 0.013168246
0.044458739 -0.078073874 0.012056261
0.044834796 -0.076859646 0.011157811
0.045970157 -0.076973282 0.010292172
0.046814349 -0.076605298 0.0089254975
0.049068052 -0.078508876 0.0079082251
0.050312128 -0.078749411 0.006776154
0.051145025 -0.078349821 0.0055432022
-0.059078563 -0.07914298 0.0054135323
-0.057121143 -0.077992328 0.0057772994
-0.054630216 -0.076053828 0.0063703358
-0.054358751 -0.077189423 0.0076313615
-0.053220145 -0.077114902 0.0084953606
-0.051216152 -0.07575722 0.0092354715
-0.050850142 -0.076816164 0.0094852746
-0.04951039 -0.076418206 0.010170817
-0.047491319 -0.074930742 0.010583848
-0.04768268 -0.076942503 0.011385113
-0.046238877 -0.07634791 0.011657566
-0.044558045 -0.075324312 0.011850595
-0.044583108 -0.077204891 0.011584282
-0.042354338 -0.075178951 0.011378825
-0.041659549 -0.07584174 0.01111871
-0.041248113 -0.077068843 0.011235595
-0.040041167 -0.076835752 0.010602981
-0.038849112 -0.076619081 0.0106121
-0.038056474 -0.077200271 0.010381907
-0.036907658 -0.077071875 0.010227799
-0.035475887 -0.076326907 0.0096727312
-0.034449726 -0.076435328 0.0098647475
-0.033093721 -0.075795293 0.010048807
-0.032434423 -0.076761462 0.010371745
-0.031588089 -0.077336349 0.0105474
-0.02997078 -0.07599733 0.010948956
-0.029165594 -0.076694705 0.011128426
-0.02830641 -0.077298276 0.011359453
-0.026741002 -0.075944439 0.011712611
-0.026046261 -0.077053525 0.012081712
-0.024666756 -0.076145202 0.013187349
-0.023466926 -0.075734168 0.013701171
-0.022294875 -0.075377904 0.013616174
-0.02142773 -0.076068446 0.013743132
-0.020284681 -0.075800642 0.013683796
-0.019070227 -0.075221449 0.013941199
-0.018174816 -0.075906582 0.013948888
-0.017045027 -0.075637303 0.013888419
-0.015988411 -0.075678475 0.013475418
-0.014957427 -0.075855523 0.013109326
-0.013858971 -0.075691305 0.012996644
-0.012735533 -0.075351901 0.012667656
-0.011795201 -0.076132663 0.01233387
-0.010759604 -0.076393187 0.012001455
-0.0096685346 -0.076273993 0.012010276
-0.0084856888 -0.075310491 0.012001455
-0.0075438116 -0.076515801 0.011773676
-0.0064901505 -0.076800108 0.012250394
-0.0053251935 -0.075617746 0.012211293
-0.0043560863 -0.077320524 0.01281926
-0.0031896881 -0.075489283 0.013490617
-0.0021177256 -0.075179256 0.013742954
-0.0010653563 -0.075640298 0.014113903
0 -0.075504124 0.014360309
0.001068118 -0.075836375 0.015132636
0.0021544679 -0.076483607 0.015280873
0.003164473 -0.074892528 0.015420467
0.0042982129 -0.076293275 0.015587002
0.0053251935 -0.075617746 0.015519053
0.0063424748 -0.075052619 0.015424043
0.0074975896 -0.076046981 0.014806092
0.0084660007 -0.075135753 0.014807314
0.0096480064 -0.076112054 0.01449427
0.01077821 -0.076525286 0.014559865
0.011492185 -0.074176826 0.014559865
0.012729052 -0.075313553 0.014364272
0.01384493 -0.075614616 0.014556646
0.014779342 -0.074952379 0.01425752
0.015905617 -0.075286582 0.014496893
0.01695 -0.075215623 0.014556646
0.017960671 -0.075012214 0.014824986
0.019400589 -0.076524548 0.015177965
0.020071601 -0.075004399 0.015069902
0.020938419 -0.074331388 0.014520168
0.022589503 -0.076374032 0.014097095
0.023245353 -0.075019091 0.014023483
0.024098752 -0.074391797 0.013201058
0.025913931 -0.076662041 0.012588888
0.026522279 -0.075323269 0.012631148
0.02787023 -0.076107167 0.012928456
0.029539224 -0.077677213 0.012859464
0.030240785 -0.076681994 0.013156772
0.030865638 -0.075567588 0.01406306
0.032263778 -0.076357611 0.014047444
0.032685455 -0.07486023 0.014224917
0.034160525 -0.075793661 0.014513582
0.034486551 -0.074198335 0.014665365
0.036126547 -0.075440727 0.01482296
0.037340481 -0.075747833 0.014889479
0.038188171 -0.075315557 0.014852554
0.038864266 -0.074577376 0.014495999
0.040714312 -0.076071478 0.014387757
0.042172309 -0.07677523 0.013776213
0.042177483 -0.074865036 0.012910098
0.044588007 -0.077213369 0.012024492
0.044919223 -0.075934872 0.010642618
0.046069436 -0.076068133 0.0096395314
0.047740459 -0.07703574 0.0084933341
0.047942441 -0.075642511 0.007800132
0.049965926 -0.077121317 0.0061758161
0.051985376 -0.078531094 0.0052921772
-0.058434207 -0.077177256 0.005289942
-0.056364477 -0.075875252 0.0057772994
-0.055504214 -0.076182254 0.0068717301
-0.054149151 -0.075808808 0.0075356066
-0.05296791 -0.075668447 0.0084149539
-0.052348621 -0.076341741 0.0090922415
-0.050563123 -0.075306781 0.009439677
-0.048589639 -0.073940754 0.0097919405
-0.048704129 -0.075761974 0.010327131
-0.047689687 -0.075869955 0.010774106
-0.046725862 -0.076065354 0.011385113
-0.045826495 -0.076377489 0.011633724
-0.043996796 -0.075116478 0.011385113
-0.043046515 -0.075331405 0.011124998
-0.042078245 -0.075525053 0.011007309
-0.041399669 -0.076262549 0.011340618
-0.039823547 -0.075341843 0.010872871
-0.039225273 -0.076271363 0.011009961
-0.037590902 -0.075181805 0.010719687
-0.036184613 -0.07449773 0.010710835
-0.035947304 -0.076251857 0.010417134
-0.034267008 -0.074959077 0.010471463
-0.033616479 -0.075908177 0.010538161
-0.031941459 -0.074530065 0.011128008
-0.031245355 -0.075419821 0.01145789
-0.030176474 -0.075441182 0.011717826
-0.029021049 -0.075239755 0.011780977
-0.027543912 -0.074156687 0.012570769
-0.027173534 -0.076085888 0.013322026
-0.025998356 -0.075828537 0.013397634
-0.02490622 -0.075801536 0.013812393
-0.0240654 -0.076571725 0.014205426
-0.022470651 -0.074902169 0.013934553
-0.021117721 -0.073912024 0.014120728
-0.02053728 -0.075663663 0.01410529
-0.019172329 -0.074559063 0.014324993
-0.018111158 -0.074575357 0.01448366
-0.017159851 -0.075074345 0.014075905
-0.01584308 -0.073934369 0.014031082
-0.014948687 -0.074743427 0.013890773
-0.013706463 -0.073804036 0.013623327
-0.012701348 -0.074091196 0.012682855
-0.011827318 -0.075264752 0.012608469
-0.010722768 -0.075059384 0.012596995
-0.0095208036 -0.074050695 0.01233387
-0.0085988482 -0.075239919 0.012319416
-0.0075806645 -0.075806648 0.011994481
-0.0064554494 -0.075313576 0.012281388
-0.0053740144 -0.075236201 0.01234442
-0.0043396894 -0.075944565 0.013198256
-0.0031806005 -0.074214011 0.013970345
-0.0021514245 -0.075299852 0.014140487
-0.0010607064 -0.074249446 0.014625311
0 -0.073791392 0.014968932
0.0010529583 -0.073707074 0.01552695
0.0021395322 -0.074883625 0.016081363
0.0031975375 -0.074609205 0.01608786
0.0042385487 -0.074174605 0.016087681
0.0052415864 -0.073382214 0.016229212
0.006407164 -0.074750245 0.0161331
0.0075213918 -0.075213917 0.015598029
0.0085176593 -0.074529514 0.015270263
0.00965429 -0.075088926 0.014756918
0.0106303 -0.0744121 0.015010446
0.011641731 -0.074083745 0.015014291
0.013019062 -0.075944528 0.014764071
0.013799333 -0.074304096 0.014743835
0.014858766 -0.074293822 0.014990598
0.016200511 -0.075602375 0.014990598
0.016758462 -0.073318273 0.014809936
0.018063212 -0.074377924 0.015181184
0.019299777 -0.07505469 0.015171766
0.019998085 -0.073677152 0.015378654
0.021322886 -0.074630097 0.015439272
0.02257142 -0.075238064 0.014458984
0.022997966 -0.073175348 0.014358282
0.024695195 -0.075159289 0.013913095
0.025437146 -0.074191675 0.013294041
0.026623497 -0.074545786 0.012859464
0.028041055 -0.075495146 0.012880981
0.028954705 -0.075067751 0.013000518
0.030260362 -0.075650901 0.013175249
0.031704027 -0.076526962 0.013854951
0.031824656 -0.074257523 0.014148742
0.033219177 -0.075011045 0.014140636
0.034134798 -0.074669868 0.014084816
0.034951624 -0.074139804 0.014187843
0.036013674 -0.074145794 0.014303893
0.036964666 -0.073929332 0.014552265
0.038010519 -0.07390935 0.014442623
0.039046727 -0.073872186 0.01399228
0.040463418 -0.074537873 0.013948321
0.041607238 -0.074679658 0.013204902
0.043041732 -0.075323038 0.012180865
0.04341612 -0.074125074 0.011596322
0.045251876 -0.075419791 0.010475785
0.046918485 -0.076378927 0.0090306103
0.04773698 -0.075945191 0.0081560314
0.048521455 -0.075477816 0.007060647
0.049885437 -0.075912617 0.0055105984
-0.057438444 -0.074778356 0.0050525367
-0.05626389 -0.074657857 0.0054262578
-0.055284008 -0.074796014 0.0063622892
-0.053637892 -0.074020289 0.0074608922
-0.052478384 -0.073898137 0.0082542598
-0.052164167 -0.074985988 0.009049952
-0.050547693 -0.074208319 0.0094293058
-0.049554657 -0.074331984 0.0096518099
-0.048057918 -0.073688798 0.010043591
-0.046855312 -0.073477648 0.010440201
-0.046642568 -0.074845053 0.010606557
-0.045245651 -0.07433214 0.010774106
-0.043711223 -0.073562786 0.010713816
-0.043626603 -0.075255886 0.010440201
-0.042431738 -0.075071536 0.010437578
-0.040903185 -0.074271567 0.011003643
-0.04071698 -0.075931661 0.010924399
-0.039521798 -0.07575012 0.010719746
-0.037803594 -0.074527085 0.010522276
-0.036841065 -0.07476569 0.010557503
-0.035456412 -0.074136131 0.010470688
-0.034216195 -0.073778667 0.010417134
-0.03341512 -0.074375592 0.010534734
-0.032044746 -0.073702909 0.011406064
-0.031444445 -0.074816093 0.011650473
-0.030494621 -0.075147457 0.011781096
-0.028858403 -0.073749244 0.012507617
-0.028101165 -0.074576169 0.013310879
-0.026913565 -0.074281439 0.013574243
-0.026110055 -0.07506641 0.013913989
-0.024810443 -0.07443133 0.014009207
-0.023317838 -0.073133223 0.014123797
-0.022220509 -0.073010243 0.014104605
-0.021412278 -0.073872365 0.014166981
-0.020279061 -0.073645011 0.014409631
-0.018890819 -0.072414808 0.014862448
-0.01813001 -0.073586516 0.014722615
-0.016886562 -0.072823301 0.014672726
-0.016255071 -0.074773327 0.014364481
-0.014944893 -0.073656976 0.014294773
-0.013871511 -0.073625706 0.01393646
-0.012861659 -0.073954538 0.013552666
-0.011937358 -0.074879795 0.012967527
-0.010731494 -0.074047312 0.012892306
-0.0096437624 -0.073935509 0.012623399
-0.0086577442 -0.074673042 0.012608945
-0.0075430674 -0.074353091 0.01233387
-0.0064264475 -0.073904149 0.012479901
-0.0053453376 -0.073765658 0.012523383
-0.004317245 -0.074472472 0.013626605
-0.0032261054 -0.074200422 0.014122635
-0.0021403143 -0.073840849 0.014479816
-0.0010574283 -0.072962552 0.01486975
0 -0.072680838 0.015367925
0.0010509989 -0.072518922 0.016134769
0.0021418766 -0.073894739 0.016235411
0.0032032123 -0.073673882 0.016261816
0.0041855383 -0.072200529 0.016394347
0.005305382 -0.07321427 0.016583979
0.0063979691 -0.073576644 0.016459525
0.0073504536 -0.072454475 0.016088516
0.0085342275 -0.073607706 0.015841693
0.0095583377 -0.073280595 0.015176743
0.010741105 -0.074113622 0.015421927
0.011811159 -0.074088179 0.015421927
0.012831388 -0.073780484 0.015159637
0.013844965 -0.073484816 0.014937282
0.014842323 -0.073151447 0.015080124
0.015941625 -0.073331475 0.015248686
0.017200699 -0.07417801 0.015248686
0.018173898 -0.073764645 0.015080124
0.018944845 -0.072621912 0.015264213
0.020471793 -0.074344933 0.015439272
0.021359464 -0.073690154 0.015436709
0.022482622 -0.073871471 0.015118897
0.023664998 -0.074222036 0.014760643
0.024890473 -0.074671417 0.014343351
0.0256609 -0.07377509 0.013646007
0.027030515 -0.074604221 0.013391852
0.02776596 -0.073686585 0.013019234
0.028403521 -0.072586767 0.013022959
0.030548332 -0.075279824 0.012945414
0.03137318 -0.074646533 0.013738066
0.032332383 -0.074364483 0.013820589
0.032989796 -0.073428899 0.013851345
0.034108851 -0.073547207 0.013637304
0.035179716 -0.073557585 0.013493717
0.036055222 -0.073170893 0.013266087
0.037298627 -0.073531583 0.013513505
0.038644832 -0.074069262 0.013483226
0.03903649 -0.072797775 0.012755215
0.040232532 -0.0730538 0.012836337
0.042161144 -0.074592791 0.012034357
0.042509563 -0.073329002 0.011090189
0.043169521 -0.07265114 0.01073426
0.046011295 -0.075589985 0.0093080103
0.045761261 -0.073430859 0.0083328784
0.047270611 -0.074128918 0.0073560476
0.050049357 -0.076742344 0.0060165226
-0.057916861 -0.074308425 0.005289942
-0.057418611 -0.075085878 0.0055878162
-0.054865584 -0.073154107 0.0062620342
-0.054244556 -0.073772594 0.007284373
-0.053394735 -0.074098818 0.0082542598
-0.051512185 -0.072975598 0.0086633563
-0.051533896 -0.074559681 0.0092600286
-0.050020121 -0.073942788 0.0094483197
-0.047824942 -0.072268799 0.0099229813
-0.04758719 -0.073543839 0.010218233
-0.046546087 -0.073607765 0.010239393
-0.045392357 -0.073492385 0.010281265
-0.044906259 -0.074478671 0.010190159
-0.043003272 -0.073105566 0.010107905
-0.041630115 -0.072585844 0.010107905
-0.041324891 -0.073949799 0.01020214
-0.040640753 -0.074691109 0.010166764
-0.038973343 -0.073616318 0.01014775
-0.038360018 -0.074528039 0.010026395
-0.036915354 -0.073830709 0.010381907
-0.035619356 -0.073397465 0.010272145
-0.034537166 -0.073391475 0.010217726
-0.033092629 -0.072590277 0.010579318
-0.032399714 -0.073439352 0.011125147
-0.031290531 -0.073370896 0.011928797
-0.030112643 -0.073130704 0.012174278
-0.029067932 -0.073208123 0.012703687
-0.027867928 -0.072885349 0.013411075
-0.026603721 -0.072362117 0.0138219
-0.02596966 -0.073580705 0.014009207
-0.024602631 -0.072738215 0.01404354
-0.023364486 -0.072217502 0.014288455
-0.022457913 -0.072720855 0.014288455
-0.021273464 -0.072329782 0.014375538
-0.020072991 -0.071840174 0.01453799
-0.019329969 -0.073024333 0.015056163
-0.018081384 -0.072325535 0.014900267
-0.017033892 -0.072394043 0.014722556
-0.015941037 -0.072266035 0.01418516
-0.014803072 -0.071900636 0.014078259
-0.013910862 -0.072764508 0.013819635
-0.012942715 -0.073342055 0.013287246
-0.011760546 -0.072701558 0.01280877
-0.010742566 -0.073049448 0.0127334
-0.0096520986 -0.072926976 0.012470335
-0.0084747896 -0.072035715 0.012611449
-0.0075701857 -0.073538952 0.012400627
-0.0063862042 -0.072376981 0.012688845
-0.0053096926 -0.072211824 0.013038188
-0.0043401998 -0.073783398 0.014025033
-0.0031847081 -0.072186723 0.014385283
-0.0021307452 -0.072445333 0.014712662
-0.0010700109 -0.072760746 0.015267342
0 -0.07123217 0.015840113
0.0010627974 -0.072270222 0.016214907
0.002116198 -0.071950734 0.01629141
0.003156035 -0.071536794 0.016419142
0.0042445045 -0.072156571 0.016649663
0.0053211134 -0.072367139 0.016845971
0.0063209287 -0.071637191 0.016721368
0.0074397596 -0.072271951 0.016436636
0.0083853584 -0.071275547 0.015856981
0.0095936833 -0.072485611 0.015313715
0.01083992 -0.073711455 0.015520453
0.011781037 -0.072828226 0.015511066
0.012791296 -0.072484009 0.015127242
0.013927263 -0.072850302 0.0149979
0.014938488 -0.072558366 0.015112102
0.015893281 -0.072049543 0.015210658
0.017112698 -0.072728969 0.015248686
0.017986428 -0.071945712 0.015030622
0.019199172 -0.07253021 0.015115499
0.020416401 -0.073069222 0.01510036
0.021247046 -0.072239965 0.015179664
0.022633148 -0.073288292 0.014463633
0.023702545 -0.073262416 0.014270306
0.024399715 -0.072138287 0.014174759
0.026165526 -0.074135661 0.013820589
0.026717721 -0.072672196 0.013238639
0.027771223 -0.072632432 0.01270625
0.029228259 -0.073611908 0.012492806
0.03029903 -0.073583357 0.012668729
0.031375736 -0.073570684 0.012970984
0.032786388 -0.074315809 0.013022959
0.033179957 -0.072781838 0.013086319
0.034278281 -0.072841346 0.013019234
0.035463154 -0.073075593 0.012900621
0.036259532 -0.072519064 0.012726128
0.037144236 -0.072165951 0.012775153
0.038928073 -0.073530808 0.012831032
0.039661724 -0.072891816 0.012534261
0.040942799 -0.073266059 0.012324601
0.042152852 -0.07349728 0.011403769
0.042627584 -0.072466895 0.01083985
0.044057813 -0.073071495 0.0095119178
0.044945341 -0.072768643 0.0089501739
0.046633482 -0.073745973 0.0079710484
0.047884326 -0.074003056 0.0068658888
0.048443317 -0.073203236 0.0051018894
-0.056039788 -0.072205111 0.0051841438
-0.055085547 -0.072367288 0.0056618154
-0.054138154 -0.072545126 0.0069693923
-0.052968729 -0.072426632 0.0076547861
-0.052060489 -0.072667763 0.0084149539
-0.05092584 -0.072596416 0.0087308586
-0.049559359 -0.072184287 0.0092826188
-0.048503298 -0.072216019 0.0096175969
-0.048553512 -0.073933758 0.010057896
-0.046382394 -0.072270237 0.010057896
-0.045842905 -0.073130347 0.010170937
-0.044581052 -0.072851963 0.01000756
-0.042568296 -0.0713019 0.0098977983
-0.042237692 -0.072562195 0.0097416043
-0.040647738 -0.071668379 0.0098669231
-0.040039051 -0.072503142 0.010166764
-0.039429132 -0.073381998 0.010138988
-0.037637491 -0.07204891 0.010026395
-0.03693039 -0.072774589 0.010243773
-0.035491455 -0.072058409 0.010236919
-0.034631826 -0.072510391 0.010230631
-0.033381239 -0.072146542 0.01047951
-0.032508291 -0.072601855 0.011269152
-0.03127199 -0.072249085 0.011461765
-0.030541543 -0.073081553 0.012243569
-0.028705552 -0.071232297 0.012624353
-0.027498581 -0.070861734 0.01332134
-0.026803672 -0.071833842 0.013371348
-0.025609994 -0.071494572 0.013796747
-0.024540883 -0.071488656 0.013982326
-0.023747912 -0.072323188 0.014187038
-0.022472145 -0.071696848 0.014259994
-0.021462366 -0.07189893 0.014356047
-0.020212466 -0.07127554 0.01445815
-0.018997239 -0.070711955 0.015039891
-0.018117387 -0.071403824 0.014943868
-0.017159129 -0.071853854 0.014612645
-0.015906103 -0.071047261 0.014137506
-0.01512215 -0.072370291 0.014031082
-0.013878275 -0.071526498 0.01356712
-0.012730177 -0.071076818 0.013038188
-0.011902912 -0.072499558 0.012671649
-0.010817911 -0.072480015 0.012611449
-0.0095581161 -0.07115487 0.012470335
-0.0086798081 -0.072693393 0.012448817
-0.0074407067 -0.0712182 0.012329966
-0.0064176875 -0.071664184 0.012440264
-0.0053759129 -0.072037235 0.013392031
-0.0042435997 -0.071080297 0.014048368
-0.0032074833 -0.071633793 0.014558643
-0.0021590418 -0.072327897 0.01492992
-0.0010616699 -0.071131885 0.015823632
0 -0.071111955 0.016123444
0.0010631734 -0.071232617 0.016429216
0.0021050388 -0.070518799 0.016711652
0.0032006276 -0.071480684 0.016855031
0.0042613996 -0.07137844 0.017059773
0.0053112698 -0.071171016 0.017065436
0.0063906284 -0.071362019 0.016982734
0.0074449158 -0.071258485 0.016511977
0.0084657585 -0.070900731 0.016009629
0.0095608225 -0.071175016 0.015643865
0.010739756 -0.071956366 0.015577853
0.011723046 -0.07140401 0.015518218
0.012940807 -0.07225284 0.015264213
0.013857177 -0.071417764 0.015007019
0.014799042 -0.07082399 0.0150626
0.016107127 -0.071945168 0.015162498
0.016926456 -0.070879534 0.015078962
0.018119432 -0.071411878 0.014778852
0.019349782 -0.072024196 0.014661282
0.020303775 -0.071597524 0.014739037
0.021441944 -0.071830519 0.014803082
0.022719342 -0.072485521 0.01420179
0.023400465 -0.071265057 0.014170259
0.024772882 -0.072164483 0.013957173
0.025794415 -0.072009414 0.013615787
0.026523059 -0.071081802 0.01266259
0.02790116 -0.071899146 0.012424082
0.028877288 -0.071658455 0.012273669
0.029918317 -0.07159026 0.012476057
0.031372886 -0.072482184 0.012834728
0.032251004 -0.072027244 0.012501925
0.033656348 -0.072741136 0.012616903
0.034474514 -0.072181016 0.012456387
0.035386618 -0.071845561 0.011965036
0.036321163 -0.071574062 0.012017071
0.037394233 -0.071583249 0.011756122
0.038499687 -0.071652196 0.011603832
0.03994377 -0.072330609 0.011457324
0.040807005 -0.071949191 0.011498719
0.041219808 -0.070813514 0.010710865
0.043319978 -0.072560966 0.009521246
0.043751892 -0.071496993 0.0087844431
0.046086606 -0.073519111 0.007943362
0.0470227 -0.073267929 0.0067512095
0.04738025 -0.072147198 0.0057871938
-0.05565545 -0.072024696 0.0054262578
-0.053691007 -0.070872128 0.0065998137
-0.053578105 -0.072166428 0.0073059797
-0.051995222 -0.071493432 0.0081015527
-0.051314119 -0.072058126 0.0085421801
-0.050335351 -0.072220281 0.009049952
-0.048904773 -0.071726993 0.0094293058
-0.047272872 -0.070909306 0.0096918643
-0.046745669 -0.071749166 0.0097022057
-0.045335963 -0.071242228 0.0098039508
-0.044090901 -0.070975587 0.0097022057
-0.043835469 -0.072328523 0.0096102357
-0.041817874 -0.070768714 0.009354502
-0.040900759 -0.071038157 0.009901315
-0.040132701 -0.071588054 0.0095484555
-0.039425541 -0.072280161 0.009434849
-0.038080566 -0.071809068 0.0093908012
-0.037393667 -0.072587699 0.0094132125
-0.035351373 -0.070702747 0.010048419
-0.034730192 -0.071631022 0.010272145
-0.033705216 -0.071759492 0.010465503
-0.032506973 -0.071515337 0.011175245
-0.031429015 -0.071528099 0.011514664
-0.030283272 -0.071381994 0.012209713
-0.028649041 -0.070030987 0.01254794
-0.02784528 -0.070684172 0.013233423
-0.026658347 -0.070378035 0.013483107
-0.025631851 -0.070487589 0.013926864
-0.024617089 -0.07064034 0.013977706
-0.023617398 -0.070852198 0.014273375
-0.022322237 -0.070155598 0.014334142
-0.02147343 -0.070862323 0.014317513
-0.020160107 -0.070029847 0.014814794
-0.019154204 -0.070232078 0.015031397
