ply
format ascii 1.0
comment PCL generated
element vertex 1265
property float x
property float y
property float z
element camera 0
property float view_px
property float view_py
property float view_pz
property float x_axisx
property float x_axisy
property float x_axisz
property float y_axisx
property float y_axisy
property float y_axisz
property float z_axisx
property float z_axisy
property float z_axisz
property float focal
property float scalex
property float scaley
property float centerx
property float centery
property int viewportx
property int viewporty
property float k1
property float k2
end_header
0.039959334 -0.056784321 0.014648497
0.041463405 -0.05741087 0.014375716
0.042908426 -0.057926375 0.014330596
0.042912897 -0.056519426 0.013865441
0.045362093 -0.05832269 0.013116986
0.045830727 -0.057554871 0.011853248
0.046736162 -0.057358019 0.011064738
0.048782673 -0.058539208 0.0099295378
0.049800511 -0.058461469 0.009496361
0.050510526 -0.058033369 0.0088020265
0.051812325 -0.058288869 0.008492589
0.053114317 -0.058534149 0.0082467794
0.055024628 -0.059426595 0.0074244738
0.0545181 -0.057725046 0.0069704652
0.056065314 -0.058221672 0.0061760247
0.057588991 -0.05867558 0.0054707825
-0.057664767 -0.057664767 0.0059833229
-0.056769278 -0.057860993 0.0066074729
-0.054443974 -0.056579031 0.0074034333
-0.053668696 -0.056888819 0.0085261762
-0.053072706 -0.057405174 0.0090780854
-0.050987814 -0.056299046 0.010452628
-0.051260602 -0.057804506 0.010635436
-0.049294516 -0.056795854 0.011453658
-0.048195656 -0.056763768 0.011930138
-0.047235198 -0.056896944 0.012384892
-0.046695951 -0.057555471 0.012404174
-0.044952612 -0.056725912 0.012389064
-0.044815537 -0.057932273 0.012404174
-0.04295126 -0.056910418 0.011930138
-0.041941512 -0.056997437 0.011903971
-0.041481689 -0.057856038 0.011325628
-0.039655402 -0.056803681 0.01131162
-0.038778618 -0.057090741 0.011373609
-0.03773278 -0.057138208 0.01105693
-0.036740232 -0.05727154 0.010810256
-0.035072476 -0.056328524 0.010449082
-0.034737591 -0.057534132 0.010495454
-0.033111081 -0.056609266 0.010864019
-0.032607757 -0.057607036 0.010997593
-0.03093903 -0.056543738 0.010997593
-0.029855419 -0.056512043 0.011306763
-0.029126197 -0.057173643 0.011360705
-0.027895156 -0.0568632 0.011787504
-0.026378488 -0.055922393 0.011864841
-0.025803596 -0.056982938 0.012046963
-0.024797242 -0.057141468 0.012329757
-0.023555055 -0.056746271 0.012898505
-0.022597622 -0.05703209 0.013300985
-0.021506136 -0.05699126 0.013395011
-0.020241683 -0.05646364 0.013890564
-0.019213289 -0.056572463 0.014169514
-0.017991774 -0.056092001 0.014106005
-0.01709557 -0.056629073 0.01426506
-0.016064862 -0.056762513 0.013979971
-0.014660288 -0.055499658 0.013890564
-0.013953548 -0.056887541 0.013532877
-0.012854359 -0.05677342 0.012917519
-0.011728162 -0.056508414 0.012139469
-0.010762964 -0.057043713 0.01187855
-0.0096214209 -0.056659482 0.011895269
-0.008504957 -0.056345336 0.01202032
-0.0076312907 -0.057779774 0.011872977
-0.0064006615 -0.056539174 0.011824787
-0.0053806058 -0.057034422 0.011886239
-0.0043012188 -0.056991149 0.011886239
-0.003180468 -0.056188267 0.012312829
-0.0021094643 -0.055900797 0.012663513
-0.0010609074 -0.05622809 0.013087839
0 -0.05562276 0.013590634
0.0010682214 -0.056615733 0.013912737
0.0021456112 -0.056858696 0.013893276
0.0031724891 -0.056047305 0.01393953
0.0042891302 -0.056830972 0.013712645
0.0053307405 -0.056505851 0.013930887
0.006343001 -0.056029841 0.013620019
0.0075965994 -0.057517108 0.01348415
0.0086529031 -0.057325479 0.013396144
0.0098248366 -0.057857372 0.013813913
0.010816745 -0.057328753 0.013839394
0.011696923 -0.056357898 0.013806075
0.012695574 -0.05607212 0.013845265
0.013951192 -0.056877933 0.014151663
0.014793917 -0.056005541 0.014616221
0.01599147 -0.056503192 0.014788628
0.016956409 -0.056168102 0.014653832
0.01780697 -0.055515844 0.014826238
0.01913394 -0.056338824 0.014863461
0.020235948 -0.05644764 0.014591485
0.021355202 -0.056591287 0.014545679
0.022246474 -0.056145862 0.014460355
0.023273546 -0.056068089 0.014228284
0.0239089 -0.055094417 0.014106959
0.025522649 -0.056362517 0.013767868
0.02678271 -0.056779344 0.013723284
0.027855948 -0.056783274 0.013654351
0.02898941 -0.056905136 0.013751447
0.029776063 -0.056361832 0.013751447
0.030907556 -0.056486219 0.013777792
0.032421488 -0.057277963 0.014126033
0.032982167 -0.056388859 0.014630646
0.034099337 -0.056477021 0.015193969
0.035126157 -0.056414735 0.015375853
0.036209814 -0.056444708 0.015491724
0.037239566 -0.056391343 0.015220672
0.038429651 -0.056576986 0.015086114
0.038728885 -0.055476509 0.015125245
0.040512051 -0.05650365 0.014678687
0.0418148 -0.056825239 0.01453805
0.043033067 -0.057018813 0.014496684
0.04420159 -0.057138637 0.014178604
0.044717774 -0.056429569 0.013006181
0.045884386 -0.056555171 0.011307359
0.047711119 -0.05747021 0.010612458
0.047211632 -0.055604808 0.0095830262
0.049830474 -0.057413369 0.00912413
0.050885286 -0.057381276 0.0086977184
0.051512185 -0.056878038 0.0083881021
0.053296171 -0.057646882 0.0078457892
0.055255394 -0.058570713 0.0071081817
0.054098368 -0.056219868 0.0062511265
0.056451295 -0.057536896 0.0055178106
-0.057737075 -0.056647696 0.0059826374
-0.05616672 -0.05616672 0.0069069266
-0.055109866 -0.056190453 0.0077520311
-0.054774888 -0.05696588 0.0085344017
-0.052536625 -0.055753153 0.0093277991
-0.052044462 -0.056381501 0.010056317
-0.050593793 -0.055976111 0.010569781
-0.048989639 -0.055379592 0.011108428
-0.048075799 -0.055554252 0.011511683
-0.047173552 -0.055750564 0.012188911
-0.046149809 -0.055809069 0.012128145
-0.045446888 -0.056267574 0.011953324
-0.044230502 -0.056097221 0.011953324
-0.043075696 -0.055998404 0.011781156
-0.042342212 -0.056456283 0.01127696
-0.041577309 -0.056895263 0.011314422
-0.039812908 -0.055953272 0.011232674
-0.03892329 -0.056222528 0.011389971
-0.037542451 -0.05577736 0.011118919
-0.036184538 -0.055341057 0.010972172
-0.035696257 -0.056248646 0.010702044
-0.034168132 -0.055523217 0.010813743
-0.033388969 -0.0560073 0.011306763
-0.03216235 -0.055748072 0.011327654
-0.031230554 -0.055999611 0.011779159
-0.030047417 -0.055802345 0.011877775
-0.028886322 -0.055632915 0.012020707
-0.02780528 -0.05561056 0.012311101
-0.026918057 -0.055989556 0.012422651
-0.025529407 -0.055313714 0.012566864
-0.024577506 -0.055566534 0.013300985
-0.023732655 -0.056095369 0.013719738
-0.022372833 -0.055399396 0.013857216
-0.021521511 -0.055955928 0.014266342
-0.020465096 -0.056009736 0.014407605
-0.018953079 -0.054753345 0.014786214
-0.018167028 -0.055569731 0.014911562
-0.016929001 -0.055019252 0.015327334
-0.015796315 -0.054760557 0.014777064
-0.015120173 -0.056160644 0.014539272
-0.013816626 -0.055266503 0.013727635
-0.012579994 -0.054513309 0.013388038
-0.011836995 -0.055956706 0.012887567
-0.010694501 -0.055611406 0.012365758
-0.0095603243 -0.055237431 0.012345284
-0.0087683816 -0.056994479 0.012345284
-0.0075711175 -0.056242589 0.012254417
-0.0063776956 -0.055273362 0.012222648
-0.005444617 -0.056624018 0.012278706
-0.0042897877 -0.055767242 0.012538493
-0.0032174101 -0.055768441 0.013099551
-0.0021464243 -0.055807028 0.013622522
-0.0010722546 -0.055757239 0.01389724
0 -0.055914622 0.0141325
0.0010692917 -0.055603169 0.014504433
0.00211994 -0.055118442 0.014886141
0.0032152333 -0.055730712 0.014997929
0.0042847092 -0.055701215 0.014783293
0.0053082751 -0.05520606 0.014831871
0.0065180841 -0.05649006 0.014264911
0.0074610845 -0.055425201 0.013938189
0.0085309148 -0.055450942 0.013945132
0.0097055901 -0.056076746 0.014178872
0.010715052 -0.055718277 0.014376909
0.011751889 -0.05555439 0.014947444
0.012846173 -0.055666748 0.014824748
0.013760059 -0.055040237 0.0149028
0.014849445 -0.05515508 0.014949232
0.016110826 -0.055850867 0.01522243
0.016781095 -0.054538559 0.015178502
0.018152649 -0.05552575 0.015604943
0.019225998 -0.055541772 0.015711367
0.020166719 -0.055193126 0.01505667
0.021358451 -0.055531975 0.014983952
0.022187693 -0.05494095 0.014627248
0.023203993 -0.054845806 0.014616638
0.024578894 -0.055569671 0.014431536
0.025606185 -0.055480067 0.013893247
0.026987461 -0.056133915 0.01386553
0.027935497 -0.055870995 0.013675183
0.028775552 -0.055419579 0.013661087
0.02990723 -0.055541996 0.013613284
0.031351235 -0.056216005 0.013536543
0.031903658 -0.055299677 0.014231801
0.033185251 -0.055665579 0.0146797
0.034281936 -0.055708148 0.015193969
0.035378054 -0.055747237 0.015541196
0.036940474 -0.056497194 0.015675247
0.037439138 -0.055623863 0.015480727
0.038268495 -0.055276714 0.015114427
0.03962576 -0.055690255 0.014925361
0.040842984 -0.0558904 0.014702797
0.041485462 -0.055313949 0.014842391
0.043415062 -0.056439582 0.014544368
0.043544833 -0.055227589 0.013894826
0.044835608 -0.055510752 0.012999207
0.046566065 -0.056312449 0.011633277
0.046552014 -0.055016018 0.010632843
0.047648534 -0.055060524 0.0096626878
0.050802536 -0.057428952 0.0092651248
0.051254343 -0.056706931 0.0085816383
0.052035816 -0.056372132 0.0082688034
0.05263957 -0.055862401 0.0072363019
0.055852022 -0.058086101 0.0066442788
0.056449905 -0.057556767 0.0057375431
-0.059764571 -0.056444317 0.0053693056
-0.057853576 -0.055670425 0.0061525404
-0.055725653 -0.05465401 0.0071081817
-0.055466749 -0.055466749 0.0078711808
-0.054050647 -0.055131655 0.0085909963
-0.052894309 -0.055053264 0.0094977617
-0.052078005 -0.055332884 0.010072261
-0.05047971 -0.054775856 0.010611087
-0.049588252 -0.054978278 0.011010051
-0.04847496 -0.054938287 0.011288792
-0.047021635 -0.054502353 0.011808127
-0.046210811 -0.05480817 0.011665374
-0.045236249 -0.05492973 0.011484593
-0.043553546 -0.05417636 0.011335641
-0.043202359 -0.05508301 0.011111349
-0.042012691 -0.054939672 0.010891289
-0.041185323 -0.055275042 0.01117003
-0.040130731 -0.055315327 0.011232674
-0.039098185 -0.055389095 0.011481643
-0.037718762 -0.054961625 0.011389971
-0.03676356 -0.055145338 0.011005729
-0.035279766 -0.054523274 0.011063844
-0.034885082 -0.055598099 0.011366725
-0.033081654 -0.054424655 0.011779159
-0.031919137 -0.054262534 0.012020707
-0.031397857 -0.055216916 0.012485474
-0.029960586 -0.054571066 0.012459427
-0.02889543 -0.054580256 0.012753695
-0.02793646 -0.054798443 0.013075918
-0.026801281 -0.05467461 0.013109773
-0.02567078 -0.054550406 0.013331801
-0.024793601 -0.054977115 0.013977915
-0.023482377 -0.054436423 0.014048427
-0.022239096 -0.054009233 0.014407605
-0.021511395 -0.054854058 0.01472345
-0.020155871 -0.054102603 0.015260577
-0.019149411 -0.05425667 0.015575409
-0.018194344 -0.054583035 0.015553623
-0.016974969 -0.054107711 0.015809387
-0.016003495 -0.054411884 0.015573025
-0.01479998 -0.053914212 0.015361577
-0.01383986 -0.054294836 0.014609516
-0.012734881 -0.054123245 0.014063716
-0.011777557 -0.054605033 0.013527572
-0.010486854 -0.053482961 0.0131284
-0.0096868929 -0.054892395 0.013034165
-0.0086081186 -0.05487676 0.01299113
-0.0075354143 -0.054900877 0.012941748
-0.0064758766 -0.055044949 0.012708187
-0.0054278946 -0.055364527 0.01288107
-0.0042497758 -0.054184645 0.013523042
-0.0032213321 -0.05476265 0.013919741
-0.0021362165 -0.054473523 0.014083803
-0.0010686625 -0.054501791 0.014393747
0 -0.054252092 0.014983058
0.0010566864 -0.053891007 0.015418857
0.0021630721 -0.055158339 0.015526503
0.00323603 -0.055012509 0.01556325
0.0042255828 -0.05387618 0.015440345
0.0053525954 -0.054596473 0.015510291
0.0063597565 -0.05405793 0.015216172
0.0074418569 -0.054219246 0.014790446
0.0085689314 -0.054626938 0.014898181
0.0096096108 -0.054454464 0.015093565
0.010529181 -0.053698827 0.015311629
0.011713707 -0.054309007 0.015290618
0.01288216 -0.05474918 0.015174568
0.01368189 -0.053675111 0.015497327
0.014890533 -0.054244082 0.015543222
0.016011655 -0.05443963 0.015722454
0.016923718 -0.053944349 0.015875518
0.018043322 -0.054129969 0.01611653
0.019017804 -0.053883784 0.016079187
0.020555362 -0.055174921 0.015783757
0.021345867 -0.05443196 0.015314221
0.022239096 -0.054009233 0.014911562
0.02330433 -0.054023676 0.014628679
0.024413036 -0.054133251 0.014499873
0.025698312 -0.054608915 0.014119804
0.026799772 -0.054671533 0.013747841
0.028104382 -0.055127829 0.013224393
0.029095856 -0.054958839 0.01342994
0.030023098 -0.05468493 0.013301969
0.030850241 -0.054253869 0.013301969
0.032036759 -0.054462489 0.013884276
0.033377044 -0.054910619 0.014483243
0.033916481 -0.054054391 0.014553607
0.035798993 -0.05532572 0.014892638
0.036456171 -0.054684259 0.014926374
0.037585888 -0.054768011 0.014716059
0.038564641 -0.054633245 0.014490396
0.039344028 -0.054230954 0.014616251
0.040716216 -0.054645449 0.014337242
0.041716844 -0.054552794 0.014261305
0.042747319 -0.05450283 0.01403749
0.043738589 -0.054406535 0.013481438
0.044634882 -0.054199502 0.012119502
0.045804773 -0.054326594 0.010955781
0.047569294 -0.055137139 0.0099295378
0.048182812 -0.054607183 0.0090804398
0.049715415 -0.055119261 0.008540988
0.050906092 -0.055238526 0.0083210766
0.052928485 -0.056236517 0.0076509416
0.053418014 -0.055598345 0.0062317252
0.054554865 -0.055645961 0.0057375431
-0.059060663 -0.054685801 0.005212456
-0.058290929 -0.054991446 0.0060504079
-0.056167062 -0.054006793 0.0070671141
-0.054871447 -0.053795535 0.0079571009
-0.053400688 -0.053400688 0.0087695122
-0.052945822 -0.054026354 0.0094818175
-0.051508542 -0.053654734 0.010056317
-0.050935816 -0.054187041 0.010611087
-0.049042109 -0.053306639 0.010819733
-0.04779442 -0.053104911 0.010947019
-0.047832668 -0.054355308 0.011464834
-0.046227593 -0.053753018 0.011406094
-0.04494432 -0.053505145 0.011154056
-0.0446257 -0.054421581 0.010947019
-0.04289775 -0.05362219 0.010596275
-0.041964557 -0.053800717 0.010558307
-0.041358236 -0.054418735 0.010603815
-0.040160928 -0.054271523 0.010668576
-0.038632937 -0.053656861 0.010967612
-0.038006771 -0.054295387 0.010766923
-0.036787201 -0.054098826 0.010677278
-0.035471745 -0.053745069 0.010890424
-0.034228042 -0.053481318 0.010949433
-0.032867458 -0.053012025 0.011609614
-0.032376103 -0.053960174 0.012210518
-0.031225549 -0.053837154 0.012194574
-0.030123645 -0.053792227 0.012607485
-0.028876659 -0.053475294 0.013036072
-0.027701776 -0.05327265 0.013046354
-0.026655585 -0.053311169 0.013538092
-0.025959939 -0.054083206 0.014189988
-0.02471236 -0.053722523 0.014212757
-0.023598641 -0.05363328 0.014209926
-0.022303088 -0.05310259 0.014786214
-0.021382697 -0.053456746 0.015250504
-0.020138007 -0.052994758 0.015506506
-0.018992152 -0.052755982 0.015793979
-0.018125996 -0.053311754 0.015740663
-0.017166927 -0.053646646 0.015904307
-0.015997577 -0.053325258 0.015662253
-0.014754626 -0.052695096 0.015506506
-0.014107516 -0.05425968 0.015240103
-0.01295583 -0.053982627 0.014543504
-0.011769903 -0.053499561 0.014105499
-0.010626204 -0.053131025 0.013519198
-0.0095663201 -0.053146228 0.013464034
-0.0086074043 -0.05379628 0.013469726
-0.0075724791 -0.05408914 0.013457328
-0.0064532054 -0.053776715 0.013306677
-0.0053715003 -0.053715006 0.013412654
-0.0043387027 -0.054233786 0.014077097
-0.0032027301 -0.053378835 0.014750898
-0.002133613 -0.053340327 0.014884263
-0.0010788569 -0.053942841 0.015129238
0 -0.053111069 0.015444905
0.0010643962 -0.053219814 0.015810162
0.0021218753 -0.053046886 0.015727162
0.0031735071 -0.052891787 0.01604861
0.0042946576 -0.053683221 0.016167134
0.0052852877 -0.05285288 0.016254365
0.0063573769 -0.052978143 0.016010523
0.0075059948 -0.053614251 0.015421003
0.008415279 -0.052595496 0.01536876
0.0095663201 -0.053146228 0.015453994
0.010683062 -0.05341531 0.015761971
0.011813148 -0.053696129 0.015633076
0.012746092 -0.053108718 0.015577853
0.01387167 -0.053352579 0.015623659
0.014980656 -0.053502344 0.015908062
0.015918674 -0.053062245 0.015972555
0.016998613 -0.053120669 0.01592347
0.017782753 -0.052302219 0.016122848
0.019331608 -0.053698912 0.016467571
0.019846335 -0.052227199 0.01601094
0.021063626 -0.052659065 0.015789986
0.022653298 -0.053936426 0.015611768
0.023294272 -0.052941531 0.014574409
0.024220532 -0.052653331 0.014438808
0.025928048 -0.054016769 0.014266789
0.02656349 -0.05312698 0.013591468
0.027912136 -0.053677186 0.012971878
0.029608516 -0.054830585 0.01304099
0.030179419 -0.053891819 0.013012558
0.030922778 -0.053315137 0.012968332
0.03177876 -0.052964598 0.013081849
0.032889899 -0.053048223 0.01342994
0.034087148 -0.053261168 0.013961613
0.034944393 -0.052946053 0.014267325
0.0358955 -0.052787505 0.01407963
0.037736721 -0.053909604 0.013935
0.038448524 -0.053400733 0.014153332
0.038968246 -0.052659795 0.014218837
0.041147646 -0.054141641 0.014197916
0.041231759 -0.052861232 0.013690859
0.04303021 -0.053787764 0.01358369
0.044554129 -0.054334302 0.012899876
0.045212239 -0.053824097 0.011395782
0.045748997 -0.053196508 0.010630757
0.047824733 -0.054346289 0.0095189512
0.047891833 -0.053213146 0.0086996555
0.050126094 -0.054484885 0.0081166923
0.051670216 -0.054968316 0.0071563721
0.051857486 -0.054018218 0.0062723458
-0.058079407 -0.053696055 0.0058659315
-0.056302506 -0.053054284 0.0063338578
-0.055674903 -0.05349157 0.0076738894
-0.054512862 -0.0534226 0.0084276795
-0.05255546 -0.05255546 0.0093217194
-0.052366357 -0.053457323 0.0097883046
-0.050677069 -0.052833539 0.010500908
-0.048993245 -0.052188452 0.010636985
-0.048829239 -0.053169612 0.011010051
-0.047397036 -0.052783061 0.011261761
-0.046130251 -0.052567028 0.011203021
-0.045294132 -0.052843153 0.010876954
-0.044061482 -0.052658841 0.010596275
-0.042583056 -0.052164245 0.010528624
-0.041970178 -0.05273176 0.010451108
-0.041173816 -0.05309255 0.010476947
-0.040032573 -0.053016108 0.010486275
-0.039282653 -0.053468056 0.010705501
-0.038322158 -0.05365102 0.010559171
-0.036738869 -0.05294719 0.010705501
-0.035582013 -0.0528339 0.010861993
-0.034209449 -0.052383214 0.011314541
-0.033365663 -0.052739274 0.011875361
-0.032157771 -0.052524358 0.012522221
-0.031310294 -0.052903596 0.012622684
-0.030464135 -0.053312235 0.013254762
-0.028820198 -0.052303318 0.013716221
-0.027540587 -0.051903415 0.01392898
-0.027097099 -0.053110309 0.014403194
-0.025647376 -0.052363392 0.014469385
-0.024651771 -0.052518986 0.014643341
-0.023503438 -0.052348565 0.014707565
-0.022105515 -0.051579531 0.015442282
-0.021091791 -0.051674888 0.015534133
-0.020344 -0.052466102 0.015669674
-0.019139409 -0.052101728 0.01592201
-0.018134594 -0.052270297 0.015969336
-0.017003786 -0.052074093 0.01601997
-0.015963435 -0.052147225 0.015865594
-0.014953037 -0.052335627 0.015818924
-0.013985202 -0.05271345 0.015747547
-0.012686814 -0.05180449 0.014982224
-0.011930546 -0.053145159 0.014326185
-0.010729878 -0.052576404 0.013846189
-0.0096541885 -0.052561693 0.01374808
-0.0086119622 -0.05274827 0.01364398
-0.0074290689 -0.05200348 0.013525903
-0.0064301174 -0.052512627 0.013612956
-0.0053589158 -0.052517373 0.013788551
-0.0043090386 -0.052785721 0.014869183
-0.0032124212 -0.052469544 0.015135944
-0.0021374105 -0.052366555 0.015563577
-0.0010676861 -0.052316621 0.015742958
0 -0.052171469 0.015920997
0.0010635706 -0.052114956 0.016437024
0.0021254269 -0.052072957 0.016055554
0.0032334826 -0.052813549 0.016269028
0.0042821676 -0.05245655 0.016692936
0.0053101983 -0.05203994 0.016561896
0.0063673016 -0.051999629 0.016147971
0.0074739703 -0.052317791 0.015956759
0.0084478566 -0.051743116 0.015571743
0.009669981 -0.052647673 0.015749872
0.010530819 -0.051601011 0.01584971
0.011849354 -0.052783486 0.015696436
0.012922024 -0.05276493 0.015470535
0.013654917 -0.051468533 0.01574257
0.014975902 -0.052415654 0.015764505
0.015987024 -0.052224275 0.015764505
0.017008625 -0.052088913 0.01601094
0.018000957 -0.051885109 0.016470879
0.019115467 -0.05203655 0.015935212
0.019886831 -0.051287085 0.01600197
0.021286435 -0.052151766 0.015984058
0.022425368 -0.05232586 0.015404135
0.023165736 -0.051596414 0.014632434
0.024448864 -0.052086707 0.014211684
0.025585026 -0.052236091 0.013982981
0.02670143 -0.0523348 0.013884276
0.027746303 -0.052291106 0.013091654
0.0291414 -0.05288624 0.013162941
0.0302731 -0.052977923 0.012997657
0.031378571 -0.053018961 0.012993932
0.03189341 -0.052092567 0.012693137
0.032909218 -0.052017789 0.013138801
0.033553023 -0.05137806 0.013631016
0.034759894 -0.051613174 0.01379168
0.036017094 -0.051906984 0.013489306
0.037165675 -0.052031945 0.013268858
0.038293045 -0.052121088 0.013581961
0.039455011 -0.052251227 0.013530046
0.040427368 -0.052130025 0.013254583
0.041610718 -0.052280128 0.013362646
0.04333951 -0.0530909 0.012817174
0.043844234 -0.052399203 0.011901557
0.045261264 -0.052804805 0.010984361
0.046306223 -0.052767552 0.010138482
0.046560492 -0.051851459 0.0092214346
0.048393458 -0.052695096 0.0082320273
0.049662642 -0.052901506 0.0071182847
0.050694019 -0.052851211 0.0055474043
-0.057644725 -0.052206542 0.0051396787
-0.055800762 -0.051508397 0.0058657527
-0.055838302 -0.052553695 0.0066901445
-0.054408744 -0.052232388 0.0078471303
-0.052947868 -0.051867303 0.0088734925
-0.051920094 -0.051920094 0.0093277991
-0.050576124 -0.051652212 0.010206014
-0.049699426 -0.051860269 0.010363489
-0.048943825 -0.052206744 0.010363579
-0.047718208 -0.052056231 0.010665715
-0.046718538 -0.052150924 0.010634691
-0.045029327 -0.051462088 0.010588199
-0.043842383 -0.051327664 0.010349005
-0.043222208 -0.051866651 0.010013998
-0.041493777 -0.051069263 0.010146648
-0.041305114 -0.052174877 0.01026538
-0.040450417 -0.052476212 0.010206819
-0.038962159 -0.051949546 0.010446042
-0.037898656 -0.051975299 0.010362178
-0.036788739 -0.05193704 0.01056993
-0.035206281 -0.051209137 0.011102498
-0.034165528 -0.051248293 0.011110812
-0.033457909 -0.051805794 0.012028933
-0.032437198 -0.051899515 0.012737483
-0.031781908 -0.052604534 0.012959361
-0.030324375 -0.051984645 0.013514578
-0.0288777 -0.051338132 0.013937324
-0.027944623 -0.051590074 0.014537036
-0.026744124 -0.051348716 0.0145697
-0.025814557 -0.051629115 0.014693946
-0.024490898 -0.051111437 0.014801741
-0.023461232 -0.051188141 0.01511386
-0.022294931 -0.05095984 0.015662253
-0.021337526 -0.051210061 0.015710175
-0.020163924 -0.050940439 0.015790731
-0.019085241 -0.050893977 0.01592201
-0.018180106 -0.05133206 0.015708804
-0.016876256 -0.050628766 0.015827507
-0.016133361 -0.051626757 0.015719712
-0.014846534 -0.0509024 0.015585959
-0.01384621 -0.051124468 0.0152722
-0.012931691 -0.051726766 0.014740616
-0.011729072 -0.051181406 0.014368981
-0.010721583 -0.0514636 0.014035016
-0.0097109992 -0.051791999 0.013815969
-0.0086000087 -0.05160005 0.013767153
-0.0074643381 -0.051184032 0.013801187
-0.0064462037 -0.051569629 0.013801187
-0.0053747427 -0.051597528 0.013944924
-0.004243976 -0.05092771 0.014793545
-0.0032288185 -0.051661097 0.015330851
-0.0021344167 -0.051226001 0.015717596
-0.0010522646 -0.050508697 0.015896827
0 -0.050825603 0.01614219
0.0010687923 -0.051302027 0.01675272
0.0021246092 -0.050990619 0.016276836
0.0032199193 -0.051518708 0.016561896
0.0041848905 -0.050218686 0.016943246
0.0053653591 -0.051507451 0.016801268
0.0063739251 -0.050991401 0.016299367
0.0073944237 -0.050704621 0.016077816
0.0085811233 -0.051486738 0.015947908
0.0094468035 -0.050382949 0.015708506
0.01064835 -0.051112082 0.015560269
0.011778334 -0.051396366 0.015536875
0.012793718 -0.051174872 0.015188009
0.013742375 -0.050741076 0.01519388
0.014899052 -0.051082462 0.015099674
0.015822999 -0.050633598 0.015224457
0.016943043 -0.050829127 0.015524387
0.018189359 -0.051358193 0.015872091
0.018926296 -0.050470129 0.015980154
0.020216778 -0.051073965 0.015917212
0.021228684 -0.050948843 0.015755355
0.022344446 -0.051073018 0.015401691
0.023779085 -0.051881641 0.014944464
0.024777276 -0.051709097 0.013982981
0.025636157 -0.051272314 0.013982981
0.026532637 -0.050942663 0.013884276
0.027961902 -0.051621974 0.013158411
0.028880961 -0.051343929 0.012858748
0.030271953 -0.051894773 0.012623847
0.031445682 -0.052048024 0.012834549
0.032230716 -0.051569145 0.012542427
0.033278272 -0.051527642 0.01311028
0.033964682 -0.050947022 0.013129115
0.035491023 -0.051623307 0.013541669
0.036109824 -0.050978571 0.013202667
0.037159808 -0.050962023 0.012938052
0.038399912 -0.051199883 0.013207853
0.039042883 -0.05065022 0.01341942
0.040359177 -0.050980009 0.013404042
0.041712336 -0.051338259 0.012889773
0.04306557 -0.051678684 0.012375414
0.043847322 -0.05133345 0.011441857
0.045598362 -0.052112412 0.010530919
0.046514038 -0.051922649 0.0092222691
0.048120715 -0.052495327 0.0081953108
0.049420349 -0.052715037 0.0072377324
0.049439333 -0.051588867 0.006141603
-0.057037983 -0.051553562 0.0052899122
-0.055373345 -0.051030338 0.0061348975
-0.054394383 -0.051130716 0.0071687996
-0.053248879 -0.051075455 0.0079012215
-0.051920649 -0.05083897 0.0085871518
-0.050927158 -0.050927158 0.0093257427
-0.0496695 -0.050749272 0.0094102621
-0.048971523 -0.051148031 0.0097391009
-0.047623411 -0.050870463 0.010096341
-0.046812333 -0.05116697 0.0097969472
-0.045328233 -0.05072445 0.0099083185
-0.044489916 -0.051000636 0.0094867349
-0.04349025 -0.051101044 0.00934273
-0.041719738 -0.050277635 0.0094622672
-0.041598901 -0.051451273 0.0095940232
-0.039683439 -0.050408691 0.0096922815
-0.039260112 -0.051256262 0.0097343922
-0.038509361 -0.051712576 0.009747535
-0.03624342 -0.050101198 0.0099660754
-0.035196602 -0.050128497 0.010493487
-0.034386035 -0.050504491 0.010982633
-0.033115752 -0.050207753 0.012028933
-0.032584336 -0.051048797 0.01243791
-0.03151615 -0.051077899 0.012959361
-0.029947536 -0.050269078 0.013379484
-0.028959533 -0.050411038 0.013855606
-0.027860066 -0.050362431 0.01415506
-0.026484463 -0.049790792 0.014594108
-0.025948312 -0.050815448 0.014718264
-0.024432689 -0.049927667 0.014902294
-0.023639692 -0.050502978 0.015219957
-0.022392882 -0.0501174 0.015710175
-0.021226417 -0.049882084 0.015784502
-0.020006608 -0.049490031 0.01592201
-0.019072307 -0.049799915 0.016210526
-0.018011587 -0.049796741 0.016153067
-0.016993498 -0.049918402 0.016124755
-0.015873922 -0.049738292 0.016026586
-0.014779701 -0.049617566 0.015817672
-0.013862848 -0.05011953 0.015576333
-0.012726275 -0.049844582 0.014948308
-0.011843042 -0.050602093 0.014434755
-0.010882731 -0.051148836 0.013864219
-0.0097013079 -0.050662391 0.013844252
-0.0086548375 -0.050847169 0.013789028
-0.0075059407 -0.050397031 0.013733298
-0.0063685253 -0.049886782 0.013784766
-0.0053738938 -0.050514601 0.013944924
-0.004295601 -0.05047331 0.014793545
-0.003214685 -0.050363399 0.015357643
-0.0021276535 -0.049999855 0.015792221
-0.0010756456 -0.050555341 0.016066253
0 -0.049601994 0.016405612
0.0010663194 -0.050117016 0.016860932
0.0021237778 -0.049908776 0.016296089
0.0031451047 -0.049273308 0.016764909
0.0042609628 -0.050066311 0.016860664
0.0053466442 -0.050258458 0.016966015
0.0063318308 -0.049599342 0.016863078
0.0074733044 -0.050177902 0.016070247
0.0084761027 -0.049797103 0.015887618
0.0095678093 -0.049965225 0.015715539
0.010792525 -0.050724871 0.015587389
0.011816407 -0.050488282 0.015294671
0.012904966 -0.050544452 0.015174925
0.013756623 -0.049735487 0.014837354
0.014855111 -0.049870729 0.014880687
0.015837612 -0.049624518 0.014959186
0.016996404 -0.049926937 0.015161514
0.017872728 -0.049412835 0.015446454
0.019336928 -0.050490867 0.015690207
0.020182459 -0.049925026 0.01551649
0.020974802 -0.049290787 0.015404135
0.022916127 -0.051288474 0.015064567
0.023518633 -0.050244354 0.014282256
0.024566185 -0.050200462 0.013894886
0.026004897 -0.050926257 0.01388675
0.026501087 -0.049822044 0.013683707
0.027578812 -0.049854007 0.01311028
0.028742552 -0.050033331 0.013030678
0.030250328 -0.050777335 0.012769282
0.031251647 -0.050649222 0.012660861
0.032589775 -0.051057313 0.012271345
0.032891136 -0.049867205 0.012452155
0.034216039 -0.050254807 0.012579471
0.034688704 -0.049405124 0.012563139
0.035833079 -0.049533963 0.012946695
0.037552807 -0.050428055 0.012922764
0.038710732 -0.050539013 0.013034731
0.039377753 -0.050020386 0.012817174
0.040398382 -0.049966421 0.01265341
0.042117026 -0.050756413 0.012224913
0.042976815 -0.050497759 0.011476994
0.044383697 -0.050878871 0.010708272
0.044981655 -0.050336614 0.009396106
0.046576705 -0.050909422 0.0085718632
0.048698839 -0.052019216 0.0076546669
0.04776362 -0.049886446 0.0066746771
-0.055091679 -0.049690533 0.0056499243
-0.05404605 -0.049722366 0.0063390732
-0.052951597 -0.049709667 0.0073628426
-0.052720658 -0.050523967 0.0077328086
-0.050520215 -0.04944532 0.0087396204
-0.049655877 -0.049655877 0.0090215802
-0.049367368 -0.050464422 0.0092191398
-0.047846224 -0.050021056 0.0093503296
-0.046237666 -0.049463551 0.0094131827
-0.045338564 -0.049656522 0.0089601576
-0.044210985 -0.049602568 0.0086768866
-0.043097522 -0.049562152 0.0087987781
-0.042223047 -0.049801547 0.0090772212
-0.04091404 -0.049527526 0.0091331303
-0.040163428 -0.049932908 0.0091311634
-0.039445046 -0.050402004 0.0090772212
-0.038002834 -0.049946584 0.0092863142
-0.036415875 -0.049268536 0.0092100501
-0.03543774 -0.049398065 0.0097051859
-0.034181345 -0.049135685 0.010158151
-0.033802975 -0.050159253 0.011651665
-0.032573696 -0.049946334 0.012340635
-0.030971454 -0.049127135 0.012895972
-0.03006945 -0.049399812 0.013464391
-0.028871519 -0.049188513 0.013949722
-0.027495528 -0.048645936 0.014297485
-0.026693061 -0.049115229 0.014613688
-0.025835274 -0.049517613 0.014946669
-0.024543997 -0.049087994 0.015365124
-0.023792828 -0.049748641 0.015406251
-0.022352282 -0.048962139 0.015841961
-0.021309933 -0.049012847 0.015841961
-0.020308949 -0.049169037 0.01592201
-0.019195406 -0.049054932 0.016315311
-0.018058928 -0.048865333 0.016308486
-0.017034197 -0.048973318 0.016180962
-0.015853951 -0.048618786 0.016061127
-0.014864453 -0.048840348 0.015989274
-0.01390224 -0.04919254 0.01543811
-0.012801128 -0.049070992 0.014730394
-0.011978322 -0.050091166 0.014065921
-0.010791985 -0.049643137 0.013877094
-0.0096555799 -0.049350746 0.013701975
-0.0086025689 -0.04946477 0.013627321
-0.0075182687 -0.049405769 0.013637036
-0.0064259539 -0.049265649 0.013832331
-0.0053294003 -0.049030483 0.014204025
-0.0042561274 -0.048945468 0.015161514
-0.0032012507 -0.049085844 0.015835166
-0.0021566129 -0.049602102 0.01611203
-0.0010562668 -0.048588276 0.016308516
0 -0.048931167 0.016638964
0.0010633542 -0.048914295 0.016861141
0.002094947 -0.048183784 0.016531885
0.0032123358 -0.049255818 0.016756982
0.0042195413 -0.048524726 0.016952008
0.0053272801 -0.049010977 0.01705426
0.0064128712 -0.049165349 0.016939014
0.0074733272 -0.049110439 0.016323775
0.0085139023 -0.048954938 0.015870154
0.0095770927 -0.048949588 0.015725434
0.010657547 -0.04902472 0.015242308
0.011751851 -0.049144108 0.015383601
0.012941361 -0.049608551 0.015139729
0.013876266 -0.049100634 0.014855802
0.014852587 -0.048801359 0.014908373
0.015898444 -0.048755229 0.014880687
0.016739786 -0.048126888 0.014998287
0.018160788 -0.049140956 0.015110642
0.019346818 -0.04944187 0.015158027
0.020170989 -0.048835024 0.015454412
0.021441827 -0.049316205 0.015462309
0.022484401 -0.049251545 0.015237182
0.023316437 -0.048752554 0.014524519
0.024818024 -0.049636047 0.01388675
0.025880264 -0.049603842 0.01386112
0.026745962 -0.049212568 0.0135189
0.027580401 -0.048796095 0.012909323
0.02889926 -0.049235776 0.012715727
0.03013544 -0.049508225 0.012464732
0.031358685 -0.049741365 0.012289405
0.032348972 -0.04960176 0.012049377
0.033568937 -0.04981197 0.011851668
0.03376396 -0.048535693 0.011988014
0.034861956 -0.048595455 0.01196748
0.036290683 -0.049099162 0.012191564
0.036965743 -0.048583549 0.011912465
0.038348142 -0.049000409 0.01224336
0.039571967 -0.049197581 0.012411475
0.040813204 -0.049405459 0.011774778
0.041701023 -0.04918582 0.011235058
0.04324219 -0.049728524 0.010484695
0.04405532 -0.049427919 0.0095136762
0.045204446 -0.04950963 0.0087046325
0.047154542 -0.050444394 0.0080018044
0.047756139 -0.049926873 0.0068549514
0.048868902 -0.049954876 0.0052210093
-0.054187272 -0.048768546 0.0056499243
-0.05321677 -0.048872549 0.006306231
-0.051964153 -0.048716396 0.0069409311
-0.050449353 -0.048302572 0.0076367855
-0.05017088 -0.049080208 0.008023113
-0.048749674 -0.048749674 0.0081988871
-0.047321487 -0.048396979 0.0084448159
-0.046385221 -0.048542675 0.0083349049
-0.045080319 -0.048300344 0.008215785
-0.044134296 -0.04844008 0.0081604719
-0.04337481 -0.048796665 0.0081604719
-0.04232182 -0.048832871 0.0082657635
-0.040863536 -0.048391029 0.0083718598
-0.040134426 -0.04881214 0.0086181164
-0.038760774 -0.048450969 0.0084566176
-0.037854966 -0.048670672 0.008949399
-0.036713429 -0.048591305 0.0092863142
-0.035212465 -0.048017003 0.0098006427
-0.034745622 -0.048861034 0.01015687
-0.033424731 -0.048519775 0.011663377
-0.032274615 -0.048411928 0.012328953
-0.03129033 -0.048553959 0.012896568
-0.029933987 -0.048108194 0.013646066
-0.028419266 -0.047365442 0.014063358
-0.027800353 -0.048115999 0.013738841
-0.026801825 -0.048243284 0.014782488
-0.025778629 -0.048334934 0.015118152
-0.02476792 -0.048458979 0.015450358
-0.02325242 -0.047561772 0.015355647
-0.022355998 -0.047905713 0.015841961
-0.021386104 -0.048118737 0.01594615
-0.020222638 -0.047895726 0.01601997
-0.019207325 -0.048018314 0.016397655
-0.018291436 -0.048418511 0.016328365
-0.016797761 -0.047243703 0.016209364
-0.01613088 -0.048392639 0.016090512
-0.014933902 -0.04800183 0.015800804
-0.013757339 -0.047621559 0.015303105
-0.012874491 -0.048279345 0.014987975
-0.011927048 -0.048792474 0.013892502
-0.010778658 -0.048503965 0.013931453
-0.0097646043 -0.048823025 0.013842434
-0.0085943211 -0.048343059 0.013618231
-0.0074410737 -0.047835477 0.013801187
-0.0064433888 -0.048325419 0.013738304
-0.0053002993 -0.047702696 0.014022708
-0.0042495672 -0.04780763 0.01493454
-0.0032088754 -0.048133131 0.015656948
-0.0021436459 -0.048232034 0.015892833
-0.0010704998 -0.048172493 0.016091704
0 -0.047951777 0.016551346
0.0010522007 -0.047349032 0.016658813
0.0021225596 -0.047757596 0.016308814
0.0031745199 -0.047617801 0.016538203
0.0042229071 -0.047507707 0.016740918
0.0053396816 -0.048057139 0.017018169
0.0062867119 -0.04715034 0.016730458
0.0074291988 -0.047759138 0.016249359
0.0085259853 -0.047958672 0.015729755
0.0095617883 -0.047808945 0.015512317
0.010658114 -0.047961518 0.015208989
0.011760479 -0.048111055 0.015375674
0.012850506 -0.048189402 0.014929891
0.013840005 -0.047907714 0.014852822
0.014916098 -0.047944602 0.014749229
0.0158257 -0.047477104 0.014795959
0.016964382 -0.047712326 0.014967799
0.01810207 -0.047917247 0.014686495
0.0192727 -0.048181754 0.014948308
0.020145589 -0.047713239 0.015342057
0.02131227 -0.047952611 0.015342057
0.022273401 -0.047728717 0.015016794
0.023424126 -0.047912989 0.014282256
0.024596782 -0.048124138 0.013707072
0.025408454 -0.047640856 0.013733834
0.026629467 -0.047933038 0.01304099
0.027817646 -0.048145931 0.01283437
0.028928557 -0.048214264 0.012632757
0.030428203 -0.048902474 0.01206556
0.031185169 -0.04839078 0.011890233
0.032310873 -0.048466314 0.011572272
0.033630747 -0.048818827 0.011003584
0.034397703 -0.048371769 0.011003584
0.035226416 -0.048036024 0.010810286
0.036366496 -0.048132125 0.010757864
0.036749974 -0.047249969 0.011035115
0.038430523 -0.048038159 0.011015862
0.039558429 -0.048111603 0.01117754
0.04025377 -0.047668941 0.010808975
0.041853745 -0.048292786 0.010448217
0.042713962 -0.048053212 0.0095671713
0.044201028 -0.048513323 0.0083144903
0.045718178 -0.04898376 0.0078086555
0.046330817 -0.048485741 0.0070394576
0.047960214 -0.049050223 0.0060396791
-0.053467024 -0.048011206 0.0055421889
-0.051579572 -0.047281276 0.0060199499
-0.051580653 -0.048288271 0.0067454576
-0.049946263 -0.047774687 0.007145524
-0.049009565 -0.047920462 0.0072546899
-0.047949374 -0.047949374 0.0076843202
-0.046177547 -0.047251441 0.0078121424
-0.045411587 -0.047574043 0.0077713728
-0.044682767 -0.047952235 0.0077954829
-0.043507233 -0.047857959 0.0078699589
-0.042295698 -0.047718223 0.0078941882
-0.041541923 -0.048101172 0.0077555776
-0.040004667 -0.047573116 0.0081518888
-0.039043002 -0.047719225 0.0083050728
-0.037804004 -0.047525033 0.0082867742
-0.036520153 -0.047261372 0.0089073777
-0.035515111 -0.04735348 0.0095904768
-0.034710638 -0.04772713 0.01004687
-0.033463832 -0.047497049 0.011476576
-0.03244482 -0.047585733 0.012117594
-0.030923711 -0.046918731 0.012545288
-0.029821971 -0.046863098 0.013360798
-0.028854832 -0.047022689 0.014063358
-0.027611388 -0.046726961 0.014072895
-0.026722958 -0.047032405 0.014854252
-0.02582344 -0.047342975 0.015205264
-0.024314031 -0.046513796 0.0154984
-0.023429213 -0.046858426 0.015709102
-0.022641763 -0.047439881 0.016026586
-0.02126121 -0.046774659 0.016305506
-0.020253489 -0.046902817 0.016348511
-0.019421849 -0.047475636 0.016549647
-0.018093649 -0.046830621 0.016463101
-0.017065935 -0.046931323 0.016263723
-0.016002659 -0.046941131 0.016097099
-0.014945633 -0.046971988 0.015827805
-0.013882392 -0.046986558 0.015332699
-0.01287948 -0.04722476 0.01466617
-0.011892335 -0.047569338 0.014131844
-0.010902801 -0.047972322 0.014088094
-0.0096974811 -0.047409907 0.013935685
-0.0085874703 -0.047231086 0.013860196
-0.0074575408 -0.046875969 0.013863534
-0.0063255285 -0.046387207 0.013998806
-0.0052996338 -0.046636779 0.014337718
-0.0042550983 -0.046806078 0.015118867
-0.0031864832 -0.046735086 0.015737265
-0.0021386589 -0.047050491 0.015909702
-0.0010783701 -0.047448285 0.015827417
0 -0.046736386 0.016377032
0.0010635813 -0.046797577 0.016657293
0.0021261731 -0.04677581 0.016253114
0.0031690279 -0.046479076 0.016526073
0.0042744922 -0.047019415 0.016565382
0.0053387242 -0.046980772 0.016624749
0.006335346 -0.046459205 0.016469717
0.0074986885 -0.047134612 0.015980214
0.0084788781 -0.046633832 0.015528381
0.009522968 -0.046556734 0.01522243
0.010680431 -0.046993893 0.014982849
0.01169173 -0.046766922 0.015095234
0.012862759 -0.047163449 0.014632195
0.013904443 -0.04706119 0.014586121
0.01493376 -0.046934675 0.014468312
0.01589182 -0.046616007 0.014661521
0.016879888 -0.046419691 0.014749229
0.018071001 -0.046772003 0.014836341
0.019360816 -0.047326438 0.014979184
0.020098196 -0.046543192 0.015177548
0.021186145 -0.046609517 0.015016794
0.02248542 -0.047112305 0.014825374
0.023722127 -0.047444254 0.013982981
0.024224957 -0.046343394 0.013687849
0.025945414 -0.047566589 0.013431072
0.026544502 -0.046718322 0.012972593
0.027713604 -0.046899945 0.012672365
0.028722575 -0.046807159 0.012026995
0.029891385 -0.046972174 0.011372924
0.03086235 -0.046825632 0.011197597
0.032791153 -0.048093691 0.010656893
0.033388898 -0.047390692 0.010059267
0.034826644 -0.047886636 0.010038286
0.035614781 -0.047486376 0.0098553002
0.036031436 -0.046628918 0.0098068416
0.036924839 -0.046419799 0.010360122
0.038884353 -0.04752532 0.010240495
0.03943745 -0.046898589 0.010466844
0.041103963 -0.047594059 0.010007232
0.041902788 -0.04727494 0.0089411438
0.042843793 -0.047128171 0.0082218945
0.045140129 -0.04844306 0.0074144304
0.045895174 -0.048080657 0.0066816807
0.047185633 -0.048282973 0.0061664581
-0.052665267 -0.047179304 0.0052899122
-0.051520742 -0.047135998 0.006021589
-0.050139613 -0.046869636 0.0066245794
-0.048618589 -0.04645776 0.0069444478
-0.047996584 -0.046905752 0.0071906149
-0.046653811 -0.046653811 0.0071744919
-0.045251444 -0.046328861 0.0070652366
-0.044506714 -0.046677772 0.0071318448
-0.043781847 -0.047065489 0.0072997808
-0.042808231 -0.047198821 0.0074396431
-0.040825915 -0.046197746 0.0074911714
-0.040430807 -0.046987154 0.0077426434
-0.039164275 -0.046779554 0.0078983903
-0.037549842 -0.046132661 0.0078588724
-0.036583301 -0.046267115 0.008066237
-0.035819698 -0.046674151 0.0090295672
-0.034704439 -0.046634089 0.0098449588
-0.033371583 -0.046289615 0.010741174
-0.032224953 -0.0461891 0.011854053
-0.030625096 -0.045409624 0.012451768
-0.029943405 -0.045984514 0.013327152
-0.028824987 -0.045906458 0.014234513
-0.027428443 -0.045362424 0.014547646
-0.026730113 -0.045975793 0.014405578
-0.025708349 -0.046060793 0.015153378
-0.024391543 -0.04560158 0.015469253
-0.023350256 -0.045639139 0.015782923
-0.02237956 -0.045824815 0.016084164
-0.021436453 -0.046088375 0.016276151
-0.020470632 -0.046328273 0.016314983
-0.01902587 -0.045450691 0.016509622
-0.018129397 -0.045856711 0.01644817
-0.017048219 -0.045817092 0.016285509
-0.015830655 -0.045381211 0.016129047
-0.014955581 -0.045935001 0.015976429
-0.01396253 -0.046183754 0.01536715
-0.012829853 -0.045973644 0.014645785
-0.011948193 -0.046706572 0.014265031
-0.010869364 -0.046738267 0.014083594
-0.0096329888 -0.046024282 0.01404053
-0.0086542713 -0.046516709 0.013703555
-0.0074964599 -0.046049681 0.013842434
-0.0063992441 -0.045861248 0.013914376
-0.0053159106 -0.04571683 0.014427245
-0.0042589088 -0.04578327 0.015178293
-0.003192432 -0.045758195 0.015934795
-0.0021426287 -0.046066511 0.016081989
-0.0010742949 -0.04619468 0.016475677
0 -0.046205252 0.016614676
0.0010605328 -0.045602906 0.016851962
0.0021115884 -0.045399148 0.016658813
0.0032193495 -0.046144012 0.016749144
0.0042409645 -0.045590367 0.01660043
0.0052689286 -0.045312788 0.016533911
0.006376693 -0.045699634 0.01622206
0.0074616657 -0.045835946 0.015497088
0.0084729139 -0.045541909 0.015225053
0.0095920768 -0.045828812 0.0152013
0.010686329 -0.045951217 0.014969766
0.011723535 -0.045828365 0.015034735
0.012972383 -0.046484374 0.014625162
0.013805771 -0.045665242 0.014421344
0.01481986 -0.045518145 0.014258474
0.01601786 -0.045917865 0.014239877
0.01681366 -0.045186713 0.014664501
0.01819736 -0.046028614 0.014795959
0.019238457 -0.045958538 0.014749229
0.020116244 -0.045526233 0.014911294
0.021458251 -0.046135243 0.014825374
0.022332519 -0.04572849 0.014707625
0.02334626 -0.045631327 0.013835818
0.024575304 -0.045945134 0.013539255
0.025810022 -0.046242956 0.013195038
0.026702883 -0.045928959 0.012702078
0.027694279 -0.045802079 0.012189835
0.029092837 -0.046333037 0.011116117
0.029931551 -0.045966312 0.010778904
0.031216063 -0.046285886 0.010762811
0.032032698 -0.045913532 0.0099184215
0.033530861 -0.046510551 0.0096965134
0.034725714 -0.046662677 0.0091959238
0.035424892 -0.046159711 0.0089923441
0.035856195 -0.045347538 0.0089027286
0.03753927 -0.046119679 0.0092748404
0.038996886 -0.046579618 0.0089777708
0.039959487 -0.046439402 0.0089138746
0.040628664 -0.045974541 0.0081862807
0.041699786 -0.045976687 0.0076782703
0.043424699 -0.046681553 0.0069419444
0.044467147 -0.046636276 0.0062278509
0.045628794 -0.046715192 0.0054994226
-0.05054339 -0.046148315 0.0057722628
-0.048926808 -0.045665022 0.0060241818
-0.047892336 -0.045715414 0.0063009858
-0.046362568 -0.045284368 0.0063009858
-0.045475997 -0.045475997 0.0064480901
-0.044528183 -0.045614235 0.0064771473
-0.044024959 -0.046226207 0.0068031847
-0.042470977 -0.045737978 0.0066041946
-0.041368797 -0.045723408 0.0070343614
-0.040224612 -0.045660369 0.0076135993
-0.039072283 -0.045584336 0.007676661
-0.03801002 -0.045612026 0.0077376962
-0.037135232 -0.045872938 0.008053869
-0.035932757 -0.045732602 0.0094572008
-0.035278354 -0.04630284 0.010162711
-0.033710185 -0.045671865 0.01087603
-0.032151733 -0.045012429 0.011928558
-0.031154059 -0.045119669 0.012925297
-0.029913969 -0.044870954 0.013462514
-0.028711634 -0.044662543 0.014125258
-0.027871452 -0.045023117 0.014489442
-0.026749212 -0.044938676 0.01455605
-0.025828399 -0.045199696 0.015226305
-0.02468757 -0.045081645 0.015388459
-0.023494914 -0.044853929 0.015891463
-0.022296401 -0.044592801 0.016054243
-0.021473564 -0.045094486 0.016310632
-0.019982254 -0.0441713 0.016382575
-0.019217329 -0.044840436 0.0162687
-0.01811973 -0.044766396 0.016351134
-0.016950894 -0.044496097 0.01619634
-0.015935706 -0.044619977 0.016039997
-0.014818658 -0.044455975 0.015831947
-0.013802302 -0.044592056 0.01536715
-0.012977242 -0.045420349 0.014625371
-0.011835303 -0.045189343 0.014265716
-0.010807351 -0.045390874 0.014346331
-0.0097479206 -0.045490298 0.014131844
-0.0085498337 -0.044886626 0.013888121
-0.0075345058 -0.045207035 0.01408878
-0.0064329398 -0.045030579 0.014174342
-0.0052985088 -0.044507474 0.014554322
-0.0042398954 -0.044518903 0.015210181
-0.0031983643 -0.044777103 0.015932918
-0.0021321545 -0.044775248 0.01603955
-0.0010636009 -0.044671237 0.016549319
0 -0.044864945 0.016642392
0.0010534737 -0.044245895 0.0168311
0.0021128706 -0.044370282 0.016479015
0.0031776254 -0.044486754 0.016727865
0.0041928389 -0.04402481 0.016461521
0.0052909292 -0.044443808 0.01640901
0.0063700001 -0.044590004 0.015688092
0.00739699 -0.044381943 0.015486836
0.0085765114 -0.045026682 0.015064687
0.0096000507 -0.044800241 0.014966786
0.010591531 -0.044484433 0.014763266
0.011672601 -0.044568114 0.014552802
0.012796124 -0.044786438 0.014416635
0.013849579 -0.044744793 0.014059126
0.015063867 -0.045191605 0.013896674
0.015943887 -0.044642884 0.013957828
0.017053662 -0.044765864 0.014063299
0.018056899 -0.044611167 0.01410073
0.019005779 -0.044346821 0.014199466
0.020368963 -0.045026131 0.014530778
0.021399673 -0.044939313 0.014011234
0.02235236 -0.04470472 0.013725549
0.023509568 -0.044881903 0.013590544
0.024615157 -0.04494942 0.012984484
0.025700549 -0.044975962 0.013043165
0.026687173 -0.044834454 0.012394845
0.027496981 -0.044418201 0.011779606
0.028801486 -0.044802312 0.010836124
0.030164663 -0.045246996 0.010417938
0.031069862 -0.044997729 0.0099454522
0.032158989 -0.045022588 0.009247005
0.033815149 -0.045814071 0.0091029108
0.034775399 -0.045642715 0.0088588893
0.035825055 -0.045595527 0.0081048608
0.036880475 -0.045558233 0.0080350339
0.037627298 -0.045152757 0.0078175068
0.039028797 -0.045533597 0.0072207451
0.040211208 -0.045645151 0.0071983933
0.040494714 -0.044757314 0.0069085062
0.042193208 -0.045438841 0.0060715079
0.04288324 -0.045027405 0.0055734217
-0.045599028 -0.044513341 0.0054121315
-0.044433102 -0.044433102 0.0057119429
-0.043096948 -0.044174373 0.0060123801
-0.042653661 -0.044841032 0.0060159266
-0.041585851 -0.044868946 0.0064476132
-0.04010522 -0.044440921 0.0067559779
-0.039225779 -0.044673812 0.006907016
-0.037913948 -0.044413488 0.0074285865
-0.037323486 -0.045007735 0.0078216195
-0.035888053 -0.044588193 0.0086345673
-0.034819096 -0.044611972 0.0099470019
-0.033636291 -0.044486709 0.010494679
-0.032174457 -0.043971758 0.011566371
-0.031184819 -0.044088881 0.011853188
-0.029636964 -0.043396983 0.012965053
-0.028978789 -0.044004828 0.013710707
-0.027538633 -0.043426309 0.013943583
-0.026462426 -0.04339838 0.01438877
-0.02572892 -0.043953575 0.014542937
-0.024856847 -0.044310033 0.01526317
-0.023330368 -0.043479323 0.015344292
-0.022146914 -0.043239214 0.015480906
-0.021170089 -0.043398686 0.015983403
-0.020263664 -0.043726854 0.01609996
-0.019297512 -0.043955449 0.016310632
-0.01815322 -0.043781299 0.016343951
-0.01722095 -0.044128686 0.016054243
-0.015933426 -0.043551367 0.015745908
-0.014830096 -0.043430995 0.015525877
-0.01382712 -0.043608613 0.014948785
-0.012883075 -0.044017177 0.014836162
-0.011854346 -0.044184383 0.014429599
-0.010883496 -0.044622336 0.014672279
-0.0096838363 -0.044115257 0.014625371
-0.0086165555 -0.044159848 0.014402092
-0.0075716753 -0.044348385 0.014201164
-0.0063941972 -0.043693684 0.014404565
-0.0053001717 -0.043461408 0.014913291
-0.0042992118 -0.044066925 0.015340418
-0.0031960919 -0.043679923 0.015934795
-0.002118872 -0.043436877 0.016067147
-0.0010642984 -0.04363624 0.016470909
0 -0.043288197 0.016584635
0.0010652083 -0.043673541 0.016749024
0.0021290623 -0.043645781 0.016117275
0.003182444 -0.043493405 0.016202837
0.0042795599 -0.043865491 0.016181439
0.0053080567 -0.043526068 0.015692115
0.0062704687 -0.042848207 0.015579492
0.0074685118 -0.043744143 0.015006393
0.0085069072 -0.043597899 0.0149872
0.0095517561 -0.043513563 0.01487121
0.010717952 -0.043943603 0.014660954
0.011605561 -0.043257095 0.014375925
0.012883075 -0.044017177 0.013865024
0.013854706 -0.04369561 0.013657242
0.014942124 -0.043759078 0.013660371
0.016010711 -0.043762609 0.01353237
0.016901901 -0.043311123 0.013601184
0.017909048 -0.043192413 0.014048159
0.019288786 -0.043935571 0.01392442
0.020196892 -0.043582771 0.014158934
0.021168876 -0.043396201 0.013820231
0.022485288 -0.043899845 0.013455093
0.023432968 -0.043670535 0.013058752
0.024412526 -0.043517984 0.012874156
0.025922198 -0.044283755 0.012805939
0.026447292 -0.043373559 0.012038201
