ply
format ascii 1.0
comment PCL generated
element vertex 1297
property float x
property float y
property float z
element camera 0
property float view_px
property float view_py
property float view_pz
property float x_axisx
property float x_axisy
property float x_axisz
property float y_axisx
property float y_axisy
property float y_axisz
property float z_axisx
property float z_axisy
property float z_axisz
property float focal
property float scalex
property float scaley
property float centerx
property float centery
property int viewportx
property int viewporty
property float k1
property float k2
end_header
0.00323342 0.0097002592 0.010844439
0.0043791607 0.0098531106 0.010488063
0.0053912019 0.0097041633 0.010232598
0.0065394384 0.0098091569 0.0098384321
0.0076273284 0.009806565 0.0097871125
0.0086682681 0.0097518014 0.010247529
0.0096169012 0.0096169012 0.01101166
0.010728689 0.0096558202 0.011348337
0.011696886 0.0095701795 0.011985987
0.01279369 0.0095952675 0.012407094
0.013808058 0.0095594237 0.012817562
0.01500799 0.0096479934 0.012827277
0.015894867 0.0095369201 0.013490051
0.016952887 0.009535999 0.013967991
0.018137943 0.0096024396 0.014288843
0.01947025 0.0097351251 0.01464501
0.020421142 0.0096731726 0.014695346
0.021320414 0.0095941862 0.014729172
0.022456447 0.0096241906 0.014992714
0.023233404 0.0095045744 0.014881581
0.024223078 0.0094785951 0.015053481
0.025563177 0.0095861908 0.015197575
0.026633378 0.0095880153 0.015325665
0.027673755 0.0095793763 0.015803158
0.028587243 0.0095290802 0.015925199
0.029668204 0.0095362086 0.016093999
0.030725865 0.0095356125 0.016332835
0.031786848 0.009536054 0.016694427
0.032696996 0.0094926748 0.016663343
0.034108758 0.0095930882 0.016876787
0.03430146 0.0093549434 0.016994238
0.035825074 0.0094831074 0.016824454
0.036607299 0.0094133057 0.016711146
0.037487566 0.0093718916 0.01665625
0.039052472 0.009499249 0.016388714
0.040160891 0.0095117893 0.015987933
0.040961847 0.0094527341 0.015079677
0.042945717 0.0096627865 0.014111251
0.043555826 0.0095610339 0.013237625
0.044998854 0.0096426113 0.012228906
0.046561178 0.0097453622 0.011408329
0.04722061 0.0096587613 0.010668427
0.048095178 0.0096190348 0.010027438
0.049579185 0.0097002741 0.0079756379
0.050522957 0.0096746087 0.0074592829
0.051115073 0.0095840758 0.0052574575
-0.064263977 0.010892198 0.0056577921
-0.062686518 0.010808019 0.0075003505
-0.061121743 0.010723113 0.008349359
-0.060070213 0.010726823 0.0091945827
-0.058715355 0.010675519 0.010237187
-0.058704417 0.010871188 0.010804594
-0.057094954 0.010772632 0.011202246
-0.05564284 0.010700545 0.011944056
-0.054685656 0.010722677 0.012381643
-0.053194538 0.010638907 0.013384998
-0.052158378 0.010644567 0.013744026
-0.051460691 0.010720978 0.014432192
-0.049780201 0.010591531 0.014802754
-0.047882602 0.01040926 0.015235305
-0.047942441 0.010653875 0.015419632
-0.046823267 0.010641652 0.015511334
-0.045469083 0.010574206 0.015770465
-0.044930018 0.010697623 0.01581046
-0.043249954 0.010548769 0.015714765
-0.042431276 0.010607819 0.015525013
-0.04143976 0.010625579 0.015580267
-0.04048828 0.010654811 0.015514016
-0.039128777 0.010575344 0.015294105
-0.037780415 0.01049456 0.015028626
-0.037298013 0.010656575 0.014489204
-0.036487918 0.010731741 0.014604867
-0.035147447 0.010650742 0.014316082
-0.034087308 0.010652283 0.013751417
-0.03356171 0.010826358 0.012822121
-0.032058511 0.010686169 0.011887133
-0.030879209 0.010648003 0.010866731
-0.030391768 0.010854202 0.010590374
-0.029349128 0.010870046 0.010501862
-0.028250964 0.010865755 0.010443628
-0.027526122 0.011010448 0.010501862
-0.02579386 0.010747441 0.010881126
-0.024522576 0.010661989 0.011902541
-0.023278894 0.010581315 0.012138575
-0.022342626 0.010639344 0.012272477
-0.021296019 0.010648009 0.012483448
-0.020201284 0.010632254 0.012773007
-0.019291526 0.010717515 0.0128932
-0.018457819 0.01085754 0.013123006
-0.017275425 0.01079714 0.013425767
-0.016260322 0.010840215 0.013314992
-0.015217759 0.010869827 0.013311952
-0.013708237 0.010544797 0.013056278
-0.012823639 0.010686366 0.01296705
-0.011781317 0.010710288 0.012544185
-0.010597036 0.010597036 0.012456656
-0.0096711777 0.010745753 0.012441307
-0.0084717562 0.010589696 0.012432665
-0.0075325915 0.010760845 0.012533456
-0.0064750533 0.010791755 0.012422562
-0.0053573586 0.010714717 0.012545139
-0.004268209 0.010670522 0.012598008
-0.00321421 0.010714034 0.012468517
-0.0021545435 0.010772718 0.012354881
-0.0010608237 0.010608237 0.012354881
0 0.010616804 0.012588054
0.0010516193 0.010516193 0.012702823
0.0021174827 0.010587413 0.012791842
0.003279493 0.010931643 0.01212585
0.0042999047 0.010749761 0.011617512
0.0054167868 0.010833574 0.010624975
0.0065763514 0.010960585 0.010398805
0.0076179174 0.010882739 0.010077655
0.0087155346 0.010894418 0.010411233
0.0096245576 0.010693952 0.011022627
0.010670162 0.010670162 0.011486262
0.011782657 0.010711507 0.011899084
0.012869702 0.010724751 0.012397677
0.013895945 0.010689188 0.012583762
0.015017334 0.010726667 0.013167411
0.015882961 0.010588641 0.013585299
0.016853455 0.010533409 0.01394853
0.018215552 0.01071503 0.014455944
0.019358389 0.010754661 0.014891595
0.020335482 0.010702885 0.014975369
0.021451872 0.010725936 0.015159905
0.022391202 0.010662477 0.015068591
0.023197215 0.010544188 0.014856607
0.024410602 0.010613305 0.014975369
0.025284205 0.010535086 0.015215307
0.026516212 0.010606484 0.015666127
0.027657889 0.010637649 0.015911549
0.028444333 0.010534937 0.016288787
0.029848631 0.010660226 0.01617378
0.030579478 0.010544647 0.016359746
0.031775855 0.010591951 0.01662308
0.032847673 0.010596023 0.016690344
0.033552598 0.010485186 0.016947359
0.034618195 0.010490362 0.016947359
0.035905566 0.01056046 0.016795278
0.036320344 0.010377241 0.016681314
0.037614312 0.01044842 0.016589373
0.039052416 0.010554707 0.016206324
0.040437549 0.01064146 0.015467495
0.04177811 0.010712336 0.014817119
0.042690877 0.010672719 0.013929307
0.043242496 0.01054695 0.013057619
0.044983488 0.010710353 0.012110591
0.046248313 0.010755422 0.011328012
0.047553755 0.010807672 0.010447055
0.048776552 0.010839233 0.009950161
0.049754564 0.010816209 0.0075739622
0.050770398 0.010802212 0.006493032
-0.063349068 0.011810843 0.0056596398
-0.062574029 0.011867488 0.0072609186
-0.061816048 0.011929413 0.0082919598
-0.060008883 0.011787459 0.008880198
-0.059259567 0.011851913 0.0096287429
-0.05779057 0.011772152 0.010418594
-0.056534037 0.01173348 0.010888696
-0.055485241 0.011737262 0.011712134
-0.054543365 0.011764254 0.012059003
-0.053315092 0.01172932 0.012852639
-0.052199472 0.011718249 0.01341489
-0.051071018 0.011703774 0.014202505
-0.049896482 0.011677899 0.014639825
-0.048910126 0.011695899 0.014975071
-0.047416005 0.011590579 0.01514411
-0.047009513 0.011752378 0.015217453
-0.045810126 0.011718869 0.015511334
-0.044822715 0.011739283 0.015787005
-0.043508183 0.011672926 0.015598446
-0.042295087 0.011631149 0.015561193
-0.041358989 0.011665355 0.015581727
-0.040374976 0.011687492 0.015515476
-0.03880734 0.011537317 0.015316099
-0.037697095 0.011518557 0.014866471
-0.037227578 0.011700097 0.014460832
-0.036411203 0.011780095 0.014524519
-0.035491958 0.011830653 0.014222443
-0.034271736 0.011780908 0.013690799
-0.032992475 0.011707006 0.012678057
-0.032169476 0.011795474 0.011550963
-0.031390224 0.011906636 0.010586113
-0.030328492 0.011914765 0.010309756
-0.029545892 0.012037215 0.010358304
-0.028366145 0.012001061 0.010688871
-0.027138026 0.011940732 0.010883778
-0.025971781 0.011903733 0.011848003
-0.024534971 0.011734116 0.011997253
-0.023420639 0.01171032 0.012588769
-0.022318156 0.011690462 0.012785882
-0.021300713 0.011715392 0.013322979
-0.020154847 0.011668595 0.013483524
-0.01934397 0.011821316 0.013465643
-0.018276475 0.011825954 0.013513714
-0.017316198 0.011904885 0.013392001
-0.016238244 0.011908045 0.013394058
-0.014921689 0.011724184 0.013393462
-0.013906122 0.011766719 0.013075799
-0.012820606 0.011752222 0.013094068
-0.011700118 0.011700118 0.013130724
-0.010637777 0.011701555 0.012883246
-0.0096403798 0.011782686 0.012910187
-0.0086866859 0.011944192 0.012762129
-0.0074638408 0.011728892 0.012670338
-0.00642636 0.01178166 0.012625307
-0.0053798631 0.011835699 0.013067156
-0.0043135192 0.011862178 0.012925386
-0.0032119879 0.011777289 0.012784958
-0.0021452596 0.011798928 0.012894183
-0.0010619733 0.011681706 0.013004422
0 0.011556363 0.013319731
0.0010539276 0.011593203 0.013428569
0.0021264865 0.011695676 0.013508767
0.0032033939 0.011745778 0.013495654
0.0043193707 0.011878269 0.013287008
0.0054213074 0.011926876 0.012536168
0.0064600017 0.011843337 0.0110735
0.0076472796 0.012017153 0.010722816
0.0086169709 0.011848334 0.011241674
0.0095877303 0.011718337 0.01152882
0.010710288 0.011781317 0.011946499
0.011738991 0.011738991 0.012256414
0.012726294 0.01166577 0.012822598
0.013851477 0.01172048 0.01315254
0.014862846 0.01167795 0.013361514
0.015870044 0.011638032 0.01387921
0.017005343 0.011691174 0.014375299
0.017989708 0.011640399 0.014940351
0.019299032 0.011793854 0.015096575
0.020410499 0.011816604 0.015143722
0.021068163 0.01158749 0.015350938
0.02243959 0.01175407 0.015364468
0.02355721 0.011778605 0.015201956
0.024242453 0.011594216 0.015409172
0.025413971 0.01164807 0.015479118
0.026379123 0.011606813 0.016000599
0.027531149 0.011647793 0.016312689
0.028603392 0.011653233 0.016198367
0.029599819 0.0116285 0.016316175
0.030655054 0.011627778 0.016650856
0.031598732 0.011586201 0.016783595
0.032745685 0.011619437 0.016893893
0.033735115 0.011596446 0.017093867
0.034952715 0.011650905 0.017093867
0.035651304 0.011534245 0.016907573
0.036398742 0.011439605 0.016720414
0.038328696 0.011711546 0.016481221
0.038933102 0.011574705 0.016080439
0.040432621 0.011704179 0.015354604
0.041931543 0.011826846 0.014773756
0.043025315 0.011831963 0.013854116
0.043721981 0.011730287 0.012754977
0.044797253 0.011732614 0.012042612
0.04618017 0.011813532 0.011072993
0.047489364 0.011872341 0.0099796653
0.04901598 0.011981683 0.0095129907
0.049946323 0.011943686 0.0071319938
0.052528303 0.012293858 0.0052015781
-0.064070344 0.013031255 0.0052932799
-0.063174859 0.013070661 0.0064875782
-0.061598457 0.012968096 0.0078161359
-0.060660407 0.012998659 0.008153379
-0.059119236 0.012898742 0.0085131824
-0.05822356 0.012938568 0.0099912882
-0.057032805 0.012913088 0.010221332
-0.055415317 0.01278815 0.010956705
-0.054807764 0.012895945 0.011712134
-0.053568356 0.012856404 0.012142897
-0.051988281 0.012731824 0.012698263
-0.050605554 0.012651389 0.013372213
-0.050109163 0.012793829 0.014191806
-0.048803605 0.012731375 0.01453346
-0.048189402 0.012850506 0.014745384
-0.046872891 0.012783516 0.014969707
-0.045731302 0.012762224 0.015258968
-0.044539489 0.012725567 0.015398026
-0.04365921 0.012778305 0.015569478
-0.042469166 0.012740751 0.015497267
-0.04171801 0.01283631 0.015563786
-0.039832577 0.012578707 0.015329927
-0.039152637 0.012698151 0.015069246
-0.03807028 0.012690094 0.014999002
-0.037099544 0.012719844 0.014495045
-0.036045201 0.012721836 0.014183223
-0.035118602 0.0127704 0.013905227
-0.034142923 0.012803596 0.013612717
-0.033025909 0.012784222 0.012096077
-0.032333098 0.012933239 0.011150748
-0.031197593 0.012909348 0.010375887
-0.03038761 0.013023262 0.010274947
-0.029435415 0.013082406 0.010636091
-0.02809529 0.012967058 0.010739714
-0.027517792 0.013208539 0.011550963
-0.025670597 0.012835299 0.012326777
-0.024393262 0.01272692 0.012419522
-0.023433689 0.012782012 0.013178647
-0.02221814 0.012696079 0.013298959
-0.02111657 0.012669941 0.013621092
-0.020303775 0.012823436 0.013767868
-0.019211069 0.01280738 0.013764024
-0.01828759 0.012908886 0.013761818
-0.017351981 0.013013986 0.013563722
-0.015973054 0.012778443 0.013431519
-0.014960698 0.012823455 0.013285577
-0.013890079 0.012821611 0.013174385
-0.012689559 0.012689559 0.013268143
-0.011724745 0.012790631 0.013193876
-0.010728407 0.012874089 0.012911737
-0.0096089775 0.01281197 0.012756824
-0.0086636385 0.012995457 0.012602687
-0.0075806119 0.012995334 0.012621522
-0.0064010345 0.012802069 0.012242049
-0.0053968453 0.012952429 0.012046963
-0.0042937072 0.012881121 0.012579054
-0.0032207165 0.012882866 0.012481421
-0.0021347445 0.012808467 0.01262328
-0.0010627502 0.012753003 0.012707025
0 0.012657232 0.012951285
0.0010576306 0.012691567 0.01310131
0.0020823299 0.012493979 0.01327008
0.0031724467 0.012689787 0.013288379
0.0043041897 0.01291257 0.013623089
0.0052938508 0.012705242 0.013094902
0.0064112726 0.012822545 0.012013942
0.0076616607 0.013134276 0.011534125
0.008659251 0.012988877 0.011928976
0.0097235916 0.01296479 0.011751711
0.010736938 0.012884324 0.012281179
0.011736808 0.01280379 0.012480527
0.012826997 0.012826997 0.013067424
0.013688142 0.012635208 0.013440847
0.014902711 0.012773751 0.013475746
0.015979448 0.012783558 0.01376459
0.016893042 0.012669782 0.014378667
0.018035004 0.01273059 0.01472646
0.019241756 0.012827838 0.015067309
0.020158028 0.012731386 0.015090287
0.021276055 0.012765633 0.015234232
0.022477604 0.012844345 0.015208453
0.023381475 0.012753532 0.015142411
0.024443645 0.012753205 0.015381485
0.025412153 0.012706077 0.01578638
0.026428942 0.012685892 0.01607281
0.027475413 0.01268096 0.016120493
0.028717918 0.012763519 0.016264677
0.029786669 0.012765715 0.016210467
0.030607028 0.012664977 0.016435683
0.03141414 0.012565656 0.016591251
0.032490924 0.012577131 0.016632497
0.033660777 0.012622791 0.016962081
0.034505229 0.012547356 0.016937524
0.035683863 0.012594304 0.01677072
0.036680907 0.012576311 0.016472638
0.037456207 0.012485404 0.016166538
0.038981978 0.012642804 0.015702426
0.040770981 0.012875047 0.014976054
0.041415192 0.012743135 0.014494181
0.043291528 0.012987458 0.013422936
0.044181243 0.012931095 0.012270719
0.044834808 0.012809944 0.011666805
0.046536487 0.012986926 0.010415316
0.047544636 0.012966719 0.0094419718
0.04860913 0.012962434 0.0082677603
0.049382944 0.012882506 0.0068726242
-0.062778234 0.014070982 0.005564481
-0.061562791 0.014040637 0.0071423054
-0.060196098 0.013974094 0.0076120198
-0.059709106 0.014113061 0.0079346001
-0.058783311 0.014151538 0.0088045895
-0.057146907 0.014017166 0.0099216402
-0.055882461 0.013970615 0.010706544
-0.054680232 0.013938097 0.011006862
-0.053664017 0.013952644 0.011414886
-0.052737165 0.013991493 0.012336731
-0.051432341 0.013929592 0.012764573
-0.049672898 0.013739312 0.013449699
-0.049161907 0.013893582 0.013871729
-0.047956768 0.013854177 0.014214545
-0.04668536 0.013793402 0.01455
-0.045759045 0.013834129 0.01493445
-0.044620059 0.01381097 0.015314847
-0.043248188 0.01371284 0.015437603
-0.042880673 0.013936219 0.015392214
-0.041225106 0.013741702 0.015562266
-0.040027764 0.013693708 0.01520142
-0.039066527 0.013726076 0.015004247
-0.038023636 0.013730757 0.01457268
-0.037020177 0.013750352 0.014316529
-0.036102284 0.013803814 0.014084697
-0.035127904 0.013838265 0.014098853
-0.034056682 0.013835527 0.012952417
-0.033238079 0.013938549 0.011735231
-0.031965952 0.013851913 0.010657251
-0.031424329 0.014086767 0.010222167
-0.030592926 0.014203859 0.010165691
-0.02919836 0.01405847 0.010499716
-0.028292339 0.01414617 0.011150748
-0.027293641 0.014192693 0.012077153
-0.025569318 0.013850047 0.013025522
-0.024342386 0.013758739 0.012932688
-0.023308702 0.013773324 0.013450861
-0.022272645 0.013787827 0.013603061
-0.021215966 0.013790378 0.01408872
-0.020200413 0.013821335 0.014230102
-0.019258888 0.013909197 0.014231414
-0.01835655 0.014037362 0.01424104
-0.017154792 0.013938268 0.013853669
-0.016170956 0.014014828 0.013862789
-0.015094256 0.014016095 0.013593346
-0.013739336 0.013739336 0.013378352
-0.012804068 0.013871074 0.01357609
-0.011718471 0.013849101 0.013587087
-0.010546017 0.013709822 0.013221473
-0.0095605208 0.013809641 0.013042927
-0.008517215 0.013840474 0.012461603
-0.0074797841 0.013891027 0.012210041
-0.0064857244 0.014052403 0.012030393
-0.0053869789 0.014006145 0.012105316
-0.0042821588 0.013917016 0.012245238
-0.0032098612 0.013909399 0.012307823
-0.002143963 0.01393576 0.012245238
-0.001054318 0.013706135 0.012470603
0 0.013852746 0.012961298
0.001051271 0.013666522 0.013077825
0.0020998407 0.013648964 0.013361305
0.0031738449 0.013753328 0.013660252
0.0042490074 0.013809273 0.013780117
0.0053836275 0.013997431 0.013070345
0.00645355 0.013982692 0.012717575
0.0074776514 0.013887066 0.012243479
0.0088077346 0.014312569 0.012200922
0.0098489542 0.014226267 0.012180746
0.010706247 0.013918121 0.012606353
0.011787493 0.013930673 0.012843907
0.012727314 0.013787923 0.013091296
0.013764676 0.013764676 0.013453513
0.014870852 0.013808648 0.013531417
0.015892334 0.013773357 0.014050812
0.016790397 0.013642197 0.01419577
0.018152636 0.013881427 0.014780283
0.018855607 0.013617938 0.015182585
0.020114822 0.013762773 0.015117019
0.021472827 0.013957337 0.015441477
0.022123113 0.01369526 0.015532911
0.023382332 0.013816833 0.015611976
0.024657249 0.013936706 0.015917242
0.025392657 0.013754356 0.015873343
0.026229205 0.013639187 0.01621455
0.027715202 0.013857601 0.01645571
0.028492413 0.013718569 0.016375661
0.029571572 0.013729659 0.016457468
0.03052533 0.013683768 0.016565353
0.031717997 0.013744466 0.01668185
0.0326843 0.013706319 0.016633451
0.033803962 0.01373286 0.01699537
0.034933481 0.013761675 0.01690042
0.035926789 0.013736714 0.01668188
0.037009552 0.013746405 0.016520739
0.037910007 0.013689725 0.016018122
0.038927317 0.013677165 0.015237302
0.040129207 0.013728412 0.014719635
0.041154139 0.013718046 0.014140397
0.042240299 0.013728098 0.013161272
0.043782607 0.01388229 0.012065738
0.04488226 0.013892127 0.010624856
0.045540176 0.01376796 0.0099796653
0.047279757 0.013969019 0.0090411007
0.048858833 0.014114774 0.0073238611
0.049913872 0.014106094 0.0060522556
-0.062331438 0.015309476 0.0057263672
-0.060140427 0.015035107 0.0068873465
-0.059113134 0.015046979 0.0075872838
-0.058566477 0.015183901 0.0079346001
-0.057186998 0.015106 0.0084292889
-0.056283198 0.015153169 0.0098377466
-0.054783598 0.015038635 0.010330468
-0.053378385 0.014945948 0.010970503
-0.052297097 0.014942029 0.011590272
-0.050792038 0.014814345 0.012482285
-0.050041407 0.014905951 0.012909561
-0.049294274 0.015002606 0.013422936
-0.047718424 0.014845731 0.014099091
-0.047179874 0.015011778 0.014437973
-0.045812551 0.014915714 0.014840543
-0.044623971 0.014874657 0.01506567
-0.043714337 0.014926847 0.015309513
-0.042387154 0.014835505 0.01529786
-0.040980395 0.014710911 0.015376031
-0.04020654 0.014812936 0.014937878
-0.039099187 0.014794286 0.014635891
-0.038223654 0.014864756 0.014336646
-0.037225306 0.014890122 0.014183432
-0.036004297 0.014825299 0.013780713
-0.035138994 0.014907452 0.013152242
-0.034063548 0.014902802 0.011828482
-0.032792684 0.014809599 0.010925949
-0.03227501 0.015061672 0.0098620951
-0.031522159 0.015217594 0.0092202425
-0.030226108 0.015113054 0.0099316239
-0.029399469 0.015244168 0.0099543333
-0.028587203 0.01539311 0.010951489
-0.026867133 0.015045593 0.012080818
-0.02562557 0.01494825 0.013633102
-0.024438292 0.014875482 0.01363492
-0.023404464 0.01489375 0.0141325
-0.022256715 0.01483781 0.013938218
-0.021163058 0.01481414 0.014005542
-0.020272732 0.014937802 0.014005542
-0.019272609 0.014989807 0.014144778
-0.018281521 0.01505537 0.0142847
-0.017082229 0.014946951 0.014587373
-0.016264591 0.015180285 0.014448822
-0.01489262 0.01489262 0.014129966
-0.013792021 0.014852947 0.014025033
-0.012830034 0.014968373 0.014105737
-0.011618313 0.014786945 0.01366666
-0.010612748 0.014857847 0.013240725
-0.0096403165 0.014996049 0.012524277
-0.0084950523 0.014866341 0.01218015
-0.0074940813 0.014988163 0.012064338
-0.0064577586 0.015068104 0.011906147
-0.0053709866 0.015038763 0.012061775
-0.0042842356 0.014994825 0.011981755
-0.0032053862 0.014958469 0.012148887
-0.0021396386 0.014977471 0.012036026
-0.0010627605 0.014878647 0.012245417
0 0.014775464 0.012848765
0.0010612981 0.014858172 0.013063014
0.0021290355 0.014903249 0.013618112
0.0031562103 0.014728982 0.013839155
0.0042098947 0.014734631 0.014057338
0.0052999994 0.014839998 0.013780117
0.0063557592 0.014830105 0.013381958
0.0074471664 0.014894333 0.013129175
0.0084740929 0.014829663 0.012664676
0.0098684123 0.015350864 0.012894362
0.010897851 0.015256991 0.012990296
0.011852168 0.015084577 0.013261408
0.012889239 0.015037445 0.013615668
0.013895744 0.014964648 0.013687044
0.014791159 0.014791159 0.013788611
0.015869074 0.014811136 0.014306843
0.017186472 0.015038162 0.014528573
0.017726751 0.014598501 0.014841288
0.019192616 0.014927591 0.01493296
0.020118915 0.014824462 0.014927447
0.021249482 0.014874638 0.015298665
0.022316778 0.014877851 0.015411258
0.023851564 0.015178268 0.015563905
0.024497062 0.014911254 0.015804887
0.025403667 0.014818805 0.016067535
0.026175307 0.014658172 0.016198367
0.02754054 0.014829522 0.016381234
0.028831474 0.014949652 0.016532868
0.029495902 0.014747951 0.01642853
0.03057036 0.014758104 0.016572446
0.031671587 0.014780074 0.01668185
0.03279645 0.0148113 0.016638279
0.033770032 0.014774389 0.016876787
0.034625929 0.014689788 0.016900241
0.035574891 0.014648484 0.01635778
0.036932092 0.014772838 0.016051829
0.038081635 0.014809525 0.015535384
0.039287779 0.014865645 0.014552176
0.040423237 0.014892771 0.013920367
0.042023532 0.015085371 0.013420671
0.042265881 0.014793059 0.01222229
0.044161722 0.015079611 0.010722607
0.044845425 0.014948474 0.010019451
0.045591094 0.014843612 0.0095632672
0.04666815 0.014848958 0.0082559288
0.048974674 0.015236564 0.0067566335
0.050221622 0.015284842 0.0051287115
-0.061607264 0.016212437 0.0050535202
-0.060503434 0.016206278 0.0054594278
-0.059336971 0.01618281 0.0064444244
-0.05824497 0.016179157 0.0069517493
-0.057207517 0.016190808 0.0075339675
-0.055605784 0.01604013 0.0084039569
-0.054498199 0.016028883 0.0096792877
-0.053920817 0.016176244 0.010068119
-0.052677702 0.016125828 0.011105418
-0.05128409 0.016026279 0.011646271
-0.05041239 0.016089061 0.012433112
-0.048649415 0.015863938 0.012909502
-0.047904897 0.015968299 0.013466358
-0.04735421 0.01614348 0.014099091
-0.045506254 0.015874274 0.014397979
-0.044658158 0.015949342 0.014658093
-0.043914214 0.016066175 0.014925212
-0.042528868 0.015948325 0.014829248
-0.04150179 0.015962228 0.014759541
-0.04011073 0.015833182 0.014579415
-0.038983431 0.015804093 0.014342159
-0.038270473 0.015946031 0.014209062
-0.0371731 0.015931329 0.013905227
-0.036238454 0.015987555 0.013444632
-0.03513984 0.015972655 0.012575388
-0.03420043 0.016031452 0.011119634
-0.033552464 0.016235063 0.0099897385
-0.032687724 0.016343862 0.0089339614
-0.031431202 0.016257517 0.0088798404
-0.030505914 0.016342454 0.0090261996
-0.029766148 0.016536748 0.0090261996
-0.028066086 0.016191972 0.010240406
-0.02677501 0.016065005 0.013021678
-0.025563408 0.015977129 0.014057726
-0.024465468 0.015955741 0.013857424
-0.023311332 0.015894091 0.013928682
-0.022140978 0.015814984 0.014275253
-0.02113072 0.015848041 0.014455914
-0.020233894 0.015974127 0.014427811
-0.019281825 0.016068188 0.014579624
-0.018157747 0.016021542 0.014485747
-0.017242393 0.016164744 0.014341116
-0.015948929 0.015948929 0.014610678
-0.015006367 0.01607825 0.013942689
-0.013915864 0.016056767 0.013881266
-0.012706087 0.015882609 0.013963103
-0.011644063 0.015878268 0.013844162
-0.010595341 0.015893012 0.013234049
-0.0096005183 0.016000865 0.01294142
-0.0085186511 0.015972471 0.012586743
-0.0074618454 0.015989669 0.01230967
-0.0063705379 0.015926344 0.012144953
-0.0053765932 0.016129781 0.012059927
-0.0042882347 0.016080881 0.01200524
-0.0031910208 0.015955105 0.012307614
-0.0021661334 0.016246 0.01200524
-0.001066625 0.015999375 0.012345731
0 0.016018618 0.012569755
0.0010700371 0.016050559 0.01309213
0.0021264057 0.015948042 0.013542414
0.0032049133 0.016024567 0.01393187
0.0042399787 0.015899919 0.014126331
0.005262658 0.015787974 0.013918966
0.0063595716 0.015898928 0.013602763
0.0074661099 0.015998807 0.013366729
0.0084479833 0.015839968 0.012828499
0.0095824255 0.015970711 0.012843907
0.010899302 0.016348952 0.013258666
0.011868514 0.016184339 0.013578296
0.012999164 0.016248954 0.013872832
0.013925364 0.016067728 0.014465332
0.014897242 0.01596133 0.014444023
0.015934316 0.015934316 0.014444023
0.016906314 0.015849669 0.014766693
0.017962147 0.015848953 0.014893413
0.019086793 0.015905662 0.014964581
0.0201992 0.015946737 0.015048504
0.021319376 0.015989533 0.015515506
0.022644445 0.016174603 0.015632004
0.023514783 0.016032808 0.015542984
0.024720114 0.016121812 0.015823036
0.025484581 0.015927862 0.016023695
0.026417725 0.015850635 0.016186029
0.02767718 0.015967604 0.016436398
0.028485812 0.01582545 0.016372651
0.029581748 0.015847364 0.016326785
0.030851362 0.015957601 0.016391218
0.031794515 0.015897257 0.016578585
0.032706872 0.015825905 0.016413808
0.03393998 0.015909366 0.016470701
0.034394357 0.015633799 0.016545296
0.036042348 0.015901037 0.015817791
0.037260205 0.01596866 0.015535384
0.03816779 0.015903246 0.014629751
0.039290987 0.015928779 0.013750136
0.040825304 0.016115252 0.013420671
0.040825352 0.015702058 0.012311667
0.042528868 0.015948325 0.011686683
0.043784976 0.016018894 0.010297179
0.044635251 0.015941162 0.0094845891
0.045628697 0.015916988 0.008492589
0.047141008 0.016070798 0.0069373548
0.048226424 0.016075473 0.00568977
-0.059630126 0.017346945 0.0051856935
-0.058676347 0.017385583 0.0060277283
-0.057355743 0.017314943 0.0066943169
-0.05622885 0.017301185 0.0073692799
-0.05529134 0.017346302 0.0081822276
-0.053646646 0.017166927 0.0090863705
-0.052610453 0.017178925 0.010026097
-0.051886067 0.017295355 0.010970503
-0.050205648 0.017091284 0.011766553
-0.048630849 0.016915077 0.012302697
-0.048243612 0.017153284 0.012892574
-0.047080547 0.017120199 0.013312846
-0.045861375 0.017064698 0.013871729
-0.044949103 0.017123466 0.014172822
-0.043681387 0.017046394 0.014377564
-0.042655747 0.017062299 0.01439029
-0.04138666 0.016979143 0.014531642
-0.04030741 0.01697154 0.014342159
-0.039134577 0.016923061 0.014094979
-0.038161945 0.016960865 0.013855815
-0.036961343 0.016896615 0.013661802
-0.036224656 0.017046897 0.012938052
-0.035186563 0.017060151 0.011236787
-0.034515873 0.017257936 0.010064602
-0.033626441 0.017355582 0.0092268884
-0.032515068 0.01734137 0.0087843537
-0.031812351 0.017551642 0.0088394284
-0.030611893 0.01749251 0.0090261996
-0.029457999 0.017456591 0.0090261996
-0.028090255 0.017286312 0.010801882
-0.026583927 0.017013712 0.01390183
-0.025343459 0.016895641 0.014171451
-0.024216885 0.016846528 0.014288694
-0.023222093 0.016888795 0.014385581
-0.022007238 0.01676742 0.014714628
-0.02121144 0.016969152 0.01472497
-0.020245817 0.01704911 0.014961183
-0.019310638 0.017165013 0.014840513
-0.018123915 0.017057803 0.014843434
-0.017000137 0.017000137 0.014822781
-0.015961086 0.017025158 0.014545381
-0.015011737 0.017156271 0.01440385
-0.013693653 0.016853727 0.01403591
-0.012750169 0.017000226 0.013951868
-0.01173606 0.017070632 0.013802141
-0.010633298 0.017013278 0.013562471
-0.0095381914 0.016956786 0.013154358
-0.0085202651 0.01704053 0.012864023
-0.0073882048 0.016887326 0.012586743
-0.0063933143 0.017048839 0.012264609
-0.0053605386 0.017153725 0.012275904
-0.0042839213 0.017135685 0.012192041
-0.0032177633 0.017161405 0.012328327
-0.0021288807 0.017031046 0.012264609
-0.0010640239 0.017024383 0.012161046
0 0.017052704 0.012494266
0.0010498889 0.016798222 0.012897104
0.0021247379 0.016997904 0.013097674
0.003219591 0.017171152 0.013423771
0.0042539467 0.017015787 0.013671666
0.0052980934 0.0169539 0.013709635
0.0063359281 0.016895808 0.013634294
0.0073668836 0.016838592 0.013385803
0.0084895641 0.016979128 0.012919456
0.0095814997 0.017033778 0.013277054
0.010608326 0.016973322 0.013591379
0.01195781 0.017393179 0.014063865
0.012932868 0.017243825 0.01432699
0.013893144 0.017099256 0.014810681
0.014963147 0.01710074 0.014806509
0.015956519 0.017020287 0.014713705
0.016871562 0.016871562 0.014884233
0.018112531 0.017047089 0.015080601
0.019046605 0.016930316 0.015116334
0.020225003 0.017031582 0.015116334
0.021362349 0.017089879 0.015568048
0.022233393 0.016939728 0.015775472
0.02356204 0.01713603 0.015497178
0.024734519 0.017206622 0.015568048
0.025593055 0.017062038 0.015894234
0.026447106 0.016926147 0.016106218
0.027499048 0.016922491 0.016313672
0.028164657 0.016690167 0.016122818
0.029255562 0.016717464 0.016024202
0.030451883 0.016801039 0.01608786
0.031614654 0.016861148 0.016040444
0.032856256 0.016958067 0.015913248
0.033860926 0.016930463 0.015921772
0.035118431 0.017027119 0.015784949
0.036381524 0.017120717 0.015129268
0.037073933 0.016948083 0.014437526
0.03823185 0.016991934 0.013502002
0.038930308 0.016834727 0.013002455
0.040049262 0.016862847 0.012579948
0.041313346 0.016949065 0.011837542
0.042621799 0.01704872 0.010457456
0.043795697 0.017091004 0.0099574327
0.045035627 0.01715643 0.0092130601
0.045582652 0.016960986 0.008009851
0.04691267 0.017059153 0.0061973333
0.048840288 0.017365435 0.0050752461
-0.057730842 0.01851744 0.0060277283
-0.05633311 0.018416595 0.0067456365
-0.055245671 0.018415224 0.0075218976
-0.053928357 0.01833564 0.0081521571
-0.053200677 0.018457379 0.0089774728
-0.051291414 0.018165709 0.010196805
-0.050462175 0.018252276 0.011317641
-0.049628161 0.018340841 0.011709332
-0.04821419 0.01821425 0.012090623
-0.047017138 0.018165713 0.012769401
-0.045916617 0.018153081 0.013131648
-0.044359244 0.017954931 0.013681889
-0.043746512 0.018138798 0.013851374
-0.042304657 0.01797948 0.013840467
-0.041339878 0.018019946 0.014039189
-0.040178847 0.017974747 0.0138776
-0.039038558 0.017936634 0.013830602
-0.03842235 0.018143889 0.013386667
-0.037507717 0.018218033 0.013029277
-0.03616523 0.018082615 0.011818647
-0.035311192 0.018190615 0.010454923
-0.034805771 0.018490566 0.0096026659
-0.03369455 0.018477658 0.0090289116
-0.032969188 0.018682539 0.0087603629
-0.031923629 0.018713851 0.0088007748
-0.030715957 0.018648975 0.0090666115
-0.029594477 0.018633559 0.0092202425
-0.027900865 0.018242875 0.011714369
-0.026570557 0.018067978 0.014057726
-0.025310213 0.017928068 0.014475197
-0.024200413 0.017887261 0.01457724
-0.023213018 0.017937332 0.014674753
-0.022036919 0.017839411 0.014966488
-0.021178836 0.018002011 0.014846087
-0.020322358 0.018183162 0.015154123
-0.019292224 0.018220434 0.015207082
-0.018151024 0.018151024 0.015323132
-0.017036375 0.018101148 0.014851898
-0.016132949 0.018284008 0.014905632
-0.014786022 0.017954456 0.014888644
-0.013813354 0.018063616 0.014345855
-0.01278101 0.018106431 0.014624327
-0.01158681 0.017906887 0.014263272
-0.010646211 0.018098559 0.013871878
-0.0096260104 0.018182466 0.013389796
-0.0085578812 0.018185498 0.012982577
-0.0075366772 0.018303359 0.012590736
-0.0064401696 0.018247148 0.01230514
-0.0053889216 0.018322336 0.012310535
-0.004311502 0.018323883 0.012110114
-0.0032280316 0.018292179 0.012296677
-0.0021367031 0.018161975 0.01230514
-0.0010677523 0.018151788 0.012238324
0 0.017975785 0.012494266
0.0010681787 0.018159039 0.012831241
0.0021510799 0.018284179 0.013254791
0.0031817942 0.018030168 0.013485968
0.0042834799 0.01820479 0.013643771
0.0053599868 0.018223956 0.014171958
0.0063502607 0.017992405 0.013889134
0.0074194232 0.0180186 0.013643771
0.0084998971 0.01806228 0.013277054
0.0094851358 0.01791637 0.013517708
0.01057922 0.017984673 0.014066607
0.0116893 0.018065281 0.014155179
0.012987073 0.018398354 0.014990449
0.014038154 0.018357586 0.015294194
0.01492922 0.018128339 0.015411079
0.015844388 0.017956972 0.015173972
0.017030532 0.01809494 0.015294194
0.017813705 0.017813705 0.015357614
0.019028217 0.017971095 0.01510191
0.020106152 0.017989714 0.015318424
0.021245765 0.018058902 0.015375227
0.022112297 0.01790043 0.015550911
0.023630546 0.018259969 0.015296936
0.024378067 0.018018572 0.015495658
0.025428429 0.018011805 0.015324086
0.026453512 0.017988387 0.015522808
0.027306557 0.017854288 0.015816629
0.028135514 0.017714953 0.015538543
0.02983452 0.018113816 0.015494198
0.030765941 0.018035207 0.015410334
0.031850167 0.018048428 0.015245587
0.032807704 0.017991321 0.015188187
0.034032352 0.018079687 0.014904112
0.035407364 0.018240158 0.01455155
0.036210634 0.018105317 0.014042318
0.037709508 0.018316047 0.013286263
0.038586177 0.018221252 0.012787163
0.038946535 0.017894354 0.011775732
0.040229551 0.017997431 0.011582404
0.041987807 0.018302377 0.011016697
0.042571381 0.018092837 0.010279
0.044049654 0.018264489 0.0096155703
0.045153189 0.018276291 0.0084684491
0.045820247 0.018114982 0.006888628
0.047571342 0.018379837 0.0051392913
-0.056267377 0.019477168 0.0060277283
-0.055372249 0.019543147 0.0067536831
-0.053704958 0.019333784 0.0071717501
-0.052537244 0.019299395 0.008187741
-0.051822968 0.019433612 0.0090865791
-0.050397035 0.019300992 0.010517836
-0.048910178 0.019138765 0.011151493
-0.048552215 0.019420885 0.011684477
-0.047515597 0.019438198 0.011913329
-0.045560073 0.019071657 0.012348086
-0.044613983 0.019120278 0.012837857
-0.043878429 0.0192637 0.01330775
-0.042489197 0.019120138 0.013317645
-0.04150328 0.019155359 0.013524026
-0.040351935 0.019114073 0.013670236
-0.039498892 0.019215677 0.01342985
-0.038461875 0.019230938 0.012587458
-0.037582234 0.019328004 0.011551976
-0.036357354 0.019248011 0.010620534
-0.035425562 0.019323034 0.0090289116
-0.034522198 0.019418735 0.0084354579
-0.033783149 0.019616021 0.0083936155
-0.032960143 0.019776084 0.0083613694
-0.031710498 0.019682376 0.0083661079
-0.030768769 0.019779922 0.0088007748
-0.029492807 0.01966187 0.0089339614
-0.027575424 0.019090677 0.011959195
-0.026481036 0.019066345 0.014241457
-0.025275353 0.018956514 0.014495045
-0.024262119 0.018987745 0.014539838
-0.023195772 0.018978357 0.014821827
-0.021973204 0.018834174 0.015070498
-0.021234935 0.019111441 0.015071064
-0.020303959 0.01923533 0.015244663
-0.019101722 0.019101722 0.015291393
-0.017933849 0.018988781 0.015479177
-0.017032569 0.01916164 0.015150338
-0.015874617 0.01904954 0.015177637
-0.014733273 0.018942779 0.014911503
-0.01382451 0.019141629 0.01464498
-0.012718242 0.019077362 0.014599591
-0.011602961 0.018986663 0.014507145
-0.010653575 0.019176435 0.014349043
-0.0094693033 0.018938607 0.013791114
-0.008468275 0.019053617 0.01312983
-0.0074638049 0.019192642 0.012779266
-0.0064697983 0.019409394 0.012115866
-0.0053648832 0.019313579 0.012306422
-0.0042925146 0.019316316 0.012072116
-0.0031770612 0.019062366 0.012116909
-0.0021460941 0.019314846 0.012475163
-0.0010669656 0.019205382 0.012253731
0 0.019251492 0.012367934
0.0010661738 0.019191127 0.013074338
0.0021274546 0.019147089 0.013344258
0.0032185426 0.019311255 0.013602763
0.004306159 0.019377714 0.013897628
0.005294533 0.019060319 0.014472991
0.0063959789 0.019187937 0.014098912
0.0075013223 0.019289114 0.014347434
0.0084960461 0.019116104 0.013612151
0.0095953634 0.019190727 0.014078289
0.010536048 0.018964887 0.014430076
0.011511198 0.018836506 0.014933169
0.012637871 0.018956807 0.015438199
0.013771484 0.019068208 0.015663713
0.014936966 0.019204669 0.015639752
0.016040795 0.019248953 0.015404314
0.016868964 0.018977584 0.015449852
0.017923502 0.018977826 0.015623242
0.019321887 0.019321887 0.015615553
0.020056562 0.019000953 0.01556024
0.021241019 0.019116918 0.015399247
0.022740943 0.019492237 0.015401036
0.023363033 0.019115208 0.015190601
0.024509693 0.019181497 0.015168548
0.02545193 0.019088948 0.014987916
0.026184656 0.018852951 0.014966667
0.027297268 0.018898107 0.01524356
0.02843111 0.018954072 0.014883131
0.029615195 0.019038338 0.014667392
0.0307626 0.019094026 0.014604628
0.031669945 0.019001966 0.014395624
0.032988649 0.019154698 0.014147878
0.034228798 0.019253697 0.013590544
0.035543762 0.019387506 0.013679802
0.036609121 0.019381298 0.013059467
0.037696924 0.019386988 0.012820572
0.037950795 0.018975398 0.011649668
0.039292421 0.01911523 0.011276811
0.040729854 0.019293087 0.011043608
0.040942904 0.018896725 0.01030314
0.043347467 0.019506359 0.0099767148
0.043955449 0.019297512 0.0092021525
0.045061804 0.019312201 0.0079857111
0.046534091 0.019479387 0.0053128898
-0.057137277 0.020877082 0.0051233768
-0.055843573 0.020804469 0.006085813
-0.054106805 0.020560587 0.0067691207
-0.052771222 0.020462312 0.0073790848
-0.051721279 0.020473007 0.0081965029
-0.05034012 0.020350263 0.009333998
-0.049208004 0.020325044 0.010265082
-0.048805431 0.020606736 0.010946333
-0.04703068 0.020308703 0.011465639
-0.045760594 0.020219797 0.011641026
-0.045000691 0.020357454 0.011957347
-0.043483403 0.020150844 0.012205094
-0.042581312 0.020226125 0.012109399
-0.041633297 0.020282889 0.012246639
-0.040483266 0.020241633 0.012220383
-0.039465204 0.020265914 0.011977315
-0.038590685 0.020367308 0.011193842
-0.037344329 0.020272637 0.010251462
-0.03676381 0.020544482 0.0087471902
-0.035387453 0.020374594 0.0075282454
-0.034632865 0.020563265 0.0072347224
-0.034007054 0.020843033 0.0072671175
-0.032808773 0.020778889 0.0077269375
-0.031794943 0.020831168 0.0080845654
-0.030686978 0.020823307 0.0082916915
-0.029167827 0.020525508 0.0088160336
-0.027662329 0.020214779 0.012010723
-0.026525101 0.020159077 0.014352113
-0.025148418 0.019909166 0.014658749
-0.024185207 0.019979084 0.014850408
-0.023285421 0.020110136 0.015215725
-0.022155883 0.020045798 0.015517861
-0.021271423 0.020207852 0.01553607
-0.02017794 0.02017794 0.015669376
-0.019275852 0.020346735 0.015695095
-0.017974198 0.020088809 0.015626073
-0.016756015 0.019897768 0.015418947
-0.015842659 0.02006737 0.015404999
-0.014836393 0.020135105 0.015358448
-0.013759607 0.020110196 0.014898002
-0.012694859 0.020100193 0.015000641
-0.011756329 0.020306386 0.014808059
-0.010411231 0.01978134 0.014569134
-0.0095482226 0.02015736 0.013953716
-0.0085291667 0.020256771 0.013602883
-0.0074667805 0.020266976 0.013151765
-0.006493534 0.020562859 0.012415946
-0.005375836 0.020428177 0.012660682
-0.0042844675 0.020351222 0.01217857
-0.0031969764 0.020247517 0.012313753
-0.0021237985 0.020176085 0.012609065
-0.0010662335 0.020258436 0.0123806
0 0.020361492 0.012275904
0.0010501541 0.019952929 0.013074338
0.0021162461 0.020104337 0.01310724
0.0032181714 0.020381752 0.013494372
0.0042661964 0.020264434 0.013535559
0.0053374679 0.020282378 0.014443189
0.0064748987 0.020503847 0.014099061
0.0074190362 0.020137385 0.014219731
0.0085218595 0.020239417 0.013874292
0.0095273973 0.020113396 0.013962686
0.010485514 0.019922478 0.014832646
0.0115822 0.020005619 0.015268892
0.012618151 0.019978739 0.016004384
0.013642484 0.019939015 0.016023457
0.014775036 0.020051835 0.016116738
0.01578697 0.019996827 0.015784442
0.016937129 0.020112842 0.01571399
0.017986612 0.020102683 0.015670121
0.018998763 0.020054251 0.015623242
0.020354796 0.020354796 0.015339017
0.021231275 0.020169713 0.015017271
0.02219037 0.020077001 0.015022337
0.023280069 0.020105517 0.014939576
0.024642535 0.020356877 0.014716089
0.025486941 0.020177161 0.01453355
0.026435437 0.020090932 0.014577031
0.027358919 0.019993057 0.014598578
0.028066875 0.019750765 0.014426172
0.029363414 0.019925173 0.013934314
0.030683314 0.02010286 0.013620436
0.031467706 0.019929547 0.013510466
0.033421602 0.020484207 0.013461798
0.034075275 0.020232195 0.012855619
0.035195149 0.020263875 0.012987971
0.036800951 0.020565238 0.011296332
0.037715971 0.020474385 0.010979265
0.038688958 0.020419173 0.010401458
0.039768141 0.020421477 0.0098011196
0.040172212 0.020086106 0.0092594326
0.041682944 0.020307075 0.0090726912
0.042959489 0.020405758 0.008492589
0.044064704 0.020420229 0.0079525709
0.045855518 0.020744162 0.0056048036
-0.055803005 0.021883531 0.0052535236
-0.054272559 0.021709021 0.0060227811
-0.053558711 0.021860698 0.0068978071
-0.051241986 0.021350827 0.0078305602
-0.050888423 0.021654647 0.0086337924
-0.049970228 0.021726184 0.0091204047
-0.048175924 0.021411521 0.010004252
-0.047078304 0.02139923 0.010365337
-0.046432067 0.021596309 0.010967195
-0.044934224 0.021397248 0.011359513
-0.043788657 0.021360319 0.011622727
-0.042823426 0.021411713 0.011406213
-0.041432079 0.021247219 0.011505753
-0.040989839 0.021573598 0.011144429
-0.039435763 0.021316627 0.01052624
-0.038278144 0.021265635 0.0094119906
-0.037524559 0.021442605 0.007799983
-0.036567498 0.021510292 0.0066944361
-0.035441261 0.021479551 0.0062916577
-0.034737468 0.021710915 0.0061479211
-0.033573791 0.021660509 0.0065189004
-0.032801159 0.021867439 0.006379813
-0.031946104 0.022031795 0.007142663
-0.0302478 0.02160557 0.0076509416
-0.02911016 0.021563079 0.0083829463
-0.027818568 0.021398898 0.013304442
-0.0261724 0.020937918 0.014543623
-0.025352545 0.021127122 0.014966488
-0.024187868 0.021032928 0.015236169
-0.023249155 0.021135595 0.01544261
-0.022211945 0.021154232 0.015853822
-0.021212887 0.021212887 0.015907735
-0.020110767 0.021169227 0.016301662
-0.019190287 0.021322543 0.015797794
-0.018042352 0.021226296 0.015433133
-0.016721854 0.020902315 0.015157521
-0.015829783 0.021106377 0.015575707
-0.014794543 0.02113506 0.015252262
-0.013795126 0.021223271 0.01499033
-0.012692587 0.021154311 0.015130758
-0.011352446 0.020640809 0.015191048
-0.010512246 0.021024492 0.014619231
-0.0094993887 0.021109754 0.014370501
-0.0085573569 0.02139339 0.013847142
-0.0074155778 0.021187365 0.013305485
-0.00630276 0.021009199 0.012704343
-0.0052871895 0.021148758 0.012757331
-0.0042383964 0.021191981 0.012250364
-0.0032031646 0.021354431 0.012310684
-0.0021290211 0.021290209 0.01244548
-0.0010749951 0.021499904 0.012500077
0 0.021098033 0.012161046
0.0010497828 0.020995656 0.012198627
0.0021190336 0.021190336 0.012810707
0.0032250879 0.021500586 0.012747347
0.0043139081 0.021569539 0.012900501
0.0054001492 0.021600597 0.013287067
0.0064302688 0.021434229 0.0135988
0.0074709882 0.021345679 0.01374346
0.0085442048 0.021360511 0.013874292
0.0094489772 0.020997727 0.014105946
0.010575562 0.021151124 0.014763862
0.011602222 0.02109495 0.015619606
0.012648758 0.021081263 0.016248256
0.013600472 0.020923803 0.016412258
0.014780911 0.021115586 0.016402185
0.015829783 0.021106377 0.01603055
0.016940918 0.021176146 0.016008645
0.017855132 0.021006037 0.016047716
0.019061068 0.021178965 0.015858799
0.020057598 0.021113262 0.015320331
0.021254245 0.021254245 0.015012741
0.022164691 0.021109229 0.014836311
0.023404336 0.02127667 0.014530689
0.024309529 0.021138718 0.01450789
0.025572851 0.021310709 0.014211237
0.026590269 0.021272214 0.014119953
0.027407752 0.021082886 0.013869047
0.028773844 0.021313958 0.013574719
0.029924605 0.021374717 0.013384551
0.030572154 0.021084243 0.013010919
0.032276459 0.021517638 0.012779742
0.032995939 0.0212877 0.012327313
0.034240164 0.021400101 0.011277527
0.03604814 0.021847356 0.010928273
0.036794446 0.021643789 0.010078222
0.037942868 0.021681638 0.0092062056
0.038832773 0.021573763 0.0090204179
0.039693791 0.021456102 0.0083020627
0.040439218 0.021283798 0.0082763433
0.042034876 0.021556346 0.0079761446
0.043058544 0.021529272 0.0075643063
0.044645604 0.021778341 0.0060057938
-0.053069226 0.022743955 0.0060460567
-0.051940728 0.02272407 0.0067791343
-0.051450491 0.022988517 0.0076533854
-0.049287722 0.022500915 0.0082614124
-0.048393127 0.022583459 0.008692652
-0.047293406 0.022571854 0.0091662705
-0.045843035 0.02238846 0.0093446672
-0.045246486 0.022623243 0.010285616
-0.044056315 0.022565428 0.010347247
-0.042837396 0.022489635 0.010305583
-0.042169005 0.022706388 0.010251462
-0.040765811 0.022528475 0.010056108
-0.039610244 0.02248149 0.0090687871
-0.039030898 0.022768026 0.0074411333
-0.037617464 0.02257048 0.0064095259
-0.036548417 0.022574022 0.0056468248
-0.035554916 0.022625858 0.0051753521
-0.034575727 0.022690322 0.005011946
-0.033601522 0.022762321 0.0055620074
-0.032826141 0.022978298 0.0059689581
-0.031656723 0.022923835 0.006469667
-0.030788217 0.023091163 0.0076509416
-0.029081853 0.022619218 0.0089381039
-0.027518012 0.022226088 0.013988763
-0.026463818 0.022229606 0.014730275
-0.025375577 0.02220363 0.015138447
-0.024218345 0.022112403 0.015449047
-0.023135172 0.022083575 0.015925795
-0.02234192 0.02234192 0.016225696
-0.021146933 0.022204282 0.016140699
-0.020187942 0.022312989 0.016230673
-0.019119954 0.022306615 0.015987247
-0.017963519 0.02219023 0.015430599
-0.016948489 0.022244893 0.0153732
-0.015802206 0.022123089 0.01575318
-0.014804582 0.022206875 0.015478343
-0.013692095 0.022118 0.015128016
-0.012408311 0.021714546 0.015397102
-0.011667027 0.022273418 0.015433133
-0.010793352 0.022666041 0.014870018
-0.0094264038 0.021994943 0.014571875
-0.0085421391 0.022423116 0.013631284
-0.0074116471 0.022234943 0.013602883
-0.0063487138 0.022220498 0.012759268
-0.0053090421 0.022297978 0.012623668
-0.0042578261 0.022353588 0.012428701
-0.0032014765 0.022410337 0.012406141
-0.0021485996 0.022560295 0.012464106
-0.0010610963 0.022283023 0.012623966
0 0.022157777 0.012229383
0.0010524497 0.022101445 0.012198627
0.0021040274 0.022092288 0.012966454
0.0032312518 0.022618763 0.012900472
0.0043262648 0.02271289 0.013344258
0.0053574471 0.022501281 0.013854146
0.0064813211 0.022684624 0.013529092
0.0074981609 0.022494484 0.013975352
0.0085012289 0.022315726 0.01395914
0.0094888629 0.022140682 0.01426065
0.010456118 0.021957848 0.015268892
0.01157195 0.022091907 0.015985578
0.012754508 0.022320392 0.016435444
0.013580539 0.021937795 0.016602397
0.014665713 0.021998569 0.016648531
0.015763871 0.022069421 0.016227931
0.016819015 0.022074958 0.016449153
0.017924218 0.02214168 0.01625517
0.019089296 0.022270847 0.015941203
0.019871296 0.021963011 0.015441567
0.021267349 0.022330718 0.015271693
0.022441523 0.022441523 0.014814287
0.023202052 0.022147415 0.014428496
0.024324611 0.022209426 0.014344186
0.025524374 0.022333827 0.013932139
0.026576251 0.02232405 0.013594776
0.027655462 0.022337105 0.013387173
0.028709492 0.022329604 0.013153195
0.029454775 0.022091083 0.012693018
0.030705648 0.022235123 0.012194782
0.032181274 0.022526894 0.011116654
0.033168659 0.02246909 0.010812223
0.034686439 0.022762977 0.010063052
0.03529257 0.022458909 0.0091655254
0.036659814 0.022642827 0.0081693232
0.037793685 0.022676213 0.0078821182
0.03845669 0.02243307 0.0076676905
0.039424036 0.022375803 0.0073193014
0.041215003 0.022776712 0.0070286393
0.041519016 0.022356393 0.0062042177
0.043363322 0.022765746 0.0054798424
-0.052488085 0.02405704 0.0057532191
-0.050358035 0.023571847 0.0067670345
-0.049631782 0.023736939 0.0070833266
-0.048754286 0.023835426 0.0075473189
-0.046978254 0.023489127 0.0081313848
-0.046581436 0.023832362 0.0085387826
-0.045466833 0.023815958 0.0085292459
-0.044234235 0.023735441 0.0085846484
-0.043391496 0.023865324 0.0085442662
-0.042305201 0.023864472 0.0081313848
-0.041647144 0.024111504 0.0075781941
-0.040208388 0.023907689 0.0069791079
-0.038772482 0.023694295 0.0060442388
-0.037676148 0.023682151 0.0056189299
-0.032779872 0.024038574 0.0056602955
-0.031958919 0.024244696 0.0066291392
-0.030836828 0.024228936 0.0083038807
-0.028856553 0.023512747 0.011291653
-0.027511181 0.023278693 0.013398796
-0.026531687 0.023347883 0.014862448
-0.025224872 0.023122799 0.015215725
-0.024148006 0.023098093 0.015593708
-0.023132082 0.023132082 0.015944511
-0.022107834 0.023160586 0.016320974
-0.021348422 0.023483265 0.016371667
-0.020208353 0.023399146 0.016216248
-0.019019961 0.02324662 0.015966654
-0.018052116 0.02336156 0.015835375
-0.016850833 0.023169896 0.015616566
-0.016004518 0.023473291 0.015674084
-0.014875861 0.023376353 0.015477568
-0.013411805 0.022696901 0.015282959
-0.012582647 0.023068186 0.015380353
-0.011883712 0.023767425 0.015380353
-0.010400548 0.022881206 0.014891505
-0.0095248437 0.023282951 0.014496028
-0.0085911537 0.023625672 0.014010251
-0.0073880702 0.023219649 0.013784528
-0.0063325227 0.02321925 0.012979716
-0.0053579472 0.023574969 0.012658477
-0.0042779553 0.023528753 0.012306064
-0.003172555 0.023265405 0.012220562
-0.0021369874 0.023506861 0.012737662
-0.0010504823 0.023110608 0.012389272
0 0.023558054 0.012192041
0.0010562661 0.023237854 0.011935949
