ply
format ascii 1.0
comment PCL generated
element vertex 1297
property float x
property float y
property float z
element camera 0
property float view_px
property float view_py
property float view_pz
property float x_axisx
property float x_axisy
property float x_axisz
property float y_axisx
property float y_axisy
property float y_axisz
property float z_axisx
property float z_axisy
property float z_axisz
property float focal
property float scalex
property float scaley
property float centerx
property float centery
property int viewportx
property int viewporty
property float k1
property float k2
end_header
-0.023429619 0.036209412 0.010255992
-0.022409659 0.036282305 0.0097860098
-0.021460533 0.036482908 0.0094021261
-0.020343846 0.036404777 0.0093290806
-0.01928734 0.036431648 0.0094204247
-0.01871416 0.037428319 0.009516269
-0.017341211 0.036850072 0.0099916458
-0.016268052 0.036874253 0.010349631
-0.015105824 0.036685575 0.011137336
-0.013720135 0.03588343 0.013399273
-0.012694872 0.035968807 0.015117466
-0.011631115 0.03595072 0.016403794
-0.010425623 0.035447117 0.017236888
-0.00943664 0.035649531 0.017125815
-0.0084065469 0.035727821 0.016961366
-0.007330982 0.035607629 0.016809434
-0.0063415435 0.035935413 0.016623855
-0.0052650557 0.035802379 0.016408831
-0.004227472 0.035933513 0.015540868
-0.0032089485 0.036368083 0.014894277
-0.002123171 0.036093909 0.014187455
-0.0010546693 0.035858754 0.013375551
0 0.036170788 0.013267666
0.0010468924 0.03559434 0.013097405
0.0021130855 0.035922453 0.013404369
0.0031909042 0.036163583 0.013523638
0.00422893 0.035945904 0.013566226
0.0053133531 0.036130805 0.013983995
0.0064118914 0.036334053 0.014198035
0.0074398415 0.036136374 0.014513493
0.0084828418 0.036052078 0.014730185
0.0095394142 0.036037788 0.014881402
0.010569571 0.035936542 0.015147299
0.011686565 0.03612211 0.015068859
0.012626369 0.035774712 0.015244812
0.013623826 0.035631545 0.015336782
0.014920508 0.036235519 0.015606314
0.015881911 0.035998996 0.016304702
0.016806006 0.035712764 0.016437739
0.018029986 0.036059972 0.016870558
0.018888572 0.035678416 0.017042488
0.019932194 0.035668138 0.016756505
0.021426551 0.036425136 0.016796321
0.021998109 0.035615988 0.017160714
0.023114644 0.035722632 0.017391741
0.0243182 0.035948642 0.017483056
0.025130201 0.03560112 0.017291248
0.026324928 0.035801902 0.0170573
0.027422478 0.035860162 0.016823322
0.028357955 0.035710018 0.016030967
0.029586537 0.03592651 0.015752643
0.03102267 0.036371406 0.014763623
0.031952072 0.036212347 0.014542371
0.033253171 0.036471222 0.014108866
0.034191273 0.03632823 0.013475895
0.03547449 0.036549475 0.013174444
0.036572807 0.036572807 0.012742966
0.036850296 0.035797432 0.01271379
0.038158476 0.036038563 0.011336565
0.039811783 0.0365838 0.010913193
0.040547367 0.036279224 0.010174632
0.042321507 0.036895674 0.0087299049
0.043601695 0.037061442 0.0081993043
0.044075958 0.036550794 0.0078745186
0.045200389 0.036590789 0.0070227385
0.046823017 0.037022851 0.0054628253
-0.062348682 0.038284279 0.0053159595
-0.060554929 0.03784683 0.0057352483
-0.059391081 0.037794322 0.0065617561
-0.058369603 0.037832148 0.0079323947
-0.057048839 0.037673764 0.0084532797
-0.055708442 0.037496068 0.00909096
-0.054534443 0.037425596 0.0096395612
-0.052963242 0.037074268 0.01002121
-0.052286036 0.037347168 0.010438502
-0.051425233 0.037497569 0.011505723
-0.050544314 0.037639383 0.012120157
-0.048930552 0.037229765 0.012407601
-0.047285281 0.03677744 0.012431741
-0.046680167 0.03713195 0.01211217
-0.045795038 0.037275031 0.011921197
-0.04448035 0.037066959 0.011775404
-0.043751966 0.037349239 0.011876523
-0.042787336 0.037438918 0.011863858
-0.042277165 0.037941046 0.011742711
-0.041538391 0.038259044 0.011746168
-0.039995808 0.037833869 0.012290329
-0.038481433 0.037412506 0.012368381
-0.037213121 0.037213121 0.012467057
-0.035933256 0.036990114 0.012685508
-0.034973495 0.037093099 0.013234675
-0.034164626 0.03736756 0.013799429
-0.032639675 0.036851246 0.013990939
-0.031692673 0.036974784 0.013997406
-0.030919431 0.037316553 0.013899475
-0.029598897 0.036998622 0.01324001
-0.028559731 0.037021872 0.013011575
-0.027804336 0.037428912 0.012438744
-0.026551209 0.037171692 0.01185587
-0.025740413 0.0375381 0.011458933
-0.024632426 0.037484124 0.010944754
-0.023447303 0.037302528 0.01047489
-0.022476213 0.037460353 0.010134071
-0.021390431 0.037433255 0.0099250674
-0.020277249 0.037352826 0.0097650886
-0.019379344 0.037682056 0.0098725855
-0.018792698 0.03869085 0.010150433
-0.017398687 0.038059626 0.010378003
-0.016138926 0.037657496 0.010678351
-0.014885874 0.037214682 0.011564404
-0.013789025 0.037124299 0.014024913
-0.012850991 0.03748206 0.015820742
-0.011532446 0.036694147 0.016712487
-0.010419142 0.036466993 0.017572969
-0.0095029408 0.036955882 0.017492145
-0.0083206967 0.036403045 0.017346829
-0.0073668263 0.036834128 0.01715973
-0.0063208719 0.036871754 0.016988903
-0.0052611958 0.036828369 0.016744047
-0.0042316695 0.037027106 0.015799522
-0.0031878524 0.037191611 0.014999211
-0.0021413038 0.037472818 0.014187455
-0.0010629476 0.037203163 0.013453603
0 0.037167136 0.013119131
0.0010605786 0.037120249 0.013008684
0.0021612274 0.037821479 0.013414621
0.0032308577 0.03769334 0.013533473
0.0042727301 0.037386384 0.014002085
0.0053847991 0.037693594 0.01451987
0.0064105196 0.037394695 0.014307141
0.0074186926 0.037093464 0.014665484
0.0085043479 0.037206523 0.01506111
0.0095384661 0.037094038 0.015352219
0.010529053 0.036851685 0.015584052
0.01151508 0.036638889 0.016007245
0.012617841 0.036802035 0.015978098
0.013503316 0.036355082 0.01607269
0.014686148 0.03671537 0.016201079
0.015817514 0.036907531 0.016270041
0.01695391 0.037086677 0.016406536
0.0179209 0.036895968 0.016477555
0.018956628 0.036860112 0.016789138
0.02019194 0.037195675 0.016636103
0.021096796 0.036919396 0.01666072
0.022026537 0.036710892 0.017130166
0.023316536 0.037094492 0.0172759
0.024092631 0.036662702 0.01754722
0.025443541 0.037105165 0.017291248
0.026308704 0.036832184 0.017103374
0.027427664 0.036921855 0.016848624
0.028561369 0.037023995 0.016031891
0.02946995 0.036837436 0.015846461
0.030647099 0.036987875 0.014962107
0.032117907 0.037470892 0.014611959
0.033169121 0.037449002 0.014197648
0.034052245 0.037244644 0.013312638
0.035379045 0.037523232 0.012736708
0.036204901 0.037269749 0.012410998
0.037185583 0.037185583 0.012072176
0.038777646 0.037700489 0.010995239
0.03897303 0.036866378 0.0097502172
0.040421572 0.037230391 0.008692652
0.041921124 0.03762152 0.0080581903
0.043795545 0.038321104 0.0074961483
0.044765305 0.038214285 0.0065745115
-0.05938486 0.038870089 0.0050070286
-0.057921462 0.038614307 0.0063343644
-0.056940764 0.038676746 0.0076100528
-0.055899948 0.038699962 0.0083766282
-0.05492821 0.038772851 0.0087560415
-0.053605635 0.038596053 0.0094337463
-0.05246374 0.038544789 0.010313362
-0.051199883 0.038399912 0.010854095
-0.049648833 0.038028888 0.011266381
-0.048706211 0.0381179 0.011455327
-0.047359195 0.037887353 0.011610776
-0.04680017 0.038291045 0.011289269
-0.045174882 0.037820827 0.011192143
-0.044569604 0.038202517 0.011161447
-0.044408765 0.038993057 0.011374116
-0.043094665 0.038785197 0.011555523
-0.042626269 0.039347325 0.011588275
-0.041446619 0.039265215 0.011790127
-0.039817024 0.038740885 0.012334287
-0.038366333 0.038366333 0.012565911
-0.037103344 0.038163438 0.012707204
-0.03577932 0.037883986 0.013581872
-0.035033755 0.03821864 0.013816446
-0.033781331 0.038003996 0.013971925
-0.032760173 0.038044069 0.014101714
-0.031896491 0.038275786 0.014039665
-0.030614041 0.038003635 0.014041215
-0.029906236 0.038450874 0.013646454
-0.028790699 0.038387597 0.013032287
-0.027593402 0.038206246 0.012584746
-0.02676511 0.038541757 0.012008637
-0.025577635 0.038366448 0.01185587
-0.024582395 0.038476791 0.011135757
-0.02350886 0.038469043 0.010736883
-0.022347741 0.038310412 0.010442108
-0.021268062 0.03828251 0.010213464
-0.020356935 0.03857103 0.01015994
-0.019392559 0.038785119 0.010239959
-0.018798884 0.039809402 0.010323882
-0.017254081 0.038821679 0.010707885
-0.015984263 0.038362231 0.011164725
-0.01485456 0.038197439 0.012627721
-0.013894885 0.038478144 0.014321536
-0.012627449 0.037882343 0.016383916
-0.011584 0.037911274 0.017471224
-0.01057045 0.038053621 0.017894298
-0.0092751728 0.037100691 0.017886013
-0.008365497 0.037644736 0.017561674
-0.0073239752 0.037666157 0.017358422
-0.0063712173 0.038227305 0.01704964
-0.005277344 0.037996877 0.016868711
-0.0042013461 0.037812114 0.015732616
-0.003199175 0.0383901 0.014983624
-0.0021430189 0.038574338 0.014196098
-0.0010707906 0.038548462 0.013337702
0 0.038076341 0.012985855
0.0010760134 0.038736481 0.012637019
0.0021591729 0.038865108 0.012776911
0.0032762391 0.03931487 0.013203472
0.004378912 0.039410207 0.014042675
0.0053490005 0.0385128 0.01442951
0.0063978145 0.038386885 0.014561564
0.0074106851 0.038112093 0.015209675
0.0084267017 0.037920155 0.015657604
0.009424895 0.03769958 0.016133398
0.01050731 0.037826315 0.016237885
0.011445769 0.037458878 0.016279042
0.01259904 0.037797119 0.016274422
0.013562683 0.037558198 0.016406536
0.014725404 0.037865322 0.016402155
0.01588231 0.038117539 0.016406536
0.01682882 0.037864845 0.016609669
0.018085094 0.038297847 0.016655087
0.0190988 0.038197599 0.01674217
0.019868238 0.037645079 0.016533881
0.021044852 0.037880734 0.016547024
0.022161797 0.03799165 0.016883999
0.022964563 0.037578374 0.01706484
0.024211455 0.03789619 0.017147481
0.025317203 0.037975803 0.017096549
0.026222626 0.037760578 0.016914487
0.027574493 0.038180064 0.016720295
0.028612372 0.038149826 0.01601541
0.029376984 0.037770405 0.016030967
0.030571882 0.037951298 0.01473406
0.03186015 0.038232181 0.014147639
0.033013579 0.038338345 0.014005929
0.034397371 0.038697038 0.012918591
0.034758121 0.037917949 0.012378812
0.036256652 0.038389396 0.01160568
0.037632726 0.038707949 0.011179775
0.038388107 0.038388107 0.010026783
0.039412029 0.038346838 0.0085923374
0.040674664 0.038533889 0.0078424215
0.041400429 0.038215779 0.0073701739
0.043331556 0.038998399 0.0058221519
-0.057633165 0.040234476 0.0063562393
-0.056535661 0.040227301 0.0071540773
-0.055447418 0.04022656 0.0079784393
-0.053801559 0.039813153 0.0089449584
-0.052635141 0.039744906 0.0094823539
-0.05176723 0.039903909 0.010325044
-0.049824815 0.039223794 0.010852844
-0.048512202 0.039020684 0.010834903
-0.047834646 0.03933071 0.010965705
-0.046367459 0.038990822 0.010743469
-0.045670994 0.0392983 0.010605544
-0.045049127 0.03968614 0.010513544
-0.043995153 0.039702941 0.010966808
-0.043232433 0.039990004 0.0110448
-0.0425083 0.040328391 0.011313707
-0.041039951 0.039959952 0.011807173
-0.039772302 0.039772302 0.012167066
-0.038368609 0.039434407 0.012685508
-0.037027273 0.039143119 0.013302565
-0.036221765 0.039417807 0.013534039
-0.034864131 0.039090089 0.013642937
-0.034135919 0.039469659 0.014131337
-0.033064328 0.039463878 0.014165998
-0.031794857 0.039213661 0.014180869
-0.030770475 0.039258882 0.014005482
-0.029952079 0.039579537 0.013766468
-0.028740052 0.039384518 0.012828678
-0.027543077 0.039195921 0.012464643
-0.026501531 0.039222267 0.0121288
-0.025347859 0.039077953 0.011902064
-0.024663292 0.039675731 0.011255026
-0.023570247 0.039640874 0.010803998
-0.022520963 0.039679792 0.010629505
-0.021337247 0.039473906 0.01061222
-0.020233648 0.039402369 0.010482103
-0.019543216 0.040172171 0.01061222
-0.018921485 0.041182056 0.010655999
-0.016968682 0.039240081 0.011037618
-0.015972463 0.039398745 0.011452138
-0.014964189 0.039548218 0.013118237
-0.013678743 0.038931806 0.014988899
-0.012661737 0.039040361 0.016459227
-0.011612759 0.039061103 0.017565161
-0.010441202 0.038632449 0.017932057
-0.0094222184 0.038735792 0.017902911
-0.0083538927 0.038636755 0.017671734
-0.0072844988 0.038503781 0.017396778
-0.0063424571 0.039111823 0.017092645
-0.0052691689 0.038991854 0.016835034
-0.0042341524 0.03916591 0.015866578
-0.003204644 0.039523944 0.01487121
-0.0021426554 0.03963913 0.013822705
-0.0010580409 0.039147511 0.013047189
0 0.039507072 0.012626916
0.0010709735 0.039626017 0.012171
0.002159656 0.039953638 0.0124695
0.003246173 0.040036134 0.012849778
0.0043142941 0.039907224 0.013681114
0.0053283628 0.039429888 0.014261395
0.0063887178 0.039397094 0.01461035
0.0073282686 0.038735136 0.015209675
0.0084213968 0.038948961 0.015689015
0.0094418861 0.038816646 0.016341805
0.010485511 0.038796395 0.016438663
0.011578043 0.03894433 0.016900301
0.012582357 0.038795602 0.016739696
0.013553307 0.0385748 0.016836077
0.014654966 0.038730983 0.01671201
0.015825935 0.03903731 0.016406536
0.016999744 0.039311912 0.016605049
0.017983042 0.039139561 0.016566068
0.018988583 0.03903209 0.016547024
0.020156443 0.039252024 0.015798658
0.021308139 0.039420057 0.015860647
0.022047292 0.03884523 0.016114563
0.023140777 0.038918581 0.016474783
0.024318926 0.039121751 0.016902655
0.025262037 0.038945641 0.016826719
0.026545465 0.039287288 0.016674846
0.027365064 0.038942594 0.016310036
0.028445637 0.038981058 0.015924662
0.029975822 0.039610911 0.015782446
0.030647542 0.039102037 0.014663845
0.031718567 0.039119568 0.014120787
0.033047441 0.03944372 0.013927907
0.03402165 0.039337531 0.012840271
0.035315435 0.039596099 0.012273252
0.036501519 0.039722241 0.010856301
0.037160646 0.039284114 0.010416359
0.038020279 0.039076403 0.0089756846
0.039725322 0.039725322 0.0083344281
0.040520832 0.039454497 0.0072968006
0.041900229 0.039751504 0.0057212114
-0.057253201 0.041049466 0.0053710341
-0.05719265 0.041794628 0.0066019893
-0.055483881 0.041340932 0.0070698559
-0.054382592 0.04133077 0.0078487694
-0.052794345 0.040942553 0.0088073611
-0.051263541 0.040583637 0.0095344186
-0.050689008 0.040982604 0.010172099
-0.049472041 0.040868208 0.010328978
-0.047861677 0.040416524 0.010324121
-0.046574529 0.040223461 0.010107696
-0.045974541 0.040628664 0.0099474788
-0.044701528 0.04044424 0.0099092424
-0.043970179 0.040752847 0.010296673
-0.043188661 0.04102923 0.010635883
-0.042515013 0.041424889 0.01121825
-0.041136138 0.041136138 0.01163128
-0.03947239 0.040539209 0.012244612
-0.038268346 0.04039437 0.012470663
-0.036995456 0.040166494 0.013454616
-0.035939895 0.040168118 0.013838232
-0.034880046 0.040164903 0.013884544
-0.034004111 0.040379882 0.014394224
-0.032724604 0.04011403 0.014507443
-0.031845625 0.040337794 0.014438182
-0.03104605 0.040681031 0.014160335
-0.029575523 0.040138211 0.013619691
-0.028916556 0.040697377 0.012846053
-0.027908396 0.040789194 0.012537539
-0.0265575 0.040367398 0.012213975
-0.025702652 0.040695865 0.011723101
-0.024512619 0.04049911 0.01133284
-0.023298096 0.040242169 0.010898054
-0.022415176 0.040560797 0.010776788
-0.021372315 0.0406074 0.010816336
-0.020303845 0.040607691 0.010674804
-0.019572522 0.041319773 0.010730773
-0.018690273 0.041778259 0.010842264
-0.017204452 0.040860575 0.01130113
-0.016158925 0.040935948 0.012126476
-0.014716113 0.039943736 0.014041334
-0.013793087 0.040318254 0.015372127
-0.01270831 0.040242981 0.016514242
-0.011438524 0.039514903 0.017871797
-0.010466085 0.039771125 0.018363357
-0.0094517097 0.039907221 0.018326402
-0.0083592357 0.039706368 0.017964482
-0.0073078736 0.039671313 0.017770022
-0.0062903641 0.039838973 0.01718989
-0.0052609649 0.039983336 0.016874015
-0.0042576916 0.04044807 0.015791118
-0.0031887854 0.040391281 0.014560312
-0.0021405793 0.04067101 0.013324678
-0.0010656257 0.040493775 0.012637019
0 0.040316287 0.011841714
0.0010821366 0.041121192 0.011534572
0.0021495633 0.040841702 0.012069106
0.0032028072 0.040568892 0.01237309
0.004227099 0.040157441 0.013252914
0.0052925278 0.040223211 0.014311999
0.0063151279 0.039995812 0.01442951
0.0073890202 0.040111825 0.015124738
0.0084509999 0.040142249 0.015693575
0.0094396938 0.039856486 0.016281962
0.010598375 0.040273827 0.016410142
0.011444531 0.039535657 0.01657024
0.012515362 0.039631981 0.01657024
0.013572246 0.039672717 0.016903937
0.014624387 0.039694767 0.016681075
0.015865939 0.04019371 0.016274422
0.017083144 0.040572468 0.01661396
0.018061353 0.040372435 0.016333193
0.018654531 0.039381791 0.015785515
0.020116059 0.040232118 0.015639544
0.021072816 0.040038351 0.015460491
0.022317154 0.040383421 0.015624911
0.023363436 0.040355027 0.015873164
0.024140457 0.039884232 0.016290426
0.025494691 0.040366594 0.016176432
0.026543869 0.040346678 0.01607728
0.027680026 0.040455423 0.015971988
0.028398175 0.039967801 0.015351683
0.029380534 0.039873581 0.015117079
0.030547403 0.04002763 0.014211863
0.031742115 0.040206678 0.013670325
0.032752749 0.04014853 0.013651073
0.034325544 0.040761583 0.012533873
0.035726544 0.041139659 0.011725605
0.03658976 0.040894438 0.010682851
0.037226159 0.040416975 0.0095358789
0.038906083 0.041067533 0.0085977912
0.03966473 0.04073675 0.0079275966
0.040621735 0.040621735 0.0056602359
-0.057388924 0.043041695 0.0051145256
-0.055633593 0.042543337 0.0051336586
-0.054812472 0.042753726 0.006698072
-0.052566458 0.041838609 0.0070375502
-0.051529165 0.041867446 0.0079313815
-0.050484445 0.041891348 0.0090164244
-0.048681039 0.041273054 0.0093062818
-0.047874831 0.041491516 0.0090367198
-0.047120985 0.041766327 0.0092011392
-0.045987062 0.041709196 0.0089455545
-0.044909008 0.04170122 0.0090073347
-0.044435073 0.042267505 0.010027558
-0.043275092 0.042193215 0.01062724
-0.042139832 0.042139832 0.011119097
-0.040697087 0.041768063 0.011330605
-0.039458588 0.041591484 0.012017697
-0.038224485 0.041409861 0.012671053
-0.036897827 0.041114721 0.013455957
-0.036017742 0.041314468 0.013776749
-0.034965597 0.04132298 0.013871491
-0.033930235 0.041352473 0.014343888
-0.032790005 0.041251943 0.014335483
-0.032025084 0.041632608 0.014324963
-0.030670056 0.041245937 0.013958752
-0.02983295 0.041553039 0.013534784
-0.028944029 0.041808039 0.012942851
-0.027703373 0.041555058 0.012555033
-0.026582994 0.04146947 0.012213975
-0.025572961 0.041556064 0.011769146
-0.02454024 0.041611712 0.011374682
-0.023477865 0.041619852 0.010785073
-0.02230294 0.041419744 0.010569304
-0.021187821 0.041316252 0.010582298
-0.020333568 0.041737322 0.010746121
-0.019621339 0.042512905 0.010776788
-0.018604394 0.042680666 0.010852635
-0.017248867 0.042044114 0.011401296
-0.01592675 0.041409548 0.012382716
-0.014868846 0.041420359 0.014097989
-0.01378034 0.041341018 0.015857965
-0.012514565 0.040672339 0.017286509
-0.011523218 0.040855046 0.017954469
-0.01051152 0.040994931 0.018733263
-0.0093637267 0.040576153 0.018499613
-0.0083635543 0.040772326 0.018219233
-0.0073146266 0.040752921 0.018021345
-0.0062764855 0.040797155 0.017160922
-0.0052651721 0.041068345 0.016570091
-0.0042372574 0.041313261 0.015322417
-0.0032106002 0.041737802 0.013403922
-0.0021485656 0.041897029 0.012643456
-0.0010617911 0.04140985 0.011945724
0 0.041843109 0.010818988
0.0010858234 0.042347111 0.010700762
0.0021429823 0.041788153 0.011142313
0.0031676344 0.041179247 0.011328757
0.0042489087 0.04142686 0.012351483
0.005272151 0.041122776 0.013286293
0.006365323 0.041374598 0.013506681
0.0074250619 0.041368201 0.014590651
0.0084650042 0.041266896 0.015704602
0.0095117074 0.041217402 0.016167819
0.010510308 0.0409902 0.016401798
0.011472501 0.040675234 0.016483307
0.012612107 0.040989351 0.01657024
0.0135769 0.0407307 0.016980588
0.014764406 0.041129414 0.016716391
0.015598354 0.040555719 0.016274422
0.016733672 0.040788326 0.01661396
0.017970469 0.041226368 0.015633643
0.019302683 0.041822482 0.015357226
0.020014523 0.041082442 0.014853328
0.021149028 0.041240606 0.01455763
0.022492573 0.041771919 0.014652431
0.023264563 0.041241724 0.014981568
0.024529092 0.041592807 0.015618086
0.025354873 0.04120167 0.015458554
0.026480023 0.041308835 0.015458554
0.027366411 0.041049615 0.015012354
0.028317867 0.040903583 0.014829487
0.029443067 0.041009985 0.014468372
0.030559467 0.041097213 0.01402539
0.031529427 0.040988255 0.013469189
0.03267746 0.041110352 0.013143271
0.034363873 0.041880973 0.01207605
0.035366792 0.041797116 0.01131165
0.036486521 0.041852184 0.0096973479
0.037864868 0.04219228 0.0086807907
0.038346343 0.041541874 0.0080916286
0.039834235 0.041987438 0.0074703395
-0.052739717 0.04305283 0.0053400099
-0.052051723 0.043376435 0.0061604977
-0.050531745 0.043005738 0.0070723593
-0.049476191 0.043022774 0.0069777369
-0.048921481 0.043485757 0.0072505772
-0.047098979 0.042817254 0.0077311397
-0.046071932 0.04285761 0.007614851
-0.045397438 0.043235652 0.008810699
-0.044305537 0.043224912 0.0098887384
-0.043532681 0.043532681 0.010419786
-0.041922368 0.042997297 0.010773271
-0.040602297 0.042739257 0.01159212
-0.039279129 0.042463921 0.012001544
-0.037984606 0.042205121 0.012549251
-0.036899455 0.042170804 0.013399303
-0.036109723 0.042482026 0.013776749
-0.034929171 0.042338386 0.013871491
-0.033896837 0.042371042 0.014053613
-0.032855172 0.04239377 0.014027685
-0.031781327 0.042375103 0.014102131
-0.030836336 0.042532876 0.013694227
-0.029834166 0.042620234 0.013273835
-0.028866701 0.04276548 0.012645572
-0.027806822 0.042779725 0.012336999
-0.026620422 0.042592671 0.012012094
-0.025603071 0.042671781 0.011547863
-0.024531474 0.042663433 0.011142224
-0.023425495 0.042591807 0.010661215
-0.022294957 0.042466585 0.010472953
-0.021392323 0.042784646 0.010415703
-0.020231882 0.042593434 0.010554999
-0.019661285 0.043691743 0.010996819
-0.018606035 0.043778908 0.01109606
-0.01689546 0.042238645 0.011984318
-0.016013807 0.042703483 0.012809724
-0.014998495 0.042852841 0.014508456
-0.013674491 0.042075355 0.016020596
-0.012563908 0.041879691 0.017332435
-0.011580445 0.042110708 0.01799649
-0.010371874 0.041487496 0.019437611
-0.009394194 0.041751973 0.019095629
-0.008381892 0.04190946 0.018981904
-0.0072525395 0.04144308 0.018670499
-0.0062531121 0.041687414 0.017950922
-0.0052362811 0.041890249 0.01687932
-0.004199577 0.041995771 0.015021473
-0.0031907042 0.042542722 0.013270825
-0.0021439143 0.042878285 0.012322843
-0.0010634731 0.042538922 0.010812551
0 0.043048706 0.010389328
0.0010812501 0.043250006 0.010230303
0.0021505884 0.043011766 0.010375202
0.0032085415 0.042780552 0.010433435
0.0042104977 0.042104978 0.011134207
0.005327587 0.042620696 0.01182422
0.0063968915 0.042645942 0.012913436
0.0073850295 0.042200167 0.01440385
0.0084614791 0.042307395 0.015264899
0.009487546 0.042166874 0.01613915
0.01042161 0.041686442 0.016410142
0.011565767 0.042057335 0.016279042
0.01263086 0.042102866 0.016401619
0.013591716 0.041820664 0.01649788
0.014807491 0.042307116 0.01632762
0.015760068 0.042026844 0.016174972
0.01683823 0.042095575 0.016350806
0.018103143 0.042595629 0.01533708
0.019105954 0.042457677 0.015063316
0.0200534 0.042217679 0.014227003
0.021238403 0.042476807 0.013882875
0.022115549 0.042124853 0.013882875
0.023276221 0.0423204 0.014126331
0.024428379 0.042484134 0.014708549
0.025435911 0.042393185 0.014398187
0.026529588 0.042447336 0.014493436
0.027199179 0.04184489 0.014377326
0.02833876 0.041983347 0.014094234
0.029563008 0.042232867 0.014069527
0.030504651 0.042075377 0.013507813
0.031641565 0.042188749 0.013270855
0.03290768 0.042461522 0.012580484
0.033651039 0.042063795 0.011981696
0.035206545 0.042674601 0.010656118
0.036753111 0.043238949 0.009109199
0.037231594 0.042550392 0.0086741745
0.038841762 0.043157514 0.0079960823
0.040074952 0.043324266 0.0058043599
-0.050955325 0.044450395 0.0053293705
-0.049915824 0.044490192 0.0057686269
-0.048551299 0.044235628 0.0062972903
-0.047588762 0.044344075 0.0067667365
-0.046511788 0.044348452 0.0068518519
-0.044935163 0.043865282 0.0082046092
-0.044353928 0.044353928 0.0088952482
-0.043408405 0.044493619 0.010433555
-0.041926093 0.044076148 0.010759622
-0.040677123 0.043888476 0.011518687
-0.039197855 0.043435458 0.011880368
-0.037877291 0.043138031 0.012540728
-0.036936808 0.043268837 0.013454616
-0.036080189 0.043508466 0.013772547
-0.034932449 0.043400925 0.013772547
-0.034316014 0.043967396 0.013828278
-0.032554518 0.043055974 0.0137963
-0.031686306 0.043304618 0.013835639
-0.030818125 0.043570451 0.013525426
-0.029803006 0.043640118 0.01320821
-0.028841525 0.04379639 0.012668133
-0.027862839 0.043937556 0.012382448
-0.026594102 0.043614332 0.011971414
-0.025529832 0.043613467 0.011513531
-0.02452117 0.043711651 0.011161387
-0.023448959 0.043700334 0.010661215
-0.022436948 0.043805473 0.010536343
-0.021367589 0.043803561 0.010727793
-0.020284386 0.043771569 0.010732651
-0.019833069 0.045175325 0.010951072
-0.018426239 0.044439759 0.01108858
-0.01701924 0.043611806 0.012124896
-0.016099816 0.044006165 0.012904465
-0.014776628 0.04327441 0.01471892
-0.013731756 0.043307848 0.016033739
-0.012619695 0.043117292 0.017506748
-0.011520853 0.042941365 0.018363535
-0.010471151 0.042931721 0.019427836
-0.0094120353 0.042877052 0.019347429
-0.0083385548 0.042735092 0.019265741
-0.0072999694 0.042756967 0.019063622
-0.0062162471 0.04247769 0.018680513
-0.0052204127 0.042807389 0.017160922
-0.0042468063 0.043529764 0.015207648
-0.0031764391 0.043411337 0.012766689
-0.0021272427 0.043608475 0.011495203
-0.0010710314 0.043912292 0.010516465
0 0.04391491 0.010097951
0.001082981 0.044402219 0.0099923611
0.0021404659 0.043879554 0.010188282
0.0032071918 0.043831624 0.010072947
0.0042885365 0.043957502 0.010587424
0.0053899381 0.044197496 0.011198044
0.0063810963 0.043604162 0.012256682
0.0074073779 0.043386072 0.013884127
0.0084098736 0.043100607 0.015004903
0.0094267717 0.042944185 0.015862435
0.010564534 0.043314595 0.016146272
0.011500177 0.042864297 0.016205877
0.012568037 0.042940795 0.016139656
0.013669493 0.043111477 0.016143888
0.014684968 0.043005981 0.015752375
0.015929788 0.043541424 0.015544087
0.017005663 0.043577015 0.015212297
0.017977046 0.043356404 0.014780015
0.019167712 0.043659791 0.014375985
0.020153148 0.043488372 0.013454735
0.021138586 0.043334104 0.01307112
0.022458572 0.043847691 0.013129562
0.023446294 0.043695368 0.013347536
0.024234241 0.043200172 0.013650686
0.025423748 0.043432239 0.013758242
0.026610751 0.043641634 0.01382646
0.027428467 0.043252584 0.013758242
0.02851144 0.043295152 0.013706177
0.029577661 0.043310151 0.013576031
0.030554947 0.043198373 0.013061941
0.031875033 0.043562546 0.012787074
0.032652006 0.043184914 0.01207605
0.033733603 0.043221179 0.011235178
0.035433196 0.044023063 0.0098268688
0.036203492 0.043657154 0.0086646378
0.037677065 0.044135995 0.0082368851
0.039423704 0.044899222 0.0074324906
-0.049792323 0.045462556 0.005142808
-0.048639338 0.045396715 0.0056243241
-0.048022304 0.045839474 0.0064591467
-0.046100691 0.045028582 0.0066921115
-0.045562122 0.045562122 0.0074413717
-0.044582598 0.045669977 0.009029001
-0.043525305 0.045701571 0.010475695
-0.042002533 0.045233499 0.010773271
-0.040354766 0.044602636 0.011712015
-0.038957745 0.044222306 0.011920124
-0.037965503 0.044293091 0.01269719
-0.037124049 0.044548862 0.013568401
-0.036140852 0.044644579 0.013527572
-0.03500133 0.044547148 0.013531983
-0.033837199 0.044411324 0.01371938
-0.032671794 0.044265013 0.013322741
-0.031963054 0.044748276 0.013498813
-0.03078044 0.044578567 0.013142556
-0.029941071 0.044911608 0.013001651
-0.029151089 0.045346137 0.012515366
-0.027607121 0.044596121 0.012134522
-0.026667504 0.044801403 0.011592239
-0.025614832 0.04482596 0.011281103
-0.024524646 0.044784136 0.010936648
-0.023745356 0.045332044 0.010492235
-0.022237901 0.044475801 0.0103212
-0.021383924 0.044906244 0.010635614
-0.020348247 0.044980336 0.010635614
-0.019792007 0.046181351 0.010824412
-0.01830616 0.045226984 0.011036515
-0.017104078 0.044898205 0.012124896
-0.015832989 0.04433237 0.013407171
-0.014794901 0.044384703 0.015086979
-0.013688051 0.044222936 0.016055197
-0.012583729 0.044043053 0.017635912
-0.01135453 0.043353662 0.018915892
-0.010543639 0.044283286 0.019506872
-0.0093452362 0.043611102 0.019308567
-0.0083684279 0.043934248 0.019278407
-0.0072845155 0.043707091 0.019157201
-0.0062583098 0.04380817 0.018913239
-0.0052366583 0.043987934 0.017477214
-0.0042151548 0.044259124 0.015636057
-0.0031927247 0.044698149 0.012929529
-0.0021505896 0.04516238 0.011569679
-0.0010692405 0.044908103 0.010516465
0 0.045259729 0.0099697709
0.0010876758 0.045682382 0.0099662542
0.0021306991 0.044744682 0.010050267
0.003246028 0.045444392 0.0099635124
0.004353412 0.045710828 0.010212213
0.0053321626 0.044790171 0.010508716
0.0063983779 0.044788647 0.011644721
0.0074810274 0.044886164 0.013013303
0.0083912257 0.044053935 0.014442056
0.0095034717 0.04434954 0.015428632
0.010585469 0.04445897 0.015497983
0.011527235 0.044013083 0.01570186
0.012635373 0.044223804 0.015635639
0.013617137 0.043993831 0.015618861
0.014679507 0.044038523 0.015414983
0.016054785 0.044953402 0.014958054
0.016930534 0.044442654 0.014939994
0.018145481 0.044830009 0.014281869
0.019423429 0.045321334 0.013664007
0.020103101 0.044438433 0.013192207
0.021330625 0.044794314 0.012979835
0.022581276 0.045162551 0.012859851
0.023434969 0.044739489 0.013073951
0.024402106 0.044560369 0.013199568
0.025527664 0.044673413 0.013264298
0.026378494 0.044315871 0.01325351
0.027561489 0.044522408 0.013259679
0.028561337 0.044428747 0.013259679
0.029532844 0.044299267 0.013057232
0.030683966 0.044438846 0.012209207
0.031583879 0.044217434 0.012145042
0.03260057 0.044168513 0.011294186
0.034357563 0.0450943 0.0099075437
0.034626365 0.044069923 0.0090794265
0.036535319 0.045131862 0.008125037
0.038052309 0.045662772 0.0075899065
-0.04712151 0.046050567 0.0053541064
-0.046814524 0.046814524 0.0062785745
-0.045887113 0.046979662 0.0066561401
-0.044828188 0.047014926 0.008674413
-0.043632232 0.04690465 0.010219663
-0.041793916 0.046080474 0.010902017
-0.040186003 0.045473635 0.011604488
-0.039416689 0.045808583 0.011737823
-0.038379509 0.045842193 0.012458622
-0.036976967 0.045428842 0.012934208
-0.036135536 0.045700822 0.013299346
-0.03504803 0.045668647 0.013302416
-0.034068175 0.045779109 0.013302386
-0.032919984 0.0456632 0.012821704
-0.031784214 0.045557372 0.012700826
-0.030953022 0.04589586 0.012948126
-0.030143231 0.046291389 0.012642205
-0.028807022 0.045877848 0.012249768
-0.027681695 0.045781266 0.011912704
-0.026657499 0.045850899 0.011471212
-0.025586344 0.045842201 0.01109606
-0.024541894 0.045882668 0.010480076
-0.023527384 0.045985341 0.010170966
-0.022369388 0.045803986 0.01008898
-0.021402543 0.046015471 0.010225952
-0.020368228 0.046096515 0.010304868
-0.019522993 0.046638265 0.010719597
-0.018369325 0.046463583 0.010732234
-0.016952263 0.045559209 0.011810452
-0.015867915 0.045488022 0.013430446
-0.014829192 0.045546804 0.015065074
-0.013666342 0.045204055 0.015884846
-0.012592789 0.045124158 0.01755625
-0.011617539 0.045414019 0.018833101
-0.010340866 0.044465724 0.019278407
-0.0094115157 0.044966135 0.019226909
-0.0083594434 0.044932008 0.019308567
-0.0072792079 0.044715136 0.019164681
-0.0062413905 0.044729967 0.018913239
-0.0052095195 0.044801868 0.017980337
-0.0042230203 0.045397464 0.016728938
-0.0032120745 0.046039734 0.012933582
-0.0021467509 0.046155147 0.011678815
-0.0010688385 0.045960054 0.010355651
0 0.046617147 0.0098221898
0.0010733855 0.046155572 0.0096538365
0.0021450536 0.046118651 0.0098071992
0.0032715474 0.046892177 0.0092965961
0.0043268073 0.046513177 0.0095696747
0.0054086614 0.046514489 0.0097279847
0.0064214305 0.046020251 0.010639817
0.0073975935 0.045442358 0.012263656
0.0084864907 0.045614891 0.013791949
0.0094982507 0.045380533 0.014978766
0.010519658 0.045234531 0.01492101
0.011562875 0.045200329 0.01500541
0.012671325 0.045405585 0.014974833
0.0136049 0.045000821 0.014925212
0.014765573 0.045351401 0.014978677
0.015961517 0.045756351 0.014638096
0.017026896 0.045759782 0.014312744
0.018260173 0.046187498 0.013352007
0.019207932 0.045885615 0.013189673
0.020247415 0.045823094 0.012687206
0.021492161 0.046208147 0.012529224
0.022516875 0.046105981 0.012420774
0.023394205 0.045725036 0.0125148
0.02444862 0.045708288 0.01293835
0.025583439 0.045836996 0.012837589
0.026566736 0.045694783 0.01278311
0.027577875 0.045609564 0.012797475
0.0286192 0.045578726 0.01278922
0.02965552 0.045542408 0.01228568
0.030711021 0.045537028 0.011597186
0.031838626 0.045635361 0.011294186
0.033047404 0.045839947 0.010504156
0.034110721 0.045836285 0.009165585
0.035365071 0.046081763 0.0084327757
0.03653606 0.046207368 0.0070784092
0.037397638 0.04594567 0.0055675507
-0.046913527 0.048004538 0.0053531826
-0.046029367 0.048221238 0.0062429309
-0.044929989 0.048217546 0.0078047812
-0.043224968 0.047547467 0.0099019706
-0.041396942 0.04670424 0.01055342
-0.040583458 0.046991367 0.011118531
-0.039323557 0.046763148 0.01144287
-0.038078062 0.046539854 0.011914402
-0.03740669 0.04702555 0.012502372
-0.036181338 0.046822906 0.01268205
-0.034927044 0.046569392 0.012715548
-0.034204084 0.047030613 0.012703866
-0.032725729 0.046449419 0.012540728
-0.031929851 0.046830446 0.012266487
-0.031134088 0.047237922 0.012347281
-0.029865988 0.046932265 0.012206167
-0.028559295 0.046541072 0.012016922
-0.027844131 0.047120836 0.01176089
-0.026500644 0.046641134 0.011450171
-0.025647741 0.047020856 0.010769933
-0.024475474 0.046822641 0.010286778
-0.02361295 0.0472259 0.0098558962
-0.022505758 0.047154918 0.0099210441
-0.021425866 0.047136903 0.010073394
-0.020315606 0.047046665 0.010304868
-0.0196213 0.04796318 0.010727793
-0.018194538 0.047091741 0.010824412
-0.016942874 0.046592899 0.011928678
-0.015959051 0.046813216 0.013298929
-0.014629318 0.045977857 0.014968306
-0.013653224 0.046210911 0.015823454
-0.012856216 0.047139458 0.017442524
-0.011500455 0.046001822 0.018750846
-0.010417464 0.045836844 0.019275814
-0.0094040809 0.045975506 0.019220918
-0.0083072651 0.045689959 0.019196123
-0.0073027057 0.045902722 0.019040227
-0.0062764394 0.046027221 0.018916637
-0.0052044834 0.045799457 0.018406034
-0.0042153401 0.046368737 0.016935289
-0.0031930287 0.04683109 0.013158292
-0.0021369618 0.047013156 0.011088103
-0.0010698847 0.047074929 0.010107696
0 0.047347091 0.0094554126
0.001077764 0.047421616 0.0091884136
0.002167024 0.047674526 0.009254694
0.0032426671 0.047559116 0.0090477169
0.0042587346 0.046846077 0.0091268718
0.0053817541 0.047359437 0.0092023909
0.0064080697 0.046992511 0.0097130239
0.0074371784 0.046747979 0.010895729
0.0085065113 0.046785813 0.012391955
0.0095371474 0.046626054 0.01356563
0.01059742 0.04662865 0.013790131
0.011577099 0.046308395 0.014312774
0.012712997 0.046614327 0.014565259
0.013631961 0.046138942 0.014226407
0.014589461 0.045852587 0.014303774
0.015890911 0.046613339 0.013936907
0.017254889 0.047450945 0.013426006
0.017713781 0.045847435 0.012687922
0.018882355 0.046156865 0.012528747
0.020492755 0.047456902 0.012080193
0.021264842 0.04678265 0.011807144
0.022501944 0.047146928 0.011743784
0.023509098 0.047018196 0.011975765
0.024419805 0.046716146 0.012105703
0.025666619 0.047055464 0.011935532
0.026729006 0.047043052 0.011858791
0.027800098 0.047046319 0.011850536
0.028626241 0.046650168 0.011677176
0.029766101 0.0467753 0.011456519
0.03059412 0.046418663 0.010416299
0.032279812 0.047343723 0.010309368
0.033074174 0.046943985 0.0095472336
0.034410961 0.047315069 0.0082817078
0.035568934 0.047425244 0.0074123144
0.036450338 0.047171023 0.0059736967
-0.046072543 0.049363438 0.0058276355
-0.044450652 0.048787303 0.00661695
-0.042771846 0.048118331 0.0092262328
-0.041510336 0.047896545 0.010170251
-0.040182706 0.047584787 0.011176586
-0.039210152 0.047688022 0.011375487
-0.038454425 0.048068032 0.011821747
-0.037330993 0.047996994 0.012327611
-0.036220741 0.047939215 0.012653202
-0.035136733 0.04791373 0.01269719
-0.03388162 0.047646031 0.01249373
-0.032581951 0.047296379 0.012226403
-0.031901184 0.047851782 0.011933982
-0.03100289 0.048107933 0.011918426
-0.029866287 0.047999393 0.011872977
-0.028768588 0.047947649 0.011704981
-0.027509505 0.047612607 0.011514395
-0.026819969 0.048275944 0.010803342
-0.025517331 0.047844999 0.010459453
-0.024424249 0.047786575 0.0097613633
-0.02347737 0.048021898 0.0094258487
-0.022507215 0.04822975 0.0095119774
-0.02131106 0.047949888 0.0097166002
-0.020514738 0.048587538 0.0099968612
-0.019581053 0.048952639 0.010304868
-0.018117506 0.04795811 0.010822326
-0.017077724 0.048031099 0.011737376
-0.015853858 0.047561571 0.013287783
-0.014775365 0.047492243 0.015242755
-0.013725059 0.047509823 0.015724659
-0.012639008 0.047396284 0.017320067
-0.011517954 0.047118906 0.018554628
-0.01051637 0.047323667 0.019163311
-0.0093257148 0.046628579 0.019082218
-0.00838059 0.047140822 0.019027263
-0.007301548 0.046938524 0.018996865
-0.0062634465 0.046975851 0.018916279
-0.005235469 0.047119226 0.018736422
-0.004209335 0.047355019 0.01743269
-0.0031874259 0.047811389 0.013093531
-0.0021351629 0.048041169 0.011035234
-0.0010726812 0.048270654 0.0099586844
0 0.049039733 0.0089089274
0.0010877082 0.048946872 0.0087808669
0.0021452212 0.04826748 0.0089152157
0.0032486841 0.048730262 0.0088847578
0.004330758 0.048721027 0.0088266432
0.0053075696 0.047768131 0.0089608729
0.0064179422 0.048134569 0.0093618333
0.0074940845 0.048176263 0.010740131
0.0085119307 0.04787961 0.011727065
0.0096533829 0.048266917 0.012742341
0.010630855 0.047838856 0.013049722
0.011593243 0.047426909 0.013376862
0.012753116 0.047824189 0.013633579
0.013600665 0.047079228 0.01340726
0.014658368 0.047116186 0.013509244
0.015911076 0.047733232 0.012944937
0.016879134 0.047472566 0.0129053
0.018131915 0.047996249 0.012444794
0.019389285 0.048473217 0.012166798
0.02025714 0.047977436 0.011577874
0.021389734 0.048126906 0.011677831
0.022746112 0.048741672 0.01150021
0.023364229 0.047790471 0.011501133
0.024357464 0.04765591 0.011654824
0.025581203 0.047964759 0.011434257
0.026776124 0.048197024 0.010661244
0.028037749 0.048526876 0.010439038
0.02874247 0.047904119 0.010436743
0.029653028 0.047656655 0.010198832
0.030997632 0.048099775 0.0095588267
0.032122344 0.048183519 0.0092405677
0.033265539 0.048288688 0.008263886
0.034927316 0.049116537 0.0074110329
0.035342004 0.048193645 0.0059535503
-0.043931779 0.049289312 0.0062409639
-0.043037239 0.049492829 0.007930696
-0.04162107 0.049091518 0.009613663
-0.04040299 0.048908882 0.010624349
-0.039467067 0.049067166 0.011092007
-0.038326424 0.048972655 0.011460066
-0.037320592 0.049049925 0.01193288
-0.036333781 0.04915747 0.012051582
-0.035206631 0.049075909 0.012096882
-0.033980381 0.0488468 0.012010753
-0.033241276 0.049325764 0.011796981
-0.031790797 0.048745889 0.011706918
-0.031041542 0.049238309 0.011537433
-0.029851176 0.049041219 0.011532158
-0.028652843 0.048815954 0.010903031
-0.027710853 0.049026895 0.010657638
-0.02672329 0.049170852 0.010108322
-0.025543572 0.048958514 0.0097695887
-0.024534261 0.049068522 0.0092327297
-0.023774197 0.049709689 0.0090043247
-0.022492023 0.049268238 0.0092018545
-0.021436986 0.04930507 0.0093087256
-0.020471053 0.049561497 0.0096281171
-0.019463371 0.04973973 0.0099249184
-0.018187538 0.049213339 0.0103347
-0.016853096 0.048452653 0.011174709
-0.015986521 0.049025334 0.012765914
-0.014772917 0.048539586 0.014952958
-0.013631484 0.048234481 0.015858978
-0.012595502 0.048282761 0.017410994
-0.011703893 0.048943553 0.018639714
-0.010455284 0.048094314 0.019133151
-0.009398316 0.048035841 0.019105196
-0.0083593419 0.048066217 0.019130528
-0.0073270579 0.048149239 0.019066304
-0.0063151116 0.048415858 0.019018531
-0.0051876623 0.047726497 0.018475741
-0.0041890121 0.048173644 0.017271072
-0.003197798 0.049032904 0.013239145
-0.0021344423 0.049092174 0.011088103
-0.0010749243 0.049446516 0.0097155571
0 0.050029051 0.0087016821
0.0010722589 0.049323913 0.0082306266
0.0021747856 0.050020069 0.0081973076
0.003266308 0.050083391 0.0081475079
0.004332935 0.049828753 0.0079036355
0.0053754346 0.049454 0.0082306266
0.0064415811 0.049385458 0.0092719197
0.0074474653 0.048940487 0.010043532
0.0085531482 0.049180605 0.010742337
0.0096664811 0.049406461 0.011839002
0.010661181 0.049041435 0.012577802
0.011660597 0.0487625 0.0129053
0.012654357 0.048508368 0.012842447
0.013641716 0.048270687 0.012749791
0.014761051 0.048500597 0.012922913
0.015774045 0.04837374 0.012856781
0.016985774 0.048834104 0.012513161
0.018276021 0.049452763 0.012063265
0.01908212 0.048765421 0.011801809
0.020308949 0.049169037 0.011454552
0.021545891 0.049555551 0.010741055
0.022331957 0.048917618 0.010404378
0.023670403 0.049492665 0.010511637
0.024799939 0.049599878 0.010580838
0.025719173 0.049295083 0.010416627
0.026866883 0.049435064 0.0099689364
0.027775293 0.049140904 0.0099533796
0.028705064 0.048904926 0.0097612441
0.030277571 0.049741726 0.0093227327
0.031029277 0.049218852 0.0084975958
0.03204995 0.049143255 0.0081734955
0.033319913 0.049442455 0.0078558028
0.034274098 0.049269017 0.006410718
-0.042636935 0.050098401 0.0061573386
-0.041585743 0.050116152 0.0082955062
-0.040359434 0.049918246 0.0093717277
-0.039210405 0.049807809 0.010526419
-0.038385011 0.050113767 0.010911226
-0.037265629 0.050042417 0.011259198
-0.036259834 0.050123885 0.01152429
-0.035087056 0.049972475 0.01156956
-0.034378309 0.05049314 0.011702389
-0.032816265 0.049753688 0.011071444
-0.03196653 0.050080895 0.010562986
-0.031165818 0.050510116 0.010294765
-0.029460363 0.049451325 0.01014632
-0.028745815 0.050039012 0.0097504258
-0.02798734 0.050592501 0.0097194016
-0.026575129 0.049961243 0.0095259547
-0.025807582 0.050539847 0.0089927316
-0.024787288 0.050652284 0.0084760785
-0.023284497 0.049744155 0.0084463358
-0.022669744 0.050737046 0.0085804164
-0.021507066 0.050541606 0.0088135004
-0.020398535 0.05045953 0.0091457367
-0.019547099 0.051039647 0.0093894601
-0.018266676 0.050501987 0.0097265542
-0.017017702 0.049989499 0.011108696
-0.016001008 0.050136492 0.012491107
-0.014681412 0.049287599 0.014569998
-0.013565416 0.049044199 0.015766472
-0.012726275 0.049844582 0.017357439
-0.011524742 0.049242079 0.01853925
-0.010431705 0.049029015 0.018951923
-0.0095204031 0.049717665 0.01910013
-0.0083220704 0.048892166 0.019080192
-0.00732962 0.049213164 0.019043893
-0.0062831463 0.04921798 0.018973321
-0.0052352245 0.049211111 0.018387735
-0.00419532 0.049295012 0.017294049
-0.0031583668 0.049481079 0.015674561
-0.0021238988 0.049911622 0.011678815
-0.0010762512 0.050583802 0.009254694
0 0.050256636 0.0081874132
0.0010901797 0.051238444 0.0078313053
0.002200081 0.051701907 0.0073266029
0.0032493842 0.050907023 0.0072332621
0.0043331455 0.050914463 0.0060289204
0.0053557274 0.050343841 0.0061461329
0.0064317416 0.050381977 0.0088872313
0.0074512647 0.050029919 0.0095759332
0.0085792746 0.050403241 0.010275304
0.0096446387 0.05036645 0.011421204
0.010817347 0.050841533 0.011464179
0.011759805 0.050246444 0.012197495
0.01279964 0.050131924 0.012234271
0.013769212 0.049780998 0.012147665
0.014774617 0.049600501 0.012006491
0.015863936 0.049707003 0.011659533
0.017176485 0.05045592 0.011577874
0.018211132 0.050348427 0.011659235
0.019253075 0.050271921 0.011309713
0.020319229 0.050263356 0.010741055
0.02137279 0.050226059 0.0099923015
0.02234081 0.050000861 0.0099930465
0.023663638 0.050554138 0.010222316
0.024619026 0.050308444 0.0099774301
0.025665399 0.050261404 0.0096822083
0.026579661 0.049969763 0.0088584125
0.027731223 0.050129518 0.0085184872
0.028824123 0.050175324 0.0083498061
0.030108234 0.050538823 0.0082204938
0.031260405 0.050663415 0.007658571
0.032167632 0.050395958 0.0073457956
0.033520058 0.050820734 0.0064982176
-0.041634783 0.05124281 0.0066337287
-0.040565312 0.051240392 0.0081530809
-0.039390862 0.051101655 0.0092840791
-0.038315248 0.051086999 0.0094747841
-0.037294913 0.051147308 0.0108338
-0.036171354 0.051065441 0.010902017
-0.035373542 0.051452428 0.010902911
-0.034130767 0.05119615 0.010926962
-0.033246458 0.051478382 0.010080844
-0.032612886 0.052180618 0.0096488297
-0.031062178 0.051413257 0.0096828043
-0.029891461 0.051242504 0.0095529854
-0.029154962 0.051831041 0.009172678
-0.027845662 0.051407374 0.0090664625
-0.026836272 0.051525641 0.0087285936
-0.025736235 0.05147247 0.0081821978
-0.024688305 0.051523417 0.0072329342
-0.023781743 0.051887441 0.0072810054
-0.02264916 0.051769506 0.0078344643
-0.021671303 0.052011129 0.0082325041
-0.020686723 0.052261192 0.0087345243
-0.019457562 0.05188683 0.0091148615
-0.018210955 0.051419165 0.0093615651
-0.017075645 0.051226933 0.010981351
-0.015929177 0.050973363 0.012590826
-0.01481011 0.050777517 0.01429075
-0.013763614 0.050819498 0.015610248
-0.012474928 0.049899712 0.017296016
-0.011588607 0.050568469 0.018206567
-0.0105267 0.050528161 0.018962741
-0.0094288271 0.050287079 0.018973321
-0.008406315 0.050437886 0.018951923
-0.007310526 0.05012932 0.018917561
-0.0062765856 0.050212685 0.018874258
-0.0051985811 0.049906377 0.017973065
-0.0041829534 0.050195441 0.017271072
-0.0031492696 0.050388314 0.016098678
-0.0021464038 0.051513687 0.01183477
-0.0010761783 0.051656559 0.009254694
0 0.052235007 0.0078319311
0.001100879 0.052842196 0.0070932806
0.0021738892 0.052173339 0.0061619282
0.0032467989 0.051948782 0.0059369802
0.0043715904 0.052459087 0.0057341456
0.0054050111 0.051888105 0.0057952404
0.0064865192 0.051892154 0.0074557364
0.0075736595 0.051933665 0.008698076
0.0085854819 0.05151289 0.0095151365
0.0099463249 0.053047068 0.010368615
0.010840207 0.052032996 0.011093795
0.011830924 0.051625852 0.011368752
0.012846002 0.051384009 0.011603922
0.013747095 0.050758503 0.011602759
0.014721168 0.050472576 0.011660397
0.015949141 0.051037252 0.011610538
0.016934332 0.050802991 0.011603922
0.018094758 0.051091079 0.011431217
0.019318214 0.051515236 0.011327416
0.02024895 0.051155243 0.010504901
0.021532228 0.051677346 0.01016283
0.022847224 0.052222226 0.0096047223
0.023715246 0.05174236 0.0096294582
0.024845397 0.051851261 0.0092865229
0.025816008 0.051632017 0.0088008642
0.026626294 0.051122483 0.0081302226
0.027933629 0.051569775 0.0078988969
0.028768426 0.051143866 0.0077622831
0.030048732 0.051512111 0.0075759888
0.030997386 0.051306013 0.0070997477
0.032511458 0.05201833 0.0060473979
-0.04039989 0.052094594 0.006480515
-0.03950407 0.052316196 0.00808689
-0.038444959 0.052327864 0.0085277855
-0.03724587 0.052144218 0.0088532269
-0.036503062 0.05260735 0.0093562901
-0.035337169 0.052470341 0.0092757344
-0.034352317 0.052601982 0.0092249811
-0.03375664 0.053357266 0.0089388788
-0.032192174 0.052580547 0.0090061724
-0.031219261 0.052749783 0.0087587535
-0.030376224 0.053158391 0.0087156594
-0.028802264 0.05227077 0.0079131424
-0.027950445 0.05267584 0.0076815784
-0.027269257 0.053447742 0.0073388517
-0.025583576 0.052233133 0.0072351396
-0.024711531 0.052646302 0.0065271556
-0.023725469 0.05284309 0.0068787336
-0.022521835 0.052550942 0.0074060261
-0.02182322 0.05346689 0.0078859031
-0.020972319 0.054086503 0.0082579255
-0.019402785 0.052818693 0.0088391006
-0.018379254 0.052975494 0.0094474852
-0.016828651 0.051537737 0.010104328
-0.01592624 0.052025717 0.011937082
-0.014947956 0.052317847 0.013515741
-0.013627393 0.051364787 0.015376389
-0.012583729 0.051383559 0.016988844
-0.011612433 0.051728111 0.017861098
-0.010466078 0.051283784 0.018608183
-0.0094586862 0.051497295 0.01889503
-0.0083868606 0.051369518 0.019016713
-0.0073087667 0.051161364 0.018873483
-0.0062765265 0.051258299 0.018576711
-0.0052330368 0.051283762 0.017945647
-0.0041773468 0.051172495 0.017156214
-0.003154865 0.051529463 0.016385764
-0.0021263955 0.052096684 0.012673616
-0.0010780961 0.05282671 0.0093313754
0 0.053713597 0.0077345073
0.0010978872 0.05379647 0.0059143007
0.0022012012 0.053929426 0.0052630901
0.0032498233 0.053080447 0.0050804913
0.0043451088 0.053227577 0.0050290823
0.0054212497 0.053128246 0.005191952
0.006548488 0.053479318 0.0057822764
0.0074735465 0.052314825 0.0074795485
0.0085785603 0.052543681 0.0085685849
0.0096754264 0.052677322 0.0095737278
0.010777676 0.052810617 0.010097891
0.011816079 0.05263526 0.01047647
0.012823294 0.052361783 0.010542333
0.013864883 0.052259944 0.010804951
0.014852267 0.051982932 0.01105091
0.01602059 0.052333925 0.011247247
0.017141188 0.052494887 0.01080516
0.018192161 0.052436225 0.010835111
0.019193826 0.05224986 0.010474294
0.020201566 0.052098773 0.0099719763
