ply
format ascii 1.0
comment PCL generated
element vertex 1274
property float x
property float y
property float z
element camera 0
property float view_px
property float view_py
property float view_pz
property float x_axisx
property float x_axisy
property float x_axisz
property float y_axisx
property float y_axisy
property float y_axisz
property float z_axisx
property float z_axisy
property float z_axisz
property float focal
property float scalex
property float scaley
property float centerx
property float centery
property int viewportx
property int viewporty
property float k1
property float k2
end_header
-0.024029935 -0.10813472 0.00933671
-0.022799047 -0.10748122 0.0092246532
-0.021496065 -0.10640553 0.0084222257
-0.020598853 -0.10733087 0.0075767636
-0.019403998 -0.106722 0.0072902143
-0.01823137 -0.10617092 0.0069797337
-0.017326206 -0.10720591 0.0069330335
-0.016265206 -0.10735036 0.0070613325
-0.015679061 -0.11087336 0.0082640946
-0.01473179 -0.11218825 0.0093672574
-0.012956337 -0.10688978 0.010385633
-0.011922355 -0.10730121 0.011289269
-0.010819647 -0.10711452 0.013498962
-0.0095651383 -0.10521653 0.01481384
-0.0085628964 -0.10596585 0.015215963
-0.0073959264 -0.10459954 0.015569121
-0.0063889674 -0.10541797 0.015952647
-0.0054178247 -0.10727294 0.015952647
-0.0042287852 -0.10466244 0.015862763
-0.0032332689 -0.10669788 0.015784144
-0.0021635941 -0.10709792 0.015309364
-0.0010734609 -0.10627263 0.014237434
0 -0.10669485 0.013564527
0.0010706198 -0.10599136 0.012477368
0.002128199 -0.10534586 0.011488587
0.0032236804 -0.10638146 0.010607153
0.0042735306 -0.10576988 0.010771483
0.0053598233 -0.10612451 0.010987937
0.0064251879 -0.1060156 0.010985285
0.0075864899 -0.10729464 0.01137498
0.0086310701 -0.1068095 0.011655897
0.0096934903 -0.1066284 0.012099802
0.010890062 -0.10781162 0.013187826
0.011860523 -0.10674472 0.013326645
0.012925098 -0.10663206 0.013326645
0.014031924 -0.1068585 0.013296664
0.014896433 -0.10533907 0.013789117
0.0161472 -0.10657153 0.013960391
0.016848315 -0.10424894 0.013765842
0.018322859 -0.10670371 0.013771653
0.019170893 -0.10543992 0.014123857
0.020214647 -0.10532895 0.014528364
0.021441674 -0.10613629 0.014890194
0.022543322 -0.10627566 0.014945358
0.023552716 -0.10598723 0.014833629
0.024405282 -0.10504882 0.014890194
0.025756424 -0.10624526 0.014728308
0.026261529 -0.10399565 0.014850676
0.027965257 -0.10648309 0.01478222
0.029074606 -0.10660689 0.014745563
0.029951466 -0.10589983 0.014581412
0.031168373 -0.10640237 0.014130533
0.032191526 -0.10623204 0.013957381
0.033836823 -0.10805953 0.013674915
0.034882236 -0.10791693 0.013260454
0.035219751 -0.10565926 0.013273269
0.036460415 -0.10616415 0.013487518
0.038070157 -0.10768417 0.013135135
0.038580853 -0.10609736 0.012316793
0.040051986 -0.10716612 0.01201719
0.040838778 -0.10639577 0.011824399
0.041646671 -0.10571848 0.011609644
0.043428134 -0.10748465 0.011751294
0.043718502 -0.10556418 0.011456043
0.045162257 -0.1064539 0.011305243
0.046575435 -0.10723182 0.010221899
0.047413446 -0.10668026 0.0096745491
0.047874767 -0.10532448 0.008731693
0.049640056 -0.10683404 0.0076484978
0.050221778 -0.1057863 0.0068590939
-0.061691504 -0.10606609 0.0055835843
-0.060678314 -0.10618705 0.0062474012
-0.059617154 -0.10622693 0.0071201324
-0.058611944 -0.10636982 0.0074883699
-0.056787878 -0.105004 0.008220911
-0.05659806 -0.10666557 0.0086808205
-0.055475276 -0.10659955 0.0084782839
-0.05405955 -0.10595671 0.0091758668
-0.052371155 -0.10474231 0.0092441738
-0.051760145 -0.10567696 0.0095223188
-0.050242264 -0.10476046 0.010004729
-0.048848156 -0.10406781 0.010492474
-0.04831288 -0.10521471 0.011006951
-0.047163412 -0.10504578 0.010856479
-0.047085963 -0.10731219 0.010871619
-0.045737565 -0.10672098 0.010909438
-0.044014256 -0.1052048 0.01079762
-0.043160737 -0.10574381 0.010655969
-0.042107534 -0.10580867 0.010349572
-0.040857807 -0.10537013 0.0098986924
-0.039882988 -0.10563602 0.010162711
-0.038928051 -0.10597081 0.010102034
-0.038205702 -0.10697597 0.010119587
-0.037575141 -0.10830481 0.0098087788
-0.035877116 -0.10654417 0.009872824
-0.03497228 -0.1071026 0.0096648932
-0.0337575 -0.10671725 0.010079563
-0.031809639 -0.10391148 0.010313332
-0.031577006 -0.10670849 0.010416865
-0.03002999 -0.10510496 0.010786355
-0.028703677 -0.10418371 0.010579735
-0.027349818 -0.10308778 0.010522008
-0.027423553 -0.10750032 0.010350585
-0.025923155 -0.10585288 0.0098724961
-0.024904938 -0.10611669 0.0095424354
-0.023398515 -0.10422974 0.0096713603
-0.02277126 -0.10626587 0.009341538
-0.021689527 -0.10627868 0.0090143681
-0.020909786 -0.10785048 0.0084466338
-0.019390747 -0.10557184 0.008148998
-0.018782133 -0.10827347 0.0079375505
-0.017406318 -0.1066137 0.0077706873
-0.016219595 -0.10596801 0.0083498359
-0.015391493 -0.10774045 0.0090556145
-0.014172422 -0.10683826 0.0098556876
-0.013136477 -0.10728123 0.010659009
-0.011926667 -0.10625576 0.012018621
-0.010695671 -0.10481758 0.014128238
-0.0096186502 -0.10473641 0.015205771
-0.0085707083 -0.10499118 0.01565522
-0.0074822917 -0.10475209 0.016058177
-0.0063596326 -0.103874 0.016228527
-0.0052912789 -0.10370906 0.016256303
-0.0042674835 -0.10455334 0.016247034
-0.0032104505 -0.10487472 0.016005546
-0.0021423455 -0.10497493 0.015590817
-0.0010762754 -0.10547499 0.014529645
0 -0.1066651 0.014111578
0.0010579752 -0.10368157 0.012853265
0.0021742077 -0.10653617 0.011811346
0.00328667 -0.10736454 0.010700315
0.0042781434 -0.10481451 0.010771483
0.0054967711 -0.10773671 0.011194855
0.0064758179 -0.10577169 0.011153013
0.0075983545 -0.10637696 0.01113835
0.0086990818 -0.10656375 0.011655897
0.0098270094 -0.10700522 0.012566149
0.01091888 -0.10700502 0.013016433
0.011829633 -0.10539128 0.013482124
0.012926202 -0.10556398 0.01381138
0.014024673 -0.10572445 0.014043063
0.01499291 -0.10495036 0.014321506
0.0158707 -0.10368858 0.014466971
0.017098587 -0.10472884 0.014123857
0.018356616 -0.10582048 0.014100283
0.019262945 -0.10487603 0.014543325
0.020530978 -0.10589662 0.014845908
0.021500234 -0.10535114 0.014895588
0.021991225 -0.10262571 0.014945358
0.02342974 -0.10436884 0.014842987
0.024741733 -0.10542129 0.014904052
0.025677674 -0.1048505 0.014895588
0.026748162 -0.10485279 0.014837652
0.027749378 -0.10459381 0.015029132
0.028572835 -0.1037088 0.015034735
0.029672628 -0.1038542 0.014746308
0.031104146 -0.10511056 0.014197856
0.032481238 -0.10610537 0.014067829
0.033880159 -0.10710501 0.01369229
0.034452673 -0.10551131 0.01341185
0.035769965 -0.10622596 0.013224453
0.036828615 -0.10615306 0.013362288
0.037577819 -0.1052179 0.012591362
0.039202046 -0.10671668 0.012014925
0.040374052 -0.10693667 0.011636078
0.040575441 -0.10464192 0.011427641
0.042190313 -0.10601668 0.011496663
0.043066423 -0.10551274 0.011552393
0.043818541 -0.10473699 0.011290848
0.045440614 -0.10602809 0.010565937
0.046594586 -0.10619231 0.010284483
0.047508027 -0.10581333 0.0092549324
0.048418853 -0.10544549 0.0084088743
0.04955481 -0.10557328 0.0071183145
0.051019393 -0.10638086 0.0053206682
-0.061580662 -0.10666651 0.0056132972
-0.060975354 -0.10753835 0.0064631999
-0.059054382 -0.10607916 0.0069591403
-0.057527114 -0.10528547 0.007363826
-0.056461968 -0.10532328 0.0079961419
-0.055410735 -0.10538904 0.0083139837
-0.053960782 -0.10468391 0.0090247989
-0.052729566 -0.10438301 0.0092113614
-0.050927825 -0.10291665 0.0093501806
-0.050907243 -0.10506389 0.0095273256
-0.049184743 -0.10371565 0.0098540187
-0.048202503 -0.10390317 0.010619074
-0.047724314 -0.10521042 0.010742337
-0.046831451 -0.10564303 0.010742337
-0.044681601 -0.10319322 0.010628909
-0.044643737 -0.10562054 0.010513932
-0.043381155 -0.1051993 0.009886533
-0.041797932 -0.10395896 0.0096850395
-0.041136734 -0.10500693 0.0094046295
-0.0400608 -0.10502426 0.0096417367
-0.039179798 -0.10556779 0.0095771551
-0.038477577 -0.10663786 0.009655863
-0.037317511 -0.10646466 0.0095516443
-0.036402486 -0.10700125 0.0096417367
-0.034583919 -0.10483251 0.0098254383
-0.032772977 -0.1025477 0.010077536
-0.032856207 -0.10623507 0.010317594
-0.03128995 -0.10465948 0.01059413
-0.030168034 -0.10451069 0.01059413
-0.029194294 -0.10488319 0.01075387
-0.028404942 -0.10597228 0.010595679
-0.026568303 -0.10308501 0.01060921
-0.026097039 -0.10547553 0.010178387
-0.024924668 -0.10511708 0.0096502006
-0.023657981 -0.10431019 0.0097401738
-0.022971988 -0.1061087 0.0093526542
-0.021673568 -0.10511681 0.0090143681
-0.020349318 -0.10388862 0.0085273385
-0.019630991 -0.10578924 0.0082709491
-0.018364139 -0.10478361 0.0082045197
-0.017236311 -0.10449513 0.0081263185
-0.016564686 -0.10711829 0.0084867477
-0.015385414 -0.10659894 0.0091831684
-0.014109731 -0.1052803 0.010212958
-0.012988364 -0.10498928 0.011403322
-0.011726966 -0.10341052 0.013489693
-0.010709522 -0.10388236 0.014518827
-0.0096721686 -0.10424449 0.015492946
-0.0084083248 -0.10195094 0.016340375
-0.0074899141 -0.10378881 0.016387314
-0.0063451594 -0.10258008 0.01636821
-0.0053049885 -0.10291678 0.016358882
-0.0043417565 -0.10528759 0.016202569
-0.0031954094 -0.10331824 0.015932113
-0.0021685846 -0.10517635 0.01539129
-0.0010681245 -0.10360808 0.014458477
0 -0.10410846 0.013703138
0.0010765984 -0.10443004 0.012900829
0.0021599331 -0.10475675 0.012218952
0.0032796722 -0.10604274 0.011133105
0.0043860795 -0.10636242 0.01094532
0.0055174129 -0.10703781 0.011387229
0.0065243365 -0.10547677 0.01118502
0.0077715274 -0.10769116 0.0110026
0.0088225799 -0.10697377 0.012150735
0.009549533 -0.10292275 0.012794465
0.010639026 -0.10319855 0.013188928
0.011668973 -0.10289912 0.013694435
0.012756646 -0.10311622 0.013949156
0.013662377 -0.10194235 0.014208108
0.014838185 -0.10280742 0.014404386
0.015960654 -0.10321223 0.01428315
0.017162412 -0.10404712 0.013955683
0.018340988 -0.10465152 0.014032125
0.01930704 -0.1040435 0.014108479
0.020498903 -0.10465229 0.014100283
0.021379994 -0.10369297 0.014317036
0.022677444 -0.10474819 0.014631242
0.023331225 -0.10286949 0.014621496
0.024232013 -0.10219588 0.014763325
0.025655486 -0.10369092 0.014560312
0.026389377 -0.10239077 0.014617383
0.027708389 -0.1033736 0.014704764
0.02927891 -0.10518719 0.015168637
0.029911447 -0.1036218 0.01503399
0.031152809 -0.10420077 0.014412135
0.032182451 -0.1040566 0.014147907
0.03319063 -0.10385455 0.013717502
0.034623619 -0.10495285 0.01332581
0.035589643 -0.10461199 0.013415724
0.035837661 -0.10224274 0.01324597
0.037787341 -0.10472492 0.012509674
0.039054412 -0.10522994 0.011916101
0.039940696 -0.10470938 0.011368722
0.040621012 -0.10369048 0.010707945
0.04205792 -0.10460559 0.010329008
0.043031991 -0.10435258 0.010709822
0.045202207 -0.1069418 0.010269165
0.04572152 -0.10559493 0.0099581182
0.046071161 -0.10392796 0.0092549324
0.04735617 -0.10439882 0.008494705
0.048655793 -0.10488026 0.0069777369
0.049550463 -0.10448684 0.0059900582
-0.05996871 -0.10467266 0.0052820146
-0.058903359 -0.10471708 0.006074369
-0.057200953 -0.10360928 0.0065481663
-0.056077652 -0.10352797 0.0072107911
-0.055510867 -0.10449105 0.0078236461
-0.055106468 -0.10580441 0.0084752142
-0.0530852 -0.10400366 0.0090255141
-0.05202784 -0.10405568 0.009105742
-0.050650716 -0.10345678 0.0091697574
-0.049014572 -0.10229128 0.0093918145
-0.049038619 -0.10461571 0.0099771321
-0.048360813 -0.1055145 0.010167688
-0.045615353 -0.10183893 0.010232478
-0.044949599 -0.10274193 0.010194391
-0.044751182 -0.10478325 0.0099771321
-0.042931188 -0.10303485 0.0097509027
-0.042054057 -0.10351768 0.0095879436
-0.040749419 -0.1029459 0.0094079077
-0.040024463 -0.10384725 0.009862572
-0.039495405 -0.10532108 0.0099266171
-0.038232621 -0.10486661 0.0099625885
-0.037597813 -0.10615852 0.0099301934
-0.036089592 -0.1049879 0.010182291
-0.034034137 -0.10210241 0.010325611
-0.033222277 -0.10288189 0.01060921
-0.032316018 -0.10341126 0.010798603
-0.031062422 -0.10282733 0.010943264
-0.030133808 -0.10331591 0.010903358
-0.029487222 -0.10484345 0.010868669
-0.027545653 -0.10170703 0.010755718
-0.026806809 -0.10293815 0.010532081
-0.025876045 -0.10350418 0.010125399
-0.024861222 -0.10376858 0.0096446574
-0.023692273 -0.10338446 0.0096137822
-0.022825882 -0.10434689 0.0091632903
-0.021437161 -0.10289837 0.0086879134
-0.02068387 -0.10450797 0.008677721
-0.019576056 -0.10440563 0.0085748732
-0.018251725 -0.10306855 0.0084976554
-0.017692609 -0.10615565 0.008071661
-0.01622038 -0.10381042 0.008613497
-0.015568393 -0.1067547 0.0093367994
-0.013995271 -0.10334969 0.01064831
-0.012862769 -0.10290215 0.012522489
-0.011643673 -0.10161752 0.01406005
-0.010586999 -0.1016352 0.015084028
-0.0095229652 -0.1015783 0.016237795
-0.0084847268 -0.10181672 0.016618341
-0.0074053765 -0.10155945 0.016744614
-0.0063334806 -0.10133569 0.016655773
-0.0052816295 -0.10140729 0.016609073
-0.0042828079 -0.10278738 0.016451538
-0.0032095041 -0.10270413 0.016100317
-0.0021534564 -0.10336591 0.015839547
-0.001085513 -0.10420925 0.014453501
0 -0.10266132 0.013816088
0.0010641087 -0.10215443 0.012727171
0.0021093439 -0.10124851 0.012148619
0.0032781623 -0.10490119 0.011133105
0.0043413853 -0.10419325 0.010841131
0.0054259948 -0.1041791 0.011153013
0.0064377049 -0.10300328 0.01118502
0.0074410648 -0.10204889 0.011940211
0.0085473275 -0.10256793 0.01245904
0.0096184621 -0.10259694 0.012990683
0.010787939 -0.10356422 0.013694435
0.011759725 -0.10263033 0.014043063
0.012810851 -0.10248681 0.014280856
0.013907445 -0.10270113 0.014420986
0.0146915 -0.10074171 0.014572799
0.016026624 -0.10257038 0.014490545
0.016957944 -0.10174767 0.014396638
0.018447103 -0.10417186 0.01434049
0.019694408 -0.10503685 0.014404386
0.020323757 -0.10268845 0.014512569
0.021704845 -0.10418326 0.014466971
0.022778628 -0.10413087 0.014517963
0.023057926 -0.1006164 0.014430046
0.024561673 -0.10251829 0.014291614
0.025437085 -0.10174834 0.014215261
0.026121769 -0.10030759 0.014512569
0.027951824 -0.10320673 0.014682233
0.028771568 -0.10229891 0.014926314
0.029906889 -0.10253791 0.014664501
0.031146469 -0.10310555 0.0141415
0.032127969 -0.1028095 0.014007509
0.033416558 -0.10348353 0.013706326
0.034942117 -0.10482635 0.013418555
0.035502531 -0.10328009 0.013349444
0.03729846 -0.10531329 0.012763381
0.037674326 -0.1033353 0.012355328
0.03869376 -0.10318336 0.01157406
0.039670493 -0.10292885 0.010787427
0.041599721 -0.10509403 0.010144264
0.041989602 -0.10335902 0.0096531808
0.042976037 -0.10314249 0.0097207129
0.044076286 -0.10320301 0.0094564855
0.04560858 -0.10424818 0.0091625452
0.046520609 -0.10385997 0.0086622238
0.047375076 -0.1033638 0.0071970224
0.048720337 -0.10393672 0.0065490603
-0.057157889 -0.10245282 0.0058400631
-0.056188401 -0.10265189 0.006326288
-0.05611524 -0.10452839 0.0069956183
-0.054518782 -0.10358568 0.0074312389
-0.053013738 -0.10278174 0.0078318119
-0.052679081 -0.10426068 0.0083320439
-0.050759293 -0.10259857 0.0084030032
-0.049888074 -0.10302972 0.0087282658
-0.049015567 -0.1034773 0.0093116462
-0.046552807 -0.10051174 0.0095707774
-0.046074692 -0.10179292 0.0096847415
-0.045138326 -0.10209859 0.0095981359
-0.044149343 -0.10229725 0.0092252493
-0.043203205 -0.10260762 0.0091612041
-0.042282604 -0.10299608 0.0091084242
-0.041546699 -0.10386674 0.0090586543
-0.040471014 -0.10391206 0.0096670389
-0.03955584 -0.10438348 0.010166079
-0.038227163 -0.10375945 0.010111213
-0.037206814 -0.10396021 0.010179341
-0.035666864 -0.10267734 0.010558784
-0.033812877 -0.10038197 0.010632187
-0.03365539 -0.10313749 0.010778695
-0.031890415 -0.10098631 0.010927647
-0.031169124 -0.10210574 0.011280417
-0.030117607 -0.10218474 0.011240512
-0.028781358 -0.10126773 0.011196643
-0.02791521 -0.10199788 0.010805756
-0.027137222 -0.10312144 0.010745525
-0.025440034 -0.10070013 0.010126948
-0.024992384 -0.1032294 0.009305805
-0.023795543 -0.10275348 0.0094770491
-0.022522714 -0.10188846 0.0091077089
-0.021589085 -0.10254816 0.0087645352
-0.020756328 -0.10378165 0.0086961985
-0.019578557 -0.10333128 0.0085758269
-0.018308368 -0.10231147 0.0087645352
-0.017338367 -0.10294656 0.0082972944
-0.016537223 -0.10473575 0.0088695586
-0.01561785 -0.10597827 0.0096924603
-0.013972335 -0.10210553 0.010656029
-0.013001675 -0.10292992 0.012745649
-0.011759187 -0.10155662 0.013891429
-0.010683124 -0.10148969 0.015115529
-0.0094391974 -0.099635974 0.016249359
-0.0085023297 -0.10096516 0.016879171
-0.0074622906 -0.10127395 0.016879171
-0.0063399044 -0.10038182 0.016679972
-0.0052306298 -0.099381968 0.016609073
-0.0042555653 -0.10106967 0.016064137
-0.0032285801 -0.10223837 0.015682966
-0.0021206206 -0.10072948 0.015224427
-0.0010839312 -0.10297345 0.013911128
0 -0.10325556 0.012603343
0.0010727186 -0.10190827 0.011634171
0.0021490965 -0.10208208 0.010884494
0.0033177438 -0.10506189 0.01006943
0.0042925826 -0.10194883 0.0099762678
0.005300629 -0.10071195 0.010405481
0.0064790673 -0.10258523 0.010306805
0.00742243 -0.10073297 0.01106292
0.0086693587 -0.10294863 0.011272252
0.00969382 -0.10232366 0.012325138
0.010729977 -0.10193478 0.01279673
0.011653507 -0.10064393 0.013836354
0.012847257 -0.10170745 0.013933212
0.013745707 -0.10044939 0.014376521
0.015074982 -0.10229452 0.014671743
0.015723525 -0.099582314 0.014490545
0.017165743 -0.1019216 0.014404386
0.018272093 -0.10210875 0.014409423
0.019060075 -0.10059485 0.014396638
0.020356607 -0.10178304 0.01434648
0.021490721 -0.10208093 0.014434397
0.022475433 -0.10167457 0.014264256
0.023633935 -0.10205563 0.014258862
0.024847973 -0.10263293 0.014198989
0.025553742 -0.10115024 0.014067709
0.026921084 -0.10230011 0.014332563
0.027969087 -0.10219474 0.014423341
0.028981149 -0.10197071 0.014735907
0.030172296 -0.10237029 0.014664501
0.031064436 -0.1017628 0.0141415
0.031883314 -0.10096382 0.014085203
0.033585705 -0.10292393 0.013766885
0.03409867 -0.10123043 0.013541013
0.035670768 -0.10268857 0.013349444
0.037355568 -0.10437585 0.01277715
0.037095472 -0.10068771 0.012308627
0.039109051 -0.10320444 0.011405379
0.039780173 -0.10213827 0.010250807
0.040244713 -0.10061178 0.0095267296
0.042324062 -0.10309707 0.0090166628
0.043944832 -0.10436898 0.0087903142
0.04461889 -0.10338523 0.0081392229
0.046454549 -0.10507577 0.0078647733
0.046577048 -0.10290278 0.0063810349
0.048538361 -0.10479873 0.0053263307
-0.057251312 -0.10349276 0.0057470202
-0.055359054 -0.10203433 0.0062638521
-0.054363232 -0.10220288 0.0070503652
-0.05390653 -0.10341253 0.0071880817
-0.052088398 -0.10200645 0.0074915588
-0.05173805 -0.1034761 0.0078100562
-0.050216846 -0.10261703 0.0082329512
-0.048729345 -0.10179019 0.0084171295
-0.047378417 -0.10121753 0.0086279213
-0.046656135 -0.10199248 0.0089733303
-0.044573046 -0.099758722 0.0090772808
-0.044675093 -0.10242582 0.0086627007
-0.042941213 -0.10091185 0.0086641014
-0.042029489 -0.10130185 0.0086339116
-0.041509107 -0.10268041 0.0088973939
-0.040539414 -0.10299202 0.0097257793
-0.039660826 -0.10355883 0.010102034
-0.038786612 -0.10416976 0.010107726
-0.036569789 -0.10110471 0.010261178
-0.035608593 -0.10143054 0.010547608
-0.034606218 -0.10165577 0.010616362
-0.033167686 -0.10057297 0.010755718
-0.032172792 -0.10080808 0.010722399
-0.031210519 -0.10116512 0.011135757
-0.030225579 -0.10147159 0.010868669
-0.02894772 -0.10078095 0.010645032
-0.028174123 -0.10186029 0.010556132
-0.026851662 -0.10096224 0.0099967122
-0.026128335 -0.10233598 0.0095279813
-0.024957253 -0.10199921 0.0091112256
-0.023474989 -0.10030223 0.0091065466
-0.023094244 -0.10337424 0.0088148117
-0.021566749 -0.10136373 0.008602798
-0.020446837 -0.10115803 0.008677721
-0.019476345 -0.10170981 0.0086118579
-0.01835086 -0.10146946 0.0088036954
-0.017346157 -0.10190867 0.0083094835
-0.016429013 -0.10295514 0.0092152953
-0.015377418 -0.10324838 0.0099184215
-0.013921528 -0.10066336 0.011442393
-0.012940592 -0.10136797 0.012954265
-0.011500763 -0.098279245 0.014750183
-0.01062679 -0.099891834 0.015278876
-0.0095528988 -0.099774726 0.016287565
-0.0084353946 -0.099115886 0.017064422
-0.0074772667 -0.10040901 0.016879171
-0.0063213725 -0.099034838 0.016730398
-0.0053009233 -0.099657364 0.016553193
-0.0042638821 -0.10020123 0.016199708
-0.0031630758 -0.099109709 0.015749961
-0.0021290488 -0.1000653 0.014832377
-0.0010658992 -0.10019452 0.013104469
0 -0.10028409 0.01227212
0.0010768804 -0.10122675 0.011101604
0.0021846078 -0.10267656 0.010319978
0.0032745483 -0.10260252 0.0097999275
0.0043289359 -0.10172999 0.0093050897
0.0053700707 -0.10095733 0.0099873841
0.0064933752 -0.10172955 0.0099881887
0.0075524631 -0.10141879 0.010183662
0.0085797273 -0.1008118 0.010818839
0.0095801372 -0.10005922 0.011218816
0.010803033 -0.10154852 0.012327403
0.011669815 -0.099723876 0.01327613
0.012739808 -0.099795163 0.01361841
0.013820491 -0.099932782 0.014244527
0.014855839 -0.099746354 0.014523685
0.01573053 -0.098577991 0.014355361
0.017326228 -0.10179159 0.014434397
0.018116949 -0.10017607 0.014346153
0.019562807 -0.10216133 0.014434397
0.02075102 -0.10266294 0.014280856
0.021314181 -0.10017665 0.01418069
0.022250198 -0.099596128 0.013656586
0.023875324 -0.10201275 0.013661981
0.024422912 -0.099815376 0.014051348
0.026006028 -0.10185694 0.013685256
0.026562823 -0.09987621 0.014035195
0.027846053 -0.1006742 0.014094651
0.028936526 -0.10074198 0.014211714
0.029779525 -0.099974118 0.01410681
0.030585485 -0.099139154 0.013976783
0.03230777 -0.10123101 0.013834447
0.033272274 -0.10089011 0.013713241
0.034494489 -0.10132756 0.013855249
0.035881951 -0.1022092 0.013282001
0.036718626 -0.1015162 0.0130018
0.037056044 -0.09952195 0.012172163
0.03948414 -0.10309748 0.010958791
0.039375708 -0.10003558 0.010326922
0.040918395 -0.10121919 0.0093133152
0.042559557 -0.10257944 0.0085938573
0.043884117 -0.10312767 0.0080353916
0.044573382 -0.10219263 0.0073193312
0.045803197 -0.10251191 0.006848067
0.047524322 -0.10389037 0.0060965419
0.048962545 -0.10460181 0.0050272942
-0.054864574 -0.10204811 0.0062638521
-0.054060247 -0.10260415 0.0065211952
-0.053201351 -0.10307762 0.0068567693
-0.051674839 -0.10225021 0.0069361031
-0.049546573 -0.10017024 0.0073376596
-0.048445199 -0.10012008 0.0078517795
-0.048306007 -0.10210133 0.008105427
-0.045749556 -0.09894672 0.0083690584
-0.045158315 -0.099993415 0.0083502233
-0.044525154 -0.10099608 0.0084156096
-0.043376204 -0.10084968 0.0079553127
-0.042225521 -0.10069163 0.00851053
-0.041053247 -0.10047242 0.0086489022
-0.04044351 -0.10165531 0.0094525814
-0.039165068 -0.10117643 0.0096926987
-0.038213525 -0.1015388 0.0097898245
-0.036909897 -0.10095942 0.010114372
-0.035471912 -0.099966303 0.010503262
-0.034115586 -0.099148422 0.010683745
-0.03304093 -0.099122778 0.010798603
-0.032373559 -0.10035804 0.011037022
-0.031116055 -0.099785969 0.011183292
-0.030207416 -0.10033178 0.010868669
-0.029133309 -0.10034806 0.010817707
-0.027795158 -0.099421144 0.010385573
-0.027173273 -0.10108458 0.0098084211
-0.026017545 -0.10081799 0.0095279813
-0.025031053 -0.10121252 0.0089301169
-0.023798494 -0.10060273 0.009042412
-0.022560198 -0.09990944 0.0087915063
-0.021328337 -0.099176772 0.0085037649
-0.020632867 -0.10099245 0.0086503923
-0.01951916 -0.100849 0.0086961985
-0.018388249 -0.10059454 0.0088467598
-0.017204778 -0.10000277 0.008379519
-0.016469266 -0.10210945 0.0094282329
-0.015238844 -0.10122947 0.010165483
-0.01416229 -0.10131484 0.011655807
-0.012756837 -0.098865487 0.014128238
-0.011817341 -0.099910252 0.014423996
-0.010795955 -0.10040238 0.015513331
-0.0094619999 -0.097774006 0.016332805
-0.0085422015 -0.099303097 0.016974568
-0.00737458 -0.097976565 0.016974568
-0.0062496937 -0.096870258 0.016827852
-0.0052928743 -0.098447472 0.016344249
-0.0042320373 -0.098394871 0.015899479
-0.0031698174 -0.098264337 0.015536815
-0.0021500653 -0.099978037 0.014643312
-0.0010554431 -0.098156206 0.013104469
0 -0.098554187 0.01218915
0.0010910779 -0.10147025 0.010371387
0.0021608744 -0.10048066 0.010122091
0.0032697704 -0.10136289 0.0087550282
0.0043807463 -0.10185236 0.0086194575
0.0054440149 -0.10125868 0.0087411106
0.0064716754 -0.10031097 0.0092983246
0.0075566485 -0.10039547 0.0095947385
0.0087260427 -0.10144025 0.010702074
0.0096324719 -0.099535555 0.011318475
0.010591115 -0.098497376 0.012762249
0.011646889 -0.09846916 0.013500035
0.012931373 -0.10021815 0.013933212
0.013708529 -0.098068707 0.014686793
0.014955475 -0.099347085 0.014841646
0.016152328 -0.10014443 0.014462054
0.016976887 -0.098678164 0.014615595
0.01819557 -0.099540472 0.014523685
0.01953518 -0.10093176 0.014350146
0.020327386 -0.099497207 0.014043063
0.021258339 -0.098851278 0.013752162
0.022961278 -0.10168566 0.013351917
0.023275293 -0.098391011 0.012936324
0.024887847 -0.10063347 0.01380083
0.025779909 -0.099897154 0.013746768
0.026476713 -0.098493367 0.013826668
0.027927691 -0.099895209 0.013666838
0.028731681 -0.098964676 0.013976783
0.029425973 -0.097736269 0.013848484
0.030932222 -0.099196434 0.013792813
0.032002166 -0.099206708 0.01377067
0.03288671 -0.098660126 0.013985515
0.034774974 -0.10106476 0.013627112
0.035507079 -0.1000654 0.013531059
0.037183587 -0.10170805 0.012556612
0.038439285 -0.10213868 0.011706442
0.0388541 -0.1003731 0.010687262
0.039710324 -0.099812433 0.0093811452
0.041482478 -0.10152291 0.0085302293
0.041812766 -0.099707365 0.0073121488
0.044135198 -0.10261434 0.0067328215
0.044944335 -0.10194691 0.0062399805
0.046686921 -0.10337818 0.0054685771
-0.054581612 -0.10043017 0.0051502883
-0.053991199 -0.10137124 0.0055978298
-0.0531905 -0.10194845 0.006351918
-0.05107018 -0.099967167 0.0066021085
-0.050488893 -0.10097779 0.0068511963
-0.048949946 -0.10007545 0.0073671043
-0.047385905 -0.099079624 0.0075747371
-0.046643529 -0.099795461 0.0077600777
-0.045269743 -0.099162295 0.007760942
-0.044195402 -0.099170171 0.0073872805
-0.043572489 -0.10021673 0.0074788928
-0.04226926 -0.099712104 0.0077573955
-0.041077837 -0.099451609 0.0085451007
-0.040745828 -0.10131396 0.0088973939
-0.039150178 -0.10005046 0.0092772245
-0.037906922 -0.099641055 0.0094439089
-0.036895789 -0.099835664 0.010111332
-0.035246924 -0.09826415 0.01045388
-0.034350324 -0.098757185 0.010669172
-0.033332661 -0.098922737 0.010722399
-0.032099649 -0.098438926 0.011137873
-0.0313273 -0.099383153 0.011126727
-0.030549284 -0.10037622 0.0109303
-0.028990734 -0.09878324 0.010645032
-0.028131079 -0.099540748 0.010159194
-0.027118437 -0.099795848 0.0097520351
-0.026114356 -0.10010503 0.0093122721
-0.024766369 -0.099065475 0.008908391
-0.023896374 -0.099930294 0.0087822378
-0.022596227 -0.098992996 0.0082114041
-0.021659341 -0.099632971 0.0078782737
-0.020465966 -0.099098362 0.0081967413
-0.019530922 -0.099824719 0.0084789693
-0.018481093 -0.10001533 0.0084736347
-0.017279763 -0.099358633 0.0087149739
-0.016471168 -0.10102317 0.0094243288
-0.015473355 -0.10168205 0.010286242
-0.013808702 -0.097723126 0.011891454
-0.012773813 -0.097932562 0.01406005
-0.011546769 -0.09657298 0.014651328
-0.010617123 -0.097677536 0.015508354
-0.0095441863 -0.097562797 0.016422749
-0.0085511664 -0.098338418 0.016977221
-0.0074788607 -0.098293602 0.016977221
-0.0063108779 -0.0967668 0.016901493
-0.0053201416 -0.097890608 0.016787499
-0.0042319833 -0.097335614 0.016100675
-0.0031562264 -0.096790947 0.015662134
-0.0021494627 -0.098875292 0.014668256
-0.0010745033 -0.098854303 0.012950778
0 -0.10068059 0.01194644
0.0010716509 -0.098591886 0.010702074
0.0021884446 -0.10066845 0.0095221996
0.0033148846 -0.10165647 0.0086194575
0.004338704 -0.099790193 0.0083386302
0.005518306 -0.10153684 0.0083215237
0.0065786145 -0.10087209 0.0083215237
0.007522115 -0.098862089 0.0087732375
0.008592994 -0.098819427 0.0098173022
0.0097650122 -0.099820137 0.011146128
0.010667618 -0.098142095 0.012327552
0.011882632 -0.099382021 0.013192862
0.01285507 -0.098555543 0.013444692
0.013767779 -0.097433515 0.013933212
0.014976977 -0.098420136 0.014302015
0.015981246 -0.098018311 0.014091283
0.01723511 -0.099101879 0.014342487
0.018475037 -0.09998256 0.014284521
0.019125922 -0.097754709 0.014280856
0.020317091 -0.098377489 0.013599992
0.021602362 -0.099370867 0.01336655
0.022232315 -0.097398713 0.012799978
0.023790631 -0.099488102 0.012576073
0.024575323 -0.098301291 0.012838691
0.026074491 -0.099952221 0.012829572
0.02654754 -0.097694948 0.01300624
0.027767181 -0.098253109 0.013088405
0.028768195 -0.098024957 0.013767809
0.029883618 -0.098189026 0.013759494
0.031165713 -0.098870538 0.013759702
0.03207298 -0.098357141 0.013536692
0.033294089 -0.098808259 0.013557076
0.034393929 -0.098882541 0.013453335
0.035125732 -0.097926289 0.01302135
0.037250169 -0.10079458 0.01189816
0.037654102 -0.0989765 0.011212826
0.039414432 -0.10072578 0.0097050667
0.040699843 -0.10119961 0.0084219873
0.040882219 -0.098978005 0.0074489415
0.042643014 -0.10059378 0.0063160062
0.042633288 -0.098056562 0.0055615008
-0.050806075 -0.098369211 0.0057614744
-0.050032198 -0.098976746 0.0064392686
-0.049018789 -0.099126883 0.0070078373
-0.047492009 -0.098222114 0.0069514811
-0.046831343 -0.099108197 0.0073325038
-0.045378562 -0.098320223 0.0069514811
-0.04431621 -0.098360375 0.0073325038
-0.043385286 -0.098701537 0.007150501
-0.042070422 -0.09816432 0.007383734
-0.041851383 -0.10022305 0.00851053
-0.04058376 -0.09981411 0.0089917481
-0.039192621 -0.099070244 0.0099623501
-0.037705522 -0.09803436 0.0098844171
-0.036446303 -0.097547464 0.010543525
-0.035328545 -0.097421147 0.010676593
-0.034274042 -0.097466812 0.010840237
-0.03304375 -0.096999399 0.01121524
-0.03204051 -0.097189553 0.011372179
-0.031191168 -0.097875737 0.011518449
-0.030236952 -0.098270096 0.01114291
-0.029107343 -0.098102525 0.010927647
-0.028192593 -0.098674081 0.010496259
-0.026722154 -0.097268641 0.010034531
-0.02607437 -0.098865323 0.0096131265
-0.024873996 -0.09841451 0.0091673434
-0.023787852 -0.098395213 0.0092087984
-0.022831682 -0.098937295 0.0084937811
-0.021370595 -0.097236216 0.0082245767
-0.020685833 -0.099074252 0.0079526901
-0.019675165 -0.099468894 0.0084767938
-0.018398212 -0.098484553 0.0087646246
-0.017422222 -0.099088885 0.0088527799
-0.016685991 -0.10122834 0.0094976723
-0.014855331 -0.096559659 0.0105322
-0.013901953 -0.097313672 0.012003571
-0.012993989 -0.098537751 0.014639854
-0.011766176 -0.097338364 0.015000373
-0.010671036 -0.097106434 0.015800923
-0.0095226225 -0.0962843 0.016956627
-0.0084549952 -0.096175574 0.01727587
-0.0074130143 -0.096369192 0.01700148
-0.0063275052 -0.095967166 0.017217457
-0.0052668508 -0.095856689 0.016901493
-0.0042549735 -0.096800648 0.016242564
-0.0032012844 -0.097105637 0.015975744
-0.0021324379 -0.097025923 0.015126467
-0.0010822222 -0.098482221 0.013414502
0 -0.097432874 0.012302816
0.0010797845 -0.098260388 0.010614157
0.0022148434 -0.10077538 0.0096749067
0.0032569342 -0.098793671 0.008724004
0.0043788743 -0.099619396 0.0082084537
0.005463934 -0.099443607 0.0082084537
0.0065789791 -0.099781185 0.0081913471
0.0075411838 -0.098035395 0.0083387494
0.0087260641 -0.099258989 0.0097462833
0.0095220879 -0.096278898 0.010622591
0.010800612 -0.098285578 0.011272252
0.011803441 -0.097646654 0.012327552
0.012842082 -0.097385794 0.012750626
0.013893455 -0.097254194 0.013393998
0.014996755 -0.097478911 0.01403296
0.015975663 -0.09691903 0.01365459
0.017182676 -0.097726472 0.014076114
0.017991226 -0.096305981 0.013991922
0.019111704 -0.096620291 0.01365459
0.020600069 -0.098663494 0.013174444
0.021163931 -0.096295893 0.012707651
0.02246882 -0.097364888 0.012484252
0.023989003 -0.099227242 0.012403071
0.024457565 -0.096766882 0.012570679
0.025795165 -0.09780667 0.012561172
0.027060427 -0.098499954 0.012745917
0.027950378 -0.097826332 0.012782156
0.029249907 -0.09858302 0.013117582
0.029921379 -0.097244486 0.013210416
0.03081966 -0.096709967 0.013404936
0.032211289 -0.097707585 0.013033509
0.03306948 -0.097074926 0.013100386
0.034293015 -0.097520761 0.012858838
0.035838995 -0.098828755 0.012295455
0.036339533 -0.09726169 0.011338592
0.037850659 -0.098411724 0.01046744
0.039361063 -0.099496037 0.0084677637
0.039841015 -0.097987361 0.0075848401
0.041430689 -0.099215597 0.0060112774
0.042716768 -0.099672467 0.0050593019
-0.048943739 -0.097887479 0.0061441064
-0.048467208 -0.099137478 0.0066257417
-0.046790127 -0.09793283 0.006675899
-0.045564294 -0.097637773 0.006675899
-0.044652902 -0.098018564 0.0069491267
-0.043517362 -0.09791407 0.0069860518
-0.042794988 -0.098757669 0.0073285103
-0.041583348 -0.098486878 0.00851053
-0.04082026 -0.099292524 0.008921802
-0.039153818 -0.097884551 0.0094374716
-0.037752636 -0.097078212 0.0099318624
-0.035998147 -0.095289215 0.010543525
-0.035136104 -0.095825747 0.010755718
-0.034470778 -0.096949071 0.011037022
-0.033473343 -0.097180672 0.01121524
-0.032210734 -0.096632212 0.01121524
-0.031090854 -0.096488856 0.011241406
-0.030131837 -0.09685234 0.011016905
-0.029522015 -0.098406717 0.010914862
-0.028085761 -0.097219944 0.010608166
-0.027110564 -0.097598031 0.010200292
-0.025764817 -0.096618071 0.0096769631
-0.024634616 -0.096396327 0.0092401505
-0.023805847 -0.097387567 0.0090997815
-0.022843938 -0.097902596 0.008677125
-0.021664899 -0.097492054 0.0079526901
-0.020673232 -0.097925842 0.0080682933
-0.019355182 -0.096775912 0.0081196427
-0.018482868 -0.097850487 0.0081516802
-0.017489603 -0.098379016 0.0082990527
-0.016464893 -0.098789357 0.0093322098
-0.014997326 -0.096411385 0.010307372
-0.013892422 -0.096178316 0.011637419
-0.012711986 -0.095339902 0.014090508
-0.011777082 -0.096357949 0.014496297
-0.010808206 -0.097273864 0.015597403
-0.0095116878 -0.095116884 0.016619861
-0.0085989581 -0.096738279 0.016879827
-0.0073099989 -0.093985707 0.016918123
-0.0063187755 -0.094781637 0.016924858
-0.0053199488 -0.095759086 0.01671958
-0.0042437008 -0.095483266 0.016300708
-0.0031669585 -0.095008761 0.015788198
-0.0021504802 -0.096771605 0.015281409
-0.0010817338 -0.097356051 0.013397396
0 -0.097077928 0.012113005
0.0010816744 -0.097350694 0.010223955
0.0021847449 -0.098313525 0.0092198551
0.0032959853 -0.098879568 0.0079511404
0.0043600542 -0.098101221 0.0076292157
0.0053990628 -0.097183138 0.0077446401
0.0065400489 -0.098100744 0.0071725249
0.0076826392 -0.098776795 0.0080747306
0.0086146593 -0.096914925 0.0087694824
0.0097777154 -0.097777158 0.0096145272
0.010768956 -0.096920609 0.010527939
0.011723443 -0.09591908 0.011765063
0.012821159 -0.096158706 0.011976093
0.014006821 -0.096970305 0.012603581
0.014769262 -0.094945259 0.013473809
0.015882593 -0.095295563 0.013350695
0.016875198 -0.09492299 0.013855428
0.018343428 -0.097112276 0.013971835
0.019006439 -0.0950322 0.013551235
0.020293867 -0.096128844 0.012750417
0.021433169 -0.096449271 0.012562692
0.022463413 -0.096271776 0.012354761
0.023696071 -0.096938476 0.012157679
0.024730243 -0.096770518 0.012200624
0.025944402 -0.097291522 0.012324393
0.026786953 -0.096433036 0.01247409
0.027929857 -0.096680284 0.012355983
0.028914586 -0.096381955 0.012521923
0.029772889 -0.095698573 0.012724489
0.031034065 -0.09631262 0.012610257
0.032048766 -0.0961463 0.012149155
0.033320714 -0.096737564 0.01225394
0.03478013 -0.09781912 0.011692673
0.035310257 -0.096300706 0.010881633
0.036754031 -0.097290084 0.010327131
0.038001582 -0.097718358 0.008933872
0.038509537 -0.096273854 0.0076362789
0.040502395 -0.09851934 0.0065533519
0.041797183 -0.098993339 0.0057468414
-0.047082052 -0.0974489 0.0051804483
-0.046003617 -0.097483851 0.0058889091
-0.044314656 -0.096195221 0.0066414177
-0.043466873 -0.096713796 0.0069011748
-0.0427991 -0.097669743 0.0073678493
-0.041938629 -0.098224685 0.0084625185
-0.040894475 -0.09836778 0.0089651048
-0.039025102 -0.09647873 0.0099637508
-0.037888844 -0.096345916 0.010459095
-0.03677953 -0.096275821 0.010829806
-0.035419013 -0.095524006 0.010954916
-0.034483336 -0.095906772 0.011252999
-0.033384364 -0.095845424 0.011175632
-0.032185063 -0.095482357 0.011137873
-0.03130018 -0.096059158 0.011037022
-0.030257557 -0.096175805 0.010957927
-0.028707033 -0.094626881 0.01075387
-0.028324606 -0.096957304 0.010563821
-0.02724229 -0.096982546 0.01011759
-0.026085099 -0.096732236 0.0097620189
-0.02506868 -0.09700489 0.0090616345
-0.02370343 -0.095891148 0.0089887977
-0.022720017 -0.096289583 0.0085940659
-0.021723974 -0.096671686 0.0081497431
-0.020691004 -0.096921012 0.0081032515
-0.019553851 -0.096682936 0.00820297
-0.018478546 -0.096740626 0.0084604919
-0.017414216 -0.09686657 0.0088534653
-0.016619081 -0.098606549 0.0094495714
-0.015255148 -0.096979149 0.010306209
-0.013770665 -0.094276093 0.011765838
-0.012833698 -0.095183253 0.013693899
-0.011831131 -0.095724605 0.014642477
-0.010504549 -0.093490496 0.015610069
-0.0096174367 -0.095105767 0.016499132
-0.0084759519 -0.094294958 0.016892552
-0.0074030412 -0.094124377 0.01689741
-0.0064039137 -0.094991386 0.016898781
-0.0053263544 -0.094809107 0.016567141
-0.0042531039 -0.094631553 0.016042829
-0.003152576 -0.093526423 0.015721262
-0.0021336512 -0.094947472 0.015158534
-0.0010766559 -0.095822372 0.013459206
0 -0.096426539 0.011588842
0.0010878457 -0.096818253 0.00943923
0.0022154306 -0.098586664 0.0081436932
0.0032609592 -0.096741788 0.0070504844
0.0043507121 -0.096803337 0.0062057376
0.0054480638 -0.096975535 0.0062057376
0.0066563711 -0.098736167 0.00619331
0.0075330138 -0.095776886 0.0063670278
0.0087435031 -0.097271472 0.0076267719
0.0095847687 -0.09478271 0.0083128214
0.010705668 -0.095280439 0.009688437
0.011899852 -0.09628062 0.01071766
0.013134979 -0.097417757 0.011284977
0.014100121 -0.0965316 0.011589259
0.014976161 -0.09520559 0.012487739
0.015924055 -0.09448272 0.012873948
0.01714872 -0.095389754 0.013416886
0.01864839 -0.097629808 0.013708234
0.019365475 -0.095751509 0.013249457
0.02053172 -0.096174896 0.012652844
0.021691872 -0.096528828 0.012071699
0.022355517 -0.094744809 0.011895657
0.023734814 -0.096018106 0.011715442
0.025048178 -0.096925557 0.011955112
0.026092229 -0.096758679 0.012120247
0.026954154 -0.095956787 0.012120247
0.028052788 -0.096026853 0.011777669
0.029353268 -0.096757062 0.011829853
0.030121217 -0.095742434 0.012245715
0.031570498 -0.096888758 0.012146026
0.032092463 -0.095207632 0.012245715
0.033062387 -0.094921045 0.011615276
0.033972543 -0.094486125 0.011974007
0.035450339 -0.095608488 0.011171311
0.036719028 -0.096117452 0.010054976
0.037772607 -0.096050344 0.0088905394
0.038937587 -0.096262373 0.0079680085
0.040688302 -0.097871855 0.0066798627
0.041389115 -0.096937664 0.0055333674
-0.043928176 -0.096641988 0.0063732862
-0.042779855 -0.096528903 0.0067699254
-0.041696925 -0.096561298 0.0080809295
-0.040397972 -0.096081659 0.0085853934
-0.039673403 -0.096979432 0.0092062056
-0.037676089 -0.094728447 0.0097813606
-0.036465861 -0.094382219 0.010397255
-0.035269111 -0.094050959 0.010532081
-0.034864284 -0.095876783 0.010688901
-0.033247247 -0.094379276 0.010688901
-0.032494161 -0.095316201 0.010601848
-0.031414799 -0.09532766 0.010674298
-0.030250151 -0.095071904 0.010652333
-0.028803933 -0.093879484 0.010380417
-0.028478557 -0.096388966 0.010074884
-0.027116921 -0.095451556 0.0097856522
-0.026114505 -0.095753178 0.0090346634
-0.024883568 -0.095206693 0.0085734725
-0.02381009 -0.095240362 0.0086201131
-0.022698248 -0.095116459 0.0081717074
-0.021855555 -0.096164443 0.0077781081
-0.020504098 -0.094966345 0.0080178082
-0.01953523 -0.095505573 0.0077833533
-0.018642025 -0.09649989 0.0078586042
-0.0175662 -0.0966141 0.0084599853
-0.016380565 -0.096099317 0.0092782676
-0.014922392 -0.093797885 0.010271817
-0.014054161 -0.095135853 0.011994958
-0.012834032 -0.094116233 0.013852477
-0.011621272 -0.092970178 0.014775187
-0.01067083 -0.093903296 0.015597403
-0.009591965 -0.093788102 0.016514093
-0.0084513649 -0.092965014 0.017025262
-0.0074861371 -0.094111435 0.016989529
-0.0063097561 -0.092543088 0.017067641
-0.0052999859 -0.093279749 0.016778737
-0.0042967927 -0.094529435 0.016188592
-0.0031361952 -0.09199506 0.015954882
-0.0021237 -0.093442798 0.014967829
-0.0010750799 -0.094607025 0.013459206
0 -0.094334789 0.011446357
0.0011034262 -0.09710151 0.0087550282
0.0022305341 -0.098143496 0.0071802437
0.0032998382 -0.096795253 0.0062035918
0.0044085057 -0.096987121 0.0058255494
0.0055765812 -0.098147832 0.0059529543
0.0065255472 -0.095708027 0.0058344305
0.0075890864 -0.095405661 0.0060332119
0.0087443022 -0.096187323 0.0074311793
0.009631617 -0.094175808 0.0077691376
0.010833952 -0.095338777 0.0084689558
0.011934936 -0.095479488 0.0096562207
0.013006896 -0.095383897 0.011002213
0.014132312 -0.095664881 0.011139691
0.014947389 -0.093955018 0.011361241
0.016082413 -0.094350152 0.011827528
0.016860696 -0.092733823 0.012637705
0.017955214 -0.092944629 0.012789518
0.019555578 -0.095605053 0.012336075
0.020367337 -0.094332926 0.012057662
0.021148926 -0.093055271 0.011740088
0.022710739 -0.095168799 0.011706293
0.023722438 -0.094889753 0.011431456
0.024842544 -0.095049731 0.011728734
0.02595613 -0.095172472 0.011490285
0.026996553 -0.095027864 0.011514395
0.028197326 -0.095437102 0.011149138
0.029047802 -0.094674312 0.010966569
0.030037215 -0.094402678 0.010966569
0.031404462 -0.095296293 0.011491477
0.032519106 -0.095389374 0.010792971
0.03370377 -0.095675215 0.010605305
0.034683798 -0.095380448 0.010491371
0.036281839 -0.096751571 0.0099009275
0.036324613 -0.094016649 0.0089175105
0.037850536 -0.095167056 0.0077173412
0.039242011 -0.095924914 0.0062098205
0.039693549 -0.094406269 0.0055453479
-0.04359543 -0.097251341 0.0062498748
-0.041759089 -0.095606335 0.0072865188
-0.040164202 -0.094440147 0.0082170367
-0.038531575 -0.093117975 0.0088479519
-0.037223954 -0.092528112 0.0095627904
-0.03630105 -0.092887975 0.010102868
-0.035628419 -0.093929477 0.010187447
-0.034137245 -0.092810638 0.010598838
-0.033430263 -0.093820408 0.010586709
-0.032539558 -0.094364718 0.010588408
-0.031163961 -0.093491875 0.010392964
-0.030290836 -0.094117954 0.01026395
-0.029241085 -0.094221264 0.010165602
-0.028100673 -0.094029173 0.0099826157
-0.026925843 -0.093701929 0.0093944967
-0.025869707 -0.093777686 0.0089321733
-0.024806216 -0.093832202 0.0086528659
-0.024031915 -0.0950353 0.0082164705
-0.022801286 -0.094462462 0.0078696907
-0.021793144 -0.094800182 0.0077706277
-0.020779399 -0.095147766 0.0078252256
-0.019452194 -0.094018936 0.0079831183
-0.018324854 -0.093780138 0.0077563822
-0.017641086 -0.095923401 0.0081822872
-0.016317653 -0.094642386 0.0091029704
-0.014929338 -0.092775173 0.010352433
-0.014022007 -0.093839586 0.011955649
-0.012881462 -0.093390599 0.013614982
-0.011838955 -0.093635373 0.014647692
-0.010611471 -0.092319794 0.015635699
-0.0095996512 -0.092796631 0.016316265
-0.0085358387 -0.092827246 0.016783506
-0.0074666906 -0.092800297 0.016916215
-0.006381324 -0.0925292 0.017025262
-0.0053554783 -0.09318532 0.016630858
-0.0042280164 -0.09195935 0.016042829
-0.0031864501 -0.092407055 0.015888125
-0.002138989 -0.093046017 0.01526624
-0.0010649161 -0.092647709 0.013856411
0 -0.09363807 0.011612892
0.0011007847 -0.095768273 0.0083386302
0.002180458 -0.094849922 0.0071207285
0.003324976 -0.096424304 0.0056581795
0.0044193864 -0.096121654 0.005492419
0.0055225953 -0.096093155 0.0054320097
0.0066029471 -0.095742732 0.0050771534
0.0076989694 -0.095687188 0.0054320097
0.0087626856 -0.095294207 0.0066844225
0.0098280348 -0.095004342 0.0074473619
0.010860451 -0.094485924 0.0079908967
0.011968679 -0.09466137 0.0089402497
0.013173054 -0.095504642 0.0098963976
0.014012716 -0.093777411 0.010264844
0.015026879 -0.093381315 0.011058599
0.016159568 -0.093725495 0.011240035
0.017081913 -0.092882901 0.011891752
0.01834712 -0.093894079 0.012224257
0.019534696 -0.094417699 0.011885881
0.02022415 -0.092605315 0.011891752
0.02151701 -0.093598999 0.011769921
0.022693822 -0.09401726 0.011334985
0.02342719 -0.092643887 0.011187226
0.024944408 -0.094354928 0.011187226
0.025893975 -0.093865663 0.011098534
0.027218744 -0.09472122 0.01091367
0.028105311 -0.094044693 0.01062265
0.029136742 -0.093885057 0.010990798
0.029893037 -0.09288194 0.010426193
0.031539701 -0.094619095 0.010746539
0.032482512 -0.094199285 0.010079563
0.033468939 -0.093928955 0.0098602474
0.034808245 -0.094634913 0.0096701086
0.035205089 -0.092813417 0.0089324415
0.03698948 -0.094649546 0.0078186393
0.038325191 -0.095265478 0.0067578256
0.038490977 -0.093019865 0.0053753555
-0.041410558 -0.093718626 0.0068113506
-0.03996291 -0.092886761 0.0077933967
-0.038596224 -0.092202097 0.0086401105
-0.037317879 -0.091695368 0.0095263124
-0.036253016 -0.09169881 0.01001212
-0.035470229 -0.092437573 0.010223091
-0.034236554 -0.092010736 0.010452956
-0.033607751 -0.093234405 0.010187447
-0.032226309 -0.092382081 0.010319889
-0.03128 -0.092761375 0.010163099
-0.03035637 -0.093237422 0.010111183
-0.029227214 -0.093094088 0.010117054
-0.028221861 -0.093349233 0.0098752379
-0.027025983 -0.092969373 0.0096118748
-0.025807327 -0.092476256 0.0091504157
-0.024999691 -0.0934771 0.008498311
-0.024044292 -0.093991324 0.0081354678
-0.022617998 -0.092626087 0.0077991784
-0.021821048 -0.093830504 0.0076273382
-0.020801425 -0.094153814 0.0077253878
-0.01932179 -0.092315219 0.0077411532
-0.018683635 -0.094517209 0.0077781081
-0.017549159 -0.094326727 0.0079981387
-0.016153608 -0.092614017 0.0089648664
-0.015324898 -0.09413866 0.0098434091
-0.013682229 -0.090513207 0.011823922
-0.012719359 -0.09115541 0.012965113
-0.01166218 -0.091177039 0.014806271
-0.01063304 -0.09144415 0.015443027
-0.0095890528 -0.09162873 0.016002119
-0.0085206972 -0.09159749 0.016776532
-0.0074384199 -0.091386303 0.016916215
-0.0063552931 -0.091092534 0.016892552
-0.0053284401 -0.091649175 0.016383588
-0.0042464142 -0.091297902 0.015971035
-0.0031888117 -0.091412604 0.015770912
-0.0021363979 -0.091865115 0.015123427
-0.0010518745 -0.090461209 0.01423201
0 -0.092860803 0.011469871
0.0010811447 -0.09297844 0.008333087
0.002207218 -0.094910368 0.0069699883
0.0033519093 -0.096088074 0.0054244399
0.0043766033 -0.094096974 0.0053240955
0.0088225212 -0.094842106 0.0056959391
0.0098186275 -0.093822442 0.0061886311
0.010810039 -0.092966333 0.0070945323
0.011965025 -0.093544744 0.0079908967
0.013201305 -0.094609357 0.0085573792
0.013981218 -0.092491135 0.0090892315
0.015283193 -0.093882471 0.01018244
0.016280498 -0.093341529 0.010995835
0.017008759 -0.091422081 0.011507809
0.018299878 -0.092575848 0.012019813
0.019463293 -0.0929913 0.01167497
0.020461993 -0.092617445 0.011678636
0.021370908 -0.09189491 0.011728734
0.022334194 -0.091463841 0.011340946
0.023959169 -0.093658574 0.010867923
0.024890173 -0.093067609 0.010920584
0.025987288 -0.093121119 0.010828435
0.026991768 -0.092851676 0.010497093
0.028262079 -0.093482263 0.010421991
0.028915636 -0.092101656 0.010459214
0.030417986 -0.093426675 0.0095811188
0.031240338 -0.09264376 0.0094724
0.032160316 -0.092192903 0.0089783967
0.03384915 -0.093904093 0.0089598596
0.034615014 -0.093027852 0.0086844563
0.035809461 -0.093321629 0.0077881217
0.037069052 -0.093762897 0.007304281
0.037450932 -0.092022292 0.0059958696
-0.04117202 -0.092095308 0.0058066845
-0.039750203 -0.091318026 0.0064414442
-0.038776219 -0.09155497 0.0077335835
-0.037846401 -0.091912687 0.0086327493
-0.036370449 -0.090926118 0.0094828308
-0.03539015 -0.091156445 0.0097962916
-0.034781016 -0.092387073 0.010077596
-0.033259787 -0.091196179 0.010077596
-0.032321211 -0.09157677 0.010171443
-0.031332139 -0.091835581 0.0098046958
-0.029968612 -0.090976141 0.0096756816
-0.029115144 -0.091658786 0.0094613135
-0.028381707 -0.092786349 0.0096086562
-0.026965329 -0.091682114 0.0091272593
-0.026237739 -0.092925332 0.00846681
-0.02493025 -0.092133529 0.0080019534
-0.023924211 -0.092434451 0.0077780783
-0.022805901 -0.092309594 0.0074823499
-0.021953702 -0.093303241 0.0074771643
-0.020659212 -0.092422791 0.0074919462
-0.019651268 -0.092797659 0.0077235401
-0.018480424 -0.092402123 0.0077328384
-0.017650612 -0.09376888 0.0079816282
-0.016294174 -0.09233366 0.0087140501
-0.015062337 -0.091449901 0.010352433
-0.013966659 -0.091320463 0.011823922
-0.01291258 -0.09146411 0.012854338
-0.011661578 -0.090112194 0.014330745
-0.010559766 -0.089758016 0.015321702
-0.0096583515 -0.091217764 0.015800923
-0.0084363185 -0.089635879 0.016574919
-0.0074004773 -0.089862935 0.016463846
-0.0063084457 -0.089369647 0.0167
-0.0052783829 -0.089732513 0.016328394
-0.0042476305 -0.090262145 0.015903026
-0.0031686125 -0.08977735 0.015839309
-0.0021210285 -0.09014371 0.01497072
-0.0010684564 -0.090818793 0.014198691
