ply
format ascii 1.0
comment PCL generated
element vertex 1299
property float x
property float y
property float z
element camera 0
property float view_px
property float view_py
property float view_pz
property float x_axisx
property float x_axisy
property float x_axisz
property float y_axisx
property float y_axisy
property float y_axisz
property float z_axisx
property float z_axisy
property float z_axisz
property float focal
property float scalex
property float scaley
property float centerx
property float centery
property int viewportx
property int viewporty
property float k1
property float k2
end_header
-0.0010434282 0.049041126 0.012799501
0 0.048608646 0.01316756
0.0010485757 0.049283061 0.013262868
0.002130318 0.050062474 0.012953341
0.0032070549 0.050243858 0.012417763
0.0042716204 0.050191544 0.012545407
0.0053814631 0.050585754 0.0118891
0.0064851488 0.050800335 0.011400759
0.0075487499 0.050684467 0.011287957
0.008572978 0.050366245 0.0118891
0.0095525524 0.049885552 0.012690216
0.010716246 0.050366353 0.012712538
0.011629289 0.049688779 0.013175428
0.012820705 0.050214428 0.013229728
0.013818785 0.049960222 0.013553351
0.01486189 0.049893487 0.013987452
0.015754098 0.049362842 0.014307708
0.016904427 0.049656752 0.014608204
0.018050674 0.049904805 0.014767438
0.019209517 0.050158184 0.015016884
0.020321527 0.050269041 0.015284806
0.021117546 0.049626235 0.015570402
0.021902656 0.049020231 0.01556477
0.023215322 0.049596369 0.01592043
0.023986308 0.049015496 0.016260833
0.025292533 0.04953121 0.016155779
0.026244204 0.049339104 0.01647681
0.02726613 0.049288772 0.016690254
0.028181341 0.049056407 0.016751677
0.029401159 0.049351946 0.017152637
0.030340776 0.049172983 0.017157078
0.031343289 0.049104486 0.017486542
0.032591648 0.049413145 0.01781106
0.033354457 0.048989356 0.017997861
0.034411848 0.049010813 0.017953128
0.035293479 0.048788045 0.01778993
0.036192931 0.048601937 0.017247885
0.037759628 0.049297296 0.01672712
0.038636964 0.049079385 0.016411602
0.040132616 0.049637709 0.015896827
0.0417597 0.050325792 0.015811563
0.042497125 0.049934123 0.014850616
0.043580901 0.04995859 0.013038933
0.044627488 0.049940284 0.012026697
0.045729998 0.049983952 0.011516571
0.047938623 0.051207166 0.0097051859
0.048941731 0.051116917 0.0080621541
0.05013448 0.051224358 0.007396996
-0.061150882 0.051495478 0.0063731968
-0.060192596 0.051593654 0.0074017644
-0.059223346 0.051685829 0.0082302988
-0.058463845 0.051967859 0.0094136894
-0.057097543 0.051710986 0.010509491
-0.056000587 0.051692847 0.011395633
-0.05454259 0.051334202 0.012210608
-0.053570624 0.051427796 0.012748361
-0.052034974 0.050973039 0.013300806
-0.050765865 0.050765865 0.014070779
-0.049920429 0.050982565 0.014469475
-0.048199754 0.050295394 0.014902651
-0.047657754 0.050834935 0.015237123
-0.046706647 0.050952706 0.015589178
-0.045494143 0.050784159 0.015836537
-0.044531111 0.050892696 0.015996337
-0.043146003 0.050512388 0.016079605
-0.042077553 0.050493062 0.015706688
-0.041270513 0.050794479 0.015442491
-0.040171362 0.050742771 0.015147775
-0.038942501 0.050519999 0.015235782
-0.037759513 0.050346021 0.01522103
-0.03699515 0.050736208 0.015107691
-0.035882149 0.050657149 0.014868081
-0.035204291 0.051206242 0.014187723
-0.033955023 0.050932534 0.01327461
-0.03332131 0.05159428 0.01187706
-0.032755971 0.052409556 0.010822862
-0.031137478 0.05153789 0.0089202821
-0.03017218 0.051723737 0.0089202821
-0.029368617 0.052210875 0.009070605
-0.028122125 0.051917769 0.010751516
-0.027035676 0.051908497 0.011202484
-0.025556384 0.051112767 0.012910634
-0.024235105 0.050577611 0.013029307
-0.023283022 0.050799321 0.012954235
-0.022132417 0.050588377 0.013205081
-0.021029145 0.050469946 0.013415158
-0.020046726 0.05064436 0.013507336
-0.019158181 0.051088486 0.013691932
-0.018265452 0.051573042 0.013594449
-0.017342784 0.052028347 0.013540864
-0.01611612 0.051571582 0.013683528
-0.01489397 0.051065039 0.013438344
-0.013945325 0.051490434 0.013195515
-0.012473476 0.049893904 0.013288021
-0.011659172 0.05087639 0.013452649
-0.010535778 0.050571736 0.013272285
-0.0095562944 0.050966907 0.013298124
-0.0085496483 0.051297888 0.013398707
-0.0074427286 0.051035851 0.013182372
-0.0064120619 0.051296495 0.013149202
-0.0053341826 0.051208157 0.013236076
-0.0042529353 0.051035225 0.013337046
-0.0031823241 0.050917186 0.013149202
-0.0021399865 0.051359676 0.01317057
-0.001047058 0.050258782 0.01316756
0 0.050378084 0.013247252
0.0010492374 0.050363399 0.0134691
0.0020853789 0.050049093 0.013595849
0.0032039366 0.051262986 0.013302743
0.0043100836 0.051721003 0.01343286
0.005312087 0.050996035 0.012751311
0.0063888165 0.051110532 0.012607872
0.0076723872 0.052610654 0.012017548
0.0085215624 0.051129375 0.012631178
0.0095987841 0.051193517 0.013191909
0.010658639 0.051161468 0.013186634
0.011713761 0.051114593 0.013335288
0.012755957 0.05102383 0.013635993
0.013674725 0.050491292 0.013875395
0.014810957 0.050780423 0.014413536
0.015872912 0.050793316 0.014568031
0.016778499 0.050335497 0.014673233
0.017983703 0.050777514 0.014767438
0.019337809 0.051567495 0.015171975
0.020244356 0.051143635 0.015551209
0.021303665 0.051128794 0.015967339
0.022646621 0.051763702 0.016037643
0.023192586 0.050602008 0.016314954
0.024255957 0.050621126 0.016424984
0.025205383 0.050410766 0.016526252
0.026019024 0.049956523 0.01691547
0.027426258 0.050633091 0.017054439
0.028388413 0.050468288 0.017382383
0.029609051 0.050758373 0.017609566
0.030387979 0.050297342 0.017568707
0.03110957 0.04977531 0.018123567
0.032424983 0.050206419 0.018439442
0.03362092 0.050431378 0.018626541
0.034079269 0.049569845 0.018340975
0.035389878 0.049962182 0.017969042
0.036724944 0.050365638 0.017489761
0.037631433 0.05017525 0.016799092
0.039011654 0.050609708 0.016265512
0.040672962 0.051376369 0.016023934
0.041550178 0.05113868 0.01524356
0.043164372 0.051797248 0.013738871
0.044032529 0.051550277 0.012700766
0.0451052 0.051548798 0.011770159
0.046239652 0.051616356 0.01110661
0.047326293 0.051628686 0.0092083514
0.048082836 0.051288355 0.0076757669
0.050169799 0.052351095 0.0067771673
-0.062308017 0.053563029 0.0051034987
-0.060235385 0.052705958 0.0066372752
-0.059100438 0.052653115 0.0074385107
-0.05797375 0.052605808 0.0081510842
-0.056699138 0.052419957 0.009087801
-0.055859275 0.052636623 0.010163933
-0.054664362 0.052520659 0.011024952
-0.053398699 0.052330721 0.011916995
-0.052057933 0.052057933 0.012452334
-0.051319204 0.052388351 0.013188541
-0.049549721 0.051658217 0.014038026
-0.048586629 0.051755317 0.014474928
-0.048101131 0.052376784 0.014770746
-0.046375182 0.051645085 0.015351832
-0.045617867 0.051983148 0.015767097
-0.044469912 0.051881563 0.01595521
-0.042913534 0.051286902 0.015882313
-0.042301193 0.051818959 0.01559636
-0.041211311 0.051778313 0.015366793
-0.039985448 0.051560182 0.015082568
-0.038884137 0.051495202 0.015031248
-0.037661519 0.051261511 0.014827847
-0.03684279 0.051579904 0.014432043
-0.036168829 0.052125663 0.014453143
-0.034970898 0.051926482 0.013725251
-0.034120634 0.052247219 0.012798905
-0.033367533 0.052742228 0.011537999
-0.031752177 0.051861886 0.010777205
-0.031215759 0.052743863 0.0087878108
-0.030492872 0.053362526 0.0088532269
-0.028950637 0.052540042 0.0090051889
-0.028173434 0.053096082 0.010775477
-0.027180158 0.053273104 0.012482405
-0.025260229 0.051572967 0.013575375
-0.024227891 0.051615939 0.013356477
-0.023210941 0.051697094 0.013836831
-0.022158824 0.051703919 0.014190137
-0.021176418 0.051882226 0.014211476
-0.020046495 0.051698852 0.014044464
-0.019164441 0.052169867 0.014234126
-0.018268231 0.052655488 0.014244229
-0.016939925 0.051878519 0.014400929
-0.016073208 0.052505814 0.014406711
-0.01495219 0.052332666 0.013706416
-0.013677722 0.05155449 0.013487309
-0.012694074 0.051834133 0.013540864
-0.01170627 0.052146111 0.013540864
-0.01048181 0.051360868 0.013483107
-0.0095528979 0.052010223 0.013393849
-0.0085630696 0.052448798 0.01355952
-0.0074354229 0.052047957 0.013182372
-0.0064054267 0.052310985 0.013126224
-0.0053791893 0.052716054 0.013222188
-0.0042690951 0.052296415 0.013231635
-0.0031971696 0.052220434 0.013126224
-0.0021250639 0.052064065 0.013118774
-0.0010506792 0.051483281 0.013222158
0 0.051800761 0.013540119
0.0010354274 0.050735943 0.014005303
0.0020905661 0.051218867 0.013846666
0.0031850049 0.052021746 0.013636917
0.0042659482 0.052257862 0.013671547
0.0053086854 0.052025113 0.013534755
0.0064366534 0.052565999 0.013065636
0.0075154831 0.052608378 0.01266554
0.0087441187 0.053557727 0.012874424
0.0096095335 0.052318573 0.013308346
0.010693576 0.052398521 0.013160408
0.011641051 0.05185559 0.013383061
0.012706415 0.051884528 0.013480335
0.013740634 0.05179162 0.013893217
0.014867509 0.052036282 0.014131218
0.015948012 0.05209684 0.014503002
0.016859613 0.051632565 0.014106005
0.018007124 0.051902886 0.014615059
0.018954394 0.051598072 0.014891207
0.020111969 0.051867705 0.015428096
0.02119818 0.051935542 0.015906602
0.022372061 0.052201472 0.016128927
0.0232947 0.051883653 0.016434222
0.024333512 0.051840957 0.016702712
0.02513553 0.051318374 0.016916335
0.026357111 0.051659934 0.016951114
0.027270488 0.051394381 0.017102242
0.02858215 0.051871303 0.017222822
0.029645896 0.051880315 0.017509788
0.030499745 0.051534049 0.017641574
0.030810619 0.050324012 0.017962366
0.032746468 0.051760539 0.018205255
0.033093523 0.050674457 0.018501908
0.034317981 0.050957002 0.017844886
0.035736173 0.051502131 0.017677963
0.036180135 0.050652187 0.01724121
0.037689731 0.051299911 0.01629886
0.038714658 0.051270757 0.015799612
0.040015217 0.051598568 0.015380532
0.041262999 0.051843256 0.014144778
0.042799875 0.052429847 0.013044089
0.043607239 0.052115962 0.012139678
0.044801116 0.052267969 0.011120081
0.045555755 0.051912371 0.01007852
0.047635291 0.053048391 0.0079500675
0.048477363 0.052786458 0.0072069466
-0.059422377 0.054020341 0.0062763691
-0.058260798 0.053945184 0.0073213875
-0.057009634 0.053782675 0.0084574521
-0.055933032 0.053781766 0.0093780458
-0.054470409 0.053402364 0.01030001
-0.053259585 0.053259585 0.011030942
-0.052062903 0.053125411 0.011677295
-0.051096149 0.05322516 0.012557924
-0.04992744 0.053114299 0.013276726
-0.049055934 0.053321671 0.013983488
-0.047266766 0.052518629 0.014502317
-0.046403565 0.052731328 0.015032351
-0.045472182 0.052874632 0.015436202
-0.044398379 0.052855212 0.015560389
-0.043475628 0.053019058 0.015730321
-0.042100579 0.052625727 0.0156627
-0.040785503 0.052289106 0.015235782
-0.040085535 0.052744128 0.015084445
-0.038872391 0.052530255 0.014807105
-0.037986413 0.05275891 0.014646024
-0.036958233 0.052797478 0.014631182
-0.035946749 0.052862864 0.014092922
-0.034888674 0.052861627 0.01327312
-0.034052406 0.053206883 0.011778086
-0.032744028 0.052812945 0.010536253
-0.031992353 0.053320594 0.009290725
-0.031468812 0.054256573 0.0087474585
-0.030236879 0.053994428 0.008754164
-0.029235253 0.054139357 0.0089648366
-0.028450599 0.05471269 0.010769337
-0.026552923 0.053105846 0.012860596
-0.025311992 0.052733317 0.013626635
-0.024316397 0.052861731 0.014025867
-0.023258386 0.052859969 0.014232516
-0.022048043 0.052495342 0.014591217
-0.020963309 0.052408278 0.014766395
-0.020166714 0.053070303 0.01446104
-0.019270679 0.053529669 0.014684588
-0.018169157 0.053438701 0.014693916
-0.017020863 0.053190198 0.014567703
-0.016021159 0.053403862 0.014572114
-0.014833355 0.052976269 0.014448345
-0.013686137 0.052638993 0.014234871
-0.012775847 0.0532327 0.014400929
-0.011460536 0.052093349 0.014400929
-0.010597776 0.052988883 0.014187187
-0.0094857486 0.052698605 0.013573289
-0.0084907738 0.053067341 0.014241129
-0.0074856682 0.053469058 0.013304055
-0.0064655473 0.053879563 0.01318723
-0.0053137229 0.053137232 0.013329566
-0.0042605349 0.053256687 0.013346493
-0.003151363 0.052522719 0.013437837
-0.0021332502 0.053331256 0.013257682
-0.0010563491 0.052817456 0.01336506
0 0.052357785 0.013955504
0.0010489676 0.052448381 0.014350682
0.0021017881 0.052544702 0.014390558
0.0031081638 0.051802732 0.01407972
0.0042283474 0.052854348 0.014357805
0.0053479052 0.053479057 0.01407063
0.0062902239 0.052418537 0.013885885
0.0074340049 0.053100038 0.013364226
0.0086427322 0.054017078 0.013215423
0.0097753732 0.054307632 0.01364404
0.010813711 0.054068562 0.013380617
0.011660793 0.053003605 0.013550133
0.012688033 0.052866809 0.014037192
0.013791483 0.053044166 0.014312625
0.014841821 0.053006504 0.014688104
0.015870605 0.052902017 0.014446586
0.016868027 0.052712586 0.01419282
0.017843386 0.052480549 0.014615059
0.018683158 0.051897664 0.014730275
0.019728057 0.051915944 0.015499413
0.021182068 0.052955173 0.016087025
0.022487076 0.053540658 0.016367793
0.023590667 0.053615157 0.016592205
0.024187187 0.052580841 0.016766667
0.025310542 0.052730296 0.016988426
0.026204178 0.052408356 0.016996235
0.027368965 0.052632626 0.017179877
0.028392555 0.052578807 0.017377347
0.029204251 0.052150451 0.017532289
0.030395992 0.052406881 0.017813623
0.031369668 0.05228278 0.018002838
0.032527093 0.052463055 0.018120795
0.033320904 0.052063916 0.018267363
0.034520525 0.052303828 0.017671973
0.035450675 0.052133348 0.017348439
0.036466666 0.052095238 0.016683429
0.037973396 0.052740835 0.015791178
0.038731944 0.052340463 0.015379012
0.039971083 0.052593533 0.01433906
0.04139147 0.053065985 0.013352394
0.04242089 0.053026117 0.012648106
0.043529924 0.053085275 0.011715174
0.044236619 0.052662641 0.010274768
0.045304026 0.052679103 0.0087533295
0.047366887 0.053826012 0.0076216459
0.049049962 0.054499958 0.0063937306
-0.05855057 0.055297758 0.0059735477
-0.056871444 0.054725353 0.007291913
-0.056134302 0.055054799 0.0080593824
-0.054646563 0.054646563 0.0088585913
-0.053222284 0.05428673 0.010069937
-0.052138176 0.054266267 0.010945618
-0.051158339 0.054355737 0.011986136
-0.050160628 0.054429621 0.012748361
-0.04853224 0.053807482 0.013371557
-0.047555231 0.053895928 0.013991237
-0.047066614 0.054554485 0.014727771
-0.045282353 0.053706978 0.015191495
-0.044086579 0.053533703 0.015381962
-0.04363003 0.054271497 0.015749812
-0.042065959 0.053634103 0.015599012
-0.041179154 0.053849664 0.015289247
-0.040096078 0.053813159 0.014977545
-0.038621955 0.053235665 0.014884174
-0.037948683 0.05376064 0.014544487
-0.036889892 0.053753842 0.014399111
-0.035970498 0.053955749 0.013602048
-0.035166368 0.054348025 0.012468189
-0.033970505 0.054140493 0.011485219
-0.033431258 0.054999813 0.0098675787
-0.03250001 0.055250019 0.009290725
-0.031224649 0.054912314 0.0089397132
-0.030340731 0.055263475 0.0095489323
-0.029617287 0.055943761 0.0095299482
-0.028096536 0.055112436 0.010818809
-0.026280589 0.0536124 0.013624728
-0.025338935 0.053845238 0.01489374
-0.024117198 0.053477261 0.014525324
-0.02311831 0.053592447 0.014762282
-0.02196891 0.053353067 0.01511842
-0.020912111 0.053325884 0.01527527
-0.020194903 0.05420737 0.01511842
-0.019145062 0.054244343 0.015135854
-0.01817688 0.054530639 0.014879793
-0.017077472 0.054434445 0.014825642
-0.015885629 0.05401114 0.014817506
-0.014858373 0.054126933 0.014524698
-0.013758911 0.053977266 0.014256984
-0.012610819 0.053595982 0.014414072
-0.011438356 0.05303238 0.01444903
-0.010593882 0.054028798 0.014171273
-0.0094822589 0.053732805 0.014031678
-0.0083517088 0.053242143 0.014031678
-0.0074177263 0.054043435 0.013218492
-0.0063118567 0.053650785 0.013034701
-0.0053979564 0.055059154 0.013196707
-0.0042613884 0.054332703 0.013206154
-0.0031554648 0.053642903 0.013498098
-0.0021389988 0.054544471 0.013503104
-0.0010548113 0.053795375 0.013761491
0 0.053761613 0.014036685
0.0010599527 0.054057583 0.014118582
0.0021073048 0.053736269 0.014390558
0.0031723401 0.05392978 0.014140546
0.0042321151 0.053959467 0.01444754
0.0052428218 0.053476784 0.014373481
0.0063372585 0.053866696 0.014135927
0.0074448199 0.054240834 0.013790935
0.0084891059 0.054118052 0.013806909
0.0098120673 0.05560172 0.014009535
0.010775284 0.054953951 0.013708681
0.011785538 0.05464204 0.01369825
0.012855316 0.054635093 0.014287323
0.01382257 0.054227002 0.014444321
0.014695886 0.053535011 0.014799446
0.015807657 0.05374603 0.0145742
0.016738052 0.053352538 0.014270276
0.017799841 0.053399526 0.014271021
0.019441994 0.055085652 0.014668703
0.019829853 0.053227495 0.015322924
0.021305995 0.054330289 0.015705258
0.022346918 0.054271087 0.016287863
0.023414614 0.054279331 0.016471058
0.024207477 0.053677447 0.016566485
0.025296912 0.053755939 0.016682804
0.025937989 0.052913498 0.016470701
0.027489187 0.0539211 0.01686272
0.028013885 0.052915115 0.017140657
0.029436829 0.053617083 0.017459124
0.030591302 0.053798497 0.017601103
0.031425122 0.053422708 0.017815024
0.032649789 0.053714167 0.017671973
0.033339564 0.053134929 0.017501503
0.033974729 0.052506398 0.017065078
0.03533728 0.053005919 0.016729712
0.036906764 0.053778429 0.015757233
0.037625521 0.053302824 0.014823079
0.038994133 0.053748671 0.014307261
0.040240243 0.054006644 0.013382196
0.040373791 0.052796498 0.012856334
0.042535447 0.054232698 0.01239115
0.043642364 0.054286841 0.011379331
0.044326622 0.053825181 0.0095362365
0.045750462 0.054262176 0.0078736246
0.047323246 0.054851942 0.0068140924
-0.057041217 0.055964969 0.0060540736
-0.055967137 0.055967137 0.0072232187
-0.054941598 0.056018881 0.0079145432
-0.053250697 0.055380724 0.0088830292
-0.052360151 0.055565875 0.0097368956
-0.051753372 0.056066155 0.01111117
-0.049650967 0.054932982 0.012042344
-0.049094658 0.055498306 0.012947649
-0.048551746 0.056104235 0.013329923
-0.046618134 0.05509416 0.01407063
-0.045743898 0.055318203 0.014762998
-0.044519868 0.055119835 0.015245348
-0.043142807 0.054717701 0.015284657
-0.042346414 0.05505034 0.015345782
-0.041114595 0.054819461 0.015150487
-0.039994285 0.054729018 0.014652312
-0.039062098 0.054898083 0.014342397
-0.038095042 0.05502617 0.01365158
-0.036753904 0.054605801 0.01256904
-0.036016554 0.055084139 0.012577951
-0.035258729 0.05555921 0.011201084
-0.03437838 0.055864871 0.010609031
-0.033514187 0.056217343 0.0094716251
-0.032350488 0.056074176 0.0087934434
-0.031421196 0.056341454 0.008859247
-0.030255165 0.056188162 0.009523809
-0.029329397 0.056486245 0.0097225904
-0.028024923 0.056049846 0.011388898
-0.026162161 0.054417294 0.014660656
-0.025062945 0.054303046 0.015072405
-0.024024889 0.054317139 0.014750332
-0.023006078 0.054378003 0.015134603
-0.02193027 0.054303523 0.015718311
-0.021132583 0.054944716 0.015874714
-0.020185081 0.05524338 0.015696675
-0.019109655 0.055205673 0.015826017
-0.018206054 0.055689104 0.015363425
-0.016819762 0.054664228 0.01527527
-0.015968526 0.055357553 0.014909208
-0.014884132 0.055283919 0.014748544
-0.013616282 0.05446513 0.014661163
-0.012655424 0.05484017 0.015202701
-0.011718646 0.055397231 0.015169948
-0.010514969 0.05467784 0.014302969
-0.0095537957 0.055199713 0.013994753
-0.0084540155 0.054951102 0.0138852
-0.0073557068 0.054642394 0.013240695
-0.0064244918 0.05567893 0.01317668
-0.0053430409 0.055567626 0.013276488
-0.004288095 0.055745233 0.013395756
-0.0031580939 0.054740295 0.013774127
-0.0021368708 0.055558637 0.013588667
-0.0010621566 0.055232145 0.013768256
0 0.054685213 0.014093429
0.0010590124 0.055068646 0.014593273
0.002129131 0.055357404 0.014710248
0.0031927405 0.055340834 0.014427841
0.0042070732 0.054691952 0.014710248
0.0052511385 0.054611839 0.014658928
0.0063795093 0.055289082 0.014363289
0.0073447037 0.054560658 0.014028758
0.0084385397 0.054850504 0.013813734
0.0095820874 0.055363171 0.013996631
0.010781546 0.056064039 0.013573319
0.011768511 0.055632964 0.014050275
0.012886788 0.05584275 0.014287233
0.013764773 0.05505909 0.014656782
0.014840138 0.055120513 0.014796108
0.015759153 0.054631732 0.014627486
0.016904835 0.054940712 0.014472991
0.017777786 0.054379109 0.014481753
0.018943295 0.054725073 0.014877528
0.020082945 0.054963849 0.015423596
0.021260615 0.055277601 0.015608639
0.022332255 0.055298913 0.016126305
0.023492234 0.055527098 0.016159564
0.024587225 0.055588506 0.016406059
0.025222296 0.054648306 0.016319752
0.026240619 0.054580484 0.016248316
0.027381683 0.054763366 0.016504586
0.028190756 0.054293305 0.016847521
0.029260341 0.054340631 0.017106354
0.030335052 0.054393884 0.017047822
0.03133563 0.054315094 0.0171386
0.032540459 0.054583993 0.016984999
0.033552822 0.054523334 0.016847521
0.034491066 0.05434956 0.016234815
0.036317699 0.055544715 0.015730798
0.036907818 0.054834474 0.015014261
0.037702598 0.054459311 0.014181554
0.039062098 0.054898083 0.013559163
0.040158991 0.05495441 0.012867123
0.040952634 0.054603513 0.012371778
0.04218756 0.054843832 0.011742085
0.043369718 0.055005491 0.010011554
0.044537548 0.055141725 0.0083410144
0.045268178 0.054742914 0.0070749223
-0.056407649 0.057492413 0.0052634776
-0.054951679 0.057106648 0.0069386661
-0.05355772 0.056771182 0.0076597333
-0.052596379 0.056889962 0.009229213
-0.050930191 0.056235418 0.010156125
-0.050072566 0.056464806 0.011112839
-0.049333192 0.056840416 0.011987805
-0.048095629 0.05664596 0.012777895
-0.047221974 0.056881014 0.01332131
-0.045706049 0.05633536 0.013907015
-0.044015784 0.055543724 0.014710754
-0.04331889 0.055997588 0.014830977
-0.042152435 0.055851977 0.014882326
-0.041054532 0.055792052 0.014533877
-0.040002078 0.055792369 0.014076322
-0.038880337 0.055693451 0.013296902
-0.037954971 0.055878151 0.012510657
-0.037188981 0.05631474 0.012000591
-0.035996828 0.056112699 0.010833055
-0.035054583 0.056299783 0.0097135305
-0.034729876 0.057521358 0.0088765025
-0.033337153 0.056995776 0.0085890889
-0.03265116 0.057683714 0.0084364712
-0.031846482 0.058202185 0.0086408257
-0.030473398 0.057681788 0.0090923309
-0.029215762 0.057349455 0.0097225904
-0.027728908 0.05652431 0.012354881
-0.026387537 0.055941578 0.014883071
-0.02512585 0.055486251 0.015414864
-0.024061583 0.055446252 0.015363067
-0.022956187 0.05530354 0.015708089
-0.021867439 0.055189252 0.015829355
-0.021162009 0.056079324 0.015979946
-0.020208415 0.056370839 0.015933454
-0.01919155 0.056508452 0.015987515
-0.018067749 0.056328863 0.015872329
-0.016657792 0.055178933 0.015727341
-0.015894519 0.056160633 0.015372902
-0.014755012 0.055858258 0.015372902
-0.013683368 0.055786036 0.01527831
-0.012810131 0.056578077 0.015560001
-0.011569305 0.055743016 0.015351564
-0.010515811 0.055733796 0.014759064
-0.0096371947 0.056752369 0.014558136
-0.0085334824 0.056534316 0.0146074
-0.0073986035 0.056017999 0.013999999
-0.0063393749 0.055997811 0.013838887
-0.0053364825 0.056566715 0.014155537
-0.0042632599 0.056488194 0.014249593
-0.0031989643 0.056515034 0.014273822
-0.0021144208 0.056032147 0.014179677
-0.001064655 0.056426715 0.014655083
0 0.055577908 0.014748752
0.0010570388 0.056023054 0.01489985
0.0021354561 0.056589585 0.015056908
0.0031692251 0.055989642 0.014943182
0.0042330376 0.056087747 0.014986902
0.0052947775 0.056124639 0.015016079
0.0062933192 0.055590983 0.014631301
0.0074244104 0.056213394 0.014339209
0.0084203472 0.055784799 0.014249712
0.0094876243 0.055871565 0.01444754
0.010567175 0.056006029 0.014054984
0.011830522 0.057001606 0.014287233
0.012865235 0.056821451 0.015105724
0.01376505 0.056119047 0.015542805
0.01478123 0.055957511 0.015744001
0.01582475 0.055914119 0.01527828
0.016893592 0.055960022 0.014895856
0.01779465 0.055477437 0.014931858
0.018916545 0.055698719 0.015392959
0.02024742 0.05647964 0.015573472
0.021021944 0.055708151 0.015588224
0.02234789 0.056401815 0.015931696
0.023609499 0.056877427 0.016049892
0.024168462 0.055692539 0.016346574
0.025311217 0.055895604 0.016012222
0.026203528 0.055551477 0.016049892
0.027263101 0.055574782 0.016143441
0.028116567 0.055191778 0.016416967
0.029112497 0.055105798 0.016543448
0.030204676 0.055201646 0.016623199
0.031296648 0.055290744 0.016443431
0.032879405 0.056213174 0.016261399
0.033869874 0.056096975 0.015771151
0.035392568 0.056842607 0.015569061
0.035773601 0.055764727 0.014865041
0.036992963 0.056017913 0.014063597
0.038349453 0.05645892 0.013298452
0.038630888 0.055336133 0.012887418
0.039887734 0.055632889 0.01190117
0.041479245 0.05636923 0.011876494
0.04258072 0.056419455 0.010652035
0.043651752 0.05642787 0.0088285506
0.044611719 0.056295734 0.007096529
0.04561042 0.056217492 0.0057252347
-0.055417001 0.058676828 0.0051235557
-0.054275014 0.058617014 0.0067310929
-0.052535262 0.057896007 0.0079850554
-0.051524304 0.057964846 0.0093519688
-0.050307415 0.05780001 0.0098793805
-0.048933312 0.057443451 0.011017889
-0.048317846 0.057981417 0.011664987
-0.047267437 0.058010042 0.012164533
-0.04537857 0.05698704 0.012612224
-0.044372559 0.057050433 0.013173997
-0.043445304 0.057220642 0.013818651
-0.04234077 0.057160042 0.014137596
-0.041074011 0.056871708 0.013997078
-0.040034778 0.056891527 0.013531685
-0.038981222 0.056891512 0.012909412
-0.03821345 0.057320178 0.011983961
-0.037345421 0.057618655 0.010513097
-0.036003515 0.057182055 0.00977391
-0.035037186 0.057333581 0.0084252656
-0.034174949 0.057670232 0.0081519783
-0.033613902 0.058553252 0.0075653493
-0.032958675 0.059325613 0.0077620745
-0.031486496 0.058630031 0.0083934665
-0.030507322 0.058835555 0.0093962848
-0.02930714 0.05861428 0.0098963082
-0.027385885 0.056878377 0.013072133
-0.02624622 0.056691833 0.014843136
-0.024848353 0.055908799 0.015773296
-0.024045382 0.056454375 0.015680254
-0.022969907 0.056380685 0.015877187
-0.021866614 0.056228437 0.01649186
-0.021161109 0.057134997 0.016865045
-0.020190323 0.057383023 0.016499996
-0.018996188 0.056988571 0.016796738
-0.018011533 0.057213109 0.016091108
-0.016800139 0.056700468 0.015939444
-0.01552971 0.055906955 0.015863687
-0.014715509 0.056759819 0.015863687
-0.013659249 0.056738425 0.01573351
-0.012520353 0.056341592 0.016066879
-0.011461852 0.056267276 0.015974373
-0.010632573 0.057415895 0.01525268
-0.0094426442 0.056655869 0.014912963
-0.0083707003 0.056502227 0.014639497
-0.0074761081 0.057672836 0.014566928
-0.0064047226 0.057642505 0.014039189
-0.0053649414 0.057941373 0.014312476
-0.0042596846 0.057505742 0.014401525
-0.0031732598 0.05711868 0.014562398
-0.0021297997 0.057504591 0.014562398
-0.0010622509 0.057361551 0.014329642
0 0.056855947 0.014652759
0.0010591086 0.057191867 0.014826149
0.0021102214 0.056975983 0.014789432
0.0031815986 0.057268776 0.014766663
0.0042824042 0.057812456 0.014934629
0.0052380539 0.056570984 0.015165091
0.0063673831 0.05730645 0.01489678
0.007429163 0.057310689 0.014597833
0.0084784813 0.05722975 0.01466009
0.0094317701 0.056590624 0.014613628
0.010473697 0.056557968 0.014382154
0.011574145 0.056818534 0.015093207
0.01285594 0.057851728 0.015557349
0.013916778 0.057808161 0.016078025
0.014779763 0.057007663 0.016204059
0.016013399 0.057648238 0.015916139
0.016721888 0.056436371 0.015560895
0.017735444 0.056336116 0.015273929
0.019045085 0.057135258 0.015441388
0.019849706 0.056414958 0.015570968
0.021225084 0.057307731 0.015670896
0.022227783 0.057157159 0.016052663
0.02316637 0.056862909 0.016014993
0.02408007 0.056535818 0.016039252
0.025053928 0.056371339 0.01554057
0.025974816 0.056105603 0.015728563
0.027247913 0.05659182 0.015806407
0.028136676 0.056273352 0.016021729
0.02977477 0.057422772 0.016049892
0.03053215 0.056852967 0.015942961
0.031597372 0.056875274 0.015728563
0.032820109 0.05717051 0.015359402
0.034342654 0.057953231 0.014695495
0.034977563 0.057236012 0.01404056
0.03660132 0.058131512 0.013749719
0.037583515 0.057985999 0.013003796
0.038120277 0.057180423 0.01190117
0.039141528 0.057125472 0.011550188
0.040110219 0.056998733 0.011202365
0.041144382 0.056969147 0.010903418
0.042516358 0.057397086 0.0091868341
0.044063978 0.058035482 0.007976234
0.044566929 0.057300337 0.006318897
-0.052979279 0.059466541 0.0065560639
-0.051996794 0.059579659 0.0077857077
-0.050296459 0.058857556 0.0089112222
-0.049673636 0.059392389 0.0093926787
-0.048474796 0.059246968 0.010032713
-0.046615031 0.058268789 0.010707319
-0.045766503 0.058538549 0.011162251
-0.045145206 0.059118722 0.01160863
-0.043396428 0.05821472 0.012003362
-0.042769179 0.058807623 0.012399614
-0.04119641 0.058097504 0.012381047
-0.040085498 0.058018483 0.012367904
-0.039344445 0.058484986 0.011885405
-0.038148787 0.058282875 0.010476053
-0.036808547 0.057842005 0.0096424818
-0.036374275 0.05884074 0.0085941851
-0.035369266 0.058948778 0.0071263611
-0.034537427 0.059361205 0.0069286525
-0.033763301 0.059902631 0.0070359111
-0.032588072 0.059744801 0.0075026155
-0.031795781 0.060302343 0.007966429
-0.030142827 0.059209127 0.0089648068
-0.0289117 0.058894202 0.011030912
-0.027646348 0.058482662 0.013107747
-0.026376147 0.058027521 0.015267223
-0.024893623 0.057047885 0.015700012
-0.023933332 0.057231884 0.015742898
-0.022930404 0.057326011 0.017039984
-0.021675631 0.056769509 0.017660588
-0.021292817 0.058555253 0.017701328
-0.020199638 0.058472637 0.017775983
-0.019065887 0.058256876 0.017336339
-0.017954221 0.058087185 0.016873181
-0.01669023 0.057372667 0.016098738
-0.015642237 0.057354867 0.016070217
-0.014776518 0.058050606 0.015907466
-0.013544017 0.057301614 0.015727341
-0.012467625 0.057143278 0.016197562
-0.011651314 0.058256574 0.015949488
-0.010331907 0.056825493 0.015130281
-0.0095139518 0.058140818 0.015067995
-0.0084476238 0.058077417 0.014745325
-0.0073962384 0.058113303 0.014404982
-0.0064069307 0.0587302 0.014375657
-0.0053761345 0.059137482 0.014494807
-0.0042524613 0.058471344 0.014545202
-0.0031644064 0.058014117 0.014660627
-0.0021374237 0.058779154 0.014766634
-0.00105513 0.058032155 0.014446169
0 0.058244966 0.014555871
0.0010407532 0.057241429 0.014928162
0.0021102407 0.058031619 0.014917403
0.0032245703 0.059117123 0.01489985
0.0042239507 0.058079325 0.015197963
0.0052776779 0.058054462 0.015423626
0.0063768514 0.058454473 0.015282869
0.0073911655 0.058073442 0.014934629
0.008471299 0.058240183 0.014372736
0.0094487285 0.057742231 0.01466769
0.010455099 0.057503048 0.015166551
0.011533746 0.057668731 0.015459985
0.01250965 0.057335895 0.016276628
0.013710413 0.058005594 0.016518682
0.014989506 0.058887348 0.017189294
0.015871324 0.058194857 0.016532987
0.016701818 0.057412501 0.016087949
0.017924467 0.057990924 0.015803367
0.018859498 0.057626247 0.015942216
0.019863721 0.057500247 0.015787125
0.021315744 0.0586183 0.015891165
0.022259643 0.058299068 0.016092658
0.023332484 0.05833121 0.015876144
0.024561699 0.058734495 0.015787125
0.025052816 0.057412706 0.015490592
0.02593451 0.05705592 0.015162319
0.027144799 0.057421692 0.01540029
0.028124057 0.057289746 0.015693188
0.029432453 0.057813749 0.015615344
0.030312316 0.057488874 0.01516518
0.031671807 0.058064979 0.014706522
0.033259179 0.059008218 0.013857126
0.033868764 0.058211938 0.013428539
0.035385158 0.058975268 0.012982517
0.036795877 0.059522744 0.01190117
0.037309859 0.058629781 0.011160076
0.038506187 0.058828901 0.010855019
0.039535861 0.05876952 0.010062307
0.040455732 0.058554348 0.0096199512
0.041824862 0.058983784 0.0085936785
0.042997606 0.059121713 0.0077395141
0.043985333 0.059004713 0.0063508153
-0.051101461 0.059618372 0.0065726638
-0.050970268 0.060730528 0.0074283779
-0.049808748 0.060636736 0.0085304976
-0.048039895 0.059782978 0.0089439452
-0.046572942 0.059274651 0.0091525018
-0.045823399 0.059676986 0.0098063648
-0.044400968 0.059201293 0.0099323988
-0.043578871 0.059522357 0.010161877
-0.042699482 0.059779275 0.010403186
-0.041220032 0.059187736 0.010652125
-0.0407071 0.059989408 0.010216206
-0.039277773 0.059447438 0.0095699131
-0.03840008 0.059733462 0.0084088445
-0.037177235 0.05948358 0.0074883103
-0.036568623 0.060230676 0.0062636733
-0.035258003 0.059831761 0.0051867664
-0.034677934 0.060686383 0.0052043498
-0.033214331 0.060000081 0.0055947006
-0.032474067 0.060618259 0.0060230494
-0.031641789 0.061101381 0.0068556666
-0.03038395 0.0607679 0.008641392
-0.028924681 0.059991926 0.0092956424
-0.027593108 0.059431311 0.014134228
-0.026174339 0.058630515 0.015301377
-0.025073254 0.058504261 0.016458154
-0.023958497 0.058333732 0.016827017
-0.022738237 0.057879146 0.017211378
-0.021925354 0.058467612 0.017927289
-0.02095025 0.058660701 0.017971098
-0.020104533 0.059255462 0.018161535
-0.019122394 0.059491891 0.017422646
-0.017891711 0.058937397 0.017285377
-0.01677531 0.058713581 0.016683489
-0.015589853 0.058202118 0.016336888
-0.014660814 0.058643255 0.016258478
-0.013671231 0.058891453 0.015973717
-0.012506845 0.058365278 0.016473234
-0.01133195 0.057689928 0.016007155
-0.010472673 0.058646969 0.015463412
-0.0095818946 0.059620678 0.01536873
-0.0084954659 0.059468262 0.014762521
-0.0072897528 0.058318023 0.014545202
-0.0063471487 0.059240054 0.014446944
-0.0052468996 0.058765277 0.014574528
-0.0042447345 0.059426282 0.014572024
-0.0031185844 0.058213577 0.014639497
-0.0021108512 0.059103835 0.01474905
-0.0010640706 0.059587955 0.014479697
0 0.058458667 0.014386237
0.001042573 0.058384091 0.014286697
0.0021211167 0.059391271 0.014894634
0.0031982926 0.059701461 0.014748752
0.0042732358 0.059825297 0.014928162
0.0053528701 0.059952147 0.015423626
0.0063656247 0.059412498 0.015171498
0.0074469764 0.059575811 0.014938504
0.0084780781 0.059346545 0.014479697
0.0093732504 0.058322448 0.015237957
0.010487765 0.058731489 0.015773296
0.011463424 0.05835925 0.016276628
0.012601731 0.058808081 0.016960829
0.013615522 0.058651477 0.017217159
0.014616033 0.058464132 0.017620146
0.015799854 0.05898612 0.016800135
0.016822616 0.058879156 0.016459703
0.017648628 0.058136657 0.016170681
0.018878069 0.058731772 0.015954494
0.020157252 0.059410848 0.015891165
0.021020213 0.058856599 0.015862733
0.022249557 0.059332151 0.016001582
0.023239668 0.05915552 0.015517592
0.02425524 0.059056234 0.015231133
0.025369834 0.059196282 0.015028417
0.026055302 0.058363877 0.014701843
0.027240574 0.058672007 0.014663637
0.02843501 0.058976315 0.014691114
0.029505139 0.059010278 0.014319956
0.030564064 0.059020258 0.013436407
0.031966407 0.059670623 0.013143718
0.032857832 0.059356079 0.012451172
0.033951703 0.059415482 0.011402011
0.035734676 0.060640659 0.010974169
0.036106247 0.059469111 0.0099641085
0.037570991 0.060113586 0.0090814233
0.038542993 0.059955768 0.0086601079
0.039184324 0.059305999 0.0084430575
0.040519763 0.059713334 0.008253634
0.041979544 0.060278323 0.007881999
0.043410979 0.060775373 0.0067536533
-0.051178306 0.062067308 0.0058327913
-0.049364083 0.061168537 0.0066280365
-0.048358239 0.061253764 0.0072456896
-0.04738348 0.061383143 0.0078260899
-0.045789648 0.060697906 0.0084657371
-0.044968292 0.061028395 0.008700192
-0.044378974 0.061697591 0.0086678565
-0.042728093 0.060887534 0.0085724294
-0.042119808 0.061559722 0.0090012848
-0.040620051 0.060930073 0.0089611709
-0.039308771 0.060556751 0.008108139
-0.038386896 0.060779251 0.0070037544
-0.03740653 0.060919203 0.0055372417
-0.033488378 0.061575402 0.0050959289
-0.032549575 0.061844196 0.0055947006
-0.031370722 0.06165969 0.0066574812
-0.030511752 0.062113207 0.0082061291
-0.028979763 0.061179496 0.010996282
-0.027268777 0.059781551 0.013902515
-0.026285814 0.059931654 0.015122205
-0.024980726 0.059329223 0.015598774
-0.023871217 0.0591591 0.016521603
-0.022902779 0.059339017 0.016641319
-0.022216555 0.060302075 0.017581761
-0.020958692 0.059732273 0.017671078
-0.02007582 0.060227457 0.018116415
-0.018979013 0.060100209 0.01711598
-0.017881427 0.059955373 0.016963869
-0.016887253 0.060160838 0.01651758
-0.015757293 0.059877709 0.016794413
-0.014815377 0.060319748 0.016092271
-0.01336296 0.05859144 0.015479445
-0.012460524 0.059187487 0.015972048
-0.011603498 0.060127217 0.015569389
-0.010683283 0.060894717 0.015230596
-0.009385759 0.059443142 0.015007019
-0.0085132876 0.060657173 0.014566928
-0.0073539848 0.059882447 0.014308542
-0.0062620188 0.059489176 0.014158934
-0.0053048409 0.060475186 0.014350951
-0.0042350558 0.060349546 0.014341861
-0.0031812496 0.06044374 0.014368683
-0.0021121728 0.060196925 0.014511287
-0.0010529571 0.060018558 0.014037371
0 0.059406273 0.014109015
0.0010364774 0.059079207 0.014111727
0.0021186923 0.060382731 0.013625681
0.0032239875 0.06125576 0.013868213
0.004302904 0.061316378 0.014187336
0.0053519225 0.061011918 0.01507923
0.0064148479 0.060941052 0.015186697
0.0074824239 0.060928307 0.015075266
0.0084374836 0.060117066 0.015127867
0.0094074849 0.059580743 0.015518546
0.010449739 0.059563514 0.016390085
0.011567654 0.059941478 0.016837239
0.0125952 0.059827201 0.017519087
0.013504142 0.059210468 0.017648578
0.014620272 0.059525389 0.017896295
0.015741909 0.059819255 0.017302543
0.016551401 0.058964364 0.016730696
0.017890656 0.059986316 0.016375989
0.01909082 0.060454268 0.016193807
0.019714929 0.059144784 0.015891165
0.021204684 0.060433347 0.015831798
0.022127938 0.06006154 0.015664041
0.023056606 0.059737567 0.015231133
0.024259346 0.060120985 0.014226258
0.025258401 0.059988704 0.014118046
0.026308408 0.059983168 0.01326701
0.027375285 0.060015045 0.013176322
0.028487008 0.060139235 0.013231367
0.029447762 0.059947226 0.013142169
0.030729895 0.060400136 0.012334794
0.032016806 0.060831934 0.011284441
0.033301793 0.061232325 0.010150731
0.034997217 0.062338796 0.0096199512
0.035507958 0.061331928 0.0087842643
0.036664449 0.061466869 0.0081648231
0.037562292 0.061172877 0.0080250502
0.038038395 0.060227457 0.0077318847
0.039631285 0.061053596 0.0074027181
0.04081646 0.061224688 0.0068193674
0.041690968 0.060932957 0.0055373907
-0.049371745 0.062251329 0.0052534938
-0.048824515 0.06292937 0.0055935383
-0.047055524 0.062027741 0.0065506697
-0.046514243 0.06274014 0.0066568553
-0.04540135 0.062697105 0.0075311363
-0.044311821 0.062685013 0.007358849
-0.043385774 0.062909372 0.0073235929
-0.042250358 0.062833868 0.0071799159
-0.041103575 0.062737033 0.0068915486
-0.039955415 0.062632814 0.0053323507
-0.032623034 0.063071199 0.0056805015
-0.031785633 0.063571267 0.0069286525
-0.030619053 0.063425183 0.0090228617
-0.028608704 0.061455738 0.011361241
-0.027454931 0.061245617 0.013479918
-0.026409101 0.061269116 0.014336705
-0.025010997 0.060443249 0.015182346
-0.023868384 0.060189836 0.015573859
-0.022843042 0.06022257 0.016337812
-0.02201766 0.060810681 0.017115563
-0.021247866 0.061618812 0.017115563
-0.01977214 0.06035706 0.017680854
-0.018986451 0.061178569 0.016677499
-0.017830048 0.060831927 0.016747355
-0.016819572 0.060970955 0.016491115
-0.01587477 0.061382446 0.01692459
-0.014442889 0.059834827 0.016562402
-0.013457838 0.060042661 0.015730351
-0.012694276 0.061355673 0.016156077
-0.011622639 0.061283011 0.015717268
-0.010473812 0.060748115 0.015218943
-0.0094052609 0.060611684 0.015038311
-0.0085107749 0.061703119 0.014644414
-0.0072719948 0.060253676 0.014306694
-0.0062286803 0.060210578 0.014153659
-0.0052924147 0.061392013 0.014227867
-0.0042292206 0.061323699 0.014227867
-0.0031410276 0.060726538 0.014292836
-0.0020979124 0.060839463 0.01441592
-0.0010523451 0.061036017 0.014107198
0 0.061396707 0.01403594
0.0010430521 0.060497023 0.014062196
0.0021302567 0.061777446 0.013566256
0.0032376968 0.062595479 0.013596833
0.0042927 0.062244151 0.014120549
0.0053768903 0.062371932 0.014888018
0.0064444486 0.062296338 0.014989972
0.0074231955 0.061506476 0.01524213
0.008416173 0.06101726 0.015249848
0.0093791988 0.060443729 0.016337484
0.01038453 0.060230277 0.016396254
0.011477323 0.060516801 0.017330408
0.012524903 0.060537033 0.017896861
0.013501746 0.060238559 0.018032819
0.014587268 0.060432971 0.018190682
0.015625115 0.060417116 0.017723858
0.016639164 0.060316969 0.017377496
0.017935617 0.061192103 0.016765118
0.018957153 0.061084162 0.01659584
0.019765267 0.060336083 0.015961289
0.021481715 0.062296979 0.015838593
0.022013864 0.060800195 0.015585959
0.023014046 0.060673397 0.014982224
0.024500255 0.06178325 0.013857216
0.025407126 0.061400555 0.013237357
0.026531067 0.061552074 0.01286909
0.027456496 0.061249111 0.012980163
0.028320959 0.060837615 0.012408406
0.029799851 0.061728261 0.011954546
0.03124802 0.06249604 0.01052916
0.032361254 0.062565096 0.0090285838
0.033784416 0.063209549 0.0080797672
0.03432855 0.062220503 0.0079635084
0.03559478 0.062560529 0.0077264607
0.037035994 0.063179053 0.0075300336
0.036762204 0.060920227 0.0068193674
0.038592033 0.062176056 0.0060323477
0.039630793 0.062123943 0.0050700903
-0.048327032 0.063362107 0.0050302744
-0.047416206 0.063580826 0.0054847598
-0.046719603 0.064103641 0.0060270131
-0.045327313 0.063674085 0.0063682795
-0.044810392 0.064483248 0.0062867105
-0.043168694 0.063673824 0.0062867105
-0.041980125 0.063508399 0.0056631863
-0.040851641 0.063427553 0.0052300394
-0.033073433 0.065044418 0.0054526031
-0.032545555 0.066213369 0.0070934594
-0.030190265 0.063615203 0.0089910924
-0.028770771 0.062869459 0.011202782
-0.027697135 0.062851191 0.013033539
-0.025958663 0.06126244 0.01400578
-0.025046878 0.061573576 0.014905781
-0.023875106 0.061244838 0.015217662
-0.023056189 0.061832506 0.015990794
-0.02222866 0.062451947 0.016206533
-0.020812508 0.061396901 0.016206533
-0.01971356 0.061215792 0.016368777
-0.019000279 0.062278695 0.016188949
-0.017801134 0.061780408 0.016325384
-0.016913861 0.062369864 0.015984297
-0.01599207 0.062902145 0.016438007
-0.01439215 0.060652632 0.016293019
-0.013529053 0.061401092 0.015421003
-0.012856879 0.063212991 0.016109824
-0.011595932 0.062196363 0.015513927
-0.010437503 0.061581265 0.015402019
-0.0095506161 0.062609598 0.015264839
-0.0084971152 0.062666222 0.014849722
-0.0072491276 0.06109979 0.014681935
-0.0062354989 0.061315741 0.014597625
-0.0053043938 0.062591851 0.014688969
-0.0042214342 0.062266156 0.014614165
-0.0031113112 0.061189122 0.014635593
-0.0021404729 0.063143954 0.014629871
-0.0010590866 0.062486108 0.01427123
0 0.061731778 0.014505982
0.0010563721 0.062325951 0.014091462
0.0021123628 0.0623147 0.013596833
0.003171934 0.062381372 0.013566256
0.0042914054 0.063298225 0.014111727
0.0054268399 0.064036712 0.014719993
0.0064157243 0.063087955 0.015243471
0.0074766916 0.06301783 0.015218675
0.0084633399 0.062417135 0.01564914
0.0093411058 0.061236143 0.016444832
0.010507456 0.061993994 0.016793549
0.011522967 0.061805006 0.017389446
0.01254575 0.061683267 0.018171132
0.013595676 0.061703455 0.018168211
0.014605686 0.061552536 0.018349856
0.015605968 0.061383478 0.018150479
0.016679509 0.061505686 0.017659813
0.017619783 0.061151013 0.017136335
0.019229157 0.063028909 0.01687035
0.020007791 0.06212946 0.016165376
0.021037839 0.06206163 0.015803367
0.022523422 0.063280091 0.01525715
0.023456383 0.062905759 0.013940513
0.024150757 0.061951943 0.013324738
0.025337365 0.062287688 0.012823224
0.026489995 0.062516391 0.012133092
0.027539054 0.062492471 0.012013972
0.028606636 0.062510796 0.01075086
0.029743738 0.062674306 0.010047495
0.030779732 0.062620834 0.0080587268
0.032405682 0.063731179 0.0074653327
0.033330496 0.063435465 0.0069038272
0.03454341 0.063689411 0.0064308941
0.035596013 0.063641354 0.0062233806
0.036246203 0.062897824 0.0057137311
-0.046055615 0.064263649 0.0050838292
-0.045479782 0.064971112 0.0051614046
-0.044626996 0.065307796 0.0050963759
-0.033465579 0.066931158 0.0054867864
-0.031940732 0.066084273 0.0073649287
-0.030063113 0.064420953 0.0092734098
-0.028659634 0.06368807 0.011503965
-0.027111331 0.062564611 0.013033539
-0.026217083 0.062920995 0.013854206
-0.025134593 0.062836483 0.014867276
-0.023750134 0.061956871 0.014860928
-0.02303458 0.062821582 0.015752912
-0.021995494 0.062844269 0.016140759
-0.020773638 0.062320918 0.016017079
-0.019836873 0.062642761 0.016166925
-0.018642055 0.062140182 0.015779078
-0.017744483 0.062627591 0.015004635
-0.016955921 0.063584708 0.015004635
-0.015911238 0.063644953 0.015954852
-0.014582661 0.062497117 0.015455067
-0.013946448 0.064368218 0.014961958
-0.012710439 0.063552201 0.0149692
-0.011632825 0.063451774 0.015043676
-0.010606719 0.063640311 0.015043676
-0.0095015671 0.063343778 0.0149692
-0.0084631573 0.063473679 0.014822125
-0.0073351203 0.062872462 0.014745384
-0.0063670846 0.063670844 0.014589638
-0.0052774418 0.063329302 0.014627248
-0.0042182105 0.063273154 0.014501095
-0.0031774736 0.063549474 0.014597237
-0.0021371618 0.064114854 0.014711559
-0.0010537567 0.063225403 0.014685243
0 0.06213294 0.014658213
0.0010505004 0.063030027 0.014233142
0.0020938662 0.062815987 0.013666242
0.003180187 0.063603744 0.013620943
0.0043315706 0.064973556 0.014056563
0.0053633638 0.064360365 0.014522195
0.0064484822 0.06448482 0.01467371
0.0075064702 0.064341173 0.015102029
0.0084221605 0.063166201 0.015492499
0.0094234357 0.062822908 0.01609689
0.010495196 0.062971182 0.016519248
0.011489604 0.062670566 0.017389446
0.012626538 0.063132688 0.018126875
0.013633829 0.062925361 0.018171191
0.01456663 0.062428415 0.018349856
0.015700631 0.062802523 0.018081397
0.016657064 0.062463988 0.017659813
0.017777259 0.062743269 0.017199695
0.019123502 0.063745014 0.01688838
0.019995952 0.063145109 0.016204625
0.021230161 0.063690484 0.01536423
0.022366026 0.063902929 0.014441073
0.023376344 0.063753664 0.013541609
0.024114307 0.062906884 0.013031155
0.02549432 0.063735798 0.012138456
0.0264819 0.063556559 0.010723531
0.027766898 0.064077459 0.010009617
0.028680751 0.063735001 0.0091064274
0.030174281 0.064659178 0.0076090693
0.030951742 0.064038083 0.0063111186
0.032603234 0.065206468 0.0060411394
0.033555154 0.064945459 0.005540669
0.034746367 0.065149441 0.0055091679
-0.033215228 0.067537628 0.0053782761
-0.031466931 0.066189058 0.0073757768
-0.030227168 0.065852046 0.010192662
-0.028437978 0.064248763 0.011904925
-0.027170168 0.063745394 0.013272196
-0.026463129 0.064570032 0.014306217
-0.024894273 0.063272946 0.015055656
-0.024191244 0.064159378 0.015299201
-0.023227366 0.064403147 0.015990794
-0.022219989 0.064543776 0.016184837
-0.021029679 0.064140521 0.015980184
-0.019561851 0.062803835 0.015984297
-0.018750075 0.063541926 0.015301317
-0.017691866 0.063482575 0.014601201
-0.016675008 0.063573465 0.014837146
-0.015934279 0.064799406 0.015550435
-0.014623665 0.063717395 0.015145868
-0.013714165 0.064351082 0.014772981
-0.012787448 0.065002859 0.014850318
-0.01155562 0.064081162 0.014542729
-0.0105335 0.064254358 0.014799386
-0.009632566 0.065287396 0.014961958
-0.0084576206 0.064489357 0.014825881
-0.0074062408 0.064540096 0.014800429
-0.0063585844 0.064645603 0.014613867
-0.0052637379 0.064217605 0.014719248
-0.0042043552 0.064116411 0.014596552
-0.0031618327 0.064290598 0.014518291
-0.0021096084 0.064343058 0.014946461
-0.0010422157 0.063575156 0.014847934
0 0.064483576 0.014647305
0.0010561401 0.064424545 0.014766634
0.0020848946 0.063589282 0.013767332
0.0031960099 0.064985536 0.013572603
0.0042569153 0.064917959 0.013730228
0.0053818752 0.065658875 0.014053822
0.0065148096 0.066233896 0.014350325
0.0075416663 0.065720238 0.014331967
0.0084200138 0.064202607 0.014733374
0.0094025992 0.063728727 0.015332878
0.010563631 0.064438149 0.01619041
0.01152977 0.063937813 0.017280072
0.01261103 0.06410607 0.017994314
0.013577102 0.06370794 0.018123984
0.014584025 0.063544683 0.018289894
0.015666826 0.063711755 0.017838955
0.016623933 0.063378744 0.017595947
0.017797321 0.063860975 0.017276376
0.018484509 0.062641948 0.016757727
0.020085821 0.064486057 0.01594457
0.021561893 0.065763772 0.014871806
0.022061972 0.064084776 0.013665855
0.023493527 0.065141141 0.013322532
0.024436243 0.064809158 0.012810886
0.025551362 0.064943045 0.011252254
0.026673703 0.065083832 0.0091416538
0.028092941 0.065910362 0.0076431036
0.028843956 0.065165974 0.0075548291
0.030159816 0.065705314 0.0068782866
0.0312298 0.065690264 0.0058602095
-0.031465635 0.067271359 0.0067010522
-0.029569544 0.065475419 0.010179311
-0.028635131 0.065754749 0.011682034
-0.027668128 0.065977849 0.013638616
-0.026002169 0.064485379 0.014362544
-0.025101501 0.064845547 0.014905781
-0.024047974 0.064824976 0.015573859
-0.023419872 0.06600146 0.01594919
-0.022206616 0.06556239 0.016038954
-0.021118095 0.065466098 0.015432239
-0.019969653 0.065164134 0.015436351
-0.018935919 0.065223724 0.014792204
-0.018054701 0.065846555 0.014420629
-0.016906703 0.065513477 0.014325261
-0.015911145 0.065766066 0.014862835
-0.014597947 0.064648055 0.014553428
