ply
format ascii 1.0
comment PCL generated
element vertex 1270
property float x
property float y
property float z
element camera 0
property float view_px
property float view_py
property float view_pz
property float x_axisx
property float x_axisy
property float x_axisz
property float y_axisx
property float y_axisy
property float y_axisz
property float z_axisx
property float z_axisy
property float z_axisz
property float focal
property float scalex
property float scaley
property float centerx
property float centery
property int viewportx
property int viewporty
property float k1
property float k2
end_header
-0.050205242 -0.10147868 0.010211587
-0.049549069 -0.10232959 0.011036813
-0.048888184 -0.10320839 0.011481434
-0.046757851 -0.10095446 0.012075007
-0.046016335 -0.101664 0.012302965
-0.045351498 -0.10258077 0.012184918
-0.044011388 -0.1019776 0.012435734
-0.042938679 -0.10197936 0.012856722
-0.041785076 -0.10178416 0.012943625
-0.041066311 -0.10266577 0.013153762
-0.04004252 -0.10281187 0.013272673
-0.038885657 -0.10261493 0.013797551
-0.03734374 -0.10136158 0.013398826
-0.036585659 -0.10222463 0.013326854
-0.035323408 -0.1016886 0.013122827
-0.033678494 -0.099983029 0.012889534
-0.033519685 -0.10272161 0.012889534
-0.031783912 -0.10064905 0.012733042
-0.031066153 -0.10176843 0.012650579
-0.030029772 -0.10188673 0.012173444
-0.028712628 -0.10102591 0.011835068
-0.027836699 -0.10171101 0.010111213
-0.027098732 -0.10297517 0.0087704062
-0.025469881 -0.10081828 0.0073599517
-0.025294825 -0.10447863 0.0065920055
-0.024195654 -0.10448124 0.0069568753
-0.022857407 -0.10340255 0.0070798993
-0.021942247 -0.10422567 0.0075218379
-0.020903833 -0.10451917 0.0080156624
-0.019482544 -0.10282454 0.0092904866
-0.018109858 -0.10120215 0.010046929
-0.016993117 -0.10089663 0.010686189
-0.016073015 -0.10179576 0.010686189
-0.015165459 -0.10290847 0.011631042
-0.013874438 -0.10139012 0.011938721
-0.013042946 -0.10325667 0.012348086
-0.011975766 -0.10342707 0.011673808
-0.010929252 -0.10382789 0.011916995
-0.0096906172 -0.10228986 0.011313617
-0.0086100446 -0.10224428 0.011320561
-0.0075453343 -0.10240097 0.010831535
-0.0064146463 -0.10156523 0.010820121
-0.0052941032 -0.10058796 0.010872662
-0.0042762095 -0.10155997 0.010954797
-0.0032826834 -0.10395164 0.011071414
-0.0021397232 -0.10163686 0.011155069
-0.0010862448 -0.10319325 0.011066765
0 -0.10268634 0.011083871
0.0010811428 -0.10270856 0.011203349
0.0021443504 -0.10185665 0.011146247
0.0032978111 -0.10443068 0.010335684
0.0042752605 -0.10153743 0.010899067
0.0053092302 -0.10087538 0.011146247
0.006479423 -0.10259087 0.010995835
0.0074220146 -0.10072734 0.011218965
0.008579676 -0.10188365 0.011200547
0.0096489806 -0.10185036 0.011085063
0.01066118 -0.10128122 0.010855198
0.011551089 -0.099759407 0.010929406
0.012907032 -0.10218067 0.010705352
0.013936106 -0.10184077 0.010779858
0.015563065 -0.10560652 0.011211455
0.016147716 -0.10226886 0.011290044
0.017558416 -0.1042531 0.01130715
0.018609662 -0.10399517 0.011535406
0.019189162 -0.10127614 0.011710554
0.020320576 -0.10160287 0.011519879
0.021485981 -0.10205841 0.011768371
0.022377141 -0.10122992 0.011851937
0.023585713 -0.1018474 0.011846542
0.024854785 -0.10266107 0.012248725
0.025941784 -0.10268623 0.012679845
0.027308948 -0.103774 0.013177037
0.028258491 -0.10325218 0.013430536
0.029148975 -0.10256121 0.013974488
0.030294936 -0.10278638 0.01406911
0.031000938 -0.10155479 0.013996452
0.03205017 -0.1014922 0.01427266
0.033541691 -0.10278905 0.014297873
0.033723917 -0.10011788 0.014606178
0.035405371 -0.10192455 0.014929384
0.036732405 -0.10263466 0.015173197
0.036747895 -0.09974429 0.015213937
0.038521841 -0.10165486 0.015176177
0.039174594 -0.10058341 0.01480934
0.039688006 -0.099220015 0.014253855
0.041713674 -0.10161023 0.013980448
0.042995363 -0.10211398 0.013739675
0.044001706 -0.10195517 0.013671279
0.045510139 -0.1029396 0.013086677
0.045227282 -0.099920742 0.012793273
0.0470745 -0.10163812 0.012270629
0.04862811 -0.10265934 0.011933506
0.048819527 -0.10082293 0.011122346
0.050601389 -0.1022794 0.0099857748
0.052331187 -0.10357215 0.0091766119
0.052217059 -0.10123716 0.0082265735
0.053264394 -0.10120235 0.006018728
-0.057701059 -0.10233773 0.0052206516
-0.056798108 -0.1026735 0.006532073
-0.054890394 -0.10117052 0.0074209273
-0.054201193 -0.10189824 0.0081682503
-0.053392448 -0.10242633 0.0081300735
-0.051213942 -0.10029397 0.0086923242
-0.051211413 -0.10242283 0.0099467933
-0.049940068 -0.10205144 0.010472655
-0.048490375 -0.101291 0.011039913
-0.047490083 -0.10145609 0.011237323
-0.046483513 -0.10161512 0.012079
-0.044511046 -0.099619955 0.011734962
-0.044343323 -0.10166517 0.011995673
-0.042943574 -0.10091741 0.012156397
-0.041801333 -0.10075193 0.01233682
-0.041178938 -0.10186369 0.012741864
-0.040014435 -0.10165829 0.013207495
-0.038413376 -0.10030159 0.013620675
-0.037813686 -0.10155676 0.013271451
-0.036199708 -0.10008154 0.013215482
-0.035436772 -0.10094111 0.012919158
-0.034471765 -0.10126081 0.012681216
-0.03309796 -0.10036155 0.012795836
-0.031973876 -0.10018481 0.012483805
-0.030987291 -0.10044156 0.01228866
-0.03017086 -0.10128789 0.012021005
-0.028827779 -0.10036337 0.011167258
-0.028007779 -0.1012589 0.0092043877
-0.026872398 -0.10104021 0.0077310801
-0.026135447 -0.10236383 0.0065910518
-0.025228513 -0.10310783 0.0065178871
-0.02394183 -0.10229691 0.0068040788
-0.02321998 -0.10393705 0.0069568753
-0.022055285 -0.10365985 0.0075488091
-0.020482888 -0.10133639 0.0087435842
-0.019314095 -0.1008625 0.009803772
-0.018206682 -0.10067225 0.011180401
-0.017032033 -0.10006319 0.011298954
-0.015798153 -0.099001758 0.011798829
-0.015002845 -0.10073339 0.012610763
-0.013886049 -0.10040683 0.01285243
-0.013014639 -0.10194801 0.012962282
-0.011684174 -0.099846579 0.012505949
-0.010852286 -0.10201149 0.012453407
-0.0097595947 -0.10193355 0.012155652
-0.0085403211 -0.10034877 0.012070894
-0.0076089636 -0.10217752 0.011547774
-0.006380843 -0.099966541 0.011309177
-0.0053890641 -0.10131441 0.011309177
-0.0043301228 -0.10175789 0.011635691
-0.0032132918 -0.10068315 0.011635691
-0.0021482806 -0.1009692 0.011235535
-0.0010753964 -0.10108727 0.011066765
0 -0.10011671 0.010830224
0.0010815104 -0.10166198 0.010722935
0.0021759416 -0.10226925 0.010586232
0.0032318113 -0.10126342 0.010438561
0.004281451 -0.1006141 0.010505825
0.0053751161 -0.10105219 0.010653764
0.0064787748 -0.1015008 0.01094535
0.0075973314 -0.10202131 0.011068314
0.0085830512 -0.10085084 0.011296034
0.0095854793 -0.10011501 0.011087328
0.010775736 -0.10129192 0.010936677
0.011644359 -0.099506341 0.011214554
0.012778256 -0.10009634 0.010853916
0.013860598 -0.10022279 0.011104763
0.014950521 -0.10038207 0.011416823
0.016124705 -0.10104816 0.011475563
0.017667875 -0.10379876 0.011709154
0.01833372 -0.10137469 0.011809856
0.019599099 -0.10235085 0.01241976
0.020809604 -0.10295278 0.011804461
0.021382954 -0.10049989 0.012309283
0.022410793 -0.10031497 0.012387455
0.023892276 -0.10208519 0.011888027
0.024373841 -0.099614821 0.012695938
0.025960518 -0.1016787 0.012794822
0.027041258 -0.10167512 0.013177991
0.028223412 -0.10203849 0.013237447
0.029459476 -0.10256261 0.013976365
0.030167544 -0.10127676 0.014130533
0.030728005 -0.09960112 0.014130533
0.032540429 -0.10196001 0.014592141
0.033426404 -0.10135748 0.014614701
0.03435814 -0.10092704 0.015388161
0.035432864 -0.10092998 0.015322745
0.036477268 -0.10084891 0.015631437
0.036490921 -0.098004192 0.015541315
0.038749721 -0.10117983 0.015311271
0.038955722 -0.098968588 0.01530087
0.040545553 -0.1002969 0.014441133
0.042206947 -0.10172956 0.013801157
0.043028649 -0.10111733 0.01368174
0.043885626 -0.10061582 0.013326585
0.044863224 -0.10040817 0.013385564
0.046178889 -0.1009492 0.012717009
0.047601752 -0.10169466 0.012247503
0.048418682 -0.10114124 0.011399508
0.048998468 -0.1001273 0.010986567
0.049165837 -0.098331675 0.010252178
0.050749827 -0.099385083 0.0089197457
0.053505085 -0.10264241 0.0073902607
0.055099782 -0.10358759 0.0056856573
-0.055729154 -0.099669449 0.005490005
-0.055064637 -0.10041198 0.006434083
-0.054275014 -0.10095152 0.0077480078
-0.053178892 -0.10093138 0.0079272091
-0.052071579 -0.10088869 0.0084986687
-0.051214471 -0.10133927 0.0087386668
-0.049340229 -0.099753074 0.0098387301
-0.048405349 -0.10003772 0.010451227
-0.048059162 -0.1015796 0.010528833
-0.045787655 -0.099029116 0.011274606
-0.045163278 -0.1000044 0.011359185
-0.04441854 -0.10075425 0.011541843
-0.042960055 -0.099882133 0.011739761
-0.041808154 -0.099696375 0.012141556
-0.040633008 -0.099443935 0.012570113
-0.039710324 -0.099812433 0.013202697
-0.0380213 -0.098221697 0.013622969
-0.03733534 -0.09920533 0.01324442
-0.036559734 -0.10000163 0.013111651
-0.035442606 -0.099883713 0.01287517
-0.034149691 -0.099247545 0.012641847
-0.032967489 -0.098902471 0.012671351
-0.032208297 -0.09984573 0.012377381
-0.030897859 -0.09908624 0.012274921
-0.030101232 -0.099979095 0.011951268
-0.028990898 -0.099857539 0.011278689
-0.027987795 -0.1001102 0.0085998476
-0.027580835 -0.1026007 0.0071829855
-0.026239527 -0.10167817 0.0065920055
-0.02529428 -0.10227687 0.0063863099
-0.024205573 -0.10232356 0.0065740049
-0.02313317 -0.1024469 0.0069568753
-0.021627316 -0.10056703 0.0075488091
-0.020671193 -0.10118005 0.0091421008
-0.019427309 -0.10037444 0.010632098
-0.018210704 -0.099623255 0.011631042
-0.016886681 -0.098153837 0.011601239
-0.015893256 -0.09853819 0.01221174
-0.014927221 -0.09915939 0.012594998
-0.014209365 -0.10165161 0.01278311
-0.012887917 -0.099881358 0.01299578
-0.011984527 -0.10132374 0.012462914
-0.011068481 -0.10293688 0.01241678
-0.0096404878 -0.099618383 0.012465447
-0.0086628627 -0.10070578 0.012215525
-0.0075221467 -0.099937089 0.011836976
-0.0063245189 -0.098030046 0.011667669
-0.0054006618 -0.10045231 0.011446625
-0.0043384619 -0.10086924 0.011452913
-0.003302732 -0.10238469 0.011160016
-0.0021729902 -0.10104404 0.010912567
-0.0010615605 -0.098725125 0.01070565
0 -0.098852448 0.010744125
0.0010949977 -0.10183479 0.010549963
0.0021424633 -0.099624544 0.010572463
0.003230395 -0.10014225 0.010397553
0.0043403623 -0.10091342 0.010672182
0.0053757196 -0.099988386 0.010722756
0.0064168037 -0.09946046 0.010736972
0.0075358646 -0.10011934 0.011031479
0.0087018162 -0.10115861 0.011599481
0.0097083561 -0.10031969 0.011302173
0.010703925 -0.099546507 0.011522174
0.011682808 -0.098772839 0.01159668
0.01295132 -0.10037273 0.011290044
0.01379496 -0.098687023 0.011791646
0.015089265 -0.10023583 0.01190266
0.016235122 -0.10065777 0.011890352
0.017148755 -0.099677138 0.012358725
0.018572858 -0.10160446 0.01267609
0.019638777 -0.10146702 0.012957424
0.020052342 -0.098150939 0.012692273
0.021235798 -0.098746464 0.012715995
0.022991173 -0.10181805 0.012795895
0.0231396 -0.097817399 0.012873471
0.024819653 -0.10035773 0.01313743
0.025863864 -0.10022248 0.013177991
0.026767192 -0.099573955 0.013519675
0.028169643 -0.10076065 0.013492912
0.029142909 -0.10038113 0.014130533
0.029694749 -0.09862899 0.014293581
0.031121209 -0.099802494 0.01425299
0.03196485 -0.099091031 0.014617354
0.032838974 -0.098516926 0.014959812
0.034394123 -0.099957921 0.015342146
0.035307806 -0.099503823 0.015331805
0.036497347 -0.099830985 0.015274495
0.037718508 -0.10022347 0.01491639
0.038364217 -0.099107571 0.014681756
0.039360147 -0.098932259 0.014704138
0.040913913 -0.10013142 0.013734728
0.041720532 -0.099487424 0.013374597
0.043286357 -0.10064078 0.013071775
0.043696485 -0.099116422 0.012887657
0.045292318 -0.10029013 0.012611121
0.046140712 -0.099792704 0.012321681
0.047526497 -0.10045374 0.011591077
0.048376124 -0.099977322 0.011165559
0.050184604 -0.10146017 0.010647774
0.050266005 -0.099462517 0.0099260509
0.051479794 -0.0997421 0.008481741
0.054066025 -0.10261512 0.0065906346
0.054988381 -0.10227839 0.0054423213
-0.055142529 -0.099472798 0.0062731504
-0.05382067 -0.099030033 0.0071104467
-0.053265497 -0.10000869 0.0074534714
-0.052363247 -0.1003629 0.0079892576
-0.050617889 -0.099081822 0.0082651377
-0.050165627 -0.10033125 0.0087903738
-0.048774511 -0.099716775 0.009169668
-0.047183126 -0.098655626 0.0095758736
-0.046625737 -0.099757396 0.010347992
-0.045073599 -0.09873265 0.010701656
-0.043919031 -0.098550014 0.010959834
-0.043314625 -0.099623635 0.011402965
-0.041791677 -0.098585501 0.011486262
-0.040785536 -0.09874393 0.012176126
-0.039872095 -0.099141426 0.01254493
-0.038459707 -0.098285921 0.013078958
-0.037457231 -0.098459005 0.012854815
-0.036863573 -0.099748492 0.012846678
-0.035250831 -0.098275058 0.012637228
-0.03429345 -0.098593675 0.012515396
-0.033216935 -0.098579295 0.012483805
-0.03204453 -0.098269895 0.01216194
-0.031110704 -0.098696031 0.011906326
-0.030320199 -0.099623516 0.01148957
-0.029009946 -0.098848708 0.0096675158
-0.02831457 -0.10019002 0.0075239539
-0.027566262 -0.10144384 0.0065910518
-0.026447514 -0.10138214 0.0060905814
-0.025314942 -0.10125977 0.0060618222
-0.024442056 -0.10221224 0.0060905814
-0.022980081 -0.10067464 0.006364584
-0.021985786 -0.10113462 0.0079743266
-0.02026972 -0.098148122 0.0093347728
-0.019196449 -0.098115183 0.010253817
-0.018183338 -0.098403946 0.011190742
-0.016862685 -0.096960433 0.011562437
-0.015770134 -0.096723489 0.011751086
-0.015203964 -0.099911764 0.012354225
-0.013872016 -0.098171197 0.012517184
-0.012882155 -0.098763198 0.012722731
-0.011753906 -0.098305404 0.01229471
-0.010823263 -0.099574029 0.012152225
-0.0097281188 -0.099443004 0.01248318
-0.0087008867 -0.1000602 0.012221932
-0.0075508128 -0.09923926 0.01189661
-0.0064328033 -0.098636322 0.011840761
-0.0053973873 -0.099311933 0.01176852
-0.0043154107 -0.099254444 0.011514902
-0.0031943757 -0.09796086 0.011440158
-0.0021611098 -0.099411055 0.011098713
-0.0010761077 -0.099001907 0.010740042
0 -0.10033616 0.010882735
0.0010844271 -0.09976729 0.010721564
0.0021808383 -0.10031857 0.010536432
0.0032642565 -0.10010387 0.010139585
0.0042966334 -0.098822571 0.010553539
0.0054273941 -0.099864058 0.01055944
0.0065140869 -0.09988267 0.01055944
0.0074643041 -0.098102286 0.010800183
0.0085597225 -0.098436803 0.011084259
0.0097484365 -0.099650696 0.01116246
0.010706827 -0.098502807 0.011317372
0.011980647 -0.10020178 0.011538029
0.012951296 -0.099293277 0.011317372
0.013905989 -0.09841162 0.011566579
0.015114167 -0.099321671 0.011830807
0.016047163 -0.098422602 0.012325853
0.017118251 -0.098429948 0.01291889
0.018251972 -0.098775379 0.013500541
0.019283006 -0.098557591 0.013695538
0.020429876 -0.098923609 0.013599157
0.02174481 -0.10002613 0.013693064
0.022170002 -0.097125717 0.013621777
0.023614397 -0.09875112 0.013262898
0.024659928 -0.098639712 0.013580441
0.026075915 -0.099957675 0.013458341
0.026777383 -0.098540768 0.013575047
0.027873576 -0.098629579 0.013492912
0.029120414 -0.099225111 0.014223844
0.030074518 -0.098816276 0.01425299
0.030992093 -0.098319739 0.014251649
0.031904072 -0.097839154 0.014316469
0.033145297 -0.098366693 0.014388502
0.034107659 -0.09805952 0.014623016
0.035125732 -0.097926289 0.014422208
0.036946125 -0.099971876 0.014422208
0.037397131 -0.098301031 0.013987511
0.039286569 -0.10039901 0.013784051
0.040507142 -0.10072046 0.01364252
0.040704589 -0.09854795 0.013265908
0.042299252 -0.099782854 0.01270619
0.041930657 -0.096440516 0.012477726
0.043792963 -0.098267131 0.012509346
0.044783104 -0.098096326 0.012244046
0.046465635 -0.099414855 0.011944205
0.046574783 -0.097383641 0.011011451
0.048782483 -0.09973307 0.010441691
0.049339812 -0.098679624 0.010091096
0.050431978 -0.098717913 0.0091479123
0.051963788 -0.09959726 0.007378608
0.053305972 -0.10008469 0.0054981709
-0.055271346 -0.098621421 0.0052947998
-0.054419033 -0.099042647 0.0066557825
-0.053360581 -0.099098228 0.0066866577
-0.051540956 -0.097713068 0.0076792836
-0.050542329 -0.097858548 0.0078680813
-0.050056662 -0.099025138 0.0082732141
-0.04895496 -0.098997809 0.0088332295
-0.04742698 -0.098087624 0.0087778568
-0.046610128 -0.09864004 0.0094432533
-0.04508543 -0.097685099 0.0099717677
-0.043925688 -0.097493596 0.010376751
-0.043008931 -0.097845331 0.010848492
-0.04209812 -0.098228954 0.010956287
-0.041507177 -0.099398769 0.011649609
-0.039705172 -0.097653262 0.012239933
-0.038499642 -0.097318552 0.013069808
-0.037238996 -0.09682139 0.012544572
-0.036395941 -0.097412668 0.012634695
-0.035406776 -0.097636871 0.012385577
-0.034365091 -0.097725734 0.012370914
-0.033003315 -0.096880704 0.012339324
-0.031948004 -0.096908949 0.012069732
-0.031256527 -0.098080821 0.011950135
-0.03005093 -0.097665526 0.011396229
-0.029033657 -0.097854182 0.0092978179
-0.02844098 -0.099543437 0.0071043372
-0.027048558 -0.098456748 0.0065887868
-0.026678365 -0.10115547 0.0065107942
-0.025706861 -0.10170976 0.0063624084
-0.024463139 -0.10118844 0.006813556
-0.023339193 -0.10113651 0.0073454678
-0.02150837 -0.097863093 0.0092184246
-0.020528976 -0.098322995 0.0100739
-0.01935441 -0.097847305 0.01102528
-0.018114433 -0.096965492 0.011777848
-0.016984954 -0.096601933 0.011770189
-0.016092418 -0.097627334 0.011978745
-0.014857826 -0.096575871 0.01248011
-0.013994657 -0.09796261 0.012531251
-0.013123784 -0.099522039 0.012722731
-0.011993038 -0.099215142 0.01229471
-0.010830926 -0.098561436 0.012086302
-0.0096167792 -0.097236328 0.012407988
-0.0085182441 -0.096895032 0.012287199
-0.0074791801 -0.097229339 0.011860043
-0.0064184638 -0.097346708 0.011890143
-0.0053545423 -0.097452678 0.011704713
-0.0043075304 -0.097996317 0.011456013
-0.0032321415 -0.098041631 0.011440158
-0.0021471828 -0.097696826 0.011236876
-0.0010847193 -0.098709457 0.010819733
0 -0.097183987 0.010607839
0.0010885245 -0.09905573 0.010486871
0.0021995038 -0.10007743 0.010171235
0.0032100244 -0.097370744 0.010102838
0.0043574711 -0.099132471 0.010247499
0.0053931866 -0.098155998 0.010247499
0.0064398656 -0.0976713 0.010230392
0.0074155116 -0.096401654 0.010626554
0.0087179802 -0.099167027 0.010984391
0.0095787952 -0.096852273 0.010802627
0.010946832 -0.099616177 0.011079252
0.011927007 -0.098668881 0.011541873
0.012951197 -0.098213248 0.011469156
0.013993885 -0.097957201 0.011987388
0.015005074 -0.09753298 0.012600958
0.015941795 -0.096713558 0.012824982
0.017131345 -0.097434528 0.013402969
0.018063938 -0.0966952 0.013777882
0.019141642 -0.096771643 0.014288694
0.020542517 -0.098387852 0.01403439
0.021152055 -0.096241854 0.014131963
0.022288013 -0.096581392 0.013771236
0.023556663 -0.097438924 0.01362595
0.024192687 -0.09571889 0.013658941
0.025906278 -0.09822797 0.013400793
0.026693963 -0.097166024 0.013567716
0.02716665 -0.095083281 0.013512403
0.029216269 -0.098469652 0.013845444
0.030132314 -0.097930022 0.013897091
0.030756023 -0.096510276 0.013956219
0.032163259 -0.097561888 0.014110297
0.032870986 -0.096492253 0.013956219
0.034184892 -0.097213291 0.013719887
0.035749029 -0.098580666 0.01370737
0.036210597 -0.096916601 0.013701022
0.037506472 -0.097516827 0.013201505
0.039361063 -0.099496037 0.012817919
0.039819103 -0.097933464 0.012801558
0.041293453 -0.098886959 0.012148649
0.042349733 -0.098816052 0.011814207
0.042831402 -0.09744145 0.011638016
0.043321703 -0.096153051 0.011399776
0.044789813 -0.097044595 0.010986567
0.046195667 -0.097762927 0.011041433
0.047835361 -0.098932236 0.010595858
0.048585277 -0.098250225 0.010333925
0.049885429 -0.098686397 0.0098292232
0.051461279 -0.099637799 0.0080710948
0.050803967 -0.096315861 0.0065883994
-0.05488487 -0.098792769 0.0052023828
-0.053805679 -0.098826766 0.0060395002
-0.052158229 -0.097796679 0.0068799257
-0.051419169 -0.098462246 0.0072012246
-0.049427893 -0.096706748 0.0078824461
-0.048536606 -0.097073212 0.0083536804
-0.047800958 -0.097774692 0.0082345009
-0.046352554 -0.097016975 0.008913368
-0.045365453 -0.097211689 0.0094905496
-0.044611644 -0.097927995 0.0098232329
-0.043308951 -0.097445145 0.010219306
-0.042439308 -0.097936869 0.010388762
-0.040660474 -0.096301123 0.010670483
-0.040053003 -0.097426228 0.011424452
-0.038537271 -0.096343189 0.011762381
-0.037617788 -0.096731462 0.01183781
-0.036038462 -0.09539593 0.011950135
-0.035173282 -0.095927142 0.011829674
-0.034138653 -0.096014969 0.011837393
-0.033182796 -0.096337155 0.011803865
-0.032280151 -0.096840456 0.011368006
-0.031202709 -0.096835993 0.011278689
-0.030140147 -0.096879043 0.0093164444
-0.02975441 -0.099181361 0.0077601969
-0.028187638 -0.097572602 0.0063991845
-0.027558869 -0.099211931 0.0059182048
-0.026487434 -0.099327885 0.0059733093
-0.025544431 -0.099956468 0.0060498416
-0.024544226 -0.1004082 0.0071686804
-0.023205748 -0.099453211 0.0081186295
-0.021523485 -0.096855693 0.009994477
-0.020416934 -0.0967118 0.010829836
-0.019073833 -0.095369175 0.011631042
-0.018226219 -0.096491754 0.011443436
-0.017042588 -0.095864564 0.011601806
-0.015975334 -0.095852003 0.012220055
-0.015130502 -0.097267523 0.012341172
-0.013968172 -0.09670274 0.012430757
-0.012932474 -0.096993558 0.012354225
-0.011892211 -0.097299911 0.01205045
-0.010859946 -0.097739525 0.011949956
-0.009552368 -0.095523685 0.012128472
-0.0086679514 -0.097514458 0.011915058
-0.0074619697 -0.095939614 0.011800796
-0.006416921 -0.09625382 0.011553407
-0.0053755664 -0.096760206 0.011538953
-0.0042905752 -0.096537948 0.011357456
-0.0031983675 -0.095951036 0.011075944
-0.0021764168 -0.097938761 0.011047065
-0.0010879801 -0.097918212 0.010866851
0 -0.097211778 0.010553539
0.0010682895 -0.096146062 0.01043731
0.002146316 -0.096584223 0.010190398
0.0032622565 -0.097867697 0.010132372
0.0043476815 -0.097822838 0.010462254
0.0052946685 -0.095304042 0.010577679
0.0064326241 -0.09648937 0.0099515617
0.0075535681 -0.097117312 0.010929197
0.0086417813 -0.097220048 0.010984391
0.0098671047 -0.098671049 0.010947138
0.01087184 -0.097846568 0.011715591
0.011800631 -0.096550621 0.012108743
0.01289751 -0.096731335 0.012455463
0.014079479 -0.097473316 0.01280275
0.014749286 -0.094816841 0.013196826
0.015903994 -0.095423967 0.013380408
0.016982671 -0.09552753 0.013904333
0.018242385 -0.096577339 0.014660537
0.019330576 -0.096652888 0.014613986
0.020281447 -0.096070014 0.014566183
0.021175297 -0.095288843 0.014568061
0.022606891 -0.09688668 0.014210641
0.023270033 -0.095195599 0.013671249
0.024290364 -0.095049247 0.013663113
0.026038472 -0.097644269 0.013547271
0.026745388 -0.096283399 0.013611615
0.027883548 -0.096519984 0.013298869
0.028717453 -0.095724843 0.013804257
0.030043762 -0.09656924 0.013585538
0.031168293 -0.096729182 0.013691157
0.031952649 -0.095857956 0.01321277
0.033263709 -0.096572064 0.013276339
0.034493554 -0.097013123 0.012715071
0.035093054 -0.09570834 0.012929171
0.036270265 -0.09600953 0.013040483
0.037825245 -0.097264916 0.01248008
0.038511671 -0.096279189 0.012113035
0.040169187 -0.097708829 0.011852026
0.041626114 -0.098588169 0.011473626
0.042402353 -0.097851582 0.010556728
0.043323163 -0.097477123 0.010224849
0.043383621 -0.095232338 0.010648191
0.04484101 -0.09608788 0.010647774
0.046769779 -0.097890235 0.01036346
0.047712468 -0.097593695 0.0099675655
0.048406217 -0.096812434 0.0098292232
0.050425913 -0.098659396 0.0089177787
0.05083584 -0.097345233 0.0068392456
0.051968209 -0.097440399 0.0050261319
-0.052364409 -0.097092345 0.0057808161
-0.051401746 -0.097335219 0.0061770678
-0.049946375 -0.096635371 0.0070817173
-0.049334258 -0.097572193 0.0073882043
-0.048086531 -0.097265936 0.0078343749
-0.046654429 -0.096563816 0.0081699789
-0.045837 -0.097130783 0.0088959336
-0.043850869 -0.095188469 0.0093497038
-0.043146987 -0.096002042 0.0097395182
-0.042184416 -0.096266992 0.0097752213
-0.041377857 -0.096911289 0.009953022
-0.040058818 -0.096357688 0.010388762
-0.038835134 -0.096009083 0.01076591
-0.037726942 -0.095934227 0.01096499
-0.036729112 -0.096143849 0.01116401
-0.035344616 -0.095323354 0.011353523
-0.034414977 -0.095716648 0.011244625
-0.033227976 -0.095396437 0.01116544
-0.032359589 -0.096000105 0.010072351
-0.031248525 -0.09590064 0.0090925694
-0.03043879 -0.096751869 0.0075265467
-0.029006898 -0.095615327 0.0059182048
-0.028360128 -0.097078897 0.0055016279
-0.027527455 -0.09799774 0.0053833723
-0.026458722 -0.098117761 0.0055466294
-0.025722016 -0.099533014 0.005633235
-0.024014631 -0.097150095 0.0070058107
-0.022899769 -0.097051397 0.0078404844
-0.021591997 -0.096084386 0.010435164
-0.020398419 -0.095550485 0.011395901
-0.019215629 -0.095010601 0.012134433
-0.01821064 -0.095338047 0.012112916
-0.016980289 -0.094452843 0.012155354
-0.016260415 -0.096478462 0.01248011
-0.015335928 -0.09749268 0.012621433
-0.013843362 -0.094773784 0.012683153
-0.012870108 -0.0954533 0.012546271
-0.011744739 -0.095025614 0.01233238
-0.010589043 -0.094242483 0.012003183
-0.0096522477 -0.095450006 0.011951149
-0.0086035384 -0.09571436 0.011751086
-0.0074767759 -0.095061861 0.011615127
-0.0064528342 -0.095717035 0.011449814
-0.0053754547 -0.09568309 0.01126045
-0.0043004793 -0.095685661 0.011174023
-0.0032064999 -0.095126159 0.011044264
-0.0021613871 -0.096181728 0.010896027
-0.0010867148 -0.096717611 0.010796815
0 -0.096251734 0.010618001
0.0010806436 -0.09617728 0.010477275
0.0021784096 -0.096939228 0.010173291
0.0032439965 -0.096238561 0.010102838
0.0043085739 -0.095865764 0.010156691
0.0053766449 -0.09570428 0.0099515617
0.0065038968 -0.096474469 0.009626925
0.0074409498 -0.094606362 0.0098035634
0.008739695 -0.097229101 0.010102838
0.009784529 -0.09675812 0.010456145
0.010819317 -0.096291922 0.010635048
0.011979045 -0.096921362 0.011455059
0.013114274 -0.097264193 0.011543095
0.014080788 -0.096399233 0.012119442
0.014933688 -0.094935581 0.012545437
0.015632303 -0.092751667 0.013174951
0.017014544 -0.094643407 0.014124036
0.018325889 -0.095941424 0.014835149
0.018952327 -0.093708724 0.015179396
0.020169096 -0.094476283 0.015308589
0.021445751 -0.095433593 0.015312195
0.022159537 -0.093914226 0.014795452
0.023460224 -0.094907269 0.014219195
0.024714677 -0.095635042 0.014192522
0.026005242 -0.096436098 0.014056146
0.027260114 -0.097045995 0.013670027
0.027750082 -0.094990663 0.013679624
0.028634872 -0.094389014 0.013930053
0.029718848 -0.094463475 0.013670146
0.031274348 -0.095979899 0.013689786
0.032144107 -0.095360845 0.013509542
0.03292992 -0.094540723 0.013091028
0.034090273 -0.094813563 0.013049513
0.035103802 -0.094673894 0.013049513
0.036222909 -0.094818778 0.012564838
0.037971869 -0.096557036 0.012089223
0.038788173 -0.095892988 0.011921018
0.039986439 -0.096183591 0.011731356
0.041035537 -0.096109547 0.010944605
0.04214282 -0.096172072 0.010522097
0.043208595 -0.096139126 0.010571748
0.044494342 -0.096585274 0.010117173
0.04525011 -0.095887132 0.010055453
0.046107169 -0.095431119 0.0097839534
0.047503255 -0.09608613 0.0092081428
0.049038731 -0.096987702 0.0088534653
0.050300084 -0.097319722 0.0069515407
0.051218316 -0.096987873 0.0050905347
-0.051467434 -0.096364558 0.0053216517
-0.049980555 -0.09561497 0.0061115324
-0.048875161 -0.095578089 0.0068410933
-0.047942258 -0.095884517 0.007196635
-0.046327323 -0.094809406 0.0075719059
-0.045221478 -0.094749756 0.0079721808
-0.044653632 -0.095841937 0.0076645017
-0.043551221 -0.095812686 0.0086923242
-0.042296637 -0.095438562 0.0090836585
-0.040664926 -0.094171405 0.0092830956
-0.039816439 -0.094698548 0.0094043016
-0.039333839 -0.096149392 0.0094489455
-0.037707239 -0.094806775 0.0096278489
-0.036603071 -0.094737358 0.010079384
-0.035280865 -0.094082311 0.010002017
-0.034795891 -0.095688693 0.009939909
-0.033236198 -0.094347917 0.0092808306
-0.032517325 -0.095384151 0.008482784
-0.031335555 -0.095087193 0.0071709156
-0.030416507 -0.095594734 0.0052190423
-0.024334697 -0.097338788 0.0062381923
-0.02282564 -0.0956503 0.0081186295
-0.021560531 -0.094866335 0.010367095
-0.020076858 -0.092987552 0.011466146
-0.019239666 -0.094060585 0.011884153
-0.018302159 -0.094740584 0.012224138
-0.017200597 -0.09460327 0.012288064
-0.016210064 -0.095099047 0.01269421
-0.01496572 -0.094070241 0.01279074
-0.014030172 -0.094973475 0.01270923
-0.012882605 -0.094472438 0.012320101
-0.011751583 -0.094012663 0.012069523
-0.010750604 -0.094605319 0.011915058
-0.0096450122 -0.094306789 0.011921078
-0.0084804203 -0.093284622 0.011839956
-0.0075736651 -0.095211789 0.011563629
-0.0064065764 -0.093963116 0.011309505
-0.0053735264 -0.094574064 0.011008441
-0.0043301396 -0.095263071 0.010852039
-0.0031887181 -0.093535729 0.011017054
-0.0021603834 -0.095056862 0.010660857
-0.0010834171 -0.095340699 0.01055491
0 -0.094926976 0.0104945
0.0010965184 -0.096493609 0.010477275
0.0022013541 -0.096859582 0.010319322
0.0032803654 -0.096224055 0.0099515617
0.0044006449 -0.096814193 0.0099515617
0.0054860702 -0.096554838 0.0098035634
0.0063901418 -0.093722083 0.0094251633
0.0075136456 -0.094457261 0.0095159113
0.0086838091 -0.095521905 0.0097186863
0.0096471561 -0.094327748 0.0097236037
0.010981595 -0.096638039 0.010297686
0.011934936 -0.095479488 0.010629863
0.013086184 -0.095965348 0.011040837
0.014119931 -0.095581077 0.011455059
0.014853233 -0.093363181 0.01204747
0.015934229 -0.093480803 0.012786269
0.016889259 -0.092890926 0.013693452
0.017922845 -0.092777081 0.014915049
0.019237522 -0.094050109 0.015300274
0.020434022 -0.094641782 0.015182376
0.020800369 -0.091521628 0.015145898
0.022062538 -0.092452534 0.015070885
0.023633476 -0.094533905 0.015120119
0.024528012 -0.093846299 0.014768571
0.025857681 -0.094811499 0.014127076
0.02704262 -0.095190018 0.013827503
0.028296221 -0.095771819 0.013591349
0.028781472 -0.093806274 0.013351321
0.029503211 -0.092724383 0.013289899
0.030758455 -0.093336001 0.013268113
0.032440711 -0.095159411 0.012553394
0.033626456 -0.095455743 0.01166299
0.034214534 -0.09408997 0.011889637
0.035590362 -0.094907634 0.011807144
0.03664948 -0.094857477 0.011584818
0.03799383 -0.095527343 0.010451466
0.039182208 -0.095778741 0.010142863
0.039829604 -0.094729863 0.010139436
0.040818147 -0.094526231 0.010078609
0.042446919 -0.095777661 0.0097714961
0.042932447 -0.09445139 0.0095235407
0.044673067 -0.095883645 0.0090894401
0.044748735 -0.093759254 0.0090854764
0.046475034 -0.095111698 0.0089778304
0.048528448 -0.097056895 0.0081275105
0.048811227 -0.095453061 0.007000953
0.05029906 -0.096224286 0.0050472617
-0.049962748 -0.09449476 0.0050246119
-0.049372103 -0.095452726 0.0056149065
-0.047737617 -0.094390288 0.0060395002
-0.046511769 -0.094105206 0.0067817569
-0.046367556 -0.096047081 0.0073167384
-0.044832278 -0.095131904 0.0075522363
-0.043291472 -0.094158955 0.007689327
-0.042730276 -0.095321387 0.0077500343
-0.041060213 -0.09400627 0.0084768534
-0.039889749 -0.093794808 0.0083808601
-0.038623456 -0.093340017 0.0087957084
-0.037803661 -0.093969099 0.0087957084
-0.036743179 -0.094019309 0.0089055896
-0.035877321 -0.094585665 0.0087728798
-0.034276009 -0.093187891 0.0086907744
-0.033570237 -0.094213247 0.0074684322
-0.032880053 -0.09535215 0.0068451762
-0.031332873 -0.093998611 0.0050816834
-0.02439056 -0.096453577 0.0063049197
-0.022807535 -0.094488353 0.0086948872
-0.021508679 -0.093562759 0.010914207
-0.020311225 -0.093004033 0.011861116
-0.019140402 -0.092511944 0.012297958
-0.018029341 -0.092267804 0.012405723
-0.017208608 -0.093571804 0.01266405
-0.016204225 -0.093984507 0.012830734
-0.015043551 -0.093484923 0.01279512
-0.01403749 -0.093943201 0.012756199
-0.012900044 -0.09352532 0.012294263
-0.011949679 -0.094511099 0.011984497
-0.010732982 -0.093376942 0.011944413
-0.0096891811 -0.093662091 0.011793673
-0.0086478321 -0.094045177 0.011716187
-0.0075200684 -0.093463711 0.011696339
-0.0064556748 -0.093607284 0.011442214
-0.0054192268 -0.094294548 0.011158854
-0.0042842594 -0.093182638 0.010885745
-0.0032465078 -0.094148725 0.010896027
-0.0021674691 -0.094284907 0.010752112
-0.0010808248 -0.094031751 0.010743469
0 -0.093736559 0.010591716
0.0010963758 -0.095384687 0.010553539
0.0021566253 -0.093813196 0.010420352
0.0032799328 -0.095118053 0.010349721
0.0043781572 -0.095224917 0.010277301
0.0053956932 -0.093885064 0.010074317
0.0064910632 -0.094120413 0.0094543695
0.0075988853 -0.094443284 0.0095612705
0.0086564105 -0.094138466 0.0096439421
0.0098001575 -0.094734855 0.009801656
0.010846156 -0.094361551 0.0098771751
0.011980472 -0.094754644 0.01074326
0.013183059 -0.09557718 0.011538595
0.013958524 -0.093414731 0.011688471
0.014981027 -0.093096375 0.012345195
0.016044352 -0.093057245 0.012757003
0.017050477 -0.09271197 0.013693452
0.018144714 -0.092858233 0.014566183
0.01920576 -0.092827842 0.015182376
0.020004764 -0.091600761 0.015182376
0.021318242 -0.092734359 0.015179396
0.022148998 -0.091760136 0.015104383
0.023145771 -0.091531001 0.015120119
0.024710437 -0.09346991 0.01462853
0.025658434 -0.093011819 0.014174968
0.02679798 -0.093256965 0.013712257
0.028205803 -0.094380952 0.013611615
0.029242689 -0.094226435 0.013845444
0.03010775 -0.09354908 0.012727499
0.031315636 -0.093946896 0.012216032
0.032421898 -0.094023503 0.011310518
0.033120841 -0.092952035 0.011134416
0.034810144 -0.094640076 0.010953218
0.03504242 -0.092384562 0.01059258
0.036878444 -0.094365425 0.010191411
0.037807815 -0.093979426 0.0097839832
0.039093535 -0.094476044 0.0089366436
0.040052224 -0.094176844 0.0085864365
0.041418668 -0.094826952 0.0087235272
0.041497316 -0.092570938 0.0084467828
0.043011576 -0.093550175 0.00825876
0.044377733 -0.094167382 0.008035332
0.045558501 -0.094371177 0.0078731179
0.047395933 -0.095894098 0.0070946515
0.047617715 -0.094153211 0.0069337785
-0.04698167 -0.09396334 0.0057977736
-0.045992758 -0.094175644 0.0066572428
-0.044687402 -0.09373454 0.0072109699
-0.043923546 -0.094435625 0.0072223246
-0.04239573 -0.093488015 0.0074763298
-0.041277476 -0.093417443 0.0077081621
-0.040208947 -0.093458623 0.0076341629
-0.038948964 -0.09304475 0.0075972378
-0.037918676 -0.093171611 0.0075972378
-0.036818586 -0.093129367 0.0075736344
-0.0358526 -0.093434051 0.0074882805
-0.034436245 -0.092547409 0.0073029101
-0.03398551 -0.094282381 0.0059608519
-0.032500986 -0.093169488 0.0057470202
-0.025612978 -0.095770262 0.0050610304
-0.024610041 -0.096202888 0.0079342127
-0.022569239 -0.092426412 0.0099114478
-0.021594789 -0.092857592 0.011436671
-0.020362427 -0.092166781 0.012021035
-0.018933725 -0.090461135 0.012420356
-0.01834443 -0.092801236 0.012448609
-0.017081194 -0.091811411 0.012668431
-0.016024036 -0.091871135 0.012842685
-0.015214797 -0.093462326 0.012792587
-0.013727155 -0.090810411 0.012725025
-0.012760117 -0.09144751 0.012300134
-0.011824091 -0.092442892 0.012294263
-0.010685484 -0.091895163 0.011994988
-0.0096920393 -0.092612825 0.012065142
-0.0086284569 -0.092755914 0.011984497
-0.0075398078 -0.092631921 0.011848897
-0.0064686653 -0.092717536 0.011575669
-0.0054065278 -0.092992283 0.011180192
-0.0043031634 -0.092518017 0.011060357
-0.0032242211 -0.092427678 0.011052758
-0.0021811076 -0.093787625 0.010998338
-0.0010606378 -0.091214843 0.010940731
0 -0.093301706 0.010664672
0.0010705335 -0.092065878 0.010622442
0.002172285 -0.093408249 0.0104087
0.003267678 -0.093673438 0.010450125
0.0043138932 -0.092748702 0.010450125
0.005416661 -0.093166575 0.010194391
0.0064886934 -0.093004607 0.009626925
0.0074021206 -0.090940341 0.0097186863
0.0086141527 -0.092602141 0.0095202327
0.0097435331 -0.093104869 0.0094192028
0.010887512 -0.093632609 0.0095514655
0.011960437 -0.093508869 0.0098771751
0.013174132 -0.094414614 0.010965288
0.01395101 -0.092291296 0.011406153
0.015136391 -0.09298069 0.011890382
0.016208118 -0.092926539 0.012585789
0.01705832 -0.091688469 0.013619959
0.018319115 -0.092673168 0.014915049
0.019139549 -0.091444515 0.015396357
0.020027524 -0.090650894 0.015396357
0.021444742 -0.092212386 0.015474409
0.022060392 -0.090342559 0.015334696
0.023481164 -0.091790006 0.015402704
0.024460325 -0.09146034 0.015345275
0.025987288 -0.093121119 0.014352232
0.026671942 -0.091751479 0.013804048
0.028167721 -0.093170159 0.013351291
0.029016819 -0.092423938 0.013400167
0.030333055 -0.093165815 0.012135267
0.0310403 -0.092050537 0.011195511
0.032005142 -0.091748066 0.010464728
0.033333186 -0.092472702 0.010005146
0.034337349 -0.092281625 0.010112524
0.035901621 -0.093561806 0.010047704
0.036770109 -0.093006745 0.0091979504
0.037650503 -0.092512667 0.0088310242
0.039464179 -0.094275542 0.0081038177
0.040301207 -0.093673073 0.0082802474
0.040857933 -0.092467956 0.00825876
0.04231241 -0.093304291 0.0080616176
0.043370586 -0.093246765 0.0074561238
0.044079408 -0.092459239 0.0070628822
0.046067476 -0.094328634 0.0055967271
-0.045452844 -0.091987893 0.0051755309
-0.044517793 -0.092292979 0.0057021677
-0.043499392 -0.092436209 0.0065213442
-0.042201854 -0.091978408 0.0067460835
-0.041120116 -0.091979206 0.0069851279
-0.040427137 -0.092873156 0.0067327917
-0.039274585 -0.092731662 0.0069713891
-0.03842878 -0.093327045 0.0069700778
-0.037174772 -0.092936926 0.0069700778
-0.035904158 -0.092480406 0.0064907372
-0.034996033 -0.092958212 0.0058586895
-0.033375937 -0.091514662 0.005243808
-0.025702728 -0.094988339 0.0050809383
-0.024297638 -0.093877241 0.0079347491
-0.022698326 -0.091874175 0.010359257
-0.021516439 -0.091444872 0.011975527
-0.020324137 -0.090923764 0.01223585
-0.019367041 -0.091455482 0.012798816
-0.018146111 -0.090730555 0.012816906
-0.017172873 -0.091230884 0.012722075
-0.016152019 -0.09152811 0.012941062
-0.015079027 -0.091551237 0.012792587
-0.013953485 -0.091234319 0.012494147
-0.01291401 -0.091474243 0.012298644
-0.011766513 -0.090923056 0.012143075
-0.010654571 -0.090563856 0.011953354
-0.0097715873 -0.09228722 0.011933565
-0.0085551059 -0.090898 0.011918336
-0.0075829001 -0.092078075 0.011590838
-0.00642116 -0.090966441 0.011374265
-0.005366649 -0.091233037 0.010991842
-0.0043046474 -0.091473758 0.010741621
-0.0032142387 -0.091070101 0.010949463
-0.0021555023 -0.091608845 0.01078245
-0.0010814588 -0.091923989 0.010896027
0 -0.091381803 0.010660857
0.0010813394 -0.091913857 0.010807693
0.0021804329 -0.092668399 0.010646492
0.0032122706 -0.091014333 0.010835618
0.0042843693 -0.091042846 0.010974705
0.0053735077 -0.091349632 0.010951698
0.006378579 -0.090363204 0.010507226
0.007445978 -0.090415448 0.0097568631
0.0085784812 -0.091146365 0.0097560883
0.0096889408 -0.091506667 0.009598881
0.010873995 -0.09242896 0.0095104277
0.011934409 -0.092220433 0.0096627176
0.013161545 -0.09322761 0.010457516
0.014231701 -0.093053438 0.011298686
0.015051488 -0.091384031 0.01175639
0.016103741 -0.091254532 0.012167156
0.017080376 -0.090739504 0.012719005
0.018097484 -0.090487421 0.014230907
0.019018462 -0.08980941 0.014990449
0.020116979 -0.089997008 0.014990449
0.021167343 -0.089961216 0.015100956
0.022185467 -0.089798324 0.015120119
0.023605816 -0.091204293 0.014752805
0.024044091 -0.088858597 0.014731616
0.025684722 -0.090966724 0.014101833
0.026837334 -0.091246933 0.013616174
0.028030397 -0.091637842 0.0128012
0.029377066 -0.092483357 0.013036191
0.030206868 -0.091699421 0.011067152
0.030938763 -0.090682581 0.010181665
0.032389022 -0.091768898 0.0097780526
0.033787075 -0.092641979 0.009075135
0.034908503 -0.092725717 0.0091484785
0.035445083 -0.091297939 0.0084591806
0.036629125 -0.091572814 0.0079951584
0.037956636 -0.092180409 0.008166194
0.039015777 -0.092120588 0.0075566173
0.039512835 -0.090772726 0.0071055293
0.041063696 -0.091853008 0.0069433153
0.042414889 -0.092442714 0.0069651604
0.043404415 -0.092234388 0.0063371062
-0.043561567 -0.091479294 0.0051949024
-0.042723421 -0.092019685 0.0055091679
-0.041161053 -0.090987593 0.0057456493
-0.040218726 -0.091307372 0.0056856275
-0.039114531 -0.091267243 0.0059836805
-0.038167141 -0.091601148 0.0056856275
-0.037153006 -0.091789782 0.00561288
-0.036124371 -0.09195295 0.0054740012
-0.025828052 -0.094328538 0.0056268871
-0.024016239 -0.091698371 0.0079142749
-0.022533312 -0.09013325 0.010792583
-0.021415241 -0.08994402 0.011879325
-0.020259643 -0.089568943 0.012189567
-0.019171856 -0.089468673 0.012905151
-0.018186692 -0.089863658 0.012689829
-0.017402884 -0.091365144 0.012679338
-0.016014371 -0.089680478 0.013289779
-0.015186838 -0.091121025 0.012947828
-0.014018686 -0.090582281 0.012500077
-0.012818179 -0.089727253 0.012135684
-0.01188729 -0.090775669 0.012029529
-0.010884859 -0.091432817 0.011994988
-0.0095950421 -0.089553736 0.012268394
-0.0085508386 -0.08978381 0.011998922
-0.0075077969 -0.090093568 0.011716187
-0.0064412327 -0.09017726 0.011436224
-0.0053830864 -0.090435855 0.011008441
-0.0043357043 -0.09104979 0.010831326
-0.0032097776 -0.089873776 0.011111796
-0.0021377355 -0.08978489 0.011254162
-0.001069832 -0.089865893 0.011284143
0 -0.090613045 0.011068374
0.001071861 -0.090036325 0.011162341
0.002161724 -0.090792418 0.011024505
0.0032335869 -0.090540439 0.011249781
0.0043550381 -0.091455795 0.011272252
0.0053747329 -0.090295516 0.011351198
0.006515698 -0.091219775 0.011011362
0.0076122112 -0.09134654 0.01007995
0.0086768465 -0.091106884 0.00999704
0.0096852481 -0.090395652 0.0096131861
0.010811482 -0.090816446 0.0095514655
0.011856449 -0.090540156 0.0096216798
0.01325051 -0.092753574 0.010884196
0.014089244 -0.091038197 0.01128304
0.014861208 -0.089167252 0.011394769
0.016132446 -0.090341702 0.011713654
0.016986916 -0.089181311 0.012141019
0.018079253 -0.089332774 0.013079941
0.019172929 -0.08947368 0.014192313
0.0199697 -0.088287093 0.014445186
0.021173254 -0.088927671 0.01454398
0.022418175 -0.0896727 0.014527649
0.023245413 -0.088755213 0.014300704
0.024423461 -0.089198723 0.014148891
0.025621889 -0.089676611 0.013351291
0.027129309 -0.091154478 0.012975454
0.028366579 -0.091645874 0.011632502
0.029229481 -0.090936162 0.011259556
0.029890345 -0.089671038 0.010005683
0.031608559 -0.091555826 0.0093688369
0.032599926 -0.091279797 0.008510083
0.033171367 -0.0898837 0.0077387989
0.035148788 -0.092265569 0.007083565
0.0356474 -0.09073884 0.0067821741
0.036778945 -0.090865634 0.0065954328
0.037902858 -0.090966865 0.0066148043
0.038596656 -0.090058871 0.0062448978
0.039457887 -0.089580067 0.0063011944
0.041800033 -0.092400074 0.0061278641
-0.042663474 -0.09079662 0.0051079094
-0.025369303 -0.091550089 0.005292058
-0.023865582 -0.090038337 0.0081789494
-0.022330441 -0.088258408 0.011074662
-0.021385377 -0.088749327 0.011965603
-0.020270888 -0.088551775 0.012284935
-0.019190017 -0.088487312 0.012803733
-0.018300226 -0.08934816 0.012722075
-0.017011628 -0.088247821 0.012866676
-0.016165564 -0.08944945 0.013201416
-0.015266266 -0.09050715 0.012566
-0.01383408 -0.088325277 0.012146354
-0.012866121 -0.088990673 0.011870384
-0.01195166 -0.09018071 0.011861563
-0.010809725 -0.089720719 0.011861116
-0.0096841799 -0.08930967 0.011645734
-0.008669246 -0.089943431 0.011568934
-0.0075391303 -0.089392543 0.011174023
-0.0064759743 -0.089584313 0.010845304
-0.0054114494 -0.089830071 0.01065281
-0.0043161423 -0.08955995 0.010614276
-0.0032531146 -0.090002842 0.01053831
-0.0021327152 -0.088507682 0.011137784
-0.0010589638 -0.087894 0.011160076
0 -0.090035006 0.010987848
0.0010612924 -0.088087268 0.011149287
0.0021330733 -0.088522539 0.011002302
0.0032547265 -0.090047441 0.011351198
0.0042979931 -0.08918336 0.011595577
0.0053251837 -0.088398054 0.011645734
0.0065228962 -0.090233408 0.011448026
0.0075746491 -0.089813694 0.011271566
0.0086764088 -0.090017743 0.011234164
0.0096250875 -0.088764705 0.011006832
0.010818081 -0.089790076 0.010507226
0.011945751 -0.090136133 0.010783762
0.013210583 -0.091373198 0.010865986
0.014175412 -0.090504557 0.01128304
0.015191918 -0.090066373 0.011283964
0.016243424 -0.08988028 0.01142934
0.017234989 -0.089406505 0.011721998
0.018295154 -0.089323409 0.012388915
0.019076211 -0.087962538 0.013054967
0.020097515 -0.087794408 0.013731956
0.021298315 -0.088388011 0.013857305
0.022064989 -0.08720924 0.013687879
0.023464236 -0.08852417 0.013451844
0.024500078 -0.088413328 0.012975276
0.025628939 -0.088633418 0.01273036
0.026451558 -0.087819174 0.011632502
0.028537177 -0.091099456 0.010301888
0.029445099 -0.090516418 0.0098473132
0.030232113 -0.089616627 0.0092185736
0.031683013 -0.090678968 0.0084818006
0.03244466 -0.089763559 0.007083565
0.034034953 -0.091125846 0.0067053139
0.034086306 -0.088411354 0.0060658455
0.036275864 -0.091239303 0.0059419572
0.037656967 -0.091927297 0.0058511198
0.037709314 -0.089424953 0.0058315396
-0.023882603 -0.089016981 0.0081853569
-0.022614557 -0.08830446 0.010589212
-0.021472298 -0.088036433 0.011694431
-0.020258218 -0.087430209 0.011899561
-0.019218827 -0.087552443 0.012585253
-0.018409709 -0.088799767 0.012635499
-0.017179515 -0.088045023 0.012866676
-0.016118035 -0.08811193 0.01304251
-0.015087432 -0.08836925 0.012635618
-0.013937158 -0.087911308 0.012234539
-0.01295631 -0.088534787 0.011857957
-0.011778912 -0.087806433 0.011694849
-0.010721913 -0.08791969 0.011699528
-0.0097975377 -0.089266457 0.011669397
-0.0087179663 -0.089359157 0.011648506
-0.0075875926 -0.088883229 0.011381894
-0.0065239724 -0.089160964 0.011039138
-0.0053744065 -0.088140272 0.011114508
-0.0043593715 -0.089367121 0.010664254
-0.0032138675 -0.08784572 0.010924459
-0.0021588579 -0.088513173 0.011191607
-0.001080932 -0.088636421 0.01120466
0 -0.08787258 0.011149287
0.001071733 -0.087882109 0.010960281
0.0021692512 -0.088939302 0.011060625
0.0032063415 -0.087640002 0.011299938
0.004278616 -0.087711632 0.011393219
0.005439511 -0.089207985 0.011469841
0.0064049964 -0.087534957 0.011440694
0.0076544839 -0.089666814 0.011271566
0.0085990001 -0.088139758 0.011352599
0.0096325343 -0.087763101 0.011006832
0.01074341 -0.08809597 0.0099145472
0.01174607 -0.087561622 0.0096717775
0.01320135 -0.090209231 0.010783762
0.014222777 -0.08971291 0.011043608
0.015213634 -0.08910843 0.011172026
0.016033867 -0.087651819 0.011108577
0.017322766 -0.088779181 0.011254579
0.018226067 -0.087913975 0.011632383
0.019306907 -0.087953702 0.012362629
0.020406734 -0.088071167 0.012647241
0.0212253 -0.087023735 0.013095886
0.022379041 -0.087384827 0.013083786
0.023553234 -0.087789327 0.012817055
0.02450393 -0.087361842 0.012716383
0.025824759 -0.088234603 0.011613697
0.026864059 -0.08811412 0.010181665
0.028289301 -0.089220107 0.0093127191
0.02946765 -0.089494348 0.0087897778
0.030760936 -0.090085603 0.0081025064
0.031601846 -0.089356944 0.0072183907
0.033129033 -0.090552688 0.0062893331
0.034184638 -0.090423882 0.0061160028
0.034886278 -0.089396089 0.0055817664
-0.024997577 -0.088034943 0.0053334534
-0.023530586 -0.086635336 0.0079400539
-0.022542868 -0.086951055 0.010410815
-0.021432638 -0.086802185 0.01150021
-0.020420099 -0.087054104 0.011842012
-0.019154057 -0.086193256 0.012961566
-0.018090826 -0.086197458 0.012700558
-0.017293964 -0.087550685 0.012798667
-0.015927035 -0.086005986 0.013297707
-0.014889938 -0.086148918 0.012769371
-0.013957169 -0.086963899 0.01246652
-0.012703862 -0.085751064 0.01172781
-0.011762327 -0.086613499 0.01172781
-0.010923714 -0.088482082 0.011595786
-0.0096974708 -0.087277234 0.011829972
-0.0086729946 -0.08781407 0.011584967
-0.0075185229 -0.08700005 0.011470169
-0.0063550654 -0.085793376 0.011170089
-0.0053136917 -0.086081803 0.011036426
-0.0042661275 -0.08638908 0.010520339
-0.0031729497 -0.085669637 0.010758728
-0.0021449735 -0.086871423 0.010979235
-0.001068313 -0.086533353 0.011149287
0 -0.087840617 0.010475099
0.0010916204 -0.088421248 0.010744929
0.0021288379 -0.086217925 0.010858864
0.0032105991 -0.086686172 0.011167586
0.0043301899 -0.087686338 0.011259913
0.0052488539 -0.085031435 0.011489868
0.0064988383 -0.087734319 0.011750877
0.0076753763 -0.088815063 0.011463583
0.0085912552 -0.086986452 0.011516005
0.009688329 -0.087194964 0.011091083
0.010769573 -0.087233536 0.010558128
0.011760355 -0.086598977 0.010181278
0.013176261 -0.088939756 0.010131866
0.014089953 -0.087791249 0.010679573
0.01514581 -0.087629326 0.010585219
0.016310453 -0.088076442 0.01064992
0.017099049 -0.08656393 0.010648191
0.018468438 -0.087996669 0.011028886
0.019536644 -0.087914899 0.01142934
0.02034864 -0.086749464 0.011494011
0.021411151 -0.086715154 0.011939734
0.022377426 -0.08631292 0.011867762
0.023244379 -0.085581578 0.011566639
0.024286695 -0.085531399 0.010929555
0.025724236 -0.086819291 0.010175049
0.026857767 -0.08701916 0.0094153881
0.028481411 -0.088730544 0.0083287656
0.029464291 -0.088392869 0.0078756213
0.030465398 -0.088132039 0.0068228543
0.031577468 -0.088199124 0.0064118505
0.032707077 -0.088309102 0.0055760741
