ply
format ascii 1.0
comment PCL generated
element vertex 1266
property float x
property float y
property float z
element camera 0
property float view_px
property float view_py
property float view_pz
property float x_axisx
property float x_axisy
property float x_axisz
property float y_axisx
property float y_axisy
property float y_axisz
property float z_axisx
property float z_axisy
property float z_axisz
property float focal
property float scalex
property float scaley
property float centerx
property float centery
property int viewportx
property int viewporty
property float k1
property float k2
end_header
-0.030047566 -0.035413202 0.012493312
-0.029128335 -0.035601296 0.013546884
-0.028281147 -0.035895299 0.013309121
-0.026829239 -0.035414595 0.013289005
-0.025698826 -0.035335887 0.013364047
-0.024771163 -0.035541233 0.012937486
-0.023761531 -0.035642296 0.013261735
-0.02249077 -0.035342637 0.013139606
-0.021596083 -0.035633538 0.013030052
-0.020413807 -0.035455558 0.012838751
-0.019155843 -0.035119049 0.012786418
-0.018373307 -0.035665829 0.012511462
-0.016764805 -0.034577407 0.012058616
-0.016042795 -0.035294149 0.011741817
-0.015260306 -0.035970721 0.011479765
-0.013879323 -0.03523213 0.010941565
-0.01290379 -0.035485424 0.010967016
-0.011887451 -0.035662353 0.011087984
-0.01072911 -0.035406064 0.011284471
-0.009674266 -0.035472307 0.011298776
-0.0086775692 -0.035794973 0.011644185
-0.0075017833 -0.035365548 0.01179266
-0.0064937957 -0.035715874 0.011805445
-0.0053861598 -0.035548657 0.011965811
-0.0043246043 -0.035677984 0.012377739
-0.003270322 -0.035973541 0.01245591
-0.002127137 -0.035097759 0.012801021
-0.0010677107 -0.035234451 0.012815565
0 -0.035445128 0.012451708
0.0010725114 -0.035392877 0.012407213
0.0021780608 -0.035938002 0.012132496
0.0032424296 -0.035666727 0.011244982
0.0042414758 -0.034992177 0.010719568
0.0054192762 -0.035767224 0.010714471
0.0064981706 -0.03573994 0.010866225
0.0075417631 -0.035554025 0.01071167
0.0087261749 -0.035995472 0.010896087
0.0095304614 -0.034945026 0.011064231
0.010792291 -0.035614561 0.011445254
0.011934894 -0.035804681 0.011881679
0.013005837 -0.03576605 0.012720227
0.013980391 -0.035488684 0.012974888
0.015011182 -0.0353835 0.013215512
0.015863348 -0.034899365 0.013910502
0.017151475 -0.035374917 0.013695091
0.01801102 -0.034962568 0.013880849
0.019135082 -0.035080984 0.013964087
0.020670997 -0.035902258 0.013784617
0.02129383 -0.035134818 0.013653249
0.022573607 -0.03547281 0.013420105
0.023429139 -0.035143707 0.013365418
0.024722323 -0.035471156 0.013420105
0.025819663 -0.035502035 0.013976634
0.026653349 -0.03518242 0.01410231
0.027565328 -0.034986764 0.014150351
0.028995734 -0.035439227 0.01472789
0.030025499 -0.035387196 0.014682263
0.030870892 -0.035128944 0.014644772
0.031993218 -0.035192542 0.015130848
0.033325784 -0.035475831 0.015587181
0.033890124 -0.034949191 0.01563862
0.035225991 -0.035225991 0.01576817
0.03647536 -0.035402555 0.015628129
0.037124883 -0.035003461 0.015470564
0.038700189 -0.035475172 0.015285939
0.039143827 -0.034912061 0.014950097
0.039769486 -0.034536656 0.013921827
0.04184901 -0.035410702 0.013771296
0.042290013 -0.034889262 0.013109833
0.043450497 -0.034972351 0.012170613
0.045169067 -0.03548998 0.011514425
0.046351977 -0.035572447 0.010817647
0.047231216 -0.035423413 0.0096233189
0.048940979 -0.03589005 0.0092278421
0.048748199 -0.034971535 0.0084704757
0.051013567 -0.035818037 0.0080720484
0.051603034 -0.035477083 0.0067253709
0.053250659 -0.035862688 0.006762743
0.055207416 -0.036436893 0.0055053532
-0.061431218 -0.035741799 0.0060333908
-0.058415137 -0.034616377 0.0067448616
-0.057329733 -0.034614179 0.0072682202
-0.056626536 -0.034847099 0.0086264014
-0.054641739 -0.034285013 0.0092532337
-0.053303387 -0.034114167 0.010082304
-0.053063169 -0.0346535 0.010829419
-0.050987579 -0.033991721 0.011390418
-0.050076056 -0.034094334 0.011975735
-0.049335685 -0.034320477 0.012251228
-0.047993951 -0.034129031 0.012447745
-0.047118343 -0.034267887 0.012624025
-0.046527542 -0.034625147 0.012686312
-0.044921651 -0.034226019 0.01290074
-0.044450827 -0.034693327 0.012937516
-0.042925056 -0.034340046 0.013046235
-0.041734692 -0.034243848 0.012885362
-0.040867355 -0.034414615 0.012655914
-0.039642092 -0.034285054 0.012914091
-0.038509611 -0.034230769 0.012612969
-0.037713006 -0.034480464 0.012507945
-0.036657698 -0.034501363 0.012759656
-0.035584886 -0.034506556 0.012732148
-0.034331221 -0.034331221 0.012740463
-0.033007465 -0.034072224 0.01239115
-0.032576062 -0.034747802 0.013158739
-0.03130782 -0.034546558 0.013249785
-0.02963765 -0.033871602 0.013635844
-0.028841093 -0.034182034 0.013899744
-0.028042393 -0.034513716 0.013914466
-0.026388755 -0.033777606 0.013937294
-0.025671959 -0.034229279 0.014013588
-0.024665887 -0.034317754 0.013786882
-0.023427175 -0.03407589 0.01423806
-0.022395873 -0.034127045 0.014324009
-0.021143923 -0.033830278 0.014342666
-0.020088 -0.033832423 0.014218181
-0.019390317 -0.034471676 0.014136344
-0.018128209 -0.034123685 0.013421893
-0.017215179 -0.034430359 0.013159364
-0.016180869 -0.034519188 0.012816221
-0.014823712 -0.033882771 0.012258321
-0.013906603 -0.03423164 0.011959434
-0.012955967 -0.034549247 0.011945963
-0.011754843 -0.034195911 0.011959434
-0.010728844 -0.034332301 0.011978298
-0.0097653605 -0.034721285 0.011951506
-0.0086472332 -0.034588933 0.012283236
-0.0075373296 -0.034456365 0.012375712
-0.0064174356 -0.034226324 0.012390018
-0.0053769145 -0.034412254 0.012465596
-0.0042639696 -0.034111757 0.012702197
-0.0032264912 -0.034415908 0.013168961
-0.0021175982 -0.033881571 0.013614118
-0.0010688379 -0.034202814 0.013421208
0 -0.034119286 0.01337558
0.001069081 -0.034210593 0.013275385
0.0021385069 -0.03421611 0.01271823
0.003187106 -0.0339958 0.012288511
0.0043101609 -0.034481287 0.012241781
0.0054249279 -0.034719542 0.011935025
0.0064039435 -0.034154367 0.012534261
0.0075454121 -0.034493312 0.011935025
0.0086112581 -0.034445032 0.012123764
0.009575041 -0.03404459 0.01276195
0.010855231 -0.034736738 0.013138056
0.011840392 -0.034444775 0.013456732
0.012786098 -0.034096263 0.013890445
0.013870275 -0.034142215 0.014252812
0.014930015 -0.034125749 0.014402807
0.01594672 -0.034019671 0.014846683
0.017003343 -0.034006685 0.014609605
0.017922768 -0.033736978 0.014875174
0.019011058 -0.033797439 0.014843911
0.020084539 -0.033826593 0.014674842
0.021204628 -0.033927407 0.014609605
0.022584522 -0.034414511 0.014159441
0.023775658 -0.034582775 0.01384905
0.024478866 -0.03405755 0.01384905
0.025795732 -0.034394309 0.014007658
0.026867999 -0.034391038 0.014646411
0.027900463 -0.034339033 0.014708549
0.028970448 -0.034335345 0.014816225
0.029956827 -0.034236375 0.014643431
0.030441089 -0.033590164 0.014776528
0.031950545 -0.03408058 0.015423685
0.03282712 -0.033886056 0.015624851
0.033906613 -0.033906613 0.01559934
0.035137098 -0.03407234 0.015767694
0.036338527 -0.034200966 0.016001016
0.03718742 -0.033999927 0.01568225
0.03827206 -0.034019612 0.0154441
0.038936678 -0.033674963 0.014584839
0.040660411 -0.034240346 0.014126718
0.041359551 -0.033936042 0.014039367
0.043091983 -0.034473587 0.013635129
0.043798815 -0.034184441 0.012196571
0.044644907 -0.034015168 0.011602283
0.046420995 -0.034545857 0.01079309
0.047466598 -0.034521163 0.0095335543
0.04883657 -0.034728225 0.0088587105
0.049630128 -0.034525305 0.0081689656
0.051531605 -0.03508535 0.0070140362
0.051488735 -0.034325823 0.0064435303
0.054080147 -0.035317648 0.0058444142
-0.059339482 -0.033445891 0.0061374903
-0.058335263 -0.033488762 0.0071073472
-0.057861429 -0.03384348 0.0078306794
-0.055631094 -0.033164691 0.0092922151
-0.054110933 -0.032890961 0.0096847713
-0.054493047 -0.03378569 0.010540187
-0.052839808 -0.033429269 0.010931075
-0.051791307 -0.033448555 0.011548698
-0.050571002 -0.03335534 0.012061238
-0.048834007 -0.032909874 0.012439698
-0.048601333 -0.033480916 0.01269567
-0.047271036 -0.033304594 0.012688398
-0.045520242 -0.03281692 0.012679726
-0.045034464 -0.033239722 0.012854218
-0.044372644 -0.03355005 0.012951493
-0.043042257 -0.033357754 0.012965649
-0.041702665 -0.033148274 0.012719154
-0.040691294 -0.033195529 0.012534022
-0.039484035 -0.033081219 0.012605548
-0.038868036 -0.033469699 0.012257844
-0.037351497 -0.033082757 0.012005776
-0.036808994 -0.03356114 0.012566507
-0.035607792 -0.033449747 0.012732714
-0.034045074 -0.032981165 0.012795031
-0.033179238 -0.033179238 0.012991041
-0.032531478 -0.033615861 0.013389289
-0.030534934 -0.032640792 0.013538003
-0.030363409 -0.033616632 0.013867199
-0.029031774 -0.033332776 0.014075577
-0.027836496 -0.033189669 0.014426321
-0.026850484 -0.0332946 0.014371455
-0.025524039 -0.032968551 0.014836431
-0.024619047 -0.033182193 0.014850438
-0.023535911 -0.03316424 0.014853269
-0.022184785 -0.032748967 0.014485717
-0.021131048 -0.032753129 0.014724106
-0.020176148 -0.032918978 0.014562994
-0.019046474 -0.032802261 0.014380336
-0.018100774 -0.033007294 0.014378279
-0.017017353 -0.032971125 0.013935596
-0.015965328 -0.032995012 0.013274223
-0.015020545 -0.033259779 0.013102293
-0.013920381 -0.033194754 0.012609243
-0.012874642 -0.033259496 0.012456387
-0.011845381 -0.033382438 0.012431741
-0.010602708 -0.032868396 0.012460262
-0.0096824849 -0.033350784 0.012478888
-0.0087578464 -0.033936653 0.012544066
-0.0074920002 -0.033178858 0.012687892
-0.0064365626 -0.033255577 0.013115168
-0.0053740148 -0.033318896 0.013221353
-0.0042446214 -0.032895815 0.013652235
-0.0032081557 -0.033150945 0.013940692
-0.0021520564 -0.033356875 0.014236033
-0.0010522073 -0.03261843 0.014523208
0 -0.03353256 0.014620423
0.0010660682 -0.033048112 0.014543533
0.0021225114 -0.032898925 0.014106542
0.0032138093 -0.033209365 0.013904124
0.0043217032 -0.033493198 0.013675004
0.0052892151 -0.032793134 0.013348162
0.0064701168 -0.033428937 0.013862938
0.0075230608 -0.033316415 0.013904124
0.0085322261 -0.033062376 0.013862938
0.0097973561 -0.033746451 0.014033645
0.01066956 -0.033075638 0.014252812
0.011569301 -0.032604393 0.014362395
0.01283162 -0.033148352 0.014359683
0.013778989 -0.032857589 0.014541984
0.014827462 -0.032832239 0.015059322
0.015925232 -0.032912146 0.015080988
0.016823942 -0.032596387 0.014859021
0.018288698 -0.03334998 0.015275836
0.019435646 -0.033472504 0.015327275
0.019820783 -0.032339174 0.014924258
0.021291343 -0.033001587 0.014859021
0.022369647 -0.03302186 0.014236331
0.023300871 -0.032833047 0.013862789
0.024916384 -0.033582952 0.013727814
0.025774546 -0.033292122 0.013973325
0.026718512 -0.033130955 0.014180988
0.027784444 -0.03312761 0.01410231
0.028723883 -0.032979272 0.01431337
0.02971644 -0.032900345 0.014447659
0.030979814 -0.033116352 0.014600009
0.031689409 -0.032745723 0.014818549
0.032688823 -0.032688823 0.015472203
0.033761948 -0.032706887 0.015451908
0.035005964 -0.032884393 0.015517652
0.035976917 -0.032802485 0.01542604
0.03709501 -0.032855581 0.01543507
0.03791764 -0.032651305 0.015207708
0.03971922 -0.033278264 0.01466167
0.040530302 -0.033064194 0.014342755
0.04127318 -0.032806888 0.014204413
0.043279391 -0.03354153 0.013638288
0.043727946 -0.033062596 0.012172818
0.044498641 -0.032844238 0.011715353
0.04583735 -0.033045534 0.010823488
0.047683179 -0.03359497 0.0094844103
0.048582304 -0.033467807 0.0082402527
0.05004812 -0.033728082 0.0068704486
0.051396824 -0.033900034 0.0068175495
0.053248703 -0.03438979 0.005698055
0.053641126 -0.033936225 0.0050161779
-0.059473116 -0.03243988 0.0061448812
-0.058837499 -0.032687496 0.0071718097
-0.056952085 -0.032237031 0.0082902014
-0.055757474 -0.032167774 0.0093203187
-0.055373069 -0.032572392 0.009919554
-0.053561941 -0.032137163 0.010490805
-0.052045248 -0.031864438 0.011040479
-0.051505391 -0.03219087 0.011549354
-0.050140504 -0.032004576 0.012105703
-0.049718473 -0.032425091 0.012330115
-0.048156328 -0.032104217 0.012509108
-0.046503332 -0.031706817 0.012480915
-0.045799144 -0.031952891 0.012447745
-0.045139425 -0.032242447 0.012426943
-0.043639433 -0.031931289 0.012746751
-0.042730872 -0.032048155 0.012871951
-0.041797824 -0.032152172 0.012670666
-0.041129094 -0.032470334 0.012677521
-0.039695319 -0.032185394 0.01261127
-0.038240902 -0.031867418 0.012257844
-0.037680782 -0.032297812 0.01210916
-0.036486324 -0.032193813 0.01272732
-0.03531253 -0.032102298 0.012828618
-0.03435988 -0.032212388 0.013196796
-0.03347303 -0.032393254 0.013431102
-0.032022811 -0.032022811 0.013739645
-0.031099977 -0.032172389 0.014028311
-0.02979338 -0.031921476 0.014257997
-0.028937334 -0.032152593 0.014433086
-0.027846485 -0.032130558 0.01495868
-0.02653998 -0.031847976 0.014990807
-0.02551575 -0.031894688 0.015121132
-0.024629282 -0.032125149 0.015086472
-0.02346155 -0.031993024 0.015241086
-0.022136696 -0.031623852 0.015120268
-0.02147877 -0.032218158 0.015139669
-0.020301133 -0.032054421 0.015013903
-0.019027114 -0.031711858 0.014942974
-0.01811246 -0.031963162 0.014813155
-0.016922392 -0.031729486 0.01453349
-0.016108712 -0.032217424 0.014109552
-0.014981702 -0.032103647 0.013437927
-0.013682842 -0.031575788 0.013268501
-0.012878539 -0.032196347 0.013154894
-0.011788119 -0.032149415 0.012927353
-0.010695287 -0.032085862 0.012899756
-0.0097773271 -0.032591093 0.012875706
-0.0085717775 -0.032144163 0.012988985
-0.0075410837 -0.032318931 0.013191462
-0.006442524 -0.032212622 0.013500839
-0.0054026977 -0.032416187 0.013692796
-0.0042743674 -0.032057755 0.014079392
-0.0032255454 -0.032255456 0.014671534
-0.0021191437 -0.031787153 0.014801383
-0.0010605546 -0.031816639 0.01474911
0 -0.032393165 0.015055954
0.001058244 -0.031747319 0.014878333
0.0021366554 -0.032049831 0.015055716
0.0031983664 -0.031983662 0.014594615
0.00421162 -0.03158715 0.014403611
0.0054349215 -0.03260953 0.014429539
0.0064122467 -0.032061234 0.014523149
0.0074261795 -0.031826485 0.014487207
0.0086272201 -0.032352075 0.014575273
0.0095896702 -0.031965569 0.014734894
0.010545754 -0.031637263 0.014853507
0.011749339 -0.032043654 0.01490137
0.012883645 -0.032209113 0.014804482
0.013930917 -0.032148272 0.014674067
0.015002971 -0.032149222 0.014773875
0.015968351 -0.031936701 0.015070885
0.017279154 -0.032398414 0.014874667
0.018157899 -0.032043353 0.015348554
0.019011807 -0.031686347 0.015397251
0.02013842 -0.031797506 0.015195906
0.021340309 -0.032010462 0.014945388
0.022078039 -0.031540055 0.014477372
0.023348017 -0.031838205 0.014056027
0.024588794 -0.032072339 0.013816804
0.025712406 -0.032140508 0.01389727
0.026894998 -0.032273997 0.014118344
0.027844906 -0.032128736 0.014226764
0.028552398 -0.031724885 0.01431337
0.029851124 -0.031983346 0.014482349
0.030804506 -0.031866729 0.0144566
0.031700838 -0.031700838 0.014662623
0.033335838 -0.032260489 0.015424728
0.034274537 -0.03213238 0.015571982
0.035480514 -0.032255013 0.015707791
0.036121707 -0.031872094 0.015448153
0.036794577 -0.031538207 0.01550138
0.038624618 -0.032187186 0.015438318
0.03970876 -0.032196291 0.01466167
0.040542521 -0.032007251 0.014505506
0.041896958 -0.032228429 0.014181435
0.042847041 -0.032135282 0.013040662
0.043527827 -0.03184963 0.011491001
0.044908293 -0.03207735 0.010941058
0.045016631 -0.03140695 0.010228664
0.047644243 -0.03248471 0.0081247091
0.049156975 -0.032771315 0.0069336593
0.050110281 -0.032680616 0.0060370564
0.051590931 -0.032930382 0.0059423745
-0.060113452 -0.031696185 0.0061371326
-0.058197156 -0.031254027 0.0071992874
-0.056914415 -0.031141851 0.0082409084
-0.055842802 -0.031143103 0.0093207061
-0.05514 -0.031354118 0.009919554
-0.053903531 -0.031264048 0.010465145
-0.052729074 -0.031207006 0.010805964
-0.051062539 -0.030850286 0.011512518
-0.05075426 -0.031316459 0.01197812
-0.049719129 -0.031344671 0.012251228
-0.048097055 -0.030995879 0.012250543
-0.047373582 -0.031223498 0.012228161
-0.045971263 -0.031003876 0.012109607
-0.044748776 -0.030897964 0.012021065
-0.044455998 -0.031444486 0.012375951
-0.043029103 -0.031196102 0.012379408
-0.042336576 -0.031481046 0.012500674
-0.041115865 -0.031377897 0.01209861
-0.039924365 -0.03129207 0.012170851
-0.038398322 -0.030931983 0.011790216
-0.037749134 -0.031277858 0.011773944
-0.036107682 -0.030797727 0.012335271
-0.035042938 -0.030795312 0.01268369
-0.034007255 -0.030819075 0.013196796
-0.033155829 -0.031016741 0.013633788
-0.032423466 -0.031342685 0.014004022
-0.030810125 -0.030810125 0.014163971
-0.030023046 -0.0310953 0.014593363
-0.029155597 -0.031315271 0.015064269
-0.028108766 -0.031352088 0.015161037
-0.026858939 -0.03115637 0.015247554
-0.025602002 -0.030935753 0.015540183
-0.024566755 -0.030975474 0.01564306
-0.023146549 -0.030511362 0.015799135
-0.022278486 -0.03076553 0.015830755
-0.02120208 -0.030743016 0.015741229
-0.020192889 -0.030820727 0.015601963
-0.019160734 -0.030870074 0.015272796
-0.018062063 -0.030811753 0.015092432
-0.01707425 -0.03094708 0.014982253
-0.016139921 -0.031203846 0.014403671
-0.014775974 -0.030607374 0.014371246
-0.01413813 -0.031538907 0.013605505
-0.012818893 -0.030978994 0.01340431
-0.011851801 -0.031245658 0.013032168
-0.010796347 -0.031309407 0.013142258
-0.0097046997 -0.031270701 0.013157368
-0.0085188681 -0.030880896 0.013284802
-0.0075365077 -0.031222675 0.01342696
-0.0064108684 -0.030985866 0.013940036
-0.0053270659 -0.030896986 0.0145953
-0.0042829351 -0.03105128 0.014615685
-0.0032057033 -0.030988468 0.01474911
-0.0021248842 -0.030810822 0.015273511
-0.0010734597 -0.031130332 0.014865309
0 -0.03074595 0.015727371
0.0010709662 -0.031058023 0.015384912
0.0021259789 -0.030826693 0.015727133
0.0031790666 -0.03073098 0.015149266
0.0042542312 -0.030843178 0.015123367
0.0053294986 -0.030911094 0.015025496
0.0063320599 -0.030604959 0.015064389
0.0075288457 -0.031190934 0.014974415
0.0085475678 -0.030984933 0.015064389
0.0096401293 -0.03106264 0.015064389
0.010656514 -0.030903893 0.01504451
0.011719394 -0.030896585 0.014951438
0.012802846 -0.030940212 0.014843911
0.013958756 -0.031138765 0.014936894
0.014893399 -0.030850612 0.015176088
0.015938457 -0.03081435 0.015377581
0.01685743 -0.030554095 0.015182525
0.01794534 -0.03061264 0.015398264
0.01934555 -0.031167835 0.015398264
0.02025291 -0.030912336 0.015245169
0.021100035 -0.030595053 0.014802128
0.022134369 -0.03056651 0.014418989
0.023409732 -0.030858284 0.014043063
0.024449451 -0.030827569 0.013692468
0.026068235 -0.031499118 0.013626367
0.026534205 -0.030779677 0.013818771
0.0278279 -0.031038813 0.013771594
0.028921317 -0.031063637 0.013974041
0.029751252 -0.030813798 0.014042497
0.030978996 -0.030978996 0.014140189
0.031853992 -0.030792193 0.01444307
0.032952819 -0.030826831 0.014656514
0.034245867 -0.031035317 0.014818549
0.035414971 -0.031122249 0.014979422
0.035959333 -0.030671198 0.015274018
0.037443783 -0.031024849 0.015168369
0.038446296 -0.030970629 0.0146029
0.039167017 -0.030698471 0.014596283
0.040510777 -0.030916121 0.014386982
0.042194933 -0.031375721 0.013527811
0.042433631 -0.030764384 0.011984378
0.044230271 -0.031284824 0.011369586
0.04517556 -0.031192647 0.010361046
0.045734644 -0.030844297 0.0096395016
0.047886949 -0.031561855 0.0078865886
0.048646424 -0.031349916 0.0066581964
0.049927577 -0.03147608 0.0054894686
-0.060027797 -0.030559605 0.0058929324
-0.058204036 -0.030179869 0.0074350238
-0.057039391 -0.030134019 0.0082254708
-0.056156795 -0.030238274 0.0093207061
-0.055174232 -0.030291734 0.0099318922
-0.054377709 -0.030451518 0.010441393
-0.052770823 -0.030154757 0.010774106
-0.05168315 -0.030148504 0.010984182
-0.050672274 -0.030187737 0.011499047
-0.049283061 -0.029998383 0.011762738
-0.048902474 -0.030428203 0.011890382
-0.047323346 -0.030114857 0.011683166
-0.046171762 -0.030065332 0.011615604
-0.044444095 -0.029629396 0.011639595
-0.043850999 -0.029947024 0.011921346
-0.043160129 -0.030212093 0.011852264
-0.042195257 -0.030294031 0.011802346
-0.040962007 -0.030182531 0.011493832
-0.039666936 -0.03001822 0.011696488
-0.039321091 -0.030583071 0.011275202
-0.037488542 -0.029990835 0.011348665
-0.03638605 -0.029964982 0.012169063
-0.035327177 -0.029974576 0.012781143
-0.034174286 -0.029902499 0.013093114
-0.033635434 -0.030380391 0.013733119
-0.032249026 -0.03009909 0.013931066
-0.031061869 -0.02999077 0.014246613
-0.030318871 -0.030318871 0.015007377
-0.028977219 -0.030050447 0.015192688
-0.027835969 -0.029977199 0.015540183
-0.026837882 -0.030058427 0.015595019
-0.025402512 -0.029636264 0.015920162
-0.024622774 -0.02997555 0.015968353
-0.023519425 -0.029933814 0.016018361
-0.02234748 -0.029796639 0.016159296
-0.021287235 -0.029802131 0.015992016
-0.02021724 -0.029793827 0.015725464
-0.019077715 -0.029676447 0.015472144
-0.018193366 -0.029965544 0.015455812
-0.01708894 -0.029905645 0.015075624
-0.016006013 -0.029877892 0.014850289
-0.015221138 -0.030442277 0.014615417
-0.013986518 -0.030124808 0.014190882
-0.012735802 -0.029716872 0.013658106
-0.011849887 -0.03016335 0.013292074
-0.010821975 -0.03030153 0.01327315
-0.0096177561 -0.029921908 0.013119221
-0.0086366553 -0.030228293 0.013532072
-0.0074756872 -0.029902749 0.01339075
-0.0064452118 -0.030077657 0.014190435
-0.0053547719 -0.029986722 0.01452288
-0.0042420905 -0.029694635 0.014566451
-0.0031916734 -0.029788952 0.014867306
-0.0021356014 -0.029898418 0.014865309
-0.0010541853 -0.029517189 0.015241474
0 -0.0299056 0.0158571
0.0010639175 -0.029789692 0.016097456
0.0021262341 -0.029767277 0.016028732
0.0032382046 -0.030223243 0.01587972
0.0042411177 -0.029687824 0.015447676
0.0052903006 -0.029625684 0.015448004
0.0064459415 -0.030081062 0.015365869
0.0073764934 -0.029505974 0.015312463
0.0085417842 -0.029896244 0.015294224
0.0095914854 -0.029840179 0.015271276
0.010606106 -0.0296971 0.015163392
0.011731502 -0.029862005 0.015233576
0.01275696 -0.029766239 0.01512751
0.013789725 -0.029700944 0.014831185
0.014839013 -0.029678026 0.015276343
0.015947659 -0.029768964 0.015276343
0.017008226 -0.029764397 0.015251487
0.018157206 -0.029905988 0.015276343
0.019045996 -0.029627103 0.015277922
0.020130659 -0.029666234 0.015298635
0.021440329 -0.030016461 0.014846504
0.022199508 -0.029599344 0.014320374
0.023127925 -0.029435541 0.013850987
0.024351809 -0.02964568 0.013366163
0.02551326 -0.02976547 0.013306111
0.026843952 -0.030065225 0.013306111
0.028053759 -0.030211739 0.01330477
0.028954279 -0.030026658 0.01334846
0.029719122 -0.029719122 0.013493687
0.030569244 -0.02951513 0.013652802
0.031657618 -0.02954711 0.014170378
0.032872144 -0.029690968 0.014607251
0.033776525 -0.02955446 0.014687836
0.034883063 -0.029597752 0.014897227
0.036305681 -0.029898796 0.015168369
0.037149206 -0.029719364 0.014870316
0.03824586 -0.02974678 0.014596283
0.039664697 -0.030016525 0.014280766
0.04040974 -0.029775597 0.014055163
0.041250817 -0.02961597 0.013389081
0.043014869 -0.030110408 0.011731952
0.043240685 -0.029530222 0.010951966
0.045107249 -0.030071501 0.010003537
0.046496842 -0.030277014 0.0091938078
0.04773837 -0.030378964 0.0066682696
0.049416579 -0.030748092 0.0058383942
-0.058910776 -0.028919837 0.0057243705
-0.05841893 -0.029209465 0.0069966912
-0.056905136 -0.02898941 0.0079439282
-0.056254089 -0.029208854 0.0090201795
-0.055522092 -0.029394049 0.0094299912
-0.053626217 -0.028958157 0.0099819899
-0.052874405 -0.029134879 0.01039958
-0.05154689 -0.028995126 0.010656863
-0.050592791 -0.029063946 0.010899067
-0.050083756 -0.029396988 0.011399209
-0.048929781 -0.029357867 0.011512518
-0.047192983 -0.028959332 0.011397272
-0.045810219 -0.028764557 0.01132971
-0.044835348 -0.028822724 0.011323869
-0.043692172 -0.028772894 0.011568069
-0.043416854 -0.029306378 0.011460453
-0.042311039 -0.029292259 0.011428624
-0.041166879 -0.029250151 0.01113084
-0.040290065 -0.029400857 0.011305183
-0.038823869 -0.029117903 0.011058748
-0.037456725 -0.02889519 0.011266232
-0.036600396 -0.029065022 0.012063712
-0.035217132 -0.02881402 0.012655675
-0.03463614 -0.029224245 0.013406664
-0.033456881 -0.029139863 0.013830662
-0.032338236 -0.029104412 0.014098048
-0.031167459 -0.029017979 0.014738292
-0.029928098 -0.028859239 0.014923483
-0.029050985 -0.029050985 0.015181422
-0.028320558 -0.029409813 0.015335768
-0.026686104 -0.028820992 0.015731752
-0.025669189 -0.028877839 0.015968353
-0.024622781 -0.028905004 0.01594913
-0.023428552 -0.028753225 0.015741229
-0.022350017 -0.028735736 0.015882879
-0.021357706 -0.028832905 0.015825212
-0.020139867 -0.028619813 0.015569896
-0.019188181 -0.028782275 0.015455067
-0.018138606 -0.028808376 0.01535067
-0.017009186 -0.028703002 0.014939159
-0.01597227 -0.028750088 0.014567792
-0.015073077 -0.029069507 0.01450187
-0.013951756 -0.028976725 0.014079303
-0.012993381 -0.029235108 0.013711691
-0.011728155 -0.028787293 0.013266087
-0.010769089 -0.029076541 0.013246745
-0.0096905623 -0.029071689 0.013289452
-0.0084921522 -0.028661015 0.013500541
-0.0074710045 -0.028816734 0.013940454
-0.0064510596 -0.02902977 0.01442647
-0.0053097592 -0.028672701 0.014569014
-0.0042642299 -0.028783554 0.014769286
-0.0032170403 -0.028953364 0.014812768
-0.0021169854 -0.028579304 0.015172362
-0.0010540616 -0.028459663 0.015688002
0 -0.029098725 0.01586467
0.0010525406 -0.028418599 0.016051888
0.0021384 -0.0288684 0.016255975
0.0031885693 -0.028697126 0.016284883
0.0042306492 -0.028556883 0.015845954
0.0053070216 -0.028657919 0.015636533
0.0063944873 -0.028775195 0.015501499
0.0074650431 -0.028793737 0.015450865
0.0085597895 -0.028889291 0.01533407
0.0095263431 -0.028579032 0.01533407
0.010580552 -0.028567491 0.015314251
0.011704074 -0.028728183 0.015362054
0.012815329 -0.028834492 0.015208185
0.013727264 -0.028510472 0.014831185
0.014985404 -0.028900422 0.015156657
0.015758881 -0.028365986 0.015276343
0.016878854 -0.028483067 0.015251487
0.018093143 -0.028736169 0.015365839
0.018853428 -0.028280145 0.015400559
0.020403119 -0.028993906 0.015299648
0.021234967 -0.028667208 0.014846504
0.022066783 -0.02837158 0.014319509
0.023420535 -0.028743384 0.013659716
0.024251191 -0.02846879 0.013363659
0.025798906 -0.02902377 0.013346493
0.02707926 -0.029245602 0.013271093
0.027968567 -0.029044282 0.01327008
0.029114902 -0.029114902 0.013158858
0.029941693 -0.028872348 0.013239384
0.030716982 -0.028598567 0.013477057
0.031686667 -0.028518001 0.013731033
0.032761157 -0.028533909 0.014274001
0.033694942 -0.028430106 0.014398128
0.034933008 -0.028581554 0.01436463
0.036219098 -0.028762227 0.014471024
0.036864903 -0.028438641 0.014277041
0.038367964 -0.028775975 0.014025569
0.039440554 -0.028780945 0.0137707
0.040543176 -0.028806994 0.013460189
0.041819848 -0.028952202 0.012649149
0.043583933 -0.029419158 0.01119861
0.044153709 -0.029076833 0.0098812878
0.045740034 -0.029404307 0.0086142123
0.045797214 -0.028756391 0.007806927
0.047381904 -0.029075261 0.0056800246
-0.060080748 -0.028401807 0.0051519275
-0.058122296 -0.027984809 0.0063147247
-0.057144545 -0.028033175 0.0074826479
-0.056834288 -0.028417144 0.0081347823
-0.054995459 -0.0280369 0.0089709461
-0.054320227 -0.028246518 0.009460628
-0.053356521 -0.028311623 0.010023087
-0.051775668 -0.028045155 0.01039958
-0.050904937 -0.028160179 0.010679632
-0.049635872 -0.028055057 0.010844529
-0.048298307 -0.027905688 0.011103064
-0.047347043 -0.027977798 0.011282712
-0.046044018 -0.027840568 0.011335015
-0.044631701 -0.027629148 0.011075497
-0.0440269 -0.027919497 0.011114091
-0.043080039 -0.028002026 0.011221647
-0.042173877 -0.028115917 0.011468142
-0.041532703 -0.02841711 0.010852784
-0.040106099 -0.028182661 0.011015743
-0.038690589 -0.027943203 0.010603994
-0.037823524 -0.028097477 0.011015743
-0.036194108 -0.027677847 0.012278348
-0.035583116 -0.028035183 0.012701482
-0.034833971 -0.028302601 0.013093114
-0.033069309 -0.027735548 0.01379779
-0.032276183 -0.027972693 0.014190704
-0.030978976 -0.027774252 0.014856547
-0.029936407 -0.027798092 0.015073866
-0.02916394 -0.028083794 0.015325129
-0.028165761 -0.028165761 0.015229911
-0.026464269 -0.02752284 0.015810132
-0.025792938 -0.02794235 0.015883714
-0.024547189 -0.027748995 0.015654296
-0.023389632 -0.027642293 0.015624344
-0.022443015 -0.02778659 0.015855283
-0.02145116 -0.02788651 0.015821308
-0.020189375 -0.027627563 0.015551746
-0.019272305 -0.027837776 0.015188187
-0.018166397 -0.027783902 0.01509735
-0.017054789 -0.027714031 0.014686406
-0.016030537 -0.027786262 0.014519453
-0.014863575 -0.027603783 0.014171362
-0.014143798 -0.028287595 0.014079303
-0.012895534 -0.027940322 0.013720244
-0.011787629 -0.027861668 0.013355076
-0.010818917 -0.028129186 0.013289452
-0.009593064 -0.027713295 0.013355076
-0.0084881987 -0.027586646 0.013637722
-0.0075118416 -0.027901124 0.014096648
-0.0064309505 -0.027867453 0.014135361
-0.0053480528 -0.027809875 0.014687657
-0.004267124 -0.027736304 0.014871597
-0.0031644525 -0.027425256 0.015126556
-0.0021037052 -0.027348166 0.015495777
-0.0010665873 -0.02773127 0.015807033
0 -0.027490888 0.01606676
0.0010585554 -0.027522443 0.016119957
0.0021195251 -0.027553827 0.016380727
0.0031726668 -0.027496444 0.016394764
0.0042527644 -0.027642969 0.016318917
0.0052908608 -0.027512478 0.016202092
0.0063287388 -0.027424535 0.015818447
0.007455627 -0.027692329 0.015559524
0.0085908882 -0.027920388 0.015323877
0.0095459791 -0.027577275 0.01542604
0.01070821 -0.027841346 0.015197933
0.011759528 -0.027795248 0.015318513
0.012740077 -0.027603501 0.015020162
0.013801469 -0.027602937 0.014739752
0.014838035 -0.02755635 0.014987677
0.015995879 -0.027726188 0.015156657
0.016925409 -0.027503788 0.015125424
0.017903894 -0.027382428 0.015219867
0.019427676 -0.028062198 0.015219867
0.019999987 -0.027368402 0.015227437
0.021357572 -0.027764844 0.014707625
0.02256424 -0.027936677 0.014306664
0.023562057 -0.027846068 0.013971627
0.024513654 -0.027711088 0.013572007
0.025773987 -0.02792182 0.013484269
0.026836237 -0.027909685 0.013309956
0.027941585 -0.027941585 0.013309956
0.029316381 -0.028230589 0.012997985
0.030225337 -0.028066384 0.012975484
0.031058174 -0.027845258 0.013284296
0.032185167 -0.027893811 0.013549954
0.032841749 -0.027544692 0.014010161
0.034096412 -0.027703336 0.014051288
0.034956742 -0.027541677 0.014070451
0.036220908 -0.027698342 0.014091462
0.037339807 -0.027738141 0.013976127
0.038230248 -0.027610736 0.013802648
0.039166775 -0.027522597 0.013346016
0.040777687 -0.027900523 0.01267755
0.041434605 -0.027623069 0.011818409
0.042530276 -0.027644681 0.010941178
0.044545595 -0.028248424 0.0096119344
0.045645826 -0.02825694 0.0079086721
0.046096049 -0.02787203 0.0063017905
0.047363013 -0.027987236 0.0050286949
-0.058330022 -0.027004641 0.0059874058
-0.057911288 -0.027316647 0.0069027543
-0.056039769 -0.026942199 0.0077317655
-0.054945551 -0.026934095 0.0081347823
-0.054361932 -0.027180966 0.009000808
-0.052669276 -0.026872082 0.009454906
-0.052323252 -0.027251694 0.010023087
-0.050958365 -0.027105514 0.010193765
-0.049462873 -0.026881997 0.010574132
-0.048575304 -0.02698628 0.010604262
-0.047160164 -0.026795549 0.010616302
-0.045895133 -0.026683217 0.010818601
-0.044821739 -0.026679607 0.010542512
-0.043959353 -0.026804484 0.010299772
-0.043333877 -0.027083674 0.010538161
-0.042104915 -0.026990332 0.010602146
-0.04106728 -0.027017947 0.010150194
-0.040428553 -0.027316591 0.010313153
-0.038989078 -0.027075751 0.010299772
-0.037207764 -0.026576975 0.010542393
-0.036523506 -0.026855519 0.011930525
-0.035800882 -0.027121883 0.012448519
-0.034237679 -0.026748188 0.012939125
-0.033518434 -0.027030993 0.013539076
-0.03224669 -0.026872242 0.013914168
-0.031114126 -0.02682252 0.014431268
-0.030228412 -0.026989654 0.01467073
-0.028640656 -0.026519125 0.015178919
-0.027548103 -0.026488561 0.015121847
-0.026925515 -0.026925515 0.015648603
-0.025589989 -0.02665624 0.015644968
-0.02463771 -0.026780121 0.015624344
-0.02353905 -0.026748922 0.015453458
-0.022198977 -0.026427355 0.015799314
-0.021320838 -0.026651051 0.015593797
-0.020232996 -0.026622362 0.01545772
-0.019041175 -0.026446078 0.01513055
-0.018165141 -0.026713442 0.014774531
-0.017001064 -0.026564162 0.014611691
-0.015925437 -0.026542395 0.014443368
-0.014976624 -0.026743973 0.014176607
-0.014078829 -0.02707467 0.014096648
-0.01287203 -0.026816731 0.013845146
-0.011962814 -0.027188215 0.013483673
-0.010701391 -0.02675348 0.013319284
-0.009511902 -0.026421953 0.013499826
-0.0085912775 -0.026847741 0.013614625
-0.0074078282 -0.026456529 0.013945431
-0.0063757454 -0.026565608 0.014153093
-0.0053905854 -0.02695293 0.014563918
-0.0042098681 -0.026311675 0.014904141
-0.003180108 -0.026500901 0.015319139
-0.0021253387 -0.026566733 0.015461385
-0.0010548896 -0.026372241 0.015833795
0 -0.026728334 0.016191393
0.0010557416 -0.02639354 0.016225129
0.0021037955 -0.026297444 0.016506076
0.0031868629 -0.026557192 0.0166803
0.0042609856 -0.02663116 0.016482651
0.0052959607 -0.026479805 0.016395926
0.0063363151 -0.026401313 0.016114205
0.0075181448 -0.026850518 0.015851825
0.0084910048 -0.026534392 0.015687257
0.0096394867 -0.026776355 0.015635222
0.010573023 -0.026432559 0.015363514
0.01165098 -0.026479499 0.015487462
0.012731879 -0.026524749 0.015314251
0.013711142 -0.026367582 0.014957935
0.014854863 -0.026526542 0.015094906
0.016078688 -0.026797814 0.015125424
0.016674157 -0.026053373 0.014984816
0.018139299 -0.02667544 0.015276343
0.019198757 -0.026664941 0.015316606
0.020137131 -0.026496226 0.015174657
0.021646626 -0.027058285 0.014673293
0.02275159 -0.027085228 0.014393002
0.023482904 -0.026685119 0.013971627
0.024696402 -0.026843915 0.013344705
0.025659971 -0.026729137 0.013104409
0.026630932 -0.026630932 0.012790233
0.028078634 -0.026998688 0.012594163
0.029121006 -0.026963893 0.012472659
0.030355899 -0.027103482 0.012332022
0.030712789 -0.026476542 0.012424439
0.031638604 -0.026365506 0.012552112
0.03293534 -0.026560757 0.012828827
0.033996966 -0.02656013 0.013164937
0.034994278 -0.026510818 0.013635099
0.036309086 -0.026697857 0.013541073
0.037101667 -0.026501194 0.013343602
0.038039882 -0.026416587 0.013224274
0.039950971 -0.026993899 0.012005687
0.040715035 -0.026786208 0.011629939
0.041209616 -0.026416423 0.011182666
0.043537345 -0.027210843 0.010211408
0.044363946 -0.027051186 0.008569926
0.045088656 -0.026838485 0.0062845945
0.046990536 -0.02732008 0.0055927634
-0.056855015 -0.025745668 0.0060130358
-0.056362052 -0.026013253 0.006888926
-0.055428013 -0.026083771 0.0077317655
-0.053654384 -0.025754103 0.0081203282
-0.053005796 -0.025962023 0.0086985528
-0.052386235 -0.026193118 0.0092504919
-0.05071032 -0.025894633 0.0095475912
-0.04943138 -0.025790285 0.0099250674
-0.048822146 -0.026038475 0.0098501444
-0.047175262 -0.02573196 0.010235518
-0.04609983 -0.025730137 0.010349751
-0.044833586 -0.025619192 0.01014328
-0.0445196 -0.026060252 0.0099359453
-0.043328311 -0.025996987 0.010207146
-0.041931719 -0.025804134 0.01027146
-0.04123237 -0.026041495 0.0099925101
-0.039701369 -0.025752237 0.010103077
-0.038390454 -0.025593637 0.010034144
-0.037625112 -0.025800077 0.010568857
-0.036964126 -0.026092324 0.011211127
-0.035616141 -0.025902648 0.012579978
-0.034788441 -0.02609133 0.012548655
-0.032929044 -0.025493452 0.013274878
-0.031730808 -0.025384644 0.013679385
-0.031092439 -0.025731673 0.014217436
-0.029843675 -0.025580293 0.014602512
-0.028864721 -0.025657529 0.014939576
-0.027879182 -0.025734629 0.01476422
-0.026513482 -0.025452942 0.015280843
-0.025659498 -0.025659498 0.015261561
-0.024634469 -0.025705533 0.015140563
-0.023408925 -0.02553701 0.015238017
-0.022285322 -0.025468938 0.015360177
-0.021662077 -0.025994495 0.015309989
-0.02022337 -0.025545307 0.014966071
-0.01918745 -0.025583267 0.014809847
-0.01800767 -0.025422592 0.014302224
-0.017038684 -0.025558025 0.014150381
-0.015985342 -0.025576545 0.014137417
-0.014976352 -0.025673747 0.013871223
-0.014084137 -0.026001485 0.013856083
-0.012906116 -0.025812231 0.013562739
-0.011792634 -0.025729382 0.013405323
-0.010588022 -0.025411254 0.013273299
-0.0096650543 -0.025773479 0.013213009
-0.008554128 -0.025662383 0.013427556
-0.0075056595 -0.025733691 0.013914108
-0.0064048353 -0.025619341 0.014196843
-0.0053223302 -0.025547184 0.014762849
-0.0042694258 -0.025616555 0.014690489
-0.003206704 -0.025653632 0.015069366
-0.0021371057 -0.025645267 0.01540029
-0.0010568156 -0.025363574 0.015713215
0 -0.025496585 0.016014665
0.0010493901 -0.02518536 0.016182452
0.0021340623 -0.025608746 0.016432971
0.0031752978 -0.025402382 0.016545326
0.0042394814 -0.025436888 0.016688734
0.0053439359 -0.025650894 0.016429454
0.0063873078 -0.025549231 0.016191274
0.0074796733 -0.025644595 0.016307116
0.0085317334 -0.025595201 0.016051441
0.0096573867 -0.025753032 0.015802205
0.010722494 -0.025733987 0.015486002
0.011717674 -0.025565835 0.015554965
0.012673954 -0.025347909 0.015183479
0.013733794 -0.025354696 0.015058726
0.014904818 -0.025551116 0.015029609
0.015846664 -0.025354663 0.014984816
0.017212866 -0.025819298 0.015109122
0.018148266 -0.025621081 0.015092254
0.01907034 -0.025427122 0.014787912
0.020311162 -0.025656203 0.014858514
0.021331377 -0.025597652 0.014437824
0.022377227 -0.025573971 0.014612615
0.023592101 -0.025736837 0.013954461
0.024539432 -0.025606362 0.013067305
0.025461186 -0.025461186 0.013037413
0.026840003 -0.025766401 0.01246503
0.027966037 -0.025814803 0.012237608
0.029374659 -0.026110807 0.012012929
0.03037921 -0.026039321 0.012081772
0.031527285 -0.026091546 0.011705816
0.03208952 -0.025671616 0.012177318
0.033051327 -0.025588121 0.012217253
0.033860385 -0.025395289 0.012154728
0.035413954 -0.025755603 0.013014853
0.036232103 -0.025575601 0.012982041
0.037090309 -0.025433354 0.012306631
0.038888041 -0.025925361 0.012350917
0.039398633 -0.025555868 0.011597872
0.040520869 -0.025592128 0.01127398
0.04202386 -0.025860837 0.010298759
0.042785648 -0.025671389 0.0093056262
0.044939149 -0.026305843 0.0078344941
0.045362417 -0.02592138 0.0060347319
0.046219535 -0.02579695 0.0052722692
-0.057198904 -0.025299516 0.0056988001
-0.054995593 -0.024801934 0.0062925518
-0.0542541 -0.024956886 0.0067632496
-0.05292758 -0.024843559 0.0076576769
-0.051729407 -0.024787009 0.00818187
-0.051197879 -0.025054282 0.0087407231
-0.049182583 -0.024591291 0.0092990398
-0.048671313 -0.024876447 0.0091035068
-0.047480281 -0.02481924 0.0096925795
-0.046764977 -0.025013825 0.0098536611
-0.045046046 -0.024668073 0.0096707642
-0.044645227 -0.025044883 0.0096417069
-0.043089874 -0.024776679 0.0097230077
-0.041968517 -0.024750665 0.009791404
-0.041063324 -0.024854118 0.0095036924
-0.03936398 -0.0244695 0.0095720887
-0.038915515 -0.024862692 0.0098197758
-0.037885282 -0.024896044 0.010158718
-0.036998373 -0.025028313 0.010903329
-0.035861567 -0.024994425 0.012041003
-0.034311932 -0.024661701 0.012335271
-0.032666661 -0.024236554 0.012701839
-0.031944856 -0.024491057 0.013370216
-0.03090152 -0.024508102 0.014007002
-0.029696692 -0.024393711 0.014309824
-0.02879349 -0.024527788 0.014560968
-0.027785322 -0.024579324 0.014704287
-0.026628228 -0.024497971 0.015036702
-0.025625322 -0.0245576 0.014947355
-0.02457796 -0.02457796 0.015071243
-0.023304025 -0.0243633 0.015051097
-0.022545179 -0.024692338 0.015335828
-0.021311389 -0.024508098 0.015046537
-0.020228634 -0.024487294 0.01487723
-0.019228566 -0.024569837 0.014574707
-0.018121965 -0.024517953 0.014181465
-0.017230952 -0.024769492 0.013988465
-0.016014138 -0.024555014 0.013863117
-0.015028792 -0.024690161 0.013773918
-0.01410518 -0.024955321 0.013842791
-0.01297956 -0.02487749 0.013658911
-0.011806408 -0.024686128 0.013602972
-0.010739885 -0.024701737 0.013347208
-0.0095399413 -0.024379851 0.013058096
-0.0085407728 -0.024554722 0.013404787
-0.0074948277 -0.024625862 0.013928115
-0.0063473391 -0.024331467 0.013902783
-0.0053383266 -0.024556303 0.014238179
-0.0042883125 -0.024657797 0.014769077
-0.003207721 -0.024592528 0.014938742
-0.0020980935 -0.024128078 0.015464336
-0.0010646406 -0.024486734 0.015799403
0 -0.024201183 0.016233802
0.0010634231 -0.024458732 0.016309857
0.0021288958 -0.024482304 0.016513735
0.0031569526 -0.024203304 0.016767979
0.0042096656 -0.024205578 0.016846567
0.0052899346 -0.024333701 0.016682148
0.0063780169 -0.024449065 0.016348541
0.0074922713 -0.024617463 0.016335249
0.0085578142 -0.024603717 0.016195297
0.0096045742 -0.024545025 0.016051441
0.01072528 -0.024668146 0.015458286
0.011696631 -0.024456592 0.015381306
0.012807968 -0.024548607 0.015244901
0.013935124 -0.02465445 0.014930755
0.014823525 -0.024352936 0.014897555
0.015860843 -0.024319958 0.014907777
0.016830957 -0.024194499 0.014949709
0.018163323 -0.024573909 0.014858514
0.019207768 -0.024543261 0.014589339
0.020340702 -0.024622956 0.014658868
0.021177631 -0.024354277 0.014039993
0.022490283 -0.024632215 0.014309049
0.023650371 -0.024725389 0.013448477
0.024316568 -0.024316568 0.012972534
0.02572595 -0.024654036 0.012425214
0.026834803 -0.024688018 0.011797994
0.027692135 -0.024496891 0.011703223
0.029129671 -0.024814164 0.011265934
0.03065229 -0.025178667 0.011030525
0.031338193 -0.024854429 0.011031628
0.032309085 -0.024770301 0.010999054
0.033090003 -0.024550647 0.011112779
0.034478929 -0.02478173 0.011601359
0.034790441 -0.024247887 0.011826038
0.036031138 -0.024374004 0.01177454
0.037354648 -0.02454734 0.011516511
0.03825197 -0.024438761 0.011241615
0.039099324 -0.024304984 0.01060456
0.040883698 -0.024745395 0.010162652
0.042133924 -0.024848212 0.0091433525
0.04353812 -0.02503442 0.0078865886
0.044804133 -0.025134025 0.0061502159
0.045597836 -0.024970245 0.0050594211
-0.055566859 -0.023970015 0.0054434538
-0.054500233 -0.023980102 0.0059834123
-0.053011879 -0.023801252 0.0063937008
-0.051971592 -0.023820313 0.0070704818
-0.050784338 -0.023771392 0.0076338053
-0.049893323 -0.023862023 0.0085754395
-0.04896393 -0.02393792 0.0088171363
-0.04773983 -0.023869915 0.0092188418
-0.046417445 -0.023748459 0.0092899799
-0.045756754 -0.023967823 0.0091038644
-0.044728402 -0.024000606 0.0087819099
-0.043590207 -0.023974614 0.0090635717
-0.042754229 -0.02411777 0.0090608597
-0.040783431 -0.023611458 0.0089924634
-0.039948184 -0.023752972 0.0091311336
-0.038861986 -0.023748992 0.0094134808
-0.037648551 -0.023664804 0.0098365843
-0.036995273 -0.023938116 0.010479778
-0.035950664 -0.02396711 0.011123568
-0.034200184 -0.023512626 0.012303412
-0.033247035 -0.023594668 0.012501657
-0.032091383 -0.02353368 0.013317108
-0.030759666 -0.023334917 0.013672262
-0.029845383 -0.023449942 0.014230132
-0.028905759 -0.023552839 0.014505059
-0.027830271 -0.023548691 0.014605731
-0.026777785 -0.02356445 0.014904141
-0.025644945 -0.023507867 0.014813483
-0.024503103 -0.02343775 0.014874637
-0.023499873 -0.023499873 0.014721125
-0.022479383 -0.023549829 0.015071839
-0.021293694 -0.023423065 0.014859647
-0.020402476 -0.023623919 0.014754504
-0.019118492 -0.023367045 0.014408171
-0.018124502 -0.023455236 0.014054477
-0.017071787 -0.023473706 0.013874978
-0.015887702 -0.023301961 0.013863117
-0.015184231 -0.023860935 0.013724923
-0.014116649 -0.023889713 0.013773918
-0.012906889 -0.02366263 0.013655126
-0.011844883 -0.023689765 0.013608217
-0.010735303 -0.023617668 0.013363421
-0.0095341559 -0.023305714 0.013363421
-0.0085512223 -0.02351586 0.013126254
-0.0074404827 -0.023384374 0.013728321
-0.0063818325 -0.023400052 0.01421237
-0.0053007212 -0.023323175 0.014627039
-0.0042833127 -0.023558218 0.014857978
-0.0032098149 -0.023538642 0.015181422
-0.0021316297 -0.023447927 0.015460491
-0.0010560226 -0.023232497 0.015918523
0 -0.023450898 0.016242206
0.0010645463 -0.023420019 0.016256362
0.0021165309 -0.023281839 0.016707391
0.0031783998 -0.023308264 0.016822487
0.0042263283 -0.023244806 0.016788542
0.0052495832 -0.023098165 0.016682148
0.0063895029 -0.023428177 0.016336203
0.0074438918 -0.023395089 0.016278774
0.008473794 -0.023302931 0.016051441
0.0096344063 -0.023550771 0.015817881
0.010715218 -0.023573481 0.015486002
0.011796681 -0.023593362 0.015486002
0.012887172 -0.023626482 0.015295893
0.013723487 -0.023224361 0.014919341
0.014817083 -0.023283988 0.014850825
0.016075701 -0.023577694 0.014752209
0.017039666 -0.023429541 0.01479733
0.018249627 -0.023617163 0.014658868
0.019299135 -0.023587832 0.014249057
0.020100893 -0.023274718 0.014077097
0.021462742 -0.023609016 0.013748258
0.022438524 -0.023507025 0.013595492
0.023276523 -0.023276523 0.013261199
0.02461914 -0.023548741 0.012589395
0.025477208 -0.023354108 0.01215741
0.026446614 -0.023273019 0.011395663
0.027948745 -0.023648938 0.011210471
0.028864754 -0.023519428 0.010835052
0.030217813 -0.023742568 0.010599196
0.031455267 -0.023862615 0.010564238
0.032472055 -0.02381284 0.01020807
0.033350531 -0.023668118 0.010186017
0.034027338 -0.023393795 0.010436416
0.03438681 -0.022924539 0.010739625
0.036778696 -0.02379798 0.01060456
0.037449002 -0.023539374 0.010596156
0.038578194 -0.023575563 0.0094346106
0.039656576 -0.023579584 0.0089151859
0.040972296 -0.023720803 0.0082883239
0.042614795 -0.024039114 0.0073509812
0.043500543 -0.023925299 0.0060201883
0.044514842 -0.023886012 0.0052877367
-0.054407723 -0.022851244 0.0051832497
-0.05322323 -0.022809958 0.0058905482
-0.052033592 -0.022764698 0.0064364076
-0.050899066 -0.022742135 0.0068449676
-0.049749654 -0.022711799 0.0077138841
-0.048436698 -0.022603791 0.0079380274
-0.047216173 -0.022534993 0.0084740818
-0.046975512 -0.02294153 0.0087544322
-0.045615297 -0.022807648 0.0085873604
-0.044105984 -0.02259087 0.0086858571
-0.043610532 -0.02289553 0.008505255
-0.042216279 -0.022731842 0.0086477399
-0.040837221 -0.022567939 0.0086961687
-0.040249623 -0.022844382 0.0089309216
-0.038823485 -0.022647034 0.0092881024
-0.038188584 -0.02291315 0.00977543
-0.03733851 -0.023062021 0.010407418
-0.035711125 -0.022725262 0.011032641
-0.034387317 -0.022566678 0.012351841
-0.033249583 -0.022523912 0.012805909
-0.032004576 -0.022403203 0.013310194
-0.031064942 -0.022495303 0.013668031
-0.030235451 -0.022676587 0.0141702
-0.028668482 -0.022297708 0.014414936
-0.028075704 -0.022676531 0.014370441
-0.026673488 -0.022405729 0.014644504
-0.02535953 -0.022189589 0.014612973
-0.024437865 -0.022312833 0.014365464
-0.02355919 -0.02248832 0.014289796
-0.022279348 -0.022279348 0.014599442
-0.021373169 -0.022441829 0.014676064
-0.020422537 -0.022572277 0.014656723
-0.019241493 -0.022448409 0.0142138
-0.01828206 -0.022583721 0.013712674
-0.016932912 -0.022224449 0.013740689
-0.016125316 -0.022575442 0.01349932
-0.014995423 -0.022493135 0.013452411
-0.013938941 -0.022516752 0.01349932
-0.012957552 -0.022675717 0.0133003
-0.011934181 -0.022783438 0.013419241
-0.010675868 -0.022419324 0.013217986
-0.0096548721 -0.022528037 0.013103068
-0.0085465228 -0.022434622 0.013009399
-0.0074474458 -0.022342339 0.013698339
-0.0063808607 -0.022333013 0.014244795
-0.0053206105 -0.022346565 0.014680624
-0.0042656199 -0.022394504 0.014921904
-0.0032369148 -0.022658404 0.015201509
-0.0021294795 -0.022359537 0.01550445
-0.0010515973 -0.022083543 0.015830249
0 -0.022303553 0.016080439
0.0010563468 -0.022183282 0.016248882
0.0021242432 -0.022304554 0.016631782
0.0031640292 -0.022148205 0.016788661
0.0042485711 -0.022304997 0.016767025
0.0052789031 -0.022171393 0.016600758
0.0063801305 -0.022330457 0.016308308
0.0074176136 -0.022252841 0.016198397
0.0085509066 -0.022446129 0.015716791
0.0096537769 -0.02252548 0.015684158
0.010695348 -0.022460232 0.015477061
0.011729966 -0.022393573 0.015477061
0.01281586 -0.022427756 0.014813513
0.013894636 -0.022445181 0.014471263
0.014993719 -0.022490578 0.014368623
0.015821373 -0.022149924 0.014489472
0.01699619 -0.022307498 0.014437824
0.018072113 -0.022324374 0.014342993
0.019183462 -0.022380706 0.013933182
0.020226078 -0.022355139 0.013773948
0.021274647 -0.022338381 0.013539523
0.022398105 -0.022398105 0.013632506
0.023683589 -0.022607064 0.012920022
0.024541331 -0.022407303 0.012316942
0.025683381 -0.022472959 0.011653513
0.026647659 -0.022384033 0.011105955
0.027574887 -0.022272024 0.01083082
0.028760344 -0.022369156 0.01039812
0.030305184 -0.022728888 0.0099112689
0.031269249 -0.022643248 0.0095593929
0.032228637 -0.022560047 0.0094681978
0.033695623 -0.022826066 0.009265542
0.033412259 -0.021926796 0.0091548562
0.034990173 -0.022266474 0.0091912448
0.036775336 -0.022714179 0.009149164
0.037088808 -0.022253286 0.0088758171
0.038683753 -0.022565525 0.008073777
0.039468907 -0.022401271 0.007340312
