ply
format ascii 1.0
comment PCL generated
element vertex 1263
property float x
property float y
property float z
element camera 0
property float view_px
property float view_py
property float view_pz
property float x_axisx
property float x_axisy
property float x_axisz
property float y_axisx
property float y_axisy
property float y_axisz
property float z_axisx
property float z_axisy
property float z_axisz
property float focal
property float scalex
property float scaley
property float centerx
property float centery
property int viewportx
property int viewporty
property float k1
property float k2
end_header
0.049621787 -0.098164842 0.011603028
0.051053166 -0.09884762 0.011311233
0.050392956 -0.095536649 0.010918707
0.052958485 -0.098351479 0.0098225474
0.053279955 -0.096969523 0.0085022449
0.054934323 -0.098020069 0.0070772469
0.058337923 -0.10209137 0.0064301491
-0.059525196 -0.09920866 0.0050617158
-0.059732553 -0.10143264 0.0061493218
-0.05712289 -0.098866545 0.0072700679
-0.05458409 -0.096324869 0.0084938407
-0.054338649 -0.097809568 0.0096008182
-0.052859232 -0.097088389 0.01078251
-0.051191125 -0.095983364 0.011548609
-0.050616398 -0.09692502 0.011763632
-0.04834557 -0.094589159 0.012744695
-0.047972474 -0.095944948 0.013252765
-0.047272637 -0.096694037 0.013364553
-0.045373093 -0.094966948 0.013283402
-0.044647139 -0.095672444 0.0131751
-0.044308279 -0.097262077 0.013376951
-0.043067385 -0.096901625 0.013355464
-0.042319205 -0.097659707 0.0131751
-0.040865306 -0.096786253 0.013020933
-0.039840363 -0.096908987 0.012904942
-0.038778342 -0.096945867 0.012531191
-0.037852213 -0.097334266 0.0123339
-0.036159404 -0.095716067 0.012111217
-0.035198722 -0.095996521 0.012016416
-0.034341723 -0.096586101 0.011708915
-0.033306003 -0.096694849 0.011644036
-0.032027405 -0.096082218 0.011310697
-0.03116313 -0.096713163 0.011448532
-0.030048747 -0.096585266 0.010949314
-0.029485153 -0.098283842 0.010109425
-0.027758516 -0.09608718 0.008303225
-0.026827034 -0.096577324 0.0074199736
-0.025820404 -0.096826524 0.0067674518
-0.025019852 -0.097903773 0.0060723424
-0.024390016 -0.099777348 0.0063001513
-0.023213234 -0.099485293 0.0063001513
-0.02205468 -0.09924607 0.0060333312
-0.020928403 -0.099134542 0.0061629415
-0.019177599 -0.095888004 0.0053935051
-0.018392941 -0.097374395 0.0052618384
-0.017342184 -0.097549789 0.005508095
-0.016253551 -0.09752132 0.0065451562
-0.014959038 -0.096165247 0.007899344
-0.014074841 -0.097441211 0.008197993
-0.012913208 -0.096849069 0.0082829297
-0.01208518 -0.098878756 0.0082140863
-0.010999702 -0.098997325 0.0083444715
-0.0097257942 -0.097257957 0.0082214475
-0.0087279044 -0.098188929 0.0079964995
-0.0076006167 -0.097722217 0.0077080429
-0.0064775925 -0.097163893 0.0080415308
-0.0054172054 -0.097509705 0.0084342062
-0.0042981892 -0.096709266 0.0086014867
-0.0032356658 -0.097069979 0.0086674094
-0.0021789151 -0.098051183 0.0091108084
-0.0010731675 -0.09658508 0.0098457336
0 -0.096735276 0.010054976
0.00106591 -0.095931903 0.010244787
0.0021457211 -0.096557453 0.010074168
0.0032094321 -0.096282974 0.010174483
0.0043048514 -0.096859165 0.010294259
0.0052515427 -0.094527774 0.01015687
0.0065885861 -0.0988288 0.0081950724
0.0077904761 -0.10016327 0.0080918372
0.0086089503 -0.096850693 0.008266449
0.009938295 -0.099382959 0.0072566569
0.010905144 -0.098146297 0.0072052181
0.011935383 -0.097653143 0.0072230697
0.013009538 -0.097571544 0.0076953471
0.014028464 -0.097120136 0.0079677701
0.014957374 -0.096154548 0.0086759031
0.016142087 -0.096852526 0.0092124641
0.016871393 -0.094901592 0.010329276
0.018528339 -0.098091207 0.010652274
0.019292064 -0.096460335 0.011057466
0.020481292 -0.097016647 0.011230499
0.02133216 -0.095994726 0.01182574
0.022777814 -0.097619213 0.012073785
0.023571918 -0.096430577 0.012250364
0.024521232 -0.095952645 0.012508512
0.025911622 -0.097168587 0.012622863
0.02660585 -0.095781058 0.012707472
0.027743081 -0.096033745 0.012389749
0.028667767 -0.095559224 0.013076544
0.030002216 -0.096435703 0.013522089
0.031101178 -0.096520901 0.013786942
0.032105722 -0.096317165 0.013840318
0.033666428 -0.097741239 0.014422983
0.034996483 -0.098427616 0.014128506
0.035167411 -0.09591113 0.014289498
0.036604866 -0.09689524 0.015220612
0.037514061 -0.096464738 0.015409648
0.037568722 -0.09392181 0.015143305
0.039274786 -0.095533259 0.01521942
0.040397119 -0.095677391 0.01521942
0.041180562 -0.095032074 0.015065014
0.04246347 -0.095542818 0.014726043
0.043155491 -0.094731562 0.014460057
0.044816155 -0.096034624 0.013627797
0.046675645 -0.09769322 0.012942404
0.04742879 -0.097013444 0.012361348
0.048430167 -0.096860334 0.011841327
0.049618252 -0.097079188 0.011545867
0.050483063 -0.096669704 0.011304379
0.051803719 -0.097131982 0.010483861
0.052106705 -0.095706202 0.0092436075
0.053697944 -0.0966563 0.0084529519
0.054945376 -0.09696243 0.0069680214
0.057567868 -0.099636704 0.0056610405
-0.058321618 -0.097936302 0.0059380531
-0.056419015 -0.096563309 0.0077977479
-0.055549551 -0.096939407 0.0085943341
-0.053885665 -0.095916472 0.010185689
-0.052469999 -0.095302649 0.011089504
-0.051677719 -0.095819101 0.011570394
-0.050462369 -0.095556401 0.011752248
-0.048936944 -0.094682343 0.012791961
-0.048277285 -0.095481731 0.013075173
-0.046985075 -0.095037989 0.013354868
-0.045954447 -0.095115013 0.013273716
-0.045036245 -0.095433943 0.013279498
-0.043387085 -0.094181709 0.013283402
-0.043192007 -0.096102215 0.013355106
-0.042219076 -0.096346095 0.01332894
-0.041132376 -0.09633635 0.013126314
-0.039832909 -0.095814288 0.012927383
-0.038726274 -0.095739961 0.012905121
-0.037807893 -0.096140064 0.012789786
-0.036975157 -0.096787907 0.012396216
-0.035485581 -0.095703535 0.012274921
-0.034430169 -0.0957589 0.012117356
-0.033349406 -0.095745064 0.01188758
-0.032112051 -0.095265746 0.011802465
-0.031284682 -0.096011601 0.011658669
-0.030453755 -0.096799433 0.01127997
-0.028982844 -0.095536038 0.010135502
-0.028075956 -0.096106157 0.0093390644
-0.026872465 -0.095665976 0.0077467263
-0.025782779 -0.09561114 0.0074199736
-0.025346143 -0.098078549 0.0069924891
-0.023900872 -0.096689887 0.0072374344
-0.022994639 -0.097453468 0.0072374344
-0.02201171 -0.097952105 0.0074199736
-0.020875137 -0.097783536 0.006690681
-0.019482139 -0.096328363 0.007052511
-0.018390592 -0.096280158 0.0073268116
-0.017036432 -0.094765149 0.0074616075
-0.016388893 -0.097240761 0.0083307028
-0.015200183 -0.096629731 0.0086833835
-0.013929207 -0.095361494 0.0090978146
-0.012983624 -0.096295208 0.0091763735
-0.012240184 -0.099034213 0.0093051493
-0.010680676 -0.095058024 0.0090170801
-0.0097770309 -0.096683979 0.0087716877
-0.0086263902 -0.095968582 0.0083357096
-0.0074767759 -0.095061861 0.0080857575
-0.0065845978 -0.097671531 0.0082218945
-0.0054177106 -0.096435249 0.0091784596
-0.0043742806 -0.097327739 0.0093812048
-0.0032513172 -0.096455745 0.0095490515
-0.0021624586 -0.096229404 0.010049701
-0.0010782629 -0.095965393 0.010201663
0 -0.095250539 0.010314047
0.0010657638 -0.094852969 0.010296881
0.0021806713 -0.097039871 0.010296494
0.0031995361 -0.09491957 0.010682642
0.004186206 -0.093143083 0.010657281
0.0052638627 -0.093696758 0.010336757
0.0065324637 -0.096898206 0.01003319
0.0075888359 -0.096486628 0.0091432333
0.0088377651 -0.098320127 0.008618623
0.0098080933 -0.096991144 0.0081487596
0.010868109 -0.096726172 0.0077165663
0.012020278 -0.097254969 0.0074383318
0.01320423 -0.09793137 0.0081487596
0.014117136 -0.096648082 0.008407414
0.015006141 -0.095396176 0.0088320076
0.01604004 -0.095170908 0.010018706
0.017228654 -0.095834382 0.01072219
0.018660523 -0.097693317 0.011154532
0.019149266 -0.094682485 0.011447638
0.020416493 -0.095635146 0.011849195
0.02178699 -0.096952103 0.012170464
0.022487836 -0.095305584 0.012361795
0.0237845 -0.096219108 0.012673348
0.024892362 -0.096322611 0.012702763
0.026179219 -0.097081266 0.012833714
0.02698683 -0.096073106 0.01281935
0.027703751 -0.09483207 0.012524337
0.029002087 -0.095599465 0.013244033
0.030192712 -0.095969684 0.013685703
0.031546392 -0.096814781 0.014172167
0.031932186 -0.09473215 0.014404863
0.032979596 -0.094683349 0.01465255
0.034033306 -0.094655126 0.014850765
0.035180159 -0.094879813 0.015138686
0.03632576 -0.09508802 0.015821785
0.037174821 -0.094530255 0.016003519
0.03787674 -0.093639724 0.015871137
0.039299928 -0.094532259 0.016068399
0.039877959 -0.09339837 0.01606527
0.041343268 -0.094347455 0.015741915
0.042625688 -0.094842151 0.015832186
0.044183534 -0.095910594 0.014829576
0.045180481 -0.095739588 0.014356315
0.045750819 -0.094693549 0.013086021
0.047576163 -0.096233599 0.012434781
0.048756517 -0.096429549 0.011766732
0.049883798 -0.0965143 0.011407167
0.050643019 -0.095898479 0.011169553
0.052250907 -0.096881889 0.010478169
0.052438147 -0.095244795 0.0087604225
0.054638959 -0.097257338 0.0077528954
0.057164136 -0.099757023 0.0061166584
-0.059316251 -0.09666352 0.0053779185
-0.057885483 -0.096111752 0.0059862137
-0.056460585 -0.095548682 0.0082646012
-0.054327659 -0.093741842 0.0087790787
-0.053694949 -0.094503105 0.0098861456
-0.052323442 -0.09396863 0.010706842
-0.051170863 -0.093813248 0.011642426
-0.050363507 -0.094297633 0.011897027
-0.04888349 -0.093516238 0.01292339
-0.047767024 -0.093411066 0.012980998
-0.047111176 -0.094222352 0.013340533
-0.045379944 -0.092870578 0.013268501
-0.04425111 -0.092716612 0.013142616
-0.043659978 -0.093709216 0.012849391
-0.042813908 -0.094190605 0.013030946
-0.041822668 -0.094369091 0.013030946
-0.040552262 -0.0939105 0.012873322
-0.039787911 -0.094630696 0.012758464
-0.039494012 -0.09654092 0.012654752
-0.037875455 -0.095229715 0.012654752
-0.036340754 -0.094058424 0.012502044
-0.035063431 -0.093502484 0.012287259
-0.034613505 -0.095187135 0.012131572
-0.032733653 -0.092921332 0.012089759
-0.032342713 -0.094871953 0.011828154
-0.031616352 -0.095939271 0.011775196
-0.030271776 -0.095139861 0.011643112
-0.02903978 -0.094648167 0.010504961
-0.028410567 -0.09615884 0.009457171
-0.026934139 -0.094808169 0.0081422329
-0.025988946 -0.095292799 0.0072737932
-0.025236392 -0.096556626 0.0072259009
-0.024209106 -0.096836425 0.0077914
-0.022988001 -0.096330673 0.0077914
-0.022019722 -0.096886776 0.0077015758
-0.020363946 -0.09431722 0.0077914
-0.019488113 -0.095275216 0.0077015758
-0.018477149 -0.095646419 0.0086863339
-0.01725677 -0.094912231 0.0087237954
-0.016061882 -0.094229706 0.0091779232
-0.014918226 -0.093771704 0.0098276436
-0.01421588 -0.096230574 0.010018677
-0.01309047 -0.095996782 0.010014296
-0.011895646 -0.095165171 0.01012978
-0.010859551 -0.095564045 0.0098557174
-0.0096562654 -0.09441682 0.0095410645
-0.0084551759 -0.093006931 0.0090978146
-0.0075678299 -0.095138431 0.0091579556
-0.0064344434 -0.094371833 0.0092922747
-0.0053678695 -0.094474502 0.009799242
-0.0043646777 -0.096022911 0.0099472106
-0.0032153369 -0.09431655 0.010195076
-0.0021351336 -0.093945876 0.010050267
-0.0010856205 -0.0955346 0.010531902
0 -0.094350517 0.01080355
0.0011077735 -0.097484067 0.010710657
0.0022044508 -0.096995831 0.011240423
0.003226056 -0.094630972 0.011666983
0.0042708293 -0.093958244 0.011474639
0.0053589372 -0.094317295 0.011602044
0.0062604528 -0.091819972 0.010653436
0.0075344858 -0.094719246 0.010498285
0.0087157227 -0.095872954 0.01070106
0.0097286021 -0.095124111 0.0091065466
0.010954805 -0.09640228 0.0084838569
0.012061317 -0.09649054 0.0084134936
0.013026182 -0.095525332 0.0085155368
0.014286295 -0.096707225 0.0088494718
0.01496072 -0.094038814 0.0097076595
0.016310938 -0.095690832 0.010660738
0.017100625 -0.09405344 0.010787755
0.018009834 -0.093227372 0.011230499
0.01947419 -0.095207155 0.011508256
0.020481493 -0.094861649 0.011521429
0.02101212 -0.092453331 0.011835188
0.02251965 -0.094368048 0.012006074
0.024078282 -0.096313126 0.01236707
0.024622371 -0.094207324 0.012476385
0.026185844 -0.09601476 0.012476385
0.026990609 -0.095006935 0.012622863
0.027872829 -0.094338804 0.012507349
0.028633866 -0.09332519 0.012775481
0.029669568 -0.093247212 0.013158947
0.031264924 -0.09487287 0.014165163
0.032335587 -0.094851047 0.013876826
0.033449735 -0.094954088 0.014185429
0.034277231 -0.094262376 0.014403641
0.035768617 -0.095382981 0.014733523
0.036094584 -0.093421273 0.015493989
0.03683709 -0.092618965 0.015374869
0.038364269 -0.093779325 0.015763313
0.038589731 -0.091780975 0.015785009
0.039668977 -0.091864996 0.015583992
0.04163539 -0.093946517 0.015783787
0.042474888 -0.093444757 0.015725374
0.044366956 -0.095226631 0.014662653
0.045515075 -0.095364913 0.013964921
0.046146508 -0.094439365 0.013002455
0.048108999 -0.096217997 0.012423515
0.048502229 -0.094848797 0.011656195
0.049340829 -0.094391145 0.011317909
0.05074168 -0.095005699 0.010895461
0.052743696 -0.096696772 0.0099473
0.052705891 -0.094655484 0.0088865459
0.056142215 -0.098810293 0.0073257685
0.055946097 -0.096534438 0.0059274435
-0.059624203 -0.096061215 0.0054777265
-0.05806553 -0.095315121 0.0067419112
-0.055917908 -0.093554959 0.0082646012
-0.054412879 -0.092821971 0.0085147619
-0.053778756 -0.093575031 0.0096022189
-0.052553292 -0.093308911 0.010398716
-0.051711351 -0.093726821 0.01160261
-0.050592553 -0.093650043 0.011876881
-0.048870564 -0.092429101 0.012937725
-0.048098158 -0.092989765 0.012990683
-0.046708003 -0.092354462 0.013187349
-0.045367703 -0.091790468 0.013128817
-0.045366816 -0.093974113 0.013089687
-0.044095766 -0.093569063 0.013030946
-0.042641543 -0.092745356 0.013030946
-0.042297699 -0.094356403 0.01300332
-0.041055705 -0.093995951 0.012906253
-0.039878771 -0.093768999 0.012654752
-0.038497388 -0.093035355 0.012564659
-0.037338231 -0.092812181 0.012564659
-0.036161747 -0.092531532 0.012436181
-0.035567664 -0.093769297 0.01241073
-0.033644926 -0.091472141 0.012517065
-0.032944031 -0.092455819 0.012290537
-0.032272153 -0.093589239 0.012131572
-0.030962301 -0.092886902 0.011900604
-0.030468928 -0.094671309 0.011708915
-0.029245898 -0.094236784 0.010584921
-0.027919786 -0.093423903 0.0095846951
-0.027150352 -0.094483219 0.0083123147
-0.026173772 -0.094879925 0.0080200136
-0.025112702 -0.09499152 0.0079865456
-0.024242653 -0.095868669 0.0081962347
-0.023084942 -0.095637612 0.0082058012
-0.022041902 -0.095882282 0.0083640218
-0.020571321 -0.094194993 0.0084307492
-0.019273262 -0.093154103 0.009085089
-0.018066786 -0.092459433 0.0091638565
-0.017126685 -0.093126349 0.0091735423
-0.016089009 -0.093316257 0.0096669495
-0.015061059 -0.093593717 0.010018677
-0.014077748 -0.094212621 0.010573149
-0.013093724 -0.094929501 0.010506779
-0.012306092 -0.097330004 0.0105322
-0.010924781 -0.095045596 0.010216862
-0.0096655926 -0.093434066 0.010014296
-0.0086573642 -0.09414883 0.0094950199
-0.0075167329 -0.093422249 0.0094249845
-0.0064524575 -0.093560636 0.0097895563
-0.0054469309 -0.094776593 0.010254025
-0.0043395497 -0.094385199 0.010319263
-0.0032588411 -0.09450639 0.010626435
-0.0021629408 -0.094087929 0.010626435
-0.0010864851 -0.094524197 0.01094836
0 -0.093684725 0.011058122
0.0011005466 -0.095747545 0.011024624
0.0021354142 -0.092890516 0.011657655
0.0032363194 -0.093853265 0.01208213
0.0042923624 -0.093358882 0.01208213
0.0053081135 -0.092361175 0.012121975
0.006357017 -0.092176743 0.011706769
0.0074904608 -0.093095727 0.011604786
0.0086425906 -0.093988165 0.011687458
0.0097658457 -0.094403185 0.010894179
0.010723452 -0.093294032 0.0094573796
0.01199685 -0.094884187 0.0092928708
0.013101585 -0.094986491 0.0099722147
0.013977104 -0.093539082 0.01003319
0.015227793 -0.094629854 0.010741889
0.016312294 -0.094611309 0.011302501
0.017102869 -0.092996858 0.011508256
0.018331937 -0.093816385 0.011747062
0.019432908 -0.093925722 0.01177752
0.020028513 -0.091709502 0.011731952
0.021489635 -0.093479916 0.011868685
0.022610098 -0.093670405 0.011914253
0.023496563 -0.092918225 0.01236707
0.02469402 -0.09340781 0.012448192
0.025577063 -0.092716858 0.01259467
0.02699721 -0.093950287 0.012627035
0.028038831 -0.093822241 0.012571692
0.028947324 -0.093274705 0.013209403
0.029789845 -0.092561305 0.013086736
0.031382855 -0.094148561 0.013979942
0.032232933 -0.093475506 0.01378563
0.033165045 -0.093076095 0.014122397
0.034487002 -0.093761533 0.014543861
0.034693565 -0.091464847 0.014909029
0.036317199 -0.092929304 0.015218735
0.037568867 -0.093385473 0.015343875
0.038153376 -0.092203997 0.01550746
0.039338652 -0.092498988 0.015229583
0.04052591 -0.092782997 0.015643686
0.040708497 -0.090811267 0.015478432
0.042501595 -0.09244097 0.015202373
0.044183273 -0.093754746 0.015354633
0.045376774 -0.093994744 0.014245033
0.047426514 -0.095955968 0.013351381
0.046655871 -0.092251383 0.012653798
0.048223421 -0.093231939 0.01165539
0.050229665 -0.094999582 0.011434585
0.050926406 -0.094268024 0.010855854
0.05222832 -0.094663829 0.0094814301
0.053356271 -0.094734609 0.0081966519
0.053911828 -0.093806572 0.0069148839
0.056541752 -0.09645357 0.0051362514
-0.058652367 -0.093409322 0.0055243671
-0.057534169 -0.093357332 0.0067171454
-0.056007836 -0.092628345 0.0080541968
-0.055080149 -0.092880256 0.0086220801
-0.054128624 -0.093101226 0.0094572902
-0.053084716 -0.093169093 0.010203212
-0.0518457 -0.09289021 0.011314601
-0.05049587 -0.092396699 0.011838615
-0.048958164 -0.091530479 0.012926698
-0.04885067 -0.093359053 0.012990683
-0.046890944 -0.091650486 0.013128817
-0.045882907 -0.091765814 0.013015181
-0.045265477 -0.092686452 0.012990683
-0.043994289 -0.092280701 0.013217658
-0.042950526 -0.092343636 0.013283402
-0.041675944 -0.091900796 0.01351136
-0.041011315 -0.092815079 0.013518184
-0.039888222 -0.092713162 0.013249606
-0.038517125 -0.092013136 0.013075948
-0.037188992 -0.091378666 0.01322189
-0.036232818 -0.091647722 0.012908012
-0.035121195 -0.091527961 0.012911737
-0.033981711 -0.091325842 0.012911737
-0.033745959 -0.093617812 0.01277557
-0.031944498 -0.091574222 0.012424678
-0.031323113 -0.09288922 0.012027115
-0.030229811 -0.092848703 0.011740506
-0.029159758 -0.092879228 0.010711908
-0.027989836 -0.092581771 0.0095846951
-0.027188126 -0.093527153 0.0089165866
-0.026035849 -0.093295127 0.0085010827
-0.025295382 -0.094582729 0.0081962347
-0.024549799 -0.095967397 0.0083026886
-0.022909302 -0.093819045 0.0087575614
-0.022234272 -0.09560737 0.0087894201
-0.020491412 -0.092750601 0.0090599954
-0.019070942 -0.091116726 0.0094463229
-0.01843556 -0.09326224 0.0094878078
-0.017016383 -0.091463059 0.0095197856
-0.015889103 -0.091097519 0.010272086
-0.015257336 -0.093723632 0.010659963
-0.013833272 -0.091512419 0.010820448
-0.01294174 -0.092749141 0.010794908
-0.011997801 -0.093800992 0.010790765
-0.010807059 -0.09294071 0.010677218
-0.0097596245 -0.093258642 0.010507226
-0.0085855443 -0.092294596 0.010195941
-0.007542728 -0.092667803 0.010045767
-0.0064633009 -0.092640646 0.010330468
-0.0053808959 -0.092551418 0.01025334
-0.0043179467 -0.092835851 0.010545194
-0.0032542653 -0.093288943 0.010792732
-0.0021678736 -0.093218558 0.010633022
-0.0010788793 -0.092783622 0.01086843
0 -0.094147615 0.011419266
0.0010714277 -0.092142776 0.011374325
0.002165966 -0.093136534 0.011556029
0.0032396009 -0.092868559 0.012053996
0.0042373533 -0.091103099 0.012053996
0.0053683785 -0.092336111 0.012054056
0.0064232447 -0.092066512 0.01179871
0.0073124156 -0.089838251 0.012054056
0.0085736234 -0.092166446 0.012054056
0.009739778 -0.093068995 0.011666864
0.010675948 -0.091813155 0.011064768
0.011821468 -0.092422396 0.01067847
0.013205595 -0.094640099 0.010504752
0.014093532 -0.093234137 0.010468781
0.015428326 -0.094774 0.011077911
0.016437773 -0.094243228 0.011944622
0.017110739 -0.09197022 0.011838853
0.018363668 -0.092898555 0.012216032
0.019281054 -0.092120595 0.012197942
0.020344324 -0.09208484 0.012197942
0.021425687 -0.092130452 0.012416214
0.022221675 -0.091003045 0.012416214
0.023870116 -0.093310453 0.012581289
0.024891542 -0.09307272 0.012833714
0.026025852 -0.093259305 0.012954056
0.026822187 -0.092268318 0.012880772
0.028336326 -0.093727849 0.012775481
0.028812848 -0.091774255 0.013606697
0.030111574 -0.092485547 0.013380975
0.030981669 -0.091876671 0.013612121
0.031896342 -0.091436177 0.013710201
0.033384781 -0.092615843 0.014164537
0.034196615 -0.091903403 0.014598191
0.035242766 -0.09184479 0.014796674
0.036412589 -0.092102431 0.015040159
0.036752429 -0.090305969 0.0151546
0.038435888 -0.09181907 0.014938205
0.03954773 -0.091921747 0.015144914
0.040165465 -0.090900794 0.01516673
0.041303318 -0.091079108 0.015107304
0.042585049 -0.09155786 0.014780074
0.043381434 -0.0909952 0.014520586
0.045414921 -0.092992455 0.013514459
0.045938995 -0.091877989 0.012954742
0.048082776 -0.093979977 0.012268364
0.049002662 -0.093649529 0.01116547
0.049677577 -0.092875466 0.010843009
0.050971854 -0.093267649 0.010469288
0.052092947 -0.0933332 0.0086324215
0.052986104 -0.092996016 0.0072132945
0.053643402 -0.092266649 0.0059466958
-0.058557305 -0.092173539 0.0055295825
-0.056713529 -0.09095566 0.006469667
-0.056199078 -0.091863878 0.0077241659
-0.055316146 -0.092193581 0.0083061755
-0.054158844 -0.092070036 0.0090862513
-0.052481778 -0.091039822 0.0099886954
-0.051209327 -0.090683185 0.010893494
-0.050660595 -0.091620229 0.011530578
-0.049549975 -0.09155973 0.012192577
-0.047805525 -0.090299323 0.012506962
-0.047115549 -0.091018677 0.012693018
-0.046176467 -0.091279067 0.012534022
-0.044647947 -0.090358943 0.012536883
-0.043573711 -0.090335742 0.012608647
-0.042692091 -0.090720691 0.012862206
-0.041780416 -0.091059886 0.013036251
-0.040815454 -0.091297731 0.012992948
-0.039688662 -0.091176651 0.012714982
-0.038716327 -0.091413558 0.012714982
-0.037713286 -0.091589406 0.012739748
-0.036631145 -0.091577865 0.012714982
-0.035068404 -0.09032771 0.012717783
-0.034362406 -0.091275133 0.012915701
-0.032931611 -0.09029635 0.012869567
-0.032048181 -0.090803176 0.012519956
-0.031332139 -0.091835581 0.011991292
-0.029775342 -0.090389431 0.011735886
-0.028848402 -0.090819038 0.010665953
-0.028377064 -0.092771173 0.0092226267
-0.026826916 -0.091211513 0.0085696876
-0.026456377 -0.093699671 0.0080921054
-0.025217876 -0.093196496 0.0081470013
-0.024187574 -0.093451992 0.008303225
-0.023148639 -0.09369687 0.0089304149
-0.021913193 -0.093131073 0.0094654858
-0.020525634 -0.091825202 0.0095341504
-0.019411016 -0.091663137 0.009839505
-0.018263627 -0.091318138 0.010808438
-0.017183363 -0.091286615 0.010711879
-0.016041156 -0.090899885 0.010906935
-0.014958021 -0.090816565 0.010841787
-0.014079805 -0.092060268 0.011636913
-0.013075695 -0.092619509 0.011329979
-0.011925884 -0.092154562 0.011570543
-0.010735662 -0.091253132 0.011109769
-0.0097941272 -0.092500091 0.010837853
-0.0084644649 -0.089934938 0.010612667
-0.0075411559 -0.091571175 0.010247409
-0.0063674864 -0.090206057 0.010433078
-0.0053213229 -0.090462491 0.01062572
-0.0043194382 -0.091788061 0.010764569
-0.0032124494 -0.091019407 0.010919034
-0.0021623014 -0.091897815 0.01062572
-0.0010900474 -0.092654034 0.010823727
0 -0.091873564 0.011235297
0.0010803852 -0.091832735 0.011562288
0.0021881866 -0.092997931 0.011647612
0.0031961671 -0.090558074 0.01208213
0.0043187225 -0.091772854 0.012121975
0.0053627724 -0.091167137 0.012159675
0.0063639083 -0.090155371 0.012021929
0.0074610063 -0.090597935 0.011888921
0.0084692352 -0.089985624 0.012129098
0.0096003916 -0.090670362 0.012084037
0.010686173 -0.090832472 0.01156494
0.011708799 -0.090477087 0.011414677
0.012907571 -0.09142863 0.010793686
0.014303776 -0.093524687 0.011015356
0.015224235 -0.092432857 0.011499316
0.016462257 -0.093286119 0.012001544
0.017624866 -0.093632102 0.011813134
0.01835987 -0.091799341 0.012259394
0.019014172 -0.089789152 0.012507051
0.020356964 -0.09107063 0.012408763
0.021331765 -0.090659998 0.012321085
0.022320563 -0.090345137 0.012476385
0.023963518 -0.092586324 0.012701541
0.024574142 -0.090817481 0.013327301
0.026067689 -0.092323072 0.013033062
0.026846264 -0.091277294 0.013053656
0.028083015 -0.091809861 0.01300773
0.029206738 -0.091947131 0.013685703
0.030008601 -0.091097534 0.01343888
0.030833518 -0.090374105 0.013698727
0.032280169 -0.091460481 0.013990104
0.033486556 -0.091817975 0.014421076
0.034255847 -0.090992101 0.014714539
0.035386223 -0.091146335 0.014424831
0.035810653 -0.089526631 0.014848471
0.03695203 -0.089740649 0.014962882
0.038202994 -0.090201519 0.01460433
0.038673259 -0.088843971 0.014706641
0.040217418 -0.089960016 0.014628351
0.04191009 -0.091342501 0.014780074
0.042817932 -0.090988107 0.014053792
0.043551814 -0.090290338 0.01372087
0.044817399 -0.090701878 0.013016731
0.046150964 -0.091228649 0.012607366
0.04693551 -0.090670876 0.011603504
0.048555199 -0.091715373 0.011046022
0.050065268 -0.092511907 0.010488033
0.051028207 -0.092285052 0.0094391704
0.052548561 -0.093054749 0.0081984699
0.053221732 -0.092323422 0.0066421926
-0.058052905 -0.090304516 0.0051231384
-0.057036564 -0.090397574 0.0062455833
-0.056513321 -0.09129075 0.0070476234
-0.055361807 -0.091184154 0.0081896782
-0.054070327 -0.090838149 0.0088152885
-0.053222135 -0.091237947 0.0093948841
-0.05137996 -0.089914933 0.010349929
-0.051126119 -0.091374338 0.010960162
-0.049738389 -0.090826616 0.011774957
-0.048558101 -0.090641782 0.012012571
-0.047227863 -0.090162285 0.012182295
-0.046429235 -0.090698972 0.011885434
-0.045303561 -0.090607122 0.011841238
-0.043914437 -0.089971043 0.01236552
-0.04307932 -0.090466574 0.012696475
-0.042039976 -0.090547644 0.012990683
-0.04086753 -0.090338744 0.012783229
-0.039712965 -0.090159163 0.012564659
-0.038607355 -0.090083838 0.012740612
-0.037332673 -0.089598417 0.012740612
-0.036192585 -0.089416981 0.012515366
-0.035256792 -0.08974456 0.012515366
-0.033770479 -0.088647507 0.012671649
-0.033027489 -0.089493841 0.012459278
-0.032125007 -0.089950018 0.012160242
-0.030937066 -0.089610815 0.011506677
-0.029967025 -0.089901075 0.011072338
-0.029091218 -0.090506017 0.010039508
-0.027734835 -0.089604855 0.0087357461
-0.027039966 -0.090854287 0.0085010827
-0.0260651 -0.091227852 0.0081475377
-0.025323771 -0.092486814 0.0082700253
-0.024266627 -0.0926544 0.0084193647
-0.023085225 -0.092340901 0.0088260174
-0.021700142 -0.091140598 0.0094491839
-0.020494087 -0.090605438 0.0095818937
-0.019187953 -0.089543782 0.011216432
-0.01814615 -0.089663327 0.010837406
-0.017215889 -0.090383425 0.011100858
-0.015814895 -0.08856342 0.011904776
-0.015080799 -0.090484798 0.012173027
-0.014016359 -0.090567246 0.012367368
-0.013052954 -0.091370687 0.012285233
-0.012024431 -0.09182293 0.012412399
-0.011007749 -0.092465103 0.012218058
-0.0095499391 -0.089132778 0.011776835
-0.0085365195 -0.089633457 0.011604548
-0.0073749819 -0.088499784 0.011280864
-0.0064090122 -0.08972618 0.011280864
-0.005348776 -0.089859441 0.011291862
-0.0043624374 -0.091611184 0.011291862
-0.0031838201 -0.089146964 0.011462212
-0.0021376163 -0.089779884 0.011259049
-0.0010784251 -0.090587713 0.011282086
0 -0.090753399 0.011434436
0.001079917 -0.090713032 0.011615187
0.0021712719 -0.091193423 0.01198557
0.0032090615 -0.089853726 0.012198448
0.0043168482 -0.090653822 0.012119502
0.0053153615 -0.089298077 0.012215436
0.006510328 -0.091144592 0.011972427
0.0075182384 -0.090218857 0.012014151
0.008610501 -0.090410262 0.012324214
0.009666455 -0.09022025 0.012271702
0.010674273 -0.089663893 0.011800855
0.011595947 -0.088550873 0.01156494
0.012931988 -0.090523921 0.011079222
0.013924866 -0.089976057 0.011063576
0.015165963 -0.090995781 0.011944741
0.016481305 -0.092295304 0.012344092
0.017218752 -0.090398453 0.0124951
0.018235344 -0.090104058 0.01289928
0.019525977 -0.091121227 0.01300925
0.020174697 -0.089193404 0.012879461
0.021300804 -0.089463376 0.012622535
0.02263844 -0.090553761 0.012777835
0.023498423 -0.089721255 0.01305005
0.024763305 -0.090439893 0.013386339
0.02605938 -0.091207832 0.013380975
0.027248437 -0.091554746 0.01323092
0.028420772 -0.091820963 0.013132662
0.029441698 -0.091596387 0.013757914
0.03021707 -0.090651214 0.013463318
0.031349633 -0.090805829 0.013899565
0.032251772 -0.090304956 0.014357924
0.032730509 -0.088689119 0.01453793
0.034351118 -0.090171687 0.014639467
0.03505069 -0.089219943 0.014410347
0.035895362 -0.088682659 0.014434367
0.037316024 -0.08955846 0.014451534
0.037909724 -0.088456027 0.01441732
0.038692657 -0.087842785 0.014306962
0.041061707 -0.09076798 0.014226943
0.041416768 -0.089205347 0.013939679
0.043124456 -0.09056136 0.013246655
0.043678299 -0.08948724 0.013044924
0.045338463 -0.090676926 0.012479275
0.046217427 -0.090285212 0.011841923
0.046956364 -0.08964397 0.011169791
0.048192419 -0.089959182 0.010680884
0.049656551 -0.090677179 0.0098114908
0.050206631 -0.089731 0.0087263286
0.051889177 -0.090806067 0.0070568323
0.053419556 -0.091576383 0.0062808692
-0.057563566 -0.09014672 0.0058722198
-0.056193125 -0.089692876 0.006762892
-0.055887613 -0.090954348 0.0076878667
-0.054301426 -0.090140365 0.0081187785
-0.05309153 -0.089930557 0.0084486902
-0.052276246 -0.090394348 0.00954023
-0.050596606 -0.089351453 0.010382801
-0.049765684 -0.089794606 0.010897517
-0.048686251 -0.089799084 0.011537671
-0.046935182 -0.088536821 0.011675894
-0.046158593 -0.089096822 0.011622429
-0.044931863 -0.088793926 0.011564702
-0.043809533 -0.088687584 0.011930376
-0.04334072 -0.089931995 0.012540609
-0.041889291 -0.089149006 0.01294741
-0.040749997 -0.089006573 0.012783229
-0.039871272 -0.089440957 0.012769133
-0.0385837 -0.08895687 0.013178408
-0.03764477 -0.089271888 0.01300332
-0.036546376 -0.08921615 0.012873054
-0.035460874 -0.089189477 0.012874752
-0.034063447 -0.088352077 0.01307267
-0.033366878 -0.089337125 0.012818724
-0.032035597 -0.088631816 0.012448162
-0.0314015 -0.089873262 0.011618644
-0.030262135 -0.089705616 0.010713786
-0.028896604 -0.0888303 0.0092986226
-0.028526332 -0.091064833 0.008545965
-0.027314158 -0.090683006 0.0080061853
-0.026023736 -0.089998759 0.0079697371
-0.025310347 -0.091337346 0.0080599487
-0.024287913 -0.091631673 0.0085138083
-0.022847569 -0.090302296 0.0088459551
-0.021502258 -0.089234374 0.0098190904
-0.020295817 -0.088660672 0.011039287
-0.019275907 -0.088883355 0.011728734
-0.018308338 -0.089387774 0.01179406
-0.016856994 -0.087445661 0.011982203
-0.016086807 -0.089013673 0.012331605
-0.015230345 -0.09029419 0.012419879
-0.013817788 -0.088221267 0.012458771
-0.012977838 -0.089763381 0.012357682
-0.011985798 -0.090438306 0.012419879
-0.010833002 -0.08991392 0.012419879
-0.009641204 -0.088913336 0.011835814
-0.0085837664 -0.089056581 0.011721432
-0.0074881511 -0.088788077 0.011399627
-0.0064763324 -0.089589268 0.011363506
-0.0053896592 -0.089468352 0.0112243
-0.0043118438 -0.089470766 0.011259824
-0.0032525773 -0.089987978 0.011167049
-0.0021311627 -0.088443257 0.011376083
-0.0010683374 -0.088672005 0.011368245
0 -0.090961665 0.011398375
0.0010634416 -0.088265657 0.011602134
0.0021518201 -0.089300536 0.01193583
0.003238786 -0.089606419 0.012198448
0.0042769783 -0.0887473 0.012198448
0.0052977223 -0.08794219 0.012256384
0.006499256 -0.08990638 0.012125462
0.007518237 -0.089144811 0.012162864
0.0086859604 -0.090116836 0.012286812
0.0096497992 -0.088992596 0.012331396
0.010727358 -0.089037076 0.011910319
0.011801321 -0.089046337 0.011800855
0.012898347 -0.089213572 0.01156494
0.013868212 -0.088543206 0.01154092
0.01501148 -0.088996634 0.012333781
0.016259534 -0.089969419 0.012836665
0.017491756 -0.09073849 0.012688339
0.018559832 -0.090615653 0.01300925
0.018975291 -0.08749719 0.013335913
0.020150773 -0.088027067 0.01300925
0.021495102 -0.089204676 0.01300481
0.022186447 -0.087689288 0.012925327
0.023660975 -0.089266412 0.013339281
0.02480033 -0.089496844 0.013595611
0.025824906 -0.089311138 0.013602227
0.026751012 -0.088813357 0.01343888
0.028419441 -0.090723604 0.01343888
0.02917809 -0.08969561 0.013633907
0.029953592 -0.088791005 0.013735175
0.031168349 -0.089205965 0.014122307
0.031951636 -0.088399537 0.014012247
0.033143573 -0.088739239 0.014465064
0.033570133 -0.087072536 0.014266223
0.035596378 -0.089530289 0.014121622
0.036633357 -0.089428499 0.014030218
0.037176322 -0.088160992 0.014018506
0.038733572 -0.089302413 0.013998777
0.039662268 -0.088972114 0.013826966
0.040844873 -0.089213803 0.013133943
0.041942604 -0.089262463 0.013011813
0.041731633 -0.086593144 0.012596697
0.04289861 -0.086843528 0.012616366
0.04560785 -0.0901298 0.01146996
0.046419013 -0.08959949 0.011104673
0.046982195 -0.088625506 0.010668844
0.049065467 -0.090498522 0.009957999
0.049604665 -0.089504071 0.008678019
0.050437707 -0.089070849 0.0073546767
0.05236163 -0.090541989 0.0060902536
0.053050864 -0.089861676 0.0052539706
-0.057528775 -0.089006789 0.0052607059
-0.056805916 -0.089578569 0.0062554181
-0.055512786 -0.089255854 0.0070555508
-0.054233026 -0.088942163 0.0077078342
-0.052928526 -0.088574275 0.0077878833
-0.051484495 -0.087952688 0.00883618
-0.051014565 -0.089004144 0.0095872283
-0.049686234 -0.088571116 0.010095626
-0.048792876 -0.088911459 0.010533094
-0.047193315 -0.087951183 0.010995835
-0.046444282 -0.088568166 0.011142015
-0.044736739 -0.087343164 0.011204183
-0.043972321 -0.087944642 0.011576712
-0.043088492 -0.088331416 0.012060523
-0.041953888 -0.088210747 0.01252687
-0.040882986 -0.088221185 0.012380332
-0.039595887 -0.087753043 0.012241125
-0.038546942 -0.087801382 0.012714982
-0.03733414 -0.087468557 0.012740612
-0.036876015 -0.088936269 0.012716085
-0.035120714 -0.087269656 0.012744606
-0.034162138 -0.087540485 0.012818724
-0.032879218 -0.086970836 0.012597233
-0.031842258 -0.087035514 0.012315482
-0.031263173 -0.088399321 0.011320591
-0.029921621 -0.087627605 0.010352373
-0.029313158 -0.089025147 0.0086184442
-0.028741881 -0.090647474 0.0082285702
-0.027394693 -0.089854591 0.0078493655
-0.026405798 -0.090219818 0.0077874362
-0.025486063 -0.090863362 0.0077874362
-0.02452822 -0.09142337 0.0083455741
-0.02295405 -0.089630105 0.0087071061
-0.021395931 -0.087723322 0.010082364
-0.020348916 -0.087821633 0.011193186
-0.019325169 -0.088036887 0.011757195
-0.018243315 -0.087997168 0.012096763
-0.017114576 -0.087712206 0.012419879
-0.016281893 -0.089007691 0.01252526
-0.015161815 -0.088804923 0.012548238
-0.014017876 -0.088420451 0.012719005
-0.01307883 -0.089372009 0.01266396
-0.011927354 -0.088913009 0.01266396
-0.010797751 -0.088541567 0.012667298
-0.0097787268 -0.089095071 0.012392908
-0.0085239895 -0.087370895 0.012305588
-0.0074981251 -0.087835185 0.011940211
-0.0064239898 -0.087794527 0.011646152
-0.0053257276 -0.087341934 0.011838585
-0.0043266392 -0.088696107 0.011490047
-0.0032292784 -0.088266946 0.011683613
-0.0021764191 -0.08923319 0.0114851
-0.0010883986 -0.089248694 0.011176825
0 -0.088259526 0.011163771
0.0010762131 -0.088249475 0.011139274
0.0021736715 -0.08912053 0.011879086
0.0032179891 -0.087958373 0.012026131
0.0042642807 -0.087417759 0.012006104
0.0054451851 -0.089301042 0.012060523
0.0063623511 -0.086952142 0.012099087
0.0076038968 -0.089074224 0.012051553
0.0086811781 -0.088982075 0.012324214
0.0096653197 -0.08806181 0.012451202
0.010775059 -0.088355497 0.01218611
0.011790734 -0.087894566 0.012066305
0.012863883 -0.087903202 0.011800855
0.014124207 -0.089091159 0.012016892
0.014993825 -0.087820977 0.012860626
0.015887918 -0.086853959 0.013075352
0.01718238 -0.088059701 0.013161153
0.018224038 -0.087904185 0.013506889
0.019446548 -0.08858984 0.013634413
0.020379525 -0.087953746 0.013612419
0.021191888 -0.086886749 0.013337404
0.022668425 -0.088514805 0.013213515
0.023789436 -0.088669717 0.013465822
0.024716543 -0.08811985 0.013692111
0.025883436 -0.088435076 0.013498694
0.026905794 -0.08825101 0.013380975
0.028104858 -0.088638403 0.013267219
0.028968772 -0.087979235 0.01343888
0.029929964 -0.087652043 0.013584971
0.030912407 -0.087407492 0.014008552
0.031963788 -0.087367691 0.013654143
0.032995544 -0.08727853 0.014226943
0.034421302 -0.088204592 0.014030218
0.035468481 -0.088133812 0.014019489
0.036487415 -0.087999068 0.013944507
0.037852816 -0.088683739 0.013754278
0.03930096 -0.08951886 0.013619959
0.03954526 -0.087640844 0.013266593
0.041174538 -0.088850327 0.012120754
0.041963164 -0.088230252 0.011823386
0.042791247 -0.087722063 0.011950016
0.043560501 -0.087121002 0.011460125
0.045133546 -0.088117875 0.010789722
0.045769915 -0.087282173 0.010703236
0.04724035 -0.088038839 0.010050267
0.048370726 -0.088142209 0.0093231797
0.04906369 -0.08746136 0.0080533624
0.051137287 -0.089218244 0.0066224039
0.051379137 -0.087772697 0.0056650043
-0.056330778 -0.087746017 0.0059215426
-0.055518359 -0.088176213 0.0066780746
-0.054499406 -0.088289037 0.0072510839
-0.053369816 -0.088223577 0.0075822175
-0.051779989 -0.087378733 0.0083646178
-0.051270798 -0.08836031 0.0090528131
-0.049497157 -0.087158032 0.0091540217
-0.048944764 -0.088100567 0.0096775591
-0.047663204 -0.087743625 0.010249972
-0.045684721 -0.086057261 0.010561764
-0.045287728 -0.087340616 0.010812134
-0.044420268 -0.087757111 0.011139274
-0.042833395 -0.086737625 0.011720747
-0.04240346 -0.088068724 0.012187928
-0.041117627 -0.087645464 0.012111723
-0.040081963 -0.087746993 0.011888206
-0.038593516 -0.086835414 0.012309968
-0.037506491 -0.086800739 0.012348443
-0.036432248 -0.086794466 0.012323916
-0.035202652 -0.086406507 0.012459278
-0.033869889 -0.085733153 0.012459278
-0.03292292 -0.086024396 0.012256324
-0.03254794 -0.087879434 0.011701763
-0.031010434 -0.086615346 0.010605603
-0.03010647 -0.087093718 0.0097924471
-0.029528694 -0.088586077 0.0085142851
-0.028265866 -0.088059038 0.0077874362
-0.027518403 -0.089159615 0.0077255368
-0.026557561 -0.089631766 0.0078392625
-0.025547894 -0.08997301 0.0078401864
-0.024214594 -0.089153729 0.0085142851
-0.022733379 -0.087685883 0.0095978379
-0.021506656 -0.087101959 0.010864794
-0.020244289 -0.08630459 0.01173842
-0.019043365 -0.08569514 0.01255545
-0.017927397 -0.085418776 0.01248908
-0.017279632 -0.087478131 0.012719005
-0.016021099 -0.086513929 0.013061851
-0.015068881 -0.087184235 0.013239205
-0.014159065 -0.088221855 0.013163447
-0.012766227 -0.086172029 0.013103396
-0.011810299 -0.086966746 0.013354182
-0.01085441 -0.087920718 0.013334781
-0.0095963767 -0.086367391 0.013193905
-0.0085711787 -0.086783186 0.01285091
-0.0074658198 -0.086390197 0.012650102
-0.0064418311 -0.086964719 0.012183279
-0.0053104046 -0.086028554 0.012041658
-0.0043139355 -0.087357186 0.011525571
-0.0032129297 -0.086749099 0.011749238
-0.0021644558 -0.087660454 0.011404306
-0.0010715403 -0.086794756 0.011163771
0 -0.088513486 0.01047793
0.0010999274 -0.08909411 0.010775298
0.0021277622 -0.086174361 0.011591166
0.0032365951 -0.087388068 0.011444181
0.0043220627 -0.087521762 0.011645645
0.0052425796 -0.084929787 0.011792511
0.0064403969 -0.086945355 0.011848778
0.0076657562 -0.088703744 0.011667073
0.0086476607 -0.087557554 0.012272328
0.0098695448 -0.088825904 0.012451202
0.01088727 -0.088186882 0.012259424
0.011755099 -0.086560272 0.012389392
0.012949739 -0.087410733 0.012210011
0.013852338 -0.086310722 0.012333781
0.014876558 -0.086071514 0.012829393
0.016107993 -0.086983159 0.013487071
0.016792344 -0.085011236 0.01338464
0.018343583 -0.08740177 0.014135092
0.019365769 -0.087145962 0.014527202
0.020139936 -0.085859723 0.014199764
0.021190293 -0.085820682 0.013836741
0.022332305 -0.086138882 0.013812542
0.023265386 -0.085658923 0.01397568
0.024454122 -0.08612103 0.013980508
0.02563403 -0.086514853 0.014022738
0.026340298 -0.085342556 0.013564974
0.028014656 -0.087276421 0.013236284
0.02922117 -0.087663502 0.013403505
0.029705808 -0.085934654 0.013450146
0.030847931 -0.086161457 0.013450146
0.031855963 -0.086011097 0.013409346
0.03304854 -0.086352624 0.013784736
0.034224506 -0.086630777 0.013475299
0.034799673 -0.085417375 0.013259262
0.036567915 -0.087117679 0.012903631
0.037846189 -0.087586895 0.012760937
0.038518507 -0.086666636 0.012505889
0.04009958 -0.087785564 0.012363285
0.041108582 -0.087626189 0.011742562
0.041723646 -0.086656801 0.011110276
0.043685116 -0.08846236 0.010238767
0.044264235 -0.087448843 0.010567218
0.045053024 -0.086887971 0.0097537935
0.046254631 -0.087130815 0.010081738
0.047519412 -0.087478913 0.0098098516
0.047912944 -0.086243287 0.0084095001
0.050174642 -0.088350989 0.0071281791
0.049976051 -0.086128935 0.0061710775
-0.056703016 -0.087235406 0.005019486
-0.055581108 -0.087186046 0.0057823658
-0.054106981 -0.086571164 0.0064849555
-0.053822868 -0.08787407 0.0064616203
-0.052434612 -0.087391019 0.0078512728
-0.050164621 -0.085386582 0.0082999468
-0.049662918 -0.086370289 0.0086399913
-0.048778273 -0.08671692 0.0090145469
-0.047267485 -0.085940883 0.0093588829
-0.046435282 -0.086391218 0.010068089
-0.045196988 -0.086089499 0.010305405
-0.044068344 -0.085987009 0.010695964
-0.043103836 -0.086207673 0.011031926
-0.041987382 -0.086127959 0.011452734
-0.040899806 -0.086104847 0.011424989
-0.039887477 -0.08624319 0.011387646
-0.038301136 -0.085113637 0.011722714
-0.037318077 -0.085298464 0.011819452
-0.036773887 -0.086526789 0.011860907
-0.03482426 -0.084422447 0.011865646
-0.03445841 -0.086146019 0.012093782
-0.033308394 -0.085957147 0.011618644
-0.032187928 -0.085834473 0.011404753
-0.031099729 -0.085792355 0.009881407
-0.030546874 -0.087276779 0.0087029338
-0.029422102 -0.087176591 0.0077283978
-0.02868906 -0.088274032 0.0068292022
-0.027840501 -0.089089595 0.006824404
-0.026594711 -0.088649035 0.0074551404
-0.025947403 -0.090251833 0.0077874362
-0.024143521 -0.087794617 0.0085142851
-0.022635249 -0.086229518 0.010011852
-0.021384455 -0.085537821 0.011436313
-0.020300586 -0.085476145 0.01173079
-0.019159 -0.085151114 0.012310654
-0.01799394 -0.084677361 0.01252526
-0.016909428 -0.08454714 0.012797505
-0.016069168 -0.085702226 0.012966275
-0.015220891 -0.086976521 0.013103396
-0.013967798 -0.085955679 0.013092458
-0.01287352 -0.085823469 0.01292491
-0.011729878 -0.085308202 0.013006091
-0.010758042 -0.086064339 0.013116807
-0.0096386746 -0.08567711 0.012871116
-0.0085437596 -0.085437588 0.012713403
-0.0075309463 -0.086067952 0.012703419
-0.0063843243 -0.085124321 0.012447029
-0.005379336 -0.086069375 0.011974424
-0.0042605377 -0.085210748 0.011465728
-0.003215739 -0.085753039 0.011298954
-0.0021928868 -0.087715469 0.011153549
-0.0010838971 -0.086711764 0.010897815
0 -0.085674047 0.010810912
0.0010699059 -0.085592479 0.010984421
0.0021445758 -0.085783035 0.0117791
0.0032437209 -0.086499222 0.011554658
0.0042882795 -0.085765585 0.011786819
0.0053162607 -0.085060172 0.011647761
0.0064019011 -0.085358679 0.011434585
0.0075476854 -0.086259261 0.011615068
0.0087546622 -0.087546624 0.012162864
0.0097408928 -0.086585715 0.011961758
0.010799884 -0.086399071 0.012233138
0.011850853 -0.086188018 0.012229592
0.013006917 -0.086712778 0.012283355
0.013900985 -0.085544519 0.012303323
0.014920555 -0.085260317 0.012806237
0.015794015 -0.084234737 0.013508588
0.017172309 -0.085861534 0.014075667
0.01834736 -0.086340517 0.01518935
0.019034278 -0.08459679 0.015457571
0.020154195 -0.084859766 0.015253842
0.021539727 -0.086158909 0.014703929
0.021961873 -0.083664276 0.014064133
0.023331774 -0.084842816 0.01397118
0.024984913 -0.086904041 0.014113635
0.025899941 -0.086333133 0.013915598
0.026706589 -0.08546108 0.013465822
0.027638745 -0.085042283 0.013207138
0.028855085 -0.085496545 0.013204217
0.030301347 -0.086575277 0.013182521
0.031222532 -0.086131118 0.013109773
0.032123525 -0.08566273 0.012980402
0.033145756 -0.085537426 0.013016701
0.03389189 -0.084729724 0.012890905
0.035245132 -0.085442744 0.012564361
0.036316037 -0.085449494 0.01228404
0.037268039 -0.085184082 0.012347907
0.038914368 -0.086476371 0.012007326
0.040674035 -0.087943852 0.012079686
0.04073466 -0.085757174 0.011342376
0.042126659 -0.086413659 0.010489136
0.042894378 -0.085788757 0.010182559
0.043897603 -0.085653856 0.010328412
0.04576904 -0.087179117 0.0092453063
0.046560567 -0.086624309 0.0093769133
0.047583979 -0.086516321 0.0079115927
0.048922688 -0.08697366 0.0068754554
0.050165806 -0.087244868 0.0052987337
0.051362276 -0.08742515 0.0052657127
-0.054165117 -0.085580885 0.005403161
-0.053726003 -0.086619474 0.0058471859
-0.052003071 -0.085588388 0.0066973567
-0.051249646 -0.086143024 0.0072419047
-0.050041832 -0.085941404 0.0079213679
-0.048386589 -0.084945336 0.0085708499
-0.047789652 -0.08580415 0.0087426305
-0.046720721 -0.08583574 0.0092527866
-0.044576071 -0.083845459 0.0099643171
-0.044457689 -0.085662372 0.010166734
-0.042886112 -0.08470007 0.010662377
-0.04200495 -0.085086949 0.01108861
-0.040948611 -0.085130006 0.011089653
-0.039339893 -0.083995983 0.011042804
-0.038838442 -0.085228801 0.011421382
-0.037335791 -0.084272213 0.011283904
-0.036637306 -0.08512786 0.011538774
-0.035417315 -0.084786907 0.011545122
-0.034793481 -0.085896403 0.011424482
-0.032993242 -0.084079549 0.011068732
-0.032247979 -0.084919669 0.0099342465
-0.031439841 -0.085646458 0.0087112188
-0.030143654 -0.085048161 0.0077495575
-0.029303953 -0.085741192 0.0067639351
-0.028702721 -0.087212108 0.0062629879
-0.027856749 -0.088027321 0.0066539943
-0.026611684 -0.087596789 0.0073895454
-0.025443269 -0.087392092 0.0078401864
-0.024240447 -0.087045245 0.0086117387
-0.022777773 -0.085687809 0.010211259
-0.021493835 -0.084900647 0.01173842
-0.020007132 -0.083187543 0.012027979
-0.019345637 -0.084905855 0.012369663
-0.018043172 -0.083847679 0.012856781
-0.017147033 -0.084663473 0.013168454
-0.016102845 -0.084808312 0.013491809
-0.014983758 -0.084551208 0.013491809
-0.01389752 -0.084454156 0.013198972
-0.012790696 -0.084205411 0.01292491
-0.011634842 -0.083559319 0.012995899
-0.010741655 -0.084859073 0.013099939
-0.0096438192 -0.084651306 0.012995332
-0.0085459286 -0.084391043 0.012860894
-0.0075274291 -0.084952414 0.012837023
-0.0064110621 -0.084412321 0.012650102
-0.0053576822 -0.084651381 0.01216349
-0.0043085143 -0.085093148 0.011958778
-0.0032197887 -0.084787771 0.011829019
-0.0021508653 -0.084959172 0.011953354
-0.0010749638 -0.084922142 0.011999041
0 -0.083868548 0.011723876
0.0010850136 -0.085716069 0.011343598
0.0021910639 -0.086547017 0.011927217
0.0032135081 -0.084622376 0.011532515
0.0043121031 -0.085164033 0.011589795
0.005383403 -0.085057765 0.011403978
0.0064049615 -0.084331997 0.011389166
0.0075307782 -0.084990211 0.011372477
0.0087722447 -0.086625911 0.011597067
0.0097956061 -0.085983649 0.011813879
0.010910895 -0.086196065 0.011597216
0.011886115 -0.085363917 0.012066215
0.012936355 -0.085164338 0.01218763
0.013782484 -0.083755091 0.012257874
0.014700019 -0.082950108 0.01274246
0.015935162 -0.083925188 0.013679773
0.016936626 -0.083624594 0.014710814
0.017984239 -0.083573818 0.0155662
0.019107904 -0.083862469 0.015628487
0.019949229 -0.082946792 0.015724242
0.021050503 -0.083149485 0.015524894
0.022337424 -0.084031254 0.014718473
0.023599153 -0.084742412 0.014525115
0.024566863 -0.084381826 0.014525741
0.026042704 -0.085723899 0.014085591
0.026843205 -0.084824525 0.013620436
0.027291799 -0.082925081 0.013273984
0.028683484 -0.083925746 0.013236284
0.029605582 -0.083530031 0.013113469
0.030995127 -0.084434994 0.012966037
0.032185335 -0.084754713 0.012684822
0.033159662 -0.084503643 0.012689412
0.034169443 -0.084355809 0.012610227
0.035226457 -0.08433 0.012323886
0.03637179 -0.084510922 0.012007326
0.037882328 -0.085505828 0.011848181
0.038980022 -0.085539497 0.011626154
0.039917413 -0.085229069 0.010979116
0.041362807 -0.085991099 0.010282546
0.042854946 -0.086808734 0.0099684298
0.043445736 -0.085805327 0.0095008314
0.044140451 -0.085051104 0.009601146
0.045405813 -0.085406162 0.0084600747
0.046413753 -0.085271776 0.0079550147
0.047185149 -0.084718786 0.006718576
0.049339123 -0.086617567 0.0056282878
-0.052563675 -0.085415974 0.005985558
-0.05170108 -0.085801795 0.0065416098
-0.049102232 -0.083260298 0.0073328912
-0.04902754 -0.084981062 0.008028537
-0.048008326 -0.085105672 0.0083646178
-0.04656085 -0.084459215 0.0088616908
-0.045139499 -0.083830491 0.0090714097
-0.044375949 -0.084422529 0.0093588829
-0.043587577 -0.084995776 0.010205209
-0.042570636 -0.085141271 0.010480195
-0.041155744 -0.084477574 0.010662377
-0.039700154 -0.083692208 0.010595083
-0.03903693 -0.084580019 0.010580271
-0.037451394 -0.08346311 0.010595083
-0.036445636 -0.083610572 0.010770172
-0.035607178 -0.084162422 0.010730654
-0.034250405 -0.083485365 0.010662347
-0.033143789 -0.083394043 0.0095671117
