ply
format ascii 1.0
comment PCL generated
element vertex 1241
property float x
property float y
property float z
element camera 0
property float view_px
property float view_py
property float view_pz
property float x_axisx
property float x_axisy
property float x_axisz
property float y_axisx
property float y_axisy
property float y_axisz
property float z_axisx
property float z_axisy
property float z_axisz
property float focal
property float scalex
property float scaley
property float centerx
property float centery
property int viewportx
property int viewporty
property float k1
property float k2
end_header
0.034405615 -0.019353157 0.012764126
0.035437584 -0.019329591 0.012111247
0.036677219 -0.019417351 0.011247665
0.037726656 -0.01940228 0.010925293
0.038271859 -0.01913593 0.010008574
0.039595399 -0.019262625 0.0090751946
0.041114684 -0.019475376 0.0088980794
0.041959617 -0.019365977 0.0086757541
0.044125728 -0.019856576 0.0075980127
0.044507001 -0.019539658 0.0062117279
0.045639388 -0.019559735 0.0053834617
-0.059527833 -0.018399512 0.0059230328
-0.059345275 -0.01868277 0.0064710379
-0.0579357 -0.018583149 0.0070768893
-0.056468196 -0.018460756 0.0079791248
-0.05578503 -0.01859501 0.0085192323
-0.054342445 -0.01847643 0.0089767575
-0.05277697 -0.018310379 0.0098820627
-0.051514976 -0.018244889 0.010223538
-0.050044145 -0.018101074 0.010764033
-0.049319133 -0.018226637 0.01106751
-0.048252329 -0.018228658 0.010919899
-0.046577498 -0.017995851 0.010815293
-0.045906197 -0.018148962 0.010827631
-0.045290601 -0.01833191 0.010711551
-0.044650961 -0.018513814 0.010813117
-0.043982588 -0.0186926 0.01089564
-0.042661749 -0.018596148 0.011580437
-0.040884063 -0.018290238 0.011714756
-0.039772511 -0.018273855 0.012155622
-0.038662627 -0.018257352 0.012199849
-0.037705261 -0.018313983 0.012225121
-0.03649132 -0.01824566 0.012452722
-0.035132874 -0.018098753 0.012558669
-0.034319956 -0.018232476 0.012558669
-0.033255838 -0.018237071 0.012618691
-0.032076158 -0.018176489 0.01260975
-0.030949198 -0.018142633 0.012119681
-0.030280342 -0.018384494 0.011672497
-0.028864175 -0.018173739 0.01115796
-0.027934058 -0.018264577 0.010359019
-0.027084336 -0.018417347 0.010005653
-0.025688216 -0.018195821 0.0094951093
-0.025070507 -0.018530374 0.00895679
-0.023879457 -0.018452309 0.0088460743
-0.022687206 -0.018365834 0.0086544454
-0.021823792 -0.018550223 0.0086737871
-0.020713152 -0.01853282 0.0088474154
-0.019946216 -0.018838095 0.0090692043
-0.018559737 -0.018559737 0.009632349
-0.017304212 -0.018385725 0.010285497
-0.016028848 -0.018166026 0.011820704
-0.014999966 -0.018214244 0.01377359
-0.013838683 -0.018096739 0.015429527
-0.012740821 -0.018049495 0.016469806
-0.011673893 -0.018041471 0.016785383
-0.010453153 -0.017770361 0.016754597
-0.009508159 -0.017959857 0.01645568
-0.0084589664 -0.017975304 0.016096741
-0.0073912819 -0.017950255 0.015758485
-0.0063992352 -0.018131167 0.01492542
-0.0053267875 -0.018111078 0.013636768
-0.0042681289 -0.018139547 0.013333529
-0.003243566 -0.018380208 0.012720674
-0.002147425 -0.018253112 0.011866421
-0.001064889 -0.018103113 0.011225134
0 -0.018481182 0.01049757
0.0010751237 -0.018277103 0.010690898
0.0021560753 -0.01832664 0.011222661
0.0032453935 -0.018390562 0.012462825
0.0042561889 -0.018088803 0.013020039
0.0053127767 -0.018063443 0.013673812
0.0064741592 -0.018343452 0.014314592
0.0074083372 -0.017991677 0.014642596
0.0085154893 -0.018095415 0.015422106
0.0096084699 -0.018149333 0.015634269
0.01057922 -0.017984673 0.015722245
0.01158614 -0.017905852 0.015909553
0.012602715 -0.017853847 0.015922636
0.013715201 -0.017935263 0.015922636
0.014928368 -0.018127304 0.015504092
0.016180433 -0.018337825 0.015815794
0.016996443 -0.018058721 0.015695572
0.0180579 -0.0180579 0.015362233
0.019138858 -0.018075589 0.015289426
0.020246051 -0.018114887 0.014689237
0.021335816 -0.018135445 0.015255928
0.022171065 -0.017948005 0.015432954
0.023254501 -0.017969389 0.015550792
0.024562718 -0.018155051 0.015476912
0.025502862 -0.018064529 0.015383482
0.026728643 -0.018175477 0.015232027
0.027654292 -0.018081652 0.014780968
0.028701704 -0.018071443 0.014318794
0.029844729 -0.018120013 0.013820678
0.030836422 -0.018076522 0.013620585
0.03218551 -0.018238455 0.013443321
0.033429064 -0.018332066 0.012965888
0.034518167 -0.018337777 0.012611836
0.035655808 -0.018368144 0.011874646
0.036691513 -0.018345756 0.010925293
0.037214588 -0.018075658 0.010460198
0.038697578 -0.018273856 0.0091358125
0.039785977 -0.018280042 0.0088036954
0.040351693 -0.018052073 0.0079317689
0.042056382 -0.018332271 0.0075332224
0.043664943 -0.018557603 0.0061695278
0.045128033 -0.018711623 0.0050890744
-0.059465393 -0.017619375 0.0058360696
-0.058556188 -0.017677341 0.0063366294
-0.05687606 -0.017500326 0.0070207119
-0.055121809 -0.017293118 0.0076395571
-0.054094028 -0.017310089 0.0085462332
-0.053229783 -0.017381154 0.008934021
-0.051253065 -0.017084355 0.009075433
-0.05034785 -0.017139694 0.009575069
-0.049482848 -0.017211426 0.0099132359
-0.048031099 -0.017077724 0.0099833012
-0.047096536 -0.017126014 0.0097191334
-0.04642142 -0.017273087 0.01051122
-0.045254495 -0.017239807 0.010473847
-0.044946253 -0.01754 0.010711551
-0.043936148 -0.017574459 0.01089564
-0.042396493 -0.017393434 0.011580437
-0.040908977 -0.017224832 0.011695027
-0.039742898 -0.017186116 0.012096703
-0.038542055 -0.017129803 0.012099415
-0.037381962 -0.017088898 0.012168914
-0.036387719 -0.017123632 0.012338281
-0.035475105 -0.017200051 0.012387961
-0.034323469 -0.017161734 0.012274653
-0.033170734 -0.017120378 0.012425333
-0.032205209 -0.017176112 0.012276411
-0.031299531 -0.017268706 0.011783004
-0.030065615 -0.017180352 0.011287063
-0.029154358 -0.017276656 0.010888249
-0.028039671 -0.017255183 0.01011169
-0.026792195 -0.017147005 0.0098569989
-0.026098086 -0.017398724 0.0093990564
-0.024667365 -0.017159905 0.0090961456
-0.023574084 -0.017144788 0.0091101527
-0.022817304 -0.017384613 0.00895679
-0.021706766 -0.017365413 0.0090955794
-0.020660933 -0.01739868 0.0091717541
-0.019965794 -0.017747372 0.009167105
-0.018260513 -0.017186364 0.010012209
-0.017183259 -0.017183259 0.010960191
-0.01616931 -0.017247263 0.013171256
-0.014809705 -0.016925378 0.014324516
-0.013760942 -0.016936544 0.016222954
-0.012774285 -0.017032381 0.016586423
-0.011455353 -0.016662333 0.016742051
-0.010576045 -0.016921673 0.016610831
-0.0095469635 -0.01697238 0.016561329
-0.0084603243 -0.016920649 0.016261786
-0.0074427868 -0.017012084 0.0155963
-0.0063699214 -0.016986458 0.014908642
-0.0053145424 -0.017006537 0.013395876
-0.0042785597 -0.017114239 0.013030738
-0.0032470073 -0.017317371 0.012377322
-0.0021544697 -0.017235758 0.011687875
-0.0010744423 -0.017191077 0.010401726
0 -0.017274966 0.0095918179
0.0010860793 -0.017377269 0.009794265
0.0021480117 -0.017184094 0.010276645
0.0031749934 -0.0169333 0.011401623
0.0042919628 -0.017167851 0.012774467
0.0053492682 -0.017117659 0.013185143
0.0063476246 -0.016927 0.013737202
0.0074722106 -0.017079338 0.014437646
0.0085358592 -0.017071718 0.014975488
0.0094762444 -0.016846657 0.015373796
0.010578481 -0.01692557 0.015422106
0.011506938 -0.016737366 0.015722245
0.012654435 -0.016872581 0.015682161
0.013677821 -0.016834242 0.015682161
0.015011737 -0.017156271 0.015595853
0.015972959 -0.017037822 0.015372396
0.017227091 -0.017227091 0.015219569
0.017887974 -0.01683574 0.014934927
0.019160544 -0.017031597 0.014299333
0.020465517 -0.017234119 0.013742387
0.021393992 -0.017115194 0.014035851
0.022432715 -0.017091593 0.014947921
0.02352055 -0.017105855 0.015186608
0.024207091 -0.016839715 0.014837831
0.025705447 -0.017136965 0.014578402
0.026704023 -0.017090574 0.014575422
0.027551213 -0.016954593 0.014362901
0.028945914 -0.017153133 0.014073759
0.029871611 -0.017069492 0.013597518
0.030829007 -0.017009107 0.013486147
0.032095846 -0.017117785 0.013345063
0.033259239 -0.017166058 0.01288867
0.03438177 -0.017190885 0.012469172
0.035597339 -0.017259317 0.011338472
0.036305156 -0.017084779 0.0106332
0.037696362 -0.017232623 0.0098006129
0.038555164 -0.017135629 0.0093323588
0.039799016 -0.017210385 0.0087597072
0.04080756 -0.01718213 0.0076718032
0.042361021 -0.01737888 0.0062130094
-0.058655836 -0.016293287 0.005012393
-0.058564957 -0.016574988 0.0054717958
-0.05679664 -0.016383646 0.0060302615
-0.055441491 -0.01630632 0.0066856444
-0.053926867 -0.016178058 0.007528007
-0.052834772 -0.01617391 0.0079457462
-0.051519308 -0.016099785 0.0085558295
-0.05049203 -0.016114477 0.0089741647
-0.049309358 -0.016079139 0.0092662871
-0.048498906 -0.016166301 0.00945732
-0.047753956 -0.016279757 0.009459585
-0.046477966 -0.016213244 0.0095506907
-0.045383539 -0.016208407 0.0099833012
-0.045325827 -0.016582619 0.010634214
-0.043651748 -0.016369406 0.010847926
-0.042509358 -0.016349753 0.011454374
-0.041039675 -0.016199872 0.011715382
-0.039477319 -0.016004317 0.012101561
-0.03844744 -0.016019767 0.012167484
-0.037445039 -0.016047874 0.012244046
-0.036327217 -0.016026715 0.012373984
-0.035354268 -0.016070122 0.012470633
-0.034171276 -0.016017785 0.012387961
-0.033332117 -0.016128443 0.012425333
-0.032527309 -0.016263654 0.012276411
-0.031103389 -0.016087959 0.011807293
-0.030204667 -0.016181072 0.011197209
-0.029409952 -0.016338862 0.010712713
-0.02778152 -0.016027801 0.009914428
-0.027013706 -0.016208222 0.0095820725
-0.025951704 -0.016219815 0.0091867447
-0.024766287 -0.016151926 0.0088823438
-0.023670051 -0.016138671 0.0088823438
-0.022675112 -0.016196508 0.0088193119
-0.021660173 -0.01624513 0.0089838207
-0.020664081 -0.016313748 0.0091449618
-0.019891024 -0.016575854 0.009167105
-0.018314021 -0.01615943 0.010107398
-0.017228756 -0.016151957 0.011346966
-0.015869467 -0.015869467 0.013415635
-0.014834154 -0.015893737 0.015107453
-0.013828776 -0.015956281 0.016266912
-0.012529949 -0.015662435 0.016437262
-0.011594482 -0.015810657 0.016656548
-0.010611179 -0.015916768 0.016612768
-0.0093877949 -0.015646325 0.016603798
-0.0084377481 -0.015820779 0.016042978
-0.0073377443 -0.015723737 0.015703768
-0.0063529913 -0.015882479 0.014973164
-0.0053086584 -0.015925976 0.013342321
-0.0042687375 -0.016007766 0.012946725
-0.0032447623 -0.016223811 0.011766523
-0.002158456 -0.01618842 0.010507584
-0.0010751555 -0.016127333 0.0094969273
0 -0.016177652 0.0091559589
0.0010805177 -0.016207764 0.0092687309
0.0021367641 -0.016025731 0.0096366107
0.003199612 -0.015998062 0.010213941
0.0043247929 -0.016217973 0.011544019
0.0052928175 -0.015878452 0.012933344
0.0064074593 -0.016018648 0.013545424
0.0074980943 -0.016067345 0.014160067
0.0084928209 -0.015924038 0.014857411
0.0096005183 -0.016000865 0.015007228
0.010616053 -0.015924079 0.015455186
0.011648752 -0.015884662 0.015485495
0.012827411 -0.016034264 0.015595853
0.01367756 -0.015781799 0.015595853
0.014817103 -0.015875468 0.015210688
0.015937969 -0.015937969 0.015210688
0.01718297 -0.016109034 0.015090585
0.018329546 -0.016173128 0.014799505
0.019339897 -0.016116582 0.013881713
0.020033833 -0.015816184 0.013602406
0.021318158 -0.01598862 0.013925523
0.022489825 -0.016064161 0.014213681
0.023403689 -0.015957061 0.01461333
0.024363331 -0.015889129 0.01447311
0.025722522 -0.016076576 0.01440081
0.026530232 -0.015918138 0.01447311
0.027577581 -0.015910143 0.014258146
0.028589224 -0.015882902 0.013761431
0.029920438 -0.016028807 0.013524055
0.030874273 -0.01596945 0.013377339
0.03194217 -0.015971085 0.01307106
0.033339653 -0.016132088 0.012564093
0.034727156 -0.016278354 0.011913538
0.03573703 -0.016244104 0.011080593
0.036684338 -0.016184267 0.010288507
0.037793465 -0.016197199 0.0095430017
0.038766414 -0.016152672 0.0092564821
0.039910592 -0.016179968 0.0078999698
0.041516829 -0.016388223 0.006194979
0.041780885 -0.016069571 0.00503847
-0.056035265 -0.015382229 0.0054616034
-0.053980045 -0.015114412 0.006125927
-0.053041022 -0.015154579 0.0068877935
-0.052000199 -0.015166724 0.0077691972
-0.050348617 -0.01499746 0.008022964
-0.049720354 -0.015132281 0.0083408058
-0.048993751 -0.015242499 0.0084499717
-0.047209192 -0.015021106 0.0087061226
-0.046479519 -0.015132867 0.0093872547
-0.045850869 -0.015283623 0.0095162392
-0.044693612 -0.015261232 0.010227472
-0.043759957 -0.015315986 0.010738522
-0.042146534 -0.015129524 0.011432201
-0.040538501 -0.014935236 0.011607558
-0.039552707 -0.014965888 0.011802882
-0.038359124 -0.014917438 0.011923671
-0.037459027 -0.01498361 0.012135684
-0.03641719 -0.014995314 0.012351632
-0.035377488 -0.015008632 0.01237154
-0.034357063 -0.015031216 0.012274653
-0.033483908 -0.015121765 0.012299746
-0.032247666 -0.015048911 0.012276411
-0.031095613 -0.015011675 0.011839658
-0.030459298 -0.015229649 0.011281967
-0.029046524 -0.015061161 0.010837257
-0.027961103 -0.015055979 0.010078967
-0.027224448 -0.01524569 0.0098606944
-0.02589857 -0.015107499 0.0092724264
-0.024862271 -0.015133556 0.0089374781
-0.023561083 -0.014993417 0.0091632605
-0.02274489 -0.01516326 0.0092062354
-0.021798462 -0.015258923 0.0090388358
-0.021033725 -0.015498534 0.0093190074
-0.019761328 -0.015369922 0.0094554424
-0.018339483 -0.015103103 0.010264933
-0.017224468 -0.015071409 0.011474907
-0.015945802 -0.014882749 0.013532668
-0.014911378 -0.014911378 0.015252322
-0.013590909 -0.014636364 0.016469806
-0.012710892 -0.014829374 0.016855776
-0.011739596 -0.014941304 0.017022282
-0.010451921 -0.01463269 0.016769975
-0.0094363475 -0.014678763 0.016642183
-0.0084019564 -0.014703425 0.016198188
-0.0073243333 -0.014648667 0.015714347
-0.0063192006 -0.014744801 0.015290022
-0.0053295521 -0.014922746 0.013599396
-0.0042856983 -0.014999944 0.012544721
-0.0032254953 -0.015052311 0.01065284
-0.0021640137 -0.015148096 0.0095563233
-0.0010773857 -0.0150834 0.0091881454
0 -0.01538375 0.0091973245
0.0010710481 -0.014994673 0.0091611743
0.0021262325 -0.014883627 0.0094418228
0.0032498089 -0.015165775 0.0098072886
0.0043105599 -0.015086959 0.010869652
0.0053993207 -0.015118099 0.0124982
0.0064775003 -0.015114168 0.013225317
0.0074411952 -0.01488239 0.014001787
0.0085023632 -0.014879135 0.014477074
0.0095109167 -0.01479476 0.014601141
0.010562794 -0.014787912 0.014986277
0.011640426 -0.014815087 0.014944881
0.012725511 -0.014846429 0.015166432
0.013677213 -0.014729306 0.015061408
0.015080196 -0.015080196 0.014834523
0.015878208 -0.014819661 0.014732778
0.017258566 -0.015101246 0.014472663
0.018401584 -0.015154245 0.014154404
0.019104954 -0.014859408 0.01354447
0.020197557 -0.014882411 0.01289168
0.021606136 -0.015124295 0.012931198
0.022278439 -0.014852293 0.013189495
0.023581162 -0.015006195 0.0138928
0.024711151 -0.015041569 0.013939708
0.025523378 -0.014888638 0.014288545
0.026274139 -0.014713517 0.014265627
0.027648054 -0.014887414 0.013929814
0.028641049 -0.014850914 0.013709575
0.029907813 -0.014953907 0.01350376
0.030778347 -0.014858511 0.01324299
0.031901289 -0.014887268 0.013142169
0.033124171 -0.014959303 0.012503177
0.034508683 -0.015097548 0.012014776
0.035818405 -0.015195687 0.010959059
0.037201691 -0.015318342 0.010021359
0.037535515 -0.015014207 0.00947842
0.03923092 -0.015256469 0.0089116395
0.039952341 -0.015117101 0.0069574118
0.04108255 -0.015135676 0.0052197576
-0.052950576 -0.014048113 0.0055345893
-0.051853489 -0.014043653 0.0064018965
-0.051041242 -0.01411779 0.0068024099
-0.050000209 -0.014130494 0.0071811676
-0.048719846 -0.014074621 0.0074138939
-0.047684904 -0.014088722 0.0077369511
-0.04673874 -0.014130317 0.0087839663
-0.045610312 -0.014117477 0.0093275905
-0.045184527 -0.014326801 0.010081023
-0.043571983 -0.014160895 0.01061365
-0.041766826 -0.013922276 0.011349946
-0.040906154 -0.013994209 0.011272401
-0.039454971 -0.013862556 0.011553735
-0.038347036 -0.01384754 0.01200816
-0.037464283 -0.013915305 0.01213792
-0.036389269 -0.013913544 0.012299806
-0.035212085 -0.013871428 0.012144119
-0.034363829 -0.013960306 0.012146145
-0.033175919 -0.013912482 0.012080133
-0.032133684 -0.013924597 0.012041062
-0.031355582 -0.01405595 0.011752933
-0.030136721 -0.01399205 0.011167556
-0.029193435 -0.014056098 0.010722846
-0.028123152 -0.014061576 0.009958595
-0.026842017 -0.013957849 0.0097610354
-0.025782481 -0.013965511 0.0091609061
-0.024844768 -0.014042694 0.0089792609
-0.023814743 -0.014072349 0.0090663433
-0.02277364 -0.014097968 0.0091422796
-0.021572649 -0.014022223 0.0090529621
-0.021162722 -0.014479756 0.0095618069
-0.019698335 -0.014226575 0.0098367035
-0.018267533 -0.013969289 0.010653734
-0.017126536 -0.013915311 0.012897909
-0.016069556 -0.013926947 0.014073104
-0.014785583 -0.01372947 0.015256405
-0.013724292 -0.013724292 0.016506433
-0.012700997 -0.013759414 0.016721517
-0.011636045 -0.013751689 0.017235637
-0.010493621 -0.013641708 0.016965151
-0.0094980085 -0.013719345 0.01678434
-0.0083778044 -0.013613932 0.016618162
-0.0073808269 -0.013707249 0.016032517
-0.0063281422 -0.013710975 0.015645742
-0.0052940473 -0.013764523 0.014007926
-0.0043218923 -0.014046149 0.0125615
-0.0032356395 -0.014021105 0.010566086
-0.00215152 -0.013984879 0.0094610155
-0.0010788173 -0.014024624 0.0090647638
0 -0.014162522 0.0091066658
0.0010772328 -0.014004025 0.0090735257
0.0021843072 -0.014197997 0.0096173584
0.0032142492 -0.013928412 0.0098239183
0.0043211607 -0.014043772 0.010255963
0.0054180576 -0.01408695 0.011401623
0.0063478858 -0.013753752 0.012917727
0.0074392632 -0.013815775 0.013488472
0.0085001541 -0.013812751 0.014339954
0.0095835514 -0.013842908 0.0143646
0.010662382 -0.013861096 0.014334083
0.011579084 -0.013684372 0.014697164
0.012757285 -0.013820391 0.014679313
0.013778137 -0.013778137 0.014697164
0.015111309 -0.01403193 0.014511824
0.015879545 -0.013762273 0.014255315
0.017198635 -0.013973892 0.014001667
0.018111231 -0.013849765 0.013420641
0.019233683 -0.013890994 0.01294744
0.020275593 -0.013872773 0.01256609
0.021332832 -0.013866342 0.012611926
0.022598548 -0.013989577 0.01284045
0.023726387 -0.014020137 0.01328218
0.024462733 -0.013826762 0.013380706
0.025918264 -0.01403906 0.013515681
0.026597196 -0.013830542 0.013551027
0.027670927 -0.013835464 0.013541609
0.028794492 -0.013864014 0.013345361
0.030012457 -0.013934355 0.01316309
0.030747436 -0.013783333 0.01293242
0.032058936 -0.013892205 0.012321085
0.033094924 -0.013878517 0.01218009
0.034177206 -0.01388449 0.011261344
0.035939656 -0.014158047 0.010428458
0.036370687 -0.013906439 0.0096723437
0.0377299 -0.014013963 0.009255439
0.038982909 -0.014077162 0.0076906979
0.040038757 -0.01406767 0.0066223145
-0.052354176 -0.013088544 0.0051772594
-0.051232945 -0.013080752 0.0056644976
-0.049848087 -0.013003848 0.0061887503
-0.048639107 -0.012970428 0.0064912736
-0.048037786 -0.013101214 0.006929487
-0.046528675 -0.012984746 0.0080083311
-0.046123002 -0.013178 0.008962512
-0.045245189 -0.013242494 0.0094862282
-0.042910669 -0.012873202 0.010692596
-0.041691985 -0.012828303 0.011141896
-0.040457409 -0.012776024 0.011228383
-0.039534371 -0.012821958 0.011461228
-0.038721506 -0.012907169 0.011906415
-0.037584063 -0.012885964 0.011906415
-0.036249619 -0.012793982 0.012163848
-0.035517495 -0.012915453 0.012048095
-0.034257624 -0.01284661 0.012053013
-0.033406425 -0.012931519 0.01209268
-0.032435205 -0.012974082 0.011743695
-0.031239901 -0.012926855 0.01146242
-0.030236099 -0.012958328 0.010941058
-0.029286005 -0.013016001 0.010534197
-0.027994087 -0.012920347 0.010040015
-0.026834982 -0.01288079 0.009698987
-0.025910059 -0.012955029 0.0092481375
-0.024885885 -0.012983941 0.0091070235
-0.023746977 -0.012952896 0.0090663433
-0.022697447 -0.012969969 0.0091422796
-0.021534154 -0.012920492 0.0091324151
-0.020865938 -0.013178486 0.00963673
-0.019554105 -0.01303607 0.01020059
-0.018114712 -0.012786856 0.011248678
-0.017100587 -0.012825441 0.012981653
-0.015894486 -0.012715588 0.014158934
-0.014935115 -0.012801528 0.015471876
-0.01388216 -0.012814301 0.016525507
-0.012607682 -0.012607682 0.016972601
-0.011622208 -0.012678772 0.017368317
-0.010509063 -0.012610875 0.017237574
-0.0094532333 -0.012604311 0.016989797
-0.0084467065 -0.012670059 0.016733915
-0.0073707383 -0.012635551 0.016360909
-0.0063224202 -0.01264484 0.015813738
-0.0053410819 -0.012818597 0.014931202
-0.0042771301 -0.01283139 0.012946665
-0.0032316868 -0.012926747 0.01049757
-0.0021797237 -0.013078342 0.0094069839
-0.0010860324 -0.013032388 0.0089704692
0 -0.013142135 0.0086092353
0.0010840211 -0.013008253 0.0088190436
0.0021637557 -0.012982533 0.0091158152
0.0032581985 -0.013032794 0.0091611743
0.0043466077 -0.013039823 0.0095496476
0.0053739911 -0.012897579 0.010254592
0.0064152945 -0.012830589 0.01227808
0.007499563 -0.012856394 0.013062179
0.0085539538 -0.012830931 0.013590872
0.0096292673 -0.012839024 0.013761014
0.010639451 -0.012767341 0.014143825
0.011689896 -0.012752614 0.014143825
0.012818955 -0.012818955 0.014034122
0.013748327 -0.012690764 0.01413691
0.014929146 -0.01279641 0.014013171
0.016156683 -0.012925346 0.013945907
0.016908633 -0.012681474 0.013409048
0.018391108 -0.012981958 0.012986541
0.019380944 -0.012920629 0.012514621
0.020449521 -0.012915486 0.012257874
0.021416061 -0.012849636 0.012322068
0.022849547 -0.013056884 0.012477398
0.023279723 -0.012698031 0.0127379
0.024694154 -0.012883906 0.012773246
0.025882317 -0.012941158 0.012872934
0.026666177 -0.012799765 0.012961924
0.02771103 -0.012789707 0.012871504
0.028712993 -0.01276133 0.012705892
0.029832633 -0.012785414 0.012646347
0.030924346 -0.012796281 0.012321085
0.03176422 -0.012705687 0.01197511
0.032933604 -0.012748492 0.011596054
0.03420319 -0.012826196 0.010411501
0.035533529 -0.012921284 0.0098290443
0.03679679 -0.012987101 0.0092834234
0.038040951 -0.013042612 0.0079132915
0.038964074 -0.012988025 0.0067263246
0.040693052 -0.013197746 0.0057823062
-0.049712345 -0.011887735 0.0054439008
-0.049285822 -0.012047645 0.0058603287
-0.047710631 -0.011927658 0.006690979
-0.047081832 -0.012044189 0.0077822506
-0.046564195 -0.012195384 0.0090346336
-0.044676621 -0.011986409 0.0093848407
-0.043013185 -0.011828627 0.010692596
-0.042019088 -0.011851537 0.011141896
-0.040785413 -0.011806303 0.011313409
-0.039752766 -0.011818389 0.011475146
-0.038706783 -0.011827072 0.011800647
-0.037622873 -0.011824331 0.011762381
-0.03658466 -0.011836213 0.011750728
-0.03532758 -0.01177586 0.011880219
-0.034269791 -0.011780241 0.011753261
-0.033388089 -0.011847386 0.011511117
-0.032360937 -0.011865677 0.011315972
-0.031446639 -0.011928035 0.011043549
-0.030319979 -0.01191142 0.01039663
-0.028910443 -0.011778328 0.010156661
-0.028087813 -0.011883305 0.009891957
-0.027239924 -0.011985566 0.0095039308
-0.025857883 -0.01185153 0.0089838207
-0.024988441 -0.011950992 0.0087231994
-0.023748677 -0.011874339 0.0089792609
-0.022626214 -0.011851826 0.0089373589
-0.021713456 -0.011942401 0.0092624128
-0.020918332 -0.012110612 0.0094605982
-0.019461248 -0.011892985 0.0102593
-0.018179161 -0.011762986 0.011313558
-0.016810451 -0.011557185 0.013076872
-0.016036328 -0.011759974 0.014528692
-0.015041936 -0.011818664 0.015656054
-0.013719219 -0.01160857 0.016659111
-0.012766505 -0.011702629 0.017498374
-0.011663256 -0.011663256 0.017396241
-0.010504332 -0.011554766 0.017286986
-0.0094720097 -0.011576901 0.01709944
-0.0084380489 -0.011602317 0.016891122
-0.0073162359 -0.011496942 0.016618162
-0.0063590757 -0.011658305 0.015841454
-0.0053317146 -0.011729772 0.014987528
-0.0042808503 -0.011772338 0.012544721
-0.0032580667 -0.011946244 0.010191679
-0.0021574502 -0.011865975 0.0093202293
-0.0010860494 -0.011946543 0.0084784329
0 -0.012006253 0.0080821514
0.0010830018 -0.011913019 0.0082854331
0.0021899985 -0.012044991 0.0084164441
0.003281289 -0.012031393 0.0083934665
0.004344238 -0.011946654 0.0091280937
0.0053874818 -0.01185246 0.0098038316
0.0064625614 -0.011848029 0.011172712
0.0074941292 -0.011776488 0.01254189
0.0085662678 -0.011778618 0.012891054
0.009574567 -0.011702249 0.013089061
0.010651182 -0.011716301 0.013392359
0.011759098 -0.011759098 0.013526917
0.01271679 -0.011657057 0.013700485
0.013829302 -0.011701717 0.013275653
0.014977975 -0.011768408 0.013317674
0.016101196 -0.011807544 0.013176531
0.017132998 -0.011778936 0.012952656
0.018344803 -0.011870166 0.012514621
0.019336298 -0.011816627 0.012287408
0.020336464 -0.011773742 0.011793494
0.02165745 -0.011911597 0.011587769
0.022541849 -0.011807634 0.011710346
0.023566583 -0.011783292 0.012189418
0.024729514 -0.011827159 0.012433678
0.025676815 -0.011768539 0.012412935
0.027095445 -0.011921994 0.012492865
0.027728828 -0.011731427 0.012513071
0.02879386 -0.011730832 0.012456954
0.029976074 -0.011776314 0.012213379
0.030921267 -0.011728756 0.011936754
0.03213118 -0.011781433 0.01131618
0.033339109 -0.011830006 0.010802835
0.034522548 -0.011867126 0.010146916
0.035273455 -0.011757819 0.0094736516
0.036654867 -0.011858928 0.0083377361
0.037763137 -0.011868414 0.0071496367
0.039146058 -0.011961296 0.0060832202
-0.049196336 -0.010932518 0.0053613782
-0.048220262 -0.01095915 0.0059699714
-0.048127335 -0.011192403 0.007178694
-0.046085984 -0.010972853 0.0085568428
-0.044356313 -0.010818612 0.0091572404
-0.042967461 -0.010741865 0.010790348
-0.041863289 -0.010734176 0.011113584
-0.04067276 -0.010703358 0.011357933
-0.03976883 -0.010748331 0.011761218
-0.03879017 -0.010775047 0.011912405
-0.037531801 -0.010723372 0.011829585
-0.036333039 -0.010686187 0.012061298
-0.035412077 -0.010730932 0.011849284
-0.034501463 -0.010781707 0.011486918
-0.03321882 -0.010715748 0.011358559
-0.032448757 -0.010816252 0.011259466
-0.031572115 -0.010886935 0.0108715
-0.029913332 -0.010683333 0.010386586
-0.029270308 -0.010840854 0.010180026
-0.02826678 -0.010871838 0.0098127425
-0.026989225 -0.01079569 0.0094870329
-0.025942815 -0.010809506 0.0090405643
-0.024854304 -0.010806219 0.0090579689
-0.02384798 -0.01083999 0.0091753602
-0.022788761 -0.01085179 0.0091582835
-0.021759929 -0.010879965 0.0090864003
-0.020763524 -0.01092817 0.0093578398
-0.019519517 -0.010844177 0.010033309
-0.018075783 -0.010632813 0.011203051
-0.016989889 -0.01061868 0.01317963
-0.016007226 -0.010671484 0.014578402
-0.014709448 -0.010506748 0.0157969
-0.01390545 -0.0106965 0.01685372
-0.01277246 -0.010643716 0.017649055
-0.011526614 -0.010478741 0.017484397
-0.010550114 -0.010550114 0.017261147
-0.009518154 -0.010575727 0.017187595
-0.0084298272 -0.010537283 0.01709944
-0.0074276403 -0.010610914 0.016841352
-0.0062973239 -0.01049554 0.016403258
-0.0053055496 -0.010611099 0.015565574
-0.0043301377 -0.010825344 0.012972236
-0.0032612064 -0.010870688 0.0097996294
-0.0021571037 -0.010785519 0.0089318156
-0.0011009939 -0.01100994 0.0080430806
0 -0.01079175 0.0077082515
0.001084231 -0.010842309 0.0078309476
0.0022028207 -0.011014103 0.0079619586
0.0032323138 -0.010774379 0.0075640082
0.0043430598 -0.010857649 0.0080924034
0.0054268437 -0.010853687 0.0088190436
0.0063964278 -0.010660713 0.0097693205
0.0075236317 -0.010748046 0.010915041
0.0085697547 -0.010712193 0.012256712
0.009643754 -0.010715283 0.012656927
0.010696974 -0.010696974 0.012834638
0.011773274 -0.010702976 0.012982547
0.012700806 -0.010584005 0.012982547
0.013714573 -0.010549671 0.012989461
0.014874905 -0.010624932 0.012994826
0.016056566 -0.010704377 0.012924463
0.016893411 -0.010558382 0.012753308
0.017931873 -0.01054816 0.012595832
0.019393465 -0.010774148 0.011777878
0.020445384 -0.010760727 0.011447787
0.021557804 -0.010778902 0.011180401
0.022501137 -0.010714827 0.011212617
0.023708722 -0.010776691 0.011372834
0.024623355 -0.010705806 0.011667997
0.026132656 -0.010888607 0.011706263
0.026981622 -0.010792647 0.012048692
0.02774171 -0.010669888 0.012110502
0.028950099 -0.010722258 0.011830777
0.030087 -0.010745357 0.011440039
0.031126043 -0.010733118 0.011078537
0.032317456 -0.010772485 0.010721296
0.033410992 -0.010777739 0.010619134
0.034445077 -0.010764087 0.009609282
0.035171505 -0.010658032 0.0082897246
0.036364011 -0.010695297 0.0073321462
0.037907992 -0.010830855 0.0065287054
-0.048479043 -0.0099161677 0.0055759549
-0.047251843 -0.0098899202 0.0067362785
-0.045686364 -0.0097899344 0.0079406202
-0.044672199 -0.009806091 0.0091978312
-0.042695809 -0.009606557 0.010504961
-0.041719042 -0.0096274707 0.010976583
-0.040612891 -0.009618842 0.011113584
-0.039672349 -0.0096500302 0.011569709
-0.038836163 -0.0097090406 0.01183337
-0.037544638 -0.0096543357 0.011753261
-0.036186483 -0.0095787747 0.011666805
-0.035466295 -0.009672625 0.011486918
-0.033939585 -0.0095455078 0.011251628
-0.033207592 -0.0096409125 0.011163533
-0.03249079 -0.009747237 0.011155546
-0.031170197 -0.0096735088 0.010550261
-0.02978399 -0.0095734252 0.010074914
-0.029303238 -0.0097677456 0.0099900067
-0.027816102 -0.0096286507 0.0095182061
-0.027034931 -0.0097325752 0.009226501
-0.025906377 -0.0097148912 0.0087871253
-0.025009749 -0.0097864233 0.0086746812
-0.023952501 -0.0097987503 0.0088107288
-0.022672497 -0.0097167837 0.0088823438
-0.021667453 -0.0097503541 0.0089043677
-0.020782107 -0.0098441551 0.0092238784
-0.019290477 -0.0096452385 0.0094609559
-0.018195925 -0.009633136 0.011166602
-0.017218949 -0.0096856579 0.013101399
-0.015807146 -0.0094842874 0.014255077
-0.014814377 -0.0095235277 0.015660137
-0.013835779 -0.0095786154 0.01685372
-0.012632828 -0.0094746212 0.017644078
-0.011579582 -0.0094742039 0.017525464
-0.010623261 -0.0095609352 0.017388821
-0.0094863568 -0.0094863568 0.017139316
-0.008482011 -0.0095422622 0.017054766
-0.0073751747 -0.009482367 0.016916692
-0.006317812 -0.0094767176 0.016585618
-0.0053387806 -0.0096098045 0.015706956
-0.0043079625 -0.0096929157 0.012930453
-0.0032228131 -0.0096684387 0.0095267296
-0.0021808841 -0.0098139783 0.008731395
-0.0010949024 -0.0098541211 0.0073662996
0 -0.0097285118 0.0070158839
0.0010945976 -0.0098513775 0.0070723295
0.0021646689 -0.0097410092 0.0071531832
0.003287551 -0.009862653 0.0070292652
0.004401349 -0.0099030351 0.0078430772
0.0053125694 -0.0095626246 0.0084197223
0.0064205793 -0.0096308691 0.009544313
0.0075475438 -0.0097039845 0.010222644
0.0085819662 -0.009654711 0.011605054
0.0096997246 -0.0096997246 0.012308538
0.010696391 -0.0096267508 0.012748122
0.011641921 -0.0095252078 0.012748718
0.01275055 -0.0095629124 0.012820989
0.013757366 -0.0095243296 0.012835234
0.014974726 -0.0096266093 0.012881517
0.016145239 -0.0096871424 0.012829036
0.017116617 -0.0096280966 0.012605011
0.018133802 -0.0096002473 0.01214695
0.019356249 -0.0096781245 0.011285782
0.020565759 -0.0097416751 0.010775179
0.021561515 -0.0097026816 0.010725379
0.022746645 -0.0097485613 0.010745645
0.023584248 -0.0096481014 0.010769039
0.0246906 -0.0096615385 0.011033744
0.025877168 -0.0097039379 0.010966033
0.026971046 -0.0097095761 0.011063725
0.028107122 -0.0097293882 0.011063218
0.028815508 -0.0096051684 0.011078537
0.030138154 -0.0096872635 0.011071265
0.031127879 -0.0096603753 0.010675371
0.03195098 -0.009585293 0.010302126
0.033192519 -0.0096365372 0.010027736
0.034727115 -0.0097670006 0.0081284642
0.035309914 -0.009629976 0.0073554516
0.036876261 -0.0097613633 0.0065791011
-0.047585338 -0.0088530863 0.0057501197
-0.045360271 -0.0086400518 0.0074691474
-0.043759521 -0.0085384427 0.0085565448
-0.042734452 -0.0085468907 0.009565413
-0.041536659 -0.0085203405 0.01065439
-0.040591963 -0.0085456762 0.010663748
-0.039447583 -0.0085292067 0.010984331
-0.038503777 -0.0085563958 0.011312157
-0.037497729 -0.0085709095 0.011405736
-0.03657667 -0.0086062746 0.011194944
-0.0355644 -0.0086216731 0.011016279
-0.034252517 -0.0085631292 0.010672748
-0.033482559 -0.00864066 0.010380805
-0.032233529 -0.0085956082 0.010219038
-0.031124236 -0.008585996 0.010001898
-0.030211264 -0.0086317901 0.0095874667
-0.02896155 -0.0085811997 0.009494096
-0.028107028 -0.0086483164 0.0091753602
-0.027013544 -0.008644334 0.0088052154
-0.025796749 -0.0085989162 0.008125484
-0.025085265 -0.0087253097 0.0082122087
-0.02392029 -0.0086982874 0.0086222589
-0.022735065 -0.0086609768 0.0087231994
-0.021791594 -0.0087166382 0.0088887811
-0.020595774 -0.0086719049 0.0094013512
-0.019164339 -0.0085174842 0.009441644
-0.01814408 -0.0085383914 0.011203051
-0.016999595 -0.0084997974 0.013164252
-0.016058369 -0.0085644629 0.01419884
-0.014844163 -0.0084823789 0.015759319
-0.013796115 -0.008489917 0.017069638
-0.012838243 -0.0085588284 0.017793447
-0.011739738 -0.008537991 0.017841876
-0.010492793 -0.0083942357 0.017542899
-0.0095504904 -0.0084893247 0.017248273
-0.0084415022 -0.0084415022 0.017148405
-0.0073346049 -0.0083824052 0.016958237
-0.0063463096 -0.0084617464 0.016760468
-0.005272619 -0.00843619 0.015824318
-0.0042472305 -0.008494461 0.013197631
-0.0032304823 -0.0086146202 0.0093667209
-0.0021811218 -0.0087244874 0.0080737472
-0.0010853283 -0.0086826263 0.0069490671
0 -0.0087631252 0.0061545074
0.0010977038 -0.0087816305 0.0063558221
0.0022013613 -0.0088054454 0.006351769
0.0033056485 -0.0088150622 0.006351769
0.0043267231 -0.0086534461 0.0067573488
0.0053850873 -0.0086161401 0.0074309111
0.006506138 -0.0086748507 0.0084147453
0.0074621821 -0.0085282084 0.0098339617
0.0086497115 -0.0086497115 0.010944098
0.0097172437 -0.0086375503 0.011856735
0.010737791 -0.0085902326 0.012266248
0.011755827 -0.0085496921 0.012447983
0.012721977 -0.0084813181 0.012366176
0.01373354 -0.0084514087 0.012656927
0.014969549 -0.0085540283 0.012710541
0.016006282 -0.0085366834 0.012625426
0.017141892 -0.0085709458 0.012318343
0.018485777 -0.0086991889 0.012041122
0.019458128 -0.0086480575 0.010997295
0.020764695 -0.00874303 0.010744393
0.021663731 -0.0086654928 0.010626882
0.022588039 -0.008604967 0.010645807
0.023560053 -0.0085672922 0.010713518
0.024904683 -0.0086624986 0.010713845
0.025963245 -0.0086544156 0.010506421
0.026902502 -0.0086088004 0.010614783
0.027808085 -0.0085563334 0.010526627
0.028894218 -0.0085612498 0.010619134
0.03015507 -0.0086157341 0.010507256
0.031214165 -0.0086108036 0.010244876
0.032260887 -0.0086029032 0.0095386505
0.033663444 -0.0086873397 0.0087905526
0.034754228 -0.008688557 0.0073966086
0.035774924 -0.0086727096 0.0066983402
0.037132237 -0.0087369969 0.0053082108
-0.044873431 -0.0074789049 0.0062835515
-0.043870959 -0.0074901637 0.0079197884
-0.0424501 -0.0074287676 0.0092858076
-0.041664012 -0.0074781561 0.0096274912
-0.040690716 -0.007495658 0.010442525
-0.0393124 -0.0074374811 0.010590434
-0.038542725 -0.0074944189 0.010837704
-0.037480339 -0.0074960683 0.010910898
-0.036572173 -0.0075295651 0.010641754
-0.035590116 -0.0075494191 0.010405153
-0.034588605 -0.0075662569 0.010107845
-0.033220313 -0.007501361 0.0098319054
-0.032275155 -0.0075308695 0.009694159
-0.031453677 -0.0075922669 0.009619534
-0.029999813 -0.0074999533 0.0093173981
-0.029133705 -0.007553183 0.0091941357
-0.028321879 -0.0076251216 0.0087281466
-0.026929619 -0.007540293 0.0080297589
-0.025983445 -0.0075785052 0.0077278316
-0.025051437 -0.00762435 0.0078303516
-0.023937479 -0.0076164706 0.0079650581
-0.022760419 -0.0075868061 0.0087254643
-0.021880295 -0.0076581035 0.0088605285
-0.020506484 -0.0075550205 0.0091940463
-0.019352699 -0.0075260494 0.0095523298
-0.018216379 -0.0075008618 0.010647357
-0.016983818 -0.0074304207 0.013164252
-0.015991496 -0.007462698 0.014158636
-0.014759557 -0.0073797787 0.015638441
-0.013793593 -0.0074273194 0.017031014
-0.012695516 -0.0074057174 0.017920673
-0.011657162 -0.0074181939 0.017923862
-0.010549357 -0.0073845503 0.017621934
-0.0095152808 -0.0074007744 0.017540544
-0.0084614027 -0.0074037272 0.017282456
-0.0074083409 -0.0074083409 0.0171417
-0.0063524586 -0.007411202 0.017018795
-0.0052972501 -0.0074161505 0.016235381
-0.0042732782 -0.0074782372 0.013879269
-0.0031993592 -0.0074651716 0.0096049607
-0.0021761029 -0.0076163607 0.0075249374
-0.0010937315 -0.0076561207 0.0059940815
0 -0.0076433411 0.0059261024
0.0011072051 -0.0077504353 0.0059495866
0.0022140236 -0.0077490821 0.006170094
0.0032491062 -0.0075812484 0.0061039627
0.0043459465 -0.007605406 0.0064621866
0.0054746484 -0.0076645077 0.0070732832
0.0064384118 -0.0075114802 0.0076196492
0.0075303768 -0.0075303768 0.0089382827
0.0086642578 -0.0075812251 0.010008812
0.0097511606 -0.0075842361 0.010957539
0.010877253 -0.0076140775 0.011632532
0.011781852 -0.0074975421 0.012079567
0.012767179 -0.0074475212 0.011817873
0.013810229 -0.0074362773 0.012203097
0.014881537 -0.0074407686 0.012138039
0.016073743 -0.0075010802 0.012111336
0.017449716 -0.0076342509 0.01163739
0.018165639 -0.0074799689 0.011325628
0.019383393 -0.0075379871 0.010557353
0.020549297 -0.0075707939 0.010276943
0.021651348 -0.007577972 0.010148913
0.022623615 -0.0075412048 0.010144502
0.023763377 -0.007561075 0.0099650323
0.024767255 -0.00753786 0.010234803
0.025932325 -0.0075635952 0.010004997
0.026859645 -0.0075207003 0.010027409
0.027885308 -0.0075075827 0.0099728703
0.029224036 -0.0075766016 0.0096253157
0.030384667 -0.0075961668 0.0096354485
0.031361982 -0.0075701335 0.0091602802
0.032477606 -0.007578108 0.0085288286
0.033452082 -0.0075536962 0.0077118874
0.034783076 -0.0076087979 0.0066780448
0.036370095 -0.0077148685 0.0054866672
-0.044131342 -0.0064582448 0.0063520372
-0.042939566 -0.0064409347 0.0081377625
-0.041862108 -0.0064403247 0.0090561807
-0.040549353 -0.0064025293 0.0095396042
-0.039644185 -0.0064287861 0.009929657
-0.038863439 -0.00647724 0.010372132
-0.03766042 -0.0064560724 0.010474771
-0.036503423 -0.0064417804 0.010074079
-0.035697829 -0.0064905141 0.0097710192
-0.034313839 -0.0064338446 0.0096544921
-0.033515621 -0.0064868936 0.0094387531
-0.032734267 -0.0065468536 0.0094866753
-0.031125179 -0.0064396919 0.0093846321
-0.03014918 -0.0064605386 0.0087320209
-0.029437089 -0.0065415748 0.0082825422
-0.028103149 -0.006485342 0.0080302358
-0.027034154 -0.0064881966 0.0075316131
-0.025961127 -0.0064902818 0.0072054565
-0.024955854 -0.0065102228 0.0075055957
-0.024060322 -0.0065619061 0.0078113079
-0.022974862 -0.006564246 0.0079538524
-0.021894578 -0.0065683736 0.0085841715
-0.020964373 -0.0066203279 0.0090943277
-0.019381987 -0.0064606625 0.0094016492
-0.018200548 -0.006423723 0.010068625
-0.017267177 -0.0064751916 0.012724489
-0.015940968 -0.0063763871 0.013904661
-0.01483693 -0.006358684 0.015404791
-0.013824256 -0.0063804262 0.016591966
-0.012696762 -0.0063483808 0.017327309
-0.011636852 -0.0063473741 0.017785788
-0.010644257 -0.0063865543 0.017665476
-0.0094613573 -0.0063075721 0.017458737
-0.0084402896 -0.0063302172 0.01716873
-0.0073826122 -0.0063279532 0.016967744
-0.0063208947 -0.0063208947 0.016734749
-0.0052840537 -0.0063408646 0.015863478
-0.0042571127 -0.0063856691 0.013798773
-0.0032287533 -0.0064575067 0.010591656
-0.0021877752 -0.0065633254 0.0075249374
-0.0010943246 -0.0065659476 0.0059270561
0 -0.0066223037 0.0054309368
0.0011062744 -0.0066376468 0.0052399039
0.0054245754 -0.0065094908 0.0063920319
0.0064650085 -0.0064650085 0.0071718991
0.0076100519 -0.0065229014 0.0081602037
0.0087182513 -0.0065386887 0.0094985664
0.0098513979 -0.0065675988 0.010053217
0.010798459 -0.0064790756 0.010769039
0.011770933 -0.006420509 0.011069894
0.012961491 -0.0064807455 0.011235684
0.013848022 -0.0063913944 0.011578918
0.014908585 -0.0063893935 0.011426747
0.016280934 -0.0065123737 0.011379242
0.017059561 -0.0063973353 0.011332422
0.018180873 -0.0064167785 0.01069966
0.019351291 -0.00645043 0.010260165
0.020371936 -0.0064332429 0.010088176
0.021630306 -0.0064890916 0.0099412203
0.02268846 -0.0064824168 0.0097348988
0.023671929 -0.0064559807 0.009660542
0.024881655 -0.0064908662 0.009660691
0.025926072 -0.006481518 0.0094002187
0.026564088 -0.0063753808 0.0092454553
0.028055692 -0.0064743906 0.0091150701
0.029047836 -0.0064550741 0.0086159706
0.030183241 -0.0064678374 0.00830549
0.031356193 -0.0064874878 0.0074581206
0.03252634 -0.0065052677 0.007147342
0.033830311 -0.0065478021 0.00667575
0.035490438 -0.0066544567 0.005269438
-0.04343608 -0.00542951 0.0067825317
-0.04174757 -0.0053522526 0.0079568624
-0.04077908 -0.0053656683 0.0084563792
-0.039948791 -0.0053984849 0.00892663
-0.038742345 -0.005380881 0.0091634393
-0.03767021 -0.0053814584 0.0092797875
-0.036880601 -0.0054236175 0.009128809
-0.035668969 -0.0054043895 0.0092358589
-0.034571733 -0.005401833 0.0091494322
-0.033746663 -0.00544301 0.0086336732
-0.032425307 -0.0054042176 0.0089615881
-0.031316705 -0.0053994316 0.0088996887
-0.030608324 -0.005465772 0.0081936717
-0.029068539 -0.0053830622 0.0078397095
-0.02833032 -0.0054481383 0.0072510839
-0.02698944 -0.0053978879 0.0068248212
-0.025811568 -0.00537741 0.0066992939
-0.02506591 -0.0054491106 0.0071201622
-0.023803994 -0.0054099984 0.0074073076
-0.022813266 -0.0054317294 0.0078191459
-0.022311848 -0.0055779619 0.0083542764
-0.020652663 -0.0054349112 0.0087890923
-0.019392518 -0.0053868107 0.0095457435
-0.018433141 -0.0054215114 0.010176182
-0.016913936 -0.0052856044 0.012500405
-0.016081342 -0.0053604478 0.013783276
-0.01499355 -0.0053548394 0.015331417
-0.013785121 -0.0053019696 0.016296953
-0.012628454 -0.0052618557 0.01707685
-0.011620493 -0.0052820421 0.01785481
-0.010553805 -0.0052769026 0.017647237
-0.0094973417 -0.0052763009 0.017507732
-0.0084308265 -0.0052692662 0.017381996
-0.0073807319 -0.0052719512 0.017149985
-0.0063496437 -0.0052913697 0.016796112
-0.0052558859 -0.0052558859 0.016023904
-0.0042443341 -0.0053054173 0.014827967
-0.0032359976 -0.0053933291 0.011639386
-0.002166755 -0.0054168873 0.0079576075
-0.0011014958 -0.005507479 0.0060299635
0.005450977 -0.005450977 0.0051233768
0.0065168068 -0.0054306723 0.0064897239
0.0075014969 -0.0053582117 0.0073838234
0.0086858775 -0.0054286732 0.0078562498
0.0097293993 -0.0054052221 0.009039551
0.010723251 -0.0053616255 0.0095513463
0.011845085 -0.0053841295 0.0098511875
0.012978025 -0.0054075103 0.010292619
0.013851665 -0.0053275633 0.010348648
0.015083976 -0.0053871339 0.010335684
0.016025594 -0.0053418642 0.010662198
0.01719174 -0.0053724186 0.010500997
0.018351331 -0.0053974497 0.010285318
0.019178728 -0.005327424 0.010096163
0.020527693 -0.0054020239 0.009958595
0.021959877 -0.0054899692 0.0096048713
0.022785135 -0.0054250318 0.0094397068
0.023782566 -0.0054051285 0.0092591941
0.024987509 -0.005432067 0.0094795525
0.026020443 -0.0054209256 0.0090842843
0.02698944 -0.0053978879 0.0089693367
0.028012358 -0.0053869919 0.0083928406
0.028917432 -0.0053550797 0.00768134
0.030349467 -0.0054195472 0.0070444345
0.031433098 -0.0054194992 0.0066510737
0.032638717 -0.0054397858 0.0063138902
0.033857848 -0.0054609426 0.0052410364
-0.043303814 -0.0043303818 0.0055299699
-0.042122673 -0.0043202741 0.0067976117
-0.040913999 -0.0043067369 0.0072879493
-0.039884757 -0.0043118657 0.0078414083
-0.038885523 -0.004320614 0.007784009
-0.037896607 -0.0043310407 0.0081733763
-0.036745299 -0.0043229763 0.0078756213
-0.035756189 -0.0043340838 0.0075766146
-0.034862492 -0.0043578115 0.0075826347
-0.03374007 -0.0043535572 0.0076210499
-0.032406151 -0.0043208199 0.0077574849
-0.031463955 -0.0043398561 0.0075526536
-0.030374158 -0.0043391655 0.0066469014
-0.029391287 -0.0043542646 0.0063486397
-0.028233036 -0.0043435441 0.0062430501
-0.026880661 -0.0043009054 0.005738914
-0.02605623 -0.004342705 0.005733788
-0.024930809 -0.0043357927 0.0063443482
-0.023776537 -0.0043230066 0.0066309273
-0.022952002 -0.0043718098 0.0075377822
-0.022083504 -0.0044167009 0.0078202188
-0.020513225 -0.0043185735 0.0083542764
-0.01939087 -0.0043090824 0.0091094673
-0.018366342 -0.0043214923 0.0099105239
-0.017056728 -0.0042641819 0.011177212
-0.016251788 -0.0043338104 0.013015866
-0.014792642 -0.004226469 0.014447242
-0.013693608 -0.0042134179 0.016070276
-0.012838704 -0.0042795679 0.016958117
-0.011619477 -0.0042252643 0.017457694
-0.010485833 -0.0041943332 0.017546505
-0.0095343664 -0.0042374963 0.01755482
-0.0084578851 -0.0042289426 0.017346412
-0.0074027036 -0.0042301165 0.017068237
-0.0063534793 -0.0042356532 0.016736746
-0.0052468884 -0.0041975109 0.016069204
-0.0042303088 -0.0042303088 0.014851958
-0.0032159681 -0.0042879577 0.013014585
-0.0021726689 -0.0043453379 0.0081096292
-0.0011037828 -0.0044151312 0.0057477951
0.006455536 -0.0043036905 0.0056321621
0.0075844955 -0.0043339976 0.0065439641
0.0085695647 -0.0042847823 0.0071180165
0.0096846865 -0.0043043052 0.0081039071
0.010795477 -0.0043181907 0.008980751
0.011814577 -0.0042962097 0.0093233585
0.012802868 -0.0042676227 0.009418875
0.013897211 -0.0042760652 0.0097200572
0.014975204 -0.0042786296 0.009790808
0.015928252 -0.0042475341 0.0098075271
0.01729165 -0.0043229125 0.01003772
0.018019417 -0.0042398633 0.0096531212
0.019168302 -0.0042596231 0.009532392
0.020505127 -0.0043168687 0.0093975067
0.021564666 -0.0043129334 0.0089076757
0.022638729 -0.0043121385 0.0089243054
0.023972085 -0.0043585612 0.0087695122
0.024837004 -0.0043194788 0.0087154508
0.026171627 -0.0043619378 0.0081727207
0.027204705 -0.0043527526 0.0078187585
0.027953031 -0.0043004663 0.00677827
0.029325586 -0.0043445309 0.0064179003
0.030386081 -0.0043408689 0.0057081282
-0.042445466 -0.0032650358 0.0054004192
-0.041221667 -0.0032543419 0.0059308708
-0.040009178 -0.0032439872 0.0067811608
-0.039129041 -0.0032607536 0.0066592693
-0.037916567 -0.0032499912 0.0064291656
-0.036684129 -0.0032368347 0.0062708855
-0.036037713 -0.0032761556 0.0062312782
-0.034904089 -0.0032722584 0.0062532723
-0.033776611 -0.0032687041 0.0060715079
-0.032904834 -0.003290483 0.0061484277
-0.031589858 -0.0032679164 0.006067276
-0.030422507 -0.0032595543 0.0058605969
-0.029426422 -0.0032696023 0.005739212
-0.028363373 -0.0032726969 0.0053435564
-0.026318271 -0.0032897838 0.0051454902
-0.025181964 -0.0032846041 0.0054076314
-0.024043595 -0.003278672 0.0057892501
-0.023182668 -0.0033118094 0.0066309273
-0.022154627 -0.0033231943 0.0074789524
-0.020657167 -0.0032616579 0.0081742406
-0.019218059 -0.0032030102 0.0089580417
-0.018371923 -0.0032421038 0.0097640157
-0.017266681 -0.0032375029 0.010062963
-0.016007202 -0.0032014402 0.012627959
-0.014952497 -0.0032041064 0.013752818
-0.013947427 -0.0032186371 0.015178412
-0.012547904 -0.0031369759 0.016603708
-0.011582855 -0.0031589605 0.017041296
-0.010554332 -0.0031662998 0.017181098
-0.0094232028 -0.0031410679 0.017194331
-0.0084302714 -0.0031613519 0.017010838
-0.007407133 -0.0031744856 0.016710848
-0.0063470341 -0.0031735171 0.016513497
-0.0053155934 -0.0031893561 0.015909016
-0.0042345468 -0.0031759101 0.014811337
-0.0031807355 -0.0031807355 0.013367027
-0.0021611317 -0.0032416973 0.0088695884
-0.0010980754 -0.0032942262 0.0051218271
0.0075867954 -0.0032514837 0.0059355199
0.0085941367 -0.0032228013 0.0065951943
0.0097534759 -0.0032511589 0.0071206391
0.01074573 -0.0032237191 0.0078521669
0.011840313 -0.0032291762 0.0083021224
0.012873358 -0.0032183395 0.0087661147
0.013859487 -0.0031983433 0.0094598234
0.014963588 -0.0032064831 0.0095883608
0.01615892 -0.0032317839 0.0097476542
0.017234514 -0.0032314712 0.0098641813
0.018217614 -0.0032148729 0.0095172524
0.019432958 -0.0032388265 0.0095637739
0.020285705 -0.003203006 0.009003967
0.021256994 -0.0031885491 0.0086587369
0.022540765 -0.003220109 0.0086964071
0.02356543 -0.0032134678 0.0084875524
0.024739537 -0.003226896 0.0083390474
0.02614006 -0.0032675075 0.0075675547
0.026878202 -0.0032253843 0.0067492127
0.02805014 -0.0032365546 0.0058983862
0.029025637 -0.0032250707 0.0050166547
-0.039258637 -0.0021810355 0.0051768422
-0.038004316 -0.0021716752 0.0054604709
-0.037223842 -0.0021896379 0.0053519309
-0.036048297 -0.0021847454 0.0052858889
-0.034865733 -0.0021791083 0.0052193701
-0.034065478 -0.0021977725 0.0054859817
-0.032719281 -0.0021812853 0.0054661632
-0.031816095 -0.0021942134 0.00539428
-0.030787449 -0.0021991036 0.0052816272
-0.024100225 -0.0021909298 0.0052223504
-0.023207324 -0.0022102213 0.0055815578
-0.022136703 -0.0022136704 0.0068987906
-0.020589212 -0.0021672854 0.0079460144
-0.019455189 -0.0021616877 0.0089211762
-0.018377388 -0.0021620456 0.0092999637
-0.017091485 -0.0021364356 0.0099447966
-0.016166484 -0.0021555312 0.011192948
-0.01508667 -0.0021552388 0.012911201
-0.013664809 -0.0021022784 0.01437676
-0.012711926 -0.0021186545 0.015960127
-0.011624606 -0.0021135649 0.016821712
-0.010464892 -0.0020929785 0.016997278
-0.009513326 -0.0021140724 0.01696068
-0.0084435707 -0.0021108927 0.016796112
-0.0073521971 -0.0021006276 0.016466916
