ply
format ascii 1.0
comment PCL generated
element vertex 1250
property float x
property float y
property float z
element camera 0
property float view_px
property float view_py
property float view_pz
property float x_axisx
property float x_axisy
property float x_axisz
property float y_axisx
property float y_axisy
property float y_axisz
property float z_axisx
property float z_axisy
property float z_axisz
property float focal
property float scalex
property float scaley
property float centerx
property float centery
property int viewportx
property int viewporty
property float k1
property float k2
end_header
0.040215116 -0.02391169 0.0054444969
0.041504346 -0.02402883 0.0062052906
0.042808585 -0.024148431 0.0070205033
0.043459348 -0.023902642 0.0073587894
0.043941211 -0.023578208 0.0079706907
0.045062471 -0.023604151 0.0084298253
0.046193585 -0.023633925 0.0087444186
0.047177967 -0.023588983 0.0095008612
0.04802734 -0.023480032 0.010414094
0.049233902 -0.023546649 0.010109246
0.050153408 -0.023476062 0.0102292
0.050903782 -0.023330899 0.008580476
0.052085016 -0.023385109 0.0076549947
0.053684633 -0.023621237 0.0071135461
-0.07049533 -0.022775415 0.0053347349
-0.068545192 -0.022491392 0.0065633357
-0.068208888 -0.022736296 0.0072426796
-0.067603171 -0.022897849 0.0077475309
-0.06529288 -0.022477876 0.0078742504
-0.065214522 -0.022825083 0.0078493357
-0.064008713 -0.022782763 0.0077262223
-0.062635213 -0.022678267 0.0077072084
-0.061920535 -0.022812828 0.0075547099
-0.060902499 -0.022838438 0.0071428418
-0.058892973 -0.022486407 0.0068242252
-0.058656149 -0.022810724 0.0062636137
-0.057217654 -0.022671148 0.0058758855
-0.056171838 -0.022684781 0.0051942766
0.031332653 -0.022689162 0.0050608814
0.031744078 -0.022220856 0.0068959892
0.03416048 -0.023140969 0.0070467591
0.034391202 -0.022569228 0.0071107447
0.035635024 -0.022676835 0.0070467591
0.036397826 -0.022481009 0.006527096
0.037197087 -0.022318253 0.0066233575
0.039179366 -0.02285463 0.0067313313
0.039798692 -0.022588447 0.0074496567
0.040880989 -0.022592125 0.0079299212
0.042412456 -0.022837477 0.0080851316
0.043273646 -0.022718666 0.0086196363
0.044014093 -0.022543803 0.0086690485
0.044992138 -0.022496069 0.0098330975
0.046186682 -0.022556288 0.01007995
0.047125623 -0.022491775 0.010292023
0.048199799 -0.022493238 0.010558933
0.049293283 -0.022503456 0.010528594
0.050080452 -0.022376372 0.010413408
0.051009171 -0.022316514 0.0099647045
0.052088931 -0.022323828 0.0089428425
0.053613164 -0.022517528 0.0082090795
0.054181751 -0.022310132 0.0073934793
0.055631753 -0.022466671 0.005605042
-0.070089929 -0.021566132 0.0054294765
-0.069823816 -0.021819942 0.0064190626
-0.068535753 -0.021757381 0.0075346231
-0.066734754 -0.021527337 0.0077446103
-0.066197135 -0.021703977 0.0078493357
-0.064579442 -0.02152648 0.0081486404
-0.063984729 -0.021689737 0.0078594089
-0.06339813 -0.021861421 0.0077808797
-0.062096681 -0.021788308 0.0076155066
-0.060491316 -0.021604041 0.0073045492
-0.060038544 -0.021832196 0.0069774389
-0.05794977 -0.021462876 0.0062845945
-0.057759207 -0.021795927 0.0059843361
-0.056461539 -0.021715976 0.0051549673
0.028336829 -0.02179756 0.0052895546
0.029558033 -0.021894839 0.0066792667
0.030036872 -0.021454908 0.0073037744
0.031245038 -0.021548301 0.008007735
0.032702778 -0.021801852 0.0086269677
0.033784602 -0.021796517 0.0087958872
0.034574289 -0.02160893 0.0088199377
0.035709649 -0.021642212 0.0088858306
0.036194064 -0.021290625 0.0082854629
0.037673198 -0.021527542 0.0083092153
0.039435439 -0.021908578 0.008538872
0.040214337 -0.021737477 0.0085601509
0.04159344 -0.021891283 0.0092695951
0.042744044 -0.021920023 0.0099039674
0.043014914 -0.021507457 0.010281503
0.044427019 -0.021671714 0.010294765
0.044997822 -0.021427533 0.010475665
0.046666399 -0.021705301 0.010420382
0.047600362 -0.021636527 0.010700673
0.048954803 -0.021757688 0.011103958
0.048614867 -0.021136897 0.011205703
0.050666686 -0.021560291 0.011045694
0.050989479 -0.021245616 0.01015085
0.052445006 -0.021406125 0.01021415
0.052707408 -0.021082962 0.009816587
0.054733902 -0.021464273 0.008485347
0.055883698 -0.021493729 0.007383585
0.058091983 -0.021921502 0.0055632293
-0.070957951 -0.020741554 0.0054046512
-0.070166975 -0.020830821 0.0063378811
-0.068312667 -0.020602234 0.0073325336
-0.068033867 -0.020849086 0.0075561702
-0.06526839 -0.0203295 0.0076946914
-0.064323299 -0.020369045 0.0077419877
-0.06415233 -0.020659225 0.0076999366
-0.062835813 -0.020584144 0.0076532364
-0.061437301 -0.0204791 0.0074694157
-0.061207902 -0.020766966 0.0072410107
-0.058854289 -0.020331481 0.0069158077
-0.058318492 -0.020519469 0.00629583
-0.058514945 -0.020977058 0.0059968233
-0.056606483 -0.020683138 0.0052484572
0.026356593 -0.020865638 0.0052061081
0.02691415 -0.020454753 0.0064756572
0.0286089 -0.020906504 0.00740242
0.028911868 -0.020345388 0.008556962
0.030004783 -0.020360388 0.0086303651
0.031359803 -0.020546079 0.00892061
0.032522701 -0.020597711 0.0097424686
0.033267237 -0.020389598 0.0098997056
0.034290928 -0.020360239 0.010250628
0.035032894 -0.020170456 0.010264426
0.036780316 -0.020553708 0.01015237
0.037590675 -0.020406367 0.010222435
0.038210697 -0.020166758 0.010222435
0.040461536 -0.020777546 0.010573
0.041720577 -0.020860288 0.010594487
0.042070672 -0.020495968 0.010770798
0.043815233 -0.020812238 0.010811239
0.04430319 -0.020530745 0.010894448
0.044921819 -0.020321775 0.010978401
0.046474103 -0.020535069 0.010961205
0.046601798 -0.020123504 0.011211783
0.049254838 -0.020796485 0.011436492
0.049672831 -0.02051704 0.011446029
0.049626499 -0.020061778 0.011341125
0.051709667 -0.02046841 0.011003733
0.052015822 -0.020169402 0.010429502
0.052550536 -0.019969204 0.010192961
0.054515507 -0.0203097 0.0086075962
0.055698797 -0.020351483 0.0082373917
0.056473244 -0.020245126 0.007112205
-0.069093131 -0.019432442 0.0061224997
-0.069256723 -0.019787634 0.0073103607
-0.066272475 -0.019240394 0.007404685
-0.065356568 -0.019285545 0.0075840354
-0.066347435 -0.01990423 0.0077195168
-0.064031571 -0.019535054 0.0076532364
-0.062325425 -0.019342372 0.0076532364
-0.061973616 -0.019570615 0.0074587166
-0.060387142 -0.019410152 0.0071847737
-0.058621977 -0.019185374 0.0069230199
-0.058664124 -0.019554706 0.0064386129
-0.05699173 -0.019355683 0.0060850978
-0.056393027 -0.019520663 0.0058363974
-0.055831425 -0.019705208 0.0050691068
0.022107353 -0.019896617 0.005207181
0.022664297 -0.01942654 0.0053953826
0.023709599 -0.019398762 0.0058811009
0.024901332 -0.019487998 0.0066255629
0.02604733 -0.019535497 0.0076905191
0.027292656 -0.019650711 0.0083895922
0.02799898 -0.019383909 0.0092130601
0.028731404 -0.019154267 0.0094349086
0.030205593 -0.01941788 0.0099188983
0.030907076 -0.019183701 0.010312229
0.032039873 -0.019223923 0.011299193
0.033335067 -0.019355843 0.011630267
0.033980086 -0.019113798 0.011753798
0.035758123 -0.01950443 0.011753798
0.036712304 -0.019435924 0.011580586
0.036766659 -0.018908568 0.011223882
0.038654074 -0.019327037 0.01115185
0.039317112 -0.019127242 0.011190027
0.040962595 -0.019403333 0.01115185
0.042590931 -0.019657351 0.011266232
0.043066222 -0.0193798 0.011185557
0.043550476 -0.019119721 0.010984629
0.044715762 -0.019163897 0.011093765
0.046226781 -0.019350745 0.011008352
0.046822909 -0.019154826 0.011120856
0.048238955 -0.019295581 0.011124313
0.049121741 -0.01922155 0.011341125
0.050499398 -0.019340195 0.011290967
0.051878124 -0.019454297 0.010584503
0.052318003 -0.019218858 0.010695189
0.053662647 -0.019318553 0.010059059
0.054540187 -0.019249476 0.0095127225
0.056000382 -0.019384746 0.0085918307
0.056908518 -0.019327421 0.0072037876
0.058944471 -0.019648155 0.0057658553
-0.069597133 -0.018486738 0.0051888525
-0.067986414 -0.01834554 0.0063031018
-0.067272402 -0.018445659 0.0069541633
-0.066208504 -0.018451551 0.007357955
-0.064792901 -0.018357988 0.0076768696
-0.063444577 -0.01828064 0.0076155066
-0.062919572 -0.018441943 0.0074267089
-0.061553955 -0.018358197 0.0074001253
-0.060559161 -0.01838403 0.0070895255
-0.059491318 -0.018388225 0.0069158077
-0.058729097 -0.018488789 0.0064370334
-0.05726992 -0.018369598 0.0060645342
-0.056816898 -0.018574756 0.0059367716
-0.055997688 -0.018665897 0.0055531859
-0.054744441 -0.018613109 0.0050303936
-0.046747487 -0.018481566 0.0052595139
-0.044883449 -0.01816711 0.0063358247
-0.044882044 -0.018609626 0.006437391
-0.042823557 -0.018200012 0.0063358247
-0.041862477 -0.018247746 0.0064618886
-0.040971637 -0.018329417 0.0058628321
-0.040154073 -0.018449169 0.0053552091
0.015208797 -0.018467825 0.0050080419
0.016328366 -0.018505482 0.0051501691
0.017336352 -0.018419875 0.0053429902
0.018382801 -0.018382801 0.0056089461
0.019678922 -0.01858565 0.0062740147
0.020691184 -0.018513164 0.0062988102
0.021652209 -0.018404378 0.006688863
0.023005323 -0.018623356 0.0070252717
0.023943694 -0.018501945 0.0076885223
0.024529146 -0.018130237 0.0078783333
0.026131894 -0.018510094 0.0090229809
0.026754484 -0.018193049 0.0094301403
0.027655872 -0.018082686 0.0099725723
0.028936384 -0.018219205 0.010423243
0.030193562 -0.018331805 0.01147151
0.030868139 -0.018095115 0.011723906
0.032500803 -0.018417122 0.012215376
0.032980934 -0.018086318 0.012451679
0.034831036 -0.018503986 0.012560964
0.035241067 -0.018154489 0.012997806
0.036004245 -0.018002123 0.013314098
0.037494972 -0.018211843 0.012833267
0.038551226 -0.018204747 0.012131572
0.03917772 -0.018000573 0.01188764
0.040773444 -0.01824075 0.011783838
0.041779712 -0.01821167 0.011783838
0.042932671 -0.018246384 0.011593491
0.044377636 -0.018400483 0.011418611
0.045130286 -0.018267021 0.011315316
0.045916617 -0.018153081 0.011268646
0.047728546 -0.018440576 0.011200368
0.04740236 -0.017907558 0.011100411
0.049628161 -0.018340841 0.011112928
0.051679298 -0.018692512 0.010898679
0.050945912 -0.018043343 0.010300398
0.053233273 -0.018468687 0.010308713
0.05404019 -0.018373664 0.0098712146
0.053710811 -0.017903604 0.0095773935
0.056933135 -0.018612755 0.0082839429
0.057413958 -0.018415798 0.0072179437
0.057079438 -0.017969454 0.0066917539
-0.068653002 -0.017435683 0.0053780675
-0.067432217 -0.017401863 0.0064023733
-0.066347435 -0.017402606 0.0069383681
-0.064051069 -0.017080287 0.0073384047
-0.063909732 -0.017331451 0.0073049068
-0.062373348 -0.01720644 0.007219851
-0.061316062 -0.017211527 0.0072116852
-0.060805187 -0.01737291 0.0068865716
-0.059391096 -0.01727741 0.0066865683
-0.058705691 -0.017394278 0.0065160692
-0.058178447 -0.017563306 0.006162405
-0.056351379 -0.017338885 0.0060189962
-0.055614989 -0.017447839 0.0059920549
-0.056067958 -0.017941745 0.0058579147
-0.054169152 -0.017687887 0.0053433776
-0.053509232 -0.017836411 0.0050584376
-0.052230597 -0.017780628 0.0051356256
-0.05049634 -0.017563945 0.0054737926
-0.05025433 -0.017868206 0.0066537261
-0.047235101 -0.017176401 0.0070518255
-0.045814488 -0.017047251 0.0075276792
-0.045646422 -0.017389113 0.008040458
-0.044461679 -0.017350899 0.0077148378
-0.043788224 -0.017515291 0.0077148378
-0.041854922 -0.017171251 0.0078409016
-0.041070316 -0.017292764 0.0074261725
-0.040281635 -0.017419083 0.0071291029
-0.039311018 -0.017471565 0.0068136156
-0.03823382 -0.017478319 0.0054191053
0.013062949 -0.017417265 0.00541839
0.013901853 -0.017109973 0.0057954192
0.015214621 -0.017388139 0.0064201057
0.016145566 -0.017221937 0.0063523352
0.01699332 -0.01699332 0.0068190396
0.018359855 -0.017279863 0.0070252717
0.019637123 -0.01745522 0.00686571
0.020581147 -0.017331492 0.0070198476
0.021858893 -0.017487116 0.0071117282
0.022748308 -0.017332043 0.0077500045
0.023584791 -0.017152576 0.0083816051
0.024811463 -0.017260149 0.0093449354
0.025479205 -0.016986137 0.0095832944
0.02683628 -0.01717522 0.010185063
0.027900562 -0.017169576 0.011161953
0.029009925 -0.017191065 0.01157558
0.030234093 -0.017276624 0.012213588
0.031241378 -0.017236622 0.0127289
0.031909931 -0.017018631 0.013423175
0.032649115 -0.016851155 0.013912082
0.03394255 -0.016971275 0.014580458
0.034675594 -0.01681241 0.014786661
0.035995543 -0.016939079 0.015002757
0.037296988 -0.017050052 0.014716983
0.037718479 -0.016763769 0.01433903
0.039664336 -0.017152144 0.013520569
0.04027975 -0.016959894 0.012988418
0.04144815 -0.017004369 0.012703031
0.043337174 -0.017334869 0.011988044
0.043748483 -0.017072579 0.011746913
0.044989821 -0.01713898 0.011593491
0.046371929 -0.017254671 0.011436045
0.046515625 -0.016914772 0.011380464
0.047578823 -0.016916914 0.01125598
0.049388185 -0.017178498 0.011264533
0.050143078 -0.017069984 0.011436045
0.051578276 -0.017192759 0.010447383
0.052915674 -0.017278587 0.010244578
0.053568054 -0.017141776 0.010027349
0.054231007 -0.017013649 0.0094421506
0.056643568 -0.017428791 0.0081625581
0.056228925 -0.01697477 0.0073716342
0.058924146 -0.017459005 0.0058459342
-0.067244463 -0.016268821 0.0061844587
-0.064961083 -0.015974037 0.0064818859
-0.065459974 -0.016364994 0.0070721209
-0.063588575 -0.016166586 0.0069538653
-0.062767483 -0.016232969 0.0069464147
-0.062645681 -0.016485706 0.0069743097
-0.06042571 -0.016185459 0.0065984726
-0.059489697 -0.016224463 0.0065459311
-0.058668874 -0.01629691 0.0064559877
-0.057812605 -0.016362058 0.0059911311
-0.056881476 -0.016408117 0.0060085058
-0.056332376 -0.016568346 0.0058969855
-0.05479148 -0.016437445 0.0060147345
-0.054082442 -0.016555849 0.0062557757
-0.052387599 -0.016371123 0.0063329935
-0.050236043 -0.01603278 0.0065972507
-0.050545715 -0.016482297 0.0072526038
-0.04891035 -0.01630345 0.0080380142
-0.046975777 -0.01601447 0.0093102455
-0.046694193 -0.016288672 0.0095037222
-0.045126475 -0.016116599 0.0099604428
-0.044264629 -0.016194377 0.0099628866
-0.043734208 -0.016400328 0.0094938278
-0.042168774 -0.016218759 0.0093126893
-0.04086449 -0.016130719 0.0088172257
-0.03982304 -0.016144475 0.0084078312
-0.039124716 -0.016301965 0.0079303086
-0.03788057 -0.01623453 0.0073308647
-0.036888704 -0.016274428 0.0069750249
-0.035765085 -0.016256858 0.0054575205
0.0088008353 -0.016501566 0.00500229
0.0099058971 -0.016509829 0.0050680041
0.010868845 -0.016303267 0.0059289932
0.012096317 -0.016494978 0.0060342252
0.013150454 -0.016438067 0.006636858
0.013979993 -0.01613076 0.0071808398
0.015361874 -0.016459152 0.0071676373
0.016141646 -0.016141646 0.0074096918
0.017618414 -0.016517263 0.0075793862
0.018405095 -0.01623979 0.007593751
0.019509727 -0.016258107 0.0074886084
0.020636328 -0.016291838 0.008185178
0.021629745 -0.016222309 0.0085833967
0.022388877 -0.015992055 0.0090229511
0.023735637 -0.016183389 0.0094204545
0.02451024 -0.015984939 0.0099976957
0.025903532 -0.016189707 0.010665089
0.027208311 -0.016324986 0.011523724
0.02769457 -0.015977636 0.0119555
0.028820669 -0.016011482 0.01233992
0.030185943 -0.016171042 0.01312235
0.030802011 -0.015932076 0.013889223
0.031953108 -0.015976554 0.014503628
0.033286922 -0.016106574 0.014938444
0.033636771 -0.015767237 0.015286237
0.03501359 -0.015915269 0.015493274
0.036056798 -0.015907411 0.015441179
0.036969144 -0.015843919 0.015386224
0.038255181 -0.01593966 0.015426159
0.039163023 -0.015876902 0.015021652
0.040161442 -0.0158532 0.01403752
0.041648433 -0.016018627 0.013705641
0.042994514 -0.016122943 0.012796044
0.043720365 -0.015995255 0.012083679
0.045856949 -0.016377481 0.011642098
0.046126276 -0.016090561 0.011267364
0.04688517 -0.015983582 0.011124313
0.048261847 -0.016087282 0.010647088
0.049314931 -0.016080955 0.010859787
0.050381102 -0.016079076 0.010640264
0.051629663 -0.01613427 0.010091871
0.052508779 -0.016074115 0.0097515583
0.053932909 -0.016179873 0.0093950331
0.054584514 -0.016054269 0.0082839429
0.055140749 -0.015905986 0.0076832175
0.056522399 -0.015996905 0.0071801245
0.057961278 -0.016100354 0.0053063929
-0.066172168 -0.015187055 0.0062756836
-0.064836599 -0.01512854 0.0064295232
-0.063594207 -0.015090151 0.0067021847
-0.062657624 -0.015124253 0.006526202
-0.062008191 -0.015230082 0.0065889359
-0.061252326 -0.015313081 0.0063876212
-0.059773896 -0.015215173 0.0060795844
-0.058644745 -0.015204192 0.0059680343
-0.057965029 -0.015311518 0.0056802928
-0.056236058 -0.015140478 0.00571087
-0.055911947 -0.015348378 0.0056150556
-0.054533329 -0.015269332 0.0060892999
-0.05415247 -0.015472135 0.0062384903
-0.051567469 -0.015040512 0.0067994297
-0.050800901 -0.015132183 0.0078358948
-0.049586684 -0.015091599 0.0096199214
-0.047770198 -0.014861839 0.01054436
-0.047243837 -0.015032131 0.010912299
-0.046083506 -0.015003933 0.011573553
-0.044550154 -0.014850051 0.011221081
-0.044179119 -0.015085553 0.011296034
-0.042961985 -0.015036696 0.011185825
-0.04162851 -0.014943568 0.010812372
-0.04086585 -0.01505584 0.0099846721
-0.039876007 -0.015088218 0.0089819133
-0.038522996 -0.014981165 0.0085349679
-0.037767112 -0.015106846 0.0081331134
-0.03714595 -0.015295391 0.0080727339
-0.035808384 -0.015191436 0.0071975291
-0.034784704 -0.015218308 0.0061718822
-0.033261664 -0.015021396 0.0052478611
0.0055019939 -0.015405583 0.005056262
0.006452275 -0.015055308 0.0057708621
0.0077333492 -0.015466698 0.0058686435
0.0087129241 -0.015247616 0.0063382387
0.0097115962 -0.015106929 0.0064926147
0.010995321 -0.01539345 0.0066531897
0.01178583 -0.015000149 0.0072036684
0.013176495 -0.015372577 0.0075553954
0.014035097 -0.015114721 0.0079326332
0.014976177 -0.014976177 0.0080237985
0.016067289 -0.014996136 0.0081342459
0.017196216 -0.015046688 0.0082993805
0.018211139 -0.014997409 0.0083349645
0.019621067 -0.015260831 0.0086051822
0.020608123 -0.015184932 0.0090791881
0.021703515 -0.015192461 0.0097274482
0.022580035 -0.015053357 0.010082304
0.023823453 -0.01516038 0.010659009
0.02459641 -0.014971728 0.011011064
0.025749661 -0.015020636 0.011762649
0.026380574 -0.014773121 0.012200028
0.027861496 -0.015002344 0.012631148
0.029097414 -0.015087548 0.013090312
0.029766537 -0.014883269 0.014444679
0.030811835 -0.014874678 0.015091747
0.032089062 -0.014974896 0.015280694
0.032632589 -0.014737299 0.015810102
0.033964414 -0.01485943 0.01612854
0.034932565 -0.014819876 0.016091287
0.035781339 -0.014733491 0.016085565
0.037316669 -0.014926667 0.016085863
0.038627874 -0.015021951 0.015929431
0.038636688 -0.014619287 0.015838623
0.040506225 -0.014923346 0.014991552
0.041413262 -0.014866299 0.014534533
0.042978965 -0.015042638 0.01376459
0.044114497 -0.015063486 0.012644976
0.044567972 -0.01485599 0.012301236
0.046091322 -0.015006476 0.011557847
0.047502365 -0.015114389 0.011234701
0.047516771 -0.014782995 0.010664344
0.04975934 -0.015144147 0.010607719
0.050965887 -0.015181327 0.009973377
0.050707817 -0.014789781 0.0095716715
0.053533025 -0.015295151 0.0091305673
0.054031443 -0.015128803 0.008636117
0.054382816 -0.014928616 0.0075055659
0.056943096 -0.015330833 0.0069367588
0.057295855 -0.015134755 0.0067514479
-0.064769618 -0.014033418 0.0055221021
-0.063802212 -0.014058114 0.0062665045
-0.062869184 -0.014091369 0.0061355233
-0.061889503 -0.01411515 0.006329298
-0.06084504 -0.014124741 0.0062376857
-0.059367072 -0.014032217 0.0061613321
-0.058721349 -0.01413662 0.0061681867
-0.057319812 -0.014059577 0.0058330297
-0.05658013 -0.014145033 0.0061029494
-0.056005996 -0.014276038 0.0060032308
-0.054764632 -0.014238804 0.0063117445
-0.052135453 -0.013831855 0.0071951449
-0.052196216 -0.014136476 0.0086012483
-0.050745387 -0.014035958 0.0099977851
-0.048607677 -0.013736952 0.01052624
-0.048297428 -0.01395259 0.011547238
-0.047397036 -0.01400367 0.011741042
-0.045899745 -0.013876667 0.011844307
-0.045111366 -0.013963042 0.011842668
-0.043904405 -0.013920909 0.011832893
-0.042706024 -0.013879458 0.01150918
-0.041490052 -0.013830017 0.011422068
-0.040560331 -0.013875903 0.010708809
-0.039452724 -0.013861767 0.010070086
-0.038967617 -0.01407164 0.0093954206
-0.037961513 -0.014099991 0.0088354051
-0.036436755 -0.0139317 0.0085437596
-0.035757262 -0.014086194 0.0080130696
-0.034216087 -0.013900286 0.0074710548
-0.033660006 -0.014115486 0.0071436167
-0.032633238 -0.01414107 0.0066502094
-0.031117611 -0.013949273 0.0062162578
-0.030778473 -0.014290005 0.005984664
-0.029401936 -0.014156487 0.0051611364
-0.028162682 -0.014081341 0.0051611364
-0.02753542 -0.014318418 0.0050756037
-0.006496327 -0.014075376 0.0056906939
-0.0054396908 -0.014143196 0.0057664216
-0.0043328614 -0.014081799 0.006395191
-0.0032111411 -0.013914946 0.0071859956
-0.002154567 -0.014004686 0.0075647831
-0.0011011834 -0.014315384 0.0073948801
0 -0.014365341 0.0078104436
0.0010790001 -0.014027 0.0081803203
0.0021453039 -0.013944475 0.0072985888
0.0032186371 -0.013947427 0.0072985888
0.0044203717 -0.014366209 0.007301718
0.0053769238 -0.013980003 0.0073915422
0.0065643326 -0.014222721 0.0090366602
0.0076376037 -0.014184121 0.007440269
0.0086322529 -0.014027411 0.007812351
0.0099180462 -0.014326067 0.0076720715
0.010737928 -0.013959306 0.0083856881
0.011700377 -0.013827718 0.0085500181
0.0130336 -0.014119733 0.0085124373
0.014095668 -0.014095668 0.0089007318
0.015161619 -0.014078645 0.0089068413
0.016326252 -0.014149418 0.008986026
0.016958954 -0.01377915 0.009586513
0.018275814 -0.013975622 0.009586513
0.019388203 -0.01400259 0.0099869072
0.020158773 -0.013792845 0.010447145
0.021589693 -0.014033301 0.010880619
0.022551259 -0.013960304 0.011136264
0.023584481 -0.013936285 0.011615276
0.024681041 -0.013950152 0.011868685
0.02557808 -0.013854793 0.012353271
0.026613923 -0.01383924 0.012987494
0.027979262 -0.013989631 0.013462633
0.029346118 -0.014129612 0.014444679
0.029990328 -0.013924081 0.014896989
0.030985408 -0.013890009 0.015301615
0.031661477 -0.013719974 0.015444368
0.032823686 -0.013764771 0.016095251
0.033768971 -0.013718644 0.016281694
0.034604773 -0.013632184 0.016067564
0.035703808 -0.013651456 0.016278982
0.036801312 -0.013669059 0.016302347
0.037597533 -0.013576887 0.016157508
0.039677259 -0.013940657 0.015954256
0.040366668 -0.013809649 0.015753299
0.040626612 -0.013542204 0.015497804
0.042798199 -0.013909415 0.01417613
0.043563869 -0.013812934 0.013177931
0.045169916 -0.013981164 0.012471437
0.046728317 -0.014127165 0.011929423
0.046893265 -0.013854829 0.011150748
0.04815026 -0.013910075 0.010544062
0.049457122 -0.013977013 0.010258973
0.050145134 -0.01386993 0.0096293092
0.052109081 -0.014112876 0.0093656182
0.052900188 -0.014034744 0.0089671314
0.05323768 -0.013841797 0.0076066554
0.054785062 -0.013964819 0.0070388317
0.055800755 -0.013950189 0.0070445538
0.055786036 -0.013683368 0.0061286688
-0.063550949 -0.012925616 0.0057664812
-0.06230025 -0.012889707 0.00565207
-0.063056737 -0.013275103 0.0057580769
-0.060329154 -0.012927676 0.0057372153
-0.0594314 -0.012966851 0.0058490336
-0.059528213 -0.013228491 0.0058722198
-0.057769332 -0.013079848 0.0057751536
-0.056546755 -0.013049251 0.0060250759
-0.056145966 -0.013210815 0.0064536631
-0.053544164 -0.012850598 0.0073456466
-0.052050527 -0.012747069 0.0083820224
-0.051270731 -0.012817683 0.0096547604
-0.049662501 -0.012679786 0.010831833
-0.049836945 -0.013000942 0.011524886
-0.048262991 -0.01287013 0.011716008
-0.046947531 -0.012803872 0.011813134
-0.045984067 -0.012832763 0.011963636
-0.045081753 -0.0128805 0.011807084
-0.043731302 -0.012799405 0.01179859
-0.042685069 -0.012805521 0.011554986
-0.041318193 -0.012713291 0.011485517
-0.04017612 -0.012687195 0.011212081
-0.040077787 -0.0129982 0.010336965
-0.038749911 -0.012916638 0.010009646
-0.037711564 -0.01292968 0.0098960698
-0.036788531 -0.012984186 0.0093823075
-0.035423283 -0.012881194 0.0088753402
-0.034627013 -0.012985129 0.0084678233
-0.033786945 -0.013078816 0.0082560778
-0.032072362 -0.012828944 0.0081612468
-0.031650651 -0.01309682 0.0077914298
-0.03057998 -0.013105706 0.0075872838
-0.02948303 -0.013103568 0.0075841248
-0.028778421 -0.013282348 0.0075516701
-0.026982492 -0.012951596 0.0073909163
-0.026105717 -0.013052858 0.006731987
-0.025283344 -0.01319131 0.0065401495
-0.023622464 -0.012884981 0.0066350698
-0.022561962 -0.01289255 0.0072256327
-0.021876255 -0.013125753 0.0061743557
-0.020484222 -0.012937403 0.0062502921
-0.01949273 -0.012995154 0.0060167015
-0.018532928 -0.013082067 0.0057990253
-0.017245773 -0.012934329 0.005795598
-0.016576931 -0.013261545 0.0054574907
-0.015368314 -0.01317284 0.0054118633
-0.01412686 -0.013040178 0.0054118633
-0.013223226 -0.013223226 0.005348295
-0.012138914 -0.013242452 0.0053822398
-0.01067418 -0.012809017 0.0057488084
-0.009740592 -0.012987456 0.0061455369
-0.0085612666 -0.012841899 0.0069715679
-0.0075737867 -0.012983634 0.0073424876
-0.0065275487 -0.013055097 0.0074699223
-0.0053675924 -0.012882222 0.0074455142
-0.0042366628 -0.012709987 0.0077387094
-0.0032554558 -0.013021823 0.0083326101
-0.0021546134 -0.01292768 0.0088690519
-0.0010779263 -0.012935115 0.0089098513
0 -0.013129703 0.0089327395
0.0010667118 -0.012800543 0.0093626976
0.002142424 -0.012854544 0.009105742
0.0032245559 -0.012898223 0.0089283586
0.0042841998 -0.012852599 0.0089085698
0.0054468187 -0.013072366 0.0090859532
0.0065476592 -0.013095318 0.0092767477
0.0075631225 -0.012965352 0.0091862082
0.0088264598 -0.013239689 0.0090517402
0.00964572 -0.01286096 0.0089010298
0.010816146 -0.012979375 0.0090851784
0.011875535 -0.012955129 0.0094625652
0.012987097 -0.012987097 0.0093710124
0.013822767 -0.012759478 0.009893477
0.015093727 -0.01293748 0.01014483
0.016194141 -0.012955312 0.010596991
0.017502038 -0.013126528 0.010739952
0.018392142 -0.012982689 0.010652751
0.01929765 -0.0128651 0.010995597
0.02071788 -0.013084976 0.011344254
0.021463541 -0.012878125 0.011799634
0.022752408 -0.013001376 0.012108475
0.023709489 -0.012932449 0.012325346
0.024642374 -0.01285689 0.012388617
0.025556706 -0.012778353 0.012760907
0.026716361 -0.012823853 0.013339996
0.02755606 -0.012718182 0.013777137
0.028428951 -0.012635089 0.014524519
0.030127147 -0.012911635 0.015029073
0.030850304 -0.012765642 0.015265018
0.031631116 -0.012652447 0.015470773
0.032990117 -0.012770367 0.015955269
0.033588845 -0.012595817 0.016101211
0.035533529 -0.012921284 0.016383439
0.036344599 -0.012827505 0.016533375
0.036850914 -0.012634599 0.01648736
0.03819266 -0.012730886 0.016408086
0.039332278 -0.012756414 0.016184509
0.039984751 -0.012626763 0.015921861
0.041244853 -0.012690724 0.015571564
0.042039793 -0.012611939 0.014188588
0.043587122 -0.012757205 0.013514012
0.045410164 -0.012974332 0.012645602
0.045981459 -0.012832035 0.012163401
0.046680965 -0.012731172 0.011215717
0.048530091 -0.012941357 0.010497779
0.049221396 -0.012840364 0.0098501742
0.050757825 -0.012959445 0.0093344748
0.051247492 -0.012811873 0.0088227093
0.052246176 -0.012794982 0.0075412691
0.053958435 -0.012950024 0.0070557892
0.05519319 -0.012986633 0.0068142116
0.055795606 -0.012875909 0.0054388046
-0.061912358 -0.011947999 0.0055948794
-0.060911451 -0.011964749 0.0056666136
-0.060142998 -0.012028599 0.0055662692
-0.058217876 -0.011859196 0.0056926608
-0.057616487 -0.011958139 0.0058042109
-0.057034791 -0.012065051 0.0062039196
-0.054950405 -0.011852047 0.0070001781
-0.053653792 -0.011803834 0.0080651641
-0.052608576 -0.011810089 0.0095620155
-0.051442843 -0.011788985 0.010633975
-0.050639082 -0.011851699 0.01142022
-0.048770852 -0.011662595 0.011782169
-0.047969315 -0.011725832 0.011818171
-0.046998847 -0.011749712 0.012012154
-0.045674615 -0.011684204 0.012025803
-0.04472851 -0.011714609 0.011907011
-0.044328574 -0.011893031 0.011875093
-0.042501301 -0.011687857 0.01179859
-0.042094797 -0.011872891 0.011608839
-0.041131284 -0.011906425 0.011368155
-0.039499007 -0.011742948 0.010962427
-0.038708966 -0.01182774 0.01039961
-0.038260438 -0.012024709 0.010324657
-0.036237746 -0.011723977 0.01028049
-0.035347629 -0.011782543 0.01010108
-0.03458282 -0.011887844 0.0091892183
-0.033751681 -0.011976402 0.0090767443
-0.032583397 -0.011947246 0.0086805522
-0.031377885 -0.011901955 0.0087338388
-0.030342113 -0.011920116 0.0083707571
-0.029609928 -0.012063303 0.0086023211
-0.028222235 -0.011940176 0.0089692175
-0.027087839 -0.011918649 0.0089692175
-0.026373347 -0.012087785 0.0086381435
-0.025104607 -0.01200655 0.0080978572
-0.023515703 -0.011757852 0.0086381435
-0.022604482 -0.011840443 0.0087786019
-0.02160266 -0.011881463 0.0086782575
-0.020698542 -0.011983366 0.0086850226
-0.01976156 -0.01207651 0.0084871352
-0.01825577 -0.011812557 0.0084965825
-0.017408771 -0.01196853 0.0085272491
-0.016542489 -0.012131157 0.0074182153
-0.015057287 -0.011830726 0.0077967942
-0.014182518 -0.012000592 0.0079751611
-0.013076492 -0.011986784 0.0080837011
-0.011822769 -0.011822769 0.0077262223
-0.010788282 -0.011867111 0.0075983107
-0.0098219113 -0.012004558 0.0077028871
-0.0086510964 -0.011895258 0.007778585
-0.0075129 -0.011805985 0.0086410046
-0.0064665838 -0.011855404 0.0089804232
-0.0053539602 -0.011778713 0.0089804232
-0.0042825569 -0.011777031 0.0091521144
-0.0032578839 -0.011945574 0.009335041
-0.0021444063 -0.011794235 0.010225832
-0.0010747733 -0.011822506 0.0099017024
0 -0.011711913 0.010306567
0.0010800152 -0.011880167 0.010504842
0.0021608635 -0.011884748 0.010467738
0.0031935198 -0.011709573 0.010298282
0.0043649608 -0.012003642 0.0099939704
0.005401195 -0.011882629 0.010080367
0.0064563453 -0.011836633 0.010664046
0.0076225367 -0.011978271 0.010483623
0.0086730355 -0.011925424 0.01028648
0.0097111277 -0.011869156 0.0097751021
0.010849826 -0.011934809 0.010246992
0.011805343 -0.011805343 0.010537237
0.012916381 -0.011840016 0.011166811
0.014079562 -0.011913476 0.011405647
0.014855171 -0.011671919 0.011997074
0.015997956 -0.011731833 0.012032688
0.016962467 -0.011661696 0.012254268
0.017946227 -0.011612264 0.012027085
0.019506184 -0.011920447 0.012317479
0.020353815 -0.011783787 0.012599021
0.021256881 -0.011691284 0.012660682
0.022783438 -0.011934181 0.012610883
0.023650935 -0.011825467 0.012692809
0.024311034 -0.011627016 0.012937069
0.025538091 -0.011704958 0.013477623
0.026972255 -0.011867791 0.013779521
0.027621292 -0.01168593 0.014356047
0.028647725 -0.011671294 0.014926434
0.029504478 -0.011591045 0.015377194
0.03062861 -0.011617748 0.015626639
0.03195066 -0.011715241 0.015834212
0.033022616 -0.011717702 0.016464472
0.034419499 -0.011831703 0.016443342
0.034627967 -0.011542656 0.016549379
0.035667825 -0.01153959 0.016639352
0.037006553 -0.011630631 0.016731143
0.037865378 -0.011569976 0.016555071
0.039229527 -0.011662832 0.016305149
0.040169757 -0.011628087 0.016154408
0.041335329 -0.011658682 0.015852392
0.041783199 -0.01149038 0.01529038
0.043973073 -0.011797653 0.013712347
0.044881277 -0.011754619 0.013145834
0.045880485 -0.011736869 0.012223959
0.047649316 -0.011912329 0.011284858
0.047961142 -0.011723834 0.010497779
0.049706772 -0.011886402 0.0098703802
0.051321931 -0.012011516 0.0091943443
0.051521275 -0.011806959 0.0082560182
0.053367499 -0.011980459 0.0076475739
0.053941082 -0.011867037 0.0070388317
0.054580364 -0.011772235 0.0063582361
-0.061864737 -0.010853463 0.0052822232
-0.06182475 -0.011040133 0.0056354702
-0.060209975 -0.010947268 0.0058186352
-0.059076294 -0.010940054 0.0058722198
-0.057978906 -0.010939416 0.0059770942
-0.056023177 -0.010773688 0.0069426
-0.054861434 -0.010757144 0.0080290139
-0.053720765 -0.010744153 0.00876683
-0.052087225 -0.010630046 0.0098716021
-0.052131768 -0.010860785 0.01119563
-0.050986648 -0.010848222 0.011610478
-0.049144503 -0.010683588 0.011823952
-0.048574839 -0.010794408 0.011975318
-0.047148522 -0.010715573 0.012465596
-0.046214439 -0.010747544 0.012307107
-0.045126073 -0.010744303 0.012159526
-0.043782003 -0.010678536 0.012031406
-0.042848576 -0.010712144 0.011891961
-0.042248964 -0.010833067 0.011756003
-0.04071888 -0.010715494 0.011622339
-0.03968798 -0.010726481 0.011496335
-0.038956277 -0.010821188 0.011391282
-0.037412781 -0.010689367 0.011172682
-0.036114141 -0.010621806 0.011214554
-0.035752889 -0.010834209 0.010862082
-0.034684237 -0.010838824 0.010748267
-0.033469398 -0.010796579 0.010688096
-0.032264575 -0.010754858 0.010112852
-0.031332329 -0.010804251 0.010054171
-0.03046328 -0.010879742 0.0099332631
-0.02924075 -0.010829907 0.010277569
-0.027817624 -0.010699086 0.010949224
-0.02713828 -0.010855312 0.010211021
-0.025972022 -0.010821675 0.010340244
-0.024731131 -0.010752665 0.010475039
-0.02375157 -0.010796168 0.011160254
-0.022379696 -0.010656998 0.011235207
-0.021641821 -0.01082091 0.010865986
-0.020406051 -0.010740026 0.010912865
-0.019461423 -0.010811902 0.010674864
-0.018108914 -0.010652302 0.010669351
-0.017292967 -0.010808104 0.010710925
-0.015990781 -0.01066052 0.010219961
-0.015174263 -0.010838759 0.010273337
-0.014155727 -0.01088902 0.010007262
-0.012807555 -0.010672961 0.010172009
-0.011836279 -0.010760253 0.0097561777
-0.010861506 -0.010861506 0.0094918609
-0.0096272994 -0.010697 0.0094593763
-0.0086589782 -0.010823722 0.0095127523
-0.0075411238 -0.010773034 0.0097407997
-0.0063872854 -0.010645475 0.010103136
-0.0054234914 -0.010846983 0.010061353
-0.004309657 -0.010774143 0.010390759
-0.003244383 -0.01081461 0.010892659
-0.0021467414 -0.010733706 0.011200964
-0.001074356 -0.01074356 0.011269808
0 -0.010761271 0.011331767
0.0010711863 -0.010711863 0.011439741
0.0021312586 -0.010656293 0.011547476
0.003225365 -0.010751217 0.011249542
0.0043184347 -0.010796086 0.011002392
0.0053689396 -0.010737879 0.011247575
0.0064710304 -0.010785051 0.011459261
0.0076311426 -0.010901632 0.011271596
0.0085229501 -0.010653687 0.01122734
0.0098357182 -0.010928576 0.011173725
0.010714036 -0.010714036 0.011564493
0.011782657 -0.010711507 0.01175794
0.01302763 -0.010856358 0.011985272
0.013827039 -0.010636184 0.012129396
0.014852731 -0.010609093 0.012319058
0.015988952 -0.010659301 0.012319803
0.016739435 -0.010462147 0.012847424
0.018434007 -0.010843532 0.013109058
0.019461423 -0.010811902 0.013379455
0.020042794 -0.010548837 0.013350517
0.021546846 -0.010773423 0.013477534
0.022419324 -0.010675868 0.01350975
0.023534648 -0.010697567 0.013758779
0.024698939 -0.010738668 0.013839543
0.025818685 -0.010757785 0.014425814
0.026663743 -0.010665497 0.014606804
0.027570905 -0.010604194 0.014985293
0.028593764 -0.010590282 0.015294015
0.029785635 -0.010637727 0.015573442
0.031073151 -0.010714879 0.015713096
0.032003801 -0.010667933 0.016025215
0.033183027 -0.010704201 0.016601592
0.034032863 -0.01063527 0.016464472
0.034453806 -0.010440546 0.016464472
0.035930347 -0.010567749 0.016583651
0.036766671 -0.010504763 0.016593665
0.037959635 -0.010544344 0.016448051
0.039303947 -0.010622688 0.016303211
0.040119328 -0.010557717 0.016100585
0.041241005 -0.010574616 0.015927762
0.042802479 -0.01070062 0.01542604
0.044010732 -0.010734324 0.013750285
0.044591371 -0.010616993 0.01309815
0.046376016 -0.01078512 0.012301236
0.04731115 -0.010752534 0.011380464
0.048100539 -0.010689008 0.010115027
0.050278265 -0.010930057 0.009586364
0.050537076 -0.010752569 0.0081396699
0.051719245 -0.010774842 0.007563442
0.052961815 -0.010808534 0.0069736838
0.052722745 -0.010544549 0.0067694485
-0.061338138 -0.0098579144 0.0055782795
-0.059931152 -0.0098069152 0.0056665838
-0.058694787 -0.0097824633 0.0059369504
-0.057706833 -0.0097992737 0.0066473186
-0.055451188 -0.009597321 0.0077975094
-0.055040427 -0.0097130165 0.0086528063
-0.052934516 -0.0095282122 0.0094116926
-0.052517217 -0.009646019 0.010020733
-0.051376548 -0.0096331025 0.011156112
-0.050616864 -0.0096925907 0.011659771
-0.049392533 -0.009663756 0.011920393
-0.048348699 -0.0096697388 0.012307584
-0.046956658 -0.0096047707 0.012711883
-0.046172842 -0.0096640829 0.012824893
-0.045098163 -0.009663892 0.012343019
-0.04402326 -0.0096636424 0.012214452
-0.042868078 -0.0096453167 0.012206107
-0.041539211 -0.009585971 0.012125909
-0.040435318 -0.0095767854 0.012007117
-0.039865501 -0.0096970126 0.011767566
-0.038739994 -0.0096849985 0.012021542
-0.037544638 -0.0096543357 0.012046367
-0.036803979 -0.0097422292 0.011668026
-0.035412163 -0.0096578617 0.011403322
-0.03456961 -0.0097227022 0.011392683
-0.033237737 -0.0096496642 0.011614203
-0.03216435 -0.0096493047 0.011734873
-0.031304199 -0.0097150961 0.011835098
-0.030175613 -0.0096993046 0.011734873
-0.029020781 -0.0096735926 0.011915892
-0.027793959 -0.009620985 0.011767715
-0.027036453 -0.0097331218 0.011615187
-0.025685852 -0.0096321944 0.011641204
-0.02500695 -0.0097853281 0.011537105
-0.023328479 -0.0095434692 0.01171115
-0.02232605 -0.0095683066 0.011722118
-0.021478713 -0.0096654203 0.011573523
-0.020239502 -0.0095871324 0.011558831
-0.019265266 -0.0096326331 0.011596054
-0.018316031 -0.0096967211 0.011555105
-0.017082509 -0.0096089104 0.01151067
-0.016109603 -0.0096657602 0.011371613
-0.015193926 -0.009767524 0.011355013
-0.0137439 -0.009515007 0.011053771
-0.012881434 -0.0096610747 0.011189729
-0.011771961 -0.0096316049 0.010676533
-0.010647637 -0.0095828734 0.010412216
-0.0096794302 -0.0096794302 0.010232031
-0.008656566 -0.0097386362 0.010419816
-0.00744216 -0.009568491 0.010578632
-0.0064681228 -0.0097021842 0.010587484
-0.0053963833 -0.0097134905 0.010802686
-0.0043025985 -0.0096808467 0.011377007
-0.0032204359 -0.0096613076 0.011772931
-0.002121022 -0.0095445989 0.011941433
-0.0010553394 -0.0094980532 0.011945665
0 -0.0096045192 0.012040496
0.0010602771 -0.0095424931 0.01229021
0.002146625 -0.0096598119 0.012113869
0.0032158638 -0.009647591 0.011897266
0.0042879689 -0.0096479291 0.012330115
0.0053567621 -0.0096421717 0.012217492
0.0064564198 -0.0096846297 0.012035638
0.0075053046 -0.0096496772 0.01213178
0.0086438898 -0.0097243749 0.011957973
0.0095593082 -0.0095593082 0.012022614
0.010608635 -0.009547771 0.0122253
0.011800785 -0.0096551878 0.012178719
0.012862422 -0.0096468162 0.012394935
0.014010825 -0.0096998019 0.013338804
0.015091576 -0.009701727 0.014038861
0.015976192 -0.0095857149 0.014132351
0.01719361 -0.009671405 0.01407817
0.018191783 -0.0096309436 0.014074475
0.019016434 -0.0095082168 0.014047414
0.020715004 -0.0098123699 0.014450431
0.021509154 -0.0096791191 0.014450431
0.022471787 -0.0096307658 0.013732404
0.023672629 -0.0096842572 0.014174312
0.024686402 -0.0096598957 0.01444751
0.025550034 -0.0095812622 0.014780343
0.026861534 -0.0096701514 0.014966279
0.027882531 -0.0096516451 0.015100151
0.02860038 -0.0095334593 0.015509784
0.029974693 -0.009634722 0.015800834
0.03060244 -0.0094973082 0.016008615
0.031588066 -0.0094764186 0.016180634
0.032815695 -0.0095271366 0.016706318
0.03396292 -0.0095520709 0.016443342
0.035133485 -0.0095818592 0.016337156
0.03617822 -0.0095765879 0.016583204
0.036830477 -0.0094706938 0.016401798
0.038193557 -0.0095483894 0.016297638
0.039259095 -0.0095495088 0.016157508
0.039759628 -0.0094167534 0.016013294
0.041115653 -0.0094882268 0.01584661
0.042453177 -0.0095519647 0.01529038
0.043854192 -0.0096265292 0.013932049
0.044810425 -0.0096022338 0.013229072
0.046034709 -0.0096351709 0.01227954
0.04715129 -0.0096445819 0.011176586
0.048634928 -0.0097269854 0.0097344518
0.049005304 -0.0095879938 0.0087170303
0.051379476 -0.0098386221 0.0077762008
0.052518312 -0.0098471837 0.0072548091
0.052644711 -0.0096694361 0.0064294338
-0.061797764 -0.0088282516 0.0054624975
-0.060395993 -0.0087848715 0.0059150755
-0.058113869 -0.0086094625 0.0064075887
-0.057469614 -0.0086746588 0.0071004927
-0.056387752 -0.0086750388 0.0086822212
-0.054164313 -0.0084963627 0.0091639459
-0.052952405 -0.0084723849 0.0096007884
-0.053169306 -0.0086807031 0.010232747
-0.051094506 -0.008515751 0.011065006
-0.050349172 -0.0085700722 0.011664122
-0.048985586 -0.0085192323 0.011853725
-0.048348509 -0.0085952906 0.012385368
-0.047460388 -0.0086291619 0.01242885
-0.046482824 -0.0086479681 0.012779593
-0.044901907 -0.0085527441 0.012322187
-0.044130009 -0.0086107329 0.012070984
-0.042426292 -0.0084852586 0.012070984
-0.041645512 -0.008542669 0.012163848
-0.041025534 -0.0086369542 0.011880934
-0.039279129 -0.0084927846 0.011877179
-0.038916901 -0.0086482009 0.012006432
-0.03768691 -0.0086141508 0.012143075
-0.036388725 -0.0085620526 0.012082666
-0.035412021 -0.0085847331 0.012076408
-0.0344042 -0.0086010499 0.011549324
-0.033378925 -0.0086139161 0.011838704
-0.032534454 -0.0086758547 0.012045115
-0.031067809 -0.0085704299 0.011984557
-0.030056309 -0.0085875168 0.011898756
-0.029137276 -0.0086332671 0.012022674
-0.027934622 -0.0085952682 0.012222439
-0.026683463 -0.0085387081 0.012227386
-0.025796749 -0.0085989162 0.012266159
-0.024526725 -0.0085310349 0.012174577
-0.023341767 -0.0084879156 0.013305098
-0.022612331 -0.0086142216 0.013622224
-0.021515165 -0.008606066 0.013611048
-0.020084379 -0.0084565803 0.013990343
-0.019322194 -0.0085876426 0.013884008
-0.018007403 -0.0084740715 0.013786227
-0.017137993 -0.0085689966 0.013485461
-0.016107714 -0.0085907811 0.012941152
-0.014775073 -0.0084428992 0.012671232
-0.013991766 -0.0086103175 0.012598813
-0.013042987 -0.0086953249 0.012468427
-0.01176186 -0.0085540805 0.011791736
-0.010752417 -0.0086019337 0.011245966
-0.0097320545 -0.0086507155 0.011157066
-0.0085999751 -0.0085999751 0.011683851
-0.007419514 -0.0084794443 0.011787683
-0.0063693514 -0.0084924689 0.011940867
-0.0053469883 -0.0085551823 0.012194395
-0.0043155062 -0.0086310124 0.012373298
-0.0031838468 -0.0084902579 0.012388617
-0.0021316202 -0.0085264808 0.012540966
-0.0010605772 -0.0084846178 0.012540966
0 -0.0084568448 0.012822688
0.0010783785 -0.0086270282 0.01312691
0.0021488117 -0.0085952468 0.012612551
0.0032089022 -0.0085570728 0.012592375
0.0042738095 -0.008547619 0.012468666
0.0053555225 -0.0085688364 0.012374014
0.0064651747 -0.0086202333 0.012372226
0.0075918925 -0.0086764488 0.012320369
0.0085785203 -0.0085785203 0.012355536
0.0097243749 -0.0086438898 0.012344956
0.010712803 -0.0085702436 0.012918264
0.011777948 -0.0085657807 0.014071822
0.01276512 -0.0085100802 0.014210522
0.013879287 -0.0085410997 0.014659047
0.01495249 -0.0085442802 0.014947474
0.015927695 -0.0084947702 0.014989465
0.016905054 -0.0084525272 0.014994323
0.017975304 -0.0084589664 0.01479277
0.01928602 -0.0085715652 0.014644027
0.020268342 -0.0085340384 0.015111297
0.021048767 -0.0084195072 0.014624059
0.022451242 -0.0085528539 0.014542162
0.023525234 -0.0085546309 0.014616072
0.024490329 -0.0085183755 0.014750183
0.025863931 -0.0086213108 0.014722228
0.026659124 -0.0085309194 0.015066445
0.027594555 -0.0084906323 0.015023857
0.028777618 -0.0085267015 0.015509784
0.02984516 -0.0085271886 0.015698075
0.030895004 -0.0085227592 0.015811354
0.031868774 -0.0084983399 0.015672415
0.032881491 -0.0084855463 0.016498417
0.034196123 -0.0085490309 0.016313851
0.035069168 -0.0085016172 0.016193181
0.036097515 -0.0084935334 0.016461253
0.037204396 -0.0085038627 0.016344339
0.03814311 -0.0084762471 0.016097009
0.039036557 -0.0084403362 0.01587528
0.040405158 -0.0085063493 0.015808046
0.041229036 -0.0084572379 0.015603989
0.042096294 -0.0084192595 0.014782459
0.043796819 -0.00854572 0.013547421
0.044800051 -0.0085333427 0.012748897
0.045265626 -0.0084215123 0.012297094
0.047767017 -0.0086849127 0.010838181
0.048572056 -0.008635032 0.0098400712
0.049311541 -0.00857592 0.0083712637
0.051060602 -0.0086911656 0.0074565709
0.051829576 -0.0086382627 0.0066388547
0.053359069 -0.0087116854 0.005295217
-0.061861463 -0.0077326829 0.0051040053
-0.059216175 -0.0075366041 0.0058794022
-0.058524374 -0.0075864927 0.0065787137
-0.057779774 -0.0076312907 0.0074917674
-0.055469215 -0.0074670096 0.0090690851
-0.054354951 -0.0074604833 0.0094350874
-0.054167785 -0.0075834896 0.0097453892
-0.052116156 -0.0074451654 0.010266036
-0.051422287 -0.0074990839 0.011120498
-0.050582014 -0.0075334916 0.011601537
-0.048840187 -0.0074322023 0.011769205
-0.048710614 -0.0075772065 0.012113214
-0.047347929 -0.0075326255 0.012226462
-0.046172187 -0.0075164028 0.012298763
-0.045405667 -0.0075676115 0.012031406
-0.043816254 -0.0074808234 0.011881143
-0.042680621 -0.0074691093 0.011892319
-0.042208299 -0.0075758481 0.011862069
-0.040273268 -0.0074187596 0.011879563
-0.039229292 -0.007421758 0.0117971
-0.038678255 -0.0075207721 0.011872321
-0.037267771 -0.0074535543 0.01214239
-0.036499884 -0.0075146817 0.012045413
-0.03576456 -0.0075864214 0.012079954
-0.034259949 -0.0074943639 0.01206702
-0.033111025 -0.0074766828 0.012256175
-0.032052644 -0.0074789505 0.012403041
-0.030875284 -0.0074526547 0.01242584
-0.030246733 -0.0075616832 0.012401134
-0.028895564 -0.0074914424 0.012468368
-0.02746297 -0.0073938766 0.012832314
-0.02686573 -0.0075224042 0.013087511
-0.0254518 -0.0074234419 0.01339215
-0.024441075 -0.0074385875 0.013774723
-0.023591956 -0.0075065317 0.014039516
-0.022416493 -0.0074721645 0.014475554
-0.021333501 -0.0074667251 0.014599651
-0.020204494 -0.007443761 0.014991879
-0.019052317 -0.0074092345 0.014832854
-0.018043451 -0.0074296561 0.014638364
-0.016908769 -0.007397586 0.014221489
-0.0158334 -0.0073889196 0.013995498
-0.01489348 -0.0074467398 0.013805956
-0.013898157 -0.0074836225 0.013261825
-0.012693321 -0.0074044373 0.013308614
-0.011816711 -0.0075197252 0.013084412
-0.010633465 -0.0074434252 0.012695789
-0.0096233469 -0.0074848253 0.012672186
-0.0086598685 -0.0075773848 0.01242581
-0.0074872803 -0.0074872803 0.012432724
-0.006428902 -0.0075003854 0.012579769
-0.0053938739 -0.0075514237 0.013145089
-0.00427084 -0.0074739698 0.013376504
-0.0031428449 -0.0073333052 0.013655335
-0.0021269647 -0.0074443766 0.013979107
-0.0010575177 -0.007402624 0.013979107
0 -0.0074730627 0.01410085
0.0010643458 -0.0074504209 0.014159352
0.0021220874 -0.0074273059 0.014079958
0.0032167342 -0.007505713 0.014084101
0.004304735 -0.0075332867 0.014021099
0.0053054802 -0.0074276724 0.013783664
0.0064336569 -0.0075059328 0.013011634
0.007490267 -0.007490267 0.01298961
0.0085023632 -0.0074395677 0.013178021
0.0096260896 -0.0074869585 0.013572752
0.010652968 -0.0074570775 0.014394313
0.011700066 -0.0074454965 0.014572144
0.012820561 -0.0074786609 0.014728636
0.013715964 -0.0073855189 0.015186876
0.014852535 -0.0074262675 0.015245348
0.01596134 -0.0074486248 0.015349656
0.016849313 -0.0073715746 0.015354514
0.017986499 -0.0074062054 0.015354693
0.019182775 -0.0074599679 0.015144616
0.019813409 -0.007299677 0.015061647
0.021379778 -0.0074829226 0.014607131
0.022119874 -0.0073732911 0.01454553
0.023253128 -0.0073987227 0.014555961
0.024868047 -0.0075685359 0.014667213
0.025662122 -0.0074847857 0.014834762
0.026744034 -0.0074883294 0.014906228
0.027878981 -0.0075058793 0.014870971
0.028455414 -0.0073773293 0.015063763
0.030001516 -0.0075003789 0.015316367
0.030884104 -0.0074547832 0.015427589
0.031514604 -0.0073534073 0.015540779
0.032626759 -0.0073673325 0.016029119
0.033834059 -0.0074012 0.016090333
0.035128951 -0.0074515957 0.016038567
0.036309868 -0.0074755605 0.016230464
0.036974426 -0.0073948852 0.016222388
0.037537187 -0.0072988975 0.015995532
0.039496586 -0.007472327 0.015802264
0.040305555 -0.0074247075 0.015545517
0.041190717 -0.007393206 0.015419781
0.042758271 -0.0074826977 0.014708012
0.043530297 -0.0074320016 0.013495564
0.044588212 -0.0074313688 0.012618482
0.046041861 -0.0074951868 0.011517376
0.047294598 -0.0075241406 0.010429382
0.047903631 -0.0074516758 0.0088992417
0.050280601 -0.0076513956 0.0079061091
0.050764147 -0.0075606178 0.0068883002
0.053072639 -0.0077397595 0.0056993663
-0.060961127 -0.0065315492 0.0051532388
-0.058823217 -0.006417078 0.00600335
-0.05871594 -0.0065239933 0.0067668259
-0.05729837 -0.0064866082 0.008040458
-0.056009043 -0.0064625819 0.0091648698
-0.054721083 -0.0064377743 0.0093990266
-0.053456075 -0.0064147287 0.0096039772
-0.052044109 -0.0063727484 0.010088682
-0.051276159 -0.0064095198 0.010885835
-0.049613569 -0.0063336473 0.011370212
-0.049834035 -0.0065000914 0.011608839
-0.048644409 -0.0064859209 0.011628479
-0.047291163 -0.0064487951 0.011931241
-0.045897741 -0.0064043361 0.012053877
-0.045132447 -0.0064474926 0.011604398
-0.043999545 -0.0064389575 0.011392117
-0.04337151 -0.0065057264 0.011844218
-0.041637287 -0.0064057363 0.011707187
-0.04038329 -0.0063763089 0.011879236
-0.039875548 -0.0064663049 0.011852354
-0.038316932 -0.0063861553 0.011960566
-0.037435088 -0.006417444 0.012504041
-0.036600504 -0.006458912 0.012176633
-0.035358958 -0.0064289011 0.012348682
-0.034339122 -0.0064385855 0.012370676
-0.033080328 -0.0064026439 0.012539536
-0.032181613 -0.0064363224 0.012762606
-0.03104935 -0.0064240033 0.01275605
-0.029840946 -0.0063944883 0.012787461
