ply
format ascii 1.0
comment PCL generated
element vertex 1261
property float x
property float y
property float z
element camera 0
property float view_px
property float view_py
property float view_pz
property float x_axisx
property float x_axisy
property float x_axisz
property float y_axisx
property float y_axisy
property float y_axisz
property float z_axisx
property float z_axisy
property float z_axisz
property float focal
property float scalex
property float scaley
property float centerx
property float centery
property int viewportx
property int viewporty
property float k1
property float k2
end_header
0.038408402 -0.046943601 0.010400504
0.040002435 -0.047570463 0.010721207
0.040663712 -0.047084294 0.010163724
0.04203219 -0.04742093 0.0096815228
0.043350417 -0.047685459 0.0097870529
0.044702549 -0.047973461 0.0095549822
0.046229381 -0.048430778 0.0090696812
0.047224503 -0.048322748 0.0087216794
0.047989145 -0.047989145 0.0073836446
0.048380718 -0.047305588 0.005890131
-0.065882653 -0.047215901 0.0061939955
-0.064089485 -0.046709284 0.0070391595
-0.063408367 -0.047009651 0.0073197186
-0.062326554 -0.047018278 0.0077722669
-0.060591623 -0.046525709 0.0081911683
-0.059681632 -0.046660185 0.0085125864
-0.05853153 -0.046608441 0.0090649724
-0.057240091 -0.046440072 0.0096777976
-0.056237411 -0.046504013 0.010227144
-0.054685473 -0.046107359 0.010255039
-0.053653751 -0.046142224 0.010367393
-0.052428432 -0.046008624 0.011173427
-0.051281165 -0.045939378 0.011664957
-0.050988667 -0.046649206 0.011731356
-0.05052752 -0.047232244 0.011768669
-0.047797073 -0.045672759 0.011726618
-0.047317736 -0.046242334 0.011485279
-0.0463272 -0.0463272 0.01124993
-0.044271354 -0.045325432 0.010701537
-0.043937955 -0.046081267 0.010626465
-0.043137535 -0.046372853 0.010382324
-0.042022198 -0.046332169 0.010208279
-0.041234173 -0.046659723 0.010206044
-0.040895429 -0.047527116 0.010380208
-0.039492529 -0.047171634 0.010473281
-0.037921894 -0.046589758 0.010397881
-0.036497034 -0.046158016 0.010563642
-0.035367064 -0.046084359 0.010910183
-0.034400813 -0.046226092 0.011287838
-0.032563951 -0.04516935 0.011865586
-0.032054462 -0.045944728 0.01216349
-0.031100323 -0.046114273 0.01233691
-0.029950179 -0.045994915 0.01272586
-0.029130401 -0.046392862 0.012649328
-0.027936522 -0.046202712 0.012484133
-0.026596989 -0.045746822 0.011959016
-0.025950909 -0.046495378 0.011705786
-0.024838418 -0.04643704 0.01170224
-0.023748459 -0.046417445 0.011177659
-0.022694873 -0.046470452 0.010854155
-0.021641118 -0.046528403 0.010532856
-0.02048444 -0.046359524 0.0100604
-0.01950337 -0.046591386 0.010140657
-0.018495981 -0.04678395 0.010495752
-0.017580342 -0.047247168 0.010873765
-0.016366825 -0.046918232 0.011088789
-0.014789323 -0.04542435 0.012190521
-0.014001128 -0.046311427 0.014391363
-0.012880757 -0.046156045 0.015652239
-0.011618873 -0.045419231 0.017681777
-0.010657843 -0.04582873 0.018306375
-0.0095298896 -0.045531698 0.018468976
-0.0084433332 -0.045382917 0.018110901
-0.0074098986 -0.045517948 0.018013418
-0.0063672368 -0.045631863 0.017585456
-0.005309545 -0.045662086 0.017321199
-0.0042661838 -0.045861475 0.016800523
-0.0031904315 -0.045729518 0.015989095
-0.0021566935 -0.046368912 0.014879614
-0.0010807213 -0.046471011 0.014234185
0 -0.04597063 0.013449192
0.0010741736 -0.046189465 0.013219923
0.0021751239 -0.046765164 0.012666613
0.0032755483 -0.046949528 0.013047636
0.0043779733 -0.047063213 0.013730377
0.0054568555 -0.046928961 0.014140546
0.0063963342 -0.045840394 0.014373928
0.0075380434 -0.046305124 0.014253497
0.0084137535 -0.045223925 0.014960915
0.0094060609 -0.044940073 0.015430212
0.010670572 -0.045883458 0.015497029
0.011572875 -0.045239422 0.015527129
0.012624785 -0.045238815 0.015290082
0.013790017 -0.045613132 0.015150368
0.014722312 -0.045218527 0.015139639
0.015747957 -0.045144144 0.015139639
0.01695711 -0.045572232 0.0152435
0.018128369 -0.045854107 0.015374959
0.019256989 -0.046002809 0.0152435
0.020173775 -0.045656435 0.015504777
0.02115065 -0.0454739 0.015451044
0.022281662 -0.045624353 0.01545772
0.023452803 -0.04583957 0.015402973
0.024275996 -0.045385558 0.015519798
0.025650254 -0.045956705 0.015517354
0.026609093 -0.045767639 0.015116185
0.027301028 -0.045151703 0.014624059
0.028996477 -0.046179574 0.014520139
0.02977406 -0.045724448 0.014203966
0.030768892 -0.045622837 0.01344192
0.031940196 -0.045780949 0.012529969
0.033433422 -0.04637539 0.012536228
0.034373738 -0.04618971 0.01188153
0.03583964 -0.046700139 0.011325121
0.036441576 -0.046087876 0.010939837
0.037336335 -0.045870353 0.01020807
0.039566439 -0.047259916 0.0098111331
0.03978749 -0.046239514 0.0097965002
0.040658481 -0.046008281 0.0093393922
0.042118687 -0.046438552 0.0089145899
0.043361958 -0.046614107 0.0089245439
0.045199119 -0.04740395 0.0084969103
0.045897245 -0.046990033 0.008451879
0.047270749 -0.047270749 0.0073687136
0.047848087 -0.04676063 0.0060206056
-0.065244615 -0.045671232 0.0052223504
-0.065213986 -0.046423517 0.0059809983
-0.064361133 -0.04660634 0.0064968467
-0.062366556 -0.045954306 0.0071587265
-0.061303489 -0.045977619 0.0074010491
-0.058808092 -0.044907998 0.0078452528
-0.058286987 -0.045334324 0.0081199408
-0.057551216 -0.045606624 0.0090634823
-0.056258194 -0.045439314 0.0095045865
-0.055215068 -0.045471232 0.0099024475
-0.053812061 -0.045202129 0.010052264
-0.052916892 -0.045357339 0.010360897
-0.051907197 -0.045418799 0.011068434
-0.051041514 -0.045611568 0.011200666
-0.04950963 -0.045204446 0.011317015
-0.048191864 -0.044979073 0.011308253
-0.047754411 -0.045583755 0.011233509
-0.045719545 -0.044656299 0.010911822
-0.04491869 -0.04491869 0.010486245
-0.044426769 -0.045510348 0.010069996
-0.043131858 -0.045288451 0.010160863
-0.04233209 -0.045588408 0.0099468231
-0.041621156 -0.046002332 0.010375261
-0.040660307 -0.046154942 0.010515392
-0.039644159 -0.046251521 0.010557413
-0.037684388 -0.045221269 0.010732859
-0.036348358 -0.044900913 0.011258125
-0.035326432 -0.044960916 0.011901587
-0.034291789 -0.045007974 0.012190551
-0.03313851 -0.044897333 0.012437671
-0.032285985 -0.045200381 0.012967646
-0.030919012 -0.044779256 0.013151586
-0.030093521 -0.045140281 0.013233423
-0.029084109 -0.045241948 0.013107866
-0.027682643 -0.044718117 0.012859792
-0.026796117 -0.045017477 0.012433678
-0.026001286 -0.045502253 0.011948586
-0.024659717 -0.045030788 0.011818886
-0.023795977 -0.045428686 0.011377811
-0.022499884 -0.044999767 0.011075765
-0.021536555 -0.045226768 0.01101017
-0.020583035 -0.04549934 0.010647774
-0.019508485 -0.045519799 0.010812938
-0.018584261 -0.045914054 0.010833859
-0.017815696 -0.046766203 0.011255205
-0.016072966 -0.045004304 0.011858642
-0.015047747 -0.045143239 0.013070941
-0.014120629 -0.045620497 0.014532655
-0.012807762 -0.044827167 0.015858859
-0.011617254 -0.044356793 0.01826939
-0.010671554 -0.044820528 0.018563181
-0.0094914678 -0.044293519 0.018819988
-0.0084368195 -0.044293299 0.018367708
-0.0074092983 -0.044455793 0.01826331
-0.0063161561 -0.044213094 0.017940044
-0.0053421678 -0.044874214 0.017478049
-0.0042593 -0.04472265 0.016774148
-0.0032061872 -0.044886619 0.015763551
-0.0021527726 -0.045208223 0.014698952
-0.0010755473 -0.045172989 0.014106333
0 -0.044966824 0.013219923
0.0010821574 -0.045450609 0.012771398
0.0021501044 -0.045152195 0.011964858
0.0032964202 -0.046149883 0.01197058
0.0043825186 -0.046016447 0.012955308
0.0053285244 -0.044759605 0.014044762
0.0064223893 -0.044956729 0.013886482
0.0074784807 -0.044870887 0.014243245
0.0084746527 -0.044491924 0.014956117
0.0096104182 -0.044848621 0.015431762
0.010585469 -0.04445897 0.015565753
0.011654597 -0.044499371 0.015494227
0.012673196 -0.04435619 0.015467972
0.013708538 -0.044289123 0.015114695
0.014676962 -0.044030886 0.014981389
0.015961157 -0.044691242 0.015047252
0.017034272 -0.044714965 0.015114695
0.01834633 -0.045326229 0.015139639
0.019097378 -0.044560552 0.01511395
0.020213589 -0.04468267 0.015343785
0.021302763 -0.044735808 0.015218049
0.022465546 -0.044931091 0.01510334
0.02322449 -0.044337664 0.015275657
0.024378434 -0.044517141 0.01521036
0.025527664 -0.044673413 0.015366852
0.026437504 -0.044415008 0.015096784
0.027723553 -0.044784203 0.014624059
0.028654456 -0.044573598 0.014475584
0.029803867 -0.044705801 0.014226079
0.030948831 -0.044822443 0.013806909
0.031973939 -0.044763517 0.012997687
0.033316571 -0.045138583 0.012457877
0.034850843 -0.045741733 0.011996448
0.03531646 -0.044948224 0.011374891
0.03672022 -0.045360275 0.010858536
0.03796773 -0.04556128 0.0096225441
0.038350377 -0.044742107 0.0090823174
0.040282704 -0.045726314 0.0089809597
0.040978786 -0.045292344 0.008441329
0.041715343 -0.044924218 0.008009553
0.043081168 -0.045235232 0.0078079998
0.044807687 -0.045900557 0.0069520473
0.046299286 -0.046299286 0.0062325597
0.047563054 -0.046456937 0.0057078898
-0.065591544 -0.045580566 0.0052016675
-0.06306456 -0.044580124 0.0059320629
-0.061526429 -0.044255856 0.006170243
-0.060948849 -0.044623267 0.0067014694
-0.058743581 -0.043790672 0.0072281659
-0.058476988 -0.044399194 0.007407397
-0.057795219 -0.044709511 0.0081053972
-0.055277642 -0.043584295 0.0085443556
-0.05526891 -0.044431869 0.0091536641
-0.054012261 -0.044290055 0.0095256269
-0.052287087 -0.043750424 0.0099992156
-0.0524147 -0.044770893 0.010256797
-0.050544739 -0.044092219 0.010794282
-0.049086943 -0.043751407 0.011145025
-0.048543163 -0.044228215 0.011111975
-0.046928141 -0.043728497 0.010876179
-0.046078674 -0.043935481 0.010653108
-0.045246828 -0.044169523 0.01017037
-0.043742817 -0.043742817 0.009973526
-0.043265957 -0.04434761 0.010119408
-0.042439394 -0.044615775 0.010263652
-0.041620273 -0.044906083 0.01034978
-0.040634893 -0.045027852 0.01055342
-0.039182283 -0.044624269 0.01055342
-0.03763688 -0.044088919 0.011065781
-0.036628883 -0.044170126 0.01166895
-0.035217736 -0.043755371 0.012110889
-0.034242488 -0.043873191 0.012507945
-0.033463806 -0.044258583 0.01289016
-0.031767968 -0.043416224 0.012954801
-0.031188328 -0.044093844 0.012992293
-0.030077485 -0.044042036 0.013047963
-0.028990226 -0.044022195 0.013169229
-0.02783451 -0.043892883 0.01271373
-0.026943728 -0.044187713 0.012503862
-0.025757985 -0.04400323 0.011939108
-0.025012847 -0.044588119 0.011774719
-0.023762092 -0.0442839 0.011245966
-0.022443309 -0.043817889 0.011067688
-0.021555396 -0.044188563 0.011079967
-0.020580247 -0.044410009 0.010824084
-0.019540749 -0.044509489 0.0110614
-0.018712653 -0.045130517 0.011087298
-0.017516727 -0.044886611 0.011796862
-0.01631985 -0.044607595 0.012317121
-0.015158541 -0.044392869 0.013351381
-0.013649002 -0.043046851 0.015240878
-0.012789219 -0.0436965 0.016704202
-0.011773641 -0.043883573 0.018661082
-0.010495406 -0.043031167 0.019112676
-0.0094420537 -0.043013807 0.019244194
-0.0084569352 -0.043341793 0.018954933
-0.0073861512 -0.043261744 0.01867038
-0.0063028564 -0.043069523 0.018227994
-0.0052680252 -0.043197811 0.017838687
-0.0042586946 -0.043651622 0.01688385
-0.003251774 -0.044440914 0.015591651
-0.0021559941 -0.04419788 0.014236212
-0.0010790383 -0.044240568 0.013498306
0 -0.044220809 0.012142867
0.0010679379 -0.043785457 0.01175338
0.0021808636 -0.044707704 0.010955274
0.0032637839 -0.044605047 0.010942489
0.0043127984 -0.044206187 0.011330605
0.0053778077 -0.044098027 0.013147146
0.0063880105 -0.043651409 0.013547063
0.0074375207 -0.043562625 0.013783485
0.0085141845 -0.043635197 0.014608204
0.0095222844 -0.043379299 0.014888495
0.010704004 -0.043886423 0.015354663
0.011535526 -0.042996056 0.015338421
0.012634247 -0.04316701 0.014902592
0.013528416 -0.042666543 0.014934987
0.014867437 -0.043540355 0.014961928
0.015950702 -0.043598585 0.014978439
0.016962996 -0.043467678 0.015047252
0.018205764 -0.043908022 0.015467286
0.019016098 -0.043314449 0.015047312
0.02008062 -0.043331865 0.015272677
0.0215142 -0.044104114 0.015077561
0.022312284 -0.043562081 0.014670044
0.02342231 -0.043650672 0.014704883
0.024564348 -0.043788619 0.014802992
0.025598133 -0.043730147 0.014900267
0.026388263 -0.043276753 0.014670044
0.027746378 -0.043753903 0.014632255
0.028712433 -0.043600362 0.01450026
0.03012662 -0.044113982 0.014098853
0.030728644 -0.043443944 0.013406396
0.031742562 -0.043381501 0.01263994
0.033139464 -0.043829612 0.012269735
0.034078021 -0.043662462 0.01200667
0.035379332 -0.043956142 0.011685193
0.036583673 -0.044115607 0.010804921
0.037237141 -0.043620653 0.0096416473
0.039127905 -0.044562344 0.0088385046
0.039660476 -0.043948095 0.0083333552
0.040684007 -0.043895904 0.0076211989
0.041820135 -0.043964759 0.0065577924
0.043734349 -0.044827711 0.0060305595
0.045264415 -0.045264415 0.0052731037
-0.062291421 -0.043713275 0.0050678551
-0.060496062 -0.043211471 0.0054556131
-0.059677158 -0.043401565 0.0058112442
-0.058601793 -0.043408733 0.0062032938
-0.057621356 -0.043487817 0.006986022
-0.056993399 -0.043841075 0.0074884892
-0.055571094 -0.04358517 0.0078976154
-0.054775193 -0.04382015 0.0084135532
-0.053754903 -0.043881554 0.0089990199
-0.051710494 -0.043092076 0.00956285
-0.050945267 -0.04335767 0.010148197
-0.049800616 -0.043304879 0.010442734
-0.048053212 -0.042713962 0.010504961
-0.047250245 -0.042954765 0.010501444
-0.046769757 -0.043506749 0.010165721
-0.044601612 -0.042477723 0.0095674098
-0.044288214 -0.04320801 0.009517163
-0.04365826 -0.04365826 0.0097624362
-0.042600662 -0.043692987 0.0099452436
-0.042321507 -0.044548951 0.010179222
-0.040394623 -0.043669857 0.010651767
-0.039172441 -0.043524936 0.010816455
-0.037548926 -0.042913057 0.011356562
-0.036397502 -0.042820588 0.012020588
-0.035304327 -0.042793121 0.012700289
-0.034547132 -0.043183915 0.012862176
-0.032767035 -0.042280041 0.013132185
-0.032108054 -0.042810738 0.01324138
-0.031383883 -0.043288115 0.013475925
-0.029918903 -0.042741287 0.013589025
-0.029250804 -0.043334521 0.013233423
-0.028219266 -0.043414254 0.013067007
-0.026591657 -0.042546649 0.012733102
-0.025914133 -0.043190222 0.012098551
-0.02471677 -0.042985685 0.011799216
-0.023757365 -0.04319521 0.011268109
-0.022677949 -0.04319609 0.011157095
-0.021466251 -0.042932503 0.011137486
-0.02039885 -0.042944945 0.010847211
-0.019611098 -0.043580219 0.011075765
-0.018601913 -0.043769207 0.011258036
-0.017686009 -0.044215024 0.012179703
-0.016361222 -0.043629922 0.01281172
-0.01483126 -0.042375028 0.014002085
-0.013967752 -0.042977698 0.01595524
-0.012843364 -0.042811211 0.017334461
-0.011667175 -0.042426091 0.019117743
-0.010562329 -0.042249314 0.019378066
-0.0095568784 -0.042475015 0.019544452
-0.0084129507 -0.042064752 0.019286752
-0.0074206996 -0.042403996 0.018954933
-0.0063415635 -0.04227709 0.018280774
-0.005273289 -0.042186312 0.017946839
-0.0042609749 -0.042609747 0.01690954
-0.0032141837 -0.042855784 0.015138119
-0.0021406382 -0.042812761 0.013805956
-0.0010828883 -0.043315534 0.01234293
0 -0.043060839 0.011553019
0.0010809468 -0.043237872 0.010921925
0.0021825021 -0.043650039 0.010295451
0.0032356614 -0.043142151 0.010257125
0.0042655859 -0.042655859 0.010387719
0.0054222299 -0.043377839 0.010683566
0.0063593993 -0.042395994 0.012608677
0.0074784514 -0.042734008 0.013314664
0.0085337879 -0.042668935 0.013830394
0.0095317662 -0.042363405 0.014570087
0.010656343 -0.042625371 0.015047908
0.011675849 -0.042457629 0.015073597
0.012613394 -0.042044647 0.014904886
0.013719426 -0.042213615 0.015047312
0.014817678 -0.042336222 0.014952242
0.015961967 -0.042565249 0.014935732
0.01700798 -0.042519949 0.014935732
0.018204134 -0.042833254 0.015020311
0.019223785 -0.042719524 0.014881909
0.020441456 -0.043034639 0.014879882
0.021101451 -0.042202901 0.014468968
0.02221098 -0.042306624 0.014313638
0.023244232 -0.042262241 0.014583021
0.024530081 -0.042661007 0.01453045
0.025877794 -0.043129656 0.014630914
0.026833881 -0.042934205 0.014620602
0.027650977 -0.042539965 0.014619648
0.028624795 -0.042407103 0.014340788
0.029618934 -0.04231276 0.014203966
0.031046931 -0.042823352 0.013716459
0.031924725 -0.042566299 0.013095647
0.033059582 -0.042657521 0.012541503
0.034189083 -0.042736351 0.012021005
0.035463963 -0.042986624 0.01117599
0.036810663 -0.043306664 0.010454297
0.037779521 -0.043176595 0.009601146
0.038678598 -0.042976223 0.0086690485
0.039723985 -0.042944845 0.0080967247
0.040962666 -0.043118592 0.006378293
0.041962404 -0.043038364 0.0059014261
0.043786254 -0.043786254 0.005317837
-0.05869706 -0.042392317 0.0050566196
-0.057804212 -0.042535175 0.0058123469
-0.056975808 -0.042731855 0.0066262782
-0.056201629 -0.042977717 0.0071706772
-0.054929908 -0.042845327 0.0075845718
-0.053519905 -0.042597476 0.0082687438
-0.051720064 -0.042022552 0.0087028444
-0.051161535 -0.042453188 0.0094724596
-0.049091518 -0.04162107 0.0098602474
-0.04849362 -0.042027801 0.010285467
-0.047357224 -0.041975722 0.0098602474
-0.046129774 -0.041838631 0.0097225308
-0.0449952 -0.041781254 0.009290278
-0.044261798 -0.042102687 0.009375453
-0.043502156 -0.042414602 0.0097811818
-0.042669877 -0.042669877 0.010111958
-0.041939169 -0.043042827 0.010427207
-0.039979573 -0.042140633 0.010770738
-0.038849011 -0.04208643 0.011088908
-0.037437424 -0.041715987 0.011734366
-0.036245964 -0.041576255 0.012430608
-0.035302922 -0.041721635 0.012806267
-0.034065749 -0.04151763 0.013127387
-0.032986961 -0.041499723 0.013253331
-0.032179408 -0.041833229 0.013638467
-0.030808732 -0.041432433 0.013480932
-0.030141467 -0.041982759 0.013403952
-0.028796889 -0.041595504 0.013261169
-0.028018292 -0.042027436 0.013046741
-0.027050901 -0.042199403 0.012386918
-0.025940804 -0.042153805 0.012010098
-0.024800833 -0.042053584 0.011565715
-0.023931131 -0.042423368 0.011114359
-0.022581663 -0.041937374 0.010917008
-0.021492098 -0.04190959 0.010834754
-0.020605387 -0.04229527 0.010754287
-0.019379074 -0.041987993 0.011155903
-0.018715717 -0.042936057 0.011258036
-0.017575838 -0.042841103 0.012179703
-0.016110506 -0.041887317 0.0130485
-0.015024235 -0.041853223 0.013919592
-0.013889156 -0.041667469 0.016027898
-0.012657967 -0.041138396 0.017398536
-0.011559252 -0.040982801 0.019025266
-0.010701415 -0.041735519 0.019329816
-0.0094800368 -0.041080158 0.019543797
-0.0085577173 -0.04171887 0.019126534
-0.0073838611 -0.041138656 0.018858403
-0.0062961462 -0.040924951 0.018434733
-0.0052548563 -0.040987879 0.017767757
-0.0042246347 -0.041190188 0.016766697
-0.0031947612 -0.041531898 0.014804751
-0.0021443174 -0.041814189 0.013110816
-0.0010849737 -0.042313974 0.011644781
0 -0.042004053 0.010940254
0.0010895859 -0.042493854 0.01061511
0.0021711411 -0.042337254 0.0099038482
0.0032388193 -0.04210465 0.0097085536
0.0043537724 -0.042449277 0.0098473728
0.0053665135 -0.041858803 0.010111779
0.0064159306 -0.041703548 0.010416716
0.007554186 -0.042087607 0.012350798
0.0085596582 -0.041728336 0.013568878
0.009594162 -0.041574702 0.014523029
0.010602525 -0.041349847 0.014845937
0.011617308 -0.041188639 0.015077621
0.012722754 -0.041348949 0.015124381
0.013721989 -0.041165967 0.014904886
0.014805162 -0.041242953 0.015097171
0.016044099 -0.041714657 0.014944077
0.016842339 -0.041053202 0.01485014
0.018150853 -0.041640192 0.014876425
0.019457646 -0.042158235 0.014736891
0.020263309 -0.041593105 0.014781654
0.021206005 -0.04135171 0.014367551
0.022378029 -0.041559197 0.014327943
0.023352548 -0.041397702 0.014281094
0.024570897 -0.041663695 0.014366955
0.025668919 -0.041711994 0.014538348
0.026646592 -0.041568682 0.014525741
0.027881302 -0.041821953 0.014626592
0.028806699 -0.041609675 0.014423728
0.029871939 -0.041607343 0.0141083
0.030910544 -0.041569348 0.013582408
0.032192115 -0.041849751 0.012962997
0.032994464 -0.041509163 0.012599975
0.034309667 -0.041814908 0.012001336
0.035286952 -0.041702762 0.011414647
0.037029315 -0.042474803 0.010445565
0.037665956 -0.041970637 0.0095484257
0.038814195 -0.042048711 0.008194536
0.040303797 -0.042482376 0.0070133209
0.041248102 -0.042333577 0.005818367
0.042104494 -0.042104494 0.0050291717
-0.057824142 -0.041458819 0.0050566196
-0.057158217 -0.041769467 0.0055178702
-0.056193318 -0.041869532 0.0063480437
-0.054328378 -0.041289568 0.0068196058
-0.052903589 -0.041027274 0.0073613226
-0.051636752 -0.040879097 0.0077692866
-0.050533157 -0.040856596 0.0085192025
-0.049297269 -0.04072383 0.0090269148
-0.048879664 -0.041276161 0.0090298057
-0.047142707 -0.040714156 0.0089460313
-0.046498813 -0.041091975 0.0087525845
-0.045639731 -0.041293088 0.0084992945
-0.043992463 -0.0407735 0.0088996291
-0.043543834 -0.041366644 0.0093914568
-0.042774208 -0.041677434 0.010096937
-0.041333631 -0.041333631 0.010427207
-0.040199261 -0.041285727 0.010839581
-0.038821194 -0.040977933 0.011332124
-0.037219811 -0.040410079 0.011785448
-0.036188737 -0.040446237 0.012452453
-0.035325255 -0.04067757 0.012862176
-0.034284882 -0.040713295 0.013026625
-0.033338122 -0.040866084 0.013080746
-0.032187037 -0.040770248 0.013465881
-0.031202316 -0.040885791 0.013336658
-0.030379213 -0.041228935 0.01318562
-0.028800452 -0.040533967 0.013138682
-0.028310012 -0.041376173 0.012649328
-0.026978565 -0.041007422 0.012357503
-0.0256852 -0.040668234 0.011974663
-0.024888966 -0.041120898 0.011435241
-0.023618126 -0.040794946 0.010942757
-0.02257303 -0.040846433 0.010710865
-0.021677876 -0.041187964 0.010602862
-0.020510063 -0.041020125 0.010394096
-0.01949284 -0.041151553 0.010847211
-0.018831523 -0.042093992 0.011231303
-0.017398546 -0.041321546 0.012320489
-0.01603063 -0.040610932 0.013037622
-0.0152291 -0.04133613 0.014854431
-0.013617991 -0.039806437 0.015765518
-0.01264715 -0.040049307 0.01678744
-0.01174623 -0.040577888 0.018884718
-0.010487325 -0.039851837 0.019249082
-0.0095057813 -0.040135525 0.019376248
-0.0084174983 -0.03998312 0.019126534
-0.007383497 -0.04008184 0.018938959
-0.0063154921 -0.039998118 0.018215209
-0.0052979905 -0.040264729 0.017588288
-0.0042574485 -0.040445764 0.016693413
-0.0032219279 -0.040811088 0.01475808
-0.002143129 -0.04071945 0.012694389
-0.0010762485 -0.040897444 0.011081934
0 -0.041414268 0.010519207
0.0010875998 -0.041328795 0.010049134
0.0021652242 -0.04113926 0.0093723834
0.0032470578 -0.041129399 0.0092916787
0.0042890124 -0.04074562 0.0093354583
0.005403908 -0.041069701 0.0097348094
0.0065128738 -0.041248202 0.010053873
0.0074816379 -0.040614605 0.011158556
0.0085529592 -0.040626556 0.01318261
0.0095582148 -0.040356908 0.014212191
0.010605657 -0.040301498 0.014678597
0.011710186 -0.040453371 0.015005499
0.012797867 -0.04052658 0.015016049
0.013716581 -0.040094625 0.015003502
0.014796798 -0.040162738 0.015220374
0.016033361 -0.040617846 0.015124381
0.017010359 -0.040399604 0.014837414
0.01822013 -0.040727347 0.014643073
0.019409882 -0.04097642 0.014558762
0.020188639 -0.040377278 0.014465332
0.021231659 -0.040340155 0.014094502
0.022364255 -0.040468652 0.013884604
0.023499448 -0.040589955 0.014007151
0.024734246 -0.040865272 0.013950497
0.025782635 -0.04082251 0.014250159
0.026904348 -0.040894609 0.014195055
0.027722551 -0.040517576 0.014584571
0.028826617 -0.040570792 0.014026523
0.030058756 -0.040794026 0.013716489
0.030937191 -0.040538386 0.013376266
0.031678554 -0.040126167 0.012861937
0.033623304 -0.041215662 0.012514561
0.034029283 -0.040409774 0.011858165
0.035764474 -0.041183338 0.010904968
0.036698755 -0.041016255 0.010328501
0.037393369 -0.040598515 0.0094354749
0.039023619 -0.0411916 0.0081739426
0.040243991 -0.041331664 0.006556958
0.041216515 -0.041216515 0.0056600571
-0.057437427 -0.040868942 0.0051477849
-0.056037217 -0.040654454 0.0053288639
-0.054738473 -0.040506471 0.0057478249
-0.053822335 -0.04064136 0.0059696138
-0.051625434 -0.039794609 0.0063073039
-0.050774317 -0.039971273 0.0076058805
-0.049719244 -0.039991569 0.0083191693
-0.048483595 -0.039864287 0.0082411468
-0.047650132 -0.040069431 0.0082411468
-0.047007922 -0.040448677 0.0080737472
-0.044962898 -0.039610174 0.0081783533
-0.044393867 -0.040062759 0.0087317228
-0.043592524 -0.040323086 0.0093509257
-0.042588435 -0.040404417 0.0098265707
-0.041630268 -0.040534738 0.010427207
-0.040020611 -0.040020611 0.010845482
-0.038414326 -0.039481394 0.011598349
-0.037306722 -0.039438538 0.012042642
-0.036396611 -0.03960808 0.012780786
-0.035039864 -0.03928712 0.012933999
-0.034378018 -0.039749585 0.013104111
-0.032904815 -0.039273489 0.013183743
-0.032185394 -0.039695319 0.01340124
-0.031167379 -0.039765276 0.013008207
-0.029782485 -0.039355427 0.012993932
-0.028970679 -0.03970056 0.013046741
-0.028366975 -0.040368389 0.01256457
-0.026763624 -0.039610162 0.012157559
-0.02603152 -0.04013193 0.011883527
-0.024985351 -0.040193826 0.011204839
-0.023827665 -0.040073801 0.010691106
-0.022550248 -0.039731391 0.010234654
-0.021543426 -0.039855339 0.010453045
-0.020503292 -0.039927468 0.010225534
-0.019562868 -0.040212568 0.010841519
-0.018887453 -0.041107986 0.011691839
-0.017195825 -0.039765347 0.012752682
-0.016095329 -0.039701812 0.013186246
-0.01504999 -0.039774977 0.014909953
-0.01378051 -0.039221454 0.015830934
-0.012738935 -0.039278384 0.016775846
-0.011523965 -0.038762428 0.018705636
-0.010621474 -0.039299455 0.019081235
-0.0095336661 -0.039193965 0.019364327
-0.00848113 -0.039225228 0.019113749
-0.00736184 -0.038912583 0.018713564
-0.0063129519 -0.038929872 0.018019557
-0.0052348669 -0.038738016 0.017603099
-0.0042302669 -0.039129969 0.016745448
-0.0032010013 -0.039479017 0.014505982
-0.0021626919 -0.0400098 0.01235202
-0.0010855453 -0.040165178 0.011081934
0 -0.039913692 0.010155231
0.0010894919 -0.040311199 0.009770155
0.0021716778 -0.040176038 0.0091035068
0.003249998 -0.040083311 0.0090478063
0.0043220655 -0.039979108 0.0091838241
0.0054437155 -0.040283497 0.009457916
0.0064746831 -0.039927214 0.0097813606
0.0075330948 -0.039817788 0.010420382
0.0085588312 -0.039584596 0.01246208
0.0095511479 -0.039265834 0.013613194
0.010682778 -0.039526284 0.01414445
0.011791017 -0.039660696 0.014438897
0.012719272 -0.039217755 0.014536262
0.013783666 -0.039230436 0.014671415
0.014845258 -0.039233897 0.015092283
0.015960632 -0.039369561 0.014852583
0.017059928 -0.039451085 0.014817566
0.017998509 -0.039173227 0.014632553
0.019221136 -0.039510116 0.014166385
0.02058626 -0.040089034 0.014289558
0.021257199 -0.039325818 0.013981014
0.022640653 -0.039890673 0.013823599
0.02391836 -0.040226337 0.013543636
0.024348205 -0.039168853 0.013431311
0.025763875 -0.03971931 0.013495505
0.026710598 -0.039531685 0.013695151
0.027752597 -0.039494082 0.013875067
0.028537232 -0.039106578 0.01374051
0.030143721 -0.039832778 0.013500065
0.030875847 -0.039393324 0.013057262
0.031916559 -0.039363757 0.012614936
0.033066206 -0.039466117 0.012361079
0.034217265 -0.039563712 0.011475384
0.035165668 -0.039428178 0.010504514
0.036186799 -0.039379753 0.010009646
0.037465505 -0.039606392 0.0089096427
0.039594296 -0.04069414 0.0074387491
0.04040762 -0.04040762 0.0061630011
0.041265056 -0.040179133 0.0051898658
-0.053252421 -0.039124228 0.0051980019
-0.052340295 -0.03925522 0.0053934455
-0.051471718 -0.039425142 0.0057576597
-0.049319588 -0.038597934 0.0067912638
-0.049086481 -0.039269179 0.0073658526
-0.048141561 -0.039388552 0.007411778
-0.046400458 -0.038846891 0.0075817406
-0.045224104 -0.038763516 0.0075447857
-0.04453757 -0.039106157 0.0087972283
-0.043624043 -0.039261639 0.009375453
-0.042786572 -0.039495297 0.010096937
-0.040784944 -0.038638365 0.01086396
-0.039667111 -0.038595024 0.011231124
-0.038581908 -0.038581908 0.012211651
-0.037393447 -0.03846183 0.012776375
-0.036334839 -0.038472179 0.012882203
-0.035477169 -0.038702369 0.013104111
-0.034149405 -0.038418081 0.013263524
-0.033083029 -0.038418997 0.013441175
-0.032441542 -0.03892985 0.013423443
-0.031148046 -0.038666535 0.013136953
-0.030045334 -0.038629714 0.01314798
-0.029379666 -0.039172884 0.0127303
-0.027847087 -0.038557503 0.012441456
-0.02697877 -0.038849428 0.01199913
-0.025856979 -0.038785469 0.011389554
-0.024621442 -0.038537905 0.011146128
-0.023615586 -0.038643684 0.010691106
-0.022695431 -0.038906451 0.010314554
-0.021675663 -0.039016195 0.010505825
-0.020592062 -0.039016534 0.01048103
-0.019544356 -0.039088711 0.010927469
-0.018825702 -0.03986619 0.01168704
-0.017389037 -0.039125331 0.012879848
-0.015905978 -0.038174346 0.013367742
-0.014892795 -0.038295757 0.015285432
-0.013864111 -0.038392924 0.015830934
-0.012652944 -0.037958831 0.017324269
-0.011650778 -0.038129818 0.01836735
-0.010619626 -0.038230654 0.019157708
-0.0094702495 -0.037880998 0.019109637
-0.0084645888 -0.03809065 0.018979132
-0.007390283 -0.03800717 0.018858403
-0.0062979846 -0.037787907 0.01817739
-0.0052831136 -0.038038418 0.017838329
-0.004235839 -0.03812255 0.016895056
-0.0032193975 -0.038632769 0.01503706
-0.0021660961 -0.038989726 0.01248914
-0.0010814791 -0.038933247 0.010969311
0 -0.039066728 0.0098254681
0.0011029168 -0.039705005 0.0092868209
0.0021567438 -0.038821384 0.0091130435
0.0032549237 -0.039059084 0.008957684
0.0044092759 -0.03968348 0.0085793138
0.0054367487 -0.03914459 0.0086576641
0.0065071159 -0.039042696 0.0090686381
0.0075751781 -0.038958058 0.0097886026
0.0085350219 -0.038407598 0.010480464
0.0096237976 -0.03849519 0.012540817
0.010663945 -0.038390204 0.013568878
0.011703532 -0.03830247 0.014423549
0.012803002 -0.038409006 0.014546454
0.013774945 -0.038146 0.01459372
0.014768738 -0.037976753 0.014746338
0.016093504 -0.038624406 0.014642745
0.017047275 -0.038356367 0.01443848
0.018100567 -0.038330611 0.014271915
0.019410033 -0.038820066 0.014022231
0.020457208 -0.038761023 0.014274985
0.021465797 -0.038638435 0.013665676
0.022789678 -0.039068017 0.012872785
0.023668949 -0.038731005 0.012650043
0.024787389 -0.038797647 0.012194067
0.025928272 -0.038892407 0.012920469
0.026851485 -0.038666137 0.012829512
0.028018836 -0.038795311 0.01313436
0.028895404 -0.038527202 0.013171673
0.02980276 -0.038317833 0.013003379
0.030817805 -0.038256582 0.01274398
0.03198915 -0.038386978 0.012296766
0.033167496 -0.038517088 0.012090296
0.034232706 -0.03851179 0.010962278
0.034668237 -0.037819896 0.010419667
0.036289573 -0.038424253 0.0094978809
0.038039293 -0.039126128 0.008194536
0.038930319 -0.038930319 0.0068779588
0.040161606 -0.039076153 0.0058073103
-0.050104819 -0.038123231 0.0056734979
-0.049189515 -0.038258512 0.0061008334
-0.047381565 -0.037689883 0.006538868
-0.046672866 -0.037989542 0.0066587031
-0.045634862 -0.038029049 0.0073286891
-0.044341639 -0.037852615 0.0081581771
-0.043570694 -0.038124356 0.0093375444
-0.042498805 -0.038139954 0.010129035
-0.04072031 -0.037505548 0.010780752
-0.039483301 -0.037349068 0.012194127
-0.038394313 -0.037327804 0.012614489
-0.037319019 -0.037319019 0.012806267
-0.036653526 -0.037731569 0.012948394
-0.035389036 -0.037533823 0.013104111
-0.034052245 -0.037244644 0.013263524
-0.033152223 -0.037429925 0.01347667
-0.032246929 -0.03762142 0.013672858
-0.030871993 -0.037259299 0.01314798
-0.030576197 -0.038220245 0.012768984
-0.028855918 -0.037405815 0.012729883
-0.027898896 -0.037556209 0.012250632
-0.026980141 -0.037772194 0.011846393
-0.025912132 -0.037788525 0.011485219
-0.024985313 -0.038021125 0.010932088
-0.02371284 -0.037724972 0.010374457
-0.022771752 -0.037952919 0.010292649
-0.021610051 -0.03781759 0.010743886
-0.020491676 -0.037747823 0.010743886
-0.019513695 -0.037943296 0.011389554
-0.018738018 -0.038578272 0.012011051
-0.017076273 -0.037354346 0.013075382
-0.015988691 -0.037306946 0.013615727
-0.014953014 -0.037382536 0.015491277
-0.013724307 -0.036950056 0.016059756
-0.012693615 -0.037023041 0.017393798
-0.011790266 -0.037514485 0.018177181
-0.010467114 -0.0366349 0.018894941
-0.0094772521 -0.036855981 0.019010484
-0.0084421597 -0.036934447 0.018935055
-0.0073936102 -0.036968049 0.018717825
-0.0063471105 -0.037024811 0.018204987
-0.0052806321 -0.036964424 0.017944425
-0.004246247 -0.03715466 0.017189682
-0.0032266665 -0.037644442 0.015330762
-0.0021698531 -0.037972428 0.013405323
-0.0010843292 -0.037951522 0.011053473
0 -0.037894238 0.0094927847
0.001091011 -0.038185384 0.0091632903
0.0021709464 -0.037991561 0.0085540414
0.003261836 -0.038054753 0.0082844496
0.0043502348 -0.038064554 0.0078184307
0.0054318714 -0.038023103 0.0077331364
0.0065726866 -0.038340673 0.0078860819
0.0075585642 -0.03779282 0.0091019273
0.0086437874 -0.037816569 0.0097685456
0.0095690731 -0.037213065 0.011148572
0.010713656 -0.037497796 0.012659013
0.011771565 -0.037454978 0.013613194
0.012870664 -0.037539437 0.013819724
0.013837959 -0.037256043 0.014141977
0.014874824 -0.037187062 0.014208704
0.015920402 -0.037147604 0.014107317
0.017294776 -0.03783232 0.01394558
0.018258272 -0.037590556 0.013860941
0.019009057 -0.036962055 0.013650656
0.020458244 -0.037686236 0.013305843
0.021390431 -0.037433255 0.012282699
0.022361564 -0.037269272 0.011927754
0.023803577 -0.037869327 0.012034744
0.024803989 -0.037745196 0.012011021
0.025749143 -0.037550833 0.011988193
0.026684588 -0.037358422 0.011988193
0.027979275 -0.037664406 0.012303472
0.028646462 -0.037134301 0.012206584
0.030162202 -0.03770275 0.012212515
0.030689266 -0.037038766 0.012088716
0.032077927 -0.037424248 0.011618227
0.03304521 -0.037309103 0.011244118
0.033751909 -0.036916152 0.010652155
0.035001464 -0.037122764 0.0096990764
0.036921054 -0.038006965 0.0086757541
0.037604947 -0.037604947 0.0073207617
0.03874933 -0.037672959 0.0062502623
0.040159184 -0.037988417 0.0055626333
-0.048498925 -0.036643628 0.0053886175
-0.047723755 -0.036877446 0.0060714185
-0.046973679 -0.037141979 0.0062992871
-0.04548971 -0.036825005 0.0071204305
-0.044707879 -0.037074827 0.0083204806
-0.044182081 -0.037554771 0.0092326999
-0.042670552 -0.03719997 0.010111958
-0.040949602 -0.036639117 0.011040062
-0.039525256 -0.036320504 0.012048364
-0.038557138 -0.036415078 0.012446672
-0.037464645 -0.036394227 0.012787968
-0.036453426 -0.036453426 0.012930661
-0.035450511 -0.036524769 0.012972772
-0.034695171 -0.036863618 0.013163716
-0.033153646 -0.036362059 0.013396114
-0.032004781 -0.036272086 0.013030201
-0.03112811 -0.036495026 0.012862474
-0.030289121 -0.036779646 0.012612462
-0.029315442 -0.036915742 0.012539893
-0.028221695 -0.036905292 0.012061864
-0.02687371 -0.036548246 0.011615694
-0.025975879 -0.036799163 0.011179
-0.025070166 -0.037060246 0.01048404
-0.02383001 -0.036828198 0.0098417401
-0.022819933 -0.036946557 0.0098075569
-0.021808844 -0.037075035 0.009948194
-0.020452235 -0.036598735 0.0097862184
-0.019574674 -0.036974385 0.011008978
-0.018635731 -0.037271462 0.011621207
-0.017242135 -0.036639538 0.012800038
-0.016235266 -0.036799937 0.013396472
-0.014819349 -0.035989847 0.01534918
-0.013885913 -0.036317006 0.015800446
-0.012723293 -0.036049332 0.01695174
-0.011638463 -0.035973433 0.018143147
-0.010655819 -0.036229782 0.018717825
-0.0096208677 -0.036345504 0.018938959
-0.0083642686 -0.035548143 0.018979132
-0.0074304864 -0.036090933 0.018903941
-0.0063378983 -0.03591476 0.01824522
-0.0052693081 -0.035831295 0.018068463
-0.0042571193 -0.036185514 0.0174326
-0.0032067611 -0.036343295 0.016491801
-0.0021415192 -0.036405828 0.013392538
-0.0010871738 -0.03696391 0.010378867
0 -0.036823556 0.0091546178
0.0010939785 -0.037195273 0.0083719492
0.0021886658 -0.037207317 0.0081420541
0.0032643566 -0.036996044 0.0079477429
0.0043606437 -0.037065469 0.0073298812
0.005482547 -0.037281319 0.0070959032
0.0064629214 -0.036623221 0.0072956383
0.0075614573 -0.036727078 0.0083313882
0.0086927749 -0.036944292 0.0093112886
0.0096460152 -0.036440503 0.01033023
0.010858682 -0.036919519 0.011192203
0.011851578 -0.036632154 0.01276654
0.012876332 -0.036482941 0.012948662
0.013880389 -0.036302555 0.013400346
0.014911156 -0.036212809 0.013812512
0.016007589 -0.036283869 0.01371789
0.017026499 -0.036181312 0.013687432
0.018077454 -0.036154907 0.013728142
0.019316839 -0.036487363 0.013416529
0.02020663 -0.036159232 0.012575477
0.021638935 -0.036786191 0.012074381
0.022409659 -0.036282305 0.011663437
0.023926105 -0.036976706 0.011657119
0.024574902 -0.036328115 0.011695355
0.025751725 -0.036481611 0.011660665
0.026981344 -0.036694627 0.011640519
0.028065635 -0.036701214 0.011653095
0.029189413 -0.036757041 0.011640519
0.030144868 -0.036604486 0.011638641
0.031057816 -0.036412612 0.01137042
0.032339226 -0.036651123 0.011000216
0.033482272 -0.036722492 0.010712385
0.034162201 -0.03629734 0.010123998
0.035440519 -0.036514476 0.0095511973
0.036089096 -0.036089096 0.0077121854
0.037471 -0.036400404 0.0067383945
0.039108299 -0.036935616 0.0059504509
-0.048517648 -0.036388237 0.0053411126
-0.046918385 -0.036007132 0.0060070455
-0.046230137 -0.036323678 0.0068460107
-0.045284688 -0.03644865 0.0079703927
-0.043920275 -0.036234226 0.0089849234
-0.042283047 -0.035777964 0.010113657
-0.04062929 -0.035283331 0.010780245
-0.039475191 -0.035207603 0.012020588
-0.03873723 -0.035509128 0.01229012
-0.037595276 -0.035446972 0.012614489
-0.036633886 -0.035556417 0.012725741
-0.035539776 -0.035539776 0.012920976
-0.03415763 -0.035225056 0.013385624
-0.033047803 -0.035179917 0.013365805
-0.032362275 -0.035598502 0.013166398
-0.030941201 -0.035208952 0.012592107
-0.030140923 -0.035523232 0.012642682
-0.029252751 -0.035753362 0.012255698
-0.027979998 -0.035513073 0.01163581
-0.026909603 -0.035520673 0.01101774
-0.0260526 -0.035822324 0.010532826
-0.024919074 -0.035753451 0.0097725093
-0.023887014 -0.03583052 0.009509027
-0.02283486 -0.035883352 0.0092541277
-0.021512326 -0.035495337 0.0094075203
-0.020734429 -0.03601243 0.0094288588
-0.019653043 -0.036030579 0.01034385
-0.018607603 -0.036120638 0.011193603
-0.017099012 -0.035266712 0.011783183
-0.015778633 -0.034712993 0.013205767
-0.014953366 -0.035247218 0.015324473
-0.013860373 -0.035184022 0.015867501
-0.012626807 -0.034723718 0.01712954
-0.011741782 -0.035225343 0.018070638
-0.010689015 -0.035273749 0.018664539
-0.0094768768 -0.034748547 0.018825054
-0.0085579995 -0.035301749 0.018860072
-0.0074588261 -0.035163037 0.018903941
-0.006324633 -0.034785483 0.018476516
-0.0053129387 -0.035065398 0.018024176
-0.0042375871 -0.034960095 0.017760724
-0.0031939372 -0.03513331 0.016750783
-0.0021578856 -0.035605114 0.01331827
-0.0010815661 -0.035691679 0.010289818
0 -0.036090862 0.0091536939
0.0010980952 -0.036237143 0.0081701875
0.0021973853 -0.036256857 0.0079957843
0.0032912868 -0.036204152 0.007080406
0.0043936344 -0.036247484 0.0068028569
0.0054618116 -0.036047958 0.0067324638
0.0064587966 -0.035523381 0.0069433749
0.0075919507 -0.035790626 0.007838726
0.0086100074 -0.035516281 0.0085403621
0.0097114472 -0.035608642 0.0095406771
0.010867014 -0.035861146 0.010749698
0.01189547 -0.035686411 0.011746585
0.013009481 -0.035776075 0.012588978
0.013934595 -0.035372432 0.012922257
0.014897249 -0.035114944 0.013128936
0.015933488 -0.03505367 0.013118178
0.017064037 -0.035194576 0.012913525
0.018120429 -0.035174947 0.012706846
0.019413732 -0.035591844 0.012575477
0.020383822 -0.035403479 0.012255698
0.021435851 -0.035369154 0.011817634
0.022769867 -0.035781216 0.011467904
0.023407778 -0.035111666 0.01131171
0.024880003 -0.035697393 0.010965556
0.025774531 -0.035439979 0.010939866
0.026764039 -0.03532853 0.010939866
0.028079329 -0.035639148 0.01088208
0.02915944 -0.035639312 0.011004746
0.030054355 -0.035421204 0.010928571
0.031180253 -0.035480976 0.010637879
0.032356821 -0.0355925 0.010200292
0.033372737 -0.035525817 0.01016885
0.034630615 -0.035712823 0.0097034574
0.035293944 -0.035293944 0.0086405575
0.03675947 -0.035678308 0.0073077679
0.038425874 -0.03623011 0.0061311126
0.038985632 -0.035736829 0.0054924786
-0.0472266 -0.035145376 0.0050265491
-0.046180971 -0.035185501 0.0059814155
-0.045053255 -0.035163514 0.0077706873
-0.043851633 -0.035081308 0.0088277757
-0.042029608 -0.034485832 0.0097277462
-0.04061212 -0.034199681 0.010648519
-0.039588347 -0.034238569 0.011620581
-0.038428977 -0.03415909 0.012048364
-0.037276432 -0.03408131 0.012427568
-0.036721535 -0.034561444 0.012657285
-0.035528909 -0.034452274 0.012764424
-0.034228463 -0.034228463 0.013008207
-0.033321194 -0.034396071 0.013043523
-0.032177839 -0.034323025 0.012651145
-0.03117069 -0.034395244 0.012360573
-0.030282795 -0.034608908 0.012060463
-0.028973723 -0.034339227 0.011737943
-0.028162247 -0.034661226 0.011063546
-0.026905913 -0.034439567 0.010732025
-0.025954453 -0.034605939 0.01024729
-0.024953399 -0.034717772 0.0096626282
-0.023615437 -0.034349725 0.0093778968
-0.02268777 -0.034571841 0.0090001225
-0.021725485 -0.034760777 0.0090717077
-0.020473287 -0.034481324 0.0092169344
-0.019691978 -0.035007961 0.0098097622
-0.018652646 -0.035110861 0.010798573
-0.017177282 -0.034354564 0.011584252
-0.016123472 -0.034396738 0.013016373
-0.014935968 -0.034139358 0.015043646
-0.013652306 -0.033605676 0.015644908
-0.012784639 -0.034092374 0.016482979
-0.011790934 -0.034300901 0.017980605
-0.01058423 -0.033869535 0.018403709
-0.0095613683 -0.033995979 0.018815368
-0.0085120825 -0.03404833 0.018878937
-0.0073837582 -0.033754323 0.018935502
-0.0063714902 -0.033981282 0.018641174
-0.0053045903 -0.033949379 0.018019557
-0.0042231265 -0.033785012 0.017857373
-0.0032115395 -0.034256421 0.016694516
-0.0021293897 -0.034070235 0.014248967
-0.0010751592 -0.034405094 0.0097834468
0 -0.035093732 0.0081863701
0.0010870723 -0.034786314 0.0073470473
0.0021941818 -0.035106909 0.0068680048
0.0033234956 -0.035450622 0.0066043735
0.0043536783 -0.034829427 0.0064208508
0.0054735495 -0.035030719 0.0063641071
0.0065745991 -0.03506453 0.0065599382
0.0075458381 -0.034495261 0.0073171854
0.008656471 -0.034625884 0.0080004632
0.0097041083 -0.034503497 0.0090903044
0.01096278 -0.035080895 0.0099787414
0.01201483 -0.034952231 0.011024684
0.012986587 -0.034630898 0.011490554
0.013872645 -0.034148049 0.012253702
0.014996348 -0.034277368 0.012498111
0.015935786 -0.033996344 0.012492776
0.017078165 -0.03415633 0.012255698
0.018502954 -0.034829088 0.012398869
0.019222002 -0.034172449 0.012161791
0.020338321 -0.034254014 0.012156785
0.021627141 -0.034603428 0.011792034
0.022697968 -0.03458738 0.011288732
0.023670178 -0.034429353 0.010802954
0.02470357 -0.034370184 0.010781139
0.025797188 -0.03439625 0.010604262
0.027022691 -0.034589045 0.010589927
0.028252136 -0.03477186 0.010611713
0.028857468 -0.034201443 0.010653824
0.03016565 -0.034475029 0.010311335
0.030771606 -0.033954874 0.010251522
0.032245118 -0.034394793 0.0097948909
0.03337004 -0.034446493 0.0095649362
0.033902735 -0.033902735 0.0088252723
0.035712823 -0.034630615 0.007799238
0.03785615 -0.035629317 0.0062564015
0.037600685 -0.034377772 0.0058654845
-0.046222925 -0.03411692 0.0051162541
-0.045151245 -0.034138747 0.006778419
-0.043177761 -0.03346277 0.0083204806
-0.041461967 -0.03295695 0.0093515217
-0.040767189 -0.033257443 0.01015678
-0.039437 -0.033041809 0.011040062
-0.038575944 -0.033218175 0.011347979
-0.037478682 -0.033195402 0.012041867
-0.036487699 -0.033268195 0.012361854
-0.035267893 -0.033130445 0.012441188
-0.034498852 -0.033420764 0.012664169
-0.033064622 -0.033064622 0.012506753
-0.032231387 -0.033305768 0.012279838
-0.031259403 -0.033415224 0.011668801
-0.030334542 -0.033584673 0.011268348
-0.029082542 -0.033391066 0.011024654
-0.028137764 -0.033548873 0.010786891
-0.026953632 -0.033422504 0.010362238
-0.025939124 -0.033504702 0.0099254251
-0.024567395 -0.033112578 0.0094381273
-0.023551933 -0.033186819 0.0089271367
-0.022869414 -0.033759613 0.0085927844
-0.021756444 -0.03372249 0.0088720322
-0.020511897 -0.033466782 0.0089119077
-0.019652095 -0.033845276 0.009488523
-0.018487982 -0.033713382 0.010225892
-0.017098024 -0.033127423 0.011116624
-0.016096549 -0.033266202 0.012864769
-0.014862336 -0.03290946 0.014979571
-0.013834283 -0.032989446 0.015397787
-0.012892872 -0.033306587 0.016372472
-0.011614757 -0.032732498 0.017814547
-0.010553481 -0.032715794 0.018079996
-0.0096502118 -0.033239622 0.018679231
-0.0084928395 -0.032909755 0.018761694
-0.0074158381 -0.032841571 0.018754005
-0.0063679959 -0.032901313 0.018382847
-0.0052974215 -0.032844014 0.018005997
-0.0042254115 -0.032746937 0.017786801
-0.0031935659 -0.033000182 0.016673476
-0.002129077 -0.033000693 0.0147973
-0.0010802938 -0.033489108 0.010204285
0 -0.033988632 0.0082470179
0.0010993829 -0.03408087 0.0071524978
0.0022253725 -0.034493275 0.0064400733
0.0032887654 -0.033983909 0.005805105
0.0043734964 -0.033894598 0.0052600801
0.0065160715 -0.033666372 0.0052267909
0.0076136901 -0.03371777 0.0066488981
0.008606622 -0.033350661 0.0072264075
0.0098055601 -0.033774711 0.0082120299
0.011017798 -0.034155175 0.009441793
0.011963032 -0.033714 0.0099912286
0.01295777 -0.03347424 0.010570854
0.014042815 -0.033486713 0.011300087
0.014934636 -0.033069551 0.01202482
0.015821349 -0.032697454 0.012046486
0.017055258 -0.033044565 0.011949003
0.018362012 -0.033483669 0.01218608
0.0192826 -0.033208925 0.011949003
0.020228067 -0.033003692 0.011905491
0.02146621 -0.033272628 0.011462629
0.022647578 -0.033432137 0.010781139
0.023764271 -0.03348602 0.010299951
0.024820063 -0.033453129 0.010421097
0.026076026 -0.033681538 0.010331929
0.026967281 -0.033439431 0.010247439
0.02782861 -0.033180267 0.010094732
0.029002294 -0.033298932 0.0098522604
0.029811533 -0.033005629 0.0095275342
0.031000916 -0.033138908 0.0093252063
0.032289587 -0.033365909 0.0089224577
0.033184879 -0.033184879 0.0082504451
0.034640417 -0.033557903 0.0077019334
0.03600768 -0.033825397 0.0073848367
0.036337346 -0.033131111 0.0057816803
-0.044574417 -0.032615427 0.0058906078
-0.042421088 -0.031815816 0.0074456334
-0.041840311 -0.032184854 0.0084624588
-0.040830053 -0.032234251 0.0091829002
-0.039289828 -0.031856619 0.010474622
-0.038563576 -0.032136314 0.010764629
-0.037564173 -0.032197867 0.011456162
-0.036335945 -0.032061126 0.011822283
-0.035434518 -0.0322132 0.011756063
-0.03432497 -0.032179657 0.012018949
-0.033504978 -0.032424171 0.011873424
-0.032419369 -0.032419369 0.011846721
-0.031216053 -0.032292467 0.011037856
-0.030234965 -0.032394603 0.01069653
-0.02926494 -0.032516599 0.01050958
-0.028117834 -0.032443654 0.010125339
-0.026935963 -0.032323156 0.0098436177
-0.026044536 -0.03255567 0.0093903244
-0.02464883 -0.032150645 0.0089409649
-0.023529671 -0.032085918 0.0087977052
-0.022811253 -0.032587502 0.0083637834
-0.02178606 -0.032679092 0.0083952546
-0.02072696 -0.032726776 0.0083727837
-0.019718135 -0.032863561 0.0090537667
-0.018430548 -0.032524496 0.0097924471
-0.017257769 -0.032358315 0.010650903
-0.016023036 -0.032046072 0.012202471
-0.014918745 -0.031968743 0.014252305
-0.013840061 -0.031938601 0.015145957
-0.012663386 -0.031658467 0.015966535
-0.011666433 -0.031817544 0.016758144
-0.010613226 -0.03183968 0.017938584
-0.0095541077 -0.031847026 0.017910451
-0.0084934765 -0.031850535 0.01826331
-0.0074176686 -0.031790007 0.018205613
-0.0063184961 -0.031592481 0.017906487
-0.0053166654 -0.031899996 0.01781252
-0.0042463988 -0.031847991 0.017337799
-0.0031724642 -0.031724643 0.016557515
-0.0021368985 -0.032053478 0.015045851
-0.0010732629 -0.032197885 0.010599077
0 -0.032993309 0.0076264739
0.0011036651 -0.033109952 0.0057435632
0.0022133901 -0.033200849 0.0052310526
0.0077049276 -0.033021118 0.0058686733
0.0087060072 -0.032647528 0.0067530274
0.0097308233 -0.032436077 0.0076750517
0.010838134 -0.032514405 0.0085476041
0.011784107 -0.032138474 0.0094366968
0.013022217 -0.032555543 0.0097633302
0.014077866 -0.032487381 0.010240108
0.015031897 -0.032211207 0.010642469
0.016139699 -0.032279398 0.01102528
0.017194582 -0.032239839 0.011036664
0.018382007 -0.032438837 0.011360615
0.019453537 -0.032422561 0.011430085
0.020293055 -0.032041665 0.01145649
0.021557719 -0.032336578 0.011249065
0.022844408 -0.032634865 0.010351717
0.023640534 -0.032237094 0.0098681152
0.025063505 -0.032691527 0.0098207295
0.025996463 -0.032495581 0.0096028745
0.02701789 -0.032421466 0.0097230673
0.028277174 -0.032627508 0.009524852
0.02887509 -0.032083433 0.0090870261
0.029849427 -0.031981528 0.0089442432
0.03132334 -0.03240345 0.0085381866
0.032175615 -0.032175615 0.0082055032
0.033546325 -0.032464184 0.0077871382
0.034815684 -0.032639705 0.0073603392
0.035714488 -0.032467719 0.0063045323
-0.043276008 -0.031375106 0.0057147443
-0.042265754 -0.031428382 0.0076623261
-0.040441759 -0.030863447 0.008513391
-0.03981233 -0.031204257 0.00946486
-0.038498629 -0.031012787 0.0100815
-0.037490435 -0.031063505 0.010829359
