ply
format ascii 1.0
comment PCL generated
element vertex 1299
property float x
property float y
property float z
element camera 0
property float view_px
property float view_py
property float view_pz
property float x_axisx
property float x_axisy
property float x_axisz
property float y_axisx
property float y_axisy
property float y_axisz
property float z_axisx
property float z_axisy
property float z_axisz
property float focal
property float scalex
property float scaley
property float centerx
property float centery
property int viewportx
property int viewporty
property float k1
property float k2
end_header
-0.039066229 0.05807142 0.011588126
-0.037793554 0.057740152 0.011088401
-0.036909655 0.058000885 0.010561049
-0.035786901 0.057890575 0.010376304
-0.03522224 0.058703735 0.0095733404
-0.034475766 0.05925522 0.0092839897
-0.032921225 0.058408625 0.0090111792
-0.032036867 0.058734257 0.0084041357
-0.031297799 0.059357893 0.007591635
-0.029638311 0.05821811 0.007370621
-0.029276228 0.059636761 0.0071404278
-0.028201189 0.059656359 0.0061967075
-0.027015239 0.059433527 0.0062251091
-0.025925489 0.05941258 0.0065661371
-0.024690701 0.059042979 0.0060118437
-0.023784988 0.059462469 0.005687952
-0.022651097 0.059324302 0.0055725574
-0.021631889 0.0594877 0.0054870546
-0.020284476 0.058718219 0.0056024492
-0.019424349 0.059352178 0.0055067539
-0.018501086 0.059856456 0.0054778755
-0.017586453 0.06045343 0.0054778755
-0.016434535 0.060259961 0.0057429075
-0.015197424 0.059704166 0.0054896772
-0.0053764363 0.059140805 0.0051730275
-0.0032156906 0.058954332 0.0050988197
-0.0021474513 0.059054907 0.0054473877
-0.0010838839 0.059613615 0.0057226419
0 0.058859613 0.0066157579
0.0010822528 0.05952391 0.0069880486
0.0021601366 0.059403755 0.0071339309
0.0032256576 0.059137058 0.0069640577
0.004334128 0.059594262 0.0070129037
0.0053888191 0.059277013 0.007224977
0.0064047561 0.058710266 0.0074810982
0.0076566753 0.060159594 0.0075414479
0.0086297765 0.059329715 0.0071004033
0.009613418 0.05874867 0.0070271492
0.010808374 0.059446059 0.0070576668
0.011780839 0.058904201 0.0071454346
0.012757451 0.058471654 0.0076418519
0.014103642 0.059669256 0.0084447861
0.015069799 0.059202787 0.0086193681
0.015904827 0.058317699 0.0088738799
0.016981889 0.058375243 0.0091485083
0.018000392 0.058236562 0.0093360245
0.019238601 0.058784615 0.0097471774
0.020117091 0.058233686 0.00987643
0.021262649 0.058472291 0.010305911
0.022602959 0.059198223 0.010525376
0.023540821 0.05885205 0.010936111
0.024370277 0.058276746 0.01107496
0.025692487 0.058878619 0.011292756
0.026507281 0.058316018 0.011773258
0.027375199 0.057909075 0.01252377
0.028685495 0.058433417 0.01284954
0.029906599 0.058745109 0.013868809
0.030530732 0.057903111 0.014192194
0.031736866 0.058184255 0.014851719
0.032790527 0.058176741 0.015667558
0.03370304 0.057927102 0.01564607
0.034657985 0.057763308 0.015965194
0.035322323 0.057139054 0.016204476
0.037004437 0.058149833 0.016159862
0.037778392 0.057716992 0.01609078
0.03877243 0.057634693 0.015927225
0.040540289 0.058676735 0.015417516
0.04081887 0.057565078 0.014898241
0.041949239 0.057680208 0.01455459
0.043588623 0.05847254 0.013630807
0.045084644 0.059039414 0.012866795
0.045397144 0.058066115 0.011970639
0.047304664 0.059130829 0.011540353
0.047234759 0.057731371 0.011155933
0.048928201 0.058501109 0.011093974
0.050186474 0.058728851 0.011139184
0.050614741 0.057996061 0.010694653
0.052526765 0.058958616 0.01021868
0.05357372 0.05893109 0.009932518
0.053613774 0.057818778 0.0094162524
0.055763368 0.058980487 0.0089332163
0.056795526 0.058938753 0.0079935491
0.057292372 0.058353338 0.0065657794
0.059756324 0.059756324 0.0050225854
-0.058020454 0.061304633 0.0051665008
-0.056675911 0.061035596 0.0059770048
-0.055539094 0.060984101 0.0060178638
-0.05415206 0.060650304 0.0063026249
-0.052623712 0.060141388 0.0072869956
-0.051314455 0.059866868 0.0082799494
-0.050352871 0.05999491 0.0090340674
-0.048980765 0.059628755 0.01079452
-0.048066903 0.059816584 0.011054724
-0.04666011 0.059385594 0.011792272
-0.045257933 0.058940563 0.011936486
-0.044509441 0.05934592 0.01196155
-0.043349791 0.05920947 0.011984438
-0.042430267 0.059402376 0.012171775
-0.041656051 0.059813816 0.012289375
-0.040021718 0.058979373 0.011601329
-0.039166521 0.059279058 0.011390358
-0.038421735 0.059767146 0.011068493
-0.036987726 0.059180364 0.010941714
-0.036294471 0.059779126 0.010743827
-0.035583731 0.060384512 0.010355711
-0.033878505 0.05928738 0.010084778
-0.033053812 0.059710111 0.0097168386
-0.032007959 0.059748188 0.0089226961
-0.030913407 0.059694853 0.008719027
-0.030375516 0.060751032 0.0087453127
-0.028809177 0.059752364 0.0081833899
-0.027756058 0.059782278 0.0078894198
-0.027188404 0.060902022 0.0076999068
-0.025958654 0.060570195 0.0079633594
-0.024798805 0.060379699 0.0080769956
-0.023918858 0.060884364 0.00762707
-0.022715595 0.060574919 0.0070289671
-0.021376058 0.059852965 0.0069228411
-0.020416265 0.060174253 0.0071726441
-0.019296134 0.06003242 0.007245481
-0.018336849 0.060403738 0.0073016882
-0.017383531 0.060842358 0.0072242022
-0.016142916 0.060266882 0.0074226856
-0.015232815 0.060931262 0.0068439543
-0.014058048 0.060557745 0.0064395964
-0.012825547 0.059852552 0.0065574646
-0.011938853 0.060779616 0.0063670576
-0.010798662 0.060472507 0.0065848827
-0.0097041475 0.06038136 0.0066952109
-0.0086920457 0.060844321 0.0066234469
-0.0074406369 0.059525095 0.0071049035
-0.0063909842 0.059649188 0.0071743429
-0.0053785327 0.060239568 0.0078867972
-0.0042720279 0.059808392 0.0078574717
-0.0031888727 0.059525624 0.0078867972
-0.0021527591 0.060277257 0.0081031621
-0.0010648556 0.059631918 0.0081611574
0 0.060376063 0.0082493722
0.0010835754 0.060680225 0.0083020627
0.0021286048 0.059600931 0.0087552369
0.0032365164 0.060414974 0.0082660317
0.0042993212 0.060190495 0.0077826977
0.0053320383 0.059718832 0.0080196261
0.0064475001 0.060176671 0.0082953274
0.0075843353 0.060674682 0.0084545016
0.0086442297 0.060509607 0.0083287954
0.0096878475 0.060279939 0.0082775056
0.010653778 0.059661157 0.0085655451
0.011720395 0.059667464 0.0083182156
0.012893633 0.060170289 0.0085771382
0.013694768 0.058992848 0.009231627
0.014845003 0.059380013 0.0096083283
0.016173691 0.060381778 0.010089189
0.016811997 0.058841988 0.010255069
0.018091716 0.059596237 0.010362774
0.019283103 0.059991878 0.010391414
0.020036913 0.059056167 0.010789424
0.021616103 0.060525093 0.011432976
0.02254083 0.060108881 0.011571825
0.023384262 0.059523575 0.011617392
0.024578329 0.059842885 0.011649847
0.025528977 0.059567612 0.011788607
0.026227076 0.058748648 0.012298942
0.027702784 0.059667535 0.01263538
0.02858305 0.059283361 0.013399661
0.029763214 0.059526429 0.014487416
0.031037426 0.059934337 0.015497029
0.031516556 0.058830902 0.015929312
0.03236321 0.058462568 0.016337603
0.033256296 0.058198519 0.016385436
0.034195416 0.058028582 0.016711324
0.035134438 0.057868488 0.016882062
0.036200218 0.057920348 0.016997963
0.037378043 0.058143623 0.016972154
0.038863923 0.058821071 0.016635984
0.039777268 0.058619127 0.015976697
0.040615231 0.058319308 0.015710741
0.042235568 0.059129797 0.014770567
0.042958144 0.058674533 0.014448732
0.045271277 0.060361702 0.013531744
0.0463553 0.060369689 0.012631923
0.046953302 0.059758749 0.011859328
0.047807634 0.059493944 0.011471957
0.04972595 0.060535938 0.011165828
0.050271116 0.059897497 0.010807574
0.051579263 0.060175806 0.010545194
0.052791141 0.060332738 0.01013568
0.052701775 0.059025984 0.0099461973
0.055477988 0.060917005 0.0092693269
0.055806987 0.060099833 0.0086302757
0.056306876 0.05949406 0.0072046816
0.058210533 0.060366474 0.0060755014
-0.056899451 0.06237055 0.0057357252
-0.055480462 0.062007573 0.0060478151
-0.053699259 0.061217152 0.0068226755
-0.052226964 0.060753815 0.00791803
-0.051322836 0.060945868 0.008721441
-0.049735397 0.060317393 0.01000303
-0.049659297 0.061534341 0.010948986
-0.048082862 0.060904957 0.011380941
-0.046514761 0.060257759 0.01190418
-0.045596063 0.060441293 0.012064636
-0.044335328 0.060169369 0.012322932
-0.043450668 0.060407024 0.012567639
-0.042593535 0.060695786 0.012711912
-0.04152225 0.060686365 0.012454659
-0.040129028 0.060193542 0.012381822
-0.039126385 0.060275778 0.012289375
-0.038038395 0.060227457 0.011825234
-0.037160251 0.060518123 0.011383921
-0.036525376 0.061233718 0.011157244
-0.035190284 0.060783222 0.011009008
-0.033918839 0.060417932 0.010700285
-0.032908097 0.060508434 0.010439128
-0.031904835 0.060619187 0.010296285
-0.03122754 0.061378263 0.009619832
-0.0299317 0.06093239 0.0094448924
-0.028924469 0.061062764 0.0092050135
-0.028409023 0.062281318 0.0088727474
-0.026945557 0.061435871 0.0091544092
-0.025679255 0.060988229 0.009227246
-0.024944112 0.061818015 0.0091380775
-0.023539299 0.060988184 0.0088379383
-0.022446962 0.060927466 0.0088733137
-0.021400031 0.060990088 0.0088379383
-0.020256838 0.060770512 0.0089458823
-0.019151609 0.060646761 0.0090266466
-0.018295653 0.061344251 0.0091165304
-0.017050356 0.060741886 0.0090436935
-0.016286638 0.06188922 0.0090676248
-0.015052713 0.061286047 0.0078479648
-0.013850041 0.060727101 0.0072712302
-0.012984751 0.061677568 0.0074144602
-0.011829183 0.061296672 0.0074125826
-0.010646472 0.06068489 0.0075875223
-0.0097013339 0.061441783 0.0077252984
-0.0085055623 0.060602132 0.0081893802
-0.0074663688 0.060797572 0.0087420642
-0.0064836573 0.061594743 0.009090364
-0.0053691254 0.061208032 0.009539634
-0.0042686178 0.060827803 0.0095305443
-0.0032125786 0.061038993 0.009981364
-0.0021207447 0.060441226 0.010341674
-0.0010614687 0.060503718 0.01022774
0 0.060748201 0.010637432
0.0010536816 0.060059849 0.010771453
0.0021547908 0.061411534 0.0098369122
0.0031893987 0.060598578 0.0089492798
0.0042208103 0.060146544 0.0089131892
0.0053664092 0.061177064 0.0095030367
0.0064641009 0.061408959 0.0094746053
0.0075436858 0.061427154 0.009546876
0.0086644143 0.06173395 0.0090149045
0.0096980743 0.061421137 0.0087692142
0.010705612 0.061021987 0.0090692937
0.011847105 0.061389543 0.0092495382
0.012737843 0.060504753 0.010063916
0.013793567 0.060479484 0.010392487
0.01500626 0.061096914 0.010964483
0.015845064 0.060211241 0.011313885
0.017238548 0.061412327 0.011521161
0.018178768 0.060952339 0.011617392
0.019103846 0.060495514 0.011908203
0.020184658 0.060553975 0.011913955
0.021339739 0.060818255 0.012221038
0.022189971 0.060229916 0.012476027
0.023417298 0.060672093 0.012446105
0.024539351 0.06081491 0.012172103
0.025267079 0.060009312 0.012422353
0.026612673 0.060676891 0.012594998
0.027275043 0.059795287 0.01314652
0.02839919 0.059953842 0.013913065
0.029774882 0.060613152 0.015497029
0.030207809 0.059373964 0.015774935
0.031850655 0.060516242 0.016000658
0.032956608 0.060597632 0.016738862
0.033527929 0.059721623 0.016702235
0.034773339 0.060063042 0.016948491
0.035854548 0.060109094 0.017014593
0.036309868 0.059133209 0.017043144
0.037711542 0.05970994 0.017046392
0.039052986 0.060162704 0.016854376
0.039560359 0.059340533 0.016246289
0.041093409 0.060059596 0.015944451
0.042199459 0.060134232 0.015144616
0.042731658 0.059407424 0.014709294
0.044574894 0.060494497 0.01384896
0.04534569 0.060109403 0.012993246
0.046855383 0.06069902 0.012012035
0.047850683 0.060610861 0.011520714
0.04937236 0.061178789 0.011163175
0.050651308 0.061428178 0.010466427
0.051414911 0.061055206 0.0098073483
0.052203473 0.06072649 0.0094550252
0.054208487 0.061797671 0.0090262592
0.054041833 0.060399693 0.0085344911
0.055358343 0.060681261 0.0069200397
0.057128351 0.061439924 0.0060177445
-0.056724135 0.063269228 0.0054133832
-0.05465515 0.062156837 0.0063223541
-0.053174589 0.061682522 0.0070626736
-0.053016078 0.06275373 0.0081584752
-0.050672229 0.061228946 0.0093781054
-0.050163243 0.061903577 0.010658681
-0.049134556 0.061952267 0.011282951
-0.048379209 0.062355421 0.011375695
-0.047522727 0.062643602 0.011994332
-0.045830477 0.061817851 0.012112081
-0.044410639 0.061328977 0.012420833
-0.043757983 0.061901536 0.012728453
-0.041925326 0.060791727 0.012626261
-0.041353159 0.06149957 0.012694746
-0.040489439 0.061799675 0.012467831
-0.038903724 0.060984213 0.011963159
-0.03808786 0.061363779 0.011893362
-0.037279833 0.061778013 0.01173532
-0.036111884 0.06160263 0.011825234
-0.034931868 0.061395407 0.011737049
-0.034116801 0.061836701 0.011761665
-0.03288725 0.061530985 0.011374652
-0.032168079 0.06219162 0.011039674
-0.03122882 0.06245764 0.010667026
-0.029648146 0.061414018 0.010700703
-0.029166313 0.062653556 0.010436654
-0.027908992 0.062258523 0.010154337
-0.026528055 0.061545085 0.0097586513
-0.02570639 0.062123775 0.010023087
-0.024370002 0.061454788 0.010038793
-0.023576109 0.062155198 0.010038793
-0.022699779 0.062694632 0.010085702
-0.021156253 0.06135314 0.010085702
-0.02015581 0.061528258 0.010095477
-0.019219752 0.061930317 0.010121882
-0.018098583 0.06174811 0.010358989
-0.017259503 0.062565699 0.010247737
-0.016129851 0.062368762 0.010622442
-0.014827898 0.061429862 0.010481238
-0.0140012 0.062466897 0.010110348
-0.012937479 0.062531151 0.010205865
-0.011589463 0.061108079 0.010097265
-0.010750107 0.06235062 0.0099030137
-0.0096376501 0.062109306 0.010023296
-0.0085083619 0.061685625 0.0098825097
-0.0075156898 0.062272858 0.0099436045
-0.0063966606 0.061834391 0.010268927
-0.0053084046 0.061577495 0.010767013
-0.0042784591 0.062037662 0.011004567
-0.0031837504 0.06155251 0.011127919
-0.0021219291 0.061535947 0.011251003
-0.0010649571 0.061767515 0.011353284
0 0.061302207 0.011962831
0.0010739485 0.062289011 0.012207001
0.0021487218 0.062312935 0.012058467
0.0031812158 0.061503507 0.011796564
0.0042910101 0.06221965 0.011452019
0.0053192656 0.061703485 0.011174381
0.0063633537 0.061512426 0.010542423
0.0075351177 0.062433835 0.01082173
0.0085667633 0.062109038 0.010832131
0.0095806392 0.0617419 0.010421962
0.010698225 0.062049713 0.010641843
0.011767292 0.062045727 0.010788858
0.012786201 0.061799973 0.011157691
0.013968269 0.062319975 0.011326611
0.014773862 0.061205998 0.011884421
0.01587477 0.061382446 0.012192607
0.016888071 0.06121926 0.012503594
0.017821847 0.06080395 0.012538016
0.019215412 0.061916333 0.012743771
0.02009511 0.06134297 0.012785614
0.021179156 0.061419558 0.012797117
0.022241659 0.061429344 0.013098061
0.023337498 0.061526135 0.01312992
0.024419885 0.06158058 0.013047278
0.02564856 0.061984021 0.013387799
0.026288642 0.060989648 0.013690948
0.027195022 0.06066582 0.014308572
0.028650973 0.061546534 0.015745401
0.029710513 0.061543208 0.016151488
0.03050269 0.06100538 0.01619488
0.031144436 0.060212579 0.016706109
0.032575764 0.060948204 0.017023116
0.033539303 0.060789984 0.016963661
0.034542851 0.060711686 0.017165869
0.035214353 0.060071547 0.017133772
0.036381345 0.060289089 0.017228305
0.037823871 0.060938463 0.017183691
0.038405672 0.060203481 0.016953498
0.040229175 0.061402429 0.016186744
0.040772203 0.060635589 0.015907943
0.042098276 0.061042503 0.015171289
0.043371528 0.061354846 0.014665961
0.043808147 0.060496964 0.013789952
0.045084782 0.060812034 0.012732148
0.047100399 0.062086891 0.01192984
0.047761176 0.06155885 0.011412948
0.048971832 0.061747093 0.010581434
0.051267587 0.063266389 0.0097477138
0.051540878 0.062278565 0.0091182888
0.052989658 0.062722459 0.0087454319
0.053848326 0.062464058 0.0080294311
0.053842958 0.061233167 0.0063658357
0.056347549 0.062849194 0.0054061115
-0.055889033 0.063412562 0.0054304898
-0.054489389 0.06303674 0.0067826807
-0.053766485 0.06344445 0.0079725683
-0.051823635 0.06239989 0.0085908771
-0.050861366 0.062517099 0.0099140406
-0.050159611 0.062966324 0.010771006
-0.04878635 0.062573791 0.011470288
-0.048596822 0.06371583 0.011849582
-0.046656281 0.062561832 0.012176186
-0.045437671 0.062344711 0.012395024
-0.045095474 0.063348405 0.012696654
-0.04376955 0.062985443 0.013041317
-0.041951288 0.061878156 0.013548523
-0.041790444 0.063221447 0.013011992
-0.039966144 0.062052697 0.012910664
-0.038829904 0.061917953 0.012867272
-0.03832525 0.062810831 0.012682766
-0.036879558 0.062168401 0.012114614
-0.036041826 0.062543169 0.012332529
-0.035217058 0.062963828 0.012183309
-0.033823714 0.062362473 0.012388229
-0.033088107 0.06297414 0.012466848
-0.032084439 0.063099399 0.012053192
-0.031133944 0.063341476 0.011819422
-0.029977953 0.063167833 0.011387289
-0.029019412 0.063412786 0.010987759
-0.027554708 0.062527992 0.011088401
-0.026757922 0.063148692 0.011088401
-0.025411071 0.062468886 0.011683822
-0.024513677 0.062882908 0.01171416
-0.0236207 0.063346423 0.011419863
-0.022267878 0.06256213 0.011492044
-0.021227024 0.062619723 0.011683315
-0.020181814 0.062669843 0.011846423
-0.019018719 0.062339138 0.011496156
-0.018144369 0.062971637 0.011778474
-0.017078776 0.062977985 0.011687428
-0.015935104 0.062678076 0.011499941
-0.014993088 0.063185155 0.011232376
-0.013921734 0.063183255 0.011018783
-0.012734598 0.062611774 0.010864973
-0.011750482 0.063025311 0.010925293
-0.010674499 0.062979549 0.010864973
-0.0095788399 0.062794626 0.010742784
-0.0085757608 0.063246235 0.010568827
-0.0074589597 0.062868372 0.010811657
-0.0063462397 0.062404688 0.010934085
-0.005338172 0.062990427 0.011349231
-0.0042120242 0.062127355 0.011792064
-0.0031889447 0.06271591 0.011841357
-0.0021326309 0.062912613 0.011902869
-0.0010523908 0.062091056 0.012110889
0 0.062674932 0.012464911
0.001062706 0.062699653 0.012776405
0.0021122422 0.062311143 0.012813777
0.0031981738 0.062897421 0.012813777
0.0042515942 0.062711015 0.012526363
0.005287203 0.062388998 0.012563884
0.0064359903 0.063287243 0.012071341
0.0074868249 0.063103236 0.011970252
0.0086206319 0.06357716 0.012060881
0.0096879378 0.063509814 0.011639327
0.01062927 0.062712699 0.011735022
0.01171002 0.06280829 0.011939496
0.01286122 0.063234337 0.012286127
0.013768894 0.062489595 0.012563109
0.014945824 0.062985972 0.012889296
0.015922446 0.062628284 0.012969643
0.016651541 0.061402556 0.013251096
0.018035764 0.062594712 0.01324749
0.019250853 0.063100025 0.013515234
0.019852089 0.061645962 0.013615072
0.021128215 0.062328238 0.013615072
0.022360228 0.062821589 0.01406458
0.023485534 0.062983938 0.01395759
0.024419485 0.062641285 0.013817161
0.02517261 0.061882671 0.0140706
0.026157347 0.061731342 0.014567375
0.027258892 0.061856717 0.015307128
0.028455503 0.062180541 0.016117036
0.029361242 0.061868332 0.016503811
0.030497063 0.062045749 0.016820282
0.031227194 0.061413482 0.017045885
0.032226689 0.06133467 0.01735425
0.033694789 0.062124766 0.017022759
0.034693263 0.062027354 0.017470628
0.035622854 0.06181613 0.017405719
0.036494631 0.061519522 0.017133772
0.037442721 0.061364461 0.017015129
0.039143298 0.06241769 0.016768813
0.040123615 0.062297191 0.016122133
0.040842049 0.061786693 0.015798122
0.042145785 0.062165037 0.015144616
0.043011677 0.061894849 0.014548481
0.044178192 0.062059842 0.01340434
0.045778144 0.062811874 0.012558401
0.046743356 0.062678598 0.011716485
0.047701124 0.062541477 0.011030942
0.049039997 0.062899128 0.01024881
0.050328583 0.063178435 0.0088568032
0.052209888 0.064174652 0.0085138083
0.053167567 0.064018093 0.0075263679
0.053158835 0.062727422 0.0063556135
0.055051006 0.06368646 0.0053640008
-0.055828601 0.064417616 0.0060478151
-0.05467125 0.064319119 0.007117331
-0.053376183 0.064051419 0.0078905523
-0.051828522 0.063463502 0.0084534287
-0.051291507 0.064114384 0.0096647441
-0.049634866 0.063363664 0.010673255
-0.048672367 0.063485697 0.011260331
-0.04816673 0.064222306 0.011685967
-0.046631593 0.063588537 0.012100637
-0.045797773 0.063903868 0.012216181
-0.044734128 0.063905895 0.012438357
-0.043229863 0.063263215 0.012747943
-0.042915516 0.064373277 0.013225853
-0.041487455 0.063826859 0.012910932
-0.040376071 0.06375169 0.012902647
-0.039191391 0.063553602 0.012867272
-0.03787896 0.063131608 0.012926966
-0.03709333 0.063588567 0.012426138
-0.036361821 0.064167924 0.012583345
-0.035103183 0.063823976 0.012627125
-0.034251999 0.0642225 0.01278469
-0.032828245 0.063538544 0.012897432
-0.031746298 0.063492596 0.012999982
-0.031082561 0.064308748 0.012958497
-0.029889619 0.064049184 0.012929529
-0.028443571 0.063207939 0.012694299
-0.027748121 0.064034127 0.012552708
-0.02662033 0.063888788 0.012497187
-0.025375856 0.063439645 0.012951225
-0.024622487 0.064232573 0.012717724
-0.023300838 0.063547738 0.012728274
-0.022158628 0.06331037 0.012728274
-0.021191616 0.063574851 0.012584299
-0.020049743 0.063314974 0.012903988
-0.018985791 0.063285969 0.012795419
-0.018108079 0.063910872 0.01275444
-0.016981952 0.063682318 0.012610465
-0.015941067 0.063764267 0.012598157
-0.014801181 0.063433632 0.012384087
-0.013825788 0.063811332 0.012000173
-0.012894879 0.064474396 0.011527389
-0.011744221 0.064059384 0.011682361
-0.010543422 0.063260533 0.011682361
-0.0095927194 0.063951463 0.01151818
-0.0084703919 0.063527942 0.011358619
-0.0074300808 0.063686408 0.011609942
-0.0064379908 0.064379908 0.011631072
-0.0052677942 0.063213535 0.012019426
-0.0042377468 0.063566208 0.012053668
-0.0031863374 0.063726753 0.012180001
-0.0021216043 0.063648127 0.012377203
-0.0010497165 0.062982991 0.012798965
0 0.063193031 0.013463318
0.0010550231 0.063301384 0.013716042
0.0021264283 0.063792847 0.013947487
0.0031872422 0.063744843 0.013947487
0.0042589717 0.063884579 0.013908625
0.0052901036 0.063481249 0.013571262
0.0063547846 0.06354785 0.013078004
0.007422484 0.06362129 0.012723744
0.0085200705 0.06390053 0.012925237
0.0095449733 0.063633159 0.012787461
0.010635654 0.063813932 0.01301825
0.011729633 0.063979819 0.012968391
0.01271478 0.063573897 0.012990832
0.013769375 0.063550964 0.013290256
0.015063575 0.064558178 0.013592601
0.015959146 0.063836582 0.013771176
0.017076429 0.064036608 0.014359862
0.017949328 0.063350566 0.014356256
0.018957598 0.063191995 0.014779299
0.020387357 0.064381123 0.014824122
0.021227751 0.063683257 0.014779299
0.022009404 0.06288401 0.015088081
0.023547225 0.064219706 0.015006512
0.024191849 0.063109167 0.014800578
0.025320956 0.06330239 0.015307128
0.026600769 0.063841842 0.015622437
0.027183304 0.0627307 0.016233385
0.02805369 0.062341534 0.01665926
0.02973971 0.063727945 0.016975969
0.030318579 0.062728092 0.017046869
0.031365637 0.062731273 0.01744476
0.032516982 0.062936097 0.017546266
0.033365209 0.062559761 0.017546266
0.034650981 0.063001789 0.017784238
0.035710096 0.063017815 0.017591685
0.036475144 0.062528819 0.017296493
0.037323255 0.062205426 0.017165869
0.039020307 0.063276172 0.016809911
0.03950458 0.06237565 0.016322792
0.041192506 0.063373089 0.015922636
0.042140208 0.063210316 0.015480816
0.043136396 0.06312643 0.014676094
0.04414466 0.0630638 0.012862355
0.045550246 0.063558482 0.012214363
0.046644781 0.063606523 0.011412948
0.048244942 0.064326592 0.01082021
0.049165703 0.064129174 0.009667486
0.050152868 0.06402494 0.0084912479
0.052076187 0.065095231 0.0075263679
0.052861042 0.064727813 0.0063772202
0.054534193 0.065441027 0.005374223
-0.056535792 0.066320837 0.0064573288
-0.054953322 0.065728478 0.0073533952
-0.053539213 0.065317832 0.0080954731
-0.052011967 0.064749591 0.0085885227
-0.05119811 0.065064266 0.0097581744
-0.050486349 0.065524831 0.010501117
-0.049032051 0.065020762 0.010934442
-0.04795504 0.06500572 0.010946542
-0.046915147 0.065041453 0.011893868
-0.045546487 0.064612456 0.011586636
-0.044763103 0.065013073 0.011870861
-0.044023007 0.065497637 0.011777461
-0.042703051 0.065122157 0.012028366
-0.041343562 0.064665571 0.012399077
-0.040457062 0.06494423 0.01233694
-0.039210338 0.064644068 0.012546211
-0.038003407 0.06439466 0.012556076
-0.036999851 0.064485453 0.012260824
-0.035968613 0.064531922 0.012475848
-0.034941599 0.064589016 0.012627125
-0.034233652 0.065257892 0.012960941
-0.032764014 0.064471126 0.013523579
-0.031994317 0.06505511 0.013702124
-0.030647432 0.064465284 0.013146013
-0.029684991 0.064670876 0.013148516
-0.02871242 0.0648688 0.013512731
-0.027518945 0.064563677 0.013169795
-0.02636837 0.064338818 0.013283283
-0.025409834 0.064583331 0.013487071
-0.024293672 0.064431041 0.013222724
-0.023135997 0.064149812 0.013258696
-0.022206085 0.064503387 0.013248086
-0.021198254 0.064654678 0.013260543
-0.020019466 0.064273022 0.013657421
-0.019023228 0.064467609 0.013868451
-0.01796318 0.06445612 0.014044106
-0.016898587 0.064425863 0.013891637
-0.015869223 0.064534843 0.013906538
-0.014666677 0.063904807 0.013451606
-0.013711032 0.064336382 0.013341099
-0.012746236 0.064793363 0.012479454
-0.011560922 0.06411057 0.012444884
-0.010675113 0.065118186 0.01235196
-0.0095566334 0.06477274 0.012263924
-0.0084793167 0.06465479 0.012019426
-0.0074501163 0.064922445 0.012095153
-0.0063716029 0.064777963 0.012059182
-0.0052941763 0.064588949 0.012617856
-0.0042371452 0.064616464 0.012662798
-0.0032074021 0.065217175 0.012927175
-0.0021085234 0.064309962 0.013178915
-0.0010589128 0.064593688 0.014140606
0 0.063442983 0.014671415
0.0010630721 0.064847395 0.015273273
0.0020992407 0.06402684 0.015711278
0.003157493 0.064202353 0.015674174
0.0042549865 0.064888544 0.014981359
0.0052751899 0.064357318 0.014583975
0.0062869806 0.063917637 0.014133364
0.0075053838 0.065404058 0.013854563
0.008490406 0.064739339 0.013772428
0.0095186671 0.064515412 0.013548762
0.01077635 0.065735735 0.013603389
0.011513862 0.063849598 0.013740361
0.012746236 0.064793363 0.013783127
0.013870026 0.065082431 0.014390856
0.01478644 0.064426631 0.01477322
0.01567767 0.063755855 0.014999986
0.016764633 0.063915163 0.015720874
0.017696984 0.063500941 0.015738904
0.01875983 0.063574985 0.016038269
0.019946247 0.064037949 0.016043246
0.021082658 0.064302109 0.016082853
0.022336293 0.064881608 0.016225636
0.023472339 0.065082394 0.015763044
0.024212006 0.064214453 0.016158462
0.025531143 0.064891659 0.016225636
0.026308205 0.064192019 0.016412348
0.027692553 0.064970985 0.016725361
0.028113196 0.063514993 0.017594099
0.029061994 0.063313633 0.017718703
0.030453892 0.064058185 0.017201096
0.031478543 0.064006373 0.017451733
0.032374609 0.063704878 0.017718345
0.033383723 0.063637719 0.017590702
0.034053385 0.062947169 0.017734438
0.035425369 0.063557275 0.017451733
0.037048195 0.064569712 0.017228305
0.037169073 0.062980928 0.017046392
0.03871949 0.063834831 0.016436189
0.040137783 0.064431705 0.015562862
0.041060418 0.064222708 0.015146792
0.042038403 0.064108565 0.014825225
0.043523863 0.064755015 0.013794184
0.044360194 0.064427897 0.012635291
0.045255233 0.064199284 0.011776179
0.047104992 0.065304652 0.010981262
0.048006263 0.065075152 0.010296494
0.049172562 0.065207087 0.0089021921
0.050855007 0.066003308 0.0077476203
0.051137775 0.064987592 0.0063336194
0.054296177 0.067593202 0.00537467
-0.055797018 0.066527218 0.0064962506
-0.054186016 0.065873198 0.0073187947
-0.053534366 0.066382609 0.0078462064
-0.052532051 0.066469133 0.0085967183
-0.051753588 0.06684839 0.0095236003
-0.050504219 0.066622593 0.010088593
-0.048931256 0.065950826 0.01086846
-0.048039664 0.066187978 0.011262208
-0.046768591 0.065901197 0.011835545
-0.045617178 0.065773614 0.011941642
-0.045186989 0.066704609 0.011649013
-0.043628126 0.065974236 0.01174438
-0.042732749 0.066235766 0.011927694
-0.041716486 0.066318519 0.012236387
-0.040400971 0.065917373 0.012196273
-0.039317854 0.065883972 0.012399137
-0.038105927 0.065626882 0.012724966
-0.037194073 0.065886647 0.012471497
-0.035426449 0.064601175 0.012696326
-0.035182249 0.066099986 0.012713283
-0.033922937 0.065725692 0.013274252
-0.033241626 0.066483252 0.013555229
-0.031787679 0.065694533 0.014074206
-0.030351885 0.064890236 0.013598531
-0.029768156 0.065915205 0.013647258
-0.028570199 0.06560564 0.013489038
-0.027305411 0.065112904 0.013493747
-0.026191615 0.064955205 0.013343543
-0.025267515 0.065274417 0.013744414
-0.024371751 0.065697759 0.013686687
-0.023390751 0.065919392 0.013815999
-0.02207014 0.065159462 0.014039993
-0.021065135 0.065301925 0.014115334
-0.020156061 0.065772414 0.014283866
-0.018986845 0.06539914 0.015043586
-0.017973848 0.065551683 0.015153706
-0.016762203 0.064953536 0.015029788
-0.015688952 0.06484767 0.014991403
-0.01472188 0.065196902 0.014564037
-0.013639342 0.065049171 0.014352828
-0.012547756 0.064830072 0.013425201
-0.011675186 0.065805592 0.013227433
-0.010590991 0.06566415 0.013218343
-0.0094283484 0.064950846 0.013316542
-0.0084356498 0.065376289 0.012687624
-0.0074528032 0.06601055 0.012646139
-0.0063659581 0.065781571 0.012992799
-0.0052762222 0.065425158 0.013229966
-0.0042015719 0.065124363 0.013552427
-0.0031875793 0.065876648 0.014344543
-0.0021095397 0.065395735 0.014962673
-0.001042909 0.064660363 0.015276223
0 0.065191053 0.015725851
0.0010560448 0.065474778 0.016260058
0.0020988141 0.065063238 0.016666472
0.0031769143 0.065656237 0.016543031
0.0041936184 0.065001085 0.016381234
0.0052680881 0.065324299 0.015824676
0.0063453522 0.065568641 0.015537649
0.0073650838 0.065233603 0.015013069
0.008475652 0.0656863 0.014421999
0.009641422 0.066418685 0.014665604
0.010586775 0.065638006 0.014621347
0.01156056 0.065159522 0.014708132
0.012754464 0.065898068 0.014926761
0.013647172 0.065086514 0.01481384
0.014704175 0.065118492 0.016226172
0.015851531 0.065519668 0.016726315
0.016559899 0.064169608 0.017098457
0.0179237 0.065368786 0.017240226
0.018650947 0.064242162 0.017299265
0.019849574 0.0647723 0.017193943
0.020929122 0.064880282 0.01735428
0.021857841 0.064532675 0.016969502
0.023000265 0.064818934 0.016536057
0.024142064 0.065078609 0.017131507
0.025446523 0.065736853 0.016888827
0.026516378 0.06576062 0.0168899
0.027846361 0.06640286 0.016824454
0.028268266 0.064912312 0.017657459
0.029155489 0.064558588 0.017657459
0.030547094 0.06530758 0.017011195
0.031364035 0.064819008 0.017296493
0.032528292 0.065056585 0.017543346
0.033532728 0.064969666 0.017445743
0.034932531 0.065630816 0.017649025
0.03598991 0.065628663 0.017542154
0.036605757 0.064844489 0.017380655
0.037494451 0.064573787 0.016931474
0.039015904 0.065378003 0.016396403
0.039926793 0.065143719 0.015296042
0.040888425 0.065002114 0.015478909
0.042512082 0.065893732 0.014676094
0.042888291 0.064855464 0.012967795
0.044288337 0.065378025 0.012315333
0.045743428 0.065955646 0.011538684
0.046821304 0.06597548 0.01102829
0.047436003 0.065356269 0.01019913
0.049460035 0.066663526 0.0088010132
0.050889619 0.06713099 0.0072165132
0.052531946 0.067853771 0.0055413544
-0.05599666 0.067842111 0.0060168505
-0.05503431 0.06798356 0.0068492889
-0.053077873 0.066878118 0.0076767504
-0.052386325 0.067353852 0.0083000064
-0.051757101 0.067931198 0.0089348555
-0.050080281 0.067128889 0.0098777413
-0.049416643 0.067679316 0.010497242
-0.047711775 0.066796482 0.010775685
-0.046706177 0.066874757 0.011350453
-0.046285074 0.067813016 0.011155844
-0.044898186 0.067347281 0.011190742
-0.043331563 0.066582642 0.011270911
-0.042642284 0.067161605 0.011441827
-0.041492619 0.067026541 0.011558682
-0.040770825 0.067593738 0.011636615
-0.039493851 0.067246288 0.011963814
-0.038007282 0.066512749 0.012270421
-0.036980465 0.066564843 0.012120366
-0.035521198 0.06581869 0.012287736
-0.035018358 0.066853233 0.012680203
-0.033852439 0.066646993 0.013415873
-0.03240053 0.065846235 0.013673604
-0.031397194 0.065934107 0.014190644
-0.03056513 0.066400111 0.013897717
-0.029726574 0.066884793 0.013896734
-0.028397087 0.066259868 0.013944209
-0.027529471 0.066706024 0.013842821
-0.026362022 0.066432297 0.013807505
-0.025330069 0.066491432 0.014213085
-0.024334826 0.066656262 0.014451027
-0.023186028 0.066396356 0.014482021
-0.022153962 0.066461883 0.014805704
-0.021200303 0.066780955 0.015043586
-0.01982259 0.065727532 0.015509516
-0.018769495 0.065693237 0.016429931
-0.017874932 0.066242397 0.016439706
-0.016730784 0.06587746 0.016214401
-0.01574618 0.066133961 0.015899539
-0.014693518 0.066120833 0.015636921
-0.013515188 0.065496683 0.01518476
-0.012655683 0.066442341 0.014599979
-0.011498535 0.06585525 0.014293283
-0.010398485 0.065510459 0.014004886
-0.0094762417 0.066333696 0.013843209
-0.0084492974 0.066538215 0.013402522
-0.0074128653 0.066715792 0.013402522
-0.0064054495 0.067257218 0.01352483
-0.0052757165 0.066474028 0.014607728
-0.004227676 0.066585898 0.015003145
-0.0031720896 0.066613883 0.015234888
-0.0020993389 0.066129178 0.015404135
-0.0010507633 0.066198088 0.016344279
0 0.066285573 0.016682386
0.0010364279 0.065294959 0.01719588
0.002109699 0.066455521 0.017488539
0.0031424556 0.065991573 0.017402679
0.0041838284 0.065895297 0.017252445
0.0052967961 0.066739634 0.016753584
0.0063284799 0.066449039 0.016693413
0.0073395125 0.066055611 0.016381919
0.0084666405 0.066674799 0.016244143
0.0095071346 0.066549942 0.015757859
0.010553838 0.066489182 0.015714169
0.011663453 0.066799775 0.016254455
0.0125791 0.066040277 0.016354471
0.013650583 0.066152826 0.0168823
0.014747455 0.066363551 0.017200291
0.015613458 0.065576524 0.017377347
0.016750043 0.065953292 0.017632544
0.017798204 0.065958045 0.018133163
0.018734835 0.065571927 0.01832068
0.019867174 0.065875366 0.018129557
0.020911535 0.065871343 0.018068373
0.021967009 0.065901026 0.017831832
0.023066942 0.066055335 0.017728657
0.024002874 0.065747 0.018101275
0.025392123 0.066654325 0.017713875
0.026600994 0.067034505 0.017543614
0.027502902 0.066641651 0.017533869
0.028466864 0.066422679 0.017875195
0.028962716 0.065166116 0.017380327
0.030350827 0.065934554 0.017156035
0.031330515 0.065794088 0.017514229
0.032415424 0.065876506 0.017265856
0.033627629 0.066204391 0.017224461
0.034661755 0.066172443 0.017493069
0.035988528 0.066684626 0.017193198
0.036892254 0.066406056 0.017227799
0.03790145 0.066327542 0.016686082
0.039025564 0.066448934 0.015961945
0.039918538 0.066180736 0.015371948
0.041333616 0.066769689 0.014805138
0.042469654 0.066889703 0.013970852
0.043508466 0.066854469 0.012432128
0.044659138 0.066988707 0.011568725
0.044783533 0.065613084 0.011152834
0.046835277 0.067059606 0.010365129
0.048029657 0.06724152 0.0090079904
0.04994522 0.068403237 0.0075801015
0.050935153 0.068274781 0.0054823458
-0.056832436 0.069947615 0.0055657625
-0.054848824 0.068829894 0.0064078569
-0.053550627 0.068544798 0.0073610544
-0.052717809 0.068855919 0.0078905523
-0.051315457 0.068420611 0.008688271
-0.050496861 0.068761684 0.0093466043
-0.048905157 0.068041958 0.0092630088
-0.047690842 0.067826971 0.0098682344
-0.047594313 0.069228098 0.010673523
-0.046154082 0.06869445 0.010477096
-0.044465967 0.067757659 0.010606766
-0.043496717 0.067897312 0.010884941
-0.042340729 0.067745171 0.010890573
-0.041299071 0.067772835 0.011098295
-0.040645845 0.068456158 0.011098295
-0.039753791 0.068763316 0.011505038
-0.038333815 0.068149008 0.011747241
-0.037136324 0.067906417 0.011728406
-0.035921656 0.067617238 0.012131244
-0.034943502 0.067769215 0.012482911
-0.033699203 0.067398407 0.013367265
-0.032159153 0.066393092 0.013761669
-0.031327464 0.066831924 0.014427125
-0.030856401 0.068096884 0.014561117
-0.029341754 0.067066863 0.014069915
-0.028559707 0.067697085 0.014221668
-0.02745793 0.067588754 0.014371157
-0.026493084 0.067822292 0.014358401
-0.025477532 0.067940086 0.014786214
-0.024243865 0.067461185 0.014936179
-0.023099044 0.067197226 0.014895111
-0.02205197 0.067206003 0.015341133
-0.020975625 0.067122005 0.015670806
-0.019685807 0.066310085 0.016406506
-0.018971208 0.067453183 0.017106414
-0.017743262 0.066798158 0.017139614
-0.016704105 0.066816419 0.017053753
-0.015686845 0.06693054 0.016805083
-0.014551366 0.066520527 0.016366452
-0.013660169 0.067250066 0.015802205
-0.012625514 0.067336075 0.015419781
-0.011583466 0.067394711 0.015341401
-0.010593094 0.067795798 0.015144944
-0.0095229596 0.067718826 0.014988095
-0.0085409004 0.068327203 0.014401972
-0.0075001777 0.06857305 0.014327347
-0.0063061635 0.067265749 0.014695168
-0.0053182268 0.068073303 0.015248954
-0.0042802258 0.068483613 0.015319794
-0.0031475611 0.06714797 0.015899569
-0.0021088824 0.067484237 0.016253591
-0.0010514404 0.067292184 0.0168145
0 0.066799149 0.017770886
0.0010442153 0.066829778 0.018101126
0.002102982 0.067295425 0.018541306
0.0031331114 0.06683971 0.01837945
0.0042108675 0.067373879 0.018345267
0.0052173832 0.066782512 0.017944276
0.0063209734 0.067423716 0.017478824
0.0073345653 0.067058884 0.017098933
0.0084291724 0.06743338 0.016979009
0.0094487397 0.067191035 0.016945809
0.010595501 0.067811213 0.016932636
0.011490777 0.066855431 0.017092377
0.012554738 0.066958599 0.017092377
0.013759524 0.067739196 0.017193973
0.014565687 0.066585995 0.01784116
0.015571321 0.066437639 0.017864674
0.016602069 0.066408277 0.018059731
0.017713603 0.066686504 0.018846184
0.018886756 0.067152917 0.018864125
0.019805793 0.06671425 0.018634617
0.020921502 0.066948809 0.018555224
0.021770386 0.066347837 0.018177927
0.023003813 0.066920184 0.018136472
0.023782076 0.066176213 0.018371165
0.025392424 0.067713134 0.017875195
0.026404442 0.06759537 0.017088354
0.027417311 0.067488767 0.017514229
0.028880876 0.068458371 0.017470866
0.02932157 0.067020729 0.016932398
0.030387904 0.067062959 0.016822457
0.031503998 0.067208529 0.017027169
0.032404814 0.066900261 0.017135233
0.0329482 0.065896399 0.017169237
0.034472175 0.066855133 0.017169237
0.035272952 0.066396147 0.017222077
0.037079636 0.067802764 0.016913116
0.037835076 0.067262366 0.016153961
0.039523069 0.068364225 0.015735239
0.040504608 0.068218283 0.014678389
0.041436974 0.067999139 0.014071822
0.042623542 0.068197675 0.013485283
0.043870036 0.068480052 0.011907727
0.044088665 0.067182727 0.011129707
0.045319926 0.067452915 0.010608613
0.04745736 0.069028884 0.0095029473
0.047925122 0.068160169 0.0084868371
0.049450044 0.068800062 0.0055400729
-0.05478802 0.06982787 0.0057966411
-0.054031666 0.070241161 0.0069682896
-0.052671049 0.069869764 0.0074567497
-0.051961161 0.070364073 0.0081524253
-0.05032555 0.069599167 0.0088396668
-0.048723888 0.068848968 0.0090509951
-0.048563328 0.070147023 0.0092630088
-0.047338892 0.069932453 0.010026187
-0.045914825 0.069406129 0.0098281205
-0.045225617 0.069992021 0.0099028349
-0.043845609 0.069511324 0.010115921
-0.042575818 0.069185704 0.010267884
-0.041785333 0.069642223 0.010383874
-0.040518437 0.069307849 0.010571182
-0.039720561 0.069779366 0.010906309
-0.038662024 0.069806434 0.011290252
-0.037134435 0.068963952 0.011329323
-0.036129914 0.069071896 0.011852413
-0.035282232 0.069495305 0.012293696
-0.033520926 0.068089381 0.013146371
-0.032514941 0.068176486 0.013713062
-0.031844616 0.068996668 0.014131188
-0.030633688 0.068661712 0.014203101
-0.029678289 0.068896025 0.01411429
-0.028584208 0.068813831 0.014372528
-0.027222315 0.068055786 0.01462236
-0.026649415 0.069288477 0.014755726
-0.025356531 0.068673939 0.015250713
-0.024441682 0.069074318 0.015515864
-0.023244686 0.068677485 0.015402794
-0.021936042 0.067897268 0.015790015
-0.02099626 0.068237849 0.016936034
-0.019869993 0.067976288 0.017205805
-0.018657483 0.067374252 0.017519116
-0.017650433 0.067486949 0.017542511
-0.016779343 0.068166077 0.017250031
-0.015650921 0.067820653 0.017296553
-0.014739339 0.068432644 0.016805083
-0.013634476 0.06817238 0.016240805
-0.012679755 0.068682007 0.015874296
-0.011709294 0.069191284 0.015535563
-0.010559453 0.06863644 0.015455663
-0.0095403399 0.068902455 0.015213311
-0.0085409163 0.069394946 0.014979869
-0.0073641203 0.068381116 0.01492852
-0.0063249907 0.068520732 0.015159786
-0.0052941721 0.068824239 0.015552014
-0.0041853809 0.068012439 0.016051501
-0.0031392835 0.068017811 0.01671204
-0.0021050447 0.068413958 0.017183274
-0.0010412171 0.067679115 0.017840087
0 0.06842652 0.01864168
0.0010435643 0.06783168 0.018942744
0.0020737483 0.06739682 0.019170403
0.0031387417 0.068006068 0.018981606
0.004172863 0.067809023 0.018697798
0.0051695961 0.067204751 0.018713027
0.0062513305 0.067722753 0.018091679
0.0073826546 0.068553224 0.017903686
0.0083469134 0.067818671 0.017845184
0.0095300507 0.068828143 0.01745528
0.010560054 0.068640359 0.017523468
0.011537225 0.068174511 0.017620832
0.012606841 0.068287052 0.017620832
0.013570351 0.067851752 0.017644554
0.014676183 0.068139419 0.018173158
0.015701441 0.068039581 0.018394321
0.016571501 0.067321718 0.018517762
0.017942801 0.068604827 0.019076675
0.018898834 0.068245791 0.019128799
0.019874562 0.06799192 0.018928558
0.021070799 0.068480097 0.018877983
0.022029445 0.068186373 0.01860562
0.02289564 0.067646205 0.018204629
0.024062999 0.068004124 0.018322051
0.025199359 0.068248264 0.01766777
0.026279973 0.068327926 0.016798198
0.027528394 0.068820983 0.016698629
0.028626364 0.068915322 0.016798198
0.029155435 0.067682259 0.016685098
0.030245457 0.067791536 0.016459763
0.031176575 0.067549244 0.016685098
0.032287978 0.067700595 0.016774893
0.033545889 0.068140082 0.016699404
0.034440905 0.067838147 0.016726792
0.035730239 0.06830781 0.016050965
0.036378901 0.067560814 0.015760154
0.03786565 0.068368532 0.015521824
0.039450008 0.069304064 0.014875829
0.040491112 0.069261111 0.013535291
0.041243274 0.068738788 0.013652563
0.042760294 0.069485478 0.012905985
0.043214649 0.068511024 0.01139155
0.044569369 0.068976402 0.010717958
0.045840193 0.069293313 0.010157168
0.046543814 0.068757907 0.0083993673
0.047957666 0.069272183 0.0064153075
-0.053252138 0.070292816 0.0063062012
-0.052580118 0.070822202 0.0071342885
-0.051682636 0.071063623 0.0078114271
-0.050024882 0.070247702 0.0082831681
-0.049790889 0.071439095 0.0085203946
-0.048151355 0.070621982 0.0089861453
-0.046978123 0.070467189 0.0095641017
-0.046629902 0.071571477 0.0094856322
-0.045014251 0.070736676 0.009601593
-0.043322757 0.069739066 0.009605974
-0.04256859 0.070238173 0.0095818043
-0.04146054 0.070163988 0.009894073
-0.040338542 0.070061676 0.01003322
-0.039981958 0.071319163 0.010310203
-0.03861222 0.070789069 0.010696381
-0.037065197 0.069894366 0.01081717
-0.036786236 0.071408577 0.011359692
-0.034945715 0.06989143 0.012095451
-0.033864625 0.069845788 0.012953877
-0.032643385 0.069498815 0.013704211
-0.031936392 0.070260055 0.014175832
-0.031080965 0.070735984 0.014236182
-0.029658111 0.069908403 0.014277726
-0.02831354 0.069210872 0.01470691
-0.02747532 0.069745041 0.014821172
-0.026608808 0.070247248 0.015059352
-0.025509333 0.070150666 0.015687436
-0.024477558 0.070239946 0.015716106
-0.023150865 0.069452591 0.015909672
-0.022000501 0.069144428 0.016403019
-0.020763179 0.06851849 0.016934663
-0.019653136 0.068268783 0.017298967
-0.018748509 0.068744533 0.017598808
-0.017786471 0.069053352 0.017538339
-0.016661089 0.068726994 0.017423749
-0.015687075 0.069023125 0.017370194
-0.014688015 0.069243498 0.017038137
-0.01351101 0.068594359 0.016588658
-0.012742538 0.070083961 0.016135395
-0.011725139 0.070350833 0.015919
-0.010493298 0.069255769 0.015597582
-0.0096025812 0.070418932 0.015346348
-0.0083666863 0.069025159 0.015058339
-0.0074218204 0.069977164 0.015028328
-0.0063885208 0.070273727 0.01510182
-0.0052679987 0.06953758 0.016023934
-0.0042231772 0.069682427 0.016574919
-0.0030992283 0.06818302 0.017254531
-0.0020859167 0.068835244 0.017865688
-0.0010417046 0.068752497 0.018564463
0 0.069249041 0.01866892
0.0010270852 0.067787617 0.01949957
0.0020877216 0.068894811 0.019760042
0.0031412807 0.069108173 0.019398302
0.0041440078 0.068376131 0.019578785
0.0051979148 0.068612479 0.01919198
0.0062600286 0.068860315 0.018828958
0.0072874986 0.0687107 0.018467695
0.0084051825 0.069342747 0.018467695
0.0093351658 0.068457879 0.018176347
0.010444582 0.068934239 0.01829496
0.011543214 0.069259286 0.01829496
0.01259749 0.069286197 0.01829496
0.013439093 0.068229243 0.01829496
0.014730945 0.069445878 0.018854022
0.015603206 0.068654105 0.018737972
0.016560096 0.068310395 0.01875636
0.017611733 0.068374954 0.019211024
0.018575413 0.068109848 0.019300133
0.019939734 0.069264337 0.019132078
0.021009544 0.069331497 0.019012243
0.021958862 0.069013566 0.01869905
0.02302531 0.069075927 0.018076152
0.024093499 0.069137864 0.01788792
0.025231149 0.069385663 0.017422616
0.026557766 0.070112504 0.016558886
0.027455026 0.069693528 0.016436994
0.028598797 0.069908164 0.016375035
0.030211007 0.071211658 0.016207725
0.030163851 0.068648763 0.015731275
0.0316214 0.069567077 0.015829533
0.032859098 0.069958076 0.015707433
0.033726443 0.069560781 0.015607357
0.034959566 0.069919132 0.015366077
0.036119692 0.070114695 0.015372097
0.036716949 0.069237679 0.0146752
0.037980117 0.069630221 0.014018118
0.039217167 0.069954939 0.0139952
0.040420484 0.070203997 0.013129175
0.041869257 0.07085567 0.013000697
0.042266838 0.069740281 0.012094706
0.043749772 0.070426457 0.010874331
0.044732757 0.070294328 0.010078043
0.045626611 0.070031539 0.0086020827
0.0471255 0.070688248 0.00709185
-0.053854644 0.072165221 0.0051617622
-0.05267911 0.072030626 0.0061303973
-0.05112597 0.071363337 0.0073542893
-0.050431687 0.071891978 0.007712394
-0.049463153 0.072044156 0.0079538524
-0.048436057 0.072115906 0.0082242191
-0.046741005 0.071173802 0.0089313686
-0.046310391 0.072158054 0.0089831352
-0.044526432 0.071030259 0.0088499784
-0.044029098 0.071949989 0.0088803768
-0.042467751 0.071133487 0.0087788999
-0.04110074 0.070608966 0.0090756416
-0.04081383 0.071961232 0.0093705654
-0.039336614 0.071231164 0.0096681416
-0.038864132 0.072330475 0.0097876489
-0.037878647 0.072510555 0.010303378
-0.036463793 0.07185512 0.010917336
-0.034994975 0.071050406 0.011813283
-0.033860609 0.070895649 0.012539506
-0.032767817 0.070820764 0.013504684
-0.032130457 0.071758024 0.014276415
-0.030911904 0.071417153 0.014408916
-0.029615941 0.070866719 0.01442048
-0.028329682 0.070299581 0.014842689
-0.027437728 0.070704915 0.01521638
-0.026496049 0.071009412 0.015509844
-0.025622962 0.071530774 0.015773982
-0.024075501 0.070132986 0.015790015
-0.022989606 0.070013806 0.016183943
-0.02182767 0.069640666 0.016771048
-0.020926587 0.07010407 0.017576784
-0.01990658 0.070196889 0.017611206
-0.018644698 0.069399714 0.017636389
-0.017607687 0.069394998 0.017674595
-0.016766854 0.070211202 0.017752558
-0.015624851 0.069791004 0.017509311
-0.014618135 0.069958217 0.017069876
-0.013659485 0.070398889 0.016817182
-0.012630632 0.070521034 0.016311139
-0.011666837 0.071061648 0.015977085
-0.010651381 0.071364254 0.01558578
-0.0095922062 0.071408652 0.015230089
-0.0083041405 0.069547176 0.015200913
-0.0073864101 0.0706985 0.015140682
-0.0062809489 0.070137262 0.015576005
-0.0052201673 0.069950245 0.01630342
-0.0042075189 0.070475936 0.016925156
-0.0031340569 0.069993936 0.017845571
-0.002099386 0.070329428 0.018150032
-0.0010469963 0.070148759 0.018499047
0 0.069403559 0.019053012
0.0010425461 0.069850594 0.020094037
0.0020856746 0.069870099 0.020245254
0.0030891353 0.068990692 0.019731432
0.0041815406 0.0700408 0.019787073
0.0052108467 0.069825351 0.019640833
0.0062477565 0.069766618 0.019057363
0.0073211705 0.070074059 0.018788934
0.0083507979 0.069937937 0.018822968
0.0093676466 0.069736928 0.018816948
0.010428938 0.069873892 0.01866132
0.011570953 0.070477627 0.018673182
0.012534693 0.069985375 0.018673182
0.013593067 0.07005658 0.01875183
0.014494444 0.069366269 0.01887548
0.015648289 0.069895692 0.018911719
0.016692821 0.069901191 0.018919259
0.017626073 0.069467463 0.019316435
0.018851249 0.070168547 0.019320548
0.019679448 0.069395952 0.019287229
0.020729575 0.069444083 0.019128799
0.022126576 0.070594311 0.0189704
0.022963185 0.06993334 0.018603981
0.023912549 0.069658294 0.018357068
0.025285816 0.070589572 0.017490774
0.026137406 0.070048243 0.016850859
0.027365951 0.070519954 0.016519278
0.028820584 0.071517743 0.016197622
0.029767128 0.071228489 0.015931964
0.030694459 0.070914783 0.015315622
0.03143236 0.070198938 0.015127242
0.032607958 0.070475258 0.014993042
0.032889873 0.068863176 0.015005082
0.034688383 0.070427932 0.014858633
0.035563201 0.070080422 0.014330089
0.03693708 0.070708126 0.013649374
0.037820395 0.070387959 0.013205647
0.039010879 0.070641316 0.012922674
0.040479366 0.071371511 0.012440056
0.04149529 0.071286783 0.011647791
0.042340878 0.070920974 0.011089832
0.043815672 0.071601219 0.010351449
0.044795256 0.0714591 0.0087732375
0.045783229 0.071336664 0.0071397424
-0.052768935 0.073230363 0.0050472915
