ply
format ascii 1.0
comment PCL generated
element vertex 1253
property float x
property float y
property float z
element camera 0
property float view_px
property float view_py
property float view_pz
property float x_axisx
property float x_axisy
property float x_axisz
property float y_axisx
property float y_axisy
property float y_axisz
property float z_axisx
property float z_axisy
property float z_axisz
property float focal
property float scalex
property float scaley
property float centerx
property float centery
property int viewportx
property int viewporty
property float k1
property float k2
end_header
0.026921801 -0.019383697 0.013492823
0.02781407 -0.019255893 0.01359266
0.028632948 -0.01908863 0.014090002
0.029999718 -0.019285532 0.014243633
0.030880645 -0.019167297 0.014121652
0.031981561 -0.019188935 0.01453504
0.033180684 -0.019266203 0.014667243
0.033976197 -0.019111611 0.015056014
0.035545766 -0.019388599 0.014912844
0.036615312 -0.019384576 0.015334338
0.036840998 -0.018946797 0.015372723
0.038099315 -0.019049658 0.015426219
0.039317112 -0.019127242 0.015241712
0.040089235 -0.018989637 0.014440715
0.041420523 -0.019117163 0.014227271
0.042365547 -0.019064495 0.013978809
0.043011345 -0.018883027 0.013336658
0.044519842 -0.019079931 0.012102902
0.046054896 -0.019278793 0.011177063
0.047345091 -0.019368446 0.010112584
0.048418738 -0.019367494 0.009150207
0.04990397 -0.019527638 0.0080761909
0.050621666 -0.01938702 0.0069418252
0.052969683 -0.01986363 0.005533576
0.053037938 -0.019483324 0.0051955581
-0.059162702 -0.018625295 0.0055615902
-0.05689222 -0.018248448 0.0074926615
-0.056263994 -0.018393999 0.0084306002
-0.054952879 -0.018317627 0.0092936158
-0.053254325 -0.01810647 0.0099943578
-0.053014014 -0.018392617 0.010428131
-0.05111431 -0.018102985 0.010978311
-0.050749395 -0.018356163 0.011767477
-0.04889039 -0.018068187 0.011916071
-0.047887281 -0.018090749 0.012111247
-0.047411475 -0.01831807 0.012169391
-0.046229169 -0.018276649 0.012311429
-0.044997964 -0.01821346 0.012191951
-0.044703141 -0.018535448 0.012198269
-0.04256168 -0.018088715 0.01194948
-0.041692216 -0.018173531 0.011900216
-0.040566027 -0.018147958 0.011757672
-0.039624371 -0.018205792 0.011101633
-0.039018672 -0.018425485 0.010650754
-0.038174689 -0.018541992 0.01063171
-0.036765814 -0.018382907 0.011056811
-0.035345253 -0.018208161 0.010989279
-0.034574524 -0.018367715 0.010756701
-0.032926328 -0.018056374 0.01092422
-0.032232892 -0.018265307 0.011330277
-0.03111307 -0.018238695 0.011386216
-0.029892374 -0.018148942 0.011736572
-0.0290168 -0.018269837 0.011822224
-0.028057346 -0.018345188 0.011531174
-0.026862407 -0.018266436 0.011836946
-0.025762649 -0.018248543 0.012166619
-0.024815913 -0.018342197 0.012447685
-0.023531517 -0.018183446 0.012666047
-0.022614384 -0.018306883 0.012806535
-0.021579195 -0.018342316 0.012897372
-0.020318892 -0.018180061 0.012835532
-0.019233068 -0.018164566 0.012897074
-0.018035134 -0.018035134 0.012835532
-0.01726428 -0.018343298 0.012695074
-0.01593479 -0.018059429 0.012619108
-0.014822673 -0.01799896 0.01221478
-0.014038154 -0.018357586 0.01175192
-0.012962229 -0.018363157 0.0116615
-0.011712746 -0.018101515 0.011243075
-0.010641948 -0.018091314 0.011332124
-0.0096906917 -0.01830464 0.011184156
-0.008706985 -0.018502343 0.011288434
-0.0075473371 -0.018329248 0.011407793
-0.0064069107 -0.018152913 0.01132682
-0.005319173 -0.018085189 0.011797994
-0.0042944453 -0.018251393 0.0122765
-0.0032050044 -0.018161692 0.012605488
-0.002127565 -0.018084303 0.012887388
-0.0010595281 -0.018011976 0.013294041
0 -0.01797682 0.013386905
0.0010643407 -0.018093793 0.013775021
0.0021173304 -0.01799731 0.013802856
0.003172108 -0.01797528 0.013836563
0.0043222234 -0.018369451 0.012924194
0.0053682104 -0.018251916 0.012615651
0.0064419969 -0.018252324 0.012206793
0.0075950911 -0.018445222 0.011951864
0.0086948043 -0.018476458 0.011884004
0.0097016543 -0.018325347 0.011951864
0.010757661 -0.018288026 0.012406141
0.011639729 -0.017988672 0.012515873
0.012813162 -0.01815198 0.012837082
0.013977204 -0.018277884 0.013213128
0.01485421 -0.018037256 0.013738871
0.016001452 -0.01813498 0.014010668
0.017029557 -0.018093904 0.014257759
0.017854059 -0.017854059 0.014326632
0.019158578 -0.018094212 0.014218628
0.019976659 -0.017873853 0.014106095
0.021035243 -0.017879957 0.014030933
0.02248024 -0.018198289 0.013870925
0.023332119 -0.018029366 0.013643682
0.024393456 -0.018029945 0.013539791
0.025942165 -0.0183757 0.013492823
0.026775764 -0.01820752 0.01359266
0.027719097 -0.018124025 0.013492823
0.028916692 -0.018206805 0.013801485
0.029839624 -0.018116914 0.014003366
0.030919241 -0.018125072 0.01386261
0.032088917 -0.018183719 0.014404327
0.032585524 -0.01786948 0.014603108
0.034123685 -0.018128209 0.014864862
0.034978595 -0.018019278 0.014831901
0.036045525 -0.018022763 0.015336096
0.037278309 -0.018106608 0.015159518
0.03837648 -0.018122228 0.015255272
0.038989179 -0.017913947 0.014938861
0.040483057 -0.018110842 0.014341086
0.041297313 -0.018001392 0.014095217
0.042697467 -0.018146424 0.013798147
0.043975111 -0.018233581 0.013246953
0.044804566 -0.018135181 0.012065053
0.045559786 -0.01801201 0.01080215
0.047840454 -0.018483812 0.0097662508
0.048306815 -0.01824924 0.0085403621
0.050460584 -0.018648477 0.0070110857
0.052043296 -0.018824171 0.0060720146
0.051610786 -0.01827882 0.0051149726
-0.058960009 -0.017469632 0.0060057938
-0.058293689 -0.017598096 0.0076975524
-0.055745009 -0.017152311 0.0086236298
-0.054064561 -0.016961431 0.0094097853
-0.054154489 -0.017329436 0.0098864138
-0.052711207 -0.017211823 0.010523587
-0.051650871 -0.017216956 0.010901123
-0.050239779 -0.017102903 0.011522055
-0.048756145 -0.016958658 0.012007654
-0.048442505 -0.017224001 0.012094259
-0.047269743 -0.017188998 0.01209569
-0.04599943 -0.017116068 0.012427598
-0.045272313 -0.017246595 0.012096703
-0.044593383 -0.017402295 0.01194948
-0.043215923 -0.01728637 0.011822224
-0.042029925 -0.017243046 0.011900216
-0.040371943 -0.016998714 0.011800051
-0.039628416 -0.017136613 0.011514485
-0.038904689 -0.017290974 0.01074174
-0.037267249 -0.017036457 0.01074174
-0.036482666 -0.017168313 0.011002421
-0.035781685 -0.017348697 0.0115529
-0.03420103 -0.017100515 0.011439592
-0.033396702 -0.017237008 0.011736572
-0.032084912 -0.017111951 0.011909097
-0.030897737 -0.017047027 0.011822373
-0.030011158 -0.017149232 0.011783957
-0.029018132 -0.017195929 0.011878937
-0.027614444 -0.016993504 0.01214236
-0.026626492 -0.017040955 0.012439847
-0.025820756 -0.017213838 0.013124675
-0.024369378 -0.01695261 0.013449222
-0.023545979 -0.017124349 0.013545275
-0.022455715 -0.017109115 0.013448209
-0.021274723 -0.017019778 0.01349178
-0.020336011 -0.017125061 0.013453841
-0.019114532 -0.016990695 0.013287067
-0.018004909 -0.016945798 0.013214588
-0.016964098 -0.016964098 0.013202459
-0.015941909 -0.017004702 0.013107181
-0.014989574 -0.017130941 0.012790442
-0.013976266 -0.017201558 0.012480021
-0.012749438 -0.016999252 0.01184997
-0.011819802 -0.01719244 0.01148814
-0.010708824 -0.017134119 0.011474431
-0.0096582482 -0.017170219 0.011395395
-0.0086976485 -0.017395297 0.011288196
-0.0075638914 -0.017288893 0.011769056
-0.0064441222 -0.017184326 0.012181431
-0.0053708954 -0.017186865 0.012292534
-0.0042427368 -0.016970947 0.012820333
-0.0031987545 -0.017060025 0.013298839
-0.0021140147 -0.016912118 0.01375711
-0.0010629882 -0.017007811 0.014240295
0 -0.017060503 0.014431179
0.0010685325 -0.017096519 0.014763057
0.0021004891 -0.016803913 0.015106708
0.0032210529 -0.017178949 0.015259445
0.0043175509 -0.017270204 0.014871389
0.0053044902 -0.016974371 0.014206916
0.0064006252 -0.017068334 0.013465285
0.0075596273 -0.017279148 0.013064712
0.0086615868 -0.017323174 0.012989968
0.009576017 -0.017024033 0.012908578
0.010742933 -0.017188692 0.013294399
0.011691843 -0.017006319 0.013863683
0.012827633 -0.017103512 0.014055282
0.013672279 -0.016827421 0.014055282
0.014877901 -0.017003316 0.014444143
0.015911771 -0.016972555 0.014253467
0.01682773 -0.01682773 0.014568299
0.018065965 -0.017003261 0.014590055
0.019231757 -0.017094897 0.01435107
0.020074684 -0.016904997 0.014108598
0.021347744 -0.017078197 0.013806611
0.022242336 -0.016946541 0.013962448
0.023066841 -0.016775884 0.013978779
0.02440715 -0.016978888 0.013724536
0.025739018 -0.017159346 0.013733417
0.026898609 -0.017215108 0.013860971
0.027835751 -0.017129693 0.013660014
0.028827742 -0.017083107 0.013813317
0.029951595 -0.017115196 0.014003366
0.031056339 -0.01713453 0.013940871
0.031760469 -0.016938917 0.014412642
0.033210278 -0.017140787 0.014513046
0.03405527 -0.017027635 0.0148471
0.034982175 -0.016961055 0.014864862
0.036296897 -0.017080894 0.015546948
0.037171654 -0.016992755 0.015369952
0.03813136 -0.016947273 0.015431464
0.039619438 -0.017132729 0.015239716
0.040666968 -0.017122934 0.014677793
0.041410312 -0.016988846 0.014289379
0.043220773 -0.017288309 0.013720542
0.043358337 -0.016920326 0.012898326
0.044595353 -0.016988706 0.012065947
0.045890026 -0.01707536 0.01063621
0.046496969 -0.01690799 0.0095402896
0.048311725 -0.017177502 0.0077553689
0.050320927 -0.01750293 0.0064225197
0.050999131 -0.017361406 0.005884409
-0.058779746 -0.016327707 0.0068394542
-0.057290759 -0.016214367 0.0076951385
-0.055574361 -0.016031066 0.0085675418
-0.054778721 -0.016111389 0.009240061
-0.053700127 -0.016110038 0.0097556412
-0.052849591 -0.016178448 0.010227859
-0.051275376 -0.016023556 0.010812461
-0.049823619 -0.015901154 0.011022955
-0.049534909 -0.016152687 0.011578411
-0.048408989 -0.016136328 0.011771709
-0.047063727 -0.016044453 0.011771709
-0.046764527 -0.016313208 0.01177001
-0.044563983 -0.015915709 0.011572629
-0.044339187 -0.016221654 0.011363566
-0.043467432 -0.016300287 0.011363566
-0.042249188 -0.016249688 0.011363566
-0.040979743 -0.016176214 0.011655182
-0.039885897 -0.016169958 0.011084497
-0.038585078 -0.016077118 0.010765582
-0.037321817 -0.015995065 0.010850966
-0.036692597 -0.01618791 0.011101753
-0.035276111 -0.016034598 0.011776745
-0.034591105 -0.016214579 0.011891305
-0.033188988 -0.016059188 0.012055635
-0.032264814 -0.016132407 0.012096107
-0.031217946 -0.016147213 0.012063742
-0.029801302 -0.015964983 0.012310714
-0.028869914 -0.016038841 0.012410134
-0.027794167 -0.016035097 0.013087541
-0.02664274 -0.015985643 0.013300955
-0.025542971 -0.015964357 0.013556182
-0.024396911 -0.01591103 0.013848782
-0.023339441 -0.015913256 0.013848782
-0.022215093 -0.015867922 0.014461875
-0.021490993 -0.016118245 0.014837235
-0.019926285 -0.015731277 0.014774829
-0.01915363 -0.015961358 0.014489651
-0.018219844 -0.016076332 0.014164925
-0.016901443 -0.015845103 0.01393345
-0.015948016 -0.015948016 0.013619214
-0.014947542 -0.016015224 0.013150841
-0.013829567 -0.015957193 0.012677312
-0.012802561 -0.016003203 0.011937261
-0.011809554 -0.016103938 0.011794537
-0.010678793 -0.016018189 0.011780173
-0.009680015 -0.016133361 0.011746317
-0.0085264491 -0.015987091 0.011571765
-0.0074835951 -0.016036276 0.012181431
-0.0064845914 -0.016211478 0.012496054
-0.0053375992 -0.016012799 0.012862742
-0.0042382726 -0.015893521 0.013298839
-0.0032356225 -0.016178112 0.01402241
-0.0021117821 -0.015838364 0.01454702
-0.0010585209 -0.015877813 0.01474157
0 -0.015878778 0.014901638
0.0010501122 -0.015751682 0.015212357
0.0021437104 -0.016077828 0.015472591
0.0031804189 -0.015902095 0.015868992
0.0042365664 -0.015887124 0.015584648
0.0053589242 -0.016076773 0.015056938
0.0064352411 -0.016088104 0.014853686
0.0074665365 -0.015999721 0.014407516
0.008598092 -0.016121423 0.014298707
0.0096674059 -0.016112342 0.014397115
0.010682449 -0.016023673 0.014414728
0.011784094 -0.01606922 0.014712751
0.012900498 -0.016125623 0.014838189
0.013749605 -0.015864929 0.01491791
0.01502427 -0.016097432 0.015003771
0.015769912 -0.015769912 0.015064418
0.01708653 -0.016018622 0.015141577
0.018136015 -0.016002366 0.015064895
0.019142672 -0.015952228 0.015161991
0.020272056 -0.016004255 0.015041173
0.021158714 -0.015869036 0.014524102
0.021994028 -0.01571002 0.014151305
0.023462582 -0.015997216 0.014021605
0.0242514 -0.01581613 0.013724536
0.025649535 -0.01603096 0.013630569
0.027080601 -0.01624836 0.013624698
0.027745159 -0.016006822 0.013585925
0.028525209 -0.015847338 0.013697922
0.030005537 -0.016074395 0.013898879
0.030634584 -0.015845474 0.01377508
0.032044251 -0.016022125 0.014162898
0.033367902 -0.016145758 0.014433771
0.034097414 -0.015983164 0.014771849
0.035400361 -0.016091073 0.014781922
0.03635199 -0.016037643 0.014912039
0.036831047 -0.015784735 0.014814138
0.038790446 -0.016162686 0.014811039
0.039603032 -0.016055284 0.014796317
0.040417306 -0.015954198 0.014456332
0.04172885 -0.016049558 0.014069527
0.043355871 -0.016258452 0.013684809
0.043524027 -0.015923424 0.012833893
0.045546431 -0.016266583 0.011781275
0.045956939 -0.016031491 0.0098727643
0.046767909 -0.015943605 0.0087552667
0.048992097 -0.016330699 0.0068685114
0.050400916 -0.016435081 0.0059938729
0.051612683 -0.016472133 0.0053349137
-0.058175147 -0.015082444 0.0065262616
-0.057135768 -0.015092467 0.0075071752
-0.056012951 -0.01508041 0.0081775486
-0.054792844 -0.015041173 0.008831054
-0.053771429 -0.015056 0.0096334517
-0.053343337 -0.015240954 0.010001242
-0.051509384 -0.015023571 0.010567784
-0.050200701 -0.0149534 0.010805011
-0.049617313 -0.015100922 0.011020601
-0.048225284 -0.015003421 0.011091322
-0.047414415 -0.015086404 0.011198521
-0.045570251 -0.014836825 0.0111534
-0.044445794 -0.014815263 0.011077374
-0.044338189 -0.015139869 0.011002064
-0.043206956 -0.015122435 0.010838628
-0.042023532 -0.015085371 0.011083841
-0.041015696 -0.015111046 0.010917157
-0.039918665 -0.015104359 0.010554016
-0.038459633 -0.014956524 0.010445207
-0.037871227 -0.015148491 0.010748893
-0.036648411 -0.015090522 0.011391371
-0.035249222 -0.014954216 0.011954188
-0.034302637 -0.015007404 0.012022793
-0.032920759 -0.014867439 0.012538165
-0.032373454 -0.015107612 0.01260069
-0.030945793 -0.014939347 0.012632459
-0.029826112 -0.014913056 0.012789279
-0.029131887 -0.015105423 0.013216943
-0.02791051 -0.015028736 0.013744354
-0.026815435 -0.015016643 0.014008343
-0.025832875 -0.015069177 0.014095545
-0.024254987 -0.014763905 0.014695466
-0.023401788 -0.014892047 0.01498726
-0.022360228 -0.014906819 0.015307277
-0.021311563 -0.014918094 0.015152216
-0.02023688 -0.014911384 0.015459895
-0.019113719 -0.014866227 0.015336454
-0.017948246 -0.014780908 0.014827728
-0.017254669 -0.015097835 0.014614135
-0.015901044 -0.014840974 0.014216542
-0.014790307 -0.014790307 0.013895959
-0.013859322 -0.014925424 0.013162524
-0.012875351 -0.015021244 0.012587011
-0.011759697 -0.014966888 0.012320697
-0.010730932 -0.015023304 0.012167066
-0.0096534761 -0.015016519 0.012171417
-0.00855939 -0.014978932 0.012313426
-0.0074893902 -0.01497878 0.012516946
-0.0064040171 -0.014942707 0.012984842
-0.0053484417 -0.014975637 0.013623983
-0.0042886231 -0.015010181 0.013935268
-0.0031909442 -0.014891074 0.014497191
-0.002128548 -0.014899837 0.014803022
-0.0010602621 -0.014843669 0.01500839
0 -0.014797646 0.015388131
0.001063248 -0.014885472 0.016041905
0.0021106326 -0.014774428 0.016216218
0.0031690069 -0.014788699 0.016147643
0.0042637615 -0.014923166 0.01573658
0.0053295521 -0.014922746 0.015584648
0.0063148136 -0.014734565 0.015482306
0.007474036 -0.014948072 0.015244573
0.008500413 -0.014875723 0.014727861
0.0096172877 -0.014960226 0.014968157
0.01070169 -0.014982366 0.014977574
0.011629035 -0.01480059 0.015003771
0.012774482 -0.014903563 0.014928401
0.013814191 -0.014876821 0.015089691
0.01483379 -0.01483379 0.01509589
0.015963158 -0.014898947 0.01509589
0.016998446 -0.01487364 0.015677899
0.017995857 -0.014820117 0.015651196
0.019372324 -0.015067364 0.015325248
0.020372193 -0.015011089 0.015249014
0.021394335 -0.014976035 0.01456058
0.022231156 -0.01482077 0.0141761
0.023427222 -0.014908232 0.014115572
0.024320753 -0.014803936 0.013915569
0.025673747 -0.014976352 0.013675362
0.026477886 -0.014827616 0.01366052
0.027992724 -0.015073005 0.013617486
0.028998919 -0.015036476 0.013669789
0.029839728 -0.014919864 0.013694286
0.030637341 -0.014790439 0.013669789
0.032244019 -0.015047209 0.014118791
0.032572322 -0.01471008 0.014485776
0.033437636 -0.014628965 0.014818728
0.035026759 -0.014859837 0.014720321
0.036514223 -0.015035268 0.014678448
0.037546139 -0.015018457 0.014619261
0.038599469 -0.015010905 0.014678448
0.039101433 -0.014795136 0.014646173
0.040937316 -0.015082168 0.014106005
0.041550454 -0.014915547 0.013906598
0.043250613 -0.015137715 0.013555884
0.04382867 -0.014965886 0.012228698
0.044071615 -0.014690538 0.010956258
0.046096534 -0.015008174 0.0094295442
0.047265161 -0.015038915 0.0075914264
0.047990929 -0.014930511 0.0063737035
0.050792515 -0.01545859 0.0051955581
-0.05788317 -0.013934837 0.0058076084
-0.057124492 -0.014011668 0.0073843598
-0.056102451 -0.014025613 0.0081472993
-0.054809723 -0.013971105 0.008870542
-0.054175016 -0.014085504 0.0092919767
-0.052479286 -0.013923076 0.0098645091
-0.051859297 -0.014045226 0.010183364
-0.050583232 -0.013991106 0.010523289
-0.049142409 -0.013888072 0.010805011
-0.048858833 -0.014114774 0.010817826
-0.047527641 -0.014042258 0.010806918
-0.04576686 -0.013836493 0.010917157
-0.04548303 -0.014078081 0.010598242
-0.044061005 -0.013970561 0.010568708
-0.043130513 -0.014017417 0.010568708
-0.041993923 -0.013997975 0.0105488
-0.04133036 -0.014139334 0.010234863
-0.040115099 -0.014094493 0.0099280775
-0.038805913 -0.014013247 0.010087669
-0.037923265 -0.014085785 0.010320246
-0.036083702 -0.013796709 0.011183858
-0.035272215 -0.013895115 0.011970311
-0.033903107 -0.013773137 0.012188494
-0.033268217 -0.013951187 0.012381077
-0.032146446 -0.013930126 0.01254198
-0.030856727 -0.013832325 0.012914091
-0.030041397 -0.013947791 0.013294518
-0.028804341 -0.013868757 0.013613105
-0.027784774 -0.013892387 0.014159024
-0.027153745 -0.014119946 0.014363319
-0.025545958 -0.013837394 0.01506716
-0.024299007 -0.013734221 0.015286356
-0.023545658 -0.013913344 0.015374243
-0.022106498 -0.013684974 0.015450716
-0.021051625 -0.013683556 0.015578806
-0.020253617 -0.013857738 0.015824378
-0.019049577 -0.013758028 0.015500665
-0.018038774 -0.013794356 0.015327454
-0.017012542 -0.01382269 0.015081525
-0.015889594 -0.013770982 0.014618307
-0.014996198 -0.01392504 0.014200091
-0.013909583 -0.013909583 0.013880461
-0.012782869 -0.013848108 0.012920529
-0.011743264 -0.013878404 0.01266697
-0.010676394 -0.013879313 0.012355745
-0.0096509987 -0.013940332 0.012396485
-0.0085874079 -0.013954537 0.012497991
-0.0074985516 -0.013925882 0.012839824
-0.0064147939 -0.01389872 0.013263345
-0.0053360946 -0.013873847 0.013940036
-0.004273871 -0.013890081 0.014513969
-0.003184997 -0.013801654 0.01472494
-0.0021203174 -0.013782063 0.014893323
-0.0010569387 -0.013740201 0.015753478
0 -0.013835316 0.01611352
0.0010538305 -0.013699797 0.016491055
0.0021149544 -0.013747203 0.016992599
0.0031839001 -0.0137969 0.017125338
0.0042460822 -0.013799767 0.01687187
0.0052577886 -0.013670251 0.016240537
0.0063537359 -0.013766428 0.016011655
0.0074200686 -0.013780127 0.015491247
0.0085030785 -0.013817502 0.015278846
0.0096954154 -0.014004488 0.015261739
0.010597802 -0.013777142 0.015143692
0.011617281 -0.013729514 0.015325189
0.012896904 -0.013971646 0.015471399
0.013691033 -0.013691033 0.015525013
0.014877673 -0.013814983 0.015586525
0.015984599 -0.013853319 0.015698582
0.016784552 -0.013637448 0.015759468
0.017972527 -0.013743697 0.015759468
0.01899807 -0.013720828 0.015922606
0.019827981 -0.013566512 0.015808105
0.02131944 -0.013857637 0.015292317
0.022340382 -0.013829759 0.0145877
0.023198927 -0.013708456 0.01431343
0.024441743 -0.013814898 0.013937473
0.025512379 -0.013819206 0.013835549
0.026718846 -0.0138938 0.013705134
0.028219605 -0.014109802 0.013386607
0.029227912 -0.014072698 0.01335448
0.030056717 -0.013954904 0.013585359
0.03075096 -0.013784913 0.01335448
0.031515624 -0.01365677 0.013743997
0.032608956 -0.013674722 0.014309198
0.034060568 -0.013837106 0.014435112
0.035161976 -0.013851688 0.014283121
0.036372751 -0.013907229 0.014428794
0.037151922 -0.013799286 0.014288068
0.038119778 -0.013765476 0.014428794
0.039978132 -0.01404637 0.014441311
0.041007593 -0.014028912 0.013920307
0.041184891 -0.013728297 0.013440669
0.043145064 -0.014022146 0.012405217
0.043705557 -0.013857858 0.011283815
0.044770252 -0.013857459 0.009817183
0.046663176 -0.014107471 0.0087727904
0.047138486 -0.01392728 0.0068188906
0.047910437 -0.013840793 0.005794704
-0.058712803 -0.013047289 0.0055343807
-0.057314605 -0.012976892 0.0069824755
-0.055962183 -0.012914349 0.0075071752
-0.055680372 -0.013101264 0.0079994798
-0.053904004 -0.012936961 0.0089125335
-0.052441821 -0.012842895 0.0094097853
-0.051317204 -0.012829301 0.009880811
-0.050117701 -0.012796008 0.0099944174
-0.050327152 -0.013128822 0.010256857
-0.04881354 -0.013016943 0.010107666
-0.047640599 -0.012992891 0.010237247
-0.046273306 -0.01291348 0.010393798
-0.045244686 -0.012927053 0.010148525
-0.043435484 -0.012712824 0.010148525
-0.04300528 -0.012901584 0.010148525
-0.041992437 -0.012920749 0.0099597871
-0.04073409 -0.012863396 0.009911865
-0.040239461 -0.013050635 0.0096045136
-0.038856994 -0.012952331 0.0098302364
-0.037556436 -0.012876492 0.010281116
-0.036398284 -0.012846453 0.01122275
-0.035282969 -0.012830171 0.012068987
-0.034352887 -0.012882333 0.012310028
-0.033602338 -0.013007356 0.012599111
-0.032251049 -0.01290042 0.012894452
-0.031149995 -0.012889653 0.013336182
-0.029703252 -0.012729965 0.013658106
-0.028850909 -0.012822626 0.014230639
-0.02821389 -0.013021796 0.014468074
-0.026646407 -0.012790275 0.015105247
-0.025564007 -0.012782004 0.015375167
-0.024597589 -0.012833524 0.01554811
-0.023285078 -0.012700952 0.015471727
-0.022278212 -0.012730407 0.015565455
-0.02133571 -0.012801426 0.015648514
-0.020118702 -0.012706548 0.015915185
-0.019122297 -0.012748199 0.015658438
-0.018182 -0.012834353 0.015201986
-0.01693007 -0.012697551 0.015025407
-0.016061671 -0.012849336 0.01446864
-0.014981164 -0.012840997 0.014002651
-0.013941553 -0.012869126 0.013820946
-0.013002448 -0.013002448 0.013043612
-0.011792433 -0.012864472 0.01289922
-0.010612032 -0.012734439 0.012768477
-0.0096835587 -0.012911412 0.012604773
-0.008555904 -0.012833856 0.01263234
-0.0074551995 -0.012780342 0.013201922
-0.0064452775 -0.012890555 0.013772428
-0.0052944603 -0.012706704 0.014421374
-0.0042298366 -0.01268951 0.01471746
-0.0031965817 -0.012786327 0.014815241
-0.0021191421 -0.012714852 0.015570164
-0.0010500122 -0.012600145 0.016053379
0 -0.012781566 0.016247988
0.0010573259 -0.01268791 0.016701221
0.0021201172 -0.012720703 0.016937762
0.0031746407 -0.012698563 0.016885191
0.004201802 -0.012605406 0.016753286
0.005321885 -0.012772524 0.016571999
0.0063812891 -0.012762578 0.01611498
0.0073976126 -0.012681621 0.015979171
0.0085612666 -0.012841899 0.015774399
0.0095766215 -0.012768829 0.015661567
0.010708909 -0.012850692 0.015638828
0.011844707 -0.012921498 0.015638828
0.012781671 -0.012781671 0.015482515
0.013692894 -0.012639594 0.015601039
0.0148686 -0.012744514 0.015609354
0.015936511 -0.012749208 0.015729606
0.017052844 -0.012789632 0.015922606
0.018058812 -0.012747397 0.015922606
0.019063115 -0.012708743 0.016071141
0.020338478 -0.012845353 0.015817225
0.020996043 -0.012597626 0.015539408
0.022399638 -0.012799792 0.014734775
0.023279723 -0.012698031 0.01431343
0.024579396 -0.012824032 0.013937473
0.025737762 -0.012868881 0.013867676
0.026894288 -0.012909258 0.013692647
0.027807491 -0.012834227 0.01335448
0.029047936 -0.012910193 0.013218284
0.030603815 -0.01311592 0.013262928
0.03079742 -0.012743759 0.013218284
0.032107003 -0.012842801 0.013403177
0.033291515 -0.012887038 0.013571501
0.033621892 -0.01260821 0.013878912
0.035116598 -0.012769672 0.013986051
0.035995647 -0.012704346 0.014047831
0.037048545 -0.012702358 0.013816863
0.038533568 -0.012844523 0.013901412
0.039475989 -0.012803023 0.013920307
0.040300626 -0.012726513 0.013327718
0.04186232 -0.012880714 0.012691349
0.042602587 -0.012780777 0.011612475
0.043679096 -0.012784125 0.01060313
0.045529824 -0.01300852 0.0088194609
0.046494797 -0.012975292 0.0077067912
0.046976853 -0.012811868 0.0062155128
-0.056934349 -0.011816563 0.0062816441
-0.056833632 -0.012022499 0.0071380436
-0.054981239 -0.011858698 0.0076038837
-0.053953178 -0.011869699 0.0082990825
-0.053044368 -0.011907919 0.0087662637
-0.051460274 -0.011792979 0.0094796121
-0.050846782 -0.01190031 0.0096290112
-0.049380876 -0.01180847 0.0097932816
-0.048849713 -0.01194104 0.0097135603
-0.047582667 -0.011895667 0.0099304616
-0.046135869 -0.011802199 0.0099757612
-0.044822715 -0.011739283 0.0098491311
-0.044229131 -0.011866352 0.0098419189
-0.042765733 -0.011760578 0.0099476874
-0.04247098 -0.011978994 0.0099186897
-0.0416524 -0.012057273 0.0097995996
-0.039631501 -0.011782338 0.0094901025
-0.038901288 -0.011886504 0.009655565
-0.037597366 -0.011816315 0.0098333955
-0.036520645 -0.011815502 0.0107508
-0.034852482 -0.011617494 0.011922657
-0.034571152 -0.011883833 0.012122571
-0.033525612 -0.011896185 0.012499601
-0.032514106 -0.011921839 0.01275596
-0.031042913 -0.011774898 0.013396323
-0.029734317 -0.011681339 0.0141038
-0.029160025 -0.011880009 0.014361471
-0.028024556 -0.011856543 0.014997721
-0.026614854 -0.011710536 0.015493721
-0.025638847 -0.011751139 0.015298903
-0.024389412 -0.0116645 0.015245795
-0.02330683 -0.011653415 0.01543504
-0.022324547 -0.01169381 0.015453339
-0.021213051 -0.011667178 0.01554817
-0.02007387 -0.011621715 0.015658438
-0.019178469 -0.011720176 0.015446603
-0.018023873 -0.011662506 0.015063554
-0.017087199 -0.011747449 0.014830083
-0.016050033 -0.011770024 0.014196008
-0.01493704 -0.011736246 0.013895959
-0.013963936 -0.011815637 0.01378864
-0.012974869 -0.01189363 0.013278008
-0.011751056 -0.011751056 0.012901574
-0.010734052 -0.011807458 0.01266697
-0.0096398313 -0.011782016 0.012623727
-0.0085691931 -0.01178264 0.01263234
-0.0074467766 -0.011702077 0.013109595
-0.0063828449 -0.011701882 0.013665646
-0.0053183059 -0.011700273 0.014339
-0.0042554955 -0.011702613 0.014727622
-0.0031854743 -0.011680072 0.014968932
-0.0021097858 -0.011603821 0.015558869
-0.0010525866 -0.011578453 0.016078919
0 -0.011589886 0.016396999
0.0010646551 -0.011711206 0.016753286
0.0021205132 -0.011662822 0.017009109
0.0031485381 -0.011544639 0.017115146
0.004260615 -0.011716692 0.017171383
0.0052792993 -0.011614459 0.0169608
0.0063283592 -0.011601992 0.016571999
0.0074335518 -0.011681295 0.016069353
0.0084419493 -0.01160768 0.01587221
0.0095674377 -0.011693535 0.015766114
0.010685915 -0.011754506 0.015717268
0.01167465 -0.01167465 0.015713483
0.012773084 -0.011708661 0.015631914
0.013954433 -0.011807596 0.015609354
0.014748568 -0.01158816 0.015662968
0.015826188 -0.011605872 0.015703708
0.016924463 -0.011635568 0.015858918
0.017871689 -0.011564033 0.015862256
0.019226694 -0.011749648 0.016052961
0.020137494 -0.011658549 0.016081333
0.021073034 -0.011590169 0.015769303
0.022633882 -0.011855843 0.014838189
0.023652276 -0.011826138 0.014414042
0.024315234 -0.011629025 0.014299542
0.025619864 -0.011742437 0.013962686
0.026890129 -0.011831656 0.013749033
0.027773108 -0.011750161 0.01355356
0.029145246 -0.011873988 0.013365716
0.030229749 -0.011875972 0.01346904
0.031058781 -0.011780916 0.013346761
0.031401798 -0.011513992 0.013190567
0.03306783 -0.011733745 0.01322639
0.034541991 -0.011873809 0.01306513
0.034615938 -0.011538646 0.012883216
0.035944525 -0.011629111 0.013166487
0.037335966 -0.011734161 0.012919426
0.038416114 -0.011738257 0.012983084
0.039337318 -0.011694878 0.012922227
0.040923759 -0.011846351 0.012515932
0.04147492 -0.011698054 0.011881679
0.042299937 -0.011632483 0.01084727
0.044460334 -0.011928382 0.0094603896
0.045219894 -0.011843305 0.0084141195
0.046448585 -0.011882196 0.0067129135
0.048065189 -0.012016297 0.0055663884
-0.057623401 -0.01087234 0.0054648519
-0.056145769 -0.010797262 0.0064740777
-0.055188321 -0.010821238 0.0072091818
-0.0542349 -0.010846979 0.0077179074
-0.052659418 -0.01074682 0.0082610846
-0.052462947 -0.01092978 0.0087226331
-0.051145993 -0.010882125 0.0090497136
-0.04883251 -0.010615762 0.0092439055
-0.049275383 -0.010950085 0.0091613233
-0.047601745 -0.010818578 0.0094004571
-0.046490684 -0.010811787 0.0094931126
-0.045459624 -0.010823719 0.0094004571
-0.04360548 -0.010635482 0.009637028
-0.043013558 -0.010753389 0.0096815825
-0.042530529 -0.010905263 0.009645611
-0.041240029 -0.01085264 0.009578079
-0.040247191 -0.010877618 0.0095076263
-0.039441481 -0.010955967 0.0096102059
-0.037393656 -0.010683901 0.0098445415
-0.036326841 -0.010684364 0.010689735
-0.035855129 -0.010865191 0.01172632
-0.034528684 -0.010790214 0.012188494
-0.033580553 -0.010832435 0.012681842
-0.032195278 -0.010731759 0.012993187
-0.030796342 -0.010619427 0.01359123
-0.02991844 -0.010685157 0.01435706
-0.029022353 -0.010749019 0.014666229
-0.027706917 -0.010656507 0.015190929
-0.026920782 -0.010768313 0.015502185
-0.025433159 -0.010597149 0.015499681
-0.0244148 -0.01061513 0.015821576
-0.023546699 -0.010703045 0.015655011
-0.02212403 -0.010535252 0.015722215
-0.021260709 -0.010630354 0.01554817
-0.020153852 -0.01060729 0.015634
-0.019152321 -0.010640179 0.015453041
-0.017833516 -0.010490304 0.015063554
-0.01704154 -0.010650962 0.014956772
-0.015944179 -0.010629453 0.014266253
-0.014862112 -0.010615794 0.013990492
-0.013967226 -0.01074402 0.013818681
-0.012850692 -0.010708909 0.01364845
-0.011802095 -0.010729177 0.013243407
-0.010799958 -0.010799958 0.01297909
-0.009547771 -0.010608635 0.012989193
-0.0085678045 -0.010709756 0.012989193
-0.0074506784 -0.010643826 0.013216466
-0.0063646119 -0.010607687 0.013944477
-0.0053220065 -0.010644013 0.014497757
-0.0042640641 -0.010660159 0.014777064
-0.0032012269 -0.010670756 0.015020609
-0.0021235782 -0.01061789 0.015832543
-0.0010586902 -0.010586902 0.016318768
0 -0.010555238 0.016520739
0.0010532042 -0.010532042 0.016937464
0.0021194331 -0.010597166 0.017399609
0.0031748943 -0.010582981 0.017330617
0.0042440714 -0.010610178 0.017330617
0.0052674548 -0.01053491 0.016852647
0.0063401107 -0.010566851 0.016509086
0.0074028955 -0.010575565 0.016254038
0.0084995478 -0.010624434 0.016210377
0.0096355267 -0.010706141 0.01587373
0.010687225 -0.010687225 0.015866816
0.01171161 -0.010646918 0.015723646
0.012753449 -0.010627874 0.015706569
0.013667844 -0.010513726 0.015638828
0.014811792 -0.010579851 0.015699387
0.015815347 -0.010543565 0.015728056
0.016744308 -0.010465193 0.015915781
0.018119268 -0.010658392 0.016169518
0.019085458 -0.010603032 0.016292363
0.020018497 -0.010536051 0.016164899
0.021414127 -0.010707064 0.015916914
0.022320893 -0.010628996 0.014920205
0.023612311 -0.010732869 0.014671743
0.024715735 -0.010745971 0.014222354
0.025790939 -0.010746225 0.014134079
0.02677021 -0.010708083 0.013935566
0.02782237 -0.010700911 0.013616472
0.028861426 -0.010689416 0.01349169
0.03031515 -0.010826839 0.013335198
0.031535085 -0.010874167 0.01323384
0.032530818 -0.010843606 0.012976766
0.033088826 -0.010673814 0.013187617
0.034025084 -0.010632839 0.012620717
0.034495901 -0.010453303 0.012169868
0.036326841 -0.010684364 0.01280576
0.036951579 -0.010557594 0.012073547
0.038033947 -0.010564986 0.012096852
0.039708193 -0.010731943 0.011918068
0.04058513 -0.010680297 0.011494845
0.041565161 -0.010657733 0.010841608
0.04346725 -0.010866812 0.0099476278
0.044657145 -0.010891985 0.0088621378
0.045169357 -0.010754609 0.0072616339
0.047027547 -0.010936638 0.0062420666
-0.056092463 -0.0097083105 0.0054668188
-0.055197712 -0.0097407727 0.006360054
-0.053760201 -0.0096768355 0.0069824755
-0.052736618 -0.0096863173 0.0074412227
-0.051884968 -0.0097284308 0.0081418753
-0.051001012 -0.0097661503 0.0083790123
-0.049526252 -0.0096899178 0.008706212
-0.048501357 -0.0097002704 0.008777082
-0.047159288 -0.0096462183 0.0089676082
-0.046396982 -0.0097109964 0.0090806186
-0.045681275 -0.0097888438 0.0088345706
-0.043764681 -0.0096068801 0.0092334151
-0.043299958 -0.0097424909 0.0092334151
-0.042083442 -0.0097115627 0.0093119144
-0.040905766 -0.0096882069 0.0095010698
-0.040314689 -0.0098062754 0.009373188
-0.038608845 -0.0096522113 0.0095520318
-0.037391607 -0.0096149845 0.0096768141
-0.036415722 -0.009639455 0.010415852
-0.035670791 -0.0097283982 0.011719435
-0.03467267 -0.0097516878 0.012102544
-0.033247158 -0.0096524004 0.012592137
-0.031910859 -0.0095732566 0.01305604
-0.031045008 -0.0096346568 0.013699263
-0.029772069 -0.0095695937 0.014245272
-0.028669352 -0.0095564499 0.014558703
-0.027756 -0.0096078459 0.01491034
-0.026823506 -0.0096564619 0.015349656
-0.025634738 -0.0096130269 0.015463442
-0.024675203 -0.0096555138 0.015407771
-0.023403469 -0.009574146 0.015350997
-0.022267243 -0.0095431032 0.015231162
-0.021276578 -0.0095744599 0.015314311
-0.02004398 -0.0094945161 0.015526623
-0.019066857 -0.0095334286 0.015371025
-0.018146226 -0.0096068252 0.014840573
-0.017007465 -0.0095666982 0.014826953
-0.01592228 -0.0095533682 0.014002651
-0.014822054 -0.0095284628 0.013880461
-0.013812809 -0.009562714 0.013661563
-0.013013779 -0.0097603342 0.01328662
-0.011763247 -0.0096244747 0.013174176
-0.010736002 -0.0096624019 0.012909859
-0.0095911203 -0.0095911203 0.012839824
-0.008525406 -0.0095910812 0.01287356
-0.0074634925 -0.0095959185 0.013311833
-0.0064107049 -0.0096160574 0.01388064
-0.0052970261 -0.0095346468 0.01444453
-0.0042704134 -0.0096084299 0.01478374
-0.0031983079 -0.0095949238 0.015144497
-0.002114926 -0.0095171668 0.015735775
-0.0010555222 -0.0094996998 0.016195238
0 -0.0094761373 0.01649785
0.0010462563 -0.0094163055 0.017177492
0.0021080987 -0.0094864434 0.017399609
0.0032017825 -0.0096053472 0.017394423
0.0042533451 -0.0095700258 0.01785779
0.0053031216 -0.0095456187 0.01725778
0.0063401209 -0.0095101809 0.016729861
0.007373895 -0.0094807213 0.016622543
0.008547347 -0.009615765 0.01631248
0.0095362701 -0.0095362701 0.016169786
0.010648856 -0.0095839705 0.016134262
0.011729732 -0.0095970528 0.01587373
0.012639408 -0.0094795553 0.015770704
0.013716177 -0.0094958143 0.015717268
0.014868964 -0.009558619 0.015770882
0.015904006 -0.0095424028 0.01578337
0.016962634 -0.0095414808 0.015818983
0.018163828 -0.009616144 0.015866846
0.018964915 -0.0094824573 0.015837103
0.020480147 -0.0097011216 0.016100109
0.021356944 -0.009610625 0.015940368
0.02230176 -0.0095578963 0.015039623
0.023846712 -0.0097554727 0.014312655
0.024626212 -0.0096363435 0.014155775
0.025533969 -0.0095752385 0.013790697
0.026707906 -0.0096148457 0.013559878
0.027831919 -0.009634125 0.013218135
0.028815508 -0.0096051684 0.013187617
0.030536592 -0.0098153325 0.013237774
0.031156091 -0.0096691307 0.012672007
0.032204472 -0.0096613402 0.012162745
0.033245273 -0.0096518528 0.011879832
0.034062091 -0.0095799631 0.011586934
0.035522431 -0.009687935 0.011411905
0.036287677 -0.0096055614 0.011847347
0.036945254 -0.0095002083 0.011371762
0.038783707 -0.0096959267 0.011274695
0.039492674 -0.009606326 0.010995209
0.040398419 -0.0095680458 0.01026082
0.041709576 -0.0096252868 0.0098612905
0.043127693 -0.0097037312 0.0091440678
0.044527989 -0.0097744353 0.0081783533
0.045762755 -0.0098063042 0.0065498948
0.047066797 -0.0098511893 0.0054117739
-0.055034049 -0.0086327922 0.0054613352
-0.053974733 -0.0086359568 0.0056146979
-0.053614065 -0.0087533165 0.0066202879
-0.051573902 -0.008595651 0.0073096752
-0.05110044 -0.0086979475 0.0079629719
-0.049882665 -0.0086752456 0.0081943572
-0.048182216 -0.0085657267 0.0082524419
-0.047577705 -0.0086504919 0.0082951188
-0.046615753 -0.0086726984 0.0085952282
-0.045003764 -0.0085721454 0.0083103478
-0.044023089 -0.0085898703 0.0084326267
-0.043183342 -0.0086366693 0.0085066855
-0.042161379 -0.0086484877 0.008720845
-0.041392226 -0.0087141525 0.008646071
-0.039571118 -0.0085559171 0.0087429583
-0.038709246 -0.0086020548 0.0090406835
-0.037740048 -0.0086262971 0.0095479786
-0.036651015 -0.0086237686 0.010140955
-0.035871163 -0.0086960392 0.011464089
-0.034725059 -0.0086812647 0.011909366
-0.033292253 -0.0085915485 0.012508869
-0.03216058 -0.0085761547 0.012835145
-0.030829761 -0.0085047614 0.013510734
-0.029795777 -0.008513079 0.013959199
-0.028859729 -0.0085510304 0.014270991
-0.028029526 -0.0086244689 0.014523417
-0.026601322 -0.0085124224 0.015149355
-0.025573293 -0.0085244318 0.01513207
-0.024294352 -0.0084502092 0.015081435
-0.023341767 -0.0084879156 0.015233934
-0.022355357 -0.0085163265 0.015176237
-0.021228995 -0.0084915981 0.015331656
-0.020212807 -0.0085106548 0.015651554
-0.019219149 -0.0085418439 0.015304744
-0.018111981 -0.0085232854 0.014849097
-0.017054174 -0.008527087 0.014571398
-0.015972471 -0.0085186511 0.014030397
-0.014887664 -0.0085072368 0.014065266
-0.014026619 -0.0086317658 0.014032453
-0.013116843 -0.008744562 0.013878256
-0.011798729 -0.0085808942 0.013732046
-0.010779233 -0.0086233867 0.013400674
-0.0095740771 -0.0085102906 0.013221532
-0.0084887994 -0.0084887994 0.013249516
-0.0074472479 -0.0085111409 0.013656795
-0.0063225366 -0.0084300498 0.014246315
-0.005272314 -0.0084357029 0.014700681
-0.0042511323 -0.0085022645 0.014847636
-0.0032099995 -0.0085599991 0.015145183
-0.0021290598 -0.008516239 0.015777558
-0.0010599066 -0.0084792525 0.016197413
0 -0.0083802752 0.016573876
0.0010584434 -0.0084675476 0.017177492
0.002125402 -0.0085016079 0.017268598
0.0031736053 -0.0084629478 0.017387331
0.0042423536 -0.0084847072 0.017569423
0.0052610366 -0.0084176594 0.017058492
0.0063313143 -0.0084417528 0.016809076
0.0074643153 -0.0085306466 0.016425401
0.0084751472 -0.0084751472 0.016408712
0.0094747925 -0.0084220385 0.016250819
0.010626262 -0.00850101 0.016127497
0.011751805 -0.0085467668 0.015909553
0.012701503 -0.0084676687 0.015657693
0.013864237 -0.0085318387 0.015777618
0.014798957 -0.0084565468 0.015831232
0.015865555 -0.008461629 0.015832245
0.017009342 -0.008504671 0.015837103
0.018003261 -0.0084721223 0.015863329
0.01938468 -0.0086154146 0.015548289
0.020359745 -0.0085725244 0.01606673
0.021121833 -0.008448733 0.015850961
0.022420561 -0.0085411659 0.014829814
0.023473008 -0.0085356394 0.014265627
0.024369942 -0.0084765013 0.014075011
0.025761697 -0.0085872328 0.013433725
0.026376195 -0.0084403818 0.013304412
0.027684711 -0.0085183727 0.012938142
0.028904071 -0.0085641686 0.012555838
0.030122718 -0.0086064907 0.012255192
0.031413417 -0.0086657703 0.01204887
0.032705892 -0.0087215705 0.011116624
0.033454292 -0.0086333659 0.011064082
0.034797009 -0.0086992523 0.010632008
0.03501704 -0.0084889801 0.010381639
0.035895113 -0.0084459092 0.010995209
0.037982367 -0.0086816838 0.010437936
0.038562797 -0.0085695107 0.010207891
0.039335281 -0.0085049253 0.009986937
0.040981717 -0.0086277295 0.0093781948
0.041896343 -0.0085941218 0.0090846419
0.043032903 -0.008606581 0.0080277622
0.044905785 -0.0087621044 0.0065540373
0.045742244 -0.0087128077 0.0055631697
-0.053023502 -0.0075747864 0.0052089095
-0.052410174 -0.0076431506 0.0068338513
-0.051256478 -0.0076339436 0.0071801543
-0.049684376 -0.0075606657 0.0076257288
-0.049075935 -0.0076340339 0.0078088939
-0.047651902 -0.0075809848 0.0079221427
-0.04618001 -0.0075176759 0.0080691278
-0.045624677 -0.0076041124 0.0076191127
-0.044301141 -0.0075636092 0.0078957081
-0.043282408 -0.0075744214 0.0081822872
-0.04259403 -0.0076450827 0.0081687868
-0.040852156 -0.007525397 0.0081674159
-0.039271969 -0.0074298321 0.0081220567
-0.038617048 -0.0075088711 0.0088210702
-0.037431449 -0.0074862903 0.0090724528
-0.036737405 -0.0075635831 0.009755969
-0.036125474 -0.0076629794 0.010850936
-0.034584716 -0.0075654066 0.011806458
-0.033376712 -0.0075366762 0.012198746
-0.03181554 -0.0074236263 0.012559772
-0.030824147 -0.0074403109 0.013119847
-0.029982785 -0.0074956962 0.013598859
-0.028685344 -0.0074369409 0.014154494
-0.027583186 -0.0074262423 0.014470428
-0.0267775 -0.0074976999 0.014825851
-0.025448879 -0.0074225902 0.015102416
-0.02451947 -0.0074624475 0.015200585
-0.023618739 -0.0075150537 0.015200585
-0.022223435 -0.0074078119 0.015287369
-0.021491816 -0.0075221355 0.01520285
-0.02029706 -0.0074778637 0.015658259
-0.019032583 -0.0074015604 0.01529783
-0.018128362 -0.0074646194 0.0149661
-0.017086159 -0.007475195 0.014355272
-0.015830658 -0.0073876409 0.013926446
-0.014981339 -0.0074906694 0.014056832
-0.013955191 -0.0075143338 0.014008641
-0.012847619 -0.0074944445 0.014034599
-0.011923301 -0.0075875553 0.013857335
-0.010731589 -0.0075121126 0.013815522
-0.0095712338 -0.0074442932 0.014065444
-0.0085686818 -0.0074975961 0.013867289
-0.007427969 -0.007427969 0.014112413
-0.0063308794 -0.007386026 0.014788061
-0.0053213299 -0.0074498621 0.014871478
-0.0042527947 -0.0074423901 0.01508221
-0.0031896657 -0.0074425535 0.015255541
-0.002151229 -0.0075293016 0.015744716
-0.0010545913 -0.0073821391 0.016197413
0 -0.0074111819 0.016524166
0.0010519087 -0.0073633613 0.016896158
0.0021248918 -0.0074371216 0.017288625
0.0031684502 -0.0073930505 0.017387331
0.0042401142 -0.0074201999 0.017549306
0.0052765235 -0.0073871328 0.017319709
0.0063744043 -0.0074368054 0.016727537
0.0073550036 -0.0073550036 0.016408712
0.0083980095 -0.0073482585 0.016408712
0.0095816562 -0.0074523995 0.016169786
0.010613352 -0.0074293469 0.015970081
0.011677943 -0.0074314186 0.015863329
0.012898807 -0.0075243046 0.015450686
0.013771414 -0.0074153766 0.015610158
0.014728849 -0.0073644244 0.015515804
0.015844366 -0.0073940377 0.015452325
0.016833717 -0.0073647513 0.015515804
0.018204987 -0.0074961712 0.015575886
0.019237589 -0.0074812849 0.015165508
0.019943001 -0.0073474213 0.014989018
0.021409005 -0.0074931518 0.014569938
0.022300147 -0.0074333823 0.014080495
0.023300003 -0.0074136374 0.013612419
0.024592265 -0.0074846023 0.013241798
0.025549658 -0.0074519836 0.0130108
0.026651243 -0.0074623474 0.012917936
0.027825199 -0.0074913995 0.011847287
0.028925126 -0.0074991067 0.011323214
0.030105393 -0.0075263483 0.011307627
0.031466022 -0.0075952467 0.010936946
0.032328051 -0.0075432113 0.010182321
0.033491656 -0.0075626317 0.010048479
0.034421358 -0.0075296722 0.0097263157
0.034814153 -0.0073848204 0.0095958412
0.036592826 -0.0075338176 0.0097263157
0.03770354 -0.0075407079 0.0096154511
0.038050886 -0.0073987837 0.0092036128
0.039918866 -0.0075522177 0.0089840293
0.040999763 -0.0075525879 0.0081752837
0.041808367 -0.0075040655 0.0070709586
0.043709479 -0.0076491595 0.0065909624
0.044442873 -0.0075878073 0.0054594874
-0.050418977 -0.0064364648 0.0058375299
-0.050508294 -0.0065880385 0.0065968633
-0.04910244 -0.0065469919 0.006880343
-0.047637817 -0.0064960658 0.0069057643
-0.046580683 -0.0064996299 0.0070419014
-0.045679986 -0.0065257121 0.0064814389
-0.044509318 -0.0065135583 0.0067865551
-0.043813158 -0.0065719737 0.0071372986
-0.042075101 -0.0064730924 0.0070863664
-0.040720027 -0.0064294781 0.0067849159
-0.040443853 -0.006558462 0.006942302
-0.038721349 -0.0064535583 0.0085169077
-0.037685931 -0.0064604455 0.0091545284
-0.037052844 -0.0065387371 0.0095926225
-0.035968527 -0.0065397322 0.010404289
-0.034733914 -0.0065126084 0.011222035
-0.033304572 -0.0064460454 0.012091964
-0.031924438 -0.0063848873 0.012359738
-0.030941781 -0.0064017475 0.012870818
-0.029663838 -0.0063565369 0.013463974
-0.028780123 -0.0063955826 0.013997316
-0.027883271 -0.0064346008 0.01437071
-0.026810531 -0.0064345272 0.014587849
-0.0255244 -0.0063811 0.014708787
-0.024559664 -0.0064068683 0.014968276
-0.023454962 -0.0063968082 0.014985383
-0.02243658 -0.0064104511 0.015222728
-0.021537747 -0.0064613242 0.015143931
-0.02007572 -0.0063397004 0.015436083
-0.019248234 -0.0064160782 0.015140057
-0.018263716 -0.0064460174 0.014784455
-0.017032269 -0.006387101 0.014206886
-0.01607074 -0.0064282957 0.013840914
-0.014950384 -0.0064073075 0.0139893
-0.013951796 -0.0064392905 0.013878256
-0.012991475 -0.0064957375 0.013878256
-0.011835291 -0.0064556138 0.013857335
-0.010702158 -0.0064212955 0.013893664
-0.0096862754 -0.0064575169 0.013779581
-0.0085090483 -0.0063817864 0.013743371
-0.007437232 -0.0063747698 0.014005274
-0.0063885623 -0.0063885623 0.014640152
-0.0052840537 -0.0063408646 0.014835596
-0.0042654043 -0.006398106 0.014957666
-0.0032164988 -0.0064329975 0.015186965
-0.0021381474 -0.0064144419 0.015584439
-0.0010576216 -0.0063457293 0.016050965
0 -0.0063340436 0.016373307
0.0010546341 -0.0063278046 0.016573876
0.0021300996 -0.0063902987 0.017185986
0.0031645549 -0.0063291099 0.016859859
0.0042337021 -0.0063505531 0.017393708
0.0052895402 -0.0063474486 0.01714614
0.0063128481 -0.0063128481 0.016628891
0.0074222968 -0.0063619683 0.016378731
0.0085392836 -0.0064044623 0.016332984
0.0095184101 -0.0063456069 0.016166598
0.010611344 -0.0063668066 0.016038358
0.011793727 -0.0064329421 0.0157772
0.012804262 -0.0064021312 0.015297145
0.013840891 -0.0063881036 0.015457332
0.015021186 -0.0064376513 0.015225887
0.015811196 -0.006324478 0.014951497
0.017075157 -0.0064031836 0.014956355
0.018065929 -0.0063762101 0.014625728
0.019173684 -0.0063912282 0.014523268
0.020242341 -0.0063923178 0.014480948
0.021223541 -0.0063670622 0.014063805
0.022157848 -0.0063308133 0.013714284
0.023458982 -0.0063979039 0.013314664
0.024607262 -0.0064192852 0.012710899
0.025498109 -0.0063745272 0.012702912
0.026515407 -0.0063636974 0.012355089
0.027801014 -0.006415619 0.011107266
0.028760413 -0.0063912026 0.010784209
0.030385893 -0.0065112626 0.010262489
0.03090651 -0.0063944501 0.0096678138
0.032431494 -0.0064862985 0.0091145039
0.03395468 -0.0065718731 0.0089898109
0.034551103 -0.006478332 0.0086709261
0.035653714 -0.0064824936 0.0088758767
0.036852494 -0.0065033808 0.0085635185
0.037437215 -0.0064178081 0.0085095763
0.038771626 -0.0064619379 0.0072715878
0.039778959 -0.0064506414 0.0070709586
0.040754627 -0.0064349407 0.0064661801
0.042647809 -0.0065612011 0.0057844818
-0.050535083 -0.0054929433 0.0055052042
-0.048318882 -0.005368764 0.0055460632
-0.047743432 -0.0054253899 0.0056533217
-0.046978489 -0.0054626148 0.0056614876
-0.044774886 -0.0053303433 0.005554229
-0.044851519 -0.0054696971 0.0055446923
-0.043579254 -0.0054474068 0.0058511198
-0.042090733 -0.0053962478 0.0064231753
-0.041392609 -0.0054463958 0.0062223375
-0.040058862 -0.0054133595 0.0064673126
-0.039089937 -0.005429158 0.0071615875
-0.038144276 -0.0054491824 0.0084875524
-0.037103683 -0.0054564239 0.0094320476
-0.036015872 -0.0054569505 0.010109782
-0.034538668 -0.0053966669 0.010974884
-0.032776173 -0.0052864794 0.011883467
-0.032217372 -0.0053695617 0.012488246
-0.031053938 -0.0053541269 0.012871087
-0.029813016 -0.0053237528 0.013198674
-0.028863227 -0.0053450419 0.01390323
-0.027816202 -0.0053492696 0.014140874
-0.026730819 -0.0053461636 0.014531344
-0.025631905 -0.0053399801 0.014633089
-0.024332302 -0.0052896305 0.014520645
-0.023363354 -0.0053098528 0.014656365
-0.022415612 -0.0053370502 0.01505658
-0.021117093 -0.0052792733 0.01524815
-0.020013921 -0.0052668215 0.015381157
-0.019117331 -0.0053103697 0.015284449
-0.018110042 -0.0053264829 0.014956772
-0.016948052 -0.0052962657 0.014404327
-0.015980812 -0.005326937 0.013965994
-0.014886064 -0.0053164512 0.014096379
-0.014090911 -0.0054195807 0.014034599
-0.0129144 -0.0053809998 0.014057249
-0.011749884 -0.0053408565 0.014370561
-0.010847593 -0.0054237964 0.014126539
-0.0096026724 -0.0053348183 0.014151186
-0.0085839545 -0.0053649712 0.014151186
-0.0074635176 -0.0053310837 0.014197171
-0.0063642743 -0.0053035622 0.014823109
-0.0052961237 -0.0052961237 0.014985949
-0.0042616492 -0.0053270613 0.014974296
-0.0031975871 -0.0053293118 0.015222728
-0.0021173691 -0.0052934228 0.015486628
-0.0010658889 -0.0053294445 0.015928835
0 -0.0052203238 0.016212165
0.0010663157 -0.0053315782 0.016339868
0.0021226124 -0.0053065312 0.016434848
0.0031708824 -0.0052848039 0.016686797
0.0041962913 -0.0052453643 0.016727567
0.0052186963 -0.0052186963 0.016388178
0.0063013602 -0.0052511333 0.016376466
0.0074293795 -0.0053066993 0.016249478
0.0084683765 -0.0052927351 0.01581654
0.0094874669 -0.005270815 0.015500218
0.010670222 -0.0053351112 0.015304327
0.011733794 -0.0053335428 0.014926881
