ply
format ascii 1.0
comment PCL generated
element vertex 1279
property float x
property float y
property float z
element camera 0
property float view_px
property float view_py
property float view_pz
property float x_axisx
property float x_axisy
property float x_axisz
property float y_axisx
property float y_axisy
property float y_axisz
property float z_axisx
property float z_axisy
property float z_axisz
property float focal
property float scalex
property float scaley
property float centerx
property float centery
property int viewportx
property int viewporty
property float k1
property float k2
end_header
0.031839628 -0.11308558 0.0052890778
0.036878787 -0.11172103 0.0052878261
0.038964912 -0.11466817 0.0055600107
0.039402828 -0.11273587 0.0059455931
0.039879449 -0.11101575 0.0066242516
0.041699111 -0.11302654 0.0076565146
0.043002397 -0.11357044 0.0084266663
0.043822192 -0.11284215 0.0092898309
0.044365119 -0.11145384 0.009625107
0.044829287 -0.10993849 0.010587156
0.045855034 -0.1098388 0.011336327
0.047475394 -0.11113559 0.011273712
0.047778446 -0.10935955 0.011361897
0.048913706 -0.10952417 0.011273712
0.050545439 -0.11076979 0.011398464
0.05087468 -0.10916859 0.011234105
0.051802207 -0.10889035 0.010367423
0.054778785 -0.11284429 0.0090612769
0.053810723 -0.10867656 0.0079839528
0.056077279 -0.11107615 0.0062824488
-0.071422681 -0.11038052 0.0050235093
-0.071068741 -0.11152326 0.0067463815
-0.070184343 -0.11185629 0.007807076
-0.066853508 -0.10823901 0.0083858967
-0.066094875 -0.10873673 0.009075433
-0.067255251 -0.1124596 0.0092140436
-0.065098666 -0.11066774 0.0092320442
-0.064287513 -0.11114112 0.0091248751
-0.063385457 -0.11147097 0.0089467764
-0.061262324 -0.10962732 0.0083172321
-0.060705502 -0.11057074 0.0084905028
-0.059730746 -0.11077338 0.008051306
-0.059118733 -0.11166872 0.0076436698
-0.057709523 -0.11106361 0.0074132979
-0.057387721 -0.11256822 0.0071548223
-0.055469479 -0.11093896 0.0066734552
-0.055952113 -0.11414231 0.006816566
-0.053940274 -0.11228384 0.0069453716
-0.052812036 -0.11222558 0.0067386031
-0.051497005 -0.11175946 0.0066268444
-0.049555931 -0.10988489 0.0060308576
-0.049072914 -0.11123194 0.0056474805
-0.047648389 -0.11045763 0.0051995218
0.02890713 -0.10920471 0.006306231
0.030449966 -0.11092488 0.0067616701
0.03174758 -0.1116639 0.0063932538
0.031890851 -0.1084289 0.0068676174
0.033612855 -0.11059713 0.0071088374
0.034839682 -0.11105148 0.0073764324
0.035181098 -0.10874158 0.0076770782
0.037127052 -0.11138116 0.0082912743
0.038699698 -0.11278197 0.0082891285
0.038714353 -0.10969067 0.0082522035
0.040079605 -0.11048972 0.0085889101
0.041484747 -0.11135379 0.0090886652
0.041541457 -0.10864688 0.0096845329
0.043488383 -0.11089538 0.010502487
0.043615323 -0.10850641 0.011024535
0.044535022 -0.10815648 0.011085927
0.045960646 -0.10902293 0.011204958
0.047195997 -0.10940891 0.011672348
0.04845706 -0.109836 0.011565328
0.049139947 -0.10896249 0.011565328
0.050346434 -0.10926247 0.011741877
0.050273836 -0.1068319 0.011908084
0.052180793 -0.10862125 0.011386395
0.053283256 -0.10869784 0.010092467
0.054987993 -0.10997599 0.0097402036
0.056198873 -0.11023626 0.0079634488
0.056181367 -0.10812264 0.0055294633
-0.07167948 -0.11137889 0.0067092776
-0.068217374 -0.10765555 0.0076687634
-0.068483025 -0.10979025 0.0079043508
-0.068355381 -0.11135311 0.0084286332
-0.065928116 -0.10915968 0.0083031356
-0.065435052 -0.11014901 0.008621186
-0.064715251 -0.11078374 0.0084781945
-0.062227271 -0.10836128 0.0084063709
-0.06228625 -0.11036687 0.0084609985
-0.060783692 -0.10962773 0.0082700253
-0.058940627 -0.10823642 0.008292973
-0.058868494 -0.11010589 0.0081847012
-0.058302775 -0.11110529 0.0081659853
-0.057201788 -0.11110348 0.0081701577
-0.056498498 -0.11188918 0.0081487894
-0.054576408 -0.11024435 0.0080845356
-0.053226933 -0.10971266 0.0079850852
-0.051836807 -0.10907329 0.0080324411
-0.049873598 -0.10717519 0.0080845356
-0.049477004 -0.10863429 0.0078132153
-0.04901455 -0.11001044 0.0078683794
-0.046952225 -0.10777671 0.0073037744
-0.047370825 -0.11126636 0.006380856
-0.046169452 -0.11102654 0.0062192082
-0.04393775 -0.1082369 0.0057646632
-0.044156648 -0.11149555 0.0053959489
0.025951466 -0.10921242 0.0050838292
0.027136596 -0.10963185 0.0062153041
0.028055232 -0.10898379 0.0074905753
0.029161621 -0.10908606 0.0086393952
0.030003946 -0.10822852 0.0091588497
0.03108744 -0.10827005 0.0092748702
0.032127339 -0.10816205 0.0093057752
0.033806402 -0.11014344 0.010456234
0.033866316 -0.10689056 0.010224998
0.035736751 -0.10937612 0.010486126
0.037080925 -0.11015216 0.010762423
0.037227798 -0.1074288 0.010284215
0.039222799 -0.11004175 0.0094309449
0.04053469 -0.11064875 0.0093498528
0.041003689 -0.10898349 0.010425031
0.041471887 -0.10740156 0.010736734
0.042443108 -0.10716885 0.011173546
0.043817151 -0.1079398 0.01157403
0.045623519 -0.1097137 0.011610955
0.045793064 -0.10756045 0.011753738
0.047071211 -0.10804983 0.011981308
0.048091546 -0.1079388 0.011918843
0.049482409 -0.10864616 0.011810988
0.050348457 -0.10819562 0.011572331
0.051938284 -0.10928681 0.012142062
0.051587235 -0.10633288 0.011245996
0.054432619 -0.1099539 0.009919554
0.055448186 -0.10980915 0.0095770061
0.056314208 -0.10937952 0.0081053078
0.057233684 -0.10906797 0.0059644282
-0.071067534 -0.10933467 0.0052194595
-0.069356635 -0.10836975 0.0060080886
-0.069170967 -0.10979518 0.0065574348
-0.067110986 -0.10824353 0.0071997643
-0.066519536 -0.10904842 0.007258445
-0.065655559 -0.10942593 0.0083708465
-0.063215278 -0.10714454 0.0082160532
-0.06267783 -0.10806523 0.0082319081
-0.062369131 -0.10941953 0.0084063709
-0.061035611 -0.10899217 0.0089259148
-0.060777608 -0.11050474 0.0087576807
-0.059051566 -0.10935475 0.0089420378
-0.058181185 -0.10977583 0.009098053
-0.056987863 -0.10959205 0.0094062984
-0.054776851 -0.1074056 0.0094799995
-0.053351488 -0.10670298 0.009808898
-0.052846346 -0.10784969 0.010184884
-0.050885536 -0.10601154 0.010230631
-0.050623685 -0.10770997 0.010350913
-0.049919646 -0.10852097 0.010344088
-0.047513638 -0.10558586 0.0099709034
-0.047564577 -0.10810132 0.0088472962
-0.04687988 -0.10902298 0.008571744
-0.04485184 -0.1067901 0.0082395077
-0.0441131 -0.10759292 0.0073470473
-0.043292258 -0.10823065 0.0062897205
-0.042610124 -0.10925674 0.0055252016
0.021090936 -0.11100493 0.0059784055
0.021687943 -0.10843973 0.0060537457
0.022692682 -0.1080604 0.0066316128
0.024247227 -0.11021468 0.0067178905
0.024585297 -0.10689259 0.0067553222
0.026350843 -0.10979518 0.0072932839
0.027260335 -0.10904134 0.0088459551
0.0279643 -0.107555 0.0097201169
0.029024186 -0.10749698 0.010554492
0.029866258 -0.10666521 0.010793954
0.030987646 -0.10685395 0.010893762
0.032413494 -0.10804499 0.011326194
0.032714453 -0.10553049 0.011394203
0.034071166 -0.10647239 0.011293322
0.035446394 -0.10741332 0.011616617
0.036367051 -0.10696192 0.01251632
0.037259962 -0.10645704 0.011910558
0.038416296 -0.10671195 0.011165351
0.038803574 -0.10487453 0.010752797
0.041730575 -0.1098173 0.011109859
0.043340508 -0.11112951 0.011153847
0.043113265 -0.10778317 0.011853397
0.044354443 -0.10818157 0.011913598
0.046409026 -0.11049768 0.011934817
0.045827422 -0.10657541 0.011936784
0.048025265 -0.10914833 0.012160212
0.047545392 -0.10565643 0.012027144
0.049278714 -0.10712764 0.01186958
0.051253513 -0.10905003 0.011574298
0.05068247 -0.10558848 0.012143195
0.052411716 -0.1069627 0.011245996
0.052978583 -0.10595717 0.010189831
0.053866647 -0.10562088 0.0096177161
0.056319501 -0.10830674 0.0089494288
0.05746286 -0.1084205 0.0067962706
-0.067931473 -0.10674946 0.0058435202
-0.067588523 -0.10792361 0.0063592494
-0.066939831 -0.10864006 0.0065842569
-0.064775988 -0.10688038 0.0068125129
-0.064381994 -0.1080308 0.0078364313
-0.063641898 -0.10863014 0.0079581738
-0.061509334 -0.10683201 0.0082982183
-0.061409015 -0.10856237 0.0085844696
-0.060315657 -0.10856818 0.00940153
-0.058248919 -0.10678969 0.0096414983
-0.057514649 -0.10743303 0.010293335
-0.055405345 -0.10548326 0.010119319
-0.054251235 -0.10531122 0.010506928
-0.053984568 -0.10688944 0.010956258
-0.052401677 -0.10587278 0.010961354
-0.05127899 -0.10576292 0.01158303
-0.051078618 -0.10759113 0.011765003
-0.049626525 -0.10680492 0.01158303
-0.048491701 -0.10668175 0.011155725
-0.046879984 -0.10547997 0.010069132
-0.045902077 -0.10568153 0.0098207295
-0.04489021 -0.10581264 0.0096062124
-0.04391652 -0.10604233 0.0091482401
-0.042982757 -0.10638233 0.0083352625
-0.042287849 -0.10734608 0.0065805614
-0.040939562 -0.10665834 0.006115675
-0.04020467 -0.10757466 0.0060787499
0.016226165 -0.1070927 0.0050463676
0.017108552 -0.10585918 0.0057244897
0.018503824 -0.10775757 0.0064556599
0.019594524 -0.10776989 0.0067204535
0.020819042 -0.10847817 0.0078945756
0.02189808 -0.1083955 0.0083045661
0.023240974 -0.10956459 0.0086326003
0.023775073 -0.10698783 0.0087286532
0.024844319 -0.10693859 0.0087311864
0.026000347 -0.10725144 0.0093742311
0.026856769 -0.10635281 0.010500461
0.028000582 -0.10661761 0.010834485
0.029458929 -0.10801607 0.011254877
0.030432636 -0.10760111 0.011357874
0.031163236 -0.10638484 0.011520058
0.031979006 -0.10553072 0.012293935
0.033997837 -0.10857374 0.012411147
0.034693398 -0.10733271 0.012750775
0.034516875 -0.10355064 0.012792766
0.036500525 -0.10628095 0.013258696
0.037723374 -0.10670326 0.012946516
0.038028941 -0.10457959 0.012085885
0.039860032 -0.10665252 0.011913598
0.040905967 -0.10657081 0.011826694
0.041619092 -0.10564847 0.012110025
0.04342578 -0.10747881 0.012156695
0.044066243 -0.10640385 0.01220575
0.044947091 -0.10594672 0.012206376
0.046226099 -0.10642754 0.012208343
0.047193326 -0.10618499 0.012901872
0.047985975 -0.10556914 0.011955768
0.049355935 -0.10622256 0.011820287
0.050130565 -0.10559417 0.011526167
0.051786952 -0.10681059 0.011323303
0.052974798 -0.10703072 0.010454953
0.053100243 -0.10513849 0.0097504258
0.054392036 -0.10558455 0.009213388
0.056385566 -0.10734945 0.0083640814
0.056668341 -0.10585219 0.0063281357
-0.067557909 -0.10678507 0.0056834817
-0.066395357 -0.10666794 0.0060854554
-0.065836065 -0.10753223 0.0064978004
-0.063536592 -0.10553536 0.0075482428
-0.062627092 -0.10581817 0.0079590082
-0.061724942 -0.10612358 0.0088346004
-0.061177831 -0.1070612 0.0093357265
-0.059946481 -0.10681372 0.010482162
-0.058329731 -0.10585766 0.010573566
-0.056006465 -0.10355912 0.010738999
-0.05558978 -0.10476536 0.010744035
-0.054513067 -0.1047506 0.010959953
-0.053662699 -0.10517889 0.012224436
-0.052002303 -0.10400461 0.011773527
-0.05155402 -0.10525613 0.011890173
-0.049653195 -0.10353219 0.011912525
-0.048969995 -0.10432737 0.011886537
-0.048368514 -0.10533587 0.011458427
-0.046645187 -0.10389155 0.010856509
-0.04624505 -0.10539569 0.010540694
-0.045123871 -0.10528903 0.0099980831
-0.04374605 -0.10456373 0.0099821687
-0.043363515 -0.10624062 0.0097724795
-0.04216272 -0.10594734 0.008746475
-0.041108798 -0.10601743 0.0075607002
-0.040007394 -0.10596552 0.006901741
-0.038775124 -0.10555451 0.0061112344
-0.038255271 -0.10711475 0.0050722063
0.012008072 -0.106981 0.0053977072
0.013160631 -0.10747848 0.0057297647
0.014262456 -0.10751697 0.0066357553
0.015229076 -0.10660353 0.0069530606
0.016200064 -0.10584041 0.0071871281
0.017310685 -0.10602795 0.007577002
0.018529639 -0.10681791 0.0082863271
0.019137273 -0.10419182 0.0090970695
0.020623151 -0.10637204 0.010012239
0.021727387 -0.10646419 0.0097283423
0.022414779 -0.10460229 0.010037065
0.023747202 -0.10578299 0.010123074
0.025171505 -0.10725249 0.010085374
0.025972819 -0.10605568 0.010253906
0.026935853 -0.10558854 0.010910094
0.028056731 -0.10575229 0.011513114
0.028657403 -0.10401575 0.011948347
0.029831456 -0.1044101 0.012428522
0.031354282 -0.10595584 0.012444556
0.032057721 -0.10472189 0.013055831
0.033504851 -0.10591856 0.013226956
0.034350641 -0.10519884 0.013501853
0.035692044 -0.10599454 0.013737172
0.036567733 -0.10540111 0.014035165
0.037206046 -0.10417693 0.0137721
0.038940798 -0.1060055 0.013160735
0.040029217 -0.10602333 0.01287654
0.039952442 -0.10303524 0.013036102
0.041410796 -0.1040579 0.01317963
0.042611357 -0.10439782 0.013186395
0.044504751 -0.10637721 0.013162076
0.045415871 -0.10597036 0.012671888
0.046594586 -0.10619231 0.012840658
0.047546893 -0.1058999 0.012671888
0.0488136 -0.10630517 0.012108415
0.049208254 -0.10483497 0.012067646
0.050977904 -0.10629436 0.011050016
0.051960621 -0.10608627 0.010892093
0.052466251 -0.1049325 0.010060549
0.054588679 -0.1069938 0.009106338
0.055088595 -0.10585651 0.008901298
0.055351462 -0.10431621 0.0070571601
0.057447877 -0.10622438 0.0052641332
-0.067178123 -0.10510124 0.0056090653
-0.066586494 -0.10588343 0.0060481429
-0.066253133 -0.10710923 0.0065413713
-0.063693546 -0.1047165 0.0074730814
-0.063611954 -0.10638551 0.0081543922
-0.062612958 -0.10655188 0.0089870095
-0.061041404 -0.10573243 0.010275185
-0.059350424 -0.10467256 0.010816693
-0.057721827 -0.1036855 0.01112476
-0.056337196 -0.1031077 0.011238575
-0.055703804 -0.10390902 0.011477023
-0.054720912 -0.10407703 0.012241751
-0.053760774 -0.10429589 0.012839913
-0.052602701 -0.10413188 0.012812883
-0.050648127 -0.10235142 0.012806058
-0.050904479 -0.10505817 0.012609631
-0.049103476 -0.10354428 0.012475967
-0.048022248 -0.10351462 0.012056679
-0.04735617 -0.10439882 0.011375189
-0.045868415 -0.10347061 0.011237025
-0.04427059 -0.10224398 0.010718703
-0.04478154 -0.10594656 0.010586292
-0.042963576 -0.10418668 0.010108531
-0.042244278 -0.1050691 0.0098180771
-0.041464105 -0.10584258 0.0087877214
-0.039988738 -0.10483533 0.0079534352
-0.039320059 -0.10594571 0.0067531168
-0.037973333 -0.10524038 0.0060313046
-0.007637979 -0.10584056 0.0063195527
-0.0064607006 -0.10444799 0.0056696236
0.010855847 -0.10530172 0.0055740774
0.012009111 -0.10589853 0.0068719983
0.012915153 -0.10439749 0.0072015524
0.013784803 -0.10285583 0.0079354644
0.015037178 -0.10418616 0.0081464052
0.016095674 -0.10408536 0.0087839067
0.017308313 -0.10493165 0.0091614723
0.018270532 -0.1042495 0.0097030103
0.019551069 -0.10535854 0.0099753439
0.020730592 -0.10583512 0.010091394
0.021176387 -0.10270547 0.010153204
0.022840252 -0.10550021 0.010833919
0.023851953 -0.10516543 0.010848075
0.024419805 -0.10298787 0.010672987
0.025913887 -0.10473529 0.010701269
0.026840389 -0.10414071 0.011578918
0.028046669 -0.10463565 0.01211825
0.029588638 -0.10629991 0.013066262
0.030053813 -0.10411499 0.013446897
0.031368803 -0.10492323 0.013318926
0.03179061 -0.10278964 0.013782293
0.033095378 -0.1035565 0.014042825
0.034022424 -0.10313047 0.014197409
0.035191994 -0.10344313 0.014716148
0.03534371 -0.10083352 0.015167564
0.03740916 -0.10367681 0.015208691
0.038584746 -0.10396446 0.01416114
0.039346714 -0.10315219 0.013623416
0.040201709 -0.10262015 0.013653666
0.041392997 -0.10295181 0.013368189
0.04244455 -0.10292803 0.013321012
0.044926595 -0.10628974 0.013042867
0.04549868 -0.10508028 0.013156414
0.045526281 -0.10269882 0.013036549
0.04716691 -0.10398159 0.012664258
0.048597474 -0.10475454 0.01186958
0.049187455 -0.10372137 0.011522502
0.0508436 -0.10493253 0.010391384
0.051159497 -0.10338482 0.010035366
0.052585401 -0.10409763 0.009565562
0.053896073 -0.10455838 0.0087646246
0.055311758 -0.1052008 0.0084008574
0.056107342 -0.10466177 0.0067613423
-0.065557487 -0.10317244 0.0058120489
-0.064730637 -0.10356902 0.0064301789
-0.065072685 -0.10588098 0.0074730814
-0.064733788 -0.10714558 0.0083357692
-0.061074592 -0.10286247 0.009316057
-0.060404412 -0.10355042 0.010565281
-0.058145694 -0.10149067 0.011088133
-0.057376407 -0.1020025 0.011333823
-0.056368791 -0.10210197 0.012339354
-0.05544753 -0.10236467 0.012503952
-0.05459559 -0.10276817 0.012958765
-0.054200046 -0.10406408 0.013293743
-0.052964035 -0.10376628 0.013294876
-0.0512335 -0.102467 0.013176471
-0.049894858 -0.1019129 0.013127625
-0.048502281 -0.10122215 0.013040453
-0.048394103 -0.10324075 0.012502819
-0.048062496 -0.10486363 0.01201278
-0.045095529 -0.10067838 0.011995107
-0.045368273 -0.10369891 0.011524767
-0.044743925 -0.10476626 0.011387646
-0.043145996 -0.10355039 0.011093199
-0.042410877 -0.10439601 0.010145664
-0.041047812 -0.10369973 0.0097019672
-0.039945804 -0.10364316 0.0089583695
-0.039295524 -0.10478807 0.0086423457
-0.037221491 -0.10209323 0.0069456995
-0.037145771 -0.10488217 0.00589481
-0.036210515 -0.10533968 0.0053048432
-0.0095277671 -0.10162952 0.0063096881
-0.008556813 -0.10268176 0.0068612397
-0.007411601 -0.10164481 0.0080391169
-0.0064334362 -0.10293498 0.0086221099
-0.0053364704 -0.10246024 0.0080270171
-0.0042401198 -0.10176288 0.0072598755
-0.003268735 -0.10459952 0.006131947
0.0085862158 -0.10303459 0.0054515302
0.0098222587 -0.10477076 0.0063750744
0.011053489 -0.10611349 0.0078142285
0.01186665 -0.10356349 0.0089990497
0.013073285 -0.10458628 0.0095851719
0.014103899 -0.10415187 0.009778589
0.014788564 -0.1014073 0.010484695
0.016098615 -0.10303114 0.010605574
0.016885899 -0.10131539 0.011253953
0.018415881 -0.10399556 0.011701643
0.019377736 -0.10334793 0.012149662
0.01994114 -0.10075524 0.01232174
0.021771174 -0.10450163 0.012517035
0.022701532 -0.10377842 0.012275487
0.023017546 -0.1004402 0.012275487
0.024989212 -0.10430279 0.011940211
0.025648752 -0.10259501 0.012172282
0.026457632 -0.1015973 0.012641907
0.028214911 -0.10417813 0.012963921
0.028891375 -0.10272489 0.013618857
0.03024644 -0.10370208 0.013624787
0.031324852 -0.10369606 0.013653547
0.032285858 -0.10331474 0.013926893
0.033214945 -0.10285918 0.014109433
0.034707557 -0.10412267 0.014607728
0.03518267 -0.10234959 0.014877886
0.036786146 -0.10386676 0.01538071
0.037324876 -0.1023768 0.015221298
0.038400318 -0.10240085 0.014907509
0.038980041 -0.1011374 0.01416114
0.041343957 -0.10444789 0.013806701
0.041289773 -0.10163637 0.0135611
0.041779242 -0.10027018 0.013642222
0.043174006 -0.10109035 0.013306558
0.044848025 -0.10250977 0.013055325
0.046933938 -0.10478274 0.012972325
0.046775851 -0.1020564 0.012190044
0.048452456 -0.10336523 0.011528164
0.050819788 -0.10605869 0.010531187
0.050390456 -0.10292518 0.010830998
0.051677313 -0.10335463 0.0099721253
0.053044815 -0.10392454 0.0090460777
0.052881606 -0.10153268 0.0084912181
0.055159763 -0.10383014 0.0075029731
0.056937184 -0.1051148 0.0066251159
-0.066674776 -0.10383777 0.0057651103
-0.065812536 -0.10420319 0.0064255595
-0.064841919 -0.10440648 0.0075337887
-0.062231325 -0.10193061 0.0083213747
-0.062093191 -0.10348865 0.0093050301
-0.060635421 -0.10286366 0.010735661
-0.059099674 -0.10208125 0.011063695
-0.057900593 -0.10186215 0.011519402
-0.056515492 -0.10130136 0.012759775
-0.055404905 -0.1012205 0.012859702
-0.055220474 -0.10286167 0.013040453
-0.053661909 -0.10195763 0.013292909
-0.052511483 -0.10180798 0.013002962
-0.051872987 -0.10266529 0.013230711
-0.049922679 -0.10090754 0.013025492
-0.049329396 -0.10187592 0.01284188
-0.048301693 -0.10197024 0.012441099
-0.046025921 -0.099374153 0.012064815
-0.046432428 -0.10258327 0.011950761
-0.045579545 -0.10309658 0.011732876
-0.044146925 -0.10229165 0.011460751
-0.043708645 -0.10380803 0.011208504
-0.042271081 -0.10296802 0.010400832
-0.041068558 -0.10267138 0.010288924
-0.040241461 -0.10332267 0.009414494
-0.038902678 -0.10265985 0.0096062124
-0.037660282 -0.10222077 0.0088270903
-0.037305314 -0.10423543 0.0076054633
-0.036184002 -0.10416607 0.0067531168
-0.034751646 -0.10316895 0.0058091879
-0.034647521 -0.10617788 0.0051587522
-0.013364592 -0.10580301 0.0052154958
-0.012033172 -0.10392285 0.0058829188
-0.010753701 -0.10216016 0.0067994297
-0.0096004046 -0.10133761 0.0087682009
-0.0084306784 -0.10011431 0.01064527
-0.0075283102 -0.10216992 0.012148589
-0.0064228326 -0.10169484 0.012289226
-0.0052869851 -0.10045271 0.012341768
-0.0042581754 -0.10113166 0.011899441
-0.0032983448 -0.10444759 0.010554522
-0.0021471982 -0.10199191 0.0087356269
-0.0011229079 -0.10667624 0.0063605607
0.0065096756 -0.10306986 0.005279541
0.0074705947 -0.10138664 0.0065067112
0.0086603425 -0.10284157 0.0074802637
0.0097488016 -0.10290402 0.0080086887
0.010880619 -0.10336588 0.0092793107
0.011952282 -0.10322426 0.01041019
0.013002385 -0.10293555 0.010605574
0.013904501 -0.10160982 0.011465579
0.015265069 -0.10358439 0.012165368
0.015925393 -0.10086082 0.012515992
0.017215064 -0.10221443 0.012649685
0.018190471 -0.10165264 0.012828529
0.018788034 -0.099159069 0.013021618
0.020137042 -0.1006852 0.013193965
0.021417245 -0.10173191 0.013286263
0.02208475 -0.099907205 0.013191551
0.023553129 -0.1017067 0.013364434
0.025061863 -0.10351638 0.013068438
0.025731418 -0.10185353 0.012599021
0.027106132 -0.1030033 0.012989819
0.02810917 -0.10270658 0.013243318
0.029049879 -0.10221253 0.013880938
0.030202126 -0.1024715 0.013880938
0.030994073 -0.1015323 0.013742149
0.032238323 -0.10208802 0.01405254
0.033378474 -0.10228887 0.014369011
0.033640642 -0.099870652 0.014778525
0.035504896 -0.10221106 0.014909595
0.036859047 -0.10298851 0.015477985
0.036410663 -0.098828949 0.015276819
0.038613327 -0.10189629 0.014933467
0.039222691 -0.1007069 0.014412254
0.039865345 -0.099663354 0.013876945
0.041552439 -0.10121748 0.013617903
0.043141797 -0.10246178 0.013555586
0.043689478 -0.10123172 0.013314486
0.045358937 -0.10259759 0.01278162
0.045628153 -0.10080639 0.012292475
0.047946587 -0.10352104 0.01177448
0.048580341 -0.10255849 0.011078298
0.049844682 -0.1029401 0.010241061
0.051183142 -0.10345529 0.0099916756
0.052014407 -0.10294519 0.0094589889
0.052687563 -0.10214936 0.0085808933
0.053767916 -0.10215904 0.0080623627
0.055757932 -0.10386281 0.0069883764
0.05606598 -0.10242823 0.0050796568
-0.066954829 -0.1031763 0.0055758655
-0.065464467 -0.102561 0.006750375
-0.062891111 -0.10019939 0.0074960589
-0.06211888 -0.10067543 0.0084023476
-0.061510634 -0.10143859 0.0099268556
-0.060355838 -0.10131159 0.010570765
-0.060219415 -0.10292046 0.011116683
-0.057166539 -0.099512123 0.011990905
-0.057002146 -0.10109814 0.01258409
-0.05580901 -0.10088552 0.01278308
-0.054184396 -0.099869281 0.013098329
-0.053355634 -0.10030859 0.013246089
-0.052806161 -0.10130163 0.013247758
-0.050792277 -0.099468209 0.013247758
-0.050837222 -0.10167444 0.013002962
-0.049462482 -0.10107551 0.012948245
-0.048262022 -0.100814 0.012476236
-0.047368027 -0.10119534 0.012144268
-0.04620935 -0.10101579 0.012100339
-0.044533368 -0.099669918 0.01181978
-0.044943899 -0.1030421 0.011547655
-0.043078274 -0.10123394 0.011388808
-0.042061754 -0.10137961 0.010496587
-0.041223858 -0.10197481 0.010409653
-0.039972872 -0.1015527 0.010083884
-0.038773134 -0.10124097 0.0099386573
-0.038225628 -0.10266312 0.0092726648
-0.036666334 -0.10137162 0.0087241232
-0.035946384 -0.10239273 0.0084825456
-0.035159193 -0.10328013 0.0070904493
-0.034356702 -0.10417838 0.0064968467
-0.032684289 -0.10241077 0.0053925812
-0.03175313 -0.10292394 0.0053941309
-0.014432885 -0.10436086 0.0053706467
-0.013302999 -0.10420683 0.0067171454
-0.0117142 -0.10010316 0.0077250004
-0.010850506 -0.10199476 0.0095798969
-0.0095555689 -0.099802613 0.011661172
-0.0084448904 -0.099227458 0.012413234
-0.0074606482 -0.10018585 0.012755901
-0.006404703 -0.10034034 0.013263464
-0.0053635417 -0.10083459 0.013578176
-0.0042840629 -0.10067548 0.013504535
-0.0031892522 -0.099929906 0.01239875
-0.0021510113 -0.10109752 0.011874527
-0.0010979526 -0.10320755 0.01032266
0 -0.10290655 0.0092229247
0.0011173035 -0.10502653 0.0075552762
0.0022247338 -0.10456249 0.0067131519
0.0032538921 -0.10195529 0.0072106719
0.0043825936 -0.10299095 0.0066927969
0.0054436703 -0.102341 0.0078747869
0.00645812 -0.10117722 0.0079964101
0.007650509 -0.10273541 0.0086958408
0.0085218046 -0.10013121 0.0093782544
0.0096757412 -0.10105775 0.0098223984
0.010738351 -0.1009405 0.010140777
0.011623472 -0.099327855 0.011272371
0.012892175 -0.10098872 0.01190868
0.014117433 -0.1020799 0.012453437
0.014900689 -0.10004748 0.01285392
0.015945859 -0.099927381 0.013055623
0.017177232 -0.10091624 0.013193965
0.017932443 -0.099155858 0.013505638
0.019215893 -0.10034966 0.014144123
0.020404026 -0.10094623 0.01417318
0.02115766 -0.099441007 0.01417318
0.022177996 -0.099272929 0.014145195
0.023817947 -0.10176759 0.013938099
0.024183003 -0.09883488 0.013858199
0.025998916 -0.10182909 0.013068438
0.026796855 -0.10075618 0.013222158
0.028030882 -0.10134242 0.013281614
0.029280361 -0.10193903 0.013851374
0.02997685 -0.10063656 0.013926893
0.030698813 -0.099506497 0.013880938
0.032325529 -0.10128666 0.01405254
0.03316585 -0.10056742 0.014244944
0.034409273 -0.10107724 0.014748931
0.03565741 -0.10156959 0.015005201
0.036437042 -0.10073771 0.015357047
0.036300477 -0.09749271 0.015409291
0.038860414 -0.10146886 0.015068561
0.038911976 -0.098857448 0.014962941
0.040599458 -0.10043024 0.014396787
0.042372879 -0.1021295 0.014226556
0.04307355 -0.10122284 0.014221042
0.043662831 -0.10010502 0.013979942
0.044369675 -0.099303558 0.013886929
0.046440359 -0.10152078 0.013211608
0.047991294 -0.10252686 0.012447864
0.049143571 -0.10265546 0.011193603
0.049264394 -0.10067072 0.010844469
0.05078733 -0.10157466 0.010450304
0.050746996 -0.099379532 0.0093569756
0.053819887 -0.10324632 0.0085220933
0.055023186 -0.10344359 0.0076015294
0.056302384 -0.10377302 0.0067681968
-0.06610959 -0.10079003 0.0050464869
-0.06450212 -0.099978283 0.0066967607
-0.063657112 -0.10034087 0.0074709952
-0.062538065 -0.10027654 0.0083650351
-0.061017632 -0.099555083 0.0089525282
-0.060250267 -0.10005848 0.010157198
-0.058549218 -0.0990014 0.011038005
-0.057712805 -0.099394277 0.011666238
-0.056427583 -0.099014439 0.012166172
-0.055101056 -0.098546125 0.012555242
-0.054289121 -0.098997809 0.01264143
-0.053673659 -0.099833004 0.013104647
-0.053025737 -0.10064069 0.013073057
-0.052142367 -0.10102583 0.01305601
-0.050895538 -0.10070819 0.012828261
-0.049253348 -0.099577419 0.012895137
-0.048346903 -0.099916928 0.012492359
-0.047859088 -0.10115671 0.012144268
-0.045480322 -0.09836442 0.012247562
-0.04479602 -0.099191181 0.012012154
-0.04418109 -0.10021564 0.01180771
-0.042997889 -0.099970095 0.011558741
-0.041736674 -0.099525914 0.010659933
-0.040803801 -0.099861935 0.010483176
-0.039808813 -0.10005999 0.010678917
-0.038807243 -0.10025205 0.010499358
-0.037619092 -0.099959306 0.0099294782
-0.036976304 -0.10114107 0.0094033182
-0.035962272 -0.10134822 0.0093761086
-0.035237297 -0.1024084 0.0088509619
-0.034151655 -0.10245496 0.0073878467
-0.032700527 -0.10137164 0.0070452392
-0.031294733 -0.10035897 0.0069145858
-0.030376643 -0.10089386 0.0067856908
-0.029131707 -0.10034255 0.0067856908
-0.028007828 -0.10018185 0.0063890219
-0.027333332 -0.10168 0.0061473548
-0.025913669 -0.10041547 0.0061473548
-0.025243817 -0.10207282 0.0056949854
-0.022781912 -0.10089133 0.0052913725
-0.015853783 -0.10531442 0.0051760972
-0.014416181 -0.10313115 0.0064040124
-0.012843035 -0.099533528 0.0075184703
-0.012051794 -0.10189245 0.0091139376
-0.010893922 -0.10131348 0.011877865
-0.0093957344 -0.097089268 0.01259625
-0.0085165491 -0.099004887 0.013447732
-0.0074190581 -0.098567486 0.013967693
-0.0062536136 -0.09693101 0.014139175
-0.0053356332 -0.099242777 0.014209986
-0.0043306225 -0.10068697 0.01392442
-0.0032649601 -0.10121377 0.013226718
-0.0021516094 -0.10004984 0.01213631
-0.0010497415 -0.097625963 0.011667579
0 -0.10020568 0.010672688
0.0011160222 -0.10379007 0.0096570551
0.0021917576 -0.10191673 0.0095328689
0.0033549357 -0.104003 0.0094189048
0.0044760061 -0.10406714 0.0089118183
0.0054665818 -0.10167842 0.0091918707
0.0065340297 -0.10127746 0.0094980896
0.007563299 -0.10048383 0.010139406
0.0086761639 -0.1008604 0.01080358
0.0097356103 -0.10060132 0.011091083
0.010526397 -0.097895503 0.011961102
0.011624032 -0.098275907 0.012411505
0.012984802 -0.10063222 0.012672722
0.013869043 -0.099217005 0.013379455
0.015002841 -0.09966173 0.013611436
0.016195951 -0.10041489 0.01368317
0.016861994 -0.098010331 0.014325321
0.01802912 -0.098629892 0.01448378
0.019191276 -0.099154934 0.014986157
0.019726571 -0.096556373 0.015125692
0.020824108 -0.096832104 0.015129358
0.022720879 -0.10062103 0.015209258
0.022758614 -0.096206874 0.01511392
0.024705088 -0.099894486 0.014690667
0.025530888 -0.098932199 0.014195323
0.026577491 -0.098868266 0.014145195
0.028034028 -0.10027556 0.014132142
0.028963696 -0.09976384 0.014514387
0.02976609 -0.098865949 0.014357835
0.031131519 -0.09983556 0.014153033
0.031918645 -0.098947801 0.014466554
0.032699447 -0.098098338 0.014838457
0.03460823 -0.10058017 0.01515013
0.035075326 -0.098848648 0.015470624
0.036775064 -0.10059062 0.015502334
0.037486535 -0.09960708 0.015298605
0.038206603 -0.098700397 0.015063971
0.039331693 -0.098860741 0.014838248
0.040610533 -0.099388942 0.014539242
0.041310083 -0.098508663 0.014180779
0.043168131 -0.10036591 0.014035761
0.044079319 -0.099984795 0.013860643
0.045461059 -0.10066377 0.013549447
0.04617627 -0.099869609 0.012952328
0.04716273 -0.099684864 0.012138784
0.04913063 -0.10153663 0.010966748
0.050874222 -0.1028544 0.010272056
0.051644333 -0.10218985 0.00999403
0.051992297 -0.10073508 0.0092654228
0.053635463 -0.10179792 0.0079171062
0.054876361 -0.10207003 0.007432133
0.055728935 -0.10162336 0.0054229796
-0.064847238 -0.099432439 0.0064333975
-0.064135551 -0.10000798 0.0074843168
-0.062271401 -0.098775327 0.0081313252
-0.061879173 -0.09987516 0.0091419816
-0.060526732 -0.099436782 0.010134578
-0.059785828 -0.10000539 0.01112476
-0.058733389 -0.10006429 0.011585295
-0.056786019 -0.098571964 0.012316585
-0.055474162 -0.098146603 0.012341082
-0.05427637 -0.097910315 0.012878478
-0.053387105 -0.098232269 0.013241768
-0.053201888 -0.099889264 0.012916833
-0.052193265 -0.1000371 0.012950659
-0.050262712 -0.098386586 0.013008505
-0.050233539 -0.10046708 0.012852132
-0.048750587 -0.099667862 0.012503445
-0.047058336 -0.098394707 0.012264609
-0.046214044 -0.098876566 0.012273788
-0.04499663 -0.098564051 0.011919081
-0.043771144 -0.098218173 0.011646956
-0.043217625 -0.09940055 0.011314124
-0.042246185 -0.09965767 0.010496587
-0.040861983 -0.09892901 0.010484934
-0.040102027 -0.099713147 0.010348797
-0.038391512 -0.098111652 0.010332078
-0.037908997 -0.099646509 0.009888351
-0.037175667 -0.10059299 0.0095605254
-0.036368914 -0.10139213 0.0095317364
-0.035679292 -0.10257797 0.0090497136
-0.033600852 -0.09971866 0.0088740289
-0.032101426 -0.098444372 0.0087966621
-0.031751897 -0.10073015 0.0089056194
-0.030336801 -0.099678062 0.0085595846
-0.028883466 -0.098417737 0.0082274973
-0.028083278 -0.099371605 0.0080011189
-0.027108058 -0.099757656 0.0078792572
-0.02621829 -0.10050344 0.0074979067
-0.025158012 -0.10063205 0.006867528
-0.024156161 -0.10101668 0.0064240992
-0.022491541 -0.098534368 0.0064063668
-0.021700889 -0.099824093 0.0056892633
-0.020300172 -0.098295569 0.0060433447
-0.018674888 -0.10106409 0.0054678917
-0.017250311 -0.099189289 0.0055553615
-0.016526395 -0.10136189 0.0057939589
-0.015872452 -0.10430469 0.0061945617
-0.01416388 -0.10023669 0.0076377392
-0.012820143 -0.098287769 0.0093784928
-0.011693791 -0.097802617 0.011036456
-0.010585044 -0.097382404 0.012690365
-0.0095126396 -0.097240321 0.014124811
-0.0085483147 -0.098305628 0.014114231
-0.0074626408 -0.098080419 0.014297634
-0.0063436767 -0.097269714 0.014814496
-0.0053317281 -0.098103806 0.014983088
-0.004326582 -0.099511385 0.014624685
-0.0032145199 -0.098578617 0.013929695
-0.0021305662 -0.09800604 0.012984127
-0.0010581022 -0.097345412 0.011827797
0 -0.10066965 0.011391163
0.0010796732 -0.099329926 0.01061222
0.0022307539 -0.10261469 0.010003388
0.0033819131 -0.10371201 0.0099374056
0.0043938467 -0.10105848 0.0096331835
0.0055616824 -0.10233496 0.0098448992
0.0066331597 -0.10170846 0.010003388
0.0074451719 -0.097850837 0.010874122
0.0087056402 -0.10011487 0.011518359
0.0098190159 -0.10037217 0.012116998
0.01077752 -0.099153191 0.012447625
0.011997635 -0.10034387 0.012802362
0.012930625 -0.099134795 0.012860626
0.013952318 -0.098739482 0.013411701
0.01511583 -0.099332601 0.013745308
0.016121097 -0.098876067 0.014306903
0.017198058 -0.098888829 0.014982492
0.01823784 -0.098698907 0.014995664
0.018992344 -0.09707199 0.015387893
0.02011295 -0.09738902 0.015416205
0.02135545 -0.098235078 0.015602797
0.021778671 -0.095411316 0.015680969
0.023320667 -0.097522795 0.015386462
0.024273744 -0.097094975 0.015310109
0.025899371 -0.099280924 0.014636606
0.026563851 -0.09775497 0.014469713
0.027694711 -0.097996674 0.014448822
0.028957112 -0.09866868 0.014875591
0.03016416 -0.099110812 0.014636844
0.031163994 -0.098865084 0.014466554
0.032049865 -0.098286256 0.01464802
0.033158157 -0.098404847 0.014548123
0.034223307 -0.098392002 0.015005827
0.034877487 -0.097234212 0.015135854
0.036851492 -0.099715807 0.015167564
0.037065558 -0.097429477 0.014838248
0.038709041 -0.098923117 0.014805794
0.040016621 -0.09950079 0.014608622
0.040189683 -0.097301342 0.014396787
0.041844744 -0.098710679 0.014013171
0.041757956 -0.096043304 0.014003098
0.043962669 -0.098647937 0.013810068
0.045036357 -0.098651074 0.013287634
0.045959912 -0.098332837 0.012447864
0.046361599 -0.096937895 0.011896193
0.048817039 -0.099803723 0.010617733
0.05010315 -0.1002063 0.0098719001
0.051139552 -0.10010295 0.0094656348
0.052485071 -0.10059639 0.0080006719
0.052918546 -0.099357277 0.0070441663
0.054263081 -0.099844068 0.0054255128
-0.065552421 -0.099421181 0.0064333677
-0.063690543 -0.098234572 0.0074373782
-0.062854327 -0.098616272 0.0079043508
-0.062469393 -0.099731848 0.0087962151
-0.060512848 -0.098333381 0.0097044408
-0.059765901 -0.098885402 0.010859102
-0.058465555 -0.098525286 0.011241198
-0.05799146 -0.099570245 0.011741608
-0.055792157 -0.097636282 0.012017906
-0.054413747 -0.097091198 0.012231082
-0.053625222 -0.097597905 0.012842536
-0.052620023 -0.09772291 0.012726307
-0.051183801 -0.097035967 0.012925297
-0.050089791 -0.096982367 0.013040453
-0.049564712 -0.098051928 0.012735069
-0.048494853 -0.098067366 0.01271376
-0.047034204 -0.097275294 0.01241973
-0.046182957 -0.097736023 0.01241973
-0.044779874 -0.097023062 0.011806756
-0.043389626 -0.096303798 0.011554509
-0.043023132 -0.097877637 0.011348397
-0.041772638 -0.097469494 0.010966182
-0.041117977 -0.098466739 0.010743022
-0.039608765 -0.097416155 0.010483176
-0.038218189 -0.096607096 0.010883749
-0.037736621 -0.098115221 0.010020792
-0.037185665 -0.099526346 0.0098293722
-0.036198851 -0.099821083 0.0098293722
-0.034659103 -0.098561823 0.0095866919
-0.03320181 -0.097463369 0.0095551014
-0.032102771 -0.09737841 0.0091381669
-0.031173971 -0.097821765 0.0098293722
-0.030117365 -0.097881444 0.0091733336
-0.029243499 -0.098561421 0.0092233717
-0.02830676 -0.099073663 0.0091381669
-0.026828974 -0.097657472 0.0089073777
-0.02613705 -0.099102981 0.0083906353
-0.025163453 -0.099559747 0.0080119967
-0.023764342 -0.098297969 0.0080292821
-0.022887796 -0.099180453 0.0078444183
-0.021532126 -0.097971179 0.0069237947
-0.020979233 -0.10047948 0.0066968501
-0.019711519 -0.099652685 0.0062385798
-0.018400233 -0.098495364 0.0062017441
-0.017368989 -0.098786131 0.0060944259
-0.01659419 -0.10067143 0.0065729022
-0.015108231 -0.098203503 0.0076101422
-0.01423801 -0.099666081 0.0088889897
-0.013268559 -0.10061991 0.010777205
-0.011877973 -0.098263234 0.012064368
-0.010646072 -0.096879259 0.014009267
-0.009416162 -0.09520787 0.014992803
-0.0083470428 -0.094947614 0.015054256
-0.0074009467 -0.096212313 0.015196204
-0.006325365 -0.095934711 0.01585409
-0.0052894428 -0.096267864 0.015860558
-0.004310146 -0.098055825 0.01533559
-0.0032269689 -0.09788473 0.014252603
-0.0021245896 -0.096668832 0.013680071
-0.0010601045 -0.096469507 0.012612611
0 -0.094624802 0.011874497
0.0010643853 -0.09685906 0.011506587
0.0021628791 -0.098411001 0.010757118
0.0031456347 -0.095417589 0.010816276
0.0042687664 -0.097114436 0.010746717
0.0052754716 -0.096013591 0.010833383
0.0063271485 -0.095961757 0.011091083
0.0072640385 -0.09443251 0.011795104
0.0085220495 -0.096938312 0.012802243
0.0093113063 -0.09414766 0.01288113
0.010751872 -0.097842045 0.012812316
0.011743946 -0.097154468 0.013510108
0.012781463 -0.096926093 0.013980657
0.01407114 -0.098497987 0.014582008
0.015064971 -0.097922318 0.014906466
0.016028248 -0.097238034 0.015031785
0.017242562 -0.098067075 0.015265405
0.017931642 -0.095987029 0.015474409
0.01914485 -0.096787862 0.015471429
0.02036535 -0.097539313 0.015810341
0.021002403 -0.095560938 0.015907913
0.02214586 -0.0959654 0.015982419
0.023479598 -0.097120158 0.015685141
0.023874559 -0.094460212 0.015643507
0.02544046 -0.096461743 0.015267402
0.026851231 -0.097738482 0.015104473
0.027848555 -0.097469948 0.014642954
0.029307574 -0.098777384 0.014821589
0.030079164 -0.097757287 0.014575213
0.03081966 -0.096709967 0.014576018
0.032337595 -0.098090701 0.01454705
0.033010669 -0.096902281 0.014345914
0.034275942 -0.097472213 0.014109582
0.035768587 -0.098634601 0.014520049
0.036051441 -0.096490622 0.01454705
0.037301201 -0.096983127 0.014375031
0.03894528 -0.098445021 0.014094949
0.03912675 -0.096230656 0.013975084
0.040724277 -0.097523935 0.013328135
0.041968852 -0.097927324 0.013500452
0.042857438 -0.097500682 0.013133943
0.043164041 -0.095803112 0.013199091
0.044697899 -0.096845448 0.012384564
0.046322804 -0.098031983 0.012144744
0.047276113 -0.097775601 0.011153013
0.047891125 -0.096846499 0.010656476
0.050116457 -0.099143431 0.0094442368
0.051894382 -0.10047635 0.0082649291
0.051042072 -0.096767269 0.0072180927
0.054352809 -0.10094094 0.0055544078
-0.064824119 -0.097236186 0.006026417
-0.064724654 -0.098732524 0.0068103969
-0.063007064 -0.097769581 0.0076343119
-0.06119927 -0.096630432 0.0081443191
-0.060818776 -0.097744472 0.0091405809
-0.059658054 -0.097622275 0.010571331
-0.058273543 -0.097122572 0.011156499
-0.058078442 -0.098623775 0.011498451
-0.055609968 -0.096248023 0.011842579
-0.054264951 -0.095761687 0.011640757
-0.053824905 -0.096884832 0.012577832
-0.052413505 -0.096269704 0.012430102
-0.050867815 -0.095377155 0.012726307
-0.050583065 -0.096861191 0.012928754
-0.048756201 -0.09539257 0.01272893
-0.048198659 -0.096397318 0.012816846
-0.047595356 -0.097354136 0.012387425
-0.045912433 -0.096095793 0.012369841
-0.045069676 -0.096577875 0.011794269
-0.04444176 -0.097555079 0.011776894
-0.043507889 -0.097892761 0.011401743
-0.042580191 -0.09826199 0.011127353
-0.040793277 -0.096615657 0.011108607
-0.039892975 -0.097036965 0.010352015
-0.038635407 -0.096588522 0.01035887
-0.038260899 -0.098385178 0.010127574
-0.037340593 -0.098842748 0.0099271834
-0.035742708 -0.097480126 0.0099271834
-0.034421433 -0.096810281 0.0098635852
-0.033418175 -0.097020507 0.010004908
-0.031961549 -0.095884651 0.010206461
-0.031168293 -0.096729182 0.010751694
-0.030067028 -0.096644022 0.010792285
-0.029570097 -0.098566994 0.010658383
-0.027920596 -0.096648224 0.010604262
-0.026867114 -0.096721612 0.010065198
-0.025740586 -0.096527204 0.0093551278
-0.024824504 -0.097139359 0.0089989007
-0.023939148 -0.097932883 0.0087278783
-0.022685491 -0.097223528 0.0085300505
-0.021426041 -0.096417189 0.008015722
-0.02062807 -0.097711913 0.0073520839
-0.019191507 -0.09595754 0.0068390667
-0.018599069 -0.098465666 0.0064150989
-0.017395444 -0.097849376 0.0071568489
-0.016666424 -0.099998541 0.0074770153
-0.015263679 -0.098123655 0.0078343451
-0.014217066 -0.098425843 0.0096372962
-0.01289751 -0.096731335 0.010902613
-0.011909218 -0.097439058 0.012954831
-0.010789771 -0.097107947 0.01461333
-0.0094924178 -0.094924189 0.015196204
-0.0085627958 -0.096331455 0.015266746
-0.0073820287 -0.094911806 0.015451461
-0.0063769491 -0.095654242 0.015673697
-0.0053535574 -0.096364044 0.015604585
-0.0042846268 -0.096404105 0.015425771
-0.0032370936 -0.097112812 0.014244467
-0.0021526217 -0.096867979 0.013645619
-0.0010654341 -0.095889069 0.012815595
0 -0.095562764 0.011827797
0.0010519897 -0.09467908 0.011695355
0.0021130028 -0.095085137 0.011508793
0.0032026505 -0.096079521 0.011609107
0.004270826 -0.096093588 0.011823863
0.0052078217 -0.093740799 0.011997879
0.0063337656 -0.095006488 0.012176037
0.0074465643 -0.095741548 0.01292479
0.0083995908 -0.094495401 0.013689876
0.0095700314 -0.095700324 0.014247179
0.010503717 -0.094533451 0.014247179
0.011761383 -0.096229501 0.014859051
0.01284328 -0.096324608 0.015003204
0.013918703 -0.096360259 0.015374988
0.014884959 -0.095689029 0.015403628
0.016084123 -0.09650474 0.01538524
0.016852371 -0.094794594 0.015569001
0.018245418 -0.096593387 0.015688151
0.019227879 -0.096139409 0.01567167
0.020302899 -0.096171625 0.015907913
0.021048144 -0.094716653 0.015986592
0.022427233 -0.096116714 0.015986592
0.023256963 -0.095142126 0.015832484
0.024085451 -0.094247416 0.015831262
0.025536772 -0.095762901 0.015569001
0.02643217 -0.095155813 0.015478224
0.027641205 -0.095681101 0.015098661
0.028746301 -0.095821008 0.014823556
0.029949039 -0.096264772 0.01450491
0.031156246 -0.096691795 0.014514387
0.032096818 -0.096290462 0.013939857
0.033488054 -0.097223386 0.014068067
0.034747865 -0.097728372 0.013502091
0.035292648 -0.09625268 0.013922781
0.036532301 -0.096703157 0.013930023
0.037796199 -0.097190239 0.013523787
0.037961259 -0.094903164 0.013227642
0.039724179 -0.096626379 0.013227642
0.040955342 -0.096999504 0.013158351
0.041755658 -0.096359216 0.013158351
0.04299397 -0.096736439 0.012860239
0.043538943 -0.095573291 0.012797147
0.044801243 -0.096002668 0.012047917
0.046792671 -0.097938158 0.011415869
0.046983756 -0.096103147 0.010096401
0.048015051 -0.096030101 0.0094656348
0.05072505 -0.099244669 0.0082808137
0.050752509 -0.097185664 0.0074689388
0.053176377 -0.099705718 0.0062763393
0.053244177 -0.097795434 0.0052796602
-0.065324359 -0.096897796 0.0059503317
-0.064657636 -0.097534396 0.0065963566
-0.06229141 -0.095585093 0.0074992478
-0.061311904 -0.095732622 0.0078665912
-0.060513742 -0.096173622 0.0085315108
-0.059695773 -0.09659861 0.0096319914
-0.058504816 -0.096424595 0.0099538565
-0.057655245 -0.0968173 0.010321379
-0.055657551 -0.095260032 0.010822952
-0.054986253 -0.0959564 0.011165768
-0.053779315 -0.095727175 0.011529148
-0.052168831 -0.094755635 0.011749357
-0.051938776 -0.096303143 0.012353092
-0.050637461 -0.095887959 0.012501806
-0.049209028 -0.095208764 0.012550265
-0.049115941 -0.097140409 0.012509584
-0.047888633 -0.096865639 0.012349844
-0.04661116 -0.096474253 0.012349844
-0.045565937 -0.096556388 0.011829287
-0.043729462 -0.094924919 0.011498481
-0.043244138 -0.096218206 0.011401385
-0.041770775 -0.095323049 0.011226684
-0.04106256 -0.096172839 0.011138886
-0.040041272 -0.096315481 0.01075989
-0.039178789 -0.096858673 0.010402352
-0.038418133 -0.097691819 0.010287017
-0.037404723 -0.097912356 0.010807604
-0.035597175 -0.096004501 0.010922283
-0.03447764 -0.095890932 0.010854483
-0.03318014 -0.095259108 0.010810941
-0.032092463 -0.095207632 0.010883003
-0.031245079 -0.095890068 0.011061758
-0.030329052 -0.096403055 0.011200935
-0.028808057 -0.094959885 0.011169136
-0.028292174 -0.096846282 0.011128008
-0.026949698 -0.095940918 0.010978371
-0.025672974 -0.095203944 0.010154516
-0.025131553 -0.097248182 0.0096023083
-0.023449766 -0.094864957 0.0095182657
-0.022510303 -0.09540081 0.0088741183
-0.021619342 -0.096206076 0.0086041391
-0.020671798 -0.096831053 0.0083898306
-0.019397583 -0.095910273 0.0080364943
-0.018502811 -0.096867651 0.0079549253
-0.017240074 -0.095897906 0.0079264641
-0.01694206 -0.10052288 0.0086971223
-0.015499156 -0.098530345 0.0090920031
-0.014099348 -0.096526302 0.010811269
-0.01293222 -0.095913962 0.012034416
-0.011988861 -0.097000793 0.014336824
-0.010397445 -0.092537269 0.015448689
-0.0094921179 -0.093866505 0.015482783
-0.0084331054 -0.093818292 0.015781671
-0.0074013746 -0.094103195 0.015689552
-0.0064506913 -0.095685251 0.015795857
-0.0053448044 -0.095137514 0.01552555
-0.004303812 -0.095759816 0.015172988
-0.0032447106 -0.09625975 0.01447612
-0.002142817 -0.095355354 0.013533801
-0.0010662994 -0.094900645 0.01309219
0 -0.09417519 0.011906475
0.0010613592 -0.094460964 0.01167205
0.0021369841 -0.095095798 0.011345059
0.0032002502 -0.094940759 0.011731207
0.0042533418 -0.09463685 0.012176037
0.0052838004 -0.094051652 0.012493938
0.0064567621 -0.095775299 0.013212711
0.007369298 -0.093695357 0.013921559
0.0086292466 -0.096000358 0.014102668
0.0095333559 -0.094274297 0.014842361
0.010517046 -0.093601704 0.014670074
0.011649184 -0.09425249 0.014867067
0.01298291 -0.09628991 0.01491484
0.014049079 -0.09618216 0.015109599
0.014953676 -0.095062651 0.014905393
0.015922269 -0.094472133 0.015072554
0.017060222 -0.094897479 0.015336394
0.018385537 -0.096253693 0.015546829
0.019022968 -0.094058007 0.015369892
0.020320471 -0.095185362 0.015574098
0.021584863 -0.096052639 0.015606463
0.02218575 -0.094025321 0.015773028
0.02335039 -0.094462939 0.015657514
0.024483684 -0.09474121 0.015658736
0.025752833 -0.095500082 0.01564768
0.026784837 -0.095354013 0.015513152
0.027733095 -0.094932519 0.015362561
0.029035764 -0.095710471 0.01518932
0.030337365 -0.096429482 0.014697641
0.031637646 -0.097094841 0.014656067
0.032266982 -0.09572538 0.014475822
0.032906 -0.094472058 0.014407039
0.034033306 -0.094655126 0.014253587
0.035499282 -0.09574049 0.014484048
0.036410462 -0.095309742 0.014250368
0.037562966 -0.095517255 0.013821214
0.038465865 -0.095096163 0.013609707
0.039394245 -0.094759122 0.013604194
0.040562596 -0.095001869 0.013549447
0.041851655 -0.095507622 0.013320982
0.042815249 -0.095263928 0.012957931
0.044596329 -0.09680666 0.012461632
0.04510339 -0.095576227 0.012099117
0.045559913 -0.094298422 0.011012256
0.047383472 -0.095843837 0.0090652704
0.048471641 -0.095866121 0.0082512796
0.049345069 -0.095471978 0.0073293746
0.050876472 -0.096340552 0.006316781
0.052889358 -0.098065682 0.0055626333
-0.065379307 -0.095889643 0.0058361292
-0.064311989 -0.095922962 0.006185174
-0.06288448 -0.095410936 0.0070435703
-0.062664911 -0.096745826 0.0078038275
-0.060782973 -0.095516101 0.0085088015
-0.059382606 -0.095012166 0.0092622042
-0.058522392 -0.095369816 0.0097072124
-0.057450399 -0.095389344 0.0097811818
-0.056018218 -0.094800055 0.010397196
-0.054526571 -0.09408506 0.010624409
-0.05408214 -0.095184557 0.011072308
-0.052926093 -0.095050946 0.011402428
-0.05128159 -0.094016246 0.011872709
-0.050102126 -0.093808234 0.012425125
-0.049397994 -0.094500504 0.012476444
-0.048390351 -0.094630018 0.012254924
-0.047705177 -0.095410354 0.012240589
-0.045894384 -0.093923382 0.012168556
-0.044833329 -0.093936495 0.01147446
-0.044051122 -0.094548747 0.010881007
-0.04314582 -0.094920807 0.010995209
-0.041750994 -0.094207369 0.010967821
-0.040574793 -0.093962677 0.010973692
-0.040070996 -0.095303982 0.010807604
-0.040089849 -0.097997412 0.010552436
-0.038336489 -0.096388884 0.010552436
-0.036760461 -0.095144719 0.010942101
-0.035069309 -0.093518153 0.010800838
-0.034605905 -0.095166236 0.010771722
-0.032899328 -0.093391635 0.010855496
-0.032353401 -0.094903313 0.011080503
-0.031361394 -0.095165603 0.011685282
-0.030010598 -0.094319023 0.011367261
-0.028807141 -0.093889937 0.011352688
-0.028215868 -0.095499858 0.011379063
-0.026828632 -0.09443678 0.011145413
-0.025837706 -0.09473826 0.010341406
-0.025001178 -0.095656671 0.010131329
-0.023713281 -0.094853126 0.0098872781
-0.02271823 -0.095200203 0.0094997883
-0.021568859 -0.094902977 0.0091063082
-0.020269005 -0.093877487 0.0088073909
-0.019493466 -0.095301397 0.0083217025
-0.018617747 -0.096374221 0.0089578331
-0.017536685 -0.096451767 0.0089106262
-0.016658187 -0.097728029 0.0094538331
-0.015124034 -0.095065355 0.010425448
-0.014269271 -0.096591987 0.011112571
-0.012916892 -0.094723873 0.012954623
-0.011576089 -0.092608713 0.014547169
-0.010551166 -0.09285026 0.016571105
-0.0094178189 -0.092085339 0.016729683
-0.0082903681 -0.091194049 0.016563773
-0.0074315364 -0.093425028 0.016431063
-0.006370849 -0.093439117 0.01647526
-0.005317254 -0.093583673 0.016317248
-0.0043070349 -0.094754763 0.015385747
-0.0031874676 -0.09349905 0.014592886
-0.0021396596 -0.094145022 0.013521165
-0.0010761517 -0.094701357 0.013322413
0 -0.09316615 0.012911022
0.0010835957 -0.095356412 0.011810869
0.0021696731 -0.095465615 0.012137175
0.003252496 -0.095406547 0.012371391
0.0043234699 -0.09511634 0.012643218
0.0054202704 -0.095396765 0.013138741
0.0064094346 -0.094005041 0.013505638
