ply
format ascii 1.0
comment PCL generated
element vertex 1260
property float x
property float y
property float z
element camera 0
property float view_px
property float view_py
property float view_pz
property float x_axisx
property float x_axisy
property float x_axisz
property float y_axisx
property float y_axisy
property float y_axisz
property float z_axisx
property float z_axisy
property float z_axisz
property float focal
property float scalex
property float scaley
property float centerx
property float centery
property int viewportx
property int viewporty
property float k1
property float k2
end_header
0.037837215 -0.081980631 0.01440987
0.039521523 -0.083315633 0.014114469
0.040947415 -0.084049955 0.014179319
0.041450724 -0.082901448 0.013997674
0.042446364 -0.082770415 0.013797522
0.043689895 -0.083117358 0.01320067
0.045234513 -0.08400695 0.01235047
0.046898674 -0.085072018 0.012522906
0.047736041 -0.084622987 0.012122661
0.048915111 -0.084786184 0.011916041
0.049939338 -0.084679745 0.010962516
0.050502304 -0.083812334 0.010640323
0.05120565 -0.083209179 0.0095598996
0.052676648 -0.083852626 0.0097464323
0.054202218 -0.084555455 0.0087532997
0.055493828 -0.084872909 0.0084785819
0.057583414 -0.086375117 0.0074949861
0.057301112 -0.08432994 0.0060402751
-0.068995707 -0.084328085 0.0052362382
-0.068380617 -0.08492431 0.0058337152
-0.065925844 -0.083217867 0.0073008239
-0.064889558 -0.083274931 0.0081383288
-0.064795427 -0.084563524 0.00808689
-0.062986881 -0.083620511 0.008236438
-0.063784324 -0.086164787 0.0089040101
-0.060483869 -0.083165325 0.0092591345
-0.058972936 -0.082562111 0.010127366
-0.058227096 -0.083027527 0.010859489
-0.057192102 -0.08309041 0.011161566
-0.055404674 -0.082041539 0.011503816
-0.054861821 -0.082830593 0.011524349
-0.053276267 -0.082045451 0.011799723
-0.051902752 -0.081561469 0.011801273
-0.05154606 -0.082688473 0.012060791
-0.049935699 -0.081809551 0.012248307
-0.04943962 -0.082757622 0.012172937
-0.04811281 -0.08232636 0.012142032
-0.04632793 -0.08107388 0.011507511
-0.046372395 -0.083038941 0.010914177
-0.044862673 -0.082248226 0.01028946
-0.043920159 -0.082484193 0.0096901059
-0.043288335 -0.08333005 0.0095297694
-0.042485729 -0.083882079 0.0093315244
-0.040791932 -0.082657337 0.008276552
-0.039939173 -0.083116651 0.0067633092
-0.039059311 -0.083543532 0.0055804253
-0.0085122902 -0.081930794 0.0060781837
-0.0075449767 -0.082994744 0.0070657134
-0.0064454642 -0.082716793 0.0068671405
-0.0053690029 -0.082682647 0.0062934756
-0.0043393858 -0.083533175 0.0053717792
0.0088982983 -0.085646123 0.0052911937
0.0098085776 -0.083917834 0.0064305961
0.011146806 -0.085830413 0.0070242882
0.011889374 -0.083225623 0.0080368817
0.013036841 -0.083653063 0.008970499
0.014044382 -0.083185948 0.0095613003
0.015037199 -0.082704589 0.010006458
0.016036279 -0.082319573 0.010237455
0.017255021 -0.08303979 0.010514468
0.018317401 -0.08296705 0.011013001
0.019115057 -0.081769973 0.01172322
0.020614555 -0.083543196 0.011311024
0.02182138 -0.084012315 0.011211574
0.02236338 -0.081999063 0.01146847
0.023756748 -0.083148621 0.011947691
0.024809869 -0.083059125 0.012076676
0.026019752 -0.083480038 0.011656761
0.026953498 -0.083016768 0.012169749
0.027823821 -0.08240132 0.012713462
0.02874581 -0.081978783 0.013050467
0.030427752 -0.083676316 0.013038486
0.031006785 -0.082328357 0.013402611
0.031685151 -0.081325226 0.013753414
0.033331301 -0.08279065 0.014104784
0.033773478 -0.081267431 0.014444083
0.034609422 -0.080755316 0.014474481
0.036813509 -0.083371773 0.01462391
0.037566885 -0.082647152 0.01527983
0.038305651 -0.081931539 0.014942884
0.038935285 -0.081027485 0.014758229
0.040490624 -0.082046792 0.014417619
0.04162797 -0.082188562 0.014417082
0.042137064 -0.081113845 0.014002264
0.04355133 -0.081791513 0.013667017
0.044469927 -0.081528202 0.01235047
0.045732282 -0.081892692 0.012510926
0.047040384 -0.082320675 0.011720836
0.048152979 -0.082395099 0.011165619
0.049456041 -0.082785115 0.010416657
0.050902989 -0.083394259 0.0095236599
0.051577456 -0.082738839 0.0089753866
0.052901894 -0.083131552 0.0092509687
0.054764997 -0.084338091 0.0082753599
0.055025443 -0.083077624 0.007707864
0.056575216 -0.083774842 0.0060642958
-0.066480123 -0.081491761 0.0060176253
-0.066118211 -0.082376793 0.0070564151
-0.067365274 -0.085329346 0.0082523525
-0.064404972 -0.082962334 0.0085559487
-0.06344533 -0.083135255 0.0091067255
-0.061814696 -0.082419597 0.0091062188
-0.05919189 -0.080331855 0.009773463
-0.059221681 -0.081833594 0.010321796
-0.057426158 -0.080821998 0.010945141
-0.056726906 -0.081344247 0.011388719
-0.056230117 -0.082182482 0.011873752
-0.054980714 -0.081932046 0.01180163
-0.053722627 -0.081658393 0.012666881
-0.052465498 -0.081375062 0.012305051
-0.050747097 -0.080349572 0.012590677
-0.050551381 -0.081742659 0.012473732
-0.049223918 -0.08132647 0.012680531
-0.047730155 -0.080610923 0.012623787
-0.04712211 -0.081392743 0.012310892
-0.046508823 -0.082201637 0.01198855
-0.045130916 -0.081665464 0.011334389
-0.044441175 -0.08237876 0.010448933
-0.043315269 -0.082299016 0.0098544657
-0.041537698 -0.080945261 0.0096974671
-0.041606132 -0.083212264 0.0093616545
-0.040372431 -0.082927153 0.007704407
-0.038883857 -0.082088143 0.0067633092
-0.038584694 -0.08378391 0.0060757995
-0.036680181 -0.081990995 0.0051492155
-0.01102379 -0.08378081 0.005348742
-0.0097629735 -0.082442887 0.0080031753
-0.0085794628 -0.081504896 0.0095207691
-0.0073815896 -0.080142975 0.0099543929
-0.0064322646 -0.081475355 0.00975582
-0.005319966 -0.080863483 0.0099543929
-0.0043346789 -0.082358897 0.0098724961
-0.0032251999 -0.081705064 0.006482631
0.0075224624 -0.081672452 0.0052883625
0.0086566033 -0.082237735 0.0071674883
0.0096664913 -0.081628159 0.0075394213
0.011121404 -0.084522672 0.0081159174
0.011985099 -0.08280614 0.0091714263
0.012753279 -0.080770768 0.0098617375
0.013973797 -0.081692971 0.010372639
0.014695453 -0.079775326 0.010768533
0.015910773 -0.080614582 0.011672705
0.017284997 -0.082103737 0.011921823
0.017674651 -0.079016082 0.012353867
0.019416863 -0.081982322 0.01248467
0.02060358 -0.082414322 0.012670428
0.021164896 -0.080426611 0.012533516
0.022097282 -0.079971112 0.012295067
0.023772938 -0.082124695 0.01300922
0.024458122 -0.080818139 0.012829244
0.025780553 -0.081638418 0.012424797
0.026826873 -0.081553698 0.012757689
0.027791534 -0.081236795 0.013271481
0.028802589 -0.081073955 0.013335317
0.030065218 -0.081605591 0.013417572
0.031062607 -0.081405446 0.013800174
0.031898633 -0.080809869 0.013951182
0.033218827 -0.081439704 0.014536798
0.034478851 -0.081887268 0.014541566
0.0352026 -0.081072658 0.014992803
0.035659261 -0.079708934 0.015085697
0.036677495 -0.079642564 0.01536715
0.038525116 -0.081330799 0.015438259
0.038666148 -0.079422355 0.015176415
0.040540874 -0.081081748 0.014549851
0.041709792 -0.081280626 0.0144732
0.041872539 -0.079557829 0.014125347
0.043954879 -0.081477329 0.013997674
0.045306105 -0.081982478 0.012562156
0.046063099 -0.08141385 0.012510926
0.047727451 -0.082438327 0.012099713
0.048566118 -0.082022771 0.011475742
0.049686667 -0.082091019 0.010309249
0.051275782 -0.082914032 0.0093238652
0.051578078 -0.081665292 0.0088012218
0.053062923 -0.082301676 0.008946538
0.054022886 -0.082114786 0.0078303218
0.055186849 -0.082239226 0.0066838264
0.056600902 -0.0827244 0.0053275824
-0.068434395 -0.081469521 0.0052979887
-0.067273796 -0.081379592 0.0060970485
-0.067676999 -0.083209433 0.0066772401
-0.06522885 -0.081536062 0.0083063543
-0.064003296 -0.081360124 0.0086004734
-0.063387632 -0.081966765 0.0090975761
-0.059978258 -0.078918763 0.0093888342
-0.060372077 -0.080855459 0.010252416
-0.058839869 -0.080236189 0.010529518
-0.058157668 -0.080774538 0.011101812
-0.057120848 -0.080831394 0.011516154
-0.056079123 -0.080883354 0.011756331
-0.05455957 -0.080234662 0.012138963
-0.053431485 -0.080147222 0.012738019
-0.05164063 -0.079041786 0.012200952
-0.051378429 -0.080278799 0.012435287
-0.050529346 -0.080631934 0.012738019
-0.048596833 -0.079233967 0.012734801
-0.048134968 -0.080224946 0.012543201
-0.04809501 -0.081980139 0.012409866
-0.046273511 -0.080709614 0.012113124
-0.045449223 -0.081159331 0.011853248
-0.044891514 -0.082118616 0.010934353
-0.043079544 -0.080774151 0.010294825
-0.042673253 -0.082063951 0.0097262263
-0.040720187 -0.080368795 0.009437114
-0.039737009 -0.080547988 0.0084133148
-0.039221659 -0.081711799 0.0074215531
-0.03787069 -0.081151485 0.006534785
-0.037003402 -0.081625149 0.0061538815
-0.03593608 -0.081672914 0.0054720938
-0.034521233 -0.080909148 0.0053016245
-0.012199461 -0.083178148 0.0064795613
-0.011037798 -0.08278349 0.0089267492
-0.0096299117 -0.080249272 0.010376394
-0.0086082965 -0.080702789 0.011196822
-0.0075724493 -0.081133388 0.011901468
-0.0064398702 -0.080498382 0.011901468
-0.0053334762 -0.080002151 0.011849642
-0.0042779241 -0.080211081 0.011193335
-0.0032155227 -0.080388069 0.010080159
-0.0022514693 -0.084430099 0.0082701147
-0.0011096833 -0.083226249 0.0061697066
0 -0.084359206 0.0050210059
0.005444041 -0.081660621 0.0051369965
0.0065146559 -0.081433199 0.0058419406
0.0076710214 -0.082189515 0.0073654354
0.0085133845 -0.079812981 0.0081322789
0.0097388402 -0.081157006 0.0090662837
0.010805335 -0.081040017 0.0097139776
0.011788902 -0.080378883 0.010336339
0.013246477 -0.082790479 0.010769188
0.013847779 -0.079891033 0.011825055
0.015110511 -0.080949172 0.011939973
0.016077923 -0.080389611 0.012501508
0.016656643 -0.078078017 0.012607008
0.01834639 -0.080939956 0.012830883
0.019331936 -0.080549739 0.013267785
0.019530091 -0.077092469 0.013657898
0.021266701 -0.079750136 0.01328367
0.022165142 -0.079161227 0.013560772
0.023361126 -0.079640202 0.014315307
0.024130682 -0.078687005 0.014221638
0.025852565 -0.080789268 0.013753414
0.026859989 -0.080579966 0.013753414
0.02793166 -0.080572098 0.013755053
0.029254824 -0.081263401 0.014042079
0.029926512 -0.080160297 0.014042079
0.03094147 -0.080021046 0.014140069
0.032013502 -0.080033757 0.013921082
0.032691099 -0.079091363 0.014249772
0.033815745 -0.079255655 0.014470279
0.034786835 -0.079060994 0.014981329
0.036581039 -0.080693468 0.01497817
0.037728578 -0.080846958 0.015172064
0.037996657 -0.079159707 0.01520732
0.039476421 -0.080019772 0.015142828
0.041019499 -0.080959544 0.014460444
0.040851478 -0.078560539 0.014374614
0.043027058 -0.080675736 0.014110565
0.043392844 -0.079377152 0.014039099
0.044234872 -0.078990847 0.013026565
0.045245834 -0.078917161 0.012872934
0.047067307 -0.080228366 0.012106717
0.048566539 -0.080944225 0.011410952
0.049772035 -0.081150055 0.010027856
0.051231686 -0.081752695 0.0091668963
0.051209871 -0.080015428 0.0087303221
0.052973047 -0.081081197 0.0085764825
0.054121494 -0.081182241 0.0075905025
0.05588489 -0.082183667 0.0064667165
0.057550579 -0.083005644 0.0051413476
-0.069140129 -0.081212215 0.005184859
-0.068887293 -0.082220323 0.0060176253
-0.066979781 -0.081254162 0.0066592395
-0.065325208 -0.080567762 0.0080653429
-0.063156292 -0.079212978 0.0085040927
-0.061208792 -0.078093976 0.0090945959
-0.060976099 -0.079161957 0.0096026361
-0.060225781 -0.07958407 0.010319024
-0.058709018 -0.078990318 0.010787129
-0.058276474 -0.079860352 0.01140067
-0.056515902 -0.078909002 0.011505306
-0.055293687 -0.078687176 0.012138963
-0.054935697 -0.079710625 0.012096167
-0.053190354 -0.078721724 0.012906581
-0.052734036 -0.079639167 0.012564063
-0.051635604 -0.079604894 0.012796938
-0.050011501 -0.078741521 0.013232857
-0.048925381 -0.078706048 0.013003618
-0.04905476 -0.080667824 0.012984961
-0.047313813 -0.079573236 0.012882859
-0.046368465 -0.079796895 0.012516558
-0.045684885 -0.080492422 0.012310952
-0.043720365 -0.078909926 0.011466056
-0.042957932 -0.079472177 0.010989457
-0.041782156 -0.079278968 0.010085076
-0.040838175 -0.079526976 0.0096974671
-0.040189985 -0.08037997 0.0088452995
-0.038955368 -0.080074929 0.0080389082
-0.037749618 -0.07981348 0.0071187913
-0.037113391 -0.0807762 0.0066516399
-0.036141478 -0.081044525 0.0062659979
-0.035246309 -0.081507087 0.0059608817
-0.034555349 -0.082486957 0.0054805875
-0.032440428 -0.080019727 0.0054023266
-0.014206139 -0.080865718 0.0051054358
-0.013150309 -0.08109358 0.006406039
-0.012022322 -0.080877446 0.0082032979
-0.010633972 -0.078691393 0.011005282
-0.0096369423 -0.079237089 0.01174286
-0.0084323306 -0.077999063 0.012618691
-0.007464651 -0.078912027 0.012991637
-0.0063553583 -0.078382753 0.012956113
-0.0053214883 -0.078758031 0.012952626
-0.0043043117 -0.079629764 0.012842715
-0.0032252441 -0.079556026 0.011862457
-0.0021683022 -0.080227181 0.010826617
-0.0010945937 -0.080999933 0.0095817149
0 -0.082499854 0.0075678229
0.0011015489 -0.081514619 0.0071620941
0.0022040368 -0.081549369 0.0056762397
0.0032826224 -0.08097136 0.0053709745
0.0043690633 -0.080827668 0.0059725344
0.0054833628 -0.08115378 0.0073654354
0.0064870124 -0.080006488 0.0080851912
0.0075439638 -0.079750478 0.0087197423
0.0086155273 -0.07969363 0.0095140934
0.0096299285 -0.079179421 0.0099999011
0.010781424 -0.079782546 0.010592848
0.011928702 -0.080247633 0.011674464
0.012968355 -0.079971522 0.011835963
0.014027735 -0.079850189 0.012450993
0.014904221 -0.078779452 0.012631804
0.015942244 -0.078648411 0.013041466
0.016861599 -0.077984899 0.013445735
0.018050132 -0.078571171 0.013786048
0.019117434 -0.078593902 0.014506668
0.020251231 -0.078873217 0.014720976
0.021010358 -0.07773833 0.015268922
0.022549814 -0.079461247 0.014934659
0.023084469 -0.077647768 0.015611798
0.024816159 -0.079843298 0.015159845
0.025694655 -0.07922519 0.014365882
0.026951328 -0.079775929 0.014038414
0.027815055 -0.079165928 0.014238805
0.028969102 -0.079396799 0.014209747
0.029854501 -0.078901179 0.014209747
0.030766279 -0.078507058 0.01420185
0.03216058 -0.079329439 0.013922721
0.033259869 -0.079394527 0.014075279
0.033570737 -0.07763233 0.01444906
0.035439394 -0.079470158 0.014542788
0.036384083 -0.079188891 0.014625341
0.036664486 -0.077519208 0.015016586
0.038192086 -0.078505956 0.014999807
0.039354857 -0.078709714 0.014905572
0.040293727 -0.078466728 0.014566362
0.041721638 -0.07916414 0.014142305
0.042399414 -0.078438923 0.01390785
0.043974739 -0.079369038 0.013739169
0.044893328 -0.07909777 0.013074368
0.046322312 -0.079717472 0.012723595
0.047389876 -0.079701155 0.011455595
0.049111079 -0.080760442 0.010625005
0.050295684 -0.080910452 0.009349525
0.050758943 -0.07991834 0.0085428357
0.053310487 -0.082187004 0.0079917312
0.053594511 -0.080938652 0.0072898865
0.054663237 -0.080901593 0.006631881
-0.067248054 -0.079179168 0.0059256256
-0.065449283 -0.078324556 0.0066772401
-0.063690856 -0.077490546 0.0082601309
-0.063124232 -0.078102872 0.0087225139
-0.061696984 -0.077653103 0.0093083382
-0.061659567 -0.078967519 0.010011882
-0.060438402 -0.078785777 0.01050958
-0.058934078 -0.078221597 0.010852754
-0.057650097 -0.077934392 0.011420608
-0.056732904 -0.078141555 0.011567444
-0.055354986 -0.077709891 0.012112588
-0.054613702 -0.078172557 0.012263119
-0.053686958 -0.078382961 0.012663931
-0.052882619 -0.078784317 0.012200952
-0.051380876 -0.078141756 0.012484848
-0.05003624 -0.077715866 0.012752116
-0.049643271 -0.078781709 0.013003051
-0.047809951 -0.077558368 0.013020366
-0.047271628 -0.078427933 0.013119727
-0.04651453 -0.078966536 0.012696207
-0.044619866 -0.077553578 0.012757152
-0.043998979 -0.078339644 0.011527121
-0.042661641 -0.077857502 0.011180282
-0.042119592 -0.078839242 0.010393441
-0.041078582 -0.078914121 0.010028064
-0.039745748 -0.078417286 0.0094166994
-0.038918775 -0.078918628 0.008695513
-0.038410526 -0.080113389 0.0081775188
-0.036558669 -0.078493617 0.0076192617
-0.035906859 -0.079430334 0.0069166124
-0.03542836 -0.080820955 0.0067941546
-0.033777047 -0.079539493 0.006352216
-0.032871131 -0.079986423 0.0063094497
-0.031331662 -0.078869358 0.0061945021
-0.03014921 -0.078603305 0.0064485967
-0.029649341 -0.080163039 0.0061216652
-0.028512195 -0.080053478 0.0061064959
-0.027169822 -0.079335883 0.0057544112
-0.014295065 -0.080272287 0.006110549
-0.013197879 -0.080287106 0.0080208182
-0.011729526 -0.077841409 0.009262085
-0.01070466 -0.078144021 0.011698395
-0.0097032916 -0.078704484 0.013093621
-0.0085013285 -0.077574626 0.013140112
-0.0074562123 -0.077757649 0.013651729
-0.006334071 -0.077064537 0.014022291
-0.0053061587 -0.077469923 0.013873309
-0.0042798324 -0.078106947 0.013804674
-0.0032011245 -0.077894032 0.012880623
-0.002124758 -0.077553667 0.012423068
-0.0010809238 -0.078907445 0.011791795
0 -0.079617061 0.010192961
0.0011271121 -0.082279183 0.0086168647
0.0022715989 -0.082913369 0.0077161193
0.0032984773 -0.080262952 0.0077161193
0.0044319467 -0.080883034 0.0079637766
0.0055337837 -0.080793247 0.0096909702
0.0064765797 -0.078798391 0.010131955
0.0076405182 -0.079679698 0.010305792
0.0086222338 -0.078677893 0.010778308
0.0096806232 -0.078520618 0.010766178
0.010844981 -0.079168372 0.011964411
0.011721611 -0.077788875 0.012227952
0.012916553 -0.078575701 0.012634069
0.014092419 -0.07913436 0.012984246
0.01497798 -0.078099474 0.01311776
0.016081499 -0.078263298 0.013932705
0.017176926 -0.078369729 0.014405251
0.018051008 -0.077513158 0.014696926
0.019091396 -0.077426225 0.015062869
0.020210121 -0.077649415 0.015452713
0.02094778 -0.0764594 0.015598685
0.022260403 -0.077381402 0.015376538
0.023538778 -0.078105949 0.015903592
0.02395523 -0.076031819 0.01549688
0.025490467 -0.077533506 0.014815629
0.0265262 -0.077456504 0.0147973
0.027685734 -0.077733025 0.014007956
0.029297048 -0.079210542 0.014003992
0.029884463 -0.077913068 0.014005631
0.030811118 -0.077559024 0.014232427
0.032015074 -0.077903353 0.013910472
0.032987177 -0.077679485 0.014075279
0.034081191 -0.077747717 0.014406323
0.035451092 -0.078422122 0.014552623
0.036363561 -0.078074709 0.014635175
0.037404399 -0.078014895 0.015062451
0.038479961 -0.078028813 0.014981329
0.039020766 -0.076986916 0.014978319
0.040272895 -0.077366352 0.014599442
0.041733027 -0.078115672 0.014147401
0.042449117 -0.077469647 0.01370731
0.04395983 -0.078269936 0.013401657
0.045063432 -0.078324541 0.013074368
0.046424754 -0.078814119 0.012616336
0.046985608 -0.077953406 0.011450291
0.047485314 -0.077031732 0.010635555
0.050128572 -0.079551868 0.0091961026
0.051103283 -0.079373188 0.0084244013
0.051972777 -0.079041936 0.0077140331
0.053142335 -0.07917124 0.0066838264
0.054559167 -0.079656385 0.0062366724
-0.067832299 -0.078772984 0.0057184994
-0.065662004 -0.07750269 0.0069459379
-0.063736014 -0.07648322 0.0081562996
-0.064381249 -0.078566939 0.0082525313
-0.062450565 -0.077524833 0.0093010366
-0.06006011 -0.075865403 0.009952724
-0.060484406 -0.077765658 0.010409027
-0.05878612 -0.076956369 0.010762066
-0.058086138 -0.077448174 0.011111408
-0.056047764 -0.076140352 0.011392713
-0.055422228 -0.076738462 0.011505306
-0.054427758 -0.076839186 0.012023926
-0.054252181 -0.078123137 0.012528569
-0.052336205 -0.076902181 0.012332618
-0.052252732 -0.078379095 0.012590677
-0.051077779 -0.07824681 0.013003051
-0.049656551 -0.077723294 0.012959003
-0.048507072 -0.077611312 0.012952179
-0.046942979 -0.076815784 0.013163418
-0.045726374 -0.076565087 0.012933701
-0.044511378 -0.076305211 0.012760878
-0.04434368 -0.077871822 0.012175947
-0.042725567 -0.076906018 0.011377722
-0.042461738 -0.078390904 0.010679215
-0.041291717 -0.07823693 0.010132372
-0.040032819 -0.077901699 0.0094609857
-0.038903434 -0.077806868 0.0091162026
-0.03765507 -0.077461861 0.0089401007
-0.036743362 -0.077809468 0.0086377561
-0.036415983 -0.079453051 0.0078215301
-0.034921169 -0.078572623 0.0078245401
-0.033858556 -0.078639224 0.0072660148
-0.03227143 -0.07745143 0.0074355304
-0.030709997 -0.076245502 0.007250309
-0.030484235 -0.078388028 0.0075936615
-0.029141707 -0.077711217 0.0079650581
-0.028066866 -0.077723622 0.0079650581
-0.027118804 -0.078102149 0.0076041818
-0.025769036 -0.077307105 0.0067984164
-0.025258319 -0.079069518 0.0062514544
-0.024173958 -0.079114772 0.006008625
-0.023151135 -0.079375319 0.0057971776
-0.015762068 -0.081062064 0.0057399273
-0.014314586 -0.079280786 0.0074035525
-0.012858871 -0.077153228 0.0087575316
-0.012072528 -0.07902018 0.010716051
-0.010834739 -0.078010119 0.013000339
-0.0094694225 -0.07575538 0.013651729
-0.0084167374 -0.075750634 0.013461053
-0.0074284021 -0.076406419 0.014129996
-0.0063008475 -0.075610168 0.014597028
-0.0053270888 -0.076710075 0.014692575
-0.0042925118 -0.07726521 0.013869911
-0.0031879467 -0.07651072 0.013698399
-0.0021284507 -0.076624222 0.012807131
-0.0010873392 -0.078288421 0.012105167
0 -0.077722639 0.010467768
0.0011064227 -0.079662427 0.010222733
0.0022245874 -0.080085143 0.010147631
0.0033929993 -0.081431977 0.010115892
0.0045411862 -0.081741348 0.010049045
0.0055158096 -0.07942766 0.010501534
0.0065618674 -0.078742407 0.01113221
0.007704773 -0.079249091 0.011191815
0.0085952962 -0.077357665 0.011146754
0.0096546318 -0.077237055 0.012043059
0.010696155 -0.077012315 0.012536764
0.011798018 -0.07722339 0.012789011
0.013028029 -0.078168176 0.012921125
0.013913017 -0.077056706 0.013538152
0.015006376 -0.077175647 0.013715029
0.016087646 -0.077220693 0.014857352
0.016708573 -0.075188577 0.01485914
0.018240349 -0.077253245 0.015354574
0.019291844 -0.077167377 0.015717059
0.020127852 -0.076273955 0.016123503
0.021148752 -0.076135509 0.016169161
0.022260079 -0.076320268 0.016105592
0.023149628 -0.075762421 0.016252339
0.024489367 -0.076662362 0.015590936
0.025257193 -0.075771578 0.015059441
0.027150251 -0.078192718 0.014927238
0.027920496 -0.077318296 0.014815629
0.028800575 -0.076801524 0.014626622
0.029882427 -0.076840527 0.014367521
0.031338397 -0.077805676 0.014325947
0.032170884 -0.077210121 0.013965786
0.033175934 -0.07705377 0.014104784
0.034522966 -0.077676669 0.014238298
0.03517244 -0.07673987 0.014396489
0.035970714 -0.076173276 0.014179319
0.037255377 -0.07663963 0.014436066
0.038014669 -0.076029338 0.014271557
0.03958172 -0.077023879 0.014010429
0.040685486 -0.077088282 0.014056563
0.041581098 -0.076765105 0.01390785
0.042606123 -0.076691017 0.013357013
0.044226177 -0.077665471 0.013348192
0.044654284 -0.076550201 0.012832552
0.04612156 -0.077226795 0.012240618
0.046559706 -0.076188609 0.010991842
0.048423864 -0.077478178 0.010353088
0.050103664 -0.07842312 0.0094042718
0.050817207 -0.07784763 0.008544296
0.052801978 -0.079202965 0.0075666904
0.053819265 -0.079081371 0.0056881607
-0.067217059 -0.07697437 0.0054436922
-0.065352999 -0.076066598 0.0064200163
-0.06558758 -0.077611968 0.0077221096
-0.063875727 -0.076867402 0.00808689
-0.062721826 -0.076780163 0.0089820921
-0.062102031 -0.077355161 0.0099274218
-0.060606703 -0.076840639 0.010468185
-0.05902382 -0.076194383 0.010821223
-0.058249053 -0.076586716 0.011223733
-0.057333723 -0.076805554 0.011542529
-0.055303395 -0.075510405 0.011580437
-0.054368943 -0.075690091 0.011730283
-0.054203827 -0.07696943 0.012295783
-0.053030305 -0.076839827 0.01220718
-0.052074715 -0.077027179 0.012607604
-0.049958769 -0.075469628 0.012741804
-0.049356718 -0.076181017 0.012812376
-0.048194855 -0.076040767 0.012757152
-0.047378033 -0.076450914 0.012754291
-0.046269681 -0.076398775 0.0126701
-0.044934273 -0.075960316 0.012506545
-0.043493267 -0.075317606 0.011771351
-0.042576604 -0.075573474 0.011549979
-0.041671202 -0.075862959 0.010894775
-0.040607553 -0.075872004 0.010554552
-0.040010199 -0.076776318 0.0095644593
-0.038984742 -0.076886579 0.0094609857
-0.037750814 -0.076580226 0.0092942417
-0.037762005 -0.078855947 0.0091050565
-0.036585681 -0.078714646 0.0083627999
-0.034616355 -0.076805033 0.0088467598
-0.033628181 -0.077019379 0.0082974136
-0.032181155 -0.076162063 0.0084254146
-0.031674922 -0.077548943 0.0087093115
-0.030440357 -0.077188045 0.0088644624
-0.028942389 -0.076107763 0.0090509355
-0.02835626 -0.077434398 0.0090743899
-0.027117023 -0.077012338 0.0088416338
-0.026007425 -0.076938629 0.0086331367
-0.025412602 -0.078447595 0.0083955824
-0.023823025 -0.076883398 0.0075936615
-0.022670085 -0.076646477 0.0067232549
-0.021993797 -0.078077979 0.0060213208
-0.020721093 -0.077431448 0.0057242215
-0.019317459 -0.076196641 0.0054482222
-0.018661233 -0.077938087 0.0052422583
-0.017363697 -0.077051401 0.0054421723
-0.016543675 -0.078306735 0.0055570602
-0.015754608 -0.079898365 0.0070513785
-0.013915137 -0.075998053 0.008363992
-0.01293933 -0.076557703 0.0094406605
-0.011980709 -0.077330031 0.011178792
-0.010615558 -0.075370468 0.01340723
-0.0094664991 -0.074680157 0.013869911
-0.0082816025 -0.073499218 0.014323145
-0.0073311911 -0.074359223 0.014953732
-0.0064026257 -0.075764403 0.015284926
-0.0052558561 -0.074633159 0.015056282
-0.0043205456 -0.076689683 0.014971703
-0.0032199458 -0.07620538 0.01421988
-0.0021196466 -0.075247452 0.013381898
-0.0010577916 -0.075103208 0.012793601
0 -0.076834068 0.011354625
0.0010756226 -0.076369204 0.010517985
0.0021949324 -0.077920094 0.01042217
0.0032972116 -0.078034006 0.010359824
0.0043426384 -0.077081829 0.01088959
0.0054353536 -0.077182017 0.011001706
0.0064717811 -0.076582745 0.011470556
0.007373631 -0.074789688 0.011742651
0.008500576 -0.075442605 0.012126595
0.009767931 -0.077058129 0.012459546
0.010784811 -0.076572165 0.012885302
0.011582628 -0.074760593 0.013348222
0.012798185 -0.07572259 0.013688922
0.013746639 -0.075077794 0.013797641
0.014938947 -0.075761802 0.013961434
0.015920915 -0.075358994 0.014688969
0.016953839 -0.075232662 0.015294015
0.018208468 -0.07604713 0.015553385
0.019223534 -0.075826161 0.016159475
0.020228846 -0.075592004 0.016359597
0.021181876 -0.075195663 0.01649186
0.022153854 -0.074901126 0.016125917
0.023121377 -0.074618988 0.016137928
0.02434553 -0.075153589 0.015790224
0.025443578 -0.075270586 0.015205801
0.026673587 -0.075752981 0.015059441
0.027624104 -0.07543505 0.015082896
0.029087959 -0.076490551 0.014729679
0.030265944 -0.076745786 0.014407963
0.031087929 -0.076111823 0.014328271
0.032236837 -0.076293848 0.013935179
0.03341848 -0.076539092 0.014035434
0.03431949 -0.076146364 0.013954312
0.035112537 -0.075545155 0.014004469
0.03677544 -0.076795772 0.013828069
0.037116472 -0.075293414 0.014003843
0.038140807 -0.075222149 0.013948649
0.039408471 -0.075621657 0.013640046
0.04004195 -0.074815221 0.013702393
0.042055771 -0.076563068 0.013581157
0.042466667 -0.075378336 0.01319471
0.043855734 -0.075945288 0.012922376
0.044936784 -0.075964555 0.012350351
0.046300489 -0.076449648 0.01141715
0.046713583 -0.075378738 0.01054737
0.047915589 -0.075600147 0.0096089542
0.049793042 -0.076854475 0.0088095963
0.050990295 -0.077027887 0.00763762
0.053502794 -0.079139546 0.0061289668
0.053237669 -0.077140294 0.0052420497
-0.065231763 -0.074856125 0.0061361194
-0.065415375 -0.076317944 0.0075158179
-0.063618414 -0.07547947 0.0083112717
-0.062758453 -0.07574296 0.0090219676
-0.061077055 -0.07500691 0.0095178783
-0.059812456 -0.07476557 0.010389745
-0.059231915 -0.07538607 0.010542601
-0.057980947 -0.075160481 0.01112932
-0.056912746 -0.075167783 0.011359245
-0.055199638 -0.074307203 0.011508197
-0.054853797 -0.075289525 0.011630118
-0.053257938 -0.074561112 0.011718094
-0.052953299 -0.07564757 0.011718303
-0.051824674 -0.075577654 0.012286603
-0.050257463 -0.074851535 0.012507319
-0.049092036 -0.074705265 0.012377352
-0.048422057 -0.075323194 0.012519687
-0.047553062 -0.075652599 0.012764663
-0.046725862 -0.076065354 0.012632757
-0.044930693 -0.074884489 0.012493938
-0.043886542 -0.074928239 0.011716485
-0.043357339 -0.075875342 0.011556268
-0.041856732 -0.075127468 0.010898441
-0.041501932 -0.076450922 0.010600418
-0.039394192 -0.074529551 0.0098511875
-0.038721278 -0.075291373 0.0097644031
-0.038386784 -0.076773569 0.0096754432
-0.037275381 -0.076743431 0.0095999241
-0.035969038 -0.076297954 0.0092942417
-0.034882065 -0.076304518 0.0092908144
-0.033414114 -0.075451225 0.0092942417
-0.031715035 -0.074001752 0.0094065666
-0.031410407 -0.075818226 0.0096344352
-0.030008696 -0.075021736 0.0098967552
-0.029163443 -0.075608924 0.0099599063
-0.028131444 -0.075738505 0.0099498034
-0.027020663 -0.075657852 0.0095534623
-0.026289033 -0.076676346 0.0093176067
-0.025017938 -0.076141544 0.0090521872
-0.024093108 -0.076659888 0.0087366104
-0.022726357 -0.075754516 0.0082084239
-0.021618037 -0.075663127 0.0071735382
-0.020843925 -0.07679341 0.0062652826
-0.01963244 -0.076348379 0.0058037937
-0.018528411 -0.076293454 0.0058352947
-0.017549718 -0.076780006 0.0063182414
-0.016706495 -0.077963635 0.0065967441
-0.014962972 -0.074814856 0.0083764493
-0.014047505 -0.075640418 0.0094406605
-0.012862726 -0.075032569 0.01033622
-0.011645695 -0.074108966 0.012957603
-0.010734177 -0.075139239 0.014870584
-0.0094867563 -0.073785886 0.014915496
-0.0084523233 -0.073957823 0.015027702
-0.0074486667 -0.074486665 0.015517384
-0.0063379789 -0.073943086 0.015857428
-0.0052388837 -0.073344372 0.0158014
-0.0043432931 -0.076007634 0.015558839
-0.0031773571 -0.074138328 0.015324682
-0.0021235559 -0.074324451 0.013817906
-0.0010727189 -0.075090319 0.013295889
0 -0.07297574 0.011882752
0.0010619076 -0.074333534 0.01122883
0.0021761702 -0.076165952 0.011001706
0.0031337526 -0.073120892 0.01111868
0.004226537 -0.073964395 0.011179149
0.005260204 -0.073642857 0.011347681
0.0062713162 -0.073165357 0.012269974
0.0074226032 -0.074226029 0.012293071
0.0084542446 -0.073974639 0.012781769
0.0094948635 -0.073848933 0.012883484
0.010633302 -0.074433118 0.013490468
0.01165362 -0.074159399 0.013699353
0.01290163 -0.075259507 0.013868749
0.013965562 -0.075199179 0.014112532
0.014974738 -0.074873686 0.014607012
0.016109576 -0.075178027 0.015032738
0.017012931 -0.074431568 0.015108079
0.017889781 -0.073663801 0.015610814
0.019288976 -0.075012691 0.015804976
0.020236334 -0.074554913 0.016241997
0.021002539 -0.073508888 0.016420782
0.022395073 -0.074650243 0.016102225
0.023235468 -0.073931031 0.016262501
0.024179362 -0.073589362 0.015995204
0.025463048 -0.074267223 0.015544683
0.026599519 -0.074478649 0.015288323
0.027497157 -0.074030809 0.01504299
0.028771857 -0.0745937 0.014701664
0.030218419 -0.075546041 0.01456219
0.031208869 -0.075331748 0.014463395
0.031844422 -0.074303649 0.013924718
0.033167195 -0.074893661 0.013990998
0.034048576 -0.074481256 0.013895333
0.035370439 -0.075028203 0.013640046
0.035645336 -0.073387451 0.013535172
0.037546918 -0.075093836 0.01383841
0.038624357 -0.075102918 0.013702393
0.038801067 -0.073407419 0.013414949
0.040217992 -0.074085772 0.013026565
0.041880053 -0.075169325 0.013181239
0.042745255 -0.074804194 0.012604743
0.043707684 -0.074622869 0.012590885
0.045016006 -0.075026676 0.011913627
0.046076071 -0.07500755 0.010895282
0.04773698 -0.075945191 0.0099378824
0.04812118 -0.074855164 0.0089657605
0.048844956 -0.074329279 0.0082221329
0.049963016 -0.074413002 0.0070865154
0.052400157 -0.076416895 0.0059432089
-0.06625545 -0.07494469 0.0054190159
-0.065117814 -0.074885488 0.0066950023
-0.06442003 -0.075338677 0.007533133
-0.06303969 -0.074995488 0.0088462234
-0.061600905 -0.074569516 0.0092642307
-0.060550548 -0.074606925 0.009850353
-0.059177846 -0.074241295 0.010215104
-0.058310535 -0.074507907 0.010606378
-0.057296339 -0.07459335 0.010911912
-0.0558207 -0.074069776 0.011161417
-0.054250211 -0.073397346 0.011207491
-0.053327776 -0.073592328 0.011542648
-0.052522231 -0.07395988 0.011584342
-0.051482473 -0.074006051 0.012113214
-0.050887149 -0.074706666 0.012426078
-0.048892759 -0.073339134 0.012355596
-0.047915481 -0.073470399 0.012427777
-0.047496662 -0.074483402 0.01260528
-0.045876879 -0.073616385 0.012631536
-0.044808861 -0.073614553 0.012062937
-0.044218611 -0.074416682 0.011660904
-0.043602679 -0.075214624 0.011263192
-0.042469058 -0.075137571 0.010898441
-0.040632647 -0.073780335 0.010638624
-0.039913267 -0.07443285 0.010131508
-0.039511029 -0.075729474 0.0097922087
-0.038392376 -0.075687833 0.0097293854
-0.037516974 -0.076137386 0.0097330213
-0.035744965 -0.074739471 0.0095160306
-0.033924829 -0.073150411 0.0095890164
-0.03337612 -0.074288778 0.0096974373
-0.032228112 -0.074124664 0.009970814
-0.03106901 -0.073922813 0.010221064
-0.030393913 -0.074899286 0.010546774
-0.029245296 -0.074737981 0.010836869
-0.027959289 -0.074199654 0.010836869
-0.027310897 -0.075378068 0.010182828
-0.026009284 -0.074776687 0.0097804368
-0.024636585 -0.073909752 0.0091344714
-0.023674238 -0.074251018 0.0088437498
-0.022457419 -0.073788665 0.0083270371
-0.021825183 -0.075296886 0.0080869496
-0.020938229 -0.07603883 0.0079679489
-0.019258197 -0.073823094 0.0076634884
-0.018252485 -0.074083611 0.0075577497
-0.017557105 -0.07571502 0.0076420903
-0.016729744 -0.076956823 0.0078183115
-0.015343401 -0.075621046 0.0094189048
-0.014343861 -0.076132804 0.010293841
-0.012777332 -0.073469661 0.012192309
-0.011844195 -0.074295409 0.014737457
-0.010833613 -0.074751928 0.015599877
-0.009426957 -0.072273344 0.015668154
-0.0084962593 -0.07328023 0.015806645
-0.0074131158 -0.073072143 0.015943736
-0.0062955902 -0.072399288 0.016276807
-0.0053324192 -0.073587388 0.015999943
-0.0043097944 -0.07434395 0.015919983
-0.0032378221 -0.074469909 0.015566796
-0.0021439195 -0.073965222 0.014131308
-0.0010582695 -0.0730206 0.0133681
0 -0.072763756 0.012534767
0.0010586301 -0.07304547 0.012028247
0.0021077469 -0.072717272 0.012116909
0.0031987058 -0.073570229 0.012116909
0.0042422586 -0.073178962 0.012243539
0.005217059 -0.071995415 0.012834668
0.0063799447 -0.073369361 0.013399631
0.0074227885 -0.073167488 0.013484716
0.0084457938 -0.072844975 0.013688534
0.0095723951 -0.07338836 0.013746113
0.010654604 -0.073516771 0.013969809
0.011706104 -0.073429197 0.014526904
0.012971212 -0.074584469 0.014698148
0.013878536 -0.073663004 0.014698148
0.014820465 -0.073043719 0.01508224
0.016286597 -0.074918337 0.01565659
0.017081575 -0.0736643 0.015811116
0.018070817 -0.073346257 0.01581797
0.019129615 -0.073330194 0.016108871
0.02027222 -0.073620163 0.016420782
0.02134986 -0.073657021 0.016397357
0.022579655 -0.074190296 0.016195983
0.023140958 -0.07257846 0.016445249
0.024546899 -0.073640697 0.016011864
0.025675295 -0.073816478 0.015719414
0.026633184 -0.073507585 0.015382528
0.027675534 -0.073446609 0.015066087
0.028094329 -0.071796618 0.014826328
0.030034719 -0.074014127 0.014626622
0.031357538 -0.074609317 0.014509052
0.032370135 -0.074451312 0.013708323
0.033190388 -0.073875375 0.013811082
0.034252614 -0.073857196 0.013284504
0.035246916 -0.073698096 0.013233215
0.036319882 -0.073707998 0.012859851
0.037711404 -0.074345335 0.01310727
0.038634058 -0.074048616 0.012879074
0.039399602 -0.073474929 0.012318701
0.040505338 -0.073549166 0.012573898
0.041778583 -0.073915951 0.012378752
0.043143429 -0.074422412 0.011715412
0.043451402 -0.073125526 0.011942774
0.045597095 -0.074909516 0.01093784
0.045465775 -0.072956711 0.010439336
0.04691314 -0.073568329 0.009470433
0.049189355 -0.075423673 0.0082221329
0.049417336 -0.074125998 0.0072773695
0.050199825 -0.073697612 0.0063363016
0.051900655 -0.074607193 0.0054264069
-0.066046707 -0.07362584 0.0055302083
-0.064962365 -0.073624007 0.0064730942
-0.06355831 -0.073253639 0.0076005161
-0.06216801 -0.072886631 0.008418411
-0.062345378 -0.074376948 0.0092575252
-0.060365181 -0.073300578 0.0095439851
-0.058884222 -0.072802305 0.0096609294
-0.058241051 -0.07334058 0.010105133
-0.05728187 -0.073493719 0.01045239
-0.056138095 -0.073411353 0.010625094
-0.054899044 -0.073198728 0.010843784
-0.053820953 -0.073196493 0.011208236
-0.052584704 -0.072974697 0.011276364
-0.051704172 -0.073247582 0.011561513
-0.050484248 -0.073041037 0.01210779
-0.049890984 -0.073751889 0.012083232
-0.048900381 -0.073893905 0.012013406
-0.047190122 -0.072930194 0.012117267
-0.046456121 -0.073465489 0.012138426
-0.045743942 -0.074061617 0.011863917
-0.044562954 -0.07390929 0.011256903
-0.043127704 -0.073317103 0.010989547
-0.04181914 -0.072915427 0.010791719
-0.04088594 -0.073164314 0.010444909
-0.040704984 -0.074809156 0.0098412335
-0.039240636 -0.074121207 0.0096536279
-0.038001575 -0.073831633 0.0097008646
-0.037220858 -0.074441716 0.0098712742
-0.035710305 -0.073584877 0.0097118616
-0.034322388 -0.072935075 0.0097602606
-0.033237558 -0.072908193 0.0098908246
-0.031897932 -0.072301984 0.010304272
-0.031094041 -0.07291016 0.011036366
-0.030512286 -0.074101269 0.011035174
-0.029080886 -0.07324075 0.011125535
-0.028025461 -0.073297359 0.010800064
-0.027098717 -0.073708512 0.010546774
-0.025805477 -0.07311552 0.010237247
-0.024958773 -0.073791146 0.0094364285
-0.023870256 -0.07378079 0.0093581676
-0.022626845 -0.073267877 0.0087586939
-0.021668529 -0.073673002 0.0083274841
-0.020385597 -0.072958976 0.0082232356
-0.019474821 -0.073571548 0.0080974102
-0.018552078 -0.074208312 0.0081531107
-0.017291456 -0.07348869 0.0084572732
-0.016645683 -0.075460434 0.008880347
-0.015270715 -0.074172042 0.010256231
-0.014029584 -0.073385514 0.010951817
-0.012961462 -0.073448285 0.013090491
-0.011761207 -0.072705649 0.015191317
-0.010432476 -0.070940845 0.015999943
-0.00942655 -0.071222827 0.016103894
-0.0082992939 -0.070543997 0.016458124
-0.0074002109 -0.071887761 0.016590267
-0.0063299448 -0.071739376 0.016889036
-0.005287753 -0.071913444 0.016590267
-0.0043048551 -0.073182531 0.01662308
-0.0032119388 -0.072803944 0.015943021
-0.0021400026 -0.072760083 0.014956802
-0.0010644806 -0.072384678 0.013614029
0 -0.072380811 0.012895107
0.0010575075 -0.071910508 0.012646884
0.0021116296 -0.071795404 0.012612909
0.0032141025 -0.072852992 0.012740642
0.0042274329 -0.071866356 0.013196319
0.0053625884 -0.072931208 0.013505429
0.0064684302 -0.073308878 0.014011443
0.0074460707 -0.072333254 0.014202684
0.0085012345 -0.072260492 0.014311522
0.0096461494 -0.072882019 0.014621347
0.010835713 -0.073682852 0.0148651
0.01185573 -0.073289968 0.015023947
0.012682418 -0.071867041 0.014811844
0.013770268 -0.072029099 0.014758766
0.015035212 -0.07302817 0.01508224
0.016023036 -0.072637767 0.015783906
0.017251091 -0.07331714 0.016026556
0.018181445 -0.07272578 0.015954405
0.018993787 -0.071754307 0.016076148
0.020362779 -0.072877318 0.016108871
0.021562859 -0.073313721 0.016125917
0.02232554 -0.072292224 0.015947759
0.023373729 -0.072246075 0.01594612
0.024355542 -0.072007693 0.015919298
0.025596648 -0.07252384 0.015854806
0.02677772 -0.072835401 0.015577018
0.027821135 -0.072762966 0.015229315
0.028735939 -0.072371989 0.01500237
0.03019828 -0.07333868 0.014751196
0.031295747 -0.07338313 0.014636815
0.032460861 -0.073577948 0.01371333
0.033228267 -0.072887816 0.013701439
0.034082677 -0.072425693 0.012921154
0.035401862 -0.07294929 0.012720495
0.036903132 -0.073806264 0.012556374
0.036907371 -0.071705751 0.01260066
0.039242793 -0.074125282 0.012515724
0.040131301 -0.073754825 0.012349516
0.040522043 -0.072513133 0.012205005
0.041942824 -0.073131077 0.011888266
0.042883627 -0.072902173 0.011648595
0.043530602 -0.072197095 0.010924429
0.045427516 -0.073549315 0.010669947
0.046283901 -0.073193148 0.0097934306
0.046598472 -0.072015822 0.0086250603
0.048580438 -0.073410437 0.007597059
0.049564023 -0.073268555 0.0069997907
0.0504646 -0.073012613 0.0058996379
-0.066116735 -0.072620027 0.0051109791
-0.066341251 -0.074081063 0.0063259006
-0.064226381 -0.072935045 0.0067896843
-0.062925003 -0.072689235 0.0076005161
-0.062149819 -0.0730533 0.0081422329
-0.060866542 -0.072822466 0.0091067255
-0.05986499 -0.072926447 0.0091644228
-0.058444798 -0.072514839 0.0094230771
-0.057118505 -0.072206415 0.0094235241
-0.05611733 -0.072305024 0.0098118782
-0.054705162 -0.071867563 0.010017693
-0.05384868 -0.072157227 0.010511786
-0.052819531 -0.072222628 0.01050961
-0.051300831 -0.071607418 0.011146933
-0.050981995 -0.072676457 0.011352837
-0.05010635 -0.072980992 0.011739433
-0.048465643 -0.072159953 0.011865437
-0.048203632 -0.073400989 0.011891723
-0.04642354 -0.072334349 0.011944115
-0.044805303 -0.071475126 0.011647344
-0.044352911 -0.072479151 0.011248648
-0.04268799 -0.071502388 0.010863423
-0.041903846 -0.071988657 0.010585129
-0.040934417 -0.072173841 0.010399342
-0.04016979 -0.072739884 0.0098699629
-0.039564986 -0.073634841 0.0098421872
-0.038096741 -0.072928049 0.0098712742
-0.036918163 -0.072750501 0.010177046
-0.035256073 -0.071580514 0.009881109
-0.034662519 -0.072574653 0.010082275
-0.032834735 -0.070965394 0.010481417
-0.03228699 -0.072107613 0.010516822
-0.031327657 -0.072377689 0.010982782
-0.030111499 -0.072052516 0.011525452
-0.02877846 -0.071413212 0.011122197
-0.028200753 -0.072671175 0.011150956
-0.026647609 -0.071415596 0.010429949
-0.025834758 -0.07212203 0.010020792
-0.024633406 -0.071758181 0.0094540715
-0.023741307 -0.072303072 0.0093449354
-0.022760963 -0.072618313 0.0087213814
-0.021703826 -0.072707824 0.0083270371
-0.020344865 -0.071742415 0.0083127618
-0.019685021 -0.073272027 0.0082300901
-0.018504517 -0.072929569 0.0084255636
-0.017778307 -0.074446656 0.0090847611
-0.016633574 -0.074296631 0.0093669891
-0.014994253 -0.071758211 0.010435641
-0.013972823 -0.07201378 0.012123436
-0.012927102 -0.072176322 0.013242602
-0.011585501 -0.070566237 0.015724361
-0.010567213 -0.070800334 0.016563177
-0.0094623407 -0.070441879 0.016699493
-0.0084474804 -0.070747651 0.016821951
-0.007354843 -0.070396356 0.016868025
-0.0063621262 -0.071043745 0.016978323
-0.0053094653 -0.071146838 0.016780704
-0.0042727049 -0.071567804 0.016619384
-0.0032123544 -0.071742579 0.016057163
-0.0021583203 -0.072303727 0.014712155
-0.0010799518 -0.072356768 0.013508052
0 -0.070757382 0.01297453
0.0010766442 -0.072135165 0.012581617
0.0021615676 -0.072412513 0.012805223
0.0032408587 -0.072379179 0.013114929
0.0043330803 -0.072579093 0.01322332
0.0054261242 -0.072710067 0.013857067
0.0064396956 -0.071909934 0.014240354
0.0075109974 -0.071890973 0.014573663
0.0085369488 -0.071496941 0.015082508
0.0096333306 -0.071714796 0.014983743
0.010909294 -0.073092267 0.015268475
0.011680063 -0.071142204 0.015626639
0.012756145 -0.071221814 0.015553027
0.013789978 -0.071071424 0.015039951
0.014702277 -0.070360899 0.01539892
0.015978221 -0.071369387 0.015724927
0.01722643 -0.072135679 0.01581797
0.018053038 -0.071150206 0.015702635
0.019227581 -0.071569338 0.015384495
0.020356279 -0.071782663 0.015446454
0.021106781 -0.070707723 0.015365511
0.022428004 -0.071556017 0.015423298
0.023362154 -0.071148381 0.015625685
0.024093455 -0.070185281 0.015522838
0.02558694 -0.071430214 0.015604168
0.026410514 -0.07078018 0.015330076
0.027712354 -0.071412608 0.015037566
0.028828684 -0.071537845 0.014840603
0.02973857 -0.071160153 0.01456219
0.030868413 -0.071316682 0.014313132
0.032373354 -0.072300486 0.013402522
0.033531804 -0.072471961 0.01300323
0.034390099 -0.072004274 0.01266396
0.035764419 -0.072612613 0.012119144
0.036147974 -0.071232773 0.012303442
0.03748231 -0.071751855 0.011875838
0.039215639 -0.072984666 0.011299342
0.039677862 -0.0718491 0.011196703
0.040613607 -0.071608201 0.010797977
0.042268042 -0.072614335 0.010158896
0.043331947 -0.072581016 0.010210901
0.044132128 -0.072118357 0.0098943114
0.046365473 -0.07396397 0.0094146132
0.046498109 -0.072450548 0.008656323
0.046988286 -0.071550347 0.0077645481
0.048629716 -0.072404243 0.0068412125
0.049545616 -0.072164267 0.0056703091
-0.065364115 -0.071900524 0.0054775774
-0.065035135 -0.072751164 0.0063142478
-0.063609712 -0.072383456 0.0067350566
-0.061155722 -0.07081189 0.0074141622
-0.061144348 -0.072062977 0.0077005327
-0.059741225 -0.071689464 0.0080823302
-0.058422945 -0.071405821 0.0090219676
-0.056875646 -0.070826277 0.0091130733
-0.055925556 -0.070982434 0.0093563199
-0.05515923 -0.07138253 0.0097135007
-0.05376564 -0.07097064 0.010255218
-0.053341046 -0.071847126 0.01034838
-0.051433142 -0.070720568 0.010873497
-0.051243901 -0.071959518 0.011284888
-0.049936626 -0.071648203 0.011739433
-0.048727181 -0.071466528 0.011865437
-0.047541302 -0.071311951 0.011832356
-0.045935318 -0.070505373 0.012096763
-0.044559337 -0.070021808 0.011490613
-0.044314224 -0.071335092 0.010913819
-0.043253519 -0.071368307 0.010743439
-0.042037416 -0.071140245 0.010585129
-0.041208044 -0.071571864 0.010628819
-0.040283442 -0.071856946 0.010314107
-0.040154725 -0.073616996 0.010317415
-0.038277764 -0.072180927 0.010806382
-0.036639474 -0.071123682 0.01078257
-0.035565082 -0.071130164 0.010651618
-0.03426766 -0.070677049 0.010894805
-0.033476487 -0.071272515 0.010983318
-0.032537572 -0.071582653 0.0112288
-0.030832108 -0.07016962 0.011552393
-0.030296715 -0.071413681 0.011638016
-0.029127175 -0.07119976 0.011240155
-0.027810937 -0.070596993 0.011059523
-0.026811469 -0.070782274 0.010560334
-0.025783194 -0.070903778 0.010020792
-0.024719322 -0.070933707 0.009547174
-0.024003312 -0.072009936 0.0093713999
-0.022623787 -0.071103327 0.00885728
-0.021529915 -0.071048722 0.0086818039
-0.020477535 -0.071132489 0.0086818039
-0.019340282 -0.070914373 0.0087489188
-0.018337252 -0.071191683 0.0091519654
-0.017686417 -0.072956465 0.0095969439
-0.016381472 -0.072078474 0.010146141
-0.015070179 -0.071045123 0.011021525
-0.014016774 -0.071162082 0.012316763
-0.01258378 -0.06921079 0.014136344
-0.011658322 -0.069949932 0.016081452
-0.010667715 -0.070406921 0.016892612
-0.0093611497 -0.068648435 0.017205507
-0.0085004605 -0.070128798 0.017154634
-0.0074070827 -0.069838203 0.017210841
-0.0063888817 -0.070277698 0.017250478
-0.0053618443 -0.070776343 0.01691696
-0.0042679361 -0.070420943 0.016666442
-0.003214556 -0.070720233 0.015838563
-0.0021656908 -0.071467794 0.01462388
-0.0010796066 -0.07125403 0.013614029
0 -0.070134506 0.01300019
0.0010776212 -0.071122997 0.012612909
0.0021715865 -0.071662351 0.012805223
0.0033094892 -0.072808765 0.013142854
0.0043870513 -0.072386347 0.0133681
0.0054195956 -0.071538664 0.014202684
0.0064524058 -0.070976466 0.014531612
0.0074950871 -0.07066796 0.015165895
0.0085567608 -0.070593275 0.015670568
0.009535457 -0.069926687 0.015890539
0.010640651 -0.070228294 0.016200185
0.011621937 -0.069731623 0.016381949
0.012931606 -0.071123831 0.016349047
0.013899517 -0.070566781 0.015855998
0.014843742 -0.069977641 0.015868902
0.015839482 -0.069693722 0.016243994
0.016876543 -0.069615737 0.016212493
0.018189082 -0.070616432 0.015921682
0.019343529 -0.070926271 0.015384495
0.020190937 -0.070136935 0.015226841
0.0213845 -0.070568845 0.015232533
0.022376491 -0.070326112 0.015392274
0.022959229 -0.06887769 0.015413404
0.024520384 -0.070362844 0.015413791
0.025886972 -0.071189165 0.015460849
0.026562272 -0.070124395 0.015274733
0.02743005 -0.069630124 0.014750183
0.028741429 -0.070256822 0.014546216
0.029930359 -0.070550129 0.014549822
0.031195823 -0.070997387 0.014266163
0.032362979 -0.071198545 0.013148993
0.033147335 -0.070571743 0.012380153
0.034192812 -0.070522673 0.011947274
0.035636317 -0.071272634 0.011689335
0.036690433 -0.071222603 0.011304528
0.037556097 -0.070820071 0.010927081
0.038806383 -0.071145035 0.010783195
0.040274575 -0.071841128 0.010349095
0.041187558 -0.071536288 0.010233611
0.041871592 -0.070859618 0.0094319582
0.044003107 -0.072605126 0.0090702176
0.045094639 -0.072591364 0.0085602701
0.045501847 -0.071502894 0.0084712505
0.047728378 -0.073257513 0.0079699159
0.047775522 -0.071663283 0.0071081519
0.048985492 -0.071845382 0.0055541992
-0.064997271 -0.071607165 0.0051437914
-0.063727871 -0.071419165 0.0058965385
-0.062113859 -0.070831597 0.0067154467
-0.061131548 -0.07095626 0.007196188
-0.060095917 -0.071022443 0.0068586171
-0.058394294 -0.070289426 0.0073266029
-0.057011813 -0.069920145 0.0088510215
-0.056633532 -0.070791915 0.0090857148
-0.05529052 -0.070468314 0.0092203915
-0.053485107 -0.069530636 0.0096610487
-0.052729603 -0.069947436 0.010059059
-0.051614024 -0.069893993 0.010227203
-0.050519437 -0.069867305 0.010498106
-0.049725216 -0.070263892 0.010790348
-0.048940185 -0.070691369 0.011182278
-0.047344156 -0.069940232 0.011338711
-0.046352331 -0.07006748 0.011338711
-0.045590196 -0.070556253 0.010894775
-0.043973275 -0.069713727 0.010710865
-0.043637156 -0.070910387 0.010532886
-0.04217786 -0.070296437 0.010559529
-0.040889602 -0.069942743 0.010659784
-0.040798344 -0.071672767 0.010373086
-0.039335385 -0.071022227 0.0108096
-0.038620315 -0.071723439 0.011119038
-0.036486771 -0.069754116 0.011219412
-0.035276294 -0.069483608 0.011390924
-0.033910684 -0.06888108 0.011521846
