ply
format ascii 1.0
comment PCL generated
element vertex 1259
property float x
property float y
property float z
element camera 0
property float view_px
property float view_py
property float view_pz
property float x_axisx
property float x_axisy
property float x_axisz
property float y_axisx
property float y_axisy
property float y_axisz
property float z_axisx
property float z_axisy
property float z_axisz
property float focal
property float scalex
property float scaley
property float centerx
property float centery
property int viewportx
property int viewporty
property float k1
property float k2
end_header
-0.066615574 -0.063339405 0.0055349171
-0.063770868 -0.061645176 0.0056478083
-0.063741475 -0.062661119 0.0054394007
-0.063829839 -0.063829839 0.0052083731
-0.06183818 -0.062923066 0.0054184198
-0.06047935 -0.062639326 0.005115211
-0.069471247 -0.062854931 0.0057809353
-0.067909479 -0.062432908 0.0061024129
-0.066132404 -0.061795853 0.0062856972
-0.066408187 -0.063087776 0.0062986314
-0.064827763 -0.062630214 0.0062050819
-0.062559165 -0.061480556 0.0062050819
-0.062673837 -0.062673837 0.0059368908
-0.061571755 -0.062671252 0.0056132972
0.048911609 -0.060607858 0.0050245523
-0.070009895 -0.061258659 0.0054569542
-0.068197913 -0.060620368 0.0058789551
-0.06738846 -0.060866997 0.0063947439
-0.066854119 -0.061374273 0.0064204335
-0.065301768 -0.060948316 0.0065414608
-0.064338565 -0.061067112 0.0066262186
-0.062871613 -0.06070362 0.0066262186
-0.061757836 -0.060674366 0.0060118139
-0.060805518 -0.060805518 0.0061633587
-0.059986468 -0.061077129 0.0055993795
-0.058611318 -0.060782105 0.0050016046
0.045523543 -0.060698055 0.0055725574
0.046290744 -0.06028562 0.0064280629
0.047547612 -0.060515143 0.0064280629
0.048499011 -0.060354322 0.0068397224
0.049325757 -0.060048744 0.0073004961
0.050519202 -0.060193092 0.0071605742
0.051452618 -0.060028054 0.0057032406
0.05342856 -0.061061215 0.0052805245
-0.069246553 -0.059508756 0.0058585703
-0.068043843 -0.059403352 0.006583184
-0.067210972 -0.059622634 0.0067993104
-0.066836283 -0.060262226 0.0069483817
-0.064559892 -0.059179902 0.006967783
-0.064455219 -0.060085375 0.0068962872
-0.06324631 -0.05997495 0.0068174601
-0.062051199 -0.059873965 0.006690532
-0.061499324 -0.060401123 0.0062687099
-0.059637811 -0.059637811 0.0058099627
-0.057867881 -0.058939505 0.0054416955
0.037512187 -0.060681477 0.0051111579
0.042549457 -0.06000565 0.0050558746
0.043634806 -0.05999786 0.0059680939
0.043697041 -0.058617979 0.0065526068
0.045021556 -0.058956798 0.007183522
0.046360567 -0.0592984 0.0076570511
0.047254458 -0.059068076 0.0082613826
0.048282981 -0.059012529 0.008738786
0.049287114 -0.058930248 0.0091810524
0.050541807 -0.059144668 0.0089002252
0.050991926 -0.058428254 0.0087982714
0.053414162 -0.059954673 0.0075551569
0.053882461 -0.059270706 0.0056901276
0.056618299 -0.06105895 0.0052368343
-0.071262754 -0.059202909 0.0052802265
-0.069452487 -0.058600534 0.0059368908
-0.069390073 -0.059477206 0.0064744651
-0.067247748 -0.058570616 0.0068121552
-0.066220313 -0.058621265 0.00692904
-0.066212758 -0.059591483 0.0070354044
-0.063679062 -0.058282532 0.0070354044
-0.062979102 -0.058635715 0.0070607364
-0.062358037 -0.059076037 0.0065282583
-0.06075529 -0.058585461 0.006418407
-0.05945652 -0.058375493 0.0059378147
-0.059047997 -0.059047997 0.0055691302
0.028544536 -0.059284806 0.0055419803
0.029048303 -0.058096606 0.006287992
0.031013697 -0.059812132 0.0063982606
0.0316508 -0.058935974 0.006588608
0.032351241 -0.058232233 0.0064382255
0.034192905 -0.059561834 0.0065704584
0.03458168 -0.058356587 0.006739229
0.035581753 -0.058224693 0.0075491965
0.037240073 -0.059146002 0.0073852539
0.036999866 -0.05708551 0.0072470903
0.040248062 -0.060372096 0.0067254603
0.040241409 -0.058730703 0.0069357753
0.041093256 -0.058395684 0.0067709088
0.041869216 -0.057972766 0.0067840219
0.043930683 -0.059306424 0.0071978569
0.043970313 -0.057912119 0.0073136985
0.045808896 -0.058897153 0.0082715452
0.046419825 -0.058294665 0.0090883374
0.047082417 -0.057782967 0.0097748935
0.048631337 -0.0583576 0.010013759
0.049308915 -0.057884376 0.010308325
0.049901184 -0.057333276 0.010252535
0.051049069 -0.057430204 0.0099485517
0.051676966 -0.05695013 0.0091098845
0.054805737 -0.059190199 0.0081746876
0.054918632 -0.05814914 0.0066863
0.057059467 -0.059254065 0.0051905811
-0.070083067 -0.057144653 0.0051106215
-0.069971465 -0.057945117 0.0057533681
-0.069103792 -0.058134932 0.006377995
-0.067187838 -0.057434764 0.0068073869
-0.066865034 -0.058095846 0.0071024001
-0.065175757 -0.057571918 0.0069313347
-0.063343138 -0.056901459 0.0069313347
-0.063259646 -0.057806224 0.0068306029
-0.061487686 -0.05717276 0.0064765215
-0.060825162 -0.057566673 0.0066896677
-0.059775464 -0.057601806 0.0059707463
-0.058517046 -0.057433397 0.005595386
0.025692085 -0.056736689 0.005168587
0.027188441 -0.057639491 0.0062407255
0.02792025 -0.056914356 0.0067525804
0.029144112 -0.05720881 0.0068926215
0.030000627 -0.056786902 0.0075222254
0.031117374 -0.056869678 0.0074993372
0.032662012 -0.057702884 0.00804919
0.033191424 -0.056746621 0.0091647804
0.034548622 -0.057221148 0.0098136663
0.035708677 -0.0573503 0.0092313588
0.036777098 -0.057329003 0.0091041923
0.037937228 -0.057447802 0.0085476041
0.039654285 -0.058379918 0.0084122121
0.039506182 -0.056589931 0.0083419681
0.041239277 -0.057517938 0.0076617897
0.042704124 -0.058033809 0.0076462328
0.043413229 -0.057522532 0.0085649788
0.044709511 -0.057795219 0.0088175833
0.045071293 -0.056875676 0.0089995861
0.046396136 -0.057185933 0.0096226335
0.048311308 -0.058193166 0.010240465
0.0474279 -0.055859521 0.010329783
0.049302801 -0.056805398 0.010595918
0.050216485 -0.056627098 0.010700941
0.050866805 -0.056165427 0.010307401
0.052105345 -0.056358844 0.010077834
0.053728685 -0.056952402 0.0091704428
0.053670179 -0.05577489 0.0080106556
0.056276716 -0.057358962 0.0065637231
0.057369363 -0.057369363 0.0053492785
-0.070203699 -0.057040501 0.005643189
-0.068071701 -0.056186162 0.0062375069
-0.06766849 -0.056754213 0.0065928698
-0.066532359 -0.056716111 0.0070647001
-0.06468676 -0.056061856 0.0069844723
-0.064404488 -0.056763273 0.0070284903
-0.062783234 -0.056288414 0.0068929791
-0.062087297 -0.056641042 0.0067887008
-0.061142921 -0.05677557 0.0065132678
-0.059418745 -0.05617772 0.0059954226
-0.058716834 -0.056542136 0.0057785213
0.023587871 -0.055753149 0.0051979721
0.025005156 -0.056533396 0.0063074529
0.026098724 -0.056547236 0.0068590343
0.027192654 -0.056560718 0.0074773729
0.028257119 -0.056514237 0.0087226033
0.028821163 -0.055507421 0.0091121495
0.030287255 -0.05624776 0.0095688701
0.031193823 -0.055933747 0.0095798671
0.031948887 -0.055378068 0.0097257793
0.033742201 -0.056599818 0.010346353
0.034461323 -0.055999652 0.010450602
0.035632614 -0.056148365 0.010367841
0.036909744 -0.056450199 0.010343015
0.036966857 -0.054922186 0.0096077323
0.038153581 -0.05511073 0.0093000233
0.040510245 -0.056933314 0.0094591975
0.041696265 -0.057058044 0.0095688701
0.042107485 -0.056143314 0.009287715
0.043826636 -0.056974627 0.0096316934
0.043557167 -0.055243231 0.0097760558
0.045126095 -0.055870403 0.010240465
0.047145199 -0.057012796 0.010544211
0.047036022 -0.055588026 0.010947764
0.047762111 -0.05519177 0.010820478
0.050459854 -0.057041574 0.011106849
0.050684124 -0.056076054 0.011188924
0.051251892 -0.055522885 0.010806143
0.0516866 -0.054851089 0.010052681
0.053751763 -0.055901829 0.0095895827
0.055171054 -0.056252841 0.0093292594
0.056955688 -0.056955688 0.0079917312
0.057181023 -0.056102134 0.005702883
-0.07007245 -0.055838984 0.0055127442
-0.068450414 -0.055412237 0.006131053
-0.067611583 -0.055615976 0.0066983402
-0.066148013 -0.05530408 0.0069104433
-0.065065764 -0.055305898 0.0068929791
-0.06384889 -0.055191413 0.0070573092
-0.062243652 -0.054731485 0.0069637001
-0.061673027 -0.055181131 0.0068306029
-0.061098173 -0.055642981 0.0066989958
-0.059911873 -0.055554643 0.0065132678
-0.059266023 -0.055973466 0.0061249137
-0.05781861 -0.055636778 0.0052739382
-0.045526821 -0.055282567 0.0055789053
0.021160336 -0.056798797 0.0051406324
0.021728877 -0.055408638 0.0059957206
0.022645013 -0.05499503 0.0064095557
0.023608604 -0.054729041 0.0068823099
0.024692208 -0.054752287 0.0075364113
0.025943208 -0.055129319 0.0077648461
0.027353667 -0.055801477 0.0094338059
0.028349204 -0.055608056 0.0098714232
0.029053489 -0.054878812 0.010363877
0.030484343 -0.055525053 0.010401517
0.031142417 -0.054767698 0.010746002
0.032349817 -0.054994687 0.010819346
0.033504173 -0.055119768 0.011333168
0.033738967 -0.053771477 0.01148513
0.036063582 -0.055734627 0.011545241
0.036413141 -0.054619707 0.011740178
0.037334908 -0.054402296 0.010811538
0.038647059 -0.054750003 0.010166496
0.039479975 -0.05441834 0.010142267
0.041219648 -0.055321109 0.009975642
0.042620823 -0.055734921 0.0096945167
0.043264959 -0.055162825 0.009975642
0.043827403 -0.054517012 0.010025352
0.045660742 -0.055445183 0.010142267
0.046091843 -0.054667071 0.010290176
0.047624853 -0.055201534 0.010927379
0.048263963 -0.054699156 0.010776788
0.049499787 -0.054880198 0.01121527
0.050163455 -0.054432686 0.011188924
0.052320179 -0.05559019 0.010552227
0.052302934 -0.054437749 0.0099195838
0.053123239 -0.054185703 0.0095311999
0.054478239 -0.054478239 0.0092218816
0.055472981 -0.054406196 0.0078834891
0.057869468 -0.055685718 0.0059825182
-0.070074566 -0.054745752 0.005346477
-0.068689607 -0.054515563 0.0058566034
-0.066790462 -0.053863272 0.0060695708
-0.066383414 -0.054412637 0.0066218674
-0.065778553 -0.054815464 0.006831795
-0.063094765 -0.053470142 0.0068825483
-0.0631935 -0.054477155 0.0066962838
-0.061623514 -0.054055717 0.0065709949
-0.061227545 -0.054667454 0.0067290366
-0.060190625 -0.054718751 0.0062716305
-0.058892272 -0.054529883 0.0060212016
-0.05805565 -0.054769486 0.0052621663
-0.04806501 -0.053405568 0.0056082308
-0.04779562 -0.054313205 0.0067557991
-0.046225008 -0.053750012 0.0074659586
-0.045366418 -0.054007642 0.0081388354
-0.045287114 -0.055228185 0.0079344511
-0.043321621 -0.05415203 0.0069021881
-0.04210313 -0.053978376 0.0061795115
-0.041774843 -0.054966897 0.0055398941
-0.040129714 -0.054229345 0.0051130354
0.018267814 -0.053728864 0.0057862401
0.019903896 -0.055288605 0.0071056783
0.020613408 -0.054245811 0.0071475208
0.021550694 -0.053876739 0.0074289739
0.022997165 -0.054755155 0.0075137019
0.023779403 -0.054044101 0.0077290833
0.024469225 -0.053193968 0.0090081394
0.026202014 -0.054587528 0.0099035203
0.02684279 -0.053685579 0.010231942
0.028265355 -0.054356452 0.010720313
0.029724246 -0.055044901 0.011412799
0.030081393 -0.053716775 0.011372298
0.031034786 -0.053508252 0.011412799
0.031717211 -0.052862022 0.011415422
0.033297583 -0.053705782 0.011751711
0.034343846 -0.053662263 0.011836648
0.035465773 -0.053736024 0.011873186
0.036356725 -0.053465772 0.012210846
0.037791576 -0.053987969 0.011479616
0.037973396 -0.052740835 0.011573136
0.038624935 -0.052195858 0.011395723
0.041076686 -0.054048274 0.011311591
0.041715592 -0.053481534 0.010567814
0.043333665 -0.054167081 0.010395378
0.044731822 -0.054551002 0.010224968
0.046243466 -0.055051744 0.010207474
0.046620823 -0.054210264 0.010224968
0.048232291 -0.054809425 0.010732055
0.047878303 -0.053198114 0.010442346
0.049603462 -0.053916804 0.010947764
0.050642062 -0.053874537 0.01069212
0.050845254 -0.052963808 0.010046363
0.052221827 -0.053287581 0.0095701814
0.054247316 -0.054247316 0.0093358159
0.054644905 -0.053573437 0.0089589655
0.055933032 -0.053781766 0.0077803433
0.058074731 -0.054787483 0.0054729879
-0.068224072 -0.053063162 0.005553484
-0.067667075 -0.053478815 0.0056191087
-0.065786287 -0.052844722 0.0061258376
-0.064325526 -0.052532513 0.0066068769
-0.063746035 -0.05294162 0.0066218674
-0.063177615 -0.05337419 0.0064937174
-0.062260196 -0.05352192 0.0066636205
-0.061531197 -0.053839795 0.006714046
-0.05992499 -0.053387716 0.006197691
-0.05870907 -0.053273041 0.0060922205
-0.058753639 -0.0543194 0.0053572655
-0.056556832 -0.054338917 0.0050789118
-0.05540479 -0.054296691 0.0050228834
-0.053797808 -0.053797808 0.0053518116
-0.053269278 -0.054379053 0.0063615143
-0.050928533 -0.053095702 0.0070549548
-0.049258791 -0.052471317 0.0073248744
-0.048972696 -0.053325821 0.0084390342
-0.046830516 -0.052152164 0.0089606047
-0.045457423 -0.051800314 0.0090332925
-0.045314357 -0.052866746 0.0091400743
-0.044283666 -0.052924376 0.0089856386
-0.043337103 -0.05308795 0.008652389
-0.042752538 -0.053714722 0.0081300437
-0.041107416 -0.053006928 0.0079191923
-0.039722607 -0.05260561 0.0077117682
-0.039317377 -0.053515319 0.0064946711
-0.038735788 -0.054230105 0.0057504475
0.013081735 -0.053417083 0.0053224862
0.013821632 -0.052096918 0.006064266
0.015340031 -0.053690106 0.0061423182
0.016309086 -0.053276345 0.0067086816
0.017334709 -0.053087547 0.0071251392
0.018325798 -0.052821416 0.00737378
0.019649837 -0.053491224 0.0075977445
0.020388797 -0.052581631 0.0080117285
0.021824431 -0.053469855 0.0080717802
0.022591643 -0.05271383 0.0081179738
0.023246838 -0.051777046 0.009106487
0.024808817 -0.052853562 0.0097843707
0.025715524 -0.052502528 0.010710806
0.027140891 -0.053196143 0.010819346
0.027909616 -0.05259889 0.011394173
0.0291414 -0.05288624 0.011579454
0.029897792 -0.052321132 0.011579454
0.031562388 -0.05332955 0.011741936
0.031953163 -0.052190166 0.011699647
0.032680992 -0.051657047 0.012399524
0.034012519 -0.052081667 0.012800932
0.03474994 -0.051598396 0.013044477
0.035725921 -0.051487356 0.012992293
0.037739698 -0.052835576 0.012682348
0.038058665 -0.051802073 0.012397945
0.0393948 -0.052171487 0.01194337
0.040480033 -0.052197933 0.011591434
0.041840959 -0.052569408 0.011402428
0.043679193 -0.053507011 0.011311591
0.044063948 -0.052661788 0.010395378
0.045243565 -0.052784156 0.010224968
0.046753913 -0.053277712 0.010199547
0.046650499 -0.051951692 0.0103921
0.048666835 -0.052992772 0.010372043
0.049626682 -0.052863203 0.010442346
0.050004616 -0.052132469 0.010528475
0.051558632 -0.052632771 0.0099468827
0.052602563 -0.052602563 0.0094800889
0.053344641 -0.052277744 0.0092404187
0.054866467 -0.05271484 0.0082255006
0.056068406 -0.052833688 0.0072081387
0.055741854 -0.051534921 0.0059939623
-0.067189701 -0.05201783 0.0053351521
-0.065706916 -0.051703803 0.0056013465
-0.065310806 -0.052248642 0.0059903264
-0.063870706 -0.05196261 0.0063759685
-0.062657401 -0.051854398 0.0063768327
-0.062630363 -0.05274136 0.0064187348
-0.061236944 -0.052488808 0.0064737797
-0.060176808 -0.052517943 0.0061249137
-0.060200617 -0.053511657 0.005723387
-0.058287341 -0.052788537 0.0052739382
-0.056680676 -0.053346515 0.0050243437
-0.05509666 -0.052892793 0.0062927902
-0.053201124 -0.052115388 0.00655213
-0.052049946 -0.052049946 0.0072615743
-0.050279368 -0.051349141 0.00869748
-0.049599815 -0.051756326 0.0090326965
-0.048811156 -0.052065231 0.0091653168
-0.047209777 -0.051501576 0.0093581676
-0.046283659 -0.051665477 0.0095829368
-0.044518467 -0.050878245 0.0099243224
-0.044197984 -0.051743977 0.009945333
-0.04346801 -0.052161612 0.0091258585
-0.041698236 -0.051320907 0.0089718103
-0.041094393 -0.051908705 0.008558929
-0.040124744 -0.05205372 0.0084849298
-0.038675606 -0.05156748 0.0078882873
-0.038289189 -0.052510891 0.0076047778
-0.036858477 -0.052035496 0.0063699782
-0.035686161 -0.051907141 0.005643636
0.0097654732 -0.052082524 0.0050709546
0.010866837 -0.052160818 0.0054233372
0.011942763 -0.052113876 0.0061431229
0.013068939 -0.052275755 0.0064675212
0.014035 -0.051821541 0.0068074465
0.015056606 -0.051622652 0.0067658126
0.016286729 -0.05211753 0.0071043074
0.017238252 -0.051714752 0.0075977445
0.018527666 -0.05231341 0.0078469515
0.019368291 -0.051648781 0.0085374415
0.020630421 -0.052118957 0.0087800622
0.021650743 -0.051961787 0.0089160204
0.0227939 -0.052100342 0.0090893209
0.024260517 -0.052932039 0.0098105967
0.024959391 -0.052089162 0.010003239
0.025659362 -0.051318724 0.011283785
0.026781891 -0.051421229 0.011526346
0.028326329 -0.052294757 0.011391222
0.028889116 -0.051358424 0.011699647
0.030204311 -0.051778819 0.011727273
0.031011393 -0.051329199 0.012189537
0.03196447 -0.051143147 0.01215446
0.03288905 -0.050924975 0.012989491
0.033476077 -0.050214116 0.013351738
0.035397436 -0.051487181 0.013432652
0.03632519 -0.051282618 0.01349625
0.037491236 -0.051416554 0.0135144
0.038682118 -0.05157616 0.013324291
0.038726132 -0.050239302 0.013071895
0.040114105 -0.050670445 0.012185305
0.041406821 -0.050962243 0.011965007
0.043190878 -0.051829055 0.01183337
0.044190574 -0.051735304 0.010935068
0.045691933 -0.05221935 0.010395378
0.046635702 -0.052058458 0.010240465
0.048120715 -0.052495327 0.010306507
0.0494393 -0.05273525 0.010160983
0.049193081 -0.051331908 0.01026085
0.050050437 -0.051115341 0.010219932
0.051899895 -0.051899895 0.0096016824
0.052441359 -0.051371127 0.0093486607
0.054462813 -0.0522843 0.0085649192
0.054931611 -0.051700339 0.0077631474
0.055469807 -0.051202897 0.007016331
0.058106005 -0.052624308 0.0050520897
-0.066562124 -0.051285572 0.0052804053
-0.065282792 -0.051138185 0.0057678223
-0.06380064 -0.05082424 0.0058471262
-0.063057795 -0.051098555 0.0059188902
-0.062026296 -0.051144492 0.0059188902
-0.060774196 -0.051006917 0.0060158372
-0.060550518 -0.051743168 0.0056504309
-0.058396384 -0.050826482 0.0053241253
-0.057782233 -0.05124085 0.0052009821
-0.057809398 -0.052250803 0.0050474405
-0.056047432 -0.051651556 0.0058708787
-0.054779008 -0.051492266 0.0066503882
-0.053770263 -0.05157556 0.0071946979
-0.051536754 -0.050463073 0.0083689988
-0.050271276 -0.050271276 0.0093989372
-0.04938443 -0.050458003 0.0095914602
-0.048305281 -0.05045218 0.010055602
-0.047363825 -0.050593179 0.010262728
-0.046646617 -0.050985839 0.010428667
-0.044941179 -0.050291318 0.010572642
-0.044796217 -0.051351756 0.010526806
-0.043374546 -0.050965093 0.010338515
-0.041578691 -0.050107654 0.0096742809
-0.041459143 -0.051278416 0.0091164708
-0.039560717 -0.050252803 0.0092176497
-0.039479431 -0.051542591 0.0088585615
-0.038429122 -0.051604822 0.0084494352
-0.035939768 -0.049681444 0.0079200864
-0.035427649 -0.05045756 0.007532239
-0.035201255 -0.051701847 0.0061423481
-0.033555623 -0.05087465 0.0052334666
-0.032569844 -0.051026087 0.0052548647
-0.032076687 -0.051986355 0.0050801933
-0.0054907636 -0.051613178 0.0050262511
-0.0043733548 -0.051386919 0.0053081214
-0.0032949839 -0.051621418 0.0057500005
-0.0021690752 -0.05097327 0.006059438
-0.0011167044 -0.052485108 0.0057321191
0 -0.050501417 0.0052603483
0.0010935104 -0.051394988 0.0052839518
0.0031977897 -0.050098706 0.00529778
0.0043694791 -0.051341381 0.0054379404
0.0055452622 -0.052125469 0.0055562556
0.0065556318 -0.051352449 0.0055441558
0.0077479589 -0.05202201 0.0057474077
0.0086378846 -0.050747573 0.0065582097
0.0097470796 -0.05090142 0.0065373182
0.010959617 -0.051510204 0.0070963204
0.011906968 -0.050875232 0.0071896017
0.012991406 -0.050883006 0.0077601671
0.013873864 -0.050159357 0.0077434778
0.015224541 -0.051110957 0.0077740252
0.016333247 -0.051177509 0.0079372525
0.017586993 -0.051661789 0.0086172521
0.018055817 -0.04991902 0.008849144
0.01969411 -0.051423512 0.009580791
0.020441059 -0.050564725 0.0096752048
0.021347387 -0.050166361 0.0099376142
0.023133298 -0.051774524 0.010116518
0.023393583 -0.049977202 0.010726392
0.024524467 -0.050115213 0.010794759
0.025894633 -0.05071032 0.011474341
0.026662771 -0.050126005 0.011601448
0.027625948 -0.049939215 0.011729002
0.029045999 -0.050561551 0.012455821
0.030076096 -0.050484873 0.012712002
0.030694617 -0.049746446 0.013178915
0.032191187 -0.050432857 0.01294595
0.032924827 -0.049918287 0.013560146
0.034308765 -0.050391 0.013977677
0.035047222 -0.049915742 0.014208794
0.035831027 -0.049531128 0.014431834
0.037206504 -0.04996302 0.014319658
0.039010394 -0.050930239 0.013922244
0.039025206 -0.049572557 0.013787538
0.040105127 -0.049603708 0.013392895
0.041235469 -0.049694028 0.012752265
0.043063592 -0.050599724 0.012092441
0.044951834 -0.051530153 0.011145055
0.045135971 -0.0505093 0.010299116
0.046152055 -0.050445274 0.010076702
0.048553154 -0.051863596 0.010000795
0.047796119 -0.049920391 0.0099520981
0.04950067 -0.050576773 0.0099724829
0.050864965 -0.050864965 0.0099474192
0.050849792 -0.049790423 0.0087129176
0.052639127 -0.050490592 0.0084721744
0.053925619 -0.050690077 0.0079942942
0.055008724 -0.050694317 0.0073609948
0.055982362 -0.050599441 0.0064814985
-0.06426058 -0.05010147 0.0052176118
-0.063378058 -0.050265353 0.0057785213
-0.061759979 -0.049841389 0.0058271587
-0.061513677 -0.050529093 0.0059626102
-0.059880946 -0.050082248 0.0058222413
-0.05945031 -0.050642855 0.0058222413
-0.058505174 -0.050778076 0.0058754683
-0.057032201 -0.050451562 0.0059970021
-0.055523828 -0.050080318 0.0065643191
-0.053736459 -0.049437542 0.0074418783
-0.052936867 -0.049695835 0.009083569
-0.052735094 -0.050537799 0.0096013844
-0.050056443 -0.048991412 0.010571122
-0.048999742 -0.048999742 0.010702878
-0.048625086 -0.049705639 0.010706484
-0.047358703 -0.049511373 0.01106599
-0.045724832 -0.048914939 0.01121515
-0.045100696 -0.049396001 0.011168927
-0.044018257 -0.049386337 0.010991365
-0.042907037 -0.049343094 0.010751367
-0.042213641 -0.049790453 0.010389715
-0.040936958 -0.049555264 0.0099060833
-0.039859883 -0.049555533 0.010136753
-0.039462421 -0.050424211 0.0096321702
-0.038040854 -0.049996551 0.0091011524
-0.036551327 -0.049451794 0.0088511705
-0.03584617 -0.04996739 0.0083533227
-0.034533035 -0.049641237 0.0078220963
-0.033941526 -0.050364845 0.0075722337
-0.032696929 -0.050135288 0.0074904263
-0.031567197 -0.050072104 0.0077123046
-0.03073781 -0.050497834 0.0074662864
-0.029584659 -0.050403491 0.0072665811
-0.028047198 -0.049621969 0.0068752766
-0.027213015 -0.050071947 0.0070064366
-0.026662491 -0.051103108 0.0070516467
-0.024712307 -0.049424615 0.0071371794
-0.024278531 -0.050764203 0.0077235997
-0.022544108 -0.049382333 0.0077810585
-0.021814518 -0.050173391 0.0075974464
-0.02114936 -0.051203713 0.0065638423
-0.019356621 -0.049466923 0.0067513585
-0.018259561 -0.049408223 0.0064619184
-0.017550385 -0.050457358 0.0066229105
-0.016149964 -0.049526557 0.0064191818
-0.01523314 -0.050051749 0.0058704317
-0.014202118 -0.050253652 0.0058839917
-0.013040178 -0.04998735 0.0062537789
-0.01191904 -0.049843263 0.006267339
-0.010970631 -0.050464906 0.0064181983
-0.0095836334 -0.048983019 0.0066025853
-0.0087387171 -0.050247625 0.006577462
-0.0077938489 -0.051216725 0.0066403449
-0.006473925 -0.049633428 0.0073243678
-0.0054145032 -0.049813431 0.0077451169
-0.0043293 -0.049786951 0.0083073974
-0.0032254199 -0.04945644 0.008115232
-0.0021803586 -0.050148252 0.0091556609
-0.0010736522 -0.049388003 0.0090982318
0 -0.050143298 0.0075955987
0.001089402 -0.050112493 0.0070459545
0.0021239021 -0.04884975 0.0057421923
0.003293203 -0.050495781 0.0065607131
0.0043096743 -0.049561255 0.0068421066
0.0055462467 -0.051025473 0.0074330568
0.0065549673 -0.050254751 0.0078298748
0.0076598744 -0.05033632 0.0074484646
0.008704802 -0.050052609 0.0080311298
0.0097384276 -0.049774189 0.0085088909
0.010951858 -0.05037855 0.0081796348
0.011803141 -0.049358591 0.0082517564
0.01310557 -0.050238024 0.0090539455
0.01401558 -0.04959359 0.0090858638
0.014979721 -0.049219087 0.0094003081
0.016060071 -0.049250886 0.0095317662
0.016873434 -0.048511125 0.0097131133
0.018763712 -0.050772395 0.009770751
0.019749854 -0.05047185 0.010184914
0.020592919 -0.04985654 0.010732681
0.021699565 -0.049909003 0.011234879
0.022634305 -0.049579907 0.011299521
0.023352366 -0.048827678 0.011382282
0.024628848 -0.049257696 0.01152879
0.025765613 -0.049384095 0.011751711
0.026850255 -0.049404468 0.011914611
0.027724998 -0.049051922 0.012635738
0.028851936 -0.04915515 0.012783051
0.03006945 -0.049399812 0.013024062
0.030913634 -0.049035419 0.01297915
0.031928528 -0.048957076 0.012919158
0.033031579 -0.049014598 0.013335228
0.033450916 -0.048085697 0.013570845
0.034899808 -0.04864822 0.013874561
0.036058776 -0.048785403 0.013944238
0.037062902 -0.048711248 0.013940364
0.038372036 -0.049030941 0.013799429
0.039489385 -0.049094912 0.013648063
0.040620703 -0.049172428 0.013223559
0.041157831 -0.048545133 0.012531936
0.043570112 -0.050105631 0.011865169
0.044183806 -0.049572073 0.010849625
0.044794511 -0.049060654 0.010376632
0.046911079 -0.050183948 0.010076702
0.047311012 -0.049461514 0.0099107325
0.049150646 -0.050242882 0.009750098
0.050503042 -0.050503042 0.009750098
0.050636161 -0.049558796 0.0094875097
0.051967096 -0.0498018 0.0082715452
0.052615698 -0.049394332 0.0079135299
0.053333692 -0.049066998 0.0075189769
0.055502374 -0.050060965 0.0070683062
0.05721027 -0.050609089 0.0056448281
-0.062378846 -0.04924646 0.0051027238
-0.060508922 -0.048623241 0.0052804053
-0.060445577 -0.049455475 0.0052176118
-0.059927206 -0.049939342 0.0053141713
-0.058225211 -0.049436502 0.0059970021
-0.055797998 -0.048286732 0.006698072
-0.055548366 -0.049013268 0.0073707998
-0.053805441 -0.048424896 0.0086496472
-0.05264499 -0.048347443 0.0094621181
-0.052030578 -0.048778668 0.010120213
-0.050423894 -0.048278198 0.011093825
-0.049700104 -0.048619669 0.011068374
-0.04817519 -0.04817519 0.011047035
-0.047438104 -0.048516244 0.011279613
-0.046165004 -0.048312213 0.011408508
-0.044741139 -0.047936939 0.011289388
-0.043694362 -0.047957227 0.011263192
-0.042851437 -0.048207872 0.01097858
-0.041983113 -0.048442055 0.010825068
-0.040524267 -0.047989268 0.010376513
-0.039701313 -0.04828538 0.010361075
-0.038884617 -0.048605777 0.010172367
-0.037734535 -0.048515834 0.010025591
-0.036727797 -0.048610322 0.0099851787
-0.035754532 -0.048756182 0.0097239912
-0.034873191 -0.049040429 0.0096700788
-0.033332963 -0.048386559 0.0096285343
-0.032570098 -0.048855152 0.0096518099
-0.031730246 -0.049236592 0.010377228
-0.030482365 -0.048989516 0.010508001
-0.028631469 -0.047719117 0.010665476
-0.028232696 -0.048864283 0.0099368393
-0.027164686 -0.048896436 0.0099143386
-0.026279453 -0.049273979 0.010400474
-0.025061501 -0.049033374 0.010452092
-0.02344143 -0.047948387 0.010707438
-0.022554232 -0.048330501 0.01093629
-0.02163302 -0.048674297 0.01103425
-0.020729786 -0.049096864 0.010569364
-0.019316284 -0.048290711 0.010400474
-0.018519912 -0.0490233 0.010014594
-0.017052535 -0.047960259 0.0093207657
-0.016547775 -0.049643327 0.0089693367
-0.015289975 -0.04914635 0.0083529651
-0.014024233 -0.048545428 0.0083529651
-0.013014764 -0.048805363 0.0080825388
-0.01205564 -0.049318533 0.0080825388
-0.010721718 -0.048247732 0.0083529651
-0.0098332996 -0.049166504 0.0091235042
-0.0086539332 -0.04867838 0.0092123449
-0.0075504887 -0.048538856 0.0092924237
-0.0065429932 -0.049072452 0.0094406903
-0.0053608874 -0.048247989 0.0096518993
-0.0043300311 -0.04871285 0.010314435
-0.0032819489 -0.049229234 0.010053575
-0.0021564914 -0.04852106 0.010307521
-0.0010785586 -0.048535142 0.010306001
0 -0.048598006 0.010381579
0.0010643799 -0.047897097 0.0097085834
0.0021767295 -0.048976414 0.0090674758
0.0032239626 -0.048359443 0.0087865293
0.0043014325 -0.048391115 0.0090117753
0.0054917592 -0.049425837 0.0090080798
0.0064808312 -0.048606236 0.008985728
0.0076878937 -0.049422175 0.0088510811
0.0087125758 -0.049008243 0.0090579391
0.0096659223 -0.048329618 0.0092056096
0.010858011 -0.048861053 0.00948897
0.011827773 -0.048386347 0.00982216
0.013134684 -0.049255069 0.010114521
0.01382111 -0.047842309 0.010407656
0.015095831 -0.048522316 0.010494709
0.015882012 -0.047646038 0.010626167
0.017189126 -0.048344422 0.010877937
0.018314078 -0.048478443 0.01054278
0.019419793 -0.048549488 0.011538535
0.02010419 -0.047615189 0.011342615
0.021664489 -0.048745103 0.011541814
0.022403015 -0.048006464 0.011643887
0.023485355 -0.048038229 0.011769742
0.024595389 -0.048121415 0.011738539
0.025362002 -0.047553755 0.012620181
0.026576551 -0.04783779 0.012653559
0.027836513 -0.048178583 0.012976646
0.028811028 -0.048018381 0.013024062
0.030135397 -0.048431892 0.013154477
0.030748755 -0.047713585 0.013132036
0.031770665 -0.047656 0.013076097
0.033274904 -0.048302282 0.01334849
0.034009192 -0.047825426 0.013437599
0.034963354 -0.047677301 0.013851315
0.036475293 -0.048276126 0.013672531
0.036997169 -0.047567796 0.014017165
0.038467459 -0.048084326 0.013667583
0.039167732 -0.047636434 0.013765156
0.040065795 -0.04744634 0.013416886
0.041642055 -0.048048526 0.012829959
0.042069998 -0.047328752 0.011865169
0.044230685 -0.048545871 0.010562599
0.045272689 -0.048506454 0.010257721
0.046133917 -0.04827968 0.010000795
0.047464605 -0.048543349 0.0097676218
0.049321447 -0.049321447 0.0091561377
0.050306574 -0.049212955 0.0086923838
0.050969824 -0.048800901 0.0083931684
0.052045017 -0.048792206 0.0076341033
0.052957404 -0.048634354 0.0076341033
0.054701395 -0.049231257 0.0070161521
0.055609684 -0.049067371 0.0059792399
0.056016739 -0.048476025 0.0054640472
-0.062949792 -0.048592824 0.0050345957
-0.061715297 -0.048490591 0.0056832135
-0.060996938 -0.048797548 0.0059188902
-0.059090246 -0.048147608 0.006339103
-0.057705887 -0.047906771 0.0066779256
-0.057150893 -0.048358448 0.0072658062
-0.054956209 -0.0474132 0.0091880262
-0.053958334 -0.047483332 0.0094224513
-0.053092614 -0.047674999 0.0099851489
-0.051256031 -0.046984695 0.010820091
-0.051447667 -0.048163772 0.011080623
-0.049561232 -0.047406394 0.011158437
-0.048893012 -0.047806498 0.01148048
-0.047991794 -0.047991794 0.011486083
-0.045983188 -0.047052562 0.01160869
-0.045219164 -0.047372457 0.011451811
-0.044423185 -0.047673661 0.011385679
-0.042720754 -0.046992831 0.011270434
-0.041596927 -0.046929866 0.011115342
-0.041133773 -0.047628578 0.010557622
-0.039692029 -0.047201328 0.010783046
-0.0387257 -0.047331411 0.010525137
-0.038213998 -0.048040453 0.010371953
-0.036930837 -0.047792848 0.010371953
-0.03557292 -0.04743056 0.010276318
-0.034499899 -0.047437359 0.010175318
-0.033104148 -0.046986531 0.010251135
-0.032756697 -0.048043158 0.010371953
-0.031332191 -0.047538497 0.010709852
-0.030003119 -0.047147758 0.011196434
-0.029081792 -0.047392547 0.011415631
-0.027957354 -0.047312446 0.011685908
-0.026884776 -0.047317203 0.011427999
-0.025888784 -0.047462769 0.011974156
-0.024546456 -0.046958432 0.012468189
-0.023486463 -0.046972927 0.012561828
-0.022754889 -0.04767691 0.012895733
-0.021221256 -0.046686765 0.013100326
-0.020423735 -0.047297068 0.013162136
-0.019535199 -0.047752708 0.013118446
-0.017987618 -0.046556186 0.012989312
-0.01707175 -0.046947308 0.012768924
-0.016291568 -0.047788601 0.011278272
-0.015036371 -0.047257166 0.011322945
-0.014135186 -0.047842167 0.010297835
-0.013161555 -0.048259035 0.010059088
-0.011764375 -0.047057498 0.010297835
-0.010832515 -0.047663063 0.010254771
-0.0097100241 -0.047471229 0.010102361
-0.0087537514 -0.048145633 0.010157615
-0.0075118388 -0.047217272 0.010589868
-0.0064331596 -0.047176503 0.010801911
-0.0053647845 -0.047210105 0.011048585
-0.0043263719 -0.047590088 0.01117748
-0.0031824829 -0.046676416 0.010895997
-0.0021598721 -0.04751718 0.012133509
-0.0010743699 -0.047272272 0.011767507
0 -0.047357757 0.012046278
0.0010759458 -0.047341611 0.0116629
0.0021980559 -0.048357226 0.011051655
0.0031752097 -0.046569742 0.010609955
0.0043678274 -0.048046097 0.010878235
0.005473874 -0.048170093 0.01042971
0.0064320685 -0.047168504 0.010541469
0.0076378281 -0.048009206 0.010165334
0.0087072123 -0.047889665 0.010654032
0.0096483994 -0.047169954 0.010395885
0.010792525 -0.047487106 0.010802865
0.011709725 -0.046838898 0.011193782
0.012956541 -0.04750732 0.011585206
0.014102898 -0.047732882 0.011701286
0.014931216 -0.046926677 0.012130797
0.015938155 -0.04675192 0.012372553
0.01712892 -0.04710453 0.012550056
0.018371603 -0.047550026 0.012724549
0.019482883 -0.047624826 0.012815118
0.020369669 -0.047171865 0.012847781
0.021492453 -0.0472834 0.012802213
0.022725655 -0.047615655 0.012742996
0.023827311 -0.047654621 0.012810051
0.024244443 -0.046380669 0.012648582
0.026022373 -0.047707684 0.012939394
0.026707835 -0.047005787 0.013095051
0.027658565 -0.046806801 0.013220191
0.028797686 -0.046929561 0.013167024
0.029850751 -0.046908323 0.013307363
0.0308343 -0.046783075 0.013239443
0.032310635 -0.04738893 0.013308614
0.033002988 -0.046842944 0.013540715
0.034306556 -0.047171511 0.013540715
0.035206128 -0.046941504 0.013816088
0.036224458 -0.04687871 0.01373592
0.036977675 -0.046486221 0.014039963
0.03826062 -0.046762981 0.013944238
0.039106943 -0.046505552 0.013922244
0.040686641 -0.047110844 0.013494402
0.041300476 -0.04659541 0.012536824
0.042231016 -0.046454117 0.011772573
0.04451466 -0.047771826 0.010470003
0.045728073 -0.047905598 0.01014939
0.046605144 -0.047688983 0.0097269118
0.048553813 -0.048553813 0.0092094243
0.048234347 -0.047162469 0.0087072253
0.050226036 -0.048042294 0.0077725351
0.052002236 -0.048682943 0.0075362623
0.051648907 -0.047344834 0.0067982376
0.053605583 -0.048135627 0.0067921579
0.054493651 -0.04795441 0.005271256
-0.062266227 -0.047811568 0.0054773092
-0.059886463 -0.046820324 0.0059870481
-0.058742438 -0.046776384 0.0067116916
-0.058469757 -0.047437731 0.0073564649
-0.055780932 -0.046126541 0.0086396933
-0.054952342 -0.046332367 0.0099144876
-0.054210264 -0.046620823 0.0099851489
-0.052372403 -0.045959458 0.010585546
-0.051963102 -0.046550278 0.011103779
-0.050864138 -0.046535276 0.011569113
-0.049693521 -0.046452638 0.011588424
-0.048271548 -0.046126142 0.011666596
-0.047506012 -0.04642633 0.011701196
-0.046648625 -0.046648625 0.011656016
-0.045319825 -0.046398867 0.011418194
-0.044093743 -0.046244659 0.011272728
-0.043024119 -0.046250928 0.011289388
-0.042278718 -0.046614997 0.011206985
-0.040474996 -0.045800652 0.010852307
-0.040196266 -0.046714574 0.010754913
-0.03905341 -0.046647131 0.01083833
-0.037488539 -0.046057347 0.010557622
-0.036492925 -0.046152815 0.010518938
-0.03629227 -0.047289927 0.010586411
-0.034025628 -0.045721937 0.010571092
-0.033049282 -0.045842551 0.010783046
-0.03224672 -0.046220299 0.010802567
-0.030903919 -0.045823049 0.010975987
-0.030246532 -0.04645003 0.01181668
-0.02898341 -0.046158765 0.012660623
-0.027519675 -0.04551331 0.013069808
-0.02663481 -0.045811873 0.012878418
-0.025650254 -0.045956705 0.013275146
-0.02469781 -0.046174169 0.013614506
-0.023775097 -0.04646951 0.013475955
-0.022261318 -0.045582697 0.013825268
-0.021453409 -0.046124827 0.013949484
-0.020309547 -0.045963712 0.013811409
-0.019108726 -0.045648623 0.013574898
-0.018032603 -0.045611877 0.013544023
-0.016961956 -0.045585256 0.013398111
-0.015893359 -0.045560963 0.012943745
-0.014906382 -0.045783889 0.012554199
-0.014090141 -0.046605852 0.012085766
-0.012856033 -0.04606745 0.011537999
-0.011877529 -0.046430342 0.011571735
-0.010836637 -0.046597537 0.011437863
-0.0096875392 -0.04628491 0.011356413
-0.0086804563 -0.046657454 0.011242598
-0.0075168274 -0.046174798 0.011320531
-0.0064210668 -0.046017647 0.01172936
-0.0053541018 -0.046045277 0.012187004
-0.0042712758 -0.045916218 0.012613982
-0.0031911591 -0.045739949 0.0126082
-0.0021427497 -0.046069119 0.012900919
-0.0010652009 -0.04580364 0.013011187
0 -0.04631735 0.013041228
0.0010788417 -0.046390198 0.012950689
0.002135111 -0.045904886 0.012728631
0.0032178946 -0.046123154 0.012390196
0.0043289894 -0.046536639 0.012182802
0.0052731722 -0.045349281 0.0116283
0.0064614397 -0.046306986 0.012008965
0.0076012667 -0.046693496 0.011521518
0.0085214041 -0.045802549 0.01178664
0.0095920768 -0.045828812 0.011857539
0.010758453 -0.046261348 0.012310147
0.011692204 -0.045705888 0.012239903
0.012910572 -0.046262883 0.012563854
0.013807347 -0.045670453 0.013077825
0.014933527 -0.045867264 0.013252646
0.015881546 -0.045527097 0.013422668
0.016650826 -0.044749092 0.013707429
0.018190151 -0.046010382 0.013838887
0.019230824 -0.045940306 0.013647795
0.020038001 -0.045349158 0.013719112
0.021610841 -0.046463311 0.013414741
0.022682158 -0.04644442 0.013290346
0.023542034 -0.046013974 0.013219982
0.024850948 -0.046460465 0.013145983
0.025926217 -0.04645114 0.013384551
0.026864745 -0.046207361 0.013320327
0.027727311 -0.045856707 0.013373464
0.029156534 -0.046434481 0.013381898
0.030021304 -0.046104144 0.013483375
0.031002123 -0.045968663 0.013589323
0.031838626 -0.045635361 0.01342085
0.033139225 -0.045967311 0.013836145
0.034159068 -0.04590125 0.013358384
0.03518362 -0.045845326 0.013693571
0.036388174 -0.046020336 0.013534307
0.036945254 -0.045389883 0.013776809
0.038812108 -0.046358909 0.013466358
0.039635595 -0.046062987 0.013423651
0.040312152 -0.045616381 0.013115793
0.041283235 -0.045517411 0.012316704
0.042761084 -0.045968167 0.0115619
0.043524988 -0.045648154 0.010347188
0.045086831 -0.046160325 0.0099645853
0.047198169 -0.047198169 0.0095161498
0.047360163 -0.046283796 0.0090332627
0.048276972 -0.046131324 0.0081493556
0.051391996 -0.048040345 0.0072947443
0.050784893 -0.046462774 0.0069404244
0.053009126 -0.047487345 0.00563851
-0.061670113 -0.046252586 0.0054773092
-0.059072461 -0.045109879 0.0061017275
-0.058897153 -0.045808896 0.0066250563
-0.05766274 -0.045695003 0.0073694289
-0.05609557 -0.04530796 0.0087177157
-0.055172112 -0.045435857 0.0098177195
-0.053797014 -0.045189492 0.009893775
-0.052810702 -0.045266319 0.010248244
-0.051615275 -0.045163367 0.010746747
-0.049693994 -0.044407398 0.011446118
-0.049517948 -0.045212038 0.011303246
-0.04822712 -0.045011979 0.011639595
-0.047611177 -0.045447033 0.011639595
-0.046297748 -0.045221057 0.011571705
-0.045427866 -0.045427866 0.011132509
-0.044261042 -0.045340579 0.011159271
-0.043315306 -0.045481075 0.011272728
-0.041856583 -0.045076322 0.011171639
-0.040788367 -0.045081884 0.011095047
-0.04013747 -0.045561451 0.01098296
-0.038772214 -0.045234252 0.011024982
-0.037697073 -0.045236491 0.01101923
-0.037137289 -0.045875475 0.010893375
-0.035561781 -0.045260452 0.011041909
-0.034552939 -0.045350734 0.011243582
-0.033282835 -0.04509287 0.011321545
-0.032211602 -0.045096245 0.011832416
-0.031283859 -0.045307659 0.012305945
-0.030022377 -0.045033567 0.012912929
-0.028790049 -0.04478452 0.013407439
-0.027885614 -0.04504599 0.013614506
-0.026552504 -0.044608206 0.013748616
-0.02587489 -0.04528106 0.014118135
-0.024527431 -0.044789221 0.014218748
-0.023586832 -0.045029409 0.014494359
-0.022128532 -0.044257063 0.015143037
-0.02143359 -0.045010541 0.015171051
-0.020204382 -0.044662319 0.014888108
-0.019238049 -0.044888783 0.014550954
-0.01819698 -0.044957247 0.014260352
-0.017001309 -0.044628434 0.013990402
-0.016103871 -0.045090843 0.013715804
-0.01504011 -0.045120332 0.013329864
-0.013949647 -0.045068089 0.013102502
-0.012946692 -0.045313425 0.012554199
-0.01169994 -0.0446725 0.012085766
-0.010723084 -0.045036957 0.011946827
-0.0098570492 -0.045999564 0.011784196
-0.0085556544 -0.044917189 0.012358725
-0.0075251684 -0.04515101 0.012851894
-0.0064820545 -0.045374386 0.012789398
-0.0053248862 -0.044729043 0.012964129
-0.004226312 -0.04437628 0.013182729
-0.0032120086 -0.044968121 0.013115883
-0.0021082619 -0.044273499 0.013448924
-0.0010545045 -0.044289194 0.014033645
0 -0.045127284 0.014093965
0.0010622668 -0.044615205 0.014093965
0.0021317906 -0.044767603 0.013520241
0.0032391148 -0.045347609 0.013384908
0.0042760363 -0.044898383 0.013093352
0.0053163967 -0.044657733 0.012936056
0.0064976984 -0.045483891 0.012578607
0.0074589569 -0.044753741 0.012568355
0.0086206496 -0.045258414 0.012631863
0.0096191484 -0.044889364 0.012594044
0.010621237 -0.044609196 0.013070494
0.011799962 -0.045054402 0.013209283
0.012639009 -0.044236533 0.013595164
0.013808606 -0.044612423 0.013396978
0.01500108 -0.045003243 0.013333201
0.015971158 -0.044719242 0.01360783
0.016988706 -0.044595353 0.013870001
0.018146509 -0.044832554 0.014013886
0.018700447 -0.043634377 0.013870001
0.020130722 -0.04449949 0.014172286
0.021131964 -0.044377126 0.01393801
0.022264609 -0.044529218 0.013902813
0.023865249 -0.045560934 0.01369977
0.024715418 -0.045132503 0.01339668
0.025771739 -0.045100544 0.01369679
0.026691712 -0.044842076 0.013547063
0.027583517 -0.044557992 0.013557374
0.028861931 -0.044896334 0.013513803
0.030193459 -0.045290191 0.01350987
0.03073659 -0.044515058 0.013350934
0.031841502 -0.044578105 0.013317734
0.033153504 -0.044917651 0.013437599
0.034197006 -0.044883568 0.013266265
0.035015292 -0.044564918 0.013631165
0.036237415 -0.044763863 0.013373405
0.037134621 -0.044561546 0.01307103
0.038474318 -0.044886708 0.012905657
0.039887227 -0.045277394 0.012997955
0.040042754 -0.044257782 0.012714863
0.041637663 -0.044840559 0.011926651
0.042434275 -0.044555992 0.011114031
0.043563511 -0.044626035 0.010172963
0.045298669 -0.045298669 0.0096555054
0.046458501 -0.045378074 0.0091940761
0.047441423 -0.045284994 0.0085060596
0.048981052 -0.045715645 0.0073274672
0.050163701 -0.04580164 0.0060538948
0.050735772 -0.045338351 0.0052577257
-0.06182358 -0.045263696 0.0053449869
-0.059983108 -0.044714682 0.0060800612
-0.058097161 -0.044110809 0.0069305897
-0.0571227 -0.044189259 0.0082534552
-0.055956453 -0.044119511 0.0091677606
-0.054811634 -0.044064254 0.0098730326
-0.053732362 -0.044060536 0.0099833906
-0.052505415 -0.043933108 0.010043383
-0.051495347 -0.043985613 0.010602027
-0.05040599 -0.043971185 0.011122584
-0.049375251 -0.044008374 0.011237532
-0.048678793 -0.04435179 0.011270195
-0.047620598 -0.044373743 0.011528015
-0.046197973 -0.044049233 0.011132509
-0.045094796 -0.044021111 0.011058241
-0.044895764 -0.044895764 0.011062801
-0.043034174 -0.044110034 0.011139423
-0.041867226 -0.044014264 0.011260629
-0.041227866 -0.044482701 0.010920823
-0.039680589 -0.043970384 0.010724157
-0.038745109 -0.044126377 0.010850012
-0.037899144 -0.044396143 0.010902703
-0.036559012 -0.044085871 0.010996431
-0.035642669 -0.044283319 0.011113167
-0.034285057 -0.043927733 0.0113841
-0.033302572 -0.044045337 0.011799842
-0.032169014 -0.043964319 0.012069821
-0.031277806 -0.044220347 0.012195766
-0.02981656 -0.043659966 0.013188124
-0.028937936 -0.04394279 0.013960183
-0.027651949 -0.043605 0.013895154
-0.026432157 -0.043348737 0.014216959
-0.025821928 -0.044112463 0.014542133
-0.024770491 -0.044156093 0.014919698
-0.023438299 -0.043680467 0.015384197
-0.02231483 -0.043567047 0.015769124
-0.02128762 -0.043639623 0.016091406
-0.020374181 -0.043965336 0.015613794
-0.019296421 -0.043952961 0.01540634
-0.018066678 -0.043572579 0.0153687
-0.017035726 -0.043654051 0.015171051
-0.016087087 -0.043971371 0.014238864
-0.014922603 -0.043701913 0.014139384
-0.013796384 -0.043511674 0.013860911
-0.012892533 -0.04404949 0.013541132
-0.01178498 -0.043925837 0.013266385
-0.010882283 -0.044617362 0.01302883
-0.0096985726 -0.04418239 0.012894958
-0.0086039407 -0.044095196 0.013047576
-0.0075729489 -0.044355847 0.013193876
-0.0063832798 -0.043619081 0.013462514
-0.00530745 -0.043521095 0.013774276
-0.0043004248 -0.04407936 0.01399827
-0.0032155623 -0.04394602 0.014320701
-0.0021368265 -0.043804944 0.014446825
-0.0010683625 -0.043802865 0.014653325
0 -0.043502077 0.014859498
0.0010653296 -0.043678515 0.014859498
0.0021282132 -0.043628372 0.014307112
0.0031789867 -0.043446153 0.014532655
0.0043329359 -0.044412594 0.014461309
0.0054060114 -0.044329297 0.013884872
0.0063829157 -0.043616593 0.013855219
0.0075742221 -0.044363305 0.013787925
0.0085020559 -0.043573037 0.01392886
0.0095703127 -0.043598097 0.01416266
0.01080042 -0.044281729 0.014211535
0.011553535 -0.043063179 0.014071018
0.012744109 -0.043542374 0.013779908
0.013812934 -0.043563869 0.013691038
0.014895445 -0.043622378 0.014297187
0.015926152 -0.043531485 0.014586449
0.016792318 -0.043030314 0.014655262
0.017982196 -0.043368828 0.01512146
0.01909136 -0.04348588 0.014704496
0.020029966 -0.043222561 0.014460653
0.021025902 -0.043103099 0.01407215
0.022252496 -0.043445352 0.0136711
0.023532905 -0.043856781 0.013402581
0.02455599 -0.043773726 0.013368011
0.026029734 -0.044467464 0.013402581
0.026362533 -0.043234557 0.013360918
0.027625194 -0.043562807 0.013564289
0.028911792 -0.04390309 0.013551682
0.029987685 -0.043910541 0.013483375
0.030653199 -0.043337282 0.013350934
0.032247044 -0.044070963 0.01326254
0.032989476 -0.043631244 0.013540715
0.034174766 -0.043786421 0.01334849
0.035371348 -0.043946225 0.013469726
0.035726726 -0.04308223 0.013334453
0.037385192 -0.043794088 0.012981772
0.039093107 -0.04452271 0.012884945
0.039244786 -0.043487467 0.012724519
0.041007571 -0.044245008 0.01249361
0.041714177 -0.043853369 0.011714399
0.043048661 -0.044124879 0.010890365
0.044450421 -0.044450421 0.0097962916
0.044874351 -0.043805916 0.0091621578
0.046125356 -0.043979991 0.0086846352
0.047994688 -0.044722326 0.007856369
0.048198652 -0.043914326 0.0063888133
-0.061717629 -0.04408402 0.0052045584
-0.059062202 -0.042954326 0.0057835281
-0.058705702 -0.043485701 0.0068198442
-0.057487458 -0.043386761 0.0081516206
-0.055716801 -0.042859077 0.0089310408
-0.054865059 -0.043031417 0.0097099245
-0.054961842 -0.043969471 0.00986287
-0.052943341 -0.043219056 0.0099701583
-0.051649768 -0.043041471 0.010490894
-0.050860297 -0.043285359 0.011015028
-0.049440145 -0.04299143 0.011009663
-0.04883194 -0.043406166 0.011157334
-0.047133479 -0.042848617 0.011356622
-0.046053771 -0.042840715 0.010990351
-0.045151595 -0.043001514 0.010775208
-0.044498567 -0.043413233 0.011045903
-0.043440912 -0.043440912 0.011315316
-0.042360432 -0.043446597 0.011108935
-0.041352876 -0.043529339 0.010849148
-0.039871525 -0.043104347 0.010920823
-0.039570563 -0.043967292 0.011148483
-0.037396606 -0.042738978 0.011184096
-0.036621556 -0.043084182 0.011460245
-0.035573717 -0.043119654 0.011813313
-0.034154244 -0.042692807 0.011966258
-0.033215228 -0.042858358 0.012410074
-0.03208809 -0.042784117 0.012781322
-0.031038156 -0.042811248 0.013240695
-0.030142607 -0.043060869 0.013968617
-0.029262247 -0.043351475 0.014494359
-0.027910722 -0.04293957 0.014913589
-0.026768783 -0.04283005 0.015065402
-0.025706274 -0.042843789 0.01540634
-0.024371257 -0.042384792 0.015548617
-0.023534786 -0.042790517 0.015954107
-0.022260603 -0.042401146 0.016199261
-0.021194773 -0.042389546 0.01644367
-0.020231882 -0.042593434 0.016081005
-0.019162688 -0.042583752 0.016021609
-0.018003182 -0.042360429 0.015769124
-0.017107891 -0.042769723 0.015350968
-0.015936503 -0.042497341 0.014941841
-0.014968784 -0.042767953 0.014594227
-0.013918086 -0.042824879 0.014374107
-0.012738567 -0.042461891 0.013855666
-0.012012093 -0.04368034 0.01368165
-0.010841338 -0.043365352 0.013410926
-0.0095738024 -0.042550232 0.013410926
-0.0085488316 -0.042744156 0.013703495
-0.007568052 -0.043246008 0.013927996
-0.0064190952 -0.042793967 0.014162123
-0.0053994791 -0.043195833 0.014442623
-0.0042760214 -0.042760212 0.014755994
-0.0032078135 -0.042770844 0.014725357
-0.0021285035 -0.042570069 0.014861524
-0.0010594686 -0.042378742 0.014995098
0 -0.042633701 0.01534164
0.0010734234 -0.042936936 0.015238464
0.0020961047 -0.041922092 0.014888555
0.0032052654 -0.042736869 0.014890134
0.0042910674 -0.042910673 0.014791399
0.0053375973 -0.042700779 0.014383763
0.0064340187 -0.042893458 0.01435411
0.0075107249 -0.042918425 0.014289767
0.0084716706 -0.042358354 0.014357299
0.0096835317 -0.043037921 0.014455706
0.010596295 -0.04238518 0.014393389
0.011771251 -0.04280455 0.014242738
0.012805521 -0.042685069 0.014211565
0.013719426 -0.042213615 0.014329135
0.014843144 -0.042408984 0.014586449
0.016017444 -0.042713184 0.01487276
0.01683435 -0.042085875 0.01487276
0.018344285 -0.04316302 0.014858365
0.019216148 -0.042702552 0.014858365
0.020106368 -0.042329192 0.014310747
0.021235978 -0.042471956 0.013837725
0.021931052 -0.041773431 0.013667703
0.022801738 -0.041457705 0.013548702
0.024748813 -0.043041412 0.013195932
0.025924308 -0.04320718 0.013230503
0.026918659 -0.043069851 0.013220191
0.027877662 -0.042888712 0.01352039
0.028798053 -0.042663779 0.013360918
0.029747734 -0.042496763 0.013366252
0.03136107 -0.043256644 0.013224632
0.031910203 -0.042546935 0.013070285
0.033230234 -0.042877715 0.01324749
0.034415524 -0.043019403 0.013099611
0.034558009 -0.041888498 0.012949497
0.036535222 -0.042982612 0.012740999
0.03725275 -0.04257457 0.012796044
0.038008537 -0.042231709 0.01272577
0.039831284 -0.043060847 0.012636751
0.040944304 -0.043099266 0.012018353
