ply
format ascii 1.0
comment PCL generated
element vertex 1266
property float x
property float y
property float z
element camera 0
property float view_px
property float view_py
property float view_pz
property float x_axisx
property float x_axisy
property float x_axisz
property float y_axisx
property float y_axisy
property float y_axisz
property float z_axisx
property float z_axisy
property float z_axisz
property float focal
property float scalex
property float scaley
property float centerx
property float centery
property int viewportx
property int viewporty
property float k1
property float k2
end_header
0.0064260922 -0.069616005 0.012734979
0.0075658942 -0.070254736 0.012650669
0.0086651156 -0.070404068 0.011862308
0.0097369198 -0.070322201 0.011599839
0.010803132 -0.070220359 0.011031091
0.011723854 -0.069277316 0.011082828
0.012910768 -0.069933325 0.011321992
0.014153736 -0.070768677 0.010724306
0.015114917 -0.0701764 0.010993868
0.015811507 -0.06851653 0.011609137
0.017302794 -0.070292599 0.012162238
0.017718926 -0.06774883 0.01258561
0.019446468 -0.070223361 0.012483239
0.020132719 -0.068875089 0.012326479
0.02124152 -0.069034941 0.012810379
0.022660553 -0.070139803 0.01291275
0.023785446 -0.07027518 0.012821496
0.024684925 -0.069761738 0.013207912
0.025745854 -0.06972836 0.013682574
0.026279973 -0.068327926 0.013660222
0.027682994 -0.069207482 0.013249516
0.029150087 -0.070176132 0.013360411
0.02987331 -0.069348752 0.014054745
0.030619761 -0.068630494 0.014090687
0.031954456 -0.069234654 0.014159828
0.033201404 -0.069615841 0.014159828
0.033924125 -0.068908378 0.014166236
0.035135742 -0.069206767 0.014863759
0.036596883 -0.069964632 0.014863759
0.037172209 -0.069034107 0.014863759
0.038614549 -0.069720715 0.015138626
0.039210498 -0.068883307 0.015032083
0.040379535 -0.069070257 0.014934838
0.041540004 -0.069233343 0.014595598
0.042777065 -0.069512732 0.014264077
0.043420874 -0.06883797 0.013793468
0.044069014 -0.068202041 0.01369977
0.046828438 -0.070787176 0.012865722
0.046870269 -0.069240168 0.01206702
0.048566017 -0.070150912 0.011409998
0.048998978 -0.069237687 0.010524511
0.050904393 -0.070399694 0.0095599294
0.050948441 -0.068992682 0.0095255077
0.053804107 -0.0713728 0.0088764727
0.054440837 -0.070773087 0.0083492398
0.05427029 -0.069168016 0.0076476038
0.056214459 -0.070268072 0.0070121288
0.057286985 -0.070257626 0.005559057
-0.057226829 -0.070433021 0.0057866573
-0.056100994 -0.070401251 0.0063579679
-0.054055568 -0.069191121 0.0069460869
-0.052732453 -0.068875045 0.0072784126
-0.052012865 -0.069350488 0.0083031654
-0.049996503 -0.068080343 0.0087935627
-0.049210623 -0.068466954 0.0097218156
-0.049096521 -0.069826163 0.010804683
-0.048173737 -0.070070893 0.011961162
-0.045963563 -0.068410888 0.012170792
-0.045220561 -0.068907522 0.012170792
-0.04444721 -0.069381006 0.012171417
-0.043563064 -0.069700904 0.012418121
-0.042540215 -0.069809586 0.012365222
-0.040572949 -0.068333387 0.01228255
-0.039247967 -0.067888372 0.011945665
-0.038923234 -0.069196865 0.011832058
-0.037520535 -0.068608977 0.011748314
-0.036478564 -0.068665534 0.011748314
-0.035935663 -0.069693409 0.010991126
-0.034175545 -0.06835109 0.010898918
-0.033212516 -0.068567768 0.010877013
-0.03259562 -0.069537327 0.011251569
-0.031126354 -0.068692639 0.010892838
-0.029975813 -0.068516143 0.010946184
-0.028670007 -0.067958534 0.010955691
-0.027893795 -0.068661653 0.010991126
-0.026942298 -0.068972282 0.010964513
-0.026008375 -0.069355667 0.011475354
-0.024506558 -0.068192162 0.011709213
-0.023933645 -0.069625154 0.011832118
-0.022457298 -0.068441294 0.012075067
-0.021405002 -0.068496004 0.012326002
-0.020852534 -0.07024011 0.012330264
-0.019297102 -0.068611927 0.013171047
-0.01794984 -0.067575864 0.012811989
-0.016874487 -0.067497946 0.013016701
-0.015721142 -0.067076869 0.013096899
-0.015106529 -0.069058418 0.012674719
-0.013820546 -0.068039611 0.012026966
-0.012603847 -0.067220517 0.011974692
-0.011746995 -0.068346158 0.011366725
-0.010916923 -0.069868311 0.01068005
-0.0095652165 -0.068019323 0.010813117
-0.0087320888 -0.069856711 0.010526925
-0.0075642308 -0.069158681 0.010807663
-0.0064466782 -0.068764567 0.010847151
-0.0053934832 -0.069036588 0.011127472
-0.0042961207 -0.068737932 0.011840254
-0.0031979552 -0.068223044 0.012344807
-0.0021590968 -0.069091097 0.012790203
-0.0010912389 -0.069839291 0.013041407
0 -0.068675771 0.012926012
0.0010634824 -0.068062872 0.013833582
0.0021139402 -0.067646086 0.014142752
0.0031907305 -0.068068922 0.014194012
0.004275891 -0.068414256 0.013964325
0.0053615747 -0.068628162 0.014015585
0.00649472 -0.069277018 0.013682246
0.0075473748 -0.069004565 0.013632566
0.0084729968 -0.067783974 0.013428271
0.0098079219 -0.069745228 0.013092667
0.010811589 -0.069194168 0.012385786
0.011850277 -0.068947069 0.012482345
0.013089165 -0.069808885 0.012501091
0.013892519 -0.068393938 0.012161672
0.01499954 -0.068569325 0.012161672
0.016158868 -0.068944499 0.012703121
0.01679459 -0.067178361 0.01314643
0.018379359 -0.069192879 0.01319921
0.019219149 -0.068334751 0.013261378
0.020002341 -0.067376308 0.013656139
0.021136792 -0.067637734 0.013899624
0.022301985 -0.067967951 0.014094174
0.023044815 -0.067039467 0.013863832
0.024846679 -0.069138579 0.014027715
0.025597259 -0.068259358 0.013863832
0.027053474 -0.069256887 0.013909459
0.027971908 -0.06885393 0.013682663
0.028850056 -0.068385318 0.013742119
0.029779037 -0.068066373 0.014239579
0.030635215 -0.067608744 0.014265418
0.032303803 -0.068914779 0.014351189
0.033299986 -0.068748355 0.014309198
0.034544326 -0.069088653 0.014168203
0.034800913 -0.067492686 0.014772862
0.036596883 -0.068888254 0.014775515
0.037197206 -0.068017751 0.014820457
0.038156774 -0.067834266 0.014837533
0.03930787 -0.067991987 0.014709979
0.040361095 -0.067976579 0.014664888
0.041642662 -0.068336681 0.01443854
0.042848837 -0.068558142 0.01418674
0.042779546 -0.066777825 0.013665438
0.045220561 -0.068907522 0.013578594
0.046195276 -0.068755761 0.012865722
0.046411764 -0.06750802 0.012326539
0.047706999 -0.067849949 0.011257291
0.049659193 -0.069091052 0.0104087
0.050817315 -0.06919805 0.0095403492
0.051301107 -0.068401478 0.0090947151
0.053441253 -0.069800824 0.0082634687
0.054091424 -0.069237016 0.0076898932
0.0545533 -0.068459041 0.0072491765
0.055779699 -0.068651937 0.0058607757
-0.057177171 -0.069272339 0.0054151416
-0.055750541 -0.068868317 0.0062989295
-0.053887881 -0.067898728 0.0073976517
-0.052837547 -0.067933992 0.0080736876
-0.051314954 -0.067350879 0.0086815953
-0.050026853 -0.067057267 0.0091454387
-0.049835101 -0.068252422 0.0098166466
-0.048328679 -0.067660153 0.011044711
-0.046988096 -0.067278415 0.011892647
-0.04571588 -0.06697908 0.012050807
-0.045542356 -0.068313539 0.012106776
-0.043867189 -0.067405678 0.012278825
-0.043076262 -0.067845114 0.012418121
-0.041649286 -0.067279615 0.012195706
-0.041135442 -0.068198234 0.012147665
-0.039811227 -0.067786679 0.012005091
-0.039031062 -0.068304367 0.011921287
-0.037266109 -0.067079 0.011920035
-0.036576264 -0.067773663 0.011880428
-0.035311565 -0.067412987 0.011449575
-0.034109917 -0.067153901 0.011303544
-0.033554833 -0.06819208 0.011265844
-0.032409947 -0.06806089 0.011635721
-0.031140087 -0.067649156 0.01138556
-0.029576832 -0.066547878 0.011485547
-0.028453883 -0.066392392 0.011864156
-0.027745143 -0.067228615 0.011678964
-0.026877541 -0.067731403 0.011678964
-0.026025625 -0.068317272 0.012235463
-0.024727635 -0.067732215 0.012385696
-0.02367031 -0.067783162 0.012235552
-0.022469763 -0.067409284 0.013426632
-0.021560058 -0.067914188 0.01357156
-0.019995209 -0.0662999 0.01384154
-0.019257985 -0.067402951 0.013846397
-0.018373163 -0.068088785 0.013581812
-0.016909897 -0.066582724 0.01426661
-0.016026072 -0.067309506 0.013838649
-0.014912636 -0.067106865 0.013236105
-0.01392372 -0.067476489 0.013007015
-0.012874595 -0.067591622 0.01281634
-0.011871421 -0.067990869 0.012246966
-0.010658612 -0.067149259 0.011974692
-0.009701157 -0.067908101 0.011430502
-0.0085745575 -0.067524642 0.011703134
-0.0073901005 -0.066510908 0.011992991
-0.0065174703 -0.068433441 0.011992991
-0.0053302231 -0.067160815 0.012214452
-0.0042700781 -0.067253731 0.01260981
-0.0032176245 -0.067570113 0.013040572
-0.002130419 -0.067108199 0.012994438
-0.0010632918 -0.066987388 0.013201386
0 -0.066596732 0.013668925
0.0010667251 -0.067203686 0.01470685
0.0021351171 -0.06725619 0.015429378
0.0031581761 -0.066321701 0.015496552
0.004224062 -0.066528983 0.015356123
0.0053329333 -0.067194961 0.015122801
0.0064332741 -0.067549378 0.014699399
0.0074912771 -0.067421496 0.014345229
0.0085880468 -0.067630872 0.014244705
0.0096605103 -0.067623578 0.014072388
0.010783257 -0.067934521 0.01379782
0.011886654 -0.068078116 0.013662964
0.012730098 -0.066833019 0.01320228
0.013753107 -0.066649675 0.012959778
0.015063491 -0.06778571 0.013045907
0.015900573 -0.066782407 0.0137918
0.01701775 -0.067007393 0.014278024
0.018325079 -0.067910589 0.014422387
0.018884307 -0.066095077 0.014372706
0.020321013 -0.067380197 0.01398316
0.021367546 -0.067307778 0.014003903
0.021878585 -0.065635756 0.014634609
0.023133101 -0.066244788 0.014305472
0.024473138 -0.067035116 0.014070809
0.025185764 -0.06611263 0.014128119
0.026643077 -0.067140557 0.0142093
0.027868606 -0.067527778 0.013809383
0.028963408 -0.067581281 0.013961166
0.029758545 -0.066956729 0.014170796
0.030809052 -0.066930011 0.014207035
0.032017101 -0.067235909 0.01414454
0.033175029 -0.067420222 0.014048845
0.033698723 -0.066344358 0.014021695
0.03498666 -0.066792719 0.014420062
0.036161993 -0.067006044 0.014340818
0.036608707 -0.065895677 0.014280081
0.038545091 -0.067453913 0.014378786
0.039021123 -0.066441372 0.014383316
0.040162377 -0.066584989 0.014142632
0.041581474 -0.067170076 0.01420024
0.042337783 -0.066682011 0.013927042
0.043574806 -0.066956408 0.01369977
0.045429125 -0.068143688 0.013310045
0.046022367 -0.067428119 0.01281631
0.04646378 -0.066527687 0.012132347
0.048681583 -0.068154216 0.010427266
0.049240448 -0.067438006 0.0094536245
0.05098296 -0.068338864 0.0088844001
0.052983057 -0.069540262 0.0082926154
0.052192938 -0.067105211 0.0073238909
0.055654351 -0.070124485 0.0063281953
0.056277815 -0.069519654 0.0055707097
-0.056866094 -0.067801885 0.0059258938
-0.055378158 -0.06732247 0.0069637001
-0.053408783 -0.066226892 0.0078627765
-0.053821757 -0.068101004 0.0085005164
-0.050673652 -0.06545347 0.0090185404
-0.050819289 -0.067038216 0.0097565949
-0.049027648 -0.066080742 0.0099598765
-0.048266035 -0.066499874 0.010630459
-0.04676332 -0.065893769 0.011708289
-0.045939244 -0.066237986 0.011873841
-0.04483458 -0.066184379 0.011911571
-0.044655539 -0.06752789 0.011911571
-0.042265028 -0.065510795 0.01200217
-0.041791338 -0.066437513 0.012002468
-0.041358449 -0.067479573 0.011748314
-0.040070511 -0.067145176 0.011748314
-0.038669869 -0.06659811 0.011746973
-0.037498739 -0.066426337 0.011666358
-0.036592156 -0.066726878 0.011635721
-0.035326924 -0.066371799 0.011303544
-0.034622617 -0.067081317 0.011153311
-0.033103801 -0.066207603 0.011265844
-0.032128394 -0.06639868 0.011779666
-0.031338397 -0.066999331 0.011704713
-0.030072806 -0.066589788 0.011970878
-0.029190302 -0.06702958 0.012281805
-0.02806524 -0.066924803 0.01212582
-0.026814079 -0.06649892 0.012397766
-0.025827637 -0.066721395 0.012481987
-0.024558544 -0.066201292 0.01345849
-0.023660781 -0.066680387 0.013517857
-0.022656485 -0.066890575 0.01396209
-0.021397343 -0.066331767 0.014081866
-0.020307017 -0.066265009 0.014314711
-0.01928807 -0.066436693 0.014477283
-0.01790937 -0.065316528 0.01441139
-0.017131163 -0.066383258 0.014602304
-0.015836177 -0.065456204 0.014222056
-0.014874478 -0.065872692 0.013916761
-0.013900839 -0.066296309 0.013695598
-0.012952499 -0.066921249 0.013149351
-0.011652658 -0.065678626 0.013089538
-0.010678336 -0.066205688 0.012602746
-0.0096484693 -0.06646724 0.012235522
-0.008582646 -0.066515505 0.012114793
-0.0076214951 -0.067504674 0.012246966
-0.0064458484 -0.066607103 0.012269557
-0.0053891935 -0.066826001 0.012589812
-0.0042950846 -0.066573814 0.01290834
-0.0032128864 -0.066399656 0.013436466
-0.00214738 -0.066568777 0.013330817
-0.0010726755 -0.066505879 0.013978869
0 -0.065288186 0.014529198
0.0010746036 -0.066625424 0.015444875
0.002120265 -0.065728217 0.015623242
0.0031754682 -0.065626346 0.015889376
0.0042900234 -0.066495359 0.015933126
0.0052418788 -0.064999297 0.015831649
0.0063851168 -0.065979548 0.01587832
0.0075308233 -0.066701584 0.014968872
0.0085383058 -0.06617187 0.014968872
0.009724373 -0.06699013 0.014307201
0.010740983 -0.066594101 0.014166236
0.011871306 -0.066911004 0.014168739
0.012686525 -0.065547049 0.013746768
0.013833509 -0.065975197 0.013675898
0.015014429 -0.066492476 0.013914198
0.015840694 -0.065474868 0.014278024
0.017075289 -0.066166751 0.014513969
0.017947238 -0.065454632 0.014706165
0.019086532 -0.0657425 0.014452338
0.020349331 -0.066403084 0.013998061
0.021234851 -0.06582804 0.014003903
0.022518745 -0.066483915 0.01444301
0.023474142 -0.066154405 0.01398021
0.024205713 -0.065250181 0.01421836
0.025667397 -0.066307448 0.014139444
0.026382564 -0.065428764 0.01418972
0.02796049 -0.066675022 0.013822913
0.028852656 -0.066254251 0.013749123
0.030124985 -0.066705324 0.013984114
0.030850369 -0.065955959 0.014163554
0.032214928 -0.066577516 0.014048845
0.033237897 -0.066475794 0.014048845
0.034218956 -0.06629923 0.013821632
0.035259537 -0.066245198 0.014394492
0.035616312 -0.064947397 0.014380127
0.037557568 -0.066530555 0.014265418
0.038914025 -0.067018606 0.014243513
0.039049208 -0.065433808 0.014251232
0.040954944 -0.066821225 0.014010847
0.041718822 -0.066322237 0.01423955
0.042593628 -0.066020131 0.013970882
0.044269647 -0.066944338 0.013426751
0.045030925 -0.066474222 0.012881428
0.046178859 -0.066583477 0.012362182
0.046673704 -0.065767497 0.011424273
0.048433121 -0.066730075 0.010000288
0.049325082 -0.066481635 0.0092950463
0.052051444 -0.068663612 0.0088568032
0.052149948 -0.067360356 0.0082031786
0.053610716 -0.067833975 0.0068491697
0.055845696 -0.069248661 0.0054598749
-0.055730581 -0.065376259 0.005976826
-0.055660941 -0.066574849 0.0071153939
-0.054236155 -0.066168107 0.0079789758
-0.052440073 -0.065282546 0.0086174309
-0.051973887 -0.06605015 0.0093832016
-0.05074244 -0.065857209 0.0097266436
-0.049299292 -0.065375149 0.010108024
-0.0485751 -0.065846242 0.010634571
-0.047679793 -0.066101536 0.011375606
-0.045819696 -0.065000035 0.011642724
-0.045145862 -0.065568991 0.011572957
-0.043750077 -0.065091573 0.011566192
-0.042863812 -0.065367319 0.011580527
-0.041980051 -0.065661103 0.011634111
-0.040983871 -0.065789893 0.011389494
-0.039936621 -0.065841451 0.011572272
-0.038971759 -0.066035479 0.011691689
-0.037392907 -0.065170497 0.011610389
-0.03669158 -0.065829009 0.011679679
-0.035694994 -0.065981656 0.011347383
-0.033925984 -0.064671405 0.011178643
-0.033168327 -0.065266706 0.011498541
-0.032461401 -0.06600485 0.012102306
-0.031106001 -0.065429859 0.01212582
-0.030230535 -0.065859377 0.012437195
-0.029110279 -0.065767661 0.012471825
-0.027698807 -0.064985663 0.012594432
-0.027007613 -0.065898575 0.012642741
-0.025853189 -0.065710187 0.013303727
-0.02461757 -0.065290071 0.013741016
-0.023791464 -0.065967247 0.013755202
-0.022046801 -0.064040706 0.014503449
-0.021008005 -0.064074412 0.014638543
-0.020391278 -0.065466732 0.014799714
-0.019176064 -0.064985558 0.015102357
-0.018132115 -0.065062292 0.015158266
-0.017062418 -0.065050468 0.015161216
-0.015828563 -0.064369485 0.015011489
-0.014981265 -0.065275513 0.01476258
-0.013967145 -0.065538146 0.014475733
-0.012660919 -0.064359672 0.013934076
-0.011795561 -0.065411747 0.013445854
-0.010725128 -0.065423287 0.012957692
-0.009504566 -0.064419836 0.012887746
-0.0086991703 -0.06633117 0.012689024
-0.0075602299 -0.065881997 0.012636781
-0.0064710518 -0.065789029 0.012771875
-0.0053746421 -0.065570638 0.012850374
-0.0042938041 -0.065480508 0.013205469
-0.0032010733 -0.065088488 0.013840854
-0.0021362514 -0.06515567 0.014202327
-0.0010669902 -0.065086402 0.01496771
0 -0.06497997 0.015281171
0.001067171 -0.065097429 0.015793651
0.0021464985 -0.065468207 0.015958637
0.0032477276 -0.066037126 0.016422987
0.0042786147 -0.065248869 0.016440392
0.0052974913 -0.064629398 0.016275406
0.0063694329 -0.064755902 0.016024798
0.0074691018 -0.065087885 0.015807182
0.0085530831 -0.065217257 0.015918911
0.0096472092 -0.065386645 0.015211344
0.010750438 -0.065577671 0.015368491
0.01178827 -0.065371312 0.015319377
0.012772988 -0.064929359 0.014749169
0.01386141 -0.065042004 0.014727384
0.014886805 -0.064863935 0.014517099
0.0160156 -0.065130107 0.014564514
0.017146261 -0.06537012 0.01477766
0.017980587 -0.064518571 0.014961958
0.018932179 -0.064159051 0.014681846
0.019838709 -0.063692696 0.013979465
0.021539016 -0.065693997 0.013983488
0.022543613 -0.065483831 0.014263272
0.023214124 -0.064366437 0.014688015
0.024598191 -0.065238677 0.014561564
0.025089234 -0.063768469 0.014361113
0.026729355 -0.065219626 0.014410675
0.028402615 -0.066636905 0.013712138
0.029066432 -0.065668605 0.013863832
0.029984703 -0.065323815 0.014044553
0.030978719 -0.06516213 0.01410231
0.031992514 -0.065051444 0.01408729
0.032823637 -0.064588442 0.01409325
0.034220189 -0.065232232 0.013819009
0.034919791 -0.064548701 0.014218122
0.036089107 -0.064748101 0.014441758
0.037231062 -0.064888418 0.014302224
0.038003407 -0.06439466 0.014207304
0.039325837 -0.064834483 0.014153033
0.040685117 -0.065310314 0.013946027
0.041472264 -0.064866871 0.014058828
0.043036573 -0.065630779 0.013568699
0.044642631 -0.066419519 0.012641698
0.044544023 -0.064694881 0.012255937
0.046518192 -0.065990925 0.011792719
0.046627745 -0.06464301 0.010701686
0.047868773 -0.064888775 0.009018302
0.049866837 -0.066127762 0.0081984103
0.051139239 -0.066372201 0.0081572235
0.053476587 -0.06795983 0.0073238909
0.053958967 -0.067173414 0.0055516958
-0.056239128 -0.064891301 0.0059258938
-0.056071747 -0.065966763 0.007463932
-0.054249927 -0.06509991 0.0080421269
-0.052629311 -0.064444058 0.0086476803
-0.05150133 -0.064376667 0.0092947483
-0.051003058 -0.065110289 0.0095760822
-0.049187753 -0.06415794 0.0099068284
-0.04893535 -0.065247133 0.010372579
-0.046916459 -0.063976996 0.011178255
-0.046560984 -0.064968817 0.011572957
-0.045515049 -0.065021493 0.011147141
-0.0438325 -0.064145118 0.011147141
-0.043001927 -0.064502895 0.01109603
-0.041758999 -0.064244613 0.011215478
-0.040818661 -0.064450517 0.011063039
-0.040042363 -0.064933561 0.011301905
-0.038869292 -0.06478215 0.011251569
-0.037707314 -0.064641111 0.01082924
-0.037083011 -0.065440603 0.011319607
-0.035577204 -0.064685829 0.011319011
-0.03472136 -0.065102555 0.011291236
-0.033337083 -0.064523384 0.011450142
-0.032188296 -0.064376593 0.012195498
-0.031445365 -0.065059371 0.012435615
-0.030015951 -0.064319894 0.012982279
-0.028943922 -0.064319827 0.013264805
-0.02800628 -0.064629875 0.013023555
-0.026527042 -0.063664898 0.013457805
-0.02575003 -0.064375073 0.013636261
-0.025098819 -0.065475181 0.01400876
-0.023572395 -0.064288348 0.01429987
-0.022599982 -0.064571373 0.014823407
-0.021312071 -0.063936219 0.014869571
-0.020055465 -0.063333049 0.015120536
-0.01917989 -0.06393297 0.015282512
-0.018153146 -0.064069927 0.015509903
-0.016947245 -0.063552171 0.015437543
-0.016126364 -0.064505458 0.015389591
-0.01481215 -0.063480645 0.015349954
-0.013832839 -0.063843876 0.01499173
-0.012923088 -0.064615443 0.01444453
-0.01182843 -0.064518712 0.014029533
-0.010635052 -0.063810311 0.013394952
-0.0095281526 -0.06352102 0.013163775
-0.0085181408 -0.063886061 0.012965053
-0.0075389673 -0.06461972 0.012866467
-0.0065092589 -0.065092586 0.012850374
-0.0053871805 -0.06464617 0.012912482
-0.0042770612 -0.064155921 0.013398498
-0.0032599631 -0.065199263 0.014335364
-0.002128599 -0.063857973 0.014898926
-0.0010632239 -0.063793436 0.015210181
0 -0.064140961 0.015527964
0.0010602089 -0.063612528 0.016112477
0.0021197952 -0.063593857 0.01630041
0.0031467208 -0.062934421 0.016510427
0.0041965032 -0.062947541 0.016541541
0.0053223623 -0.063868351 0.016613901
0.0063421228 -0.063421227 0.016407251
0.0074186851 -0.063588731 0.016327679
0.0086666932 -0.065000199 0.016230792
0.0095335785 -0.063557193 0.015823811
0.01057718 -0.063463084 0.015802443
0.011927227 -0.065057606 0.015739828
0.012774813 -0.063874066 0.015517503
0.013823438 -0.063800484 0.015158504
0.014823118 -0.063527651 0.015028715
0.016026033 -0.064104132 0.015227765
0.016938569 -0.063519634 0.015200973
0.017969811 -0.063422859 0.015250891
0.018942418 -0.063141398 0.015446782
0.02046518 -0.06462688 0.014383882
0.021241002 -0.063723013 0.014488101
0.022486165 -0.064246185 0.015118808
0.023711484 -0.064667687 0.014717728
0.02423062 -0.063210309 0.014845341
0.025338294 -0.063345738 0.014861166
0.026861073 -0.064466573 0.014430255
0.027730912 -0.063994415 0.013936996
0.028982909 -0.064406462 0.013941675
0.030219762 -0.064756632 0.014044553
0.030894181 -0.063918993 0.01410231
0.031856347 -0.063712694 0.01420334
0.033124603 -0.064112127 0.0142093
0.033751857 -0.063284732 0.01371792
0.034918733 -0.06348861 0.014255673
0.036079884 -0.063670382 0.01434949
0.037181646 -0.063739963 0.014060348
0.038670361 -0.064450607 0.014148563
0.039733525 -0.06443274 0.014153033
0.040512953 -0.063967824 0.014045328
0.041562364 -0.063942097 0.013761699
0.043109939 -0.064664915 0.013424695
0.043743949 -0.06401553 0.012313306
0.045086801 -0.064409718 0.011837512
0.045204736 -0.063076377 0.010949403
0.046866346 -0.063908651 0.0097680092
0.048018403 -0.06402453 0.0085362196
0.049295239 -0.064298138 0.0077790618
0.050972089 -0.065070748 0.0074095726
0.053188533 -0.066485666 0.006236434
0.0537997 -0.065877184 0.0051072836
-0.056032147 -0.06357494 0.0057272315
-0.055108998 -0.063753553 0.0070393682
-0.053790431 -0.063472711 0.0080420673
-0.053355366 -0.064244218 0.0086296797
-0.051571567 -0.063390054 0.0092685521
-0.051224142 -0.064302646 0.0094738007
-0.049685154 -0.063726611 0.0098305345
-0.047900766 -0.062803224 0.010241956
-0.047373988 -0.063524216 0.01077354
-0.04641524 -0.063686028 0.011072695
-0.044861116 -0.063019186 0.010878593
-0.044310883 -0.063764438 0.010751188
-0.042839732 -0.063188605 0.010734618
-0.041870065 -0.063341893 0.010737628
-0.040815126 -0.063370854 0.010652483
-0.039963461 -0.063725516 0.01076135
-0.038872506 -0.063707724 0.011033207
-0.038219448 -0.06442707 0.011033207
-0.036560945 -0.063443989 0.01098755
-0.035822194 -0.064045742 0.010974139
-0.034189336 -0.063036591 0.011006296
-0.033086244 -0.062970594 0.011588037
-0.03249231 -0.063901544 0.012296408
-0.031584125 -0.064257354 0.012708932
-0.030139714 -0.063508682 0.012957186
-0.028951159 -0.06326364 0.013116658
-0.027759742 -0.062993266 0.013527989
-0.026533648 -0.06261941 0.01403749
-0.025879318 -0.063619994 0.014323086
-0.024667433 -0.063277327 0.014371336
-0.02356902 -0.063207828 0.014679819
-0.022614509 -0.063535996 0.01499477
-0.021364393 -0.06302496 0.015279561
-0.020256231 -0.062900923 0.015390903
-0.019233497 -0.063043132 0.015946835
-0.017945601 -0.062281791 0.016097367
-0.017030554 -0.062800169 0.015862346
-0.015840162 -0.062304635 0.015457869
-0.014906999 -0.062822357 0.015382946
-0.01393349 -0.063236609 0.015100718
-0.012811295 -0.06298887 0.014798254
-0.011762422 -0.063089356 0.01451692
-0.010870488 -0.064135887 0.013497055
-0.0096602561 -0.063328348 0.013441056
-0.0086428262 -0.063740842 0.013275951
-0.0076122172 -0.064160116 0.013053149
-0.006402696 -0.062959842 0.012953609
-0.0053668232 -0.063328512 0.013242334
-0.0043140855 -0.063632764 0.01376909
-0.0032101173 -0.063132308 0.014942497
-0.0021541056 -0.063546121 0.015349597
-0.001075796 -0.063471965 0.015407622
0 -0.062400885 0.015756339
0.0010657221 -0.062877603 0.016163677
0.0021322691 -0.062901944 0.016573012
0.0031614383 -0.062174954 0.016837209
0.0042433906 -0.06259001 0.017083526
0.0052935365 -0.062463734 0.0171507
0.0062865266 -0.061817512 0.017239362
0.0074285613 -0.062612161 0.017054766
0.0085448818 -0.063018501 0.017015219
0.0094371773 -0.061865941 0.016230792
0.010697415 -0.063114747 0.016372561
0.011607207 -0.062256839 0.01598987
0.012909698 -0.063472688 0.015883923
0.013978167 -0.063439377 0.01565221
0.015021785 -0.063306093 0.015611678
0.016128607 -0.06343919 0.015736222
0.017052736 -0.062881961 0.015560985
0.018090067 -0.062783174 0.015668273
0.019206379 -0.062954247 0.015838236
0.020232188 -0.062826268 0.01514852
0.020965541 -0.06184835 0.015177697
0.022261553 -0.062544361 0.015250891
0.023280138 -0.062433098 0.014766693
0.024376543 -0.062531136 0.014912367
0.025597502 -0.062927194 0.014743775
0.026500534 -0.062541261 0.014538765
0.027725309 -0.062915124 0.014048547
0.028982036 -0.063331112 0.014043868
0.030464921 -0.064193942 0.014099747
0.031285748 -0.063650317 0.014086127
0.032335296 -0.063592754 0.013947874
0.033201844 -0.063190609 0.014241397
0.033435006 -0.061645791 0.013811082
0.035131745 -0.0628113 0.014179677
0.035606503 -0.061787758 0.014217019
0.037068866 -0.06248752 0.013886034
0.038353369 -0.06285692 0.013986558
0.038918812 -0.062059723 0.013965279
0.041038785 -0.06371811 0.013778925
0.04141577 -0.062654629 0.013424695
0.043089457 -0.063556947 0.012860566
0.043843366 -0.063091673 0.012199461
0.045395356 -0.063769661 0.011522979
0.046033498 -0.063162245 0.010359913
0.047418848 -0.063584365 0.0093373358
0.047682241 -0.062516719 0.007833451
0.048926957 -0.062754139 0.0075317025
0.051393114 -0.064514764 0.0069991648
0.052224264 -0.064192325 0.0058025122
-0.056829948 -0.063387252 0.0055987835
-0.055384904 -0.062986754 0.0069381595
-0.054534048 -0.063259497 0.007814765
-0.052655023 -0.062326357 0.0085337162
-0.051888913 -0.062699109 0.0089760125
-0.051168986 -0.063144706 0.009052366
-0.049606178 -0.062546924 0.0094795525
-0.048805624 -0.062905028 0.010118365
-0.047361717 -0.062431354 0.010703206
-0.04609108 -0.062169366 0.010713726
-0.04598368 -0.063501269 0.010719776
-0.044407815 -0.062820815 0.010519117
-0.043035075 -0.062400863 0.01051569
-0.041863836 -0.062259041 0.01044479
-0.040825043 -0.06231191 0.010363251
-0.039884266 -0.062521279 0.010497034
-0.039663132 -0.063901722 0.010503381
-0.037488148 -0.06212322 0.010503381
-0.037203643 -0.063465044 0.01051569
-0.035753559 -0.062839597 0.010613054
-0.0340783 -0.061766922 0.010620654
-0.033691157 -0.063035063 0.011535466
-0.032276399 -0.062401045 0.012335092
-0.03134926 -0.062698521 0.01271081
-0.030543203 -0.063268065 0.013370395
-0.029213458 -0.06275484 0.01356867
-0.027699184 -0.061790489 0.013776898
-0.02705205 -0.062760763 0.01425457
-0.02580036 -0.062350873 0.014543682
-0.024419885 -0.06158058 0.015028089
-0.023792185 -0.062724851 0.014823407
-0.022389727 -0.061838292 0.015495211
-0.021259921 -0.061653771 0.015405595
-0.020319585 -0.062028207 0.015397668
-0.019065665 -0.061433814 0.016010672
-0.018088333 -0.06171314 0.016161203
-0.017009629 -0.06165991 0.015773505
-0.016041206 -0.062026002 0.015308172
-0.015003516 -0.062157426 0.015159309
-0.013907111 -0.062047113 0.014866889
-0.012781134 -0.061775483 0.014534235
-0.011893366 -0.062710479 0.014312208
-0.010900921 -0.063225351 0.013847589
-0.0096463384 -0.062165294 0.013840854
-0.0086618476 -0.062798396 0.013442785
-0.0074185496 -0.061467987 0.013345063
-0.0064234505 -0.062093358 0.013177872
-0.005365124 -0.062235445 0.013380021
-0.0042844936 -0.062125158 0.013942033
-0.0031792247 -0.06146501 0.014704764
-0.0021452219 -0.062211439 0.01520136
-0.001060552 -0.061512016 0.015311062
0 -0.061813202 0.015681446
0.0010550607 -0.061193518 0.016429752
0.0021189121 -0.061448451 0.016672581
0.0031955172 -0.061780002 0.016730219
0.0042354963 -0.061414696 0.016953826
0.0052332813 -0.060706068 0.017083526
0.0063546654 -0.061428435 0.017262578
0.007440934 -0.061653454 0.017224282
0.0084861591 -0.061524652 0.017067075
0.0096593695 -0.062249273 0.016605824
0.010576366 -0.061342929 0.016781688
0.011736769 -0.061884787 0.01639092
0.012894774 -0.06232474 0.016126215
0.013816159 -0.061641328 0.015898347
0.015012803 -0.062195901 0.015844494
0.015989646 -0.061826639 0.015605032
0.016757829 -0.060747132 0.015412927
0.018318947 -0.06249994 0.015675426
0.019067835 -0.061440807 0.015848607
0.019993179 -0.061031811 0.015446782
0.021245455 -0.061611824 0.015446782
0.022425162 -0.061936159 0.01514852
0.023352079 -0.061564576 0.014766693
0.024410186 -0.061556119 0.014753997
0.02564567 -0.061977036 0.014598221
0.026930086 -0.062477801 0.014545828
0.027786866 -0.061986085 0.014061958
0.028686738 -0.061623365 0.013991535
0.03016394 -0.06248245 0.01404655
0.031616323 -0.063232645 0.014084131
0.032686219 -0.063193358 0.013894588
0.033327442 -0.062354565 0.014008671
0.034318924 -0.062203053 0.01354751
0.035287142 -0.062019829 0.013575256
0.036430825 -0.062146705 0.013715953
0.037311394 -0.061830316 0.013481379
0.038165759 -0.06148928 0.013625652
0.03946181 -0.061859049 0.01353398
0.04067893 -0.062088896 0.013132215
0.041353159 -0.06149957 0.012485653
0.043371361 -0.062888481 0.012386799
0.04396721 -0.062197514 0.011882186
0.044513997 -0.061471708 0.010940135
0.046658736 -0.062935039 0.010000288
0.04786323 -0.06309244 0.0086440742
0.049674645 -0.064025097 0.0073670745
0.049926113 -0.062950321 0.0067875385
0.051219694 -0.063207284 0.0060891807
0.053186137 -0.064266585 0.0051816702
-0.055300251 -0.061806161 0.0064506233
-0.053983826 -0.061541561 0.0073183179
-0.053266454 -0.061963018 0.0080157816
-0.051475335 -0.061126962 0.0087876618
-0.050716124 -0.061506789 0.0089304745
-0.049758621 -0.061657418 0.0092784762
-0.048749704 -0.061749622 0.0095497072
-0.047526065 -0.061567858 0.010003477
-0.046587225 -0.061755158 0.010153294
-0.045671869 -0.06198325 0.010153294
-0.043989923 -0.06115672 0.010203898
-0.043386485 -0.061825745 0.010197133
-0.041723777 -0.060980905 0.010116398
-0.040889543 -0.061334312 0.010116398
-0.040202912 -0.06193421 0.010265529
-0.038912889 -0.061612077 0.010444462
-0.037878029 -0.061687078 0.010265529
-0.037153255 -0.06228634 0.010261923
-0.035553623 -0.061410807 0.010567963
-0.034461882 -0.061385226 0.010724336
-0.033117071 -0.060892675 0.011423737
-0.032417737 -0.061593704 0.012390196
-0.031522632 -0.061958276 0.012739956
-0.030471284 -0.062030826 0.013526767
-0.028846411 -0.060897972 0.013915867
-0.027863959 -0.061086372 0.014128149
-0.026773844 -0.061044361 0.014298618
-0.025666239 -0.060957316 0.014642358
-0.024933023 -0.06179053 0.014503449
-0.023311213 -0.060397234 0.015037596
-0.022233013 -0.060346745 0.015308589
-0.021454293 -0.061144736 0.015308589
-0.020089567 -0.0602687 0.015351832
-0.019032203 -0.060268644 0.015938342
-0.018227983 -0.061117351 0.015975088
-0.016838035 -0.059985496 0.015785307
-0.016005225 -0.060819853 0.015328407
-0.015019774 -0.061151937 0.014916569
-0.01371278 -0.060125265 0.014917314
-0.012734947 -0.060490996 0.014641941
-0.011842458 -0.061365463 0.014366776
-0.010773804 -0.061410684 0.013898492
-0.0096068243 -0.060843222 0.013842583
-0.008643169 -0.06158258 0.013565689
-0.0075124209 -0.061172571 0.013491839
-0.0064220913 -0.061009865 0.013296872
-0.0053066518 -0.060495831 0.013380021
-0.0042860024 -0.061075531 0.013992161
-0.0031971857 -0.060746528 0.014988452
-0.002127385 -0.060630471 0.015182465
-0.0010618912 -0.060527802 0.015575081
0 -0.060720675 0.016060919
0.0010515688 -0.059939418 0.016696006
0.0021227973 -0.06049972 0.016836286
0.0031729194 -0.060285468 0.016933441
0.0041993214 -0.059840325 0.017090768
0.0053621838 -0.061128896 0.01729086
0.0063598002 -0.060418103 0.017482042
0.0073400424 -0.059768915 0.017332017
0.0085132876 -0.060657173 0.017151058
0.0096051944 -0.060832903 0.017127275
0.010676041 -0.060853437 0.016915202
0.01177608 -0.061021507 0.016393661
0.012915964 -0.06135083 0.016043484
0.013835922 -0.060665198 0.015922576
0.014837337 -0.060409155 0.015844494
0.016027845 -0.06090581 0.015605032
0.017175818 -0.061188851 0.015487254
0.018180819 -0.060959212 0.015492409
0.019271014 -0.061024878 0.015790552
0.020166328 -0.060498983 0.015364826
0.021266181 -0.060608618 0.015304983
0.0221963 -0.060247097 0.015152335
0.0235698 -0.061067209 0.014892966
0.024852626 -0.061591286 0.014769882
0.025732765 -0.061115317 0.014873773
0.026825055 -0.061161127 0.014668226
0.027596129 -0.060499202 0.013751805
0.028943986 -0.061103966 0.013147742
0.030373484 -0.061831731 0.013038725
0.031368975 -0.061656259 0.013147742
0.032379813 -0.061521646 0.013174027
0.033529427 -0.06165088 0.013361067
0.033422019 -0.059532966 0.012818068
0.035245877 -0.060879245 0.01308912
0.036192007 -0.060674831 0.013198555
0.03708237 -0.060391288 0.012744218
0.038456161 -0.060888924 0.013163984
0.039411087 -0.060714375 0.01277408
0.0402181 -0.06032715 0.012386799
0.041756585 -0.061028853 0.011816412
0.043417722 -0.061870255 0.011344701
0.043061614 -0.059866145 0.010865957
0.045101948 -0.061209783 0.0098761916
0.046339434 -0.061426692 0.0092256367
0.047159038 -0.061092388 0.0080136955
0.049119573 -0.062218122 0.0067449212
0.049275793 -0.061059132 0.0059604347
0.050665397 -0.06144527 0.0055212379
-0.055102166 -0.060504336 0.0061110854
-0.053789485 -0.060244221 0.0071237087
-0.053454999 -0.06109143 0.0077426136
-0.051749084 -0.060373932 0.0085470676
-0.051325478 -0.061153758 0.008718729
-0.049946744 -0.060804732 0.009097755
-0.048350472 -0.060169477 0.009141922
-0.047877789 -0.060935367 0.009601295
-0.04695433 -0.061149824 0.0097272992
-0.04517794 -0.060237251 0.0096971691
-0.044253785 -0.060444191 0.0095687807
-0.043115325 -0.060361456 0.0095781088
-0.041822486 -0.060052797 0.0097382367
-0.040937845 -0.060329452 0.0095594823
-0.03992302 -0.06042403 0.00959149
-0.038937084 -0.060568798 0.0098641515
-0.037884731 -0.060615569 0.0098152757
-0.036799811 -0.060611453 0.0098641515
-0.035351351 -0.059990171 0.010212183
-0.03422717 -0.059897546 0.010461032
-0.033106074 -0.059804518 0.010946214
-0.032748673 -0.061130859 0.012105674
-0.031222576 -0.060291868 0.012633234
-0.030012859 -0.060025718 0.013041556
-0.029145926 -0.060450811 0.013881207
-0.027693383 -0.059647288 0.014156371
-0.026692674 -0.059791584 0.01440537
-0.025928272 -0.060499303 0.014371336
-0.024493743 -0.059636936 0.014627695
-0.023385588 -0.059526954 0.014949888
-0.022571225 -0.060189929 0.015308589
-0.021215627 -0.059403758 0.015285164
-0.020222578 -0.059603386 0.015285164
-0.01923098 -0.059829723 0.015914917
-0.01809069 -0.059592862 0.015938401
-0.017041769 -0.059646189 0.015764385
-0.01596369 -0.059597775 0.015231162
-0.014719112 -0.058876447 0.014710397
-0.013860323 -0.05970601 0.014866084
-0.012806714 -0.059764665 0.014129788
-0.011761563 -0.059877045 0.014315546
-0.010977351 -0.061473168 0.013779044
-0.0097237071 -0.060503073 0.01379022
-0.0085505275 -0.059853692 0.013901591
-0.0075315051 -0.060252041 0.013713032
-0.0063862749 -0.059605233 0.013491839
-0.0053510587 -0.059931859 0.014026523
-0.0043312036 -0.060636852 0.014607131
-0.0031725685 -0.059221283 0.015141904
-0.0021312619 -0.059675328 0.01551339
-0.0010728267 -0.060078293 0.016061008
0 -0.059151907 0.016323954
0.0010682977 -0.059824668 0.016888112
0.0021193053 -0.059340548 0.017141521
0.0031928581 -0.059600018 0.017213345
0.0042850706 -0.059990987 0.017336786
0.0053401901 -0.059810128 0.017425567
0.0062848362 -0.058658473 0.017564088
0.0074736029 -0.059788823 0.01729086
0.0085089896 -0.059562929 0.017224282
0.0095721148 -0.059559826 0.017133832
0.010778739 -0.060360942 0.016830206
0.011588257 -0.058994763 0.016525954
0.01292333 -0.060308874 0.016140133
0.014088648 -0.060689565 0.015998304
0.014719957 -0.058879826 0.015876949
0.016023433 -0.059820812 0.015639275
0.01698867 -0.059460346 0.015544057
0.017818889 -0.058697514 0.01571247
0.019426439 -0.060437813 0.015790552
0.020179028 -0.059475027 0.015675426
0.021337459 -0.059744887 0.015340745
0.022700399 -0.060534395 0.015325785
0.023483751 -0.059776824 0.015011728
0.024866752 -0.060545132 0.015393555
0.026054136 -0.060792986 0.014715135
0.026596239 -0.059575573 0.014435053
0.027709052 -0.059681036 0.01369381
0.0291443 -0.060447436 0.012959063
0.030075271 -0.060150541 0.012929022
0.031199869 -0.060248021 0.013169736
0.032797452 -0.061221913 0.01287201
0.033134073 -0.059855096 0.012849927
0.034494933 -0.060366131 0.012745053
0.03578433 -0.060724925 0.012745053
0.035977356 -0.059256818 0.013079464
0.037349898 -0.05975984 0.012399137
0.038374096 -0.059693042 0.012546837
0.03963377 -0.059986245 0.012273282
0.040926423 -0.060312621 0.011883914
0.041904531 -0.06017061 0.011226118
0.042122595 -0.058971632 0.010977328
0.04350251 -0.05941806 0.010304898
0.045311641 -0.060415521 0.009241879
0.046538621 -0.060608435 0.0081984103
0.047790624 -0.060824431 0.0069423914
0.048661053 -0.060555972 0.0061768591
-0.05524594 -0.059578955 0.0055875778
-0.054236162 -0.059659775 0.0065348744
-0.053017478 -0.059509419 0.0072792172
-0.05197088 -0.059549965 0.0077992082
-0.051086083 -0.059781589 0.0081830025
-0.049458288 -0.059134908 0.0087372959
-0.049328499 -0.060290385 0.0089278221
-0.04822946 -0.060286827 0.0091381967
-0.045843985 -0.058637656 0.0091776252
-0.04577608 -0.059944864 0.0090026557
-0.044655547 -0.059903778 0.0091013014
-0.043370306 -0.059634175 0.0092104673
-0.042671397 -0.060177609 0.0094831884
-0.041077353 -0.059454065 0.0093175769
-0.040446188 -0.060122713 0.0092532039
-0.038965397 -0.059530471 0.0095315576
-0.038127124 -0.059914056 0.0094498098
-0.036630102 -0.059254576 0.0097187459
-0.035786495 -0.059644159 0.0097967386
-0.034136616 -0.058672309 0.010094881
-0.033787575 -0.059945695 0.010806084
-0.032624219 -0.059811071 0.011746377
-0.031175489 -0.059125926 0.012667835
-0.030205259 -0.05933176 0.012599349
-0.028817313 -0.058701932 0.013757616
-0.027492749 -0.058157738 0.014171183
-0.026789146 -0.058936119 0.013953537
-0.025869049 -0.059283238 0.013950199
-0.024472924 -0.058522206 0.014350951
-0.023657594 -0.05914399 0.01445502
-0.022312852 -0.058438417 0.015108585
-0.021373663 -0.058777574 0.015108585
-0.020342946 -0.058887474 0.014914095
-0.019199494 -0.058665127 0.015267849
-0.018181996 -0.058824107 0.015381247
-0.017039834 -0.058574431 0.015116602
-0.01597455 -0.05857335 0.014757603
-0.015101917 -0.059328962 0.014467329
-0.013916054 -0.058875617 0.014347166
-0.012779913 -0.058574602 0.013926387
-0.011756928 -0.058784638 0.013931453
-0.01086695 -0.05976823 0.013445854
-0.0097107096 -0.05934323 0.013479292
-0.008631709 -0.059343003 0.013752729
-0.0074795275 -0.058767717 0.013752729
-0.0064181653 -0.058833186 0.013752729
-0.0053278119 -0.058605935 0.014052868
-0.0042657503 -0.058654066 0.01449275
-0.0031970255 -0.058612134 0.015172631
-0.0021526462 -0.059197769 0.015943378
-0.0010800179 -0.059400979 0.016278833
0 -0.05892938 0.016500503
0.0010705339 -0.058879364 0.01706326
0.0021008174 -0.057772476 0.017284811
0.003188327 -0.058452662 0.017336786
0.0042548776 -0.05850457 0.01760453
0.0052846242 -0.058130872 0.017622709
0.0063638049 -0.05833488 0.017801851
0.0074156867 -0.058266111 0.017348051
0.0084553547 -0.058130562 0.017133892
0.0096145049 -0.058755312 0.017075568
0.010629623 -0.058462929 0.016783744
0.011679877 -0.058399387 0.016527653
0.012937869 -0.059298567 0.016150117
0.013823438 -0.058483776 0.015922219
0.014952318 -0.058741249 0.015735954
0.015990848 -0.058633111 0.015607148
0.016895935 -0.058079779 0.015544057
0.018384121 -0.059478041 0.015542656
0.019196237 -0.058655169 0.015750021
0.020191612 -0.058449402 0.015412927
0.021549836 -0.059262052 0.015381098
0.022366058 -0.058577769 0.015188098
0.023406794 -0.058516987 0.01506716
0.024852993 -0.059431069 0.015246719
0.025789451 -0.059100829 0.014873773
0.026584156 -0.058485139 0.014297396
0.027914366 -0.059049621 0.013458461
0.028817313 -0.058701932 0.012637615
0.029774986 -0.058486581 0.012191772
0.031220917 -0.059212081 0.012357265
0.032326024 -0.059264377 0.012110084
0.033386141 -0.059233479 0.012299448
0.034531649 -0.059351273 0.011974603
0.035114951 -0.058524922 0.011793435
0.036754943 -0.059456527 0.011947483
0.036964417 -0.058086943 0.011827469
0.038155288 -0.058292802 0.011781096
0.039627116 -0.058905169 0.01156646
0.04072769 -0.058947973 0.011259526
0.041620851 -0.058696073 0.011109471
0.042930283 -0.05902914 0.010700434
0.043591086 -0.058475845 0.0097852051
0.045132589 -0.0591022 0.0089099705
0.046239171 -0.05914313 0.0077570081
0.047484338 -0.059355423 0.0068555772
0.049050234 -0.059950285 0.0058293641
-0.054179061 -0.058513388 0.0053575635
-0.052946772 -0.058349509 0.0062201619
-0.052016821 -0.058518924 0.0070657432
-0.050843406 -0.05841583 0.0074282587
-0.050228588 -0.058963995 0.0079119205
-0.048534047 -0.058240853 0.0079119205
-0.047169637 -0.057890013 0.0080586672
-0.046564516 -0.05847637 0.0081907809
-0.045465589 -0.058455758 0.0080775321
-0.044256233 -0.058288697 0.0082266629
-0.043690152 -0.058981709 0.007948339
-0.042561214 -0.058930911 0.0082243681
-0.04166479 -0.059207864 0.0083509088
-0.040648855 -0.05932536 0.0084497631
-0.039205838 -0.058808763 0.008987844
-0.0378174 -0.058346849 0.0088313818
-0.036916602 -0.058632251 0.0093349516
-0.03550623 -0.058101106 0.0097340941
-0.034539271 -0.05828502 0.0098133981
-0.033686746 -0.058680136 0.010688603
-0.032275312 -0.058095563 0.011487812
-0.031273257 -0.058232959 0.012097955
-0.029884484 -0.057634361 0.012598634
-0.028737374 -0.057474747 0.01318875
-0.027845269 -0.057832487 0.013834834
-0.02675887 -0.05779916 0.013682812
-0.025780674 -0.058006518 0.013986349
-0.024660079 -0.057897579 0.014350951
-0.02345044 -0.057560172 0.014152139
-0.022229049 -0.057160415 0.014885306
-0.021576341 -0.058256123 0.014885306
-0.020046966 -0.056975588 0.014798462
-0.019333038 -0.057999119 0.015102923
-0.018129565 -0.05758803 0.015078306
-0.01700688 -0.057398222 0.015070707
-0.016199086 -0.058316708 0.014626384
-0.015056235 -0.05807405 0.014337003
-0.013829626 -0.057446141 0.014165491
-0.012877684 -0.05794958 0.013612688
-0.011916339 -0.058498397 0.013887674
-0.010837358 -0.05852174 0.013445854
-0.0096949264 -0.058169562 0.013475925
-0.0085490467 -0.057706065 0.013935864
-0.0075107883 -0.057940368 0.013978332
-0.0064126984 -0.057714287 0.013887674
-0.0053060292 -0.05730512 0.013885677
-0.004233581 -0.057153348 0.014178216
-0.0031902997 -0.057425398 0.015198916
-0.002127866 -0.057452384 0.015592664
-0.0010783849 -0.058232788 0.016216874
0 -0.058232967 0.016385555
0.0010618279 -0.057338707 0.017037302
0.0021229112 -0.057318602 0.017141521
0.0031625645 -0.056926165 0.017295986
0.0042318893 -0.057130504 0.017332584
0.0053428872 -0.057703186 0.017350763
0.0063459938 -0.057113949 0.017468393
0.0074317004 -0.057330262 0.017314166
0.0085500134 -0.057712592 0.017047346
0.0095731346 -0.057438813 0.01694724
0.010567331 -0.057063591 0.016520977
0.011802717 -0.057940617 0.0163849
0.012884207 -0.057978936 0.01603958
0.013857892 -0.057563554 0.015970498
0.015198275 -0.058621917 0.015818208
0.015966298 -0.057478674 0.015672058
0.016980795 -0.057310186 0.015607148
0.018055668 -0.057353299 0.015601993
0.019079857 -0.057239573 0.015660286
0.020517174 -0.058311973 0.015340745
0.021356655 -0.057662971 0.015148282
0.022145411 -0.056945346 0.015081465
0.023654865 -0.058061942 0.014772415
0.024476919 -0.05746755 0.014715135
0.025627218 -0.057661243 0.014433235
0.026805611 -0.05790012 0.013413966
0.027770011 -0.057676181 0.013076127
0.028839931 -0.057679862 0.012055069
0.030252449 -0.05834401 0.011750013
0.03093941 -0.057611313 0.011814058
0.032269888 -0.058085799 0.011516333
0.033989321 -0.059207205 0.011184812
0.034458309 -0.058148403 0.010992557
0.03567715 -0.058380798 0.010868043
0.036535807 -0.058027461 0.010888636
0.036329821 -0.056051727 0.010674953
0.038627304 -0.057940964 0.010926276
0.03938644 -0.057482913 0.010439157
0.040331975 -0.057313859 0.010189354
0.041683905 -0.05771618 0.0098359287
0.043379866 -0.058562823 0.0093317926
0.043736152 -0.057603713 0.0084279776
0.046142105 -0.059325565 0.0074080527
0.046644613 -0.058576956 0.0069020092
0.047568757 -0.05837984 0.0061646402
-0.052065365 -0.05748884 0.0059581101
-0.051774196 -0.058383666 0.0063589215
-0.049938221 -0.057537511 0.0072476864
-0.049085066 -0.057811294 0.0073650777
-0.048171174 -0.058024369 0.0075262189
-0.047197364 -0.058173493 0.007545501
-0.045364212 -0.05724531 0.0074993968
-0.044889502 -0.05802789 0.0076149106
-0.043105248 -0.057114456 0.0075444281
-0.042638425 -0.057944525 0.0077100396
-0.041820146 -0.058328096 0.0075187981
-0.039962757 -0.057243947 0.0075187981
-0.039123248 -0.057598118 0.0079376996
-0.037935123 -0.057444613 0.0081106126
-0.036760714 -0.057303462 0.008749634
-0.035330933 -0.056743622 0.0091428459
-0.034668174 -0.057419159 0.0094126761
-0.033673458 -0.057570748 0.01014185
-0.032725304 -0.057814702 0.011041701
-0.031031698 -0.056713101 0.011625916
-0.029939843 -0.056671843 0.012193382
-0.028893333 -0.056716539 0.012480229
-0.027615985 -0.056294121 0.012952417
-0.026518758 -0.056219764 0.013616472
-0.025776081 -0.056922175 0.013902366
-0.02472923 -0.056984741 0.01407212
-0.023276204 -0.056074489 0.014057696
-0.022487333 -0.056753743 0.014460087
-0.02122842 -0.056255311 0.014460087
-0.020199236 -0.056345236 0.014467329
-0.019321986 -0.056892514 0.014827251
-0.018074937 -0.056351271 0.014870703
-0.017210571 -0.057010014 0.014986515
-0.016071204 -0.05678492 0.014535636
-0.014838741 -0.056175232 0.014331937
-0.01393941 -0.056829903 0.014051557
-0.012880461 -0.056888703 0.013684243
-0.011849132 -0.057091273 0.013887674
-0.010871132 -0.057616998 0.013600469
-0.009722041 -0.057252023 0.01360184
-0.0085973023 -0.056957122 0.014126986
-0.0075906757 -0.057472259 0.014052868
-0.0064133541 -0.056651294 0.014015615
-0.0053500822 -0.056710873 0.013992161
-0.0042714803 -0.05659711 0.014362991
-0.0031828254 -0.056229915 0.015040636
-0.0021234879 -0.056272425 0.015793473
-0.0010695512 -0.056686215 0.015978754
0 -0.056471739 0.016358167
0.001072634 -0.056849603 0.016949713
0.0021216744 -0.056224369 0.016933441
0.0031898974 -0.056354854 0.017090768
0.0042946907 -0.056904651 0.017180413
0.0052863155 -0.056034941 0.017336786
0.0063382871 -0.055988204 0.017348051
0.0074857553 -0.056677859 0.017105669
0.0085252635 -0.056479868 0.016830266
0.0096268598 -0.056691509 0.016751647
0.010674134 -0.056572907 0.016312361
0.01166103 -0.056184962 0.016281068
0.012880461 -0.056888703 0.015876949
0.013940981 -0.056836307 0.01574856
0.014919088 -0.056479402 0.015567094
0.015946165 -0.056343116 0.015560985
0.016952543 -0.056155298 0.015381098
0.01793428 -0.055912748 0.015322983
0.019285029 -0.056783698 0.015292645
0.0201935 -0.056329235 0.015081465
0.021391427 -0.056687281 0.014946371
0.022411274 -0.056561783 0.014592052
0.023349237 -0.056250434 0.014267743
0.024143478 -0.055634968 0.013820559
0.025625469 -0.056589577 0.013189495
0.026806843 -0.056830503 0.012821853
0.027716361 -0.056498732 0.012004912
0.028950326 -0.056828413 0.011529088
0.029804766 -0.056416165 0.010828614
0.030960012 -0.056582086 0.010850251
0.032482978 -0.057386588 0.0107041
0.033324074 -0.056973416 0.010298014
0.034621894 -0.057342507 0.010135859
0.035981052 -0.057787746 0.010079056
0.036248725 -0.056505363 0.010303736
0.03755362 -0.05686691 0.0097038746
0.038928173 -0.057310924 0.0098972917
0.039178781 -0.056120951 0.0098768175
0.040850509 -0.056975707 0.0088082254
0.042035367 -0.057124987 0.0087605119
0.043497443 -0.057634111 0.0082971752
0.044997994 -0.058168132 0.0073004067
0.045778334 -0.057767898 0.0064063966
0.046822596 -0.057711571 0.0056555569
0.048916783 -0.058922492 0.0050112903
-0.049984522 -0.056504238 0.0060355663
-0.04934679 -0.057022955 0.006069988
-0.0479961 -0.056722663 0.0064850152
-0.046540208 -0.056281179 0.0062744021
-0.045530248 -0.05637078 0.0060682595
-0.044565935 -0.056522645 0.0065410435
-0.043792941 -0.056930825 0.0068909526
-0.042785842 -0.057047788 0.0070066154
-0.04185411 -0.05727404 0.0070232749
-0.04006689 -0.056310222 0.0072372258
-0.039283205 -0.056742411 0.0073816478
-0.037620462 -0.055893261 0.0076157749
-0.03681346 -0.056302942 0.0081909001
-0.036129806 -0.056931816 0.0088313818
-0.034827814 -0.056595195 0.009205997
-0.033968344 -0.056979157 0.01006642
-0.032551285 -0.056422226 0.011041701
-0.031244544 -0.056024697 0.011603028
-0.02997648 -0.055670604 0.012149483
