ply
format ascii 1.0
comment PCL generated
element vertex 1259
property float x
property float y
property float z
element camera 0
property float view_px
property float view_py
property float view_pz
property float x_axisx
property float x_axisy
property float x_axisz
property float y_axisx
property float y_axisy
property float y_axisz
property float z_axisx
property float z_axisy
property float z_axisz
property float focal
property float scalex
property float scaley
property float centerx
property float centery
property int viewportx
property int viewporty
property float k1
property float k2
end_header
0.038735088 -0.082850054 0.012891233
0.039539821 -0.082285576 0.012537241
0.04083271 -0.082739964 0.012262821
0.042336959 -0.083588354 0.012198001
0.042427856 -0.08167363 0.011629343
0.044284105 -0.083167702 0.010966271
0.044960231 -0.082427084 0.0095673501
0.045696434 -0.081828497 0.0098758638
0.046893701 -0.08206398 0.0083700418
0.04852524 -0.083032072 0.0074684322
0.049239825 -0.08242318 0.0058426559
-0.067034572 -0.084910467 0.0050081015
-0.064058691 -0.082516275 0.0065147579
-0.063060082 -0.082630448 0.0071989596
-0.0623997 -0.083199605 0.0075087547
-0.060365025 -0.081923962 0.0078102052
-0.060276292 -0.083290875 0.0082601309
-0.058654334 -0.082550548 0.0084677041
-0.057155084 -0.081958234 0.009911865
-0.055961292 -0.081789583 0.010020226
-0.054868553 -0.081764899 0.01009059
-0.054403413 -0.082693182 0.010662287
-0.053211547 -0.082532205 0.011001498
-0.051132604 -0.080959961 0.01178205
-0.051197469 -0.082787395 0.011775911
-0.049900245 -0.082443878 0.012182057
-0.048485734 -0.081887014 0.012389868
-0.047360577 -0.081804633 0.01228714
-0.046116896 -0.081508934 0.011783868
-0.044915687 -0.081276007 0.011598527
-0.044125941 -0.081794418 0.010839671
-0.043138802 -0.081963733 0.010585696
-0.041493513 -0.080859154 0.010388434
-0.041481473 -0.082962945 0.010218829
-0.040370226 -0.082922623 0.009637177
-0.039322082 -0.083013289 0.009685427
-0.03849069 -0.083579794 0.0095724463
-0.036785722 -0.08222691 0.0098824501
-0.035234127 -0.081145264 0.010155261
-0.034167353 -0.08114747 0.010689735
-0.033042919 -0.081008442 0.010988295
-0.032181811 -0.081527255 0.011518478
-0.031468086 -0.082468085 0.011395425
-0.029638512 -0.080447391 0.01138407
-0.02914634 -0.082041547 0.011267573
-0.028546941 -0.083444908 0.010945261
-0.026589204 -0.080831178 0.010325521
-0.026189586 -0.082933694 0.0097625256
-0.025000107 -0.082609043 0.0093576312
-0.023651868 -0.081706457 0.0091407895
-0.022907604 -0.082903713 0.0085473359
-0.021328835 -0.081049576 0.0083498061
-0.020564925 -0.0822597 0.0081676841
-0.019705558 -0.083201252 0.0079251528
-0.018522212 -0.082805179 0.0082681775
-0.017555075 -0.083386607 0.0085157156
-0.016413623 -0.08316236 0.0098511577
-0.014941034 -0.081108473 0.010773033
-0.014009601 -0.081902288 0.011636496
-0.012918543 -0.081817441 0.014370412
-0.011589218 -0.080070965 0.015565097
-0.010702203 -0.081336744 0.016399413
-0.0096266046 -0.081291333 0.016826034
-0.0084309289 -0.080093831 0.017525673
-0.0073161838 -0.079432853 0.017525673
-0.006333793 -0.080228046 0.0173271
-0.0053316467 -0.081041031 0.016391367
-0.0042951442 -0.081607737 0.016211569
-0.0032072291 -0.081249803 0.01527077
-0.0021463321 -0.081560619 0.014159411
-0.0010765303 -0.081816308 0.013363421
0 -0.08138404 0.013034672
0.0010701806 -0.081333719 0.012647986
0.0021632246 -0.082202539 0.012802005
0.0032332863 -0.081909925 0.012772411
0.004318146 -0.082044773 0.013088614
0.0054502473 -0.082843766 0.013842434
0.0064793439 -0.082071692 0.013957351
0.007566066 -0.082145862 0.013867646
0.0086264173 -0.08195097 0.014283478
0.0096325343 -0.081341408 0.014424771
0.010953723 -0.083248302 0.01446709
0.011807249 -0.081577361 0.01467818
0.012542749 -0.079437412 0.014787346
0.013668681 -0.07990922 0.014787346
0.014604094 -0.079279371 0.014929056
0.015905384 -0.080587275 0.015080392
0.017403753 -0.082667828 0.01556322
0.017832359 -0.079721138 0.015340477
0.019334994 -0.081636652 0.015655071
0.020170406 -0.080681622 0.015164554
0.021369521 -0.081204183 0.015147746
0.022138739 -0.080121152 0.015463889
0.023476847 -0.081101835 0.016208142
0.024272414 -0.080204502 0.016038597
0.025558095 -0.080933973 0.015456796
0.026728218 -0.081253782 0.015353113
0.027452687 -0.080246322 0.015286356
0.028579874 -0.080447055 0.015264899
0.030056851 -0.081582882 0.01500836
0.031176971 -0.081705168 0.014675975
0.032318022 -0.081872322 0.01423797
0.033322521 -0.081693918 0.014093935
0.034681421 -0.082368374 0.013659477
0.035419341 -0.081571817 0.013125867
0.036115933 -0.080729738 0.012764603
0.03722062 -0.080821916 0.012413949
0.03899556 -0.082323968 0.012392372
0.039127484 -0.080369964 0.011927217
0.041184559 -0.082369119 0.011629343
0.04219817 -0.082232334 0.011493713
0.042638022 -0.081012242 0.011113226
0.044705097 -0.08286798 0.010347992
0.046044398 -0.083318435 0.0093334317
0.04621936 -0.081690036 0.0092183352
0.047124729 -0.081397265 0.0079774559
0.048860848 -0.082520537 0.0072108805
-0.064360231 -0.08181385 0.0053353608
-0.063917585 -0.082652047 0.0060676634
-0.061202921 -0.080530167 0.0067258775
-0.061455965 -0.0823071 0.0071537495
-0.05980676 -0.081554674 0.0073916614
-0.059200328 -0.082222678 0.007566303
-0.057536617 -0.081419744 0.008477211
-0.056082211 -0.080887809 0.0090861022
-0.054987192 -0.080863521 0.0095561147
-0.05377946 -0.080669194 0.0099639595
-0.052162517 -0.079840593 0.010330319
-0.051564127 -0.080568947 0.011121273
-0.051240083 -0.081766091 0.011421472
-0.04938852 -0.080524765 0.011788338
-0.048839957 -0.081399925 0.012036979
-0.047869544 -0.081595823 0.012030065
-0.046168439 -0.080526352 0.011728406
-0.044853315 -0.080095202 0.01128462
-0.04427053 -0.080982678 0.010802537
-0.042726453 -0.0801121 0.010401219
-0.042515039 -0.081759691 0.010242701
-0.04114648 -0.081210159 0.010218829
-0.040432636 -0.081958048 0.010037452
-0.039735306 -0.082781889 0.0098103285
-0.038031612 -0.081496313 0.0099056065
-0.036250055 -0.079963356 0.010050237
-0.03540187 -0.080458798 0.010581344
-0.03379089 -0.079197399 0.011145741
-0.033233881 -0.08040455 0.011297733
-0.032395426 -0.080988571 0.011695087
-0.031140834 -0.080536641 0.011493862
-0.030192696 -0.080873296 0.011679143
-0.029222533 -0.081173703 0.011311531
-0.027810367 -0.080222212 0.010798424
-0.02712319 -0.081369571 0.010341763
-0.026165582 -0.081767447 0.0099628866
-0.024758238 -0.080733389 0.0096065104
-0.023815341 -0.081188664 0.0093183517
-0.022713145 -0.081118375 0.0086883903
-0.021324167 -0.079965629 0.0083305538
-0.02063456 -0.081452213 0.0082280934
-0.019434316 -0.080976322 0.0080788434
-0.018426808 -0.081294745 0.0084601045
-0.017676126 -0.082856841 0.0087737739
-0.016207285 -0.081036426 0.010276675
-0.015159986 -0.081214212 0.010884315
-0.013979381 -0.080650277 0.011662692
-0.012626817 -0.078917608 0.014352888
-0.011846235 -0.080769785 0.015805215
-0.010668134 -0.08001101 0.017182678
-0.0095522599 -0.079602167 0.0173271
-0.0085004419 -0.079691641 0.017329067
-0.0074839443 -0.080185123 0.017247647
-0.0063704769 -0.079630964 0.017294228
-0.0053562489 -0.080343738 0.016434044
-0.0042884718 -0.080408841 0.015748382
-0.003188015 -0.079700381 0.014819145
-0.0021844669 -0.081917517 0.014099568
-0.0010775004 -0.080812529 0.013348252
0 -0.079940774 0.012858599
0.0010857109 -0.081428319 0.01262328
0.0021486285 -0.080573574 0.012637496
0.0032716168 -0.081790425 0.012637496
0.0044044927 -0.08258424 0.012901366
0.0054611205 -0.081916809 0.013841659
0.0065671499 -0.082089379 0.01396355
0.0075695128 -0.081101924 0.014226645
0.008443878 -0.079161353 0.014658779
0.0094950991 -0.079125836 0.014736325
0.010707676 -0.080307581 0.01502341
0.011550343 -0.078752339 0.015031815
0.012945273 -0.080907963 0.015089989
0.013602485 -0.078475878 0.015192837
0.014884105 -0.079736277 0.015185833
0.016192012 -0.080960065 0.015130907
0.01674192 -0.078477755 0.015346974
0.018444112 -0.081371084 0.015301615
0.019403065 -0.080846101 0.015159518
0.019709811 -0.077801883 0.014942139
0.021057196 -0.078964487 0.0148772
0.022210391 -0.079322822 0.014970005
0.023340061 -0.079568394 0.015902966
0.024045356 -0.078408763 0.015959114
0.025594113 -0.079981603 0.015359372
0.026227409 -0.078682229 0.015351474
0.027631538 -0.079706363 0.015062809
0.029088523 -0.08080145 0.015201062
0.029826066 -0.07989125 0.014978677
0.031010816 -0.080200382 0.014802516
0.032273497 -0.080683745 0.014166683
0.033302423 -0.080570377 0.013665348
0.034140766 -0.080017425 0.013124228
0.03478289 -0.079052031 0.012592733
0.036668353 -0.080886073 0.012150466
0.0378686 -0.081147008 0.012066394
0.038282491 -0.079755194 0.011767387
0.039924718 -0.080928482 0.011110067
0.041307475 -0.081527919 0.010525703
0.04167046 -0.080135502 0.010402411
0.043840598 -0.082201131 0.0099897683
0.044255864 -0.080955848 0.0094308257
0.045431696 -0.081128031 0.0086456835
0.046322204 -0.080794543 0.0082803965
0.047625728 -0.081180222 0.006693393
0.048451275 -0.080752119 0.0057462156
-0.061744396 -0.080159396 0.0058881044
-0.060907669 -0.080485135 0.0064607263
-0.05941163 -0.079935648 0.0066264272
-0.05846905 -0.080124252 0.0069518387
-0.057524271 -0.080316909 0.0073094368
-0.055361722 -0.078783996 0.0075440109
-0.055075273 -0.079913139 0.0086970031
-0.05380331 -0.0796289 0.0096510053
-0.052920718 -0.079921089 0.0096217692
-0.05188141 -0.079983845 0.010584116
-0.050241053 -0.079102941 0.011315405
-0.049388543 -0.079451136 0.011414945
-0.048724905 -0.080125399 0.012030065
-0.047284961 -0.079524711 0.012030721
-0.046442814 -0.079924852 0.011562675
-0.045254041 -0.079733312 0.01114741
-0.043695908 -0.078865781 0.010589033
-0.042977024 -0.0795075 0.01030612
-0.042138297 -0.079954721 0.010077327
-0.041253317 -0.080335408 0.010150015
-0.041139998 -0.082279995 0.009819895
-0.039344534 -0.080874883 0.010025591
-0.037826978 -0.079977043 0.0099183917
-0.036741626 -0.079967074 0.010400712
-0.03527965 -0.079111949 0.011006355
-0.034261242 -0.079229116 0.011564553
-0.033346977 -0.079602458 0.011573285
-0.032040395 -0.079032972 0.01201421
-0.031186 -0.079578064 0.011831701
-0.030537844 -0.080707163 0.011649013
-0.028935179 -0.079303823 0.011347502
-0.028119979 -0.080033794 0.010884404
-0.026872033 -0.079541221 0.010111123
-0.025997758 -0.080159754 0.0099499524
-0.02475558 -0.07964839 0.0094110966
-0.023632405 -0.079490826 0.0093368888
-0.022454247 -0.079124488 0.0086365938
-0.021721801 -0.080370665 0.0084524453
-0.020663174 -0.080477633 0.0085054636
-0.019499114 -0.080163032 0.0085220933
-0.018846521 -0.082037799 0.0088599324
-0.017680235 -0.081771091 0.009763509
-0.016274786 -0.080288947 0.010729939
-0.015158412 -0.080123037 0.01139769
-0.013846993 -0.078821354 0.012942672
-0.012806538 -0.078973658 0.015254974
-0.01162872 -0.078229576 0.016266495
-0.010563842 -0.078172438 0.017487705
-0.009561413 -0.078616068 0.017632127
-0.0084280148 -0.077959135 0.017617851
-0.0073811412 -0.078029215 0.017487705
-0.0063496032 -0.078311771 0.017329067
-0.0053433715 -0.0790819 0.016530633
-0.0042995149 -0.079541028 0.01581803
-0.003236396 -0.079831108 0.014807582
-0.0021768161 -0.080542199 0.014188498
-0.0010769661 -0.079695493 0.013213664
0 -0.079473883 0.012670428
0.0010734285 -0.079433717 0.01238215
0.0021848506 -0.08083947 0.011913747
0.0032804641 -0.080918118 0.01195088
0.0043484387 -0.080446117 0.012641847
0.0054300041 -0.080364071 0.013651252
0.0064035594 -0.078977242 0.013740838
0.0074629723 -0.07889428 0.014182091
0.0085248882 -0.078855217 0.014447331
0.0095036877 -0.078141436 0.014899313
0.010699307 -0.079174869 0.015078068
0.01170454 -0.078739636 0.015217125
0.012679243 -0.078188665 0.015301168
0.013711437 -0.078049719 0.01539129
0.014738114 -0.07790146 0.015123993
0.015771478 -0.077805966 0.015173525
0.016988134 -0.07857012 0.015340477
0.018240573 -0.079400145 0.015123993
0.019323368 -0.079440519 0.015067428
0.020423064 -0.079542466 0.014866471
0.021261878 -0.078668952 0.015010029
0.022160003 -0.078087628 0.014910817
0.023233308 -0.078148402 0.015937924
0.024718404 -0.079528779 0.015780926
0.025654433 -0.079101175 0.015357465
0.026586272 -0.078695372 0.015141755
0.027466567 -0.078174077 0.015226066
0.028684806 -0.078617617 0.015140712
0.029511152 -0.077993765 0.014830828
0.030516526 -0.077869758 0.014660239
0.032282565 -0.07963033 0.013665348
0.033506364 -0.079982936 0.01349923
0.03413691 -0.078941613 0.012742549
0.035829876 -0.080345787 0.012160093
0.036359705 -0.079135835 0.011890918
0.036863115 -0.07793916 0.01156348
0.038781211 -0.079716936 0.01088497
0.039913818 -0.079827636 0.010223061
0.040867668 -0.079584405 0.010094613
0.042205799 -0.080082797 0.0093334317
0.043571342 -0.08060699 0.0086789429
0.044923745 -0.081081882 0.0084282458
0.046028063 -0.081097066 0.0074318349
0.047488894 -0.081725083 0.0071478784
0.048032477 -0.080781899 0.0051151812
-0.06089763 -0.079384416 0.0055551529
-0.05917928 -0.078547046 0.0058930218
-0.058353305 -0.078885026 0.0064554811
-0.057965543 -0.079839341 0.0068102479
-0.056190375 -0.07888265 0.0068350732
-0.054905109 -0.07858967 0.0073511004
-0.054240648 -0.079191349 0.0080016851
-0.053469162 -0.079658151 0.0085792243
-0.051555302 -0.078407027 0.0099871755
-0.050263092 -0.078068212 0.010514796
-0.049667947 -0.078820877 0.011053294
-0.04786361 -0.077645414 0.011313051
-0.047305737 -0.07848452 0.011365652
-0.046553005 -0.079031847 0.010838002
-0.044875484 -0.077997863 0.010953784
-0.043813009 -0.078008525 0.010513425
-0.04296251 -0.078406587 0.010013551
-0.042615611 -0.079767689 0.010006785
-0.04172767 -0.08016105 0.010359943
-0.040658604 -0.08021833 0.010090798
-0.039028477 -0.07914108 0.010296494
-0.037950344 -0.079153582 0.010430366
-0.036306649 -0.077952519 0.010710865
-0.035159089 -0.077776171 0.011241019
-0.03397594 -0.077507615 0.011706114
-0.03279249 -0.077221029 0.011762887
-0.032140702 -0.078209043 0.01201421
-0.031255316 -0.078677177 0.011831701
-0.029850952 -0.077825703 0.011658251
-0.029350378 -0.079354726 0.011266142
-0.028468616 -0.079931118 0.01093626
-0.026791133 -0.078230105 0.010536164
-0.026053825 -0.079247057 0.0099416971
-0.024755528 -0.078571893 0.0096485615
-0.023740392 -0.078774944 0.0092392266
-0.022840343 -0.079397388 0.0086222589
-0.021478603 -0.078396909 0.0086559355
-0.020449199 -0.078567974 0.008666873
-0.019630732 -0.079613529 0.0088702142
-0.018712245 -0.080352582 0.0095252991
-0.017502032 -0.079853021 0.009845823
-0.016300894 -0.079331018 0.010734499
-0.015011552 -0.078274526 0.011563718
-0.013878084 -0.077930778 0.014224023
-0.012940297 -0.078720145 0.015228629
-0.011503946 -0.076344371 0.016839832
-0.010574532 -0.077194087 0.017552674
-0.0095910281 -0.077793904 0.017762274
-0.0084485514 -0.077093035 0.017552674
-0.0074398387 -0.077586897 0.017329067
-0.0063502654 -0.077261567 0.017212123
-0.0053103571 -0.077531226 0.015863866
-0.0042757536 -0.078032508 0.01502949
-0.0032263175 -0.078507066 0.014412373
-0.0021567894 -0.078722812 0.013602555
-0.0010838031 -0.079117626 0.012551606
0 -0.078706257 0.011665165
0.0010878221 -0.079411015 0.011172444
0.0022086157 -0.080614477 0.011094719
0.0032311762 -0.078625292 0.011125535
0.0042949477 -0.078382798 0.011864066
0.0053613405 -0.078275576 0.012775868
0.0064132423 -0.078027785 0.013149053
0.0075313621 -0.078541353 0.013677031
0.0085747354 -0.078244463 0.014048219
0.0096493186 -0.078266703 0.014424771
0.010663882 -0.077846348 0.014541388
0.011550117 -0.076650783 0.014945835
0.012740994 -0.077507719 0.015173525
0.013838333 -0.077707566 0.015173525
0.014861319 -0.077491172 0.015064955
0.016045531 -0.078088254 0.015196025
0.017338041 -0.079104811 0.015109748
0.018060178 -0.077552535 0.014865488
0.019075217 -0.077360608 0.014645159
0.020483352 -0.078699201 0.014466912
0.021328822 -0.077850208 0.014581859
0.022473006 -0.078120455 0.014219701
0.023595441 -0.078293972 0.015123963
0.024163224 -0.076691978 0.015204549
0.025575258 -0.077791415 0.014553368
0.026500754 -0.077382199 0.014480293
0.02764371 -0.077615038 0.014543802
0.029049795 -0.078542039 0.014542162
0.029700147 -0.077432528 0.014339924
0.030561253 -0.076930054 0.014488637
0.032189157 -0.078326955 0.013648301
0.033313509 -0.078447938 0.01349923
0.034530882 -0.07877358 0.012739182
0.03596605 -0.079561263 0.012131095
0.036422499 -0.078201249 0.011614621
0.037519444 -0.078254849 0.01156503
0.038985454 -0.079053842 0.010299534
0.039440725 -0.077815488 0.0097104013
0.040887941 -0.078547888 0.0090750754
0.042431641 -0.079423338 0.0086387694
0.043490227 -0.079369672 0.0077631474
0.045295872 -0.08064875 0.0072575212
0.046346523 -0.080554672 0.0066910684
0.047858614 -0.08124835 0.0059145391
-0.058837835 -0.078450441 0.0053219497
-0.057258856 -0.077785611 0.0064515173
-0.056490123 -0.078217089 0.0065119863
-0.055627275 -0.078532621 0.0070673227
-0.055115834 -0.079366796 0.0075820386
-0.052858777 -0.077670038 0.0078528523
-0.052687548 -0.079031326 0.0092225373
-0.05104696 -0.078199595 0.010388345
-0.049269788 -0.077117927 0.010674894
-0.048335291 -0.07733646 0.010825574
-0.047047988 -0.076987609 0.010955453
-0.045867514 -0.076801419 0.010746211
-0.044569042 -0.076404065 0.010797709
-0.044622757 -0.078361906 0.010320157
-0.042890403 -0.077202722 0.010036498
-0.042911377 -0.079221003 0.010013551
-0.042102292 -0.079772756 0.010487378
-0.040762536 -0.07932169 0.010361284
-0.039101418 -0.078202836 0.010589927
-0.037489753 -0.077121779 0.010545909
-0.036204543 -0.076668441 0.011161119
-0.035223763 -0.076851845 0.011476576
-0.033946723 -0.076380119 0.011844695
-0.033357717 -0.07747598 0.011844695
-0.032196019 -0.077270448 0.012146086
-0.030873174 -0.076650634 0.011872053
-0.030219372 -0.077706955 0.011638492
-0.029251646 -0.078004383 0.011183798
-0.028207004 -0.078111701 0.0108549
-0.026940608 -0.077588946 0.010535538
-0.025715839 -0.077147521 0.0099915266
-0.024866953 -0.077844366 0.0094787776
-0.02400917 -0.078575462 0.0091091394
-0.022993816 -0.078835934 0.0086101592
-0.021637851 -0.07789626 0.0087153912
-0.020688223 -0.078397475 0.0087279975
-0.019576738 -0.078306951 0.0089672506
-0.018848872 -0.079830512 0.0095577836
-0.017707344 -0.079683051 0.01002419
-0.016204586 -0.077782013 0.01119554
-0.015236442 -0.078358844 0.011994809
-0.013930172 -0.077151716 0.014898866
-0.012460091 -0.074760549 0.015834123
-0.011824412 -0.077396154 0.017205328
-0.010679357 -0.07689137 0.018009961
-0.0095228795 -0.076183036 0.018317282
-0.0083754575 -0.075379111 0.017668128
-0.0074334424 -0.07645826 0.017414778
-0.00633361 -0.076003313 0.01732558
-0.005271283 -0.07590647 0.015695125
-0.0042574666 -0.0766344 0.014425457
-0.0031803856 -0.076329254 0.013940096
-0.002159416 -0.077738971 0.012760401
-0.00109154 -0.078590877 0.011956125
0 -0.077394255 0.010996133
0.0010942405 -0.078785315 0.010669857
0.0021860607 -0.078698181 0.010488927
0.0032171113 -0.077210672 0.010488927
0.0043316372 -0.077969462 0.010996133
0.0053891959 -0.07760442 0.011944473
0.0064113755 -0.076936506 0.012622327
0.0075602871 -0.077762946 0.013133883
0.0085674562 -0.077107102 0.013537735
0.009601715 -0.07681372 0.013835579
0.010704554 -0.077072792 0.014300317
0.011596754 -0.075906023 0.014591664
0.012804885 -0.076829307 0.014682621
0.013785918 -0.076352775 0.014649659
0.014877909 -0.076514959 0.014736176
0.016111933 -0.07733728 0.014752299
0.016937878 -0.076220445 0.014845192
0.018421786 -0.078021675 0.014541388
0.019438608 -0.07775443 0.014295787
0.020267945 -0.076804839 0.014435887
0.021473618 -0.077305026 0.013882339
0.022652747 -0.077666558 0.014388472
0.02348448 -0.076858297 0.014690787
0.024887623 -0.077909075 0.014466017
0.025294576 -0.075883724 0.014218181
0.026916649 -0.077519946 0.014218181
0.027781915 -0.076934531 0.014128566
0.028603334 -0.07627555 0.014066726
0.029617565 -0.076159447 0.013673604
0.031234244 -0.077547081 0.013826698
0.032266043 -0.077438504 0.013420224
0.0334078 -0.077592306 0.013136983
0.034986261 -0.078719087 0.012592733
0.035509974 -0.077476308 0.012066394
0.036214709 -0.076689973 0.011459738
0.037671812 -0.077496298 0.011012584
0.038197588 -0.076395176 0.0097110868
0.039933313 -0.077708058 0.0086612403
0.041089639 -0.077854052 0.0081124008
0.042307977 -0.078107029 0.007804364
0.043413572 -0.078144431 0.0067822039
0.045188252 -0.079354972 0.0053155124
-0.058147769 -0.077896066 0.0056344867
-0.056839343 -0.077607565 0.006172657
-0.05597911 -0.077931702 0.0066995621
-0.055103596 -0.0782471 0.0071631968
-0.053900655 -0.07810095 0.0071752071
-0.052495413 -0.077649467 0.0084023476
-0.050393242 -0.076125957 0.0093709826
-0.049450021 -0.076325029 0.0098076463
-0.048149206 -0.075968742 0.0099304318
-0.04725197 -0.076247498 0.0099998116
-0.046398044 -0.076610722 0.0099381804
-0.04520265 -0.076413997 0.010085642
-0.043958593 -0.076123409 0.009927541
-0.043037858 -0.076392196 0.0099345148
-0.042445008 -0.077271678 0.010297924
-0.0417751 -0.078053474 0.010730952
-0.040510159 -0.077735707 0.010361284
-0.038939532 -0.076797411 0.010514915
-0.037501685 -0.076074846 0.010573655
-0.036557786 -0.076341256 0.011161119
-0.035544999 -0.076475605 0.011283189
-0.034156695 -0.07578516 0.011706114
-0.033477861 -0.076675102 0.011709541
-0.032080565 -0.075924002 0.011919737
-0.031412687 -0.076906919 0.011878729
-0.030376628 -0.077026449 0.011649013
-0.028892249 -0.07597591 0.011347502
-0.028278369 -0.077221699 0.01093626
-0.027115526 -0.077008091 0.01057893
-0.026000233 -0.076917358 0.010067433
-0.024934214 -0.076970831 0.009667933
-0.023734659 -0.076598212 0.0093922615
-0.022443449 -0.075880229 0.0089467466
-0.021584839 -0.076626174 0.0089841187
-0.020704001 -0.077367581 0.0090854466
-0.019505311 -0.076937616 0.009041965
-0.018928405 -0.079053923 0.0096751451
-0.017247554 -0.076536015 0.010021836
-0.01598211 -0.075648658 0.011173368
-0.015230434 -0.077240057 0.012382865
-0.013687353 -0.074754 0.014572978
-0.012616712 -0.074648872 0.015588522
-0.011772095 -0.075983524 0.016825497
-0.010567543 -0.075029559 0.017104626
-0.0095140366 -0.075055175 0.01717332
-0.0083589153 -0.074185371 0.017104626
-0.0073576639 -0.074627735 0.016997993
-0.0063684084 -0.075359493 0.017011344
-0.0052789687 -0.074961357 0.015590757
-0.0042708372 -0.075807363 0.014412969
-0.0032042766 -0.075834543 0.013601333
-0.0021348959 -0.075788803 0.012200713
-0.0010782043 -0.076552495 0.011294782
0 -0.077337056 0.010404855
0.0010854687 -0.077068277 0.010396779
0.0021878481 -0.0776686 0.010175526
0.0032370558 -0.076610319 0.010137051
0.0042869267 -0.076092944 0.010303676
0.005399934 -0.076679066 0.010909498
0.0065214862 -0.077170916 0.011695534
0.0074854037 -0.075923376 0.012695432
0.0085039372 -0.075472437 0.013056785
0.0096091125 -0.075805217 0.01360026
0.010625761 -0.075442903 0.013901561
0.0115516 -0.074560329 0.014470965
0.012645517 -0.074819304 0.014582276
0.013699054 -0.074817911 0.014599144
0.014770942 -0.074909776 0.014567226
0.016028009 -0.075865909 0.014470011
0.017028708 -0.075564891 0.014794677
0.018555179 -0.077495158 0.014252901
0.019393031 -0.076494731 0.014222115
0.020383812 -0.076171085 0.013660967
0.02142893 -0.0760727 0.013387561
0.022364125 -0.075612038 0.013292342
0.023515724 -0.075891651 0.013614088
0.024561979 -0.075821757 0.013775736
0.025794545 -0.076308861 0.013815373
0.026793435 -0.076093353 0.013896883
0.027589832 -0.075341463 0.013811946
0.028685218 -0.075431488 0.013459474
0.029895311 -0.07580597 0.013434559
0.030985469 -0.07586097 0.013738006
0.032042846 -0.075834729 0.013164163
0.033561371 -0.076866366 0.013038665
0.034618273 -0.076809287 0.01212126
0.035689157 -0.076785758 0.011728972
0.037648093 -0.078618072 0.011041969
0.037474468 -0.07601963 0.010417372
0.038508952 -0.075948209 0.0091307163
0.040098686 -0.076946124 0.0080512166
0.040371314 -0.075430609 0.007614702
0.04255921 -0.077479586 0.006485492
0.042739119 -0.075861938 0.0051916838
-0.056572042 -0.076154672 0.0055125654
-0.056291401 -0.077262707 0.0058410466
-0.054584321 -0.07641805 0.0061685741
-0.054011025 -0.077158608 0.00619784
-0.051999327 -0.075832352 0.0074257851
-0.050498627 -0.07521072 0.0082909763
-0.049561489 -0.075419649 0.0086458623
-0.048443548 -0.075356625 0.0090127885
-0.047776394 -0.076007895 0.0090830326
-0.046695039 -0.076015182 0.0090212524
-0.045507822 -0.075846367 0.0091667175
-0.044236906 -0.075526424 0.0096432269
-0.043744668 -0.076553173 0.0097368658
-0.042675171 -0.076596454 0.009997189
-0.041792806 -0.076986745 0.010698199
-0.039954122 -0.075588875 0.010537028
-0.038686819 -0.07522437 0.01063168
-0.037496652 -0.074993305 0.010744154
-0.036054373 -0.074229591 0.011691421
-0.035394147 -0.075078495 0.011709541
-0.034449033 -0.075357258 0.01197657
-0.033300865 -0.075195499 0.011848122
-0.032103188 -0.074907437 0.01184243
-0.031604994 -0.076287918 0.011831701
-0.02996004 -0.074900098 0.011764288
-0.029202279 -0.075709611 0.011190206
-0.028189108 -0.075893752 0.010778964
-0.027137564 -0.075985178 0.01057893
-0.026175354 -0.076344781 0.010056913
-0.024841396 -0.075604245 0.0095881224
-0.02396776 -0.076261051 0.0092983842
-0.022688568 -0.075628556 0.0088518858
-0.021368479 -0.074789681 0.0090018213
-0.020804027 -0.07664641 0.0091071427
-0.019694004 -0.076587796 0.009210676
-0.018941581 -0.077994741 0.009676069
-0.017619817 -0.077086695 0.010353267
-0.016176201 -0.07548894 0.011586189
-0.014726826 -0.073634125 0.013100296
-0.013632324 -0.073404819 0.014765233
-0.01275466 -0.074402183 0.016460001
-0.011571064 -0.073634043 0.017041773
-0.010549241 -0.073844686 0.017742723
-0.0095391786 -0.074193612 0.017757177
-0.0083913114 -0.073423974 0.017615676
-0.0074171382 -0.074171379 0.017041773
-0.0063541941 -0.074132264 0.017158568
-0.005254799 -0.073567189 0.016460001
-0.0043178275 -0.075561985 0.015247643
-0.0031787986 -0.074171968 0.01361838
-0.0021420547 -0.074971914 0.012163728
-0.0010847314 -0.075931199 0.01101017
0 -0.074850902 0.010349035
0.0010856924 -0.07599847 0.010368824
0.0022037986 -0.077132948 0.0096867979
0.0032274481 -0.075307123 0.0096209645
0.0043183086 -0.075570397 0.010232866
0.005422662 -0.075917266 0.010548472
0.0064417562 -0.07515382 0.011414498
0.0075243344 -0.075243339 0.01255706
0.0086041326 -0.075286157 0.01303339
0.0095813321 -0.074521475 0.013388664
0.010700553 -0.074903868 0.013831049
0.011691926 -0.074403167 0.014329374
0.012710714 -0.074145831 0.014320463
0.013815722 -0.074392349 0.014175951
0.014917593 -0.074587964 0.013873726
0.016243726 -0.075804047 0.013831437
0.01715889 -0.075070143 0.01393491
0.018140743 -0.074697174 0.013679981
0.019404545 -0.075462118 0.013079047
0.020476863 -0.07544107 0.013139606
0.02118011 -0.074130386 0.01312539
0.022649519 -0.075498395 0.012959421
0.023571927 -0.075001583 0.013345003
0.024430383 -0.074353337 0.013350964
0.025654435 -0.074825436 0.013214827
0.02678836 -0.075007401 0.013376296
0.0274956 -0.074026614 0.013347268
0.028768621 -0.074585311 0.013172537
0.029978495 -0.07494624 0.013144433
0.030979533 -0.074778177 0.013453692
0.031819262 -0.074244946 0.013018519
0.032972258 -0.074453481 0.013023198
0.034337901 -0.075114161 0.012007415
0.035779383 -0.07589566 0.011237204
0.036070652 -0.074263111 0.010749966
0.038095661 -0.076191321 0.010203481
0.039029274 -0.075890258 0.0088704526
0.039323371 -0.074395567 0.0075350404
0.04082701 -0.075207651 0.0065540671
0.042670503 -0.076588087 0.0051504672
-0.054738201 -0.075538717 0.0051588416
-0.053647626 -0.075544618 0.0052176416
-0.052275874 -0.075146571 0.0065816641
-0.051223796 -0.075200893 0.0075532496
-0.049359657 -0.074039482 0.0078741908
-0.048162729 -0.073849514 0.0080156922
-0.048056524 -0.075361371 0.0081481636
-0.046339378 -0.07435853 0.0084659755
-0.0453787 -0.074550718 0.0087737441
-0.044414703 -0.074746691 0.0089102387
-0.043858618 -0.075656116 0.0096432269
-0.043171205 -0.076379821 0.009997189
-0.041262385 -0.074923798 0.010736406
-0.040212169 -0.074990258 0.010902137
-0.038948648 -0.074651577 0.010806113
-0.037250433 -0.073436566 0.011659116
-0.036484789 -0.074042663 0.011894017
-0.035347711 -0.073908851 0.012068778
-0.033905663 -0.073109083 0.01227814
-0.033266537 -0.074044868 0.01197657
-0.032566089 -0.074902005 0.011844099
-0.031133322 -0.074075833 0.011659116
-0.030209281 -0.074444301 0.011348397
-0.029246915 -0.074742116 0.011127055
-0.028244603 -0.074956834 0.010715812
-0.027085992 -0.074757338 0.010380387
-0.025927225 -0.074540772 0.0098976493
-0.024893232 -0.074679695 0.0091577172
-0.023588438 -0.073981918 0.0089871883
-0.022563273 -0.074136466 0.0087789297
-0.021436283 -0.073955178 0.0088834167
-0.020802518 -0.075545982 0.0090586245
-0.019361926 -0.074220724 0.009210676
-0.018746456 -0.076088555 0.0097797513
-0.017474487 -0.075358734 0.010529786
-0.016195625 -0.074499875 0.012381434
-0.014950778 -0.073685981 0.014475554
-0.013953488 -0.07406082 0.015447766
-0.012646157 -0.072715402 0.016627461
-0.011696853 -0.073371172 0.017420083
-0.010667219 -0.073603809 0.018217504
-0.0093864081 -0.071962461 0.018231958
-0.0084645385 -0.073006645 0.018102527
-0.0073765279 -0.07271149 0.017748982
-0.006307126 -0.072531946 0.017262369
-0.0052879578 -0.072973818 0.016516209
-0.0042862413 -0.073937654 0.015309006
-0.0032057359 -0.073731929 0.01370731
-0.0021736028 -0.074989296 0.011965692
-0.0010815236 -0.074625127 0.010919422
0 -0.074285373 0.010270596
0.0010965456 -0.075661644 0.0096678734
0.0021595424 -0.074504212 0.009203285
0.0032866723 -0.075593464 0.0087781847
0.0043513733 -0.075061187 0.0096678734
0.0053615603 -0.073989533 0.010583043
0.0065154885 -0.07492812 0.010751784
0.0075443294 -0.074365534 0.012217164
0.0085433582 -0.073686466 0.012732863
0.0096632261 -0.074084736 0.01299575
0.010739302 -0.074101187 0.01378575
0.011704782 -0.073420905 0.014258355
0.012795351 -0.073573269 0.014131993
0.013778602 -0.073132575 0.013738096
0.014615325 -0.072032675 0.013716131
0.016282992 -0.074901767 0.013874888
0.017198777 -0.074169725 0.013839751
0.01818002 -0.073789492 0.013323545
0.019400826 -0.074369833 0.013117373
0.020378279 -0.074005328 0.013038725
0.021635536 -0.074642599 0.01287818
0.022992989 -0.075548396 0.012995809
0.023448518 -0.073543079 0.01328361
0.024691779 -0.074075334 0.013181686
0.025750155 -0.074031696 0.013073266
0.026970543 -0.074438691 0.013120383
0.027853271 -0.073918298 0.0131419
0.028579967 -0.073037691 0.012992144
0.029806444 -0.073451594 0.012870908
0.03111594 -0.074034475 0.013293892
0.032100476 -0.073831089 0.012740523
0.033309255 -0.074139953 0.012673736
0.034563147 -0.074526787 0.01143986
0.035476174 -0.074177459 0.011065304
0.036645621 -0.074369058 0.010159999
0.038266659 -0.07543999 0.0091307163
0.039015442 -0.0747796 0.0081067383
0.039844632 -0.074304849 0.0064413846
0.04101913 -0.074482106 0.0053323507
-0.051138174 -0.073987141 0.0057854056
-0.050586127 -0.074779488 0.0060705543
-0.049029436 -0.074088924 0.006587863
-0.047363676 -0.073198408 0.0068504214
-0.046561509 -0.073632151 0.0076731443
-0.04579417 -0.07414294 0.0078299046
-0.044410925 -0.07365714 0.0085844994
-0.044106413 -0.074980907 0.0092671514
-0.042941626 -0.074872583 0.0098550618
-0.041434057 -0.074145153 0.010600686
-0.040381595 -0.074214824 0.010692507
-0.038578868 -0.072871201 0.011575907
-0.037383202 -0.072630227 0.011753082
-0.03668724 -0.07337448 0.012057126
-0.035603538 -0.073364869 0.012172818
-0.034305129 -0.072898403 0.012122691
-0.033493973 -0.073470652 0.011888623
-0.032093968 -0.072746329 0.011454582
-0.031127078 -0.072987631 0.011515319
-0.030589528 -0.074288853 0.011125237
-0.029087365 -0.073257066 0.010707885
-0.028125284 -0.073558435 0.010344148
-0.027055217 -0.073590189 0.0099293888
-0.025723387 -0.072882928 0.0096410811
-0.024949107 -0.073762581 0.0089402497
-0.023756688 -0.073429763 0.0088494718
-0.022645755 -0.073329113 0.0086222589
-0.021779003 -0.074048616 0.0088906586
-0.020520223 -0.073440798 0.0091071427
-0.019635884 -0.074180014 0.0096333325
-0.018989077 -0.075956307 0.0099445581
-0.017003138 -0.072263338 0.011166215
-0.015914906 -0.072147578 0.012643754
-0.014951103 -0.072619647 0.014555871
-0.013710907 -0.071718588 0.015518427
-0.012814369 -0.072614759 0.016951412
-0.011745343 -0.072607577 0.017322034
-0.010431274 -0.070932664 0.018036872
-0.0094968649 -0.07175409 0.01810658
-0.0084108422 -0.071492158 0.018065482
-0.0073753879 -0.071646623 0.017686337
-0.0063450914 -0.071911037 0.017283618
-0.0052712234 -0.071688637 0.016786247
-0.0042784065 -0.072732911 0.015496075
-0.0032243817 -0.073085986 0.01417166
-0.0021653699 -0.073622584 0.011952162
-0.0010791481 -0.07338208 0.010510832
0 -0.074244805 0.010099441
0.0010870229 -0.07391756 0.0087312758
0.0021592383 -0.07341411 0.0086016059
0.0032920071 -0.074618831 0.0084643364
0.00431856 -0.073415525 0.0085831881
0.0054662754 -0.074341349 0.009052217
0.0065391157 -0.074109979 0.010131538
0.0074717347 -0.072582565 0.010898381
0.0085127736 -0.072358578 0.011942953
0.0096710306 -0.073070012 0.012237996
0.010754584 -0.073131181 0.013038367
0.011727496 -0.072497249 0.013558745
0.012821579 -0.072655618 0.013356358
0.013804636 -0.072208866 0.013323635
0.01505708 -0.073134392 0.013405859
0.016062684 -0.072817497 0.013629824
0.016951241 -0.072042771 0.013532132
0.017985407 -0.071941629 0.013097197
0.019298622 -0.072905906 0.013027579
0.020350229 -0.072832398 0.012666643
0.02146079 -0.072966687 0.012585312
0.022692401 -0.073480152 0.012615889
0.023731599 -0.073352218 0.012668997
0.024624718 -0.072803512 0.012757659
0.025913492 -0.07342156 0.012784958
0.027019218 -0.073492266 0.012707442
0.02803638 -0.073325917 0.012631744
0.029022586 -0.073093921 0.012756437
0.029968234 -0.072779998 0.012484521
0.031010577 -0.072714455 0.012740821
0.032131739 -0.072831936 0.012277722
0.032929115 -0.072231606 0.011894882
0.033722159 -0.071659587 0.011229843
0.035993047 -0.07416749 0.010416776
0.036980528 -0.073961057 0.0096812248
0.037200835 -0.072275907 0.0086105764
0.039863605 -0.075297929 0.0075376332
0.040891044 -0.075151108 0.0057922006
-0.050757799 -0.073929839 0.005094707
-0.048683509 -0.072484337 0.0054545403
-0.048324641 -0.073585257 0.0061505437
-0.046966124 -0.073179781 0.0069097877
-0.045438416 -0.072485097 0.0072312057
-0.045172263 -0.073818088 0.008318603
-0.04380355 -0.073370948 0.0086041391
-0.042767648 -0.073472627 0.010016024
-0.041009501 -0.072306231 0.010902137
-0.039454054 -0.071443826 0.010859966
-0.038706709 -0.072037488 0.011637598
-0.037429884 -0.071651496 0.011899948
-0.03678165 -0.072481483 0.01227814
-0.035370793 -0.071813434 0.012172818
-0.034752686 -0.072763436 0.012087315
-0.033093117 -0.07152383 0.011550784
-0.032364357 -0.0722804 0.011013329
-0.031202408 -0.072088324 0.010718435
-0.030376915 -0.072687618 0.010660291
-0.028980978 -0.071915761 0.010247797
-0.0283053 -0.072940581 0.010098368
-0.02667312 -0.071483962 0.0094708502
-0.025960105 -0.072471961 0.0092383027
-0.024937214 -0.072643191 0.0088520348
-0.023894552 -0.072769776 0.0085894167
-0.022953926 -0.073233955 0.0086101592
-0.021713438 -0.072740018 0.0088906586
-0.020451011 -0.072116725 0.0091148019
-0.01961581 -0.073014408 0.0096764863
-0.018685313 -0.07364212 0.010084391
-0.017337959 -0.072602704 0.011395812
-0.016077379 -0.071812294 0.013229251
-0.014826808 -0.070956871 0.014575332
-0.013828265 -0.07126876 0.01553455
-0.012835491 -0.071664833 0.016963661
-0.011632451 -0.070852205 0.017252326
-0.01057563 -0.07085672 0.017970532
-0.0094926432 -0.070667453 0.01810658
-0.0084532527 -0.070795998 0.018051028
-0.0073796762 -0.070634045 0.017734528
-0.0063202749 -0.070576407 0.017128915
-0.0052619604 -0.070510276 0.016825497
-0.0042638048 -0.071418732 0.015903175
-0.0032262458 -0.072052822 0.014263213
-0.0021696261 -0.07268247 0.012065083
-0.0010866872 -0.072808042 0.010229528
0 -0.072316691 0.0093721747
0.0011017215 -0.073815346 0.0082561672
0.0021838183 -0.073157914 0.0082257092
0.0032610646 -0.072830446 0.0081098676
0.0043518422 -0.072893359 0.0079922974
0.0054865582 -0.073519886 0.0082086623
0.0064205737 -0.071696408 0.0089462996
0.0075623472 -0.072382472 0.010295838
0.0085840868 -0.071891733 0.011013895
0.0095408009 -0.071025968 0.011848837
0.01091771 -0.07314866 0.012334079
0.011764705 -0.071657754 0.012838542
0.012848476 -0.071737327 0.013097197
0.013884526 -0.071558714 0.013003856
0.014757811 -0.070626669 0.013117373
0.016112536 -0.07196933 0.013232201
0.017304309 -0.072461791 0.013015568
0.018149054 -0.071528621 0.012615532
0.019377898 -0.072128847 0.012396663
0.020586833 -0.072595678 0.012132674
0.021286977 -0.071311377 0.011783749
0.022859337 -0.072932169 0.011779636
0.023828497 -0.07256861 0.011982024
0.024342025 -0.070909373 0.012437969
0.025902474 -0.072311074 0.012499362
0.026769157 -0.071741343 0.012316108
0.027882434 -0.071850896 0.012293667
0.028950192 -0.07183937 0.012402177
0.02998719 -0.071755067 0.011856943
0.030899726 -0.071389019 0.011980593
0.032277994 -0.072087519 0.011464804
0.033208366 -0.071772918 0.011329353
0.034280747 -0.071775317 0.010710239
0.036251012 -0.073600538 0.0097381473
0.036459718 -0.071847089 0.0088671446
0.0377004 -0.072169341 0.0076438785
0.039907869 -0.074272983 0.0063916743
-0.048107114 -0.072160676 0.0055235922
-0.046658199 -0.071614914 0.0061073005
-0.045662701 -0.07175567 0.0068374276
-0.045448031 -0.073160239 0.0082088411
-0.044522792 -0.073462613 0.0088636279
-0.04259561 -0.072084881 0.010031968
-0.040891659 -0.071022347 0.011006743
-0.039565206 -0.070575766 0.010973573
-0.039145086 -0.071765989 0.011659116
-0.037778471 -0.071239404 0.011956692
-0.036700625 -0.071242385 0.01212889
-0.035677873 -0.071355745 0.012014955
-0.034488373 -0.071132265 0.012040287
-0.033621535 -0.071581326 0.011579514
-0.032618567 -0.071760848 0.011146396
-0.031021796 -0.070601329 0.011029512
-0.030508462 -0.071912803 0.010572165
-0.029313564 -0.071655378 0.010107458
-0.027917085 -0.070866451 0.0095941126
-0.026916554 -0.071059704 0.0093224645
-0.025797607 -0.070943415 0.0091109872
-0.024904445 -0.071464926 0.00873366
-0.023912121 -0.071736358 0.0086195469
-0.022790331 -0.071626753 0.0085894167
-0.021588802 -0.071243048 0.0088032782
-0.020522065 -0.071287178 0.0091663301
-0.019590192 -0.071830705 0.0099141002
-0.018402651 -0.071445584 0.010118425
-0.017201647 -0.070956789 0.01127556
-0.016013533 -0.070459537 0.013097763
-0.01485721 -0.070041135 0.014616162
-0.013811967 -0.070122294 0.016044021
-0.012593882 -0.069266349 0.01698485
-0.011642446 -0.069854669 0.017242402
-0.010651477 -0.070299745 0.017805189
-0.0094558811 -0.069343135 0.017991424
-0.0084937243 -0.070073217 0.018053263
-0.0074285576 -0.070040688 0.017686337
-0.0063834675 -0.070218146 0.017095357
-0.005308304 -0.070069611 0.0168145
-0.0042178836 -0.069595076 0.01567924
-0.0032185267 -0.070807591 0.014580816
-0.0021674954 -0.071527347 0.012094736
-0.0010867057 -0.071722575 0.010287434
0 -0.071730733 0.008482486
0.0010938649 -0.072195083 0.0079620779
0.0021826562 -0.072027653 0.0077523589
0.0033019092 -0.072641999 0.007863313
0.0043906607 -0.072445899 0.0076804161
0.0053828992 -0.071054272 0.0079975128
0.0063964613 -0.07036107 0.0086824298
0.007570459 -0.071378611 0.0095086396
0.0086847618 -0.071649283 0.010605425
0.009661044 -0.07084766 0.011856437
0.010889044 -0.071867697 0.012347847
0.011722492 -0.070334956 0.012830764
0.01296913 -0.071330212 0.012821198
0.013992541 -0.071039051 0.012924731
0.014920344 -0.070338763 0.013224155
0.015938682 -0.070130199 0.013446927
0.016950605 -0.06992124 0.01331839
0.01846805 -0.071699485 0.012933344
0.019340282 -0.070914373 0.012483329
0.020419303 -0.070930205 0.012085676
0.02143858 -0.070747316 0.011779636
0.022821875 -0.07172589 0.011848181
0.023473341 -0.070420027 0.011752218
0.024867143 -0.071357884 0.011869699
0.026071467 -0.071696535 0.012210041
0.026982609 -0.071234085 0.011594057
0.02783123 -0.070648506 0.011291772
0.029059103 -0.071033359 0.011696935
0.030253023 -0.071310692 0.01153931
0.031265434 -0.071155809 0.011487246
0.032460175 -0.071412385 0.010809869
0.033151053 -0.070579663 0.01060757
0.034240793 -0.070621632 0.0096317828
0.035594765 -0.07118953 0.0087833703
0.036920767 -0.07166972 0.0079544187
0.03787078 -0.071413472 0.0068347156
0.039270211 -0.071995392 0.0051249862
-0.048131339 -0.071103118 0.0050655603
-0.047199033 -0.071347371 0.0055586696
-0.046641197 -0.072182804 0.0061505437
-0.045375135 -0.071936183 0.00722754
-0.04441819 -0.072179563 0.0085940957
-0.042371787 -0.070619643 0.010130644
-0.040295281 -0.068926141 0.010873288
-0.039600808 -0.069568984 0.010865152
-0.038295131 -0.069143988 0.011505544
-0.038125023 -0.070803612 0.011780828
-0.036700882 -0.070163451 0.012040317
-0.03534954 -0.069627881 0.012140214
-0.034169883 -0.069407575 0.012024194
-0.033214424 -0.069643147 0.011553138
-0.032123718 -0.069601387 0.011204332
-0.031105485 -0.069719188 0.010627002
-0.030510485 -0.070827916 0.010329396
-0.028788507 -0.069305666 0.0096490383
-0.0280734 -0.070183501 0.0094437599
-0.027182553 -0.070674635 0.0092718303
-0.025813626 -0.069911905 0.0090790093
-0.024957189 -0.070531182 0.0085372031
-0.023762969 -0.070208773 0.0084244609
-0.022745121 -0.070401564 0.0084691346
-0.021772919 -0.070761986 0.0088453293
-0.020701574 -0.070821173 0.0091800988
-0.019676995 -0.071055815 0.0095191002
-0.018492781 -0.070707686 0.01018548
-0.016967939 -0.06893225 0.011505395
-0.015862029 -0.068735458 0.013097763
-0.015021444 -0.069742419 0.014572978
-0.013671231 -0.068356156 0.015520096
-0.0127043 -0.068814956 0.016610026
-0.011770179 -0.069551066 0.017024845
-0.010603977 -0.068925858 0.017161548
-0.0095549617 -0.06900806 0.017232209
-0.0084605226 -0.068741746 0.017615676
-0.0073658051 -0.068396762 0.017160833
-0.0063405172 -0.068688937 0.017025143
-0.0052758167 -0.068585619 0.016764522
-0.0042619342 -0.069256432 0.015972763
-0.0032176436 -0.069715612 0.014498562
-0.0021270725 -0.069129862 0.012215853
-0.0010763657 -0.069963768 0.010361969
0 -0.072111718 0.0081205368
0.0010887639 -0.07076966 0.0077699721
0.0022030266 -0.071598366 0.0074290335
0.0033252535 -0.072047159 0.0074986815
0.0043705045 -0.0710207 0.0075581372
0.0054193493 -0.070451543 0.0074628592
0.0065477756 -0.070934236 0.0081733465
0.0074631115 -0.069300324 0.0089576542
0.0086848531 -0.070564434 0.0093081892
0.0097434176 -0.070369132 0.010663003
0.010809751 -0.070263386 0.012154758
0.011823124 -0.069863915 0.012429565
0.01291149 -0.069937237 0.012557864
0.01392695 -0.06963475 0.012420267
0.014938918 -0.069359265 0.012752414
0.015793463 -0.068438344 0.012995809
0.017146913 -0.069659337 0.012838542
0.018294459 -0.069949403 0.012597024
0.019258151 -0.069543324 0.012494653
0.020342898 -0.069594122 0.011832714
0.021734446 -0.07063695 0.011586875
0.022233924 -0.068819284 0.011558443
0.023785446 -0.07027518 0.011552721
0.024975156 -0.070581958 0.01155436
0.025800649 -0.06987676 0.011615694
0.026655423 -0.069304094 0.011042863
0.027875073 -0.069687687 0.010763019
0.028929574 -0.069645271 0.011101931
0.030130534 -0.069945879 0.011065304
0.031039329 -0.069570906 0.010949165
0.032123718 -0.069601387 0.010070652
0.033753924 -0.070774354 0.0098384321
0.034058522 -0.069181375 0.0092998743
0.03549999 -0.06992422 0.008145988
0.037726581 -0.07212434 0.0070620775
0.037377886 -0.069416076 0.0053725839
-0.045856941 -0.069877245 0.0052857697
-0.045304369 -0.070719011 0.0062690675
-0.04388183 -0.070210926 0.0080811381
-0.042381272 -0.069548756 0.0093968809
-0.040518276 -0.068241306 0.010215104
-0.039423235 -0.068191536 0.01061362
-0.038590744 -0.068605766 0.010823488
-0.037608713 -0.068770222 0.011295646
-0.036574446 -0.068846017 0.011637598
-0.035347495 -0.068552718 0.01168409
-0.034484781 -0.068969563 0.011521578
-0.032935217 -0.067995287 0.01100418
-0.03218491 -0.068661146 0.010548323
-0.031485129 -0.06948442 0.010356605
-0.030069999 -0.068731427 0.0099320114
-0.028940894 -0.068600632 0.0094009042
-0.028145317 -0.069280781 0.0092456639
-0.026967837 -0.069037661 0.0089402497
-0.026168492 -0.069782645 0.0088085532
-0.024828704 -0.069088563 0.0082263649
-0.02382122 -0.069298096 0.0081865489
-0.022930814 -0.06988439 0.0084079802
-0.021799497 -0.069758393 0.0089111328
-0.020853676 -0.070243962 0.009126246
-0.019772412 -0.070301913 0.0093857348
-0.018252548 -0.068715475 0.010162264
-0.016925504 -0.067702018 0.011597961
-0.015917893 -0.067916341 0.013371944
-0.014894236 -0.068087935 0.014682233
-0.01368755 -0.067384861 0.015131116
-0.012688345 -0.067671172 0.016463488
-0.011511963 -0.066978693 0.017134994
-0.010653285 -0.068181023 0.017111182
-0.0094785355 -0.067402922 0.017331928
-0.0085317502 -0.068254001 0.017120689
-0.0074479235 -0.068095297 0.017305881
-0.0063195284 -0.067408308 0.01711905
-0.005298058 -0.067815147 0.016692698
-0.0042857649 -0.068572238 0.016321689
-0.003176461 -0.067764506 0.015147924
-0.0021399504 -0.068478413 0.01250729
-0.0011009327 -0.070459694 0.010224938
0 -0.069908865 0.0077824891
0.0010986447 -0.07031326 0.0077397525
0.0022107563 -0.070744202 0.0074330866
0.0032687602 -0.069733553 0.0074159503
0.00434838 -0.06957408 0.0072236359
0.0055021537 -0.070427567 0.0071367323
0.0065322872 -0.069677733 0.0076811016
0.007591201 -0.069405265 0.008441031
0.0086328825 -0.06906306 0.0089685023
0.0098805167 -0.070261456 0.0095593631
0.011052354 -0.070735075 0.010269165
0.011970772 -0.069648132 0.01202029
0.013046555 -0.069581628 0.012179673
0.013971534 -0.068782933 0.012036264
0.014841163 -0.067845315 0.012183994
0.015956702 -0.068081923 0.012229353
0.017187333 -0.068749331 0.01231128
0.018205507 -0.068538375 0.012169033
0.019464923 -0.069208615 0.012147069
0.020429723 -0.068815909 0.011682838
0.021512043 -0.068838544 0.011469871
0.022659332 -0.06905701 0.011597604
0.023790797 -0.069209598 0.011148572
0.024590896 -0.06842684 0.01130861
0.025742952 -0.068647876 0.011123896
0.027128592 -0.069449194 0.010337621
0.027804749 -0.068442456 0.010172546
0.029018752 -0.068785191 0.01016289
0.030024588 -0.068627633 0.010125101
0.030807637 -0.067989267 0.010125101
0.032707307 -0.069775589 0.0096610785
0.033662893 -0.069497585 0.0091393888
0.03471335 -0.0694267 0.0081511736
0.035719804 -0.069274768 0.0073273182
0.036639724 -0.068968892 0.0056917369
-0.045267675 -0.069557644 0.0055060089
-0.042651877 -0.067176707 0.0069844723
-0.041780226 -0.067491136 0.0079640448
-0.040716134 -0.067503065 0.0094789267
-0.03958929 -0.067408785 0.010389894
-0.038754601 -0.067820556 0.010518074
-0.037457239 -0.067423038 0.010823488
-0.036298722 -0.067259394 0.011167377
-0.035452224 -0.067681521 0.011244565
-0.03399463 -0.066926926 0.011142105
-0.03336307 -0.06780237 0.010517091
-0.032572132 -0.068401478 0.010308206
-0.031084334 -0.067528032 0.010019034
-0.030157298 -0.06785392 0.0095672607
-0.028943934 -0.067535847 0.0094266236
-0.027785776 -0.067327075 0.0090649128
-0.027015815 -0.068079852 0.0084728301
-0.02605593 -0.068396822 0.0083934367
-0.024810623 -0.067959532 0.0078325272
-0.023871433 -0.068359107 0.0078217983
-0.023025569 -0.069076702 0.0083250403
-0.021904172 -0.068998143 0.0085443258
-0.020605663 -0.068324037 0.0088227391
-0.019705318 -0.068968616 0.0092459023
-0.018556293 -0.068767436 0.010048091
-0.017228642 -0.067837782 0.011650592
-0.015918629 -0.066858247 0.013344139
-0.014944661 -0.067250982 0.01461494
-0.013996504 -0.067829214 0.015220165
-0.012699755 -0.066673718 0.016449034
-0.011701205 -0.067015991 0.01707086
-0.01061044 -0.066845775 0.017284274
-0.0095277289 -0.066694103 0.017284036
-0.0085427603 -0.067274235 0.017163545
-0.0073694438 -0.066324994 0.01737541
-0.0063722045 -0.066908151 0.017231494
-0.005315166 -0.066971093 0.016555697
-0.0042486358 -0.066916019 0.016321689
-0.0031677526 -0.066522807 0.015868843
-0.0021423451 -0.067483865 0.012669683
-0.00108612 -0.068425566 0.010361969
0 -0.069025338 0.0076702535
0.0011208142 -0.070611298 0.0071974397
0.0021928197 -0.069073819 0.0069906414
0.0032553896 -0.068363182 0.006765455
0.0043874066 -0.069101654 0.0064515471
0.0054232762 -0.068333283 0.0060208142
0.0065351771 -0.068619363 0.0071733892
0.0076679145 -0.069011234 0.007724613
0.0086694658 -0.068272047 0.0086292028
0.0098133441 -0.068693414 0.0094493032
0.010924761 -0.068826005 0.0099488199
0.011958185 -0.068487786 0.010701567
0.013006808 -0.068285748 0.011648446
0.013947199 -0.067590274 0.011691242
0.014881453 -0.066966541 0.011711389
0.016070314 -0.067495316 0.011808366
0.016984047 -0.066874683 0.011904716
