ply
format ascii 1.0
comment PCL generated
element vertex 1282
property float x
property float y
property float z
element camera 0
property float view_px
property float view_py
property float view_pz
property float x_axisx
property float x_axisy
property float x_axisz
property float y_axisx
property float y_axisy
property float y_axisz
property float z_axisx
property float z_axisy
property float z_axisz
property float focal
property float scalex
property float scaley
property float centerx
property float centery
property int viewportx
property int viewporty
property float k1
property float k2
end_header
-0.059739314 0.0021723385 0.0066775978
-0.058088679 0.0021514324 0.0060685277
-0.057880666 0.0021841761 0.0053756535
0.044506263 0.002171037 0.0054548681
0.044632617 0.0021253626 0.0062302351
0.046272457 0.0021522073 0.0078292191
0.047935873 0.0021789034 0.0084938407
0.047921196 0.0021298307 0.0093206763
0.049373608 0.0021466787 0.0092234313
0.04976362 0.0021176008 0.0091753304
0.051002245 0.0021250935 0.0088354349
0.052078892 0.002125669 0.0075443387
0.053104363 0.0021241745 0.0067339242
-0.071503393 0.0033001564 0.0051313937
-0.069066927 0.0032375122 0.0061428547
-0.068537734 0.0032637015 0.007062763
-0.067314915 0.0032571731 0.0078425407
-0.065765038 0.0032343462 0.0079262555
-0.06470722 0.0032353608 0.0080051422
-0.063708857 0.0032394335 0.0078598559
-0.06279847 0.0032481966 0.0077894628
-0.061465647 0.0032350339 0.0073339343
-0.060154594 0.0032225675 0.0072390735
-0.058811475 0.0032078985 0.006644845
-0.058701228 0.0032611792 0.0058495998
-0.057754833 0.0032691415 0.0055259466
0.030817626 0.0033018885 0.0061349273
0.031300627 0.0032379958 0.0064636469
0.032355778 0.0032355778 0.0067186654
0.033458125 0.0032378829 0.0066043437
0.034067761 0.0031938525 0.0064973533
0.035744935 0.0032495395 0.0065235198
0.03692168 0.0032577955 0.00615713
0.038294986 0.0032824276 0.0059091151
0.039323617 0.0032769681 0.0059275627
0.040319189 0.0032691231 0.0056700706
0.040951788 0.003233036 0.0056352913
0.042563803 0.0032741388 0.0055037737
0.043557145 0.003266786 0.0061141253
0.044052955 0.0032233868 0.0081000924
0.044973213 0.0032123723 0.0083402395
0.04534892 0.0031638779 0.0087716579
0.047588449 0.0032446671 0.0095184445
0.047966808 0.0031977871 0.010318011
0.049069129 0.0032001603 0.010208905
0.049947854 0.0031881609 0.010171831
0.051225215 0.0032015759 0.010039538
0.051369321 0.0031450605 0.0095117092
0.053642023 0.0032185214 0.0092428923
0.055086542 0.0032403849 0.0066790283
0.05579045 0.0032186799 0.006334275
-0.070410229 0.0044006393 0.0056310296
-0.067857057 0.0043083844 0.0063759387
-0.066181563 0.0042697783 0.0073529184
-0.066554144 0.004364206 0.0078286231
-0.064506851 0.004300457 0.007881403
-0.062913872 0.004265347 0.0078031719
-0.063220598 0.0043600411 0.0077194571
-0.061385188 0.0043077329 0.0073694587
-0.060356189 0.0043111565 0.0072892308
-0.059537783 0.0043300204 0.006644845
-0.057975601 0.004294489 0.0056912005
-0.057888143 0.0043689166 0.0055653453
-0.057380173 0.0044138599 0.0050089061
0.028384903 0.0043669082 0.0062582195
0.029847907 0.0044219121 0.0067831278
0.030065903 0.0042951289 0.0071277618
0.03127702 0.0043140715 0.0081985593
0.032637805 0.0043517072 0.0085591972
0.033304751 0.0042973869 0.0086798072
0.034420997 0.0043026246 0.0085119307
0.035238825 0.0042713732 0.0084162652
0.036518082 0.0042962451 0.0078808665
0.038058177 0.004349506 0.00788638
0.038887713 0.0043208571 0.0076178908
0.040158819 0.0043414938 0.0074832439
0.040902466 0.0043055229 0.0078973174
0.042513181 0.0043603261 0.0077740252
0.043427579 0.0043427581 0.0079958737
0.044422541 0.0043339063 0.0088396966
0.044977337 0.0042835558 0.0092588365
0.045684215 0.0042496943 0.0094792843
0.047395419 0.0043086745 0.0099998713
0.047723107 0.0042420537 0.010581791
0.049480453 0.0043026479 0.010902405
0.050453387 0.0042939051 0.010988861
0.050733019 0.0042277514 0.010456085
0.052076969 0.0042511811 0.010167688
0.052700069 0.0042160051 0.009973526
0.054573309 0.0042802594 0.009131223
0.056267157 0.004328243 0.0066527128
0.057016779 0.0043031531 0.0063115656
-0.069383375 0.0054205758 0.0051670671
-0.067589581 0.0053642523 0.0057178438
-0.067928001 0.0054780645 0.0062632263
-0.066078022 0.0054162312 0.0070639253
-0.064052857 0.0053377375 0.0076231062
-0.064122126 0.0054340782 0.0077194571
-0.062609911 0.0053974059 0.0075589418
-0.061338771 0.0053805937 0.0072960258
-0.060969945 0.0054437448 0.0071816742
-0.058904931 0.0053549935 0.006370753
-0.058469951 0.0054138843 0.0056128502
-0.057604637 0.0054343995 0.005535543
-0.056715198 0.0054533845 0.0053613484
-0.045946404 0.0054698098 0.005201757
0.02500011 0.0054348065 0.0053200126
0.026296511 0.0054784399 0.005895406
0.026924025 0.0053848047 0.0065718889
0.028581843 0.0054965084 0.0080794096
0.028827095 0.0053383508 0.0087484419
0.030112745 0.0053772759 0.0089049935
0.031256747 0.0053890934 0.0092875957
0.032155354 0.0053592259 0.010006607
0.03330005 0.0053709755 0.010367155
0.034702037 0.0054221931 0.010289729
0.034951098 0.0052956208 0.010057062
0.036624473 0.0053859516 0.0097285211
0.037865788 0.0054093981 0.0097500384
0.037964087 0.0052727899 0.0095506907
0.039793797 0.0053775394 0.0092410147
0.041385695 0.0054454859 0.0092210174
0.041783068 0.0053568035 0.009190172
0.044246607 0.0055308258 0.0091992915
0.044055752 0.0053726523 0.0098358393
0.044871666 0.0053418647 0.0098358393
0.046543162 0.0054119956 0.010189325
0.047687434 0.0054190266 0.010791302
0.047923539 0.0053248373 0.011187941
0.049476292 0.0053778575 0.011468142
0.050229996 0.0053436165 0.011512995
0.051190723 0.005332367 0.011420578
0.052398756 0.0053468118 0.010566294
0.051996805 0.0051996801 0.010310352
0.054664332 0.0053592483 0.0097571313
0.056796942 0.0054612444 0.0080421567
0.056111824 0.0052935681 0.0067086518
0.059781611 0.0055353339 0.0064281523
-0.069332682 0.0066031124 0.0055168569
-0.067436382 0.0065261009 0.0059718788
-0.065895647 0.006481539 0.0061716437
-0.064618677 0.0064618676 0.0065033138
-0.063447379 0.0064522759 0.0070349872
-0.062201846 0.0064346734 0.0068306327
-0.062220909 0.0065495693 0.0066590607
-0.060295012 0.0064601796 0.0066964626
-0.059205249 0.0064587542 0.0063205659
-0.058565855 0.0065073171 0.005545646
-0.056869123 0.0064380141 0.00532341
-0.056952216 0.0065714098 0.0052989423
-0.056534737 0.0066511454 0.0050573945
-0.050942946 0.0066447319 0.0054966509
-0.049685892 0.0066247853 0.0053576529
-0.046944514 0.0064015249 0.0057220161
-0.046257455 0.0064545288 0.0065634847
-0.045511905 0.0065017007 0.0067300797
-0.044118907 0.0064564254 0.0068669021
-0.043626305 0.006543946 0.0068941414
-0.041587587 0.0063980902 0.0065560639
-0.040212613 0.0063493601 0.0060630739
-0.040315814 0.0065376996 0.0051686764
-0.039532371 0.0065887286 0.0052333176
-0.037890006 0.0064954297 0.0050544143
-0.037879042 0.0066845366 0.0051121116
0.019524509 0.0065081697 0.0052582026
0.020774608 0.0065604025 0.0055346489
0.02196156 0.0065884683 0.0058884621
0.022568274 0.006448078 0.0059027374
0.023970591 0.0065374337 0.0060750246
0.025045453 0.0065335962 0.0068425834
0.025939217 0.0064848042 0.0070521832
0.027096525 0.0065031657 0.0083368421
0.028082585 0.0064805965 0.0089049935
0.028740702 0.0063868226 0.010049701
0.03035013 0.0065035992 0.010551393
0.030834207 0.0063794907 0.010888278
0.032002866 0.0064005735 0.011004984
0.033102941 0.0064070201 0.011179298
0.033922937 0.0063605504 0.011861086
0.035757985 0.0065014516 0.011853904
0.036323726 0.0064100688 0.011592001
0.036873881 0.006321237 0.010918587
0.038421862 0.0064036436 0.011122048
0.039722804 0.0064415354 0.010914356
0.040708497 0.0064276573 0.010855258
0.042401686 0.0065233363 0.010549843
0.043364231 0.0065046349 0.010515451
0.043798123 0.0064094812 0.010668814
0.045308169 0.0064725955 0.010368735
0.045850821 0.0063977889 0.010661095
0.046019223 0.0062753484 0.011078387
0.048489004 0.0064651999 0.011762202
0.048822645 0.006368171 0.01162985
0.050470203 0.0064430046 0.011674702
0.051592875 0.0064491094 0.011772871
0.052088588 0.0063781943 0.010818332
0.053410705 0.0064092842 0.010578245
0.053752568 0.0063238316 0.010056019
0.055150751 0.0063635479 0.0089708865
0.057682775 0.0065301256 0.0077280998
0.058311366 0.0064790403 0.0067232847
-0.069113672 0.0076792971 0.0050134957
-0.066283226 0.0074835895 0.0055706799
-0.066455528 0.0076260441 0.0055099428
-0.065176822 0.0076039624 0.0058835745
-0.063199319 0.0074982243 0.0060488582
-0.063168719 0.0076238108 0.0060304105
-0.061523486 0.007555516 0.0060064495
-0.061181854 0.0076477318 0.0063690841
-0.059863947 0.0076190475 0.0060293674
-0.058279678 0.0075547728 0.005320251
-0.058052044 0.0076672514 0.0052858591
-0.056968808 0.007668878 0.0052858591
-0.055983473 0.0076840059 0.0050865114
-0.054685023 0.0076559032 0.0052315891
-0.053984225 0.0077120322 0.0053657293
-0.052567068 0.0076660309 0.005443424
-0.051663432 0.007694554 0.0057835877
-0.050339106 0.0076602986 0.0062114894
-0.048176263 0.0074940845 0.0062158108
-0.047566578 0.0075674099 0.0068941414
-0.046206072 0.007521919 0.0079019666
-0.044532191 0.0074220314 0.0084988177
-0.044604506 0.0076154028 0.0091179609
-0.04287475 0.0075030811 0.0090295374
-0.041768134 0.0074968445 0.0081050098
-0.040884446 0.0075313449 0.0077750087
-0.039611142 0.0074939993 0.0070324242
-0.038951498 0.0075739026 0.0068398118
-0.03809892 0.0076197842 0.0066481531
-0.036561847 0.0075274389 0.0060275495
-0.035832733 0.0076008826 0.0052322149
0.017447766 0.0076333978 0.0055203736
0.018517707 0.0076249382 0.0061642528
0.019778056 0.0076914667 0.0062666833
0.020654589 0.0076095853 0.006786108
0.021855939 0.0076495791 0.0068647861
0.022908727 0.0076362425 0.0070514679
0.023843732 0.0075866422 0.0073362589
0.024533469 0.0074667078 0.0086437762
0.026050631 0.0075981007 0.008923322
0.027014805 0.0075641451 0.0094658136
0.028016595 0.0075429296 0.010453522
0.029015457 0.0075225253 0.010986149
0.029788654 0.0074471636 0.011451215
0.030531425 0.0073696538 0.012334824
0.032185789 0.0075100171 0.012519628
0.033050727 0.0074630668 0.012660742
0.034226887 0.0074871317 0.012660384
0.034729939 0.0073669571 0.01283887
0.035651002 0.007339912 0.012859285
0.037008438 0.0074016876 0.012469679
0.03809898 0.0074081351 0.012207657
0.039231539 0.0074221827 0.011727184
0.040743761 0.0075054294 0.011607349
0.042224865 0.0075788219 0.011014998
0.042750992 0.0074814237 0.011438817
0.044758674 0.0076417243 0.010914356
0.044542372 0.0074237287 0.010661364
0.045747325 0.007447239 0.010813802
0.047761228 0.0075983773 0.011373192
0.047546487 0.0073961201 0.011687458
0.049414124 0.0075195404 0.011596233
0.050456796 0.0075148419 0.011584312
0.050675564 0.0073901867 0.011698782
0.05313025 0.0075900359 0.011111319
0.053145409 0.007440357 0.010522306
0.053235348 0.0073068123 0.010110795
0.055871621 0.0075211795 0.0095665455
0.057369757 0.0075771376 0.0084166527
0.058697291 0.0076089078 0.0070386231
0.059548367 0.0075788829 0.0055404902
-0.067396998 0.0086963866 0.0055767596
-0.066375285 0.0087049557 0.005291611
-0.063759446 0.0085012596 0.0055630505
-0.064434722 0.0087369122 0.0059117079
-0.062416974 0.0086092371 0.0059438944
-0.061090637 0.0085741244 0.005877912
-0.061354853 0.0087649785 0.0059496164
-0.059442654 0.0086462041 0.0055898726
-0.058446642 0.0086587612 0.0054088831
-0.058673974 0.0088564493 0.0053525269
-0.056186557 0.0086440854 0.0053570867
-0.055231437 0.0086637549 0.0052858591
-0.054857928 0.0087772682 0.0053195357
-0.053424299 0.0087223351 0.0060054064
-0.051931269 0.0086552119 0.0063061118
-0.050875627 0.0086596813 0.0071449578
-0.048771068 0.0084819244 0.0073486567
-0.048836492 0.0086820424 0.0077940822
-0.046895131 0.0085263876 0.0089541674
-0.045763452 0.0085141305 0.010664433
-0.045041963 0.0085794218 0.011043638
-0.04428168 0.0086403275 0.011192858
-0.042746581 0.0085493168 0.011134118
-0.042258397 0.0086683892 0.010401279
-0.041140847 0.008661231 0.010002166
-0.039977655 0.0086438172 0.009601593
-0.038807608 0.0086239139 0.0091837049
-0.037493479 0.0085699381 0.0078910887
-0.036936034 0.0086908313 0.0076047778
-0.03625612 0.0087893624 0.0071911514
-0.034161121 0.0085402802 0.0054764152
-0.034079853 0.0087948004 0.0050983429
0.013090518 0.0087270122 0.005377084
0.013885624 0.0085449992 0.0055895746
0.015059965 0.0086056944 0.0060338974
0.016309667 0.0086984886 0.0062586367
0.017126298 0.0085631488 0.0067940056
0.018501308 0.008706498 0.0074467063
0.019421952 0.0086319791 0.0076709688
0.020515939 0.0086382907 0.0085249841
0.021880491 0.0087521961 0.0082567036
0.022747848 0.0086658467 0.0086927712
0.02351586 0.0085512223 0.0089450479
0.024778698 0.008618678 0.0098341405
0.025523636 0.0085078785 0.009962827
0.026767123 0.008565479 0.010802418
0.027948858 0.0085996483 0.011167556
0.028634738 0.0084843663 0.012458146
0.029932003 0.0085520009 0.013037771
0.030836815 0.0085067078 0.013037771
0.031699162 0.0084531093 0.013301522
0.033007734 0.0085181249 0.013896406
0.034046385 0.0085115964 0.014243245
0.034958895 0.0084748836 0.014017761
0.036337093 0.0085499035 0.014128715
0.036643241 0.0083755972 0.013848275
0.038057864 0.008457303 0.013755769
0.039584596 0.0085588312 0.012827456
0.040555064 0.0085379081 0.012361139
0.041129645 0.0084368503 0.012043625
0.043210033 0.0086420067 0.012125462
0.043585468 0.0085044811 0.011872828
0.044955384 0.0085629299 0.011237949
0.04609447 0.0085757151 0.011505842
0.046233885 0.0084061604 0.01163429
0.048261274 0.0085797813 0.012021184
0.049358904 0.0085841576 0.011584312
0.050241034 0.0085516656 0.012021184
0.051515792 0.0085859653 0.012031525
0.052549608 0.008579528 0.010958076
0.053139932 0.0085023893 0.010569125
0.054398712 0.0085331313 0.01024285
0.055079993 0.0084738452 0.0095386207
0.056140337 0.0084740138 0.0087495446
0.059334025 0.0087902257 0.0069522262
0.059695106 0.0086829243 0.0055404902
-0.065691322 0.0098536983 0.005266577
-0.063833609 0.0097373296 0.0056396127
-0.062718153 0.0097321272 0.0059578121
-0.06176858 0.0097529339 0.0058077276
-0.060320511 0.0096943676 0.0057599247
-0.059775032 0.0097813681 0.0053491294
-0.059285261 0.0098808762 0.0053336322
-0.057399355 0.00974706 0.0052497387
-0.056655146 0.0098056979 0.0059746802
-0.055731248 0.0098349256 0.0059746802
-0.05454959 0.0098189255 0.0065176785
-0.053036075 0.0097413203 0.0070455372
-0.051635113 0.0096815834 0.0075836778
-0.050278243 0.0096277483 0.0089541674
-0.04917524 0.0096212421 0.0099116564
-0.048182413 0.0096364813 0.010664433
-0.046364769 0.0094837025 0.011159629
-0.045979977 0.0096237157 0.011691481
-0.044805337 0.0096011432 0.011970162
-0.043351945 0.0095162801 0.011992186
-0.043253861 0.0097321188 0.011926174
-0.041416164 0.0095575759 0.011566132
-0.040313095 0.0095478371 0.011196524
-0.039472461 0.0096014086 0.010711849
-0.038493004 0.0096232509 0.01004228
-0.03760628 0.0096701859 0.0098338723
-0.037049737 0.0098072831 0.0096775591
-0.035388105 0.0096513014 0.0088967979
-0.034841843 0.0097992681 0.0084286034
-0.033380929 0.0096912365 0.0075927079
-0.032102343 0.0096307024 0.0062592626
-0.032002438 0.0099317897 0.0054329932
0.0088257575 0.0099289771 0.0052137375
0.0097847423 0.0097847423 0.0060602427
0.01086215 0.0097759357 0.0060099065
0.012060193 0.0098674307 0.0061042905
0.012954553 0.0097159138 0.0062790215
0.01402746 0.0097113177 0.0065003037
0.015405451 0.0099035036 0.0070130527
0.015961573 0.0095769428 0.0084008276
0.017398274 0.0097865276 0.0086486042
0.018226987 0.0096495803 0.0090331137
0.019305823 0.0096529117 0.009721756
0.02086425 0.0098830657 0.0096806288
0.021550557 0.0096977502 0.0096277595
0.022682725 0.0097211674 0.0099584162
0.023604335 0.0096563185 0.010499984
0.024468036 0.0095744487 0.010815442
0.025899075 0.0097121522 0.011011392
0.027124673 0.0097648818 0.01193285
0.027678499 0.0095810182 0.012771368
0.028533051 0.0095110163 0.013439268
0.030058127 0.0096615404 0.013869405
0.030672969 0.009519197 0.014110833
0.031790495 0.0095371483 0.014539063
0.033017296 0.0095856655 0.015319467
0.033704303 0.0094793346 0.015420169
0.034766592 0.0094817979 0.015452325
0.036312461 0.0096121216 0.015421242
0.036532909 0.0093941763 0.015313655
0.037974983 0.0094937459 0.015169203
0.039140061 0.009520554 0.014111519
0.039879546 0.009445155 0.013645858
0.041477688 0.0095717739 0.012991488
0.042712793 0.0096103782 0.012726903
0.043516047 0.0095523018 0.012317717
0.044889364 0.0096191484 0.011768639
0.046198905 0.0096695377 0.011748046
0.047281932 0.0096713044 0.011866391
0.048065189 0.0096130371 0.012151629
0.049122311 0.0096108858 0.011584312
0.050389215 0.0096489983 0.012011617
0.050670572 0.0095007317 0.011673421
0.052371938 0.0096193347 0.011071354
0.052825633 0.0095086135 0.010569125
0.054275591 0.0095780445 0.010109663
0.055526633 0.0096103782 0.0097091794
0.05718796 0.0097111631 0.0087495446
0.058799181 0.0097998623 0.0068624318
0.059761748 0.0097791944 0.0052443743
-0.06300801 0.010679323 0.005515486
-0.063274331 0.010909367 0.0058805645
-0.061369408 0.010766562 0.0057455301
-0.06055364 0.01081315 0.0057983994
-0.059950907 0.010900164 0.0055898726
-0.059223086 0.010967238 0.0061922371
-0.057911646 0.010926726 0.0063551664
-0.057032179 0.010967727 0.0066383481
-0.05554913 0.010891985 0.0066623688
-0.05362701 0.010725401 0.0070729256
-0.053184174 0.010853913 0.0078113973
-0.051867403 0.010805709 0.0099115968
-0.050241157 0.010689607 0.01073578
-0.049108289 0.010675714 0.011521429
-0.047721643 0.010604809 0.011811048
-0.047127195 0.010710726 0.012079626
-0.04568018 0.010623298 0.012511104
-0.044161066 0.01051454 0.012581646
-0.043794431 0.010681568 0.012491643
-0.04213528 0.01053382 0.012286663
-0.04130489 0.010590998 0.012333989
-0.040688902 0.010707605 0.012124091
-0.039245557 0.010606906 0.011569798
-0.038300592 0.010639054 0.011352599
-0.038114153 0.010889758 0.010902435
-0.036954626 0.010869008 0.010613143
-0.035386018 0.010723036 0.010325134
-0.034375079 0.010742212 0.0098724365
-0.033380847 0.010768014 0.0094256997
-0.03275694 0.01091898 0.0087985098
-0.031147202 0.010740413 0.00757128
-0.030238533 0.010799476 0.0065658391
-0.029910723 0.011078045 0.0063252151
-0.028562527 0.010985587 0.0062682927
-0.026920782 0.010768313 0.0061940551
-0.026077164 0.010865485 0.0058245063
-0.024983075 0.010862206 0.0052162111
-0.023731483 0.010787038 0.0052243173
-0.018755995 0.011032937 0.00509727
-0.017704217 0.011065135 0.0050246418
-0.010857849 0.010857849 0.0050594807
-0.009874111 0.010971235 0.0050412118
-0.0086146109 0.010768263 0.0050674975
-0.0076985504 0.010997929 0.0050174594
0.0054923669 0.010984734 0.0056735575
0.0064490885 0.01074848 0.005903244
0.0076251696 0.010893099 0.0056978762
0.0087262606 0.010907825 0.0057370663
0.0097150542 0.010794505 0.0059821904
0.010859068 0.010859068 0.0061758459
0.011857728 0.010779752 0.0066201091
0.012936237 0.010780198 0.007394433
0.014158894 0.010891457 0.0083874464
0.015004542 0.010717529 0.0088319182
0.016068444 0.010712296 0.0094818771
0.017061029 0.010663143 0.0098857582
0.018133761 0.010666918 0.010222077
0.019745314 0.01096962 0.010702699
0.02050207 0.010790563 0.0108217
0.021517623 0.010758812 0.011225045
0.022839895 0.01087614 0.011556238
0.02353197 0.01069635 0.011492342
0.024528176 0.010664424 0.011686504
0.025631763 0.010679902 0.012696743
0.026574006 0.010629602 0.012960881
0.027702171 0.010654681 0.013501912
0.028978016 0.010732598 0.014223486
0.030010382 0.010717993 0.014480501
0.030658819 0.010572006 0.015259951
0.03219163 0.010730543 0.015403569
0.032542463 0.010497568 0.015800714
0.033914257 0.010598204 0.015894085
0.034670316 0.010506156 0.016221762
0.035608195 0.010472998 0.016301244
0.037110981 0.010603137 0.016213655
0.03790937 0.010530381 0.015591413
0.038729019 0.010467302 0.015271991
0.040525179 0.01066452 0.014923692
0.041226812 0.010570977 0.013923436
0.042132854 0.010533214 0.013382882
0.043896366 0.01070643 0.012632281
0.044996217 0.010713384 0.012107462
0.045831334 0.010658449 0.011959225
0.047609743 0.010820396 0.011752337
0.047953345 0.010656297 0.012074351
0.049364571 0.010731428 0.011566162
0.05073341 0.010794342 0.011505812
0.051216666 0.010670139 0.011005372
0.052917346 0.010799458 0.010713816
0.053623989 0.010724797 0.010243326
0.053658739 0.010521322 0.0094762743
0.056368943 0.010840181 0.0087290108
0.056102108 0.010585303 0.0079541206
0.057833444 0.010709896 0.0065349936
0.058642287 0.010662233 0.0050024688
-0.063315749 0.012008159 0.0052203238
-0.061513368 0.011871001 0.0055738091
-0.061242729 0.012029822 0.0057526827
-0.059771027 0.011954205 0.0058070719
-0.05850818 0.011918332 0.0066194534
-0.058285814 0.012097056 0.0068482459
-0.055874985 0.011819708 0.0070352256
-0.054691374 0.011796178 0.0072697997
-0.054080192 0.011897642 0.008210808
-0.052644152 0.011818076 0.0094505847
-0.052163258 0.01195408 0.010666609
-0.050468367 0.011811745 0.011588633
-0.048793137 0.011667924 0.011894286
-0.04792298 0.011714505 0.012381136
-0.046892215 0.011723054 0.012522101
-0.045489594 0.011636873 0.012651056
-0.044871092 0.011751952 0.013089448
-0.043983016 0.011800321 0.013113558
-0.042474613 0.011680518 0.012851328
-0.041839276 0.011800821 0.012733489
-0.040695485 0.011780271 0.012339145
-0.039431635 0.011722919 0.0121108
-0.038540684 0.011776321 0.011789739
-0.037641998 0.011830342 0.011713028
-0.036506191 0.011810826 0.011888683
-0.035550095 0.011850032 0.010910243
-0.034120083 0.011728778 0.010678589
-0.033691395 0.011955011 0.010337919
-0.032371879 0.011869689 0.010280579
-0.030847222 0.011700669 0.0098724365
-0.030657077 0.012043851 0.0090329051
-0.029687103 0.012094744 0.008767426
-0.027893297 0.01180101 0.008571595
-0.027115215 0.011930694 0.0084286034
-0.026247768 0.012030226 0.0071073472
-0.025261361 0.012081521 0.0062893033
-0.024067344 0.012033672 0.0063448846
-0.022610873 0.01184379 0.0063145757
-0.021796249 0.011987937 0.0062773526
-0.02065921 0.011960594 0.0060983002
-0.019717719 0.012049718 0.0063178837
-0.018527007 0.011988063 0.0064463913
-0.017526681 0.012049593 0.0064264238
-0.016025364 0.011751933 0.0065279901
-0.015353213 0.012063239 0.0065618455
-0.014156383 0.011978478 0.0065435767
-0.012936851 0.01185878 0.0066201687
-0.012098231 0.012098231 0.0067079365
-0.010821187 0.011903306 0.0065684319
-0.009641476 0.011784027 0.0066281557
-0.0087802904 0.012072898 0.0072415173
-0.0074958354 0.01177917 0.0072415173
-0.0064285537 0.011785682 0.0073536932
-0.0054328875 0.011952353 0.0074586272
-0.0043578907 0.011984199 0.0072854757
-0.0032335646 0.011856403 0.0071450472
-0.0021834157 0.012008785 0.0072854757
-0.0010830628 0.011913691 0.007317245
0 0.012084698 0.0073034167
0.0010815999 0.011897598 0.0071165264
0.0021422121 0.011782166 0.0070617795
0.0032730605 0.012001222 0.0068293214
0.0043591098 0.011987551 0.0066206753
0.0054319734 0.011950342 0.0067678392
0.006601152 0.012102112 0.0067690611
0.0076387478 0.012003746 0.0066626668
0.0087017994 0.011964974 0.007317245
0.0097747454 0.011946912 0.0072568357
0.010713944 0.011785339 0.0079342425
0.011777194 0.011777194 0.0085669756
0.012977794 0.01189631 0.0091570318
0.013974231 0.011824349 0.0096743405
0.014983092 0.01177243 0.010219753
0.01610942 0.011813574 0.010702968
0.017084274 0.011745438 0.011186808
0.018414164 0.011915047 0.011562347
0.019563178 0.011955276 0.011920273
0.020187238 0.011687348 0.011914939
0.021366458 0.011751552 0.012361348
0.022578917 0.011827052 0.012863845
0.023388505 0.011694252 0.012920022
0.024858277 0.011888742 0.013032764
0.025370164 0.011627992 0.013119251
0.026313728 0.011578039 0.013714641
0.027792087 0.011758191 0.014321089
0.028981047 0.011807092 0.01456365
0.029623656 0.011637865 0.01521638
0.030928319 0.011731431 0.015664458
0.031485677 0.011544747 0.01590246
0.032429192 0.011507133 0.016507417
0.03370595 0.01158642 0.016469479
0.034393422 0.011464475 0.01659134
0.036047772 0.011662515 0.016560227
0.036453996 0.01145697 0.01665327
0.037965909 0.011600694 0.016474545
0.039362025 0.011702223 0.016106099
0.039816964 0.011525963 0.015635073
0.040696524 0.011478507 0.015303373
0.042959813 0.011813949 0.013842076
0.043592706 0.011695604 0.012927592
0.044799801 0.011733281 0.012436181
0.046412103 0.011872863 0.01222536
0.046953529 0.011738382 0.011748046
0.047887549 0.011705845 0.012092501
0.049450509 0.011825121 0.01152131
0.050832555 0.011896981 0.011088729
0.05132084 0.011761026 0.010725021
0.052415885 0.011766831 0.010000855
0.053469319 0.01176325 0.0097312927
0.054885644 0.01183808 0.0091906488
0.055334371 0.011705348 0.0082495511
0.056450769 0.011716198 0.0077838302
0.058208089 0.011857202 0.0063341558
-0.062771268 0.013215004 0.0051696301
-0.061549392 0.013189156 0.0055495501
-0.060135439 0.013120459 0.0058070719
-0.05953148 0.013229216 0.0068106651
-0.057119265 0.012932664 0.0070227683
-0.055622749 0.012836019 0.0074856281
-0.054878682 0.012912631 0.0078800917
-0.053138956 0.012753349 0.0089935064
-0.051949743 0.012722386 0.010266453
-0.051468249 0.012867062 0.011110246
-0.050507467 0.012895524 0.012045115
-0.049845301 0.013003121 0.012322038
-0.04813762 0.012836698 0.012387753
-0.046603661 0.01271009 0.012445062
-0.046046603 0.012850215 0.01277262
-0.044618409 0.012748117 0.013024181
-0.043654241 0.01277685 0.013180226
-0.042917948 0.012875385 0.012894869
-0.041720375 0.012837038 0.012882859
-0.040021639 0.012638412 0.012465298
-0.039792605 0.012905709 0.012174219
-0.038312849 0.012770951 0.011981696
-0.037407681 0.012825491 0.011839837
-0.036544882 0.012898194 0.011839837
-0.035256911 0.012820695 0.01173681
-0.034438428 0.012914411 0.011569411
-0.03316154 0.012836724 0.011295617
-0.031931967 0.012772785 0.010778278
-0.031306889 0.012954574 0.010782748
-0.03060041 0.013114462 0.010787845
-0.028964199 0.012872976 0.010571897
-0.027960878 0.01290502 0.010309935
-0.027277514 0.013093206 0.010071188
-0.026053153 0.013026576 0.0098504722
-0.025042631 0.01306572 0.0090195537
-0.023647903 0.012898856 0.0091584921
-0.022477604 0.012844345 0.0089158714
-0.021577982 0.012946789 0.0089741349
-0.020499259 0.0129469 0.0090044439
-0.019582599 0.013055067 0.0089776218
-0.018532928 0.013082067 0.0091888011
-0.017061614 0.012796209 0.0090560913
-0.016174041 0.012939233 0.0080551505
-0.015197763 0.013026654 0.0080551505
-0.013875033 0.012807722 0.0080415308
-0.013025111 0.013025111 0.0081053376
-0.011896981 0.012978525 0.0080640316
-0.010745468 0.012894561 0.0089057386
-0.0097713023 0.013028403 0.0089057386
-0.008668026 0.013002039 0.009254992
-0.0075754928 0.012986559 0.0094261467
-0.0064953715 0.012990743 0.0090209246
-0.0053380346 0.012811284 0.0087857544
-0.0042902944 0.012870883 0.008926928
-0.0032658777 0.013063511 0.0090921819
-0.0021362074 0.012817244 0.0094397366
-0.0010787796 0.012945354 0.0094388127
0 0.012908095 0.0096682906
0.0010716487 0.012859784 0.0087984204
0.0021577827 0.012946696 0.0081745684
0.0032090147 0.012836059 0.0077493191
0.0042656725 0.012797017 0.0076331198
0.0053715538 0.012891729 0.0078246593
0.0065184073 0.013036815 0.0080709755
0.0075784791 0.012991678 0.008351773
0.0086953249 0.013042987 0.0086090565
0.0096374936 0.012849992 0.0088115036
0.010744249 0.012893099 0.0091502964
0.011844036 0.012920767 0.0097985566
0.012778747 0.012778747 0.010757595
0.01379901 0.012737547 0.011024445
0.015077525 0.012923593 0.01114136
0.016036091 0.012828873 0.011443794
0.017146384 0.012859789 0.011782736
0.01820581 0.01285116 0.012409806
0.019071883 0.012714589 0.012645245
0.020523552 0.012962243 0.012662798
0.02152076 0.012912457 0.012893885
0.022414975 0.012808557 0.013090134
0.023682714 0.012917844 0.013027817
0.024480032 0.01277219 0.013344884
0.02538587 0.012692935 0.01391539
0.026611431 0.012773486 0.014256299
0.027303049 0.012601407 0.014343351
0.028870612 0.012831383 0.015047908
0.030076073 0.012889746 0.015365303
0.030760398 0.01272844 0.015956283
0.031481605 0.012592642 0.016363114
0.032892164 0.01273245 0.016621888
0.033452753 0.012544782 0.016853064
0.034677617 0.012610042 0.017164558
0.035654958 0.012584102 0.017125279
0.036364269 0.012467749 0.017183691
0.037749041 0.012583015 0.016976923
0.038874194 0.012607845 0.016589969
0.039841797 0.01258162 0.016475499
0.041043762 0.01262885 0.016016722
0.041940335 0.012582101 0.014923692
0.043445427 0.012715734 0.013644129
0.045267601 0.0129336 0.012641549
0.046064846 0.012855305 0.012452424
0.046355754 0.012642479 0.011777103
0.049584854 0.013222627 0.011699289
0.049079347 0.012803308 0.011294723
0.050003901 0.012766953 0.010702908
0.051323015 0.012830754 0.010190427
0.052756041 0.012919847 0.0095472038
0.053728618 0.012894868 0.0092086792
0.05431442 0.012779863 0.008231014
0.055908751 0.01290202 0.007769227
0.057199322 0.01295079 0.0073773265
0.058585603 0.013019022 0.0057622492
-0.061135709 0.014192219 0.0058321953
-0.061170205 0.014458411 0.0066382587
-0.058714826 0.014135051 0.0071639121
-0.056785073 0.013928415 0.0073536932
-0.055954743 0.013988686 0.0079655647
-0.054436661 0.013876012 0.0087112188
-0.053458408 0.013899186 0.0095870793
-0.052843869 0.014019802 0.010803342
-0.05107509 0.013832837 0.011626482
-0.050916072 0.014083169 0.012044609
-0.04980804 0.014076185 0.012231141
-0.047744196 0.013792767 0.012432784
-0.047229115 0.013954056 0.012442768
-0.04591798 0.013882181 0.012753725
-0.044378221 0.013736116 0.013194025
-0.044003833 0.013952434 0.01341626
-0.042817604 0.013915722 0.013068318
-0.041492417 0.013830805 0.013184756
-0.040486556 0.013850663 0.012816578
-0.03933372 0.013819955 0.012656122
-0.038469404 0.01389173 0.012529612
-0.037360162 0.013876632 0.012111604
-0.036166288 0.013828286 0.012174219
-0.035536788 0.01399934 0.012504041
-0.034317173 0.013941352 0.012297928
-0.033234313 0.013936969 0.01216498
-0.032414455 0.014046264 0.011897922
-0.031149341 0.013963497 0.011612356
-0.029832019 0.01385058 0.011647493
-0.029029261 0.013977051 0.011567593
-0.027833791 0.013916896 0.01156503
-0.026834413 0.013953894 0.01137808
-0.026217569 0.014201183 0.01137808
-0.024503317 0.013849701 0.011160165
-0.02335288 0.013799429 0.011406124
-0.022491192 0.013923119 0.0115273
-0.021520304 0.013988198 0.011183172
-0.020348459 0.01392263 0.011693984
-0.01940464 0.014014462 0.01158905
-0.018297549 0.013992243 0.010613143
-0.017311657 0.01406572 0.010162234
-0.016250432 0.014083707 0.010201782
-0.015003018 0.013931374 0.010201782
-0.014004605 0.014004605 0.010036021
-0.012913717 0.01398986 0.010128438
-0.011814968 0.013963143 0.010185599
-0.010730008 0.013949011 0.010223866
-0.009644419 0.013930827 0.010107994
-0.0085640103 0.013916517 0.0096919537
-0.0075731957 0.014064507 0.010242641
-0.0063906633 0.013846437 0.010328233
-0.0053354856 0.013872263 0.010417193
-0.0043060477 0.013994655 0.010626614
-0.0031879223 0.01381433 0.010626614
-0.0021444506 0.013938929 0.010730803
-0.0010660801 0.013859041 0.010851979
0 0.013786196 0.011231333
0.0010722963 0.013939852 0.010933697
0.0021446946 0.013940514 0.010587901
0.0032158946 0.013935543 0.010500222
0.0043282299 0.014066747 0.0099088848
0.0054503549 0.014170923 0.010239482
0.006454281 0.013984276 0.010241956
0.0075889784 0.014093816 0.01019159
0.0086439522 0.014046422 0.010149032
0.0097327027 0.01405835 0.0099321008
0.010774482 0.014006828 0.010228664
0.011782131 0.013924337 0.010819137
0.012748512 0.013810888 0.011179894
0.013907207 0.013907207 0.011391193
0.01478132 0.013725512 0.011731386
0.015864016 0.013748813 0.012213439
0.016930697 0.013756192 0.012629837
0.018092599 0.013835517 0.013037533
0.019322447 0.013955102 0.013181031
0.020323014 0.01390522 0.013271987
0.021345006 0.013874254 0.013547152
0.022441346 0.013892262 0.013789594
0.023513529 0.013894359 0.01391539
0.024423551 0.013804615 0.014109522
0.025585379 0.013858748 0.014307737
0.026557662 0.013809983 0.01470381
0.027844861 0.013922431 0.015226662
0.028561365 0.013751768 0.01537016
0.029323043 0.01361427 0.01555264
0.030516516 0.013679817 0.016523957
0.032013353 0.013872453 0.016664654
0.032544915 0.013647866 0.017054647
0.03394004 0.013788141 0.017347783
0.034831263 0.013721406 0.017451078
0.03586898 0.01371461 0.017441273
0.037353788 0.013874264 0.01754275
0.038071707 0.013748117 0.017179787
0.038462531 0.013513862 0.017109782
0.040502694 0.013856184 0.016647965
0.040971987 0.01365733 0.016294301
0.041522309 0.01349475 0.015315652
0.04369561 0.013854706 0.01391843
0.044925537 0.013905522 0.012880862
0.045761649 0.013834917 0.012481034
0.047407698 0.01400682 0.012011856
0.047866836 0.013828196 0.011542737
0.049459908 0.0139778 0.010926902
0.050890472 0.014076088 0.010427356
0.051005386 0.013813959 0.0099560022
0.053027645 0.014068559 0.0093049705
0.054175016 0.014085504 0.0087295175
0.054094426 0.013788775 0.0078875124
0.056328721 0.01408218 0.0077981353
0.057066854 0.013997531 0.0074289143
0.058082115 0.013982731 0.0058090985
-0.059229352 0.015076562 0.0063690841
-0.058308851 0.015117109 0.0072828829
-0.057228621 0.015116994 0.0075581074
-0.056047518 0.015089716 0.0083616972
-0.054151598 0.014865144 0.0090178847
-0.053266518 0.014914624 0.010038406
-0.052015532 0.014861581 0.011027813
-0.051474534 0.015013406 0.011770785
-0.050519291 0.0150483 0.0121288
-0.048784647 0.014847501 0.012236476
-0.048435114 0.015068701 0.01248154
-0.047680937 0.015171207 0.012491524
-0.045942817 0.014958126 0.0129309
-0.04495997 0.014986656 0.013352841
-0.043925602 0.014998985 0.013420135
-0.042375028 0.01483126 0.013347745
-0.041550454 0.014915547 0.013297498
-0.04015813 0.014795099 0.01302135
-0.039458409 0.014930209 0.012992233
-0.03878082 0.015081431 0.012783229
-0.037323043 0.014929217 0.012640059
-0.036303647 0.01494856 0.012622654
-0.035487719 0.015055396 0.012665689
-0.033884715 0.014824564 0.012679219
-0.03317314 0.014981418 0.012310624
-0.032234903 0.015042955 0.012155086
-0.030866476 0.014901057 0.012135804
-0.03011377 0.015056885 0.012256563
-0.028974293 0.015023707 0.012256563
-0.027382435 0.014744388 0.012155086
-0.027000936 0.015120523 0.01224646
-0.02562557 0.01494825 0.012316495
-0.024502659 0.014914662 0.011969686
-0.023587855 0.015010454 0.012142986
-0.022295054 0.014863369 0.012171566
-0.021276262 0.014893384 0.012028426
-0.020330558 0.01498041 0.012028426
-0.019092901 0.014850034 0.012027711
-0.018212175 0.014998262 0.012102783
-0.017041313 0.014911148 0.012419254
-0.016113874 0.015039615 0.012527287
-0.015062291 0.015062291 0.012186408
-0.014063601 0.015145417 0.011961609
-0.012828572 0.014966668 0.012053996
-0.012014324 0.015290958 0.01183632
-0.010696816 0.014975543 0.011615992
-0.009624416 0.014971314 0.011517465
-0.0086334758 0.015108583 0.011270553
-0.0075341729 0.015068346 0.011365741
-0.0063948776 0.014921381 0.011199623
-0.0053639794 0.015019143 0.011573941
-0.0042535244 0.014887336 0.011473268
-0.0031825348 0.014851829 0.011839241
-0.0021406137 0.014984296 0.011839241
-0.0010594089 0.014831725 0.012048632
0 0.01507065 0.012350917
0.0010680621 0.01495287 0.011889189
0.0021230637 0.014861446 0.01189208
0.0032207421 0.01503013 0.011451811
0.0043195784 0.015118524 0.011239827
0.0053481366 0.014974783 0.011239827
0.0065067476 0.015182411 0.011215657
0.0076032658 0.015206532 0.011118114
0.0085009011 0.014876577 0.011075556
0.0097642336 0.015188809 0.011125207
0.010698035 0.014977249 0.01110521
0.01178583 0.015000149 0.011258662
0.013030308 0.015202027 0.011758894
0.013837944 0.014902401 0.012263864
0.01471613 0.01471613 0.012445033
0.016097432 0.01502427 0.012748033
0.0169283 0.014812262 0.01309815
0.018150073 0.014947119 0.013519764
0.019313153 0.015021341 0.013600558
0.019922303 0.014679592 0.013419539
0.02144059 0.015008413 0.014074326
0.022357672 0.014905115 0.014160573
0.023249183 0.014794935 0.014203757
0.024711151 0.015041569 0.014339656
0.025257677 0.014733645 0.014976442
0.026362328 0.014762904 0.015284538
0.02761169 0.014867833 0.015380502
0.028432565 0.014742811 0.015670091
0.029344413 0.014672207 0.015956283
0.030609138 0.014776824 0.016548812
0.03151663 0.01470776 0.016910911
0.032836005 0.014829163 0.017349333
0.033933312 0.014845824 0.017488122
0.034473613 0.014625168 0.017750084
0.035886623 0.014776845 0.017500222
0.036929965 0.014771987 0.017543703
0.037520099 0.01459115 0.017179787
0.039424732 0.014917466 0.017109782
0.04007053 0.014762826 0.016589016
0.041462936 0.014884131 0.016222149
0.042406559 0.014842296 0.015154839
0.043639772 0.014901386 0.013842076
0.044812337 0.014937445 0.012939602
0.045921974 0.01495134 0.012714475
0.046620175 0.014833692 0.012216896
0.048206206 0.014997486 0.011542737
0.049695291 0.015124653 0.010662764
0.050118212 0.014928828 0.0095007122
0.051390309 0.014988841 0.0091542006
0.052614231 0.015032638 0.0085074306
0.053248379 0.014909546 0.0081010163
0.054657198 0.015003936 0.007832855
0.056069516 0.015095639 0.0071937442
0.056930855 0.015038339 0.0064827502
-0.059506297 0.016228989 0.0063716471
-0.058466706 0.016240751 0.007071346
-0.057085864 0.016156377 0.0077872276
-0.055285286 0.015947679 0.0085107386
-0.054325569 0.015978107 0.0092802644
-0.053512696 0.016053809 0.0099833608
-0.052556194 0.016088633 0.010657787
-0.051313128 0.016035354 0.01157096
-0.049883351 0.015920218 0.012022018
-0.049094945 0.016009221 0.012035668
-0.048185553 0.01606185 0.012174964
-0.046943799 0.01600357 0.012191296
-0.046431072 0.016196886 0.012613922
-0.045258824 0.016163865 0.013007581
-0.043789949 0.016020713 0.01318869
-0.042824745 0.016059279 0.013068318
-0.041511253 0.015965866 0.012972623
-0.040527947 0.015997874 0.012893468
-0.039349359 0.015952442 0.012920469
-0.038399372 0.01599974 0.012803197
-0.03745991 0.016054248 0.012855113
-0.036746267 0.01621159 0.012803882
-0.034943454 0.015883388 0.013048887
-0.034274288 0.016066073 0.012951523
-0.033011962 0.015973529 0.013054132
-0.031885661 0.015942831 0.012952149
-0.031013506 0.016041467 0.013186783
-0.029896611 0.016016042 0.013334334
-0.028635185 0.015908435 0.013626695
-0.027612362 0.015930209 0.013329595
-0.026733961 0.016040375 0.013752967
-0.025726903 0.016079314 0.013942808
-0.024612378 0.016051551 0.013742507
-0.023236377 0.015842983 0.013704419
-0.022370989 0.015979277 0.013739914
-0.021265822 0.015949367 0.013770312
-0.020095123 0.01586457 0.013804674
-0.019102132 0.015918445 0.013770312
-0.018142223 0.016007844 0.013525397
-0.016973529 0.015912684 0.013158977
-0.016045744 0.016045744 0.013535053
-0.014936459 0.016003348 0.01266548
-0.013789982 0.015911518 0.012559712
-0.012923885 0.016154857 0.012621135
-0.011841044 0.01614688 0.012522608
-0.010550874 0.015826313 0.011948943
-0.0097008487 0.016168082 0.011827528
-0.0085322978 0.015998058 0.011967152
-0.007441801 0.015946716 0.012133867
-0.0064527881 0.016131971 0.012201488
-0.005309877 0.015929632 0.012286723
-0.0042680064 0.016005022 0.012405902
-0.0032122249 0.016061123 0.012541443
-0.0021294523 0.015970893 0.012611181
-0.0010613848 0.015920771 0.012963921
0 0.016114587 0.013014764
0.0010563273 0.015844909 0.013174862
0.0021338395 0.016003795 0.013323963
0.0032180743 0.016090373 0.012497216
0.0042314483 0.015867932 0.012143314
0.0053656264 0.016096879 0.011976033
0.0064911712 0.016227929 0.011965454
0.0074921241 0.016054552 0.011965692
0.0086200237 0.016162544 0.011820704
0.0095654298 0.015942384 0.011564702
0.010655037 0.015982557 0.011678785
0.011748583 0.016020795 0.012155116
0.012816448 0.016020559 0.0127033
0.013881821 0.016017485 0.013104975
0.015205008 0.01629108 0.013542593
0.015928835 0.015928835 0.013617277
0.017093349 0.016025014 0.013939947
0.018083233 0.015955795 0.014529347
0.019085698 0.015904749 0.01439184
0.020255866 0.015991474 0.014585316
0.021410661 0.016057996 0.0145908
0.022350542 0.015964672 0.014646769
0.023497384 0.016020944 0.014747381
0.024591392 0.016037865 0.015264481
0.02524372 0.015777325 0.015549511
0.026457256 0.015874352 0.015813679
0.02736732 0.015788838 0.016029537
0.028331516 0.015739731 0.01593703
0.029723013 0.015923042 0.016140223
0.030594047 0.015824506 0.016413569
0.031615876 0.015807938 0.016910911
0.033187106 0.016058277 0.01729089
0.033625111 0.01576177 0.017349929
0.03488734 0.015857881 0.017611295
0.035827663 0.015806321 0.017437369
0.036518738 0.015650889 0.017430276
0.038259551 0.01594148 0.016976923
0.039225888 0.015902385 0.016668081
0.039981641 0.015782228 0.016409099
0.041052409 0.015789388 0.015672147
0.042245116 0.01584192 0.015011251
0.043399766 0.015877962 0.013752609
0.045149382 0.016124779 0.012839586
0.045420285 0.015844285 0.012471974
0.047564741 0.016215254 0.011955619
0.048166476 0.016055493 0.011138499
0.049058747 0.015997417 0.01017046
0.050733794 0.016191637 0.0091960728
0.05184165 0.016200516 0.0082819462
0.051770847 0.015848219 0.0079371333
0.054047789 0.016214335 0.007732451
0.05498834 0.016173042 0.0071937442
0.055693761 0.016065508 0.0065133572
-0.060585551 0.017310157 0.0054149926
-0.060005262 0.017456075 0.006431371
-0.058275301 0.017266756 0.0073778629
-0.056865957 0.017167082 0.0078798532
-0.056015208 0.017235449 0.0086625516
-0.054526914 0.017106483 0.0095021725
-0.053444114 0.017102117 0.0097430646
-0.05282085 0.017247625 0.010267228
-0.051070131 0.017023377 0.010891497
-0.050350692 0.017140662 0.011819929
-0.048405319 0.016836632 0.011946797
-0.047674183 0.01695082 0.012018681
-0.04742163 0.017244231 0.012018681
-0.046241686 0.017206209 0.012123466
-0.044770956 0.017055601 0.012332141
-0.044521317 0.017374173 0.012883216
-0.042820647 0.017128259 0.012836546
-0.041467067 0.01701213 0.01288113
-0.040411126 0.017015211 0.012803197
-0.039204165 0.016953152 0.012920469
-0.038264617 0.017006498 0.012855113
-0.037313983 0.017057821 0.012894839
-0.036367077 0.017113918 0.013168186
-0.035210606 0.01707181 0.013384014
-0.034024175 0.017012088 0.013407797
-0.032577559 0.016814223 0.013535857
-0.032123189 0.017132366 0.013407797
-0.030954128 0.017078139 0.01366508
-0.029487005 0.016849717 0.013935179
-0.028658688 0.016982926 0.014053136
-0.027563861 0.016962375 0.013901323
-0.02639238 0.016891122 0.014116615
-0.025574081 0.017049387 0.014329582
-0.024309218 0.01691076 0.014350593
-0.02322343 0.016889768 0.014411956
-0.0225081 0.017149027 0.014922827
-0.021266205 0.017012965 0.015060723
-0.020009931 0.016850468 0.015251249
-0.019294206 0.017150406 0.015013874
-0.017817607 0.016769513 0.014650822
-0.01700793 0.01700793 0.014323801
-0.015851494 0.016908262 0.014238209
-0.014752591 0.016860103 0.013503522
-0.013887604 0.017092435 0.013269514
-0.012836403 0.017115204 0.013145715
-0.011661026 0.016961493 0.013035744
-0.010675324 0.017080519 0.012713522
-0.0095546376 0.016986024 0.012578279
-0.0084856646 0.016971329 0.012701958
-0.0074606971 0.017053021 0.012798071
-0.0063757696 0.017002054 0.012675047
-0.0053319051 0.017062098 0.012736976
-0.00427661 0.01710644 0.012934059
-0.0031808424 0.016964493 0.013538837
-0.0021202294 0.016961835 0.013754457
-0.001056408 0.016902529 0.013968259
0 0.016902581 0.014458269
0.0010598808 0.016958093 0.014774799
0.0021134056 0.016907245 0.01451087
0.0031751762 0.016934274 0.013403386
0.0042924504 0.017169802 0.013128877
0.0053282501 0.0170504 0.012949497
0.0063439696 0.016917253 0.012911528
0.007521675 0.017192401 0.012911528
0.008564611 0.017129222 0.012812793
0.0096544111 0.017163398 0.013110012
0.010658879 0.017054208 0.013030827
0.011745438 0.017084274 0.013999075
0.012667589 0.01689012 0.013999075
0.014033264 0.017271709 0.014319479
0.014841246 0.016961424 0.014614761
0.015810398 0.016864425 0.014830858
0.016905654 0.016905654 0.015092432
0.017797945 0.016751006 0.015640527
0.01902798 0.01691376 0.015615195
0.020414639 0.017191274 0.015706241
0.021083651 0.016866922 0.015534103
0.022352219 0.017030261 0.015615195
0.023503151 0.0170932 0.015597761
0.024398755 0.016973047 0.01589942
0.02573172 0.017154481 0.01593855
0.02632701 0.016849287 0.016265243
0.027506951 0.016927356 0.016265243
0.028514255 0.016897336 0.016177475
0.029619746 0.01692557 0.016165555
0.030777903 0.016980911 0.016344994
0.031846136 0.016984606 0.017023325
0.032455154 0.016751047 0.017154455
0.033995025 0.016997512 0.017391145
0.035010226 0.016974656 0.017292082
0.035700381 0.016800178 0.017166138
0.036797769 0.016821837 0.017023325
0.038009025 0.016892901 0.016455799
0.038438711 0.016622145 0.016216099
0.040162202 0.0169104 0.016161203
0.041024823 0.016830696 0.015292823
0.042272601 0.016909041 0.014753133
0.043770846 0.017081305 0.013784796
0.044312861 0.01688109 0.012899309
0.045363843 0.01687957 0.012471974
0.047757391 0.017366324 0.011896402
0.048826668 0.017360592 0.011112511
0.049123675 0.017086495 0.0091750622
0.050856929 0.017312998 0.0086310506
0.051102072 0.017034024 0.0074907541
0.052930489 0.017283427 0.007258147
0.054248195 0.017359423 0.0066458285
0.054838233 0.017204151 0.0059992075
-0.060815934 0.01846198 0.0051048398
-0.059388414 0.018356418 0.0064989626
-0.05775756 0.018182935 0.007501781
-0.057407558 0.018413745 0.0082672536
-0.055365533 0.018100271 0.0086778104
-0.055045336 0.018348446 0.009280324
-0.054200381 0.01842813 0.0098028779
-0.05261993 0.018255895 0.010213882
-0.05139884 0.018203756 0.010800987
-0.050064053 0.018108275 0.01167658
-0.048759542 0.018019831 0.011914134
-0.048366748 0.018271882 0.012005031
-0.047121048 0.018205861 0.011997372
-0.045169096 0.01785755 0.012041152
-0.045244798 0.018313371 0.012126207
-0.043758936 0.018143948 0.012332141
-0.042622302 0.018114479 0.012770951
-0.041730054 0.018190024 0.012836546
-0.040250294 0.01800671 0.012818485
-0.039211385 0.018016042 0.013063639
-0.038337164 0.018103661 0.012896031
-0.037458859 0.018194305 0.012935758
-0.036412895 0.018206447 0.013377756
-0.03526511 0.018166875 0.013428032
-0.033861347 0.01798884 0.013826966
-0.03299788 0.018095611 0.013928235
-0.032114431 0.018198177 0.01383853
-0.030598542 0.017937075 0.014093548
-0.030004682 0.018217128 0.014219075
-0.028686933 0.018062143 0.014367431
-0.02736504 0.017892526 0.014354974
-0.026666321 0.018133098 0.014790416
-0.025342321 0.01795081 0.015092909
-0.024406046 0.018039251 0.015181392
-0.023449885 0.018120367 0.015020519
-0.022185119 0.017959382 0.015460908
-0.021062015 0.017902713 0.015559405
-0.020148931 0.018027991 0.015777409
-0.018962489 0.017909018 0.015752524
-0.017884066 0.017884066 0.015929073
-0.016945798 0.018004909 0.015312374
-0.0158937 0.018012859 0.01524204
-0.01489001 0.018080728 0.014486045
-0.013789607 0.018032564 0.013845146
-0.012659711 0.017934591 0.013541073
-0.011752268 0.018162597 0.01345849
-0.010597491 0.018015735 0.013049781
-0.009591477 0.018117236 0.012996823
-0.008620739 0.01831907 0.012837261
-0.0074275243 0.018038273 0.013288409
-0.0063710934 0.018051432 0.013732523
-0.0053545041 0.018205315 0.013948917
-0.0042245118 0.017954174 0.014009625
-0.0031717427 0.017973209 0.014232635
-0.0021128224 0.017958991 0.014548331
-0.0010524003 0.017890805 0.014833927
0 0.01813424 0.015405446
0.001064097 0.01808965 0.015511006
0.0021156247 0.017982811 0.015678436
0.0031995215 0.018130623 0.015284538
0.0042634988 0.018119872 0.014838129
0.0052929795 0.017996131 0.014725268
0.0064251847 0.018204691 0.014380991
0.0074906279 0.018191526 0.014451832
0.0085788341 0.018230023 0.014370978
0.0096506774 0.018229058 0.014411271
0.01061576 0.018046794 0.014543116
0.011668534 0.01803319 0.014647156
0.012866504 0.018227547 0.01468721
0.013625756 0.017818296 0.015137881
0.014792841 0.017962735 0.015460402
0.015910136 0.018031487 0.015560627
0.016773408 0.017821746 0.016087741
0.017934768 0.017934768 0.016309202
0.018915383 0.017864529 0.016156048
0.019762764 0.017682472 0.016324639
0.021092437 0.017928572 0.015936911
0.021870835 0.017704962 0.015975654
0.023258517 0.01797249 0.015738308
0.024618672 0.01819641 0.016105026
0.025443025 0.018022142 0.01610896
0.026614638 0.018097954 0.016307682
0.02770487 0.018114723 0.016112596
0.028371837 0.017863749 0.016005903
0.02958438 0.017961945 0.015878767
0.030780036 0.018043468 0.015874058
0.031277899 0.017724143 0.016512871
0.032920681 0.018053275 0.017018706
0.033639815 0.017871151 0.017020255
0.034840349 0.017948059 0.016913176
0.035874225 0.017937113 0.016506225
0.036868356 0.017907487 0.016278058
0.037701525 0.017803498 0.015785605
0.039022844 0.017929414 0.0158934
0.040125843 0.017951034 0.015826523
0.041247651 0.017979747 0.015221685
0.042314358 0.017983602 0.014520526
0.043371316 0.017983228 0.013571382
