ply
format ascii 1.0
comment PCL generated
element vertex 1292
property float x
property float y
property float z
element camera 0
property float view_px
property float view_py
property float view_pz
property float x_axisx
property float x_axisy
property float x_axisz
property float y_axisx
property float y_axisy
property float y_axisz
property float z_axisx
property float z_axisy
property float z_axisz
property float focal
property float scalex
property float scaley
property float centerx
property float centery
property int viewportx
property int viewporty
property float k1
property float k2
end_header
0.032137901 0.024639057 0.012694299
0.033377871 0.024764225 0.012061745
0.03418183 0.024568189 0.011435479
0.035601292 0.024813022 0.01106292
0.036138378 0.024446551 0.01055038
0.03772397 0.024790037 0.010105908
0.038721252 0.02473858 0.0095863342
0.039202493 0.024369117 0.0091150999
0.040674131 0.024618553 0.008801192
0.042415116 0.025014043 0.0082065761
0.043581732 0.025059497 0.0076849163
0.045109529 0.025305346 0.0065326691
0.046370856 0.025393564 0.0053711534
-0.061668318 0.025965607 0.0061143339
-0.060421661 0.025894998 0.0066055357
-0.059522029 0.025973249 0.0073591471
-0.058403913 0.025957294 0.0081934333
-0.057507418 0.026041096 0.0086336136
-0.055828463 0.025766984 0.0098156035
-0.054688979 0.025735989 0.010034919
-0.053618144 0.025736708 0.010408789
-0.052538056 0.025732925 0.010829508
-0.051594306 0.025797153 0.011015117
-0.050306868 0.025688613 0.011694282
-0.048702609 0.025410054 0.011939198
-0.047692571 0.025436036 0.011808008
-0.047047477 0.025662262 0.0115394
-0.045589779 0.025445458 0.011384815
-0.044691209 0.025537834 0.011070818
-0.044129837 0.025832098 0.010813892
-0.04278807 0.025672842 0.010918766
-0.042678304 0.026263572 0.010812968
-0.041890908 0.026457414 0.01088801
-0.040161084 0.02605043 0.011092603
-0.038868401 0.025912268 0.011131018
-0.037423499 0.02566183 0.011271119
-0.035990842 0.025405301 0.011733711
-0.035423964 0.025762882 0.012003243
-0.033738069 0.025303552 0.012056798
-0.032957263 0.025515299 0.012074441
-0.031993017 0.025594411 0.012180477
-0.03082132 0.025507297 0.012219995
-0.02992188 0.025647325 0.012039095
-0.029005732 0.025782872 0.011548489
-0.0279234 0.025775446 0.011003822
-0.026701801 0.025633728 0.010544598
-0.025898639 0.025898639 0.010262042
-0.024574373 0.025642823 0.0099931657
-0.023665639 0.025817059 0.0095464289
-0.022494657 0.02570818 0.0093507767
-0.021581834 0.025898203 0.0091307163
-0.020378159 0.025740832 0.0091128945
-0.019532213 0.026042951 0.0091976523
-0.018819198 0.026568279 0.0093283057
-0.01744446 0.026166689 0.0096122324
-0.015989903 0.025583845 0.010230869
-0.014886933 0.025520457 0.011812299
-0.013815251 0.025505079 0.013596386
-0.012633801 0.025267601 0.014889628
-0.01165677 0.025432954 0.016481131
-0.010509529 0.02522287 0.016462952
-0.0093315309 0.024884082 0.016355872
-0.00840321 0.02520963 0.015993685
-0.0073633762 0.02524586 0.016150355
-0.006375988 0.025503952 0.015566736
-0.0052931164 0.02540696 0.014841765
-0.0042290124 0.025374075 0.01446417
-0.0032070694 0.025656555 0.014004797
-0.0021697294 0.026036752 0.013204694
-0.0010677107 0.025625056 0.012131304
0 0.025616368 0.011759758
0.001082501 0.025980026 0.011542499
0.0021537826 0.025845392 0.011729956
0.0032656817 0.026125453 0.012162238
0.0043541472 0.026124883 0.012769431
0.005364629 0.02575022 0.013646454
0.0064391601 0.02575664 0.013893425
0.0075129014 0.025758518 0.014086187
0.0084582223 0.025374666 0.014903754
0.0095861908 0.025563177 0.014946014
0.010502228 0.025205346 0.015031844
0.011513545 0.025120463 0.015336066
0.01262577 0.025251539 0.01516524
0.013592233 0.025093352 0.01516524
0.014736199 0.025262056 0.015563399
0.015913267 0.025461225 0.01537174
0.016761355 0.025142031 0.015563399
0.018137926 0.025606485 0.015587151
0.0191579 0.025543867 0.015651643
0.019973855 0.025230132 0.015476644
0.021074843 0.025289811 0.015458941
0.022171719 0.025339108 0.015539229
0.023162911 0.025268631 0.015539229
0.024128532 0.025177598 0.015076101
0.025432024 0.025432024 0.014783531
0.026385913 0.025330475 0.014572054
0.02760756 0.025483903 0.014155507
0.028459724 0.02529753 0.014044911
0.029683867 0.025443314 0.013736516
0.030750899 0.025449019 0.012826473
0.031874657 0.025499726 0.012565285
0.03331846 0.025794934 0.012034446
0.034514684 0.025886012 0.0111278
0.035197761 0.025598371 0.01055038
0.036578525 0.025820136 0.010098636
0.037572056 0.025763696 0.0095202625
0.038728725 0.025819151 0.009098053
0.039667733 0.02573042 0.0079879165
0.040781062 0.02575646 0.0075010955
0.041626941 0.025616581 0.0068329871
0.043892778 0.026335668 0.0059957206
-0.06125642 0.027346617 0.005333066
-0.059768446 0.027167477 0.0061911047
-0.0581281 0.026911158 0.0068677962
-0.056673825 0.026732938 0.007942766
-0.055804398 0.02682904 0.0083627105
-0.055010207 0.026965789 0.0096942782
-0.053377599 0.026688799 0.010024071
-0.052364398 0.026716532 0.010340154
-0.051754773 0.026955612 0.010422349
-0.050020896 0.026606862 0.010818124
-0.048967827 0.02661295 0.011070818
-0.048101772 0.026723206 0.011070818
-0.046582576 0.026467374 0.010595113
-0.045543872 0.026478997 0.010377645
-0.045294564 0.026961051 0.010332376
-0.044175304 0.02693616 0.010300636
-0.043479212 0.027174508 0.010245323
-0.042745087 0.027400699 0.010628343
-0.041203111 0.02710731 0.010760337
-0.040004786 0.027030259 0.011027902
-0.038622491 0.026821177 0.011064738
-0.037216254 0.026583038 0.011526525
-0.036243111 0.026649347 0.011745214
-0.035132382 0.026615443 0.011986941
-0.033787314 0.026396338 0.012035906
-0.033129074 0.026716996 0.012015462
-0.031654991 0.026379159 0.012146503
-0.03093986 0.026672293 0.012113184
-0.030304903 0.027057949 0.012115121
-0.02888165 0.026742268 0.011510074
-0.027786527 0.026717814 0.011143625
-0.026896665 0.026896665 0.0109061
-0.025767861 0.026841523 0.010078222
-0.024753695 0.02690619 0.0098751187
-0.023633966 0.026856782 0.0095707178
-0.022553774 0.02684973 0.009455651
-0.02137311 0.026716391 0.009223789
-0.020383144 0.026819926 0.009223789
-0.019569732 0.027180186 0.0093256533
-0.018875249 0.027757721 0.009534955
-0.017132409 0.02676939 0.0099593699
-0.015987467 0.02664578 0.010827661
-0.014987693 0.026763739 0.012178928
-0.013757004 0.026455779 0.013858944
-0.012926047 0.026929265 0.016158819
-0.011625551 0.026421709 0.017065883
-0.010476291 0.026190728 0.01708886
-0.0093925307 0.026090365 0.016981781
-0.0084204255 0.026313828 0.016692996
-0.0073481975 0.026243564 0.016774446
-0.0064005726 0.026669053 0.016149938
-0.0053145206 0.026572604 0.015084207
-0.0042312886 0.026445555 0.014514297
-0.0032073101 0.026727585 0.014026612
-0.0021566187 0.026957735 0.013220906
-0.0010671217 0.026678046 0.012098908
0 0.026994584 0.011752874
0.0010666958 0.026667396 0.011614233
0.0021827868 0.027284836 0.011699528
0.0032900125 0.027416771 0.012139648
0.0043369308 0.027105819 0.012738317
0.005365028 0.026825141 0.01377365
0.006478704 0.026994601 0.014095217
0.0073614013 0.02629072 0.014659673
0.0084170178 0.026303181 0.014989376
0.0095535181 0.026537552 0.015068859
0.010457431 0.026143579 0.01537621
0.011578039 0.026313728 0.015144438
0.012627495 0.026307283 0.015252858
0.013606766 0.02616686 0.015167087
0.014867635 0.026549349 0.015357941
0.015958276 0.026597127 0.01537174
0.017068196 0.026669057 0.01555115
0.018119659 0.02664656 0.01537621
0.019233774 0.026713578 0.015384078
0.020290744 0.026698349 0.014668226
0.021183474 0.026479343 0.014657319
0.022202807 0.026431913 0.014668226
0.023170084 0.026329642 0.014766663
0.024328884 0.026444441 0.01475355
0.02538296 0.026440585 0.01469937
0.026632451 0.026632451 0.014291197
0.027579682 0.026518926 0.014153928
0.028432449 0.026326342 0.014022887
0.029856144 0.026657272 0.013702095
0.030661743 0.026432537 0.013012677
0.031911697 0.026593082 0.012732804
0.033279553 0.026838347 0.012053341
0.034216326 0.026731504 0.011090547
0.035722826 0.027062748 0.010338187
0.03642042 0.026779721 0.0099731684
0.037205644 0.026575461 0.0093810558
0.038668316 0.026852999 0.008551538
0.039924067 0.026975721 0.0074107051
0.040424954 0.026595365 0.0063933432
0.042253736 0.027085729 0.0050207675
-0.05864181 0.027721582 0.0050007403
-0.058561902 0.028196471 0.005874306
-0.05716053 0.028041016 0.0068517327
-0.0572422 0.0286211 0.0071176589
-0.055109359 0.028094966 0.008338958
-0.053855307 0.028004758 0.0096426308
-0.053306207 0.028284928 0.0098773539
-0.051311679 0.027793827 0.010068536
-0.049978983 0.027647948 0.010475218
-0.049179833 0.027797297 0.010475218
-0.047571793 0.027485924 0.010384321
-0.046665754 0.027575217 0.010265887
-0.046205312 0.027938094 0.010233581
-0.044903658 0.027797503 0.010099053
-0.044518296 0.028231114 0.010141492
-0.043612849 0.028348351 0.010302633
-0.042787965 0.028525311 0.010812968
-0.041251872 0.028224964 0.011008054
-0.039633077 0.027850268 0.011192173
-0.038550958 0.02784236 0.01141274
-0.037136134 0.027586842 0.011884063
-0.036064241 0.027578536 0.012187898
-0.034996767 0.027573211 0.012341052
-0.034077004 0.027687566 0.012361646
-0.032862436 0.027562043 0.01234588
-0.031879354 0.027628772 0.012218565
-0.031095132 0.027878392 0.012139112
-0.029939806 0.027801249 0.012064129
-0.028916426 0.027845446 0.011534512
-0.027930534 0.027930534 0.011241615
-0.026608501 0.02767284 0.011050284
-0.025800226 0.027950246 0.010266691
-0.02470088 0.027922733 0.010045975
-0.023725124 0.028038785 0.0095814168
-0.022539994 0.027906658 0.0094663501
-0.021402543 0.027823307 0.0093511343
-0.020498861 0.028051073 0.0093283057
-0.019702306 0.028458888 0.0092396736
-0.01875031 0.028676944 0.0096067786
-0.017201679 0.027952729 0.010633379
-0.01610259 0.027911155 0.011160403
-0.014754604 0.027401406 0.01313895
-0.01378961 0.02757922 0.01461044
-0.012806493 0.027747402 0.016492814
-0.011505951 0.027195886 0.017252207
-0.010450906 0.027172357 0.017319918
-0.0094693322 0.027355848 0.017230839
-0.0083417073 0.027110549 0.017149389
-0.0073491605 0.027296882 0.01704365
-0.0063776542 0.027636502 0.016149938
-0.0052911649 0.027514059 0.015207082
-0.0042308606 0.027500594 0.014418542
-0.0032252374 0.027952056 0.013299972
-0.0021413083 0.027837006 0.011963755
-0.0010664655 0.027728105 0.011318922
0 0.027641181 0.011043787
0.0010774181 0.02801287 0.010931134
0.0021718531 0.028234091 0.011016935
0.0032266974 0.027964711 0.011407852
0.0043226136 0.028096989 0.011772811
0.0053483569 0.027811456 0.012784183
0.0063429754 0.027486226 0.013465852
0.0073972838 0.027475625 0.013863206
0.0084370971 0.027420564 0.014601469
0.0095361248 0.027548805 0.01469174
0.010565872 0.027471269 0.014485329
0.011614341 0.02745208 0.014958471
0.012586812 0.027271423 0.014960289
0.013613307 0.027226614 0.014956772
0.014718847 0.027335001 0.015062213
0.015854508 0.027481146 0.015252858
0.017117048 0.027815202 0.015069634
0.01786669 0.027325526 0.014715344
0.018958285 0.02738419 0.014522702
0.020341808 0.027836157 0.014005721
0.021239676 0.02761158 0.014063567
0.022329448 0.027645981 0.014191002
0.023338841 0.027582267 0.014423609
0.024081925 0.027223045 0.014386982
0.025533464 0.027661253 0.014384985
0.026556883 0.027619157 0.013963699
0.027748981 0.027748981 0.013760865
0.028642688 0.027581846 0.013651788
0.029674673 0.027555054 0.013319343
0.030741379 0.027561234 0.012457997
0.031852048 0.027605109 0.01263541
0.033225402 0.027866464 0.011864752
0.03431768 0.027883114 0.010958582
0.035613131 0.028058833 0.010281146
0.036627002 0.028008884 0.0098053217
0.03720827 0.027640428 0.0091384947
0.038636044 0.02790381 0.0078362823
0.039677911 0.027881773 0.0067812502
0.040646479 0.027810749 0.0054030716
-0.057739437 0.02941443 0.0060800612
-0.057094872 0.029645415 0.0062364042
-0.055278935 0.02926532 0.0070760548
-0.054649476 0.029510718 0.0083079636
-0.053256121 0.029345211 0.0086342692
-0.051877435 0.029181058 0.009617269
-0.050501917 0.029011739 0.010160953
-0.048612997 0.028533716 0.010221869
-0.048051029 0.028830618 0.010221869
-0.046972133 0.02882381 0.0098080337
-0.046091136 0.028940948 0.009934932
-0.044924293 0.028879901 0.009855181
-0.044620208 0.029384039 0.0099297166
-0.043625101 0.029446945 0.010238647
-0.042818762 0.029643759 0.010661572
-0.041206006 0.029277952 0.011008054
-0.039664697 0.028944509 0.01126045
-0.038494483 0.028870864 0.011522442
-0.03718733 0.028687369 0.011902571
-0.036031544 0.028613286 0.012476355
-0.035039056 0.02866832 0.012573153
-0.034141283 0.028806709 0.012460709
-0.033187989 0.028905669 0.012404233
-0.032216296 0.028994666 0.012272477
-0.030803205 0.028678847 0.012077302
-0.030036854 0.02896411 0.011946261
-0.02894282 0.02894282 0.01142776
-0.027796516 0.028865613 0.011143893
-0.026806023 0.028950505 0.010924339
-0.025740607 0.028958183 0.010180116
-0.024670279 0.028960761 0.0097937882
-0.023542147 0.028892636 0.0094826519
-0.022352569 0.028739018 0.0093918741
-0.021441557 0.028946104 0.0093434751
-0.020541672 0.029190797 0.0093152821
-0.019729696 0.029594546 0.0094532073
-0.018653193 0.02962566 0.010102034
-0.017237751 0.029088706 0.010686338
-0.016009659 0.028817387 0.011852145
-0.014919861 0.028774019 0.013080716
-0.013837139 0.028738674 0.014645785
-0.012575252 0.028294317 0.016445398
-0.011516766 0.028268427 0.017081648
-0.010546494 0.028475536 0.017392218
-0.0094508026 0.02835241 0.017220974
-0.008416729 0.028406462 0.01709953
-0.0073083509 0.028189354 0.017043859
-0.0062911976 0.02831039 0.016225606
-0.0052924221 0.028579082 0.015020907
-0.0042503597 0.028689928 0.01416564
-0.0032164929 0.028948437 0.013065189
-0.0021588409 0.029144354 0.011381894
-0.0010682365 0.028842388 0.010724992
0 0.02883755 0.010307193
0.0010947615 0.029558562 0.010089666
0.0021488639 0.029009663 0.010384709
0.0032130252 0.028917229 0.010675758
0.0042922138 0.028972443 0.01146853
0.005278735 0.028505169 0.011770517
0.006373683 0.028681576 0.0126881
0.0074365148 0.028683702 0.013473839
0.0084931254 0.028664298 0.014265597
0.0095575452 0.028672637 0.014389634
0.010531897 0.028436124 0.014461011
0.011457229 0.028122291 0.014474601
0.012591305 0.02833044 0.014753819
0.013699597 0.028453009 0.014453679
0.014734299 0.028416149 0.014948905
0.015870135 0.028566243 0.014956772
0.016918732 0.02855036 0.014948905
0.018232638 0.028957719 0.014320523
0.019154267 0.028731404 0.014068216
0.019971294 0.028380262 0.013394207
0.021360135 0.028836185 0.01305151
0.022494186 0.028921098 0.013363123
0.023257492 0.028543288 0.013546169
0.024494261 0.028754132 0.013668954
0.025653157 0.028859803 0.013963699
0.026506981 0.028627541 0.013622284
0.027608678 0.028670551 0.01347667
0.028519984 0.028519984 0.013315439
0.029710587 0.028649496 0.01294145
0.031081233 0.028937701 0.012453526
0.031879589 0.028691631 0.012612879
0.033088334 0.028818872 0.011863679
0.034508061 0.029116176 0.010543197
0.035699341 0.029208552 0.010079801
0.036878642 0.02928598 0.0095121264
0.038169462 0.029445013 0.0088708699
0.038594823 0.02894612 0.0074535906
0.040108506 0.029268369 0.0058831871
-0.05697548 0.030679105 0.0053188205
-0.056239005 0.030876316 0.005856812
-0.054317351 0.030417716 0.0067870319
-0.052670237 0.03009728 0.007712245
-0.052057121 0.030366654 0.0083145499
-0.049840327 0.02969211 0.0087426901
-0.049422052 0.030082986 0.0093079209
-0.048274126 0.030037232 0.0092044473
-0.047046665 0.029938787 0.0091409385
-0.046434425 0.030236369 0.0091583133
-0.045536648 0.030357765 0.0095237792
-0.044173524 0.030167283 0.0096805692
-0.043777499 0.030644251 0.0099452138
-0.042400673 0.03044151 0.011096656
-0.040869962 0.030114708 0.011085361
-0.039454035 0.029857107 0.011544317
-0.038152076 0.029673839 0.011520207
-0.037085578 0.029668463 0.011995584
-0.036357198 0.029941224 0.012565225
-0.034925073 0.029633397 0.012720197
-0.034133539 0.029866848 0.012472779
-0.033199269 0.029986434 0.012416661
-0.031974249 0.029842632 0.012261212
-0.031021403 0.029951699 0.012004673
-0.030264502 0.030264502 0.011879623
-0.02899852 0.03007254 0.011361122
-0.027908565 0.030055379 0.01076448
-0.026830293 0.030049928 0.010333955
-0.025602153 0.029869178 0.010037452
-0.024737304 0.030114979 0.0096887648
-0.023540802 0.029961023 0.0093918741
-0.02237937 0.02983916 0.009223789
-0.021578841 0.03021038 0.0093104839
-0.020567028 0.030309303 0.0092079043
-0.019737264 0.030702412 0.0095509291
-0.018522935 0.030508362 0.01042074
-0.017061712 0.029857995 0.011122942
-0.016117247 0.030085528 0.012025625
-0.014882418 0.029764837 0.013404936
-0.013714642 0.029539231 0.014789701
-0.012621255 0.029449595 0.016320884
-0.011613786 0.029562365 0.017081648
-0.01044983 0.029259525 0.017329931
-0.00944864 0.029395768 0.017147303
-0.008406532 0.029422862 0.01709953
-0.0073313671 0.029325468 0.017056048
-0.0063233292 0.029508868 0.016191423
-0.0053018569 0.029690398 0.014995724
-0.0042430637 0.029701447 0.014007747
-0.0032113809 0.029972889 0.011829644
-0.0021526325 0.030136853 0.011019558
-0.0010675673 0.029891882 0.010074288
0 0.030258154 0.0094465017
0.0010858153 0.030402826 0.0095129609
0.0021611482 0.030256074 0.0096593499
0.0032163076 0.030018872 0.0097161233
0.0042871004 0.030009702 0.010714352
0.0052991197 0.029675072 0.011088222
0.0063795266 0.029771125 0.011925906
0.0074135317 0.029654127 0.01327613
0.0085023763 0.029758316 0.014098406
0.0095099369 0.029586473 0.014389634
0.010589689 0.02965113 0.014418274
0.011532856 0.02935636 0.014472693
0.012605204 0.029412145 0.014410853
0.013626126 0.02934858 0.014449298
0.014959864 0.029919729 0.014484167
0.015745249 0.02939113 0.014582396
0.016952798 0.029667396 0.014490902
0.018290481 0.030125495 0.014113665
0.01913131 0.029759815 0.013611108
0.020309594 0.029929927 0.012954473
0.021176668 0.029647335 0.012692451
0.022119144 0.029492192 0.012697101
0.023586234 0.030018844 0.013050675
0.02461998 0.029972147 0.013173461
0.025446229 0.029687267 0.013595313
0.026551031 0.029737154 0.013415784
0.027321482 0.029423134 0.013283014
0.02840698 0.029459089 0.013109505
0.029982468 0.029982468 0.012457997
0.030614989 0.029559297 0.012241244
0.031697653 0.029584475 0.012358934
0.032937948 0.029750401 0.011772275
0.034081154 0.029821008 0.010336041
0.03555724 0.030169779 0.01007399
0.037037235 0.030501252 0.0095104575
0.037613675 0.030090941 0.0082991123
0.038895797 0.030252287 0.0074569285
0.039882079 0.030181032 0.0058540404
-0.054262608 0.031472314 0.0055477023
-0.052616674 0.031140482 0.0059853494
-0.051392965 0.031049918 0.006623894
-0.050478887 0.031146547 0.0077880323
-0.049691338 0.031327147 0.0081555843
-0.048341826 0.031153621 0.0081555843
-0.047309741 0.031181421 0.0082469881
-0.046426293 0.031310756 0.0086502433
-0.044878334 0.030987421 0.0089501739
-0.044478323 0.031460278 0.009408772
-0.043714143 0.031692754 0.0097074509
-0.041965947 0.031205447 0.010880113
-0.040690232 0.031053072 0.010751724
-0.039521042 0.030975953 0.011422276
-0.038223874 0.030791458 0.011533946
-0.037174478 0.030801713 0.012051255
-0.036122102 0.030810028 0.012350172
-0.034896925 0.030666998 0.01240173
-0.034315705 0.03109861 0.012442559
-0.032902069 0.030779354 0.012377053
-0.032050487 0.03098214 0.012280256
-0.031024732 0.031024732 0.01195392
-0.029798817 0.030863062 0.011710793
-0.028914765 0.031056598 0.011388481
-0.028151371 0.031399608 0.01071161
-0.026591869 0.030846568 0.010244131
-0.025609287 0.030944556 0.0099275112
-0.024716176 0.031163875 0.0094613433
-0.023535309 0.031023819 0.0092234313
-0.0224851 0.031050853 0.0090816915
-0.02138916 0.031014284 0.0090900064
-0.020392567 0.031125499 0.0090917647
-0.019942649 0.032129828 0.0094804466
-0.018489702 0.031541254 0.01042074
-0.017188007 0.031153265 0.011443913
-0.016058788 0.03104699 0.012392789
-0.014776824 0.030609138 0.013578236
-0.01377306 0.03072452 0.014823735
-0.012653305 0.030578824 0.016320884
-0.011557562 0.030469939 0.01713869
-0.01051972 0.03050719 0.017534584
-0.0094672125 0.030505463 0.017526835
-0.0083539682 0.030283134 0.017382681
-0.0073556071 0.03047323 0.017194688
-0.0063083442 0.030490331 0.016758859
-0.0052498356 0.03044905 0.015228063
-0.0042401226 0.030740891 0.014007807
-0.0031861821 0.030799761 0.0114654
-0.0021486022 0.031154731 0.010211378
-0.0010766828 0.031223804 0.0092311502
0 0.031158645 0.009060055
0.001088846 0.031576537 0.0089647174
0.0021567512 0.031272896 0.0092207193
0.0031911079 0.030847376 0.0093649328
0.0042744214 0.030989554 0.0097312331
0.0053994316 0.031316705 0.010560006
0.0063729235 0.030802466 0.011463612
0.0074594654 0.0309035 0.013089031
0.0085086534 0.030843869 0.013929009
0.009483628 0.030558359 0.014155
0.010518504 0.030503664 0.014222473
0.011494034 0.030302454 0.014292419
0.012696344 0.030682832 0.014279515
0.013746984 0.030666351 0.014289558
0.014845748 0.030751908 0.01434043
0.015850943 0.030645156 0.01434043
0.017012024 0.030834295 0.013950706
0.018095115 0.030868139 0.013484359
0.019174952 0.030892979 0.012959123
0.020296769 0.030979279 0.012452662
0.021130405 0.03063909 0.012058258
0.02237159 0.030894101 0.012100041
0.023566036 0.031064322 0.012167841
0.024253944 0.030581059 0.012357056
0.025794322 0.03116814 0.012574971
0.026619183 0.030878253 0.012694478
0.02763224 0.030820578 0.012302399
0.028659185 0.030782089 0.012222171
0.029622151 0.030680085 0.01214093
0.030783737 0.030783737 0.011827856
0.031968616 0.030902997 0.011627614
0.032909587 0.030786388 0.011051625
0.034218706 0.031010704 0.010105014
0.035732996 0.031401727 0.0098661482
0.036497086 0.031129867 0.009239167
0.037846677 0.031358678 0.0076036751
0.039375234 0.031718943 0.00659132
-0.051769104 0.032355692 0.0052196383
-0.051017575 0.032564409 0.0060764253
-0.04937112 0.032198556 0.0066938996
-0.048732787 0.032488525 0.0064553916
-0.047867633 0.032637026 0.0068485439
-0.046326887 0.032321084 0.0078940392
-0.045218162 0.032298688 0.0085519254
-0.044886909 0.032844078 0.0093417466
-0.043483552 0.032612663 0.0098156035
-0.041955963 0.032273818 0.010880113
-0.040705837 0.032136187 0.010864496
-0.039309993 0.031872965 0.011333644
-0.037994538 0.031662114 0.011624277
-0.037008706 0.031721748 0.012154818
-0.036204107 0.0319448 0.012295395
-0.035208538 0.032007765 0.012406856
-0.033997178 0.031872354 0.01240173
-0.032867882 0.031807624 0.012303412
-0.032117404 0.032117404 0.012239814
-0.030827371 0.031890381 0.012000442
-0.029886791 0.032021564 0.011574388
-0.029214161 0.032460175 0.011031687
-0.027732896 0.031999495 0.010679454
-0.026682595 0.032019112 0.010156393
-0.025649766 0.03206221 0.009834677
-0.02455668 0.032030452 0.0094070435
-0.023691291 0.032306306 0.0089279413
-0.022398103 0.03199729 0.0087499022
-0.021496989 0.032245487 0.008859694
-0.020447692 0.032285828 0.0090089142
-0.020046152 0.033410255 0.0091560781
-0.018357223 0.032395098 0.010289013
-0.017205274 0.032259889 0.011394858
-0.015869915 0.031739831 0.012339801
-0.014828566 0.031775501 0.013733
-0.013787128 0.031816449 0.015056193
-0.01256128 0.031403203 0.016445398
-0.011571492 0.031558614 0.017211407
-0.010500773 0.031502318 0.017637074
-0.0094151432 0.031383812 0.017610639
-0.0083889123 0.031458423 0.01746583
-0.0073257457 0.031396054 0.017292947
-0.0062790988 0.031395495 0.016901702
-0.0052665058 0.031599034 0.015405506
-0.0042242669 0.031682 0.01412484
-0.0032113176 0.032113176 0.011568546
-0.0021548965 0.032323446 0.010130018
-0.0010691889 0.032075666 0.0091288984
0 0.032402288 0.0088308752
0.001090288 0.032708641 0.0089107156
0.0021322775 0.031984162 0.0092757344
0.0032436037 0.032436039 0.0091840327
0.0043633813 0.03272536 0.0097354054
0.0054066498 0.032439899 0.010675758
0.0063666478 0.031833239 0.011491358
0.0074895895 0.032098241 0.012370586
0.0084871538 0.031826828 0.01375553
0.0095344121 0.031781375 0.013876021
0.010603501 0.031810503 0.01402992
0.011544747 0.031485677 0.014222473
0.012642965 0.031607412 0.014254808
0.01364729 0.031493746 0.014037073
0.014886417 0.031899467 0.014109015
0.016053112 0.032106224 0.013949484
0.01688448 0.0316584 0.013311625
0.018276667 0.032252941 0.013287067
0.019481963 0.032469939 0.012820244
0.020149959 0.031815726 0.011894226
0.02126136 0.031892043 0.011386156
0.022603402 0.032290574 0.011386156
0.023313288 0.031790849 0.011860788
0.024514792 0.031975817 0.011768192
0.025622088 0.032027613 0.011771441
0.026688661 0.032026395 0.012046397
0.027527805 0.031762853 0.011940956
0.028730942 0.031923268 0.011875451
0.029825648 0.031956051 0.011682242
0.030792193 0.031853992 0.011309385
0.031844545 0.031844545 0.010919303
0.033230595 0.032158639 0.010306329
0.034224108 0.032085102 0.0098454356
0.035014555 0.031831417 0.0093781948
0.036208227 0.031948432 0.007758826
0.037506931 0.032148801 0.0071121156
0.039241619 0.032701351 0.0056034923
-0.049445234 0.03332179 0.0053744018
-0.049087971 0.033816159 0.0054585934
-0.04734017 0.033353303 0.0060632825
-0.046585925 0.033585206 0.0066289604
-0.045852166 0.033843264 0.0080450773
-0.044635486 0.033748779 0.0092684329
-0.043608475 0.033796571 0.0099357367
-0.042044841 0.033420257 0.010923326
-0.0405786 0.033103596 0.010956824
-0.03944372 0.033047441 0.011210024
-0.037989575 0.032713249 0.011719227
-0.037213717 0.03296072 0.012128383
-0.036201414 0.033007171 0.0122585
-0.035133928 0.033004601 0.012422949
-0.033967506 0.032906022 0.012406856
-0.033038318 0.033038318 0.012141794
-0.03182945 0.032890435 0.012217373
-0.030911237 0.033043046 0.012081921
-0.030236054 0.033475634 0.011568218
-0.028940061 0.033227477 0.011045337
-0.027781289 0.033123847 0.010636359
-0.026861101 0.033307765 0.010092825
-0.025752697 0.033263903 0.0097889006
-0.024713971 0.033310134 0.009242028
-0.023802999 0.033540592 0.0088303387
-0.022437217 0.033121608 0.0087499022
-0.021543929 0.033393092 0.0088111162
-0.020412674 0.033304889 0.0090387464
-0.019804047 0.034106974 0.0094249547
-0.018381629 0.033519443 0.01036489
-0.017015411 0.032967359 0.012005836
-0.015899718 0.032859415 0.012841135
-0.014903164 0.032999862 0.01391229
-0.013666824 0.032590121 0.015024304
-0.012644947 0.032666113 0.016445339
-0.01168361 0.032926541 0.017229259
-0.010435578 0.032350294 0.017636806
-0.0094303172 0.032482203 0.017582774
-0.0083732223 0.032446239 0.017484576
-0.007314146 0.03239122 0.017348796
-0.0062724389 0.032407604 0.016942203
-0.0052642915 0.032638609 0.016022772
-0.0042329491 0.032805357 0.014097691
-0.0032265757 0.033341285 0.011562705
-0.0021490168 0.033309765 0.010011733
-0.0010737281 0.033285573 0.0089208484
0 0.033724789 0.0086686313
0.0010813881 0.033523031 0.0087863803
0.0021558257 0.033415299 0.0087094009
0.0032823824 0.033917952 0.0089376569
0.0042922809 0.033265177 0.0090331137
0.0053527392 0.033186983 0.0097286999
0.0064927298 0.03354577 0.010826319
0.0073788203 0.032677636 0.011775881
0.0084782522 0.032853227 0.012866497
0.0095736319 0.032975845 0.013430715
0.01063188 0.032958828 0.013802677
0.011567295 0.032598741 0.013746351
0.012723699 0.032869559 0.013901204
0.013723697 0.03272574 0.013746351
0.014868289 0.032922644 0.013925403
0.016102018 0.033277504 0.01347971
0.017075669 0.033084109 0.013063103
0.018194737 0.033178639 0.013100058
0.019230127 0.033118553 0.012413532
0.020320371 0.03315429 0.011565387
0.021628935 0.033524852 0.011091232
0.022451242 0.03314231 0.01107052
0.023470473 0.033072032 0.011095881
0.024524121 0.033054251 0.011365861
0.025443934 0.032865085 0.011167109
0.026732164 0.033147883 0.011422426
0.027688228 0.033012889 0.011279315
0.028589591 0.032825086 0.011279315
0.02999153 0.033204909 0.011469066
0.0307055 0.032823123 0.010887176
0.031962216 0.033027627 0.010358095
0.033295739 0.033295739 0.010021716
0.033957809 0.032896627 0.009451896
0.035263892 0.033126689 0.008212924
0.036442388 0.033226881 0.0071408451
0.037565589 0.033272378 0.0059731603
-0.047801565 0.034764774 0.0052848458
-0.046828996 0.034849487 0.0061299503
-0.045881376 0.034957238 0.0077422559
-0.044854928 0.035008721 0.0088057518
-0.043379877 0.034703903 0.0097176731
-0.041876253 0.034360003 0.010782391
-0.04049715 0.034102865 0.01100859
-0.039391279 0.03406813 0.011625081
-0.038357053 0.034095161 0.011683583
-0.037229806 0.034038682 0.011954457
-0.036052298 0.033931572 0.012177259
-0.035325009 0.034254555 0.012271613
-0.034189686 0.034189686 0.012154669
-0.03294735 0.034010168 0.012329549
-0.031892356 0.034018513 0.012038261
-0.031344742 0.034587298 0.011778265
-0.029912688 0.034185927 0.011272401
-0.029052319 0.034432378 0.010679454
-0.028048702 0.034521479 0.010497659
-0.026837666 0.034352213 0.0098014772
-0.02583796 0.034450613 0.0096359849
-0.024706362 0.034374069 0.0091458559
-0.023668842 0.034427408 0.0086731613
-0.022492748 0.034274664 0.0086138546
-0.021543367 0.034469388 0.0087099671
-0.020347551 0.034269556 0.0090159178
-0.019793622 0.035188664 0.0094385445
-0.01819944 0.03425777 0.010377109
-0.017029578 0.034059156 0.012217075
-0.015928499 0.033980798 0.012859792
-0.014695299 0.033589255 0.014410824
-0.01373286 0.033803962 0.015441597
-0.012772246 0.034059323 0.01646176
-0.011474139 0.033379313 0.017375052
-0.010523466 0.033675093 0.017810434
-0.0094596464 0.033634298 0.017809242
-0.0083832517 0.033533007 0.017599314
-0.0073867366 0.033767939 0.017477781
-0.006269753 0.033438683 0.017210245
-0.0052322662 0.033486504 0.016593665
-0.004239901 0.033919208 0.014751822
-0.003218286 0.034328382 0.011287302
-0.0021431262 0.034290019 0.0099108219
-0.0010817844 0.0346171 0.0088576674
0 0.034605537 0.0087479055
0.0010792316 0.034535412 0.0081064403
0.0021789868 0.034863789 0.0084303021
0.0032584008 0.034756277 0.0081700087
0.0043463847 0.034771077 0.0080679059
0.00543526 0.034785666 0.0091840327
0.006395557 0.034109637 0.0094921887
0.0074692648 0.03414521 0.010786891
0.0085422248 0.034168899 0.011659741
0.0095329294 0.033894863 0.012937218
0.010608533 0.033947308 0.013248146
0.011610481 0.033775944 0.013326794
0.012712465 0.033899907 0.013270348
0.013679157 0.03367177 0.013168812
0.014776939 0.033775862 0.013194114
0.015949454 0.034025501 0.013133019
0.017327899 0.034655798 0.012954473
0.01791038 0.033713657 0.012823582
0.019353157 0.034405615 0.012090206
0.020491743 0.034512408 0.011435658
0.021462021 0.034339234 0.010896832
0.022546284 0.03435624 0.01072526
0.023527313 0.034221549 0.011026263
0.024365814 0.033900265 0.011329651
0.025797188 0.03439625 0.010830283
0.02691198 0.034447331 0.011215597
0.027640255 0.034018777 0.010953963
0.028626595 0.033927817 0.011044025
0.02979554 0.034052048 0.01095432
0.030966751 0.034170207 0.010305256
0.032114197 0.034255143 0.010049015
0.033246052 0.034318507 0.0096593201
0.033767015 0.033767015 0.008300364
0.035676841 0.034595724 0.0073721707
0.035939042 0.03382498 0.0062458813
0.038079645 0.034815677 0.0050244927
-0.046759896 0.035885502 0.0059868693
-0.046280906 0.036363568 0.007712245
-0.04517315 0.036358874 0.0089429915
-0.043136589 0.035587687 0.0097176731
-0.041698042 0.035282958 0.010839313
-0.04050285 0.035173524 0.011128277
-0.039322942 0.035071813 0.011759371
-0.03849319 0.035285424 0.012039542
-0.037516877 0.035373054 0.012195677
-0.03633742 0.035268672 0.012202203
-0.035134055 0.035134055 0.0124695
-0.033956032 0.035017155 0.012414694
-0.032775454 0.03489 0.012118101
-0.032175019 0.035392519 0.011921734
-0.031009754 0.035286959 0.011903465
-0.030086607 0.035459213 0.011418223
-0.028805833 0.03520713 0.010655582
-0.027763991 0.03523891 0.010179579
-0.026861081 0.035456628 0.0095594823
-0.025821118 0.035504036 0.0091633499
-0.024522781 0.035184857 0.008795619
-0.023806918 0.035710379 0.0085859001
-0.022602918 0.03551887 0.0085435212
-0.021355737 0.035236966 0.0086486638
-0.020590266 0.035762038 0.0087660551
-0.019705495 0.03612674 0.0091560781
-0.018295893 0.035515558 0.010301203
-0.017050436 0.035166521 0.012041748
-0.015909804 0.035001568 0.013213992
-0.014813074 0.034916531 0.014679819
-0.013869848 0.035208076 0.015474528
-0.012689492 0.034896102 0.016477287
-0.011625513 0.03487654 0.01740694
-0.010596675 0.034969024 0.017858833
-0.0093882969 0.034423757 0.018033504
-0.0084253065 0.034754388 0.017631471
-0.0073082629 0.034453239 0.017575502
-0.0062673949 0.034470674 0.017222941
-0.0052354643 0.034554064 0.016786814
-0.0042414758 0.034992177 0.014694184
-0.0032118028 0.03532983 0.011637628
-0.002152052 0.035508856 0.0097696483
-0.0010696553 0.035298623 0.0083726943
0 0.035954494 0.0076932013
0.0010864275 0.035852108 0.0072010458
0.0021524166 0.035514873 0.0072641671
0.0032561026 0.035817128 0.0072641671
0.0043294658 0.035718091 0.0071057975
0.0053521316 0.035324071 0.0077982545
0.0064412965 0.035427131 0.0090331137
0.007538361 0.035537988 0.010063827
0.0085074501 0.035093229 0.011313587
0.0096108383 0.035239741 0.011865139
0.010660462 0.035179526 0.012957424
0.011650905 0.034952715 0.012859762
0.012710631 0.034954235 0.012859762
0.013672452 0.034706995 0.012885183
0.014649825 0.034531731 0.012859762
0.016018201 0.035240039 0.012954473
0.017023232 0.035110414 0.012692451
0.017899549 0.034746181 0.012480974
0.019198462 0.03519718 0.011860788
0.020454174 0.035525668 0.011140287
0.02136302 0.035248984 0.010635197
0.022629682 0.035560925 0.010631323
0.023359722 0.035039581 0.010913432
0.02457441 0.035258934 0.010918081
0.025802191 0.035478011 0.010453761
0.026809527 0.035388574 0.010364354
0.027991034 0.035527084 0.010176867
0.028769819 0.035163108 0.010306329
0.029838784 0.035167139 0.010292411
0.03093417 0.03520095 0.0098479092
0.031975038 0.035172544 0.0098029673
0.03329761 0.035445843 0.0090554655
0.034502678 0.035580885 0.008130759
0.035387881 0.035387881 0.0068873763
0.036670946 0.035592385 0.0054937899
-0.046588629 0.037714604 0.0063301623
-0.044321291 0.036754239 0.0085234642
-0.043500125 0.036975108 0.0095767379
-0.041805018 0.036445402 0.010679752
-0.040170416 0.035941951 0.010985255
-0.039596889 0.036386326 0.0114806
-0.038485251 0.036347181 0.011734128
-0.037310001 0.036244001 0.011855364
-0.036307279 0.036307279 0.011856645
-0.035092831 0.036156248 0.011859536
-0.034127317 0.036260273 0.012038261
-0.03296398 0.036154043 0.011887372
-0.031772126 0.03600841 0.011747271
-0.031112295 0.036476482 0.011732399
-0.030146565 0.036606546 0.01118508
-0.028596917 0.036010932 0.01051268
-0.027688883 0.03620854 0.0099162757
-0.027055629 0.036795653 0.0093684196
-0.025529023 0.036166117 0.0090352595
-0.024703251 0.036517847 0.0086501837
-0.023584437 0.036448676 0.0082379282
-0.022600781 0.036591738 0.0082736313
-0.021539418 0.036617011 0.0084799528
-0.020671321 0.036990784 0.0085954964
-0.019487271 0.036809292 0.008769393
-0.018277651 0.036555301 0.010117531
-0.016899254 0.035910916 0.011860043
-0.01599575 0.036257036 0.013211191
-0.014877154 0.036130231 0.014679819
-0.013615143 0.035608836 0.015474528
-0.01275973 0.036152571 0.016575426
-0.011655834 0.036027126 0.017534763
-0.010442629 0.035504941 0.017981589
-0.0094519462 0.035707355 0.018033504
-0.0083992574 0.035696846 0.01766032
-0.007342889 0.03566546 0.017477781
-0.0063134772 0.035776369 0.017217636
-0.0052374136 0.035614412 0.016903579
-0.0041966089 0.035671178 0.01484257
-0.0032107711 0.03638874 0.012874901
-0.0021479593 0.036515307 0.0095893741
-0.0010803691 0.036732547 0.0082885921
0 0.037362706 0.0069856942
0.0010730176 0.036482599 0.0065208077
0.0021591384 0.036705352 0.0064362884
0.0032829477 0.037206743 0.0064362884
0.0043254066 0.036765955 0.0062786341
0.0054151122 0.036822766 0.0067967772
0.0064129853 0.036340252 0.0076400042
0.0074483459 0.03617768 0.0091419518
0.008554277 0.036355678 0.010488749
0.0096684285 0.036525175 0.011245102
0.010681936 0.036318585 0.011894882
0.011748696 0.036314152 0.012646705
0.012729852 0.036067914 0.012646705
0.013680665 0.035780199 0.012674838
0.014783646 0.035903141 0.012730539
0.015938375 0.036126982 0.012718499
0.016938107 0.035993479 0.012362093
0.018329248 0.036658496 0.012465417
0.019207587 0.036281001 0.011974841
0.020319631 0.036361445 0.011296272
0.02179428 0.037050277 0.010815561
0.022488656 0.036410201 0.01087296
0.023575094 0.036434237 0.010585129
0.0246893 0.036497228 0.010447443
0.025709512 0.036421809 0.010349363
0.026808525 0.036459591 0.010163933
0.027933219 0.036528058 0.0098495781
0.028889893 0.036379866 0.009819299
0.02990219 0.036309805 0.0094228685
0.031268701 0.036659855 0.0091484785
0.032010235 0.036278266 0.0090377629
0.033502929 0.036745146 0.0082592368
0.034551751 0.036711238 0.007361412
0.036157884 0.037253577 0.0060100853
-0.043994773 0.03755651 0.0074667633
-0.042917896 0.037553158 0.008884877
-0.041546214 0.037285067 0.010189325
-0.040256113 0.037078001 0.010487825
-0.039165497 0.03704844 0.010975271
-0.038368177 0.037302393 0.011302769
-0.037467279 0.037467279 0.01131025
-0.036338665 0.037407447 0.011324853
-0.03509336 0.037220232 0.011452854
-0.034350645 0.037571017 0.0117037
-0.03257772 0.036781292 0.011641443
-0.032010689 0.037345804 0.011162698
-0.03131124 0.037789423 0.011044443
-0.029797412 0.037246764 0.010424763
-0.028549915 0.037009146 0.010066509
-0.027919386 0.037583787 0.0094035864
-0.026642149 0.037299007 0.0089762807
-0.02555705 0.037270699 0.0087490678
-0.02477609 0.037702743 0.00812608
-0.023783563 0.037837487 0.0080092549
-0.022678759 0.037797932 0.0079630911
-0.021471726 0.037575521 0.0079724491
-0.020645004 0.03803027 0.0082527101
-0.019640399 0.038189664 0.0085954964
-0.018229384 0.037531082 0.0095152557
-0.017001497 0.037190773 0.011777312
-0.015872145 0.037035003 0.013101727
-0.014775387 0.036938466 0.014337808
-0.013695104 0.036871433 0.015368581
-0.012802175 0.03733968 0.0165627
-0.01155716 0.03677278 0.01750508
-0.010504763 0.036766671 0.017991155
-0.0095313611 0.037066404 0.018081605
-0.0084261261 0.036864303 0.017837971
-0.0073493952 0.036746975 0.017577916
-0.0062986426 0.03674208 0.017309517
-0.0052205003 0.036543503 0.017018467
-0.0042280247 0.036995217 0.015363634
-0.0031891281 0.037206493 0.012949049
-0.0021425188 0.037494078 0.0095893741
-0.0010829321 0.037902623 0.0076044798
0 0.037843209 0.0060184896
0.0010820209 0.037870731 0.0058861673
0.0021973087 0.038452901 0.0061960816
0.0032554581 0.037980344 0.0060465336
0.0043303119 0.037890229 0.0058721602
0.0054145614 0.037901931 0.0062574446
0.0064039598 0.037356433 0.0070738792
0.007432723 0.037163615 0.0082722604
0.0085558491 0.03743184 0.0090599656
0.0096669067 0.037593529 0.010342628
0.010697868 0.037442539 0.011040837
0.011732157 0.037329592 0.011699915
0.012748988 0.037184548 0.01172623
0.013714835 0.036924556 0.01172623
0.014703996 0.036759991 0.01172623
0.015832081 0.036941525 0.01172626
0.017120944 0.037452064 0.011277586
0.018103514 0.037271939 0.011386156
0.019350942 0.037626836 0.011407465
0.020557389 0.037868872 0.010820121
0.021556662 0.03772416 0.010485232
0.02269532 0.037825532 0.010218829
0.023771552 0.03781838 0.0099116862
0.024550131 0.037358895 0.0097631216
0.02593396 0.037820358 0.0094919801
0.026766434 0.037473004 0.0093950629
0.027552171 0.03708946 0.0091554224
0.028973738 0.037558544 0.0089548528
0.030012893 0.037516117 0.0087254047
0.031156626 0.037602823 0.0082861185
0.032335974 0.037725303 0.0080717802
0.033430088 0.037743647 0.0074283183
0.03466842 0.037918583 0.0063252151
-0.044289865 0.038888659 0.0061775148
-0.04264506 0.038380552 0.0079799294
-0.041834187 0.038616173 0.0093508065
-0.040672366 0.038531713 0.010285497
-0.039201703 0.038142193 0.010531783
-0.038333669 0.038333669 0.010981739
-0.037482385 0.038553309 0.011216104
-0.036223736 0.038354542 0.011225909
-0.035079695 0.038268756 0.011371315
-0.034157153 0.038426794 0.011350483
-0.03315248 0.03849965 0.011114866
-0.032076355 0.038491625 0.010561883
-0.031023329 0.038511716 0.010289937
-0.029785795 0.038296022 0.0098959804
-0.028730165 0.038306884 0.0096078813
-0.027716305 0.038376421 0.0092223883
-0.026825724 0.03862904 0.008549571
-0.025848251 0.038772374 0.0082218051
-0.024774838 0.038778003 0.0077020228
-0.023596909 0.038613122 0.0078082681
-0.022635572 0.038803834 0.0077116787
-0.021450026 0.038610049 0.0077567995
-0.0205644 0.038964123 0.0079272687
-0.019442793 0.038885586 0.0084227324
-0.01808303 0.038293473 0.0093012452
-0.017053101 0.038369477 0.011437923
-0.015936019 0.038246442 0.01277706
-0.014743248 0.037911206 0.013935596
-0.013777313 0.038152557 0.015244961
-0.012653672 0.037961017 0.016289055
-0.011610711 0.037998691 0.017382562
-0.010616591 0.038219728 0.018006563
-0.0093735307 0.037494123 0.01825276
-0.0083786119 0.037703753 0.017917186
-0.0073401276 0.037749227 0.017477781
-0.0062976205 0.03778572 0.017215371
-0.0052363547 0.037701752 0.016924858
-0.004192844 0.037735596 0.015321612
-0.0031654707 0.037985645 0.014010191
-0.0021473914 0.038653042 0.0095818043
-0.0010904672 0.039256819 0.0075708032
0 0.039012074 0.0055134892
0.0011078359 0.03988209 0.0052771568
0.002190995 0.039437909 0.0053174794
0.0032691341 0.039229609 0.0053707957
0.0044005313 0.039604779 0.0055151582
0.0053714686 0.038674574 0.005595088
0.0064677675 0.038806606 0.0063073933
0.0075135464 0.038641091 0.0075024664
0.0086229425 0.038803238 0.0088192225
0.009676801 0.038707204 0.0094741285
0.010808438 0.038910378 0.010857642
0.011736922 0.038411744 0.011187643
0.01275784 0.038273517 0.011277586
0.013746538 0.038067337 0.01128006
0.014868154 0.038232394 0.011275679
0.015861372 0.038067292 0.011277586
0.017119123 0.038518023 0.01123935
0.018155236 0.038446378 0.011330634
0.019129377 0.038258754 0.011307478
0.020067636 0.038022887 0.010913432
0.021577403 0.038839322 0.01027143
0.022596093 0.038736157 0.0099820495
0.02344349 0.038362075 0.0095998645
0.024904527 0.038980994 0.0095146894
0.025760956 0.038641434 0.0090947151
0.026786325 0.038572304 0.0087641478
0.028026715 0.038806219 0.0083787739
0.029055735 0.038740978 0.0080745816
0.029897755 0.038439967 0.0080082715
0.031367622 0.038939115 0.0073286295
0.032494232 0.038993075 0.0069106221
0.033633005 0.039057679 0.0061745942
-0.042865094 0.039650213 0.0062752962
-0.041292161 0.039174616 0.0079396665
-0.040364638 0.039302412 0.0097825527
-0.039479248 0.039479248 0.0097974539
-0.038442627 0.039510481 0.01010114
-0.037219923 0.039346781 0.010350376
-0.036456265 0.039672997 0.010350376
-0.035341397 0.039625205 0.010350376
-0.034521341 0.039915301 0.01045993
-0.033298906 0.039743856 0.010312915
-0.032194477 0.039706521 0.01004687
-0.031107666 0.039689094 0.0096287131
-0.030036876 0.03969159 0.0094833374
-0.028951051 0.039673664 0.0088274181
-0.027851842 0.039635316 0.0084190965
-0.026865127 0.039760388 0.008136332
-0.025720237 0.039652035 0.0078221262
-0.024826413 0.039938144 0.0073332191
-0.02377698 0.039988559 0.0075735748
-0.022697952 0.039991628 0.0074283183
-0.021760521 0.040256966 0.007486552
-0.020685358 0.040282015 0.0077138543
-0.019505003 0.040093623 0.0079481304
-0.018290356 0.039808422 0.0088805258
-0.016887145 0.039051522 0.011038095
-0.015859609 0.039120372 0.012613475
-0.014905573 0.039393302 0.013839275
-0.01365192 0.038855467 0.015173316
-0.012623868 0.038923595 0.016122729
-0.01162945 0.039117247 0.01698783
-0.010500686 0.038852543 0.017910779
-0.0095254714 0.039160274 0.018059105
-0.0084160538 0.038924251 0.017711997
-0.0073172203 0.038676739 0.017297506
-0.0063111307 0.038918644 0.017183959
-0.0052205995 0.038632441 0.01678881
-0.0041948105 0.038801998 0.015954912
-0.0031764116 0.039175745 0.01404801
-0.0021401055 0.039591953 0.0099513233
-0.0010822059 0.040041622 0.0072985291
0 0.040659532 0.0053403974
0.0010968385 0.040583026 0.0050543547
0.0021897708 0.040510762 0.0050012171
0.0032598339 0.040204618 0.0050661564
0.005408199 0.040020674 0.0051636994
0.0065577338 0.04043936 0.0054752529
0.007513972 0.039716709 0.0064559579
0.008622935 0.039881077 0.0077021718
0.0098570827 0.040523563 0.0089001656
0.010847876 0.040137142 0.010230035
0.011865791 0.039912209 0.010801941
0.012859828 0.039651137 0.01092273
0.01389569 0.039549273 0.010963529
0.014820621 0.039168786 0.011235088
0.015816834 0.039014861 0.011239469
0.017036632 0.039397214 0.011253357
0.018183105 0.039574992 0.011165947
0.019118506 0.039299157 0.011159867
0.020285502 0.039503347 0.010399252
0.021655004 0.040061764 0.0099048615
0.022576986 0.039778501 0.0094961226
0.023867676 0.040141094 0.0090503991
0.025009053 0.040231954 0.0090416372
0.025707144 0.039631851 0.0085518658
0.026974203 0.039921824 0.0084118843
0.027651776 0.039350607 0.0081073642
0.029067183 0.039832808 0.0072970688
0.030523613 0.040334776 0.0065974891
0.031327195 0.03996918 0.0059816539
0.032254416 0.039780449 0.0050953329
-0.041638464 0.04057081 0.0066020489
-0.040513802 0.040513802 0.0077450573
-0.039492518 0.040559884 0.0089162886
-0.038466416 0.04060344 0.0094180405
-0.037511896 0.040727202 0.0096582472
-0.036482818 0.040774915 0.0096582472
-0.035405114 0.040769529 0.0095602572
-0.034528859 0.041003019 0.0099923015
-0.03313737 0.040619999 0.009875387
-0.032237887 0.040834654 0.0094811618
-0.031421792 0.04117338 0.0094282627
-0.029860375 0.040524796 0.0089412332
-0.029003225 0.040819354 0.0083658099
-0.028166691 0.041166704 0.007886827
-0.026989168 0.041023534 0.0078003407
-0.025791362 0.040836323 0.0066897869
-0.024703579 0.040814608 0.0064618886
-0.0237008 0.040937748 0.0066797137
-0.022641772 0.040970825 0.0068201423
-0.021782154 0.041386094 0.0071119368
-0.02085568 0.04171136 0.0073628426
-0.019589989 0.041356646 0.0076888204
-0.018243844 0.040780354 0.0083962381
-0.017083144 0.040572468 0.0095377266
-0.016041549 0.040638592 0.012038678
-0.01470847 0.03992299 0.013395786
-0.013738666 0.040159177 0.014667988
-0.012688651 0.040180728 0.015783131
-0.011488584 0.039687838 0.016997665
-0.010512205 0.039946381 0.017703265
-0.0095270826 0.040225461 0.01803115
-0.0083956504 0.039879337 0.017669708
-0.0073652281 0.039982665 0.017294645
-0.006294006 0.039862037 0.017187059
-0.005246094 0.039870314 0.016827792
-0.0041991775 0.039892185 0.015816599
-0.0031754919 0.040222898 0.014573008
-0.0021399723 0.040659476 0.010229856
-0.0010862037 0.04127574 0.0076022148
0 0.041282788 0.0052237809
0.0022034661 0.041865859 0.0051746368
0.0065059545 0.041204382 0.0053239167
0.0075653335 0.041068953 0.0059123933
0.0086107366 0.040900998 0.0069561899
0.0096925758 0.040924214 0.0082310438
0.010733093 0.040785756 0.0089599192
0.01174356 0.040568665 0.010215402
0.012869949 0.04075484 0.010344803
0.013856184 0.040502694 0.010645986
0.014812936 0.04020654 0.011123985
0.015906885 0.040297441 0.010849446
0.017016182 0.040413432 0.011084229
0.018172704 0.040621337 0.011117697
0.018975446 0.04005928 0.010929018
0.020302691 0.040605381 0.010258287
0.021277735 0.0404277 0.0097714365
0.022618858 0.040929362 0.0091062188
0.023872815 0.041234866 0.0086856186
0.024750972 0.04089291 0.008610487
0.02600223 0.041170198 0.0082099438
0.026904348 0.040894609 0.0076758862
0.028308438 0.041373871 0.0068815053
0.029034294 0.040863082 0.0059812069
0.030070623 0.040810134 0.0050957799
-0.040641986 0.041711509 0.0060689151
-0.039688896 0.041834239 0.0070802569
-0.038696688 0.041921414 0.00763309
-0.037431072 0.041708909 0.0086893737
-0.036307644 0.041647002 0.0086893737
-0.035588346 0.042058952 0.0079932511
-0.034226425 0.041713458 0.0084756315
-0.033587202 0.042254865 0.0084756315
-0.032738607 0.04256019 0.007771343
-0.031072041 0.041786537 0.0076633692
-0.03033641 0.042254284 0.0077032149
-0.029259562 0.04226381 0.0073185563
-0.02793169 0.041897535 0.0068919063
-0.026967617 0.04206948 0.0067124963
-0.025475549 0.041397765 0.0055969357
-0.02473673 0.041944887 0.0058601499
-0.023787152 0.042168133 0.0060907006
-0.022666935 0.042095736 0.0062049925
-0.021543011 0.042008873 0.0062805116
-0.020914067 0.042928871 0.0070547163
-0.019448915 0.042139318 0.0073628426
-0.018270424 0.0419145 0.00800246
-0.017280886 0.042122159 0.0090238452
-0.015940396 0.041445028 0.01160416
-0.014805162 0.041242953 0.013037324
-0.013800054 0.041400161 0.014337957
-0.012553145 0.040797722 0.015502274
-0.011579939 0.041056149 0.016516149
-0.010548529 0.041139264 0.017619729
-0.0093593579 0.040557221 0.017701715
-0.0084232595 0.041063387 0.01753962
-0.0073010349 0.040677194 0.017294645
-0.0062917769 0.04089655 0.017139643
-0.005264869 0.04106598 0.016779244
-0.0042083715 0.041031621 0.015815467
-0.0031743706 0.041266818 0.014788717
-0.0021301166 0.041537274 0.012068659
-0.0010765988 0.041987352 0.0084936917
0 0.042849008 0.005209595
0.0075656543 0.042151503 0.0053551793
0.0085815024 0.04183482 0.0061499178
