ply
format ascii 1.0
comment PCL generated
element vertex 1299
property float x
property float y
property float z
element camera 0
property float view_px
property float view_py
property float view_pz
property float x_axisx
property float x_axisy
property float x_axisz
property float y_axisx
property float y_axisy
property float y_axisz
property float z_axisx
property float z_axisy
property float z_axisz
property float focal
property float scalex
property float scaley
property float centerx
property float centery
property int viewportx
property int viewporty
property float k1
property float k2
end_header
0.0052256668 0.056437206 0.013578057
0.0063362056 0.057025854 0.01411441
0.0074304319 0.057320479 0.014479429
0.0085045807 0.057405923 0.014813304
0.0093980599 0.056388363 0.015077889
0.01052867 0.056854818 0.015166074
0.011598065 0.056935962 0.015061349
0.012692133 0.057114601 0.015311003
0.013708714 0.05694389 0.015666544
0.014608133 0.056345657 0.015677541
0.015887495 0.057194982 0.016697049
0.016685175 0.056312468 0.016906738
0.017699521 0.056222007 0.01714623
0.018919038 0.056757119 0.017892569
0.019765986 0.056177016 0.017898083
0.020868998 0.056346301 0.017787665
0.021923641 0.056375079 0.017851174
0.022973891 0.056390464 0.017285019
0.023942702 0.056213301 0.016629219
0.025040898 0.056342024 0.016005397
0.026329149 0.05687096 0.015896976
0.027492499 0.057099808 0.015605927
0.028558305 0.057116609 0.015212834
0.02967687 0.057233967 0.014773995
0.030516418 0.056823675 0.014523387
0.03166607 0.056998927 0.014161229
0.032829445 0.057186779 0.013779104
0.034153745 0.057634447 0.01356563
0.034868252 0.057057139 0.012738824
0.036349505 0.057731569 0.012125432
0.037604589 0.058018513 0.011968493
0.037819095 0.056728646 0.01162073
0.039324101 0.05739193 0.011435419
0.04082121 0.058009084 0.010797769
0.041240558 0.057102311 0.010104775
0.042913236 0.057932869 0.0092105865
0.044039328 0.05800302 0.0078539848
0.044587124 0.057326302 0.0059528351
-0.064979345 0.0595644 0.0060858428
-0.064014398 0.059674442 0.0070552826
-0.060967822 0.057814315 0.0081434548
-0.060349908 0.058232367 0.0086481571
-0.059783749 0.058716185 0.009965241
-0.05858437 0.05858437 0.010065734
-0.057706222 0.058774851 0.010229051
-0.056478091 0.05860934 0.010771573
-0.055205703 0.058390651 0.011217833
-0.054127265 0.058372542 0.011555701
-0.053232007 0.058555208 0.012153924
-0.052194726 0.058585919 0.012792051
-0.051746298 0.059292633 0.013184696
-0.049819861 0.058299839 0.013453454
-0.049173921 0.058794905 0.013478428
-0.048029028 0.058702145 0.013428926
-0.046490841 0.058113553 0.013620675
-0.044766918 0.05726001 0.013579041
-0.044579946 0.058378499 0.012878835
-0.04328062 0.058059368 0.012278706
-0.042653762 0.058648925 0.012010813
-0.041693546 0.058798593 0.011611849
-0.040862527 0.059143133 0.011209697
-0.039909787 0.059325356 0.011209697
-0.03846287 0.058762718 0.011037737
-0.036913864 0.058007505 0.011237293
-0.035813507 0.057933614 0.01175034
-0.034896404 0.058160674 0.011911273
-0.034140468 0.058678932 0.012555122
-0.033057526 0.058650449 0.01303485
-0.031642888 0.058011964 0.013129085
-0.030972799 0.058741514 0.013025403
-0.029651808 0.058244623 0.012992829
-0.028421864 0.057896391 0.012746453
-0.027801516 0.058810901 0.011955559
-0.026768044 0.058889695 0.012102365
-0.025323447 0.0580329 0.011635453
-0.024464602 0.058502305 0.010724097
-0.02355409 0.058885228 0.010070115
-0.02222544 0.058209483 0.009514153
-0.02151967 0.059179097 0.0092863739
-0.02032231 0.058827739 0.0092695355
-0.019491697 0.059557967 0.0092746615
-0.018748356 0.060656447 0.0094769299
-0.017231055 0.059231751 0.010016531
-0.016142063 0.059187565 0.010387778
-0.015003875 0.058943797 0.012105793
-0.013557361 0.057358067 0.014677435
-0.012563267 0.057581641 0.016777694
-0.011547694 0.057738472 0.016734123
-0.010311374 0.05671256 0.016844004
-0.0094003538 0.05744661 0.017298937
-0.0083302157 0.057270233 0.01711148
-0.0072499542 0.056963928 0.01662758
-0.0063141556 0.057879761 0.016476244
-0.005301537 0.058316909 0.01615563
-0.0042094532 0.057879984 0.015048593
-0.0031567954 0.057874583 0.014067799
-0.0021039585 0.057858858 0.013646245
-0.0010515057 0.057832811 0.013072938
0 0.058411088 0.012358069
0.0010387598 0.05713179 0.01273036
0.0021066165 0.057931952 0.012876242
0.0031770915 0.05824668 0.013270527
0.0041461498 0.057009563 0.013693839
0.005207309 0.057280403 0.013994515
0.0062206555 0.057022676 0.014771789
0.0072630607 0.057066906 0.015401661
0.0083679026 0.057529327 0.015382469
0.0095090596 0.058110926 0.015188426
0.010641097 0.058526035 0.015338451
0.011614117 0.058070589 0.015354067
0.012653113 0.057993438 0.01542902
0.013708059 0.057995636 0.01567474
0.014873715 0.058432452 0.016598672
0.015701998 0.057573996 0.017111808
0.016676709 0.05732619 0.017210126
0.017802371 0.057595909 0.017674655
0.018705251 0.057154935 0.017904848
0.01962067 0.056796677 0.017958492
0.020951331 0.057616159 0.017848074
0.02181625 0.057137795 0.017935753
0.023124145 0.057810362 0.017451435
0.024255145 0.058001433 0.016621113
0.02499927 0.057289995 0.016058058
0.026320377 0.057904828 0.015659004
0.027342284 0.057839446 0.015586287
0.028864505 0.058798064 0.015450388
0.029837418 0.058609214 0.014778107
0.030915139 0.058632158 0.014174402
0.0319953 0.058658052 0.013809562
0.033085536 0.058700144 0.013592362
0.033562373 0.057685327 0.01276201
0.035285819 0.058809701 0.012120426
0.036587123 0.05918505 0.01162073
0.037210863 0.058474213 0.011121094
0.038458534 0.058756098 0.010558993
0.040021073 0.059490781 0.010169119
0.041006505 0.059351522 0.0097845793
0.042139091 0.059426922 0.009008646
0.04311543 0.059283718 0.0078796744
0.044101141 0.059160065 0.006655246
-0.063732192 0.060491573 0.0064108372
-0.062389713 0.060238343 0.0075329542
-0.062064577 0.060975727 0.0080329776
-0.059877675 0.059877675 0.0091154575
-0.058531892 0.059596106 0.010005146
-0.057602894 0.059736334 0.010240525
-0.056471884 0.059668407 0.010563433
-0.055598326 0.059875119 0.010893553
-0.054411627 0.059746101 0.011149734
-0.052950479 0.059304535 0.011968076
-0.052426904 0.059916463 0.012581229
-0.050946034 0.05943704 0.013087541
-0.049921542 0.059480984 0.013367385
-0.049118761 0.059796751 0.013453454
-0.04764289 0.059288926 0.013184696
-0.04634314 0.058982179 0.01327008
-0.045343142 0.059051532 0.013129026
-0.044209249 0.058945663 0.012576133
-0.043504972 0.059421424 0.011940211
-0.043076865 0.060307615 0.011770695
-0.04205456 0.060386032 0.011808008
-0.041081775 0.060541563 0.011107594
-0.039684944 0.060063697 0.011164725
-0.038475871 0.059851356 0.011342406
-0.03696667 0.059146676 0.011677384
-0.035942573 0.059199531 0.012227595
-0.034924328 0.059265532 0.012383074
-0.034088474 0.059654828 0.012597203
-0.032674916 0.059025649 0.013004184
-0.03175503 0.059276056 0.012884587
-0.030901179 0.059671242 0.0128887
-0.029854301 0.059708603 0.013129085
-0.028639989 0.059401456 0.012356102
-0.027588407 0.059421185 0.012242496
-0.02631899 0.058954533 0.012222528
-0.025397323 0.059260424 0.011926174
-0.024525637 0.059714593 0.011054248
-0.0234612 0.059719421 0.010527223
-0.022412924 0.059767794 0.0096912682
-0.021181852 0.059309188 0.0092877448
-0.020279882 0.059772283 0.0097061992
-0.019579548 0.060914155 0.0099077821
-0.018519418 0.061005142 0.010070115
-0.01728216 0.060487557 0.010710776
-0.016247915 0.060658883 0.011445701
-0.014767272 0.05906909 0.013424069
-0.013698692 0.059009746 0.015886366
-0.012669818 0.059125818 0.017633766
-0.011357847 0.057821766 0.017843485
-0.010364614 0.058041841 0.01785478
-0.0094351918 0.058707859 0.017884374
-0.008369403 0.058585823 0.017646909
-0.0072884848 0.058307879 0.017487019
-0.0062949802 0.058753148 0.016499996
-0.0053078854 0.059448317 0.016241282
-0.0042135762 0.058990069 0.015206367
-0.0031376057 0.058568642 0.014280885
-0.0020963587 0.05869804 0.013858497
-0.0010404595 0.058265731 0.013303876
0 0.058198277 0.013102412
0.001053503 0.058996167 0.01308015
0.0021185807 0.05932026 0.013715684
0.0031457578 0.058720812 0.013641566
0.0041836258 0.058570765 0.013757586
0.00525324 0.058836289 0.014511466
0.0062467968 0.058303438 0.015056878
0.007383157 0.059065256 0.015373081
0.0083964514 0.058775157 0.015399843
0.0093808565 0.058369778 0.015483201
0.010559604 0.059133783 0.015659064
0.011699147 0.059559293 0.015413374
0.012692272 0.059230603 0.015721798
0.013698692 0.059009746 0.016357839
0.014648985 0.05859594 0.016802102
0.015576274 0.058151424 0.017224789
0.016745381 0.05860883 0.017384589
0.017652731 0.058150172 0.017674655
0.018970368 0.059018929 0.017787665
0.019891361 0.05862717 0.01779443
0.020841688 0.058356728 0.017759234
0.02213938 0.059038345 0.017813504
0.023032727 0.05862876 0.01725921
0.024008418 0.058455274 0.016495526
0.025303286 0.059040997 0.016061306
0.026010098 0.05826262 0.015698642
0.027466197 0.05915796 0.015427768
0.028833579 0.059802979 0.015083581
0.030078642 0.060157284 0.01467368
0.030639172 0.059165295 0.014143467
0.031888723 0.059525613 0.013158888
0.032915693 0.059460603 0.012575239
0.033957485 0.059425596 0.011855781
0.035196431 0.059727278 0.0113478
0.035662282 0.058737878 0.010799408
0.037297256 0.059675612 0.01027596
0.038495354 0.059881665 0.0099347234
0.039520297 0.059814502 0.0093281269
0.041554689 0.06123849 0.0088216364
0.042333517 0.060786586 0.0078320205
0.043600876 0.061041225 0.0067099631
-0.063113682 0.06202551 0.0060873628
-0.060299076 0.060299076 0.0072566867
-0.060239065 0.061314762 0.0078101754
-0.05895612 0.061099976 0.0087837577
-0.057906408 0.061123427 0.0097443461
-0.05672548 0.061006647 0.010007024
-0.055806667 0.06117269 0.010352731
-0.0541915 0.060566969 0.010635167
-0.053402711 0.060879085 0.011117756
-0.052420769 0.060979262 0.011797756
-0.051555902 0.061222631 0.01223889
-0.050434306 0.061165009 0.012569398
-0.048817798 0.060491618 0.012905508
-0.047896575 0.060668994 0.012554824
-0.04645931 0.060185924 0.012458175
-0.045224376 0.05994859 0.01240328
-0.044489156 0.060378138 0.012258828
-0.044071179 0.061269686 0.011656582
-0.0430669 0.061370336 0.011580139
-0.042651754 0.062337179 0.011583626
-0.041179586 0.061769381 0.011808008
-0.039477814 0.060817167 0.011894733
-0.038187753 0.060463943 0.011963636
-0.0369666 0.060202748 0.01212275
-0.035733879 0.059906796 0.012552708
-0.035108883 0.060642615 0.01284495
-0.033520225 0.059707902 0.013362736
-0.032674864 0.060079586 0.01360333
-0.031890385 0.060591731 0.013583213
-0.030366706 0.059686281 0.013244331
-0.029574225 0.060204674 0.012815744
-0.028839905 0.060884241 0.012525022
-0.02751155 0.06031378 0.01221472
-0.02661418 0.06068033 0.012285799
-0.025403025 0.060332183 0.011955559
-0.024456181 0.060608793 0.011410952
-0.023301929 0.06037318 0.010487795
-0.022314034 0.060566664 0.010055661
-0.021131128 0.060223714 0.0098194778
-0.020354221 0.06106266 0.010223031
-0.019686764 0.062341418 0.010455728
-0.018336667 0.061481763 0.010677159
-0.017207665 0.061302308 0.011605054
-0.0158704 0.060307518 0.012804657
-0.01474274 0.060024016 0.013930589
-0.013663366 0.059908602 0.015792221
-0.01252569 0.059497025 0.017802924
-0.011479371 0.059484016 0.017751485
-0.010473878 0.059701107 0.018200696
-0.0093102604 0.058964983 0.018036455
-0.0083341571 0.05938087 0.017791331
-0.0073476476 0.059830844 0.017744035
-0.0063185147 0.060025889 0.017020136
-0.0053084623 0.060516473 0.016247928
-0.0042439895 0.060476851 0.015096635
-0.0031441257 0.059738386 0.014093161
-0.002109034 0.06010747 0.013783246
-0.0010496974 0.059832752 0.01335457
0 0.059705626 0.013303876
0.0010557943 0.060180277 0.01351881
0.002114346 0.060258862 0.013555914
0.0031551723 0.059948277 0.013713121
0.0042413338 0.060439005 0.013815731
0.0052692275 0.060069196 0.014985979
0.0063518328 0.060342412 0.015939981
0.0074308794 0.060508586 0.015950918
0.0085002519 0.060564291 0.015958995
0.0095394719 0.060416661 0.015907288
0.010470861 0.059683908 0.015924335
0.011533801 0.059766062 0.015977561
0.012672676 0.060195211 0.016524136
0.013616305 0.059702259 0.01649341
0.014781593 0.060182199 0.016829967
0.015766341 0.059912093 0.01714623
0.016706781 0.059517905 0.017111808
0.017779922 0.059615035 0.016956717
0.019031117 0.060265202 0.017174661
0.019575156 0.058725465 0.017287642
0.020968338 0.059759766 0.017174661
0.022154521 0.060133699 0.017240137
0.022808628 0.059095081 0.016693801
0.024012607 0.059509505 0.01594907
0.025116671 0.059652094 0.015711039
0.026308408 0.059983168 0.01550591
0.027375285 0.060015045 0.015274942
0.028460989 0.060084306 0.014857024
0.029607948 0.060273323 0.0144687
0.030888792 0.060712449 0.013573527
0.032188375 0.061157912 0.012806803
0.033034973 0.060741723 0.012208521
0.0342982 0.061093669 0.011178613
0.034942102 0.060354538 0.010626554
0.036382213 0.060993705 0.0099191964
0.037467569 0.061018616 0.0092382431
0.03789553 0.060001262 0.0086345375
0.039720252 0.061190657 0.0079706907
0.041328035 0.061992053 0.0076051056
0.042640038 0.062320054 0.0066468716
-0.05990361 0.062043026 0.0066099167
-0.058994938 0.062212843 0.0077361465
-0.058399931 0.062725849 0.0087303519
-0.056693163 0.062041577 0.0090719759
-0.055874486 0.062321544 0.0099821389
-0.054377291 0.061840843 0.01022616
-0.053144645 0.061647788 0.010584533
-0.053077716 0.062826693 0.011252105
-0.051647305 0.062407162 0.011683643
-0.04978855 0.061441191 0.012222737
-0.048640862 0.061329786 0.012368828
-0.047696404 0.061475363 0.011713833
-0.046382435 0.061140485 0.01174289
-0.045858856 0.061856136 0.01177907
-0.045038342 0.062195808 0.011696041
-0.043698907 0.061817966 0.011330247
-0.043027867 0.062390413 0.011204183
-0.042606425 0.063363403 0.011627018
-0.040825043 0.06231191 0.011936247
-0.03946181 0.061859049 0.011847913
-0.038118154 0.061412584 0.012302577
-0.036922123 0.061185233 0.012561828
-0.036001481 0.061414294 0.013311803
-0.03495767 0.061440755 0.013413727
-0.033941623 0.061519194 0.013597608
-0.032892849 0.061541457 0.013961554
-0.031565085 0.061025836 0.014140069
-0.03069295 0.0613859 0.013831228
-0.029774565 0.061675888 0.01329875
-0.028707871 0.061668757 0.012730032
-0.027650647 0.061682217 0.01244536
-0.026624421 0.061768658 0.012235671
-0.025443267 0.061487898 0.012203068
-0.024396328 0.061521176 0.01136753
-0.023424989 0.06175679 0.011064351
-0.022360619 0.061757904 0.010535926
-0.021102009 0.061195835 0.010272563
-0.020522298 0.062647015 0.01049757
-0.019816572 0.063853405 0.010628283
-0.018405044 0.06279368 0.011461377
-0.016984547 0.061568983 0.011695206
-0.015992362 0.061837133 0.013073772
-0.014821988 0.061405379 0.01422599
-0.013526835 0.0603505 0.01698935
-0.012592218 0.060862392 0.018339306
-0.011429548 0.060264893 0.018430322
-0.01035859 0.060079824 0.018241137
-0.0093515078 0.060265277 0.018161982
-0.0083756298 0.060723316 0.017984152
-0.0073192976 0.06064561 0.017731994
-0.0063285995 0.061176464 0.016916126
-0.0052369013 0.060748063 0.016126454
-0.00423091 0.0613482 0.015163541
-0.0032103616 0.062066995 0.014200985
-0.0021122743 0.061255954 0.013669044
-0.0010601899 0.061491016 0.013278008
0 0.062135201 0.013328105
0.0010669484 0.06188301 0.013733208
0.0021500494 0.062351435 0.013806969
0.0032130769 0.062119491 0.013984472
0.0042774938 0.062023662 0.01414299
0.0053394795 0.061937965 0.015060186
0.0064078835 0.061942875 0.015421301
0.0073868735 0.061205525 0.01603502
0.0084900204 0.061552648 0.016460568
0.0094264364 0.060748152 0.016303927
0.010373672 0.060167298 0.016063333
0.011499884 0.060635753 0.016387314
0.012480751 0.06032363 0.017022252
0.013613868 0.060738795 0.017155915
0.014751908 0.061115053 0.017582834
0.015872058 0.061371956 0.017492294
0.016759757 0.060754124 0.017258435
0.017826973 0.060821433 0.016697049
0.018845383 0.06072402 0.016725481
0.019790465 0.060412996 0.016744941
0.021108037 0.061213311 0.016732275
0.021708872 0.05995784 0.016810775
0.022921253 0.060428765 0.016518235
0.02424529 0.061140295 0.016042948
0.025245203 0.061009247 0.015744507
0.026317252 0.061056025 0.015394181
0.027188759 0.06065185 0.015426815
0.028215291 0.060610626 0.015045702
0.029944813 0.062028542 0.014346868
0.030939067 0.061878134 0.01376155
0.03214822 0.062153231 0.012575239
0.033387125 0.062466238 0.011546493
0.033972427 0.061575022 0.01085645
0.035130344 0.061744243 0.010386586
0.036737498 0.062669851 0.0093184114
0.036837954 0.061045755 0.0086345375
0.038429745 0.061914597 0.0076120794
0.039581876 0.062047262 0.0069343746
0.040847879 0.06234676 0.0059125125
-0.059184603 0.063488938 0.006141156
-0.057727188 0.063072294 0.007730931
-0.056952178 0.063399598 0.0080102384
-0.055997927 0.063536108 0.0088698864
-0.054498542 0.063047335 0.0098143518
-0.053245645 0.06282986 0.010401189
-0.052307803 0.062982865 0.010718733
-0.050645716 0.062252026 0.011255324
-0.05019059 0.063005209 0.011466801
-0.04836452 0.062032752 0.011633635
-0.047369286 0.062106397 0.011217237
-0.046281595 0.062059414 0.010954052
-0.045847785 0.062907428 0.011107445
-0.044679675 0.062764302 0.011182964
-0.044200156 0.0636051 0.011312425
-0.043238331 0.063776538 0.011699468
-0.042101897 0.063692614 0.011340082
-0.04088131 0.063473612 0.012019753
-0.039263323 0.062609084 0.01251173
-0.038098127 0.062438603 0.012893319
-0.036885869 0.062179036 0.013249189
-0.036141973 0.062716953 0.013802528
-0.034719057 0.062073469 0.013693064
-0.033998828 0.062685341 0.013853014
-0.032536205 0.061923742 0.01404044
-0.031562872 0.062073652 0.01404044
-0.031111261 0.063295327 0.013889134
-0.029625786 0.062425766 0.0132581
-0.028648891 0.062603131 0.012884587
-0.027723745 0.062911578 0.012741208
-0.026390655 0.062281944 0.012311041
-0.025539694 0.062785082 0.012007445
-0.024433335 0.062676817 0.011311978
-0.023421928 0.062813357 0.010962158
-0.022326071 0.062725626 0.010869533
-0.021205334 0.062555738 0.010717332
-0.020604271 0.063981682 0.010865986
-0.019920137 0.065293781 0.010873646
-0.018328795 0.063611701 0.01128453
-0.017000658 0.06268993 0.012168854
-0.01606893 0.06320446 0.013454199
-0.014690931 0.061911784 0.014763981
-0.013702272 0.062187236 0.017080128
-0.012741109 0.062643789 0.018134058
-0.011389642 0.061089903 0.01826027
-0.010383831 0.061264608 0.01824823
-0.0093563041 0.061335772 0.018304408
-0.0083755273 0.061769519 0.018013626
-0.0074116737 0.062469825 0.017720461
-0.006313669 0.062084414 0.016927391
-0.0052329167 0.061748419 0.016126454
-0.0042675189 0.062945902 0.015163541
-0.0031970879 0.062876068 0.014200985
-0.0021163442 0.062432151 0.013539016
-0.0010599311 0.062535934 0.013117284
0 0.062952541 0.013194174
0.001079355 0.063681945 0.013557822
0.0021945217 0.064738385 0.013806969
0.0032092126 0.063114516 0.014132053
0.0042438731 0.062597126 0.014211208
0.0053384737 0.062993996 0.015365183
0.0062959357 0.061910037 0.016254067
0.0073272344 0.06175812 0.017001539
0.0084160566 0.062068418 0.017463177
0.0094371773 0.061865941 0.017468631
0.010435694 0.061570596 0.017022252
0.011473219 0.061538178 0.017270386
0.012459646 0.061259929 0.017365307
0.013671704 0.062048502 0.017287761
0.014844542 0.062559143 0.017463535
0.015686443 0.061700013 0.017258435
0.017000658 0.06268993 0.016488433
0.017809331 0.061808858 0.016240478
0.019152142 0.062776469 0.016063482
0.019815452 0.061532196 0.016097903
0.020622121 0.060835261 0.016359448
0.022085706 0.062050316 0.016236752
0.02330929 0.06251128 0.015898287
0.02410089 0.061824024 0.015706211
0.025289673 0.062170446 0.015498012
0.026249165 0.061948027 0.015255421
0.027384104 0.062140856 0.014891475
0.028512381 0.062304828 0.014621288
0.029558389 0.062283747 0.014154166
0.030762285 0.062585339 0.013275713
0.03211873 0.063166834 0.012509346
0.032959454 0.062729284 0.011830896
0.034399088 0.063423313 0.010430664
0.035411496 0.063311465 0.0095893145
0.036035694 0.062532529 0.0088520646
0.037384383 0.063019387 0.0078224242
0.038586982 0.063239783 0.0067211986
0.039627839 0.063190334 0.0051288903
-0.05815519 0.064616874 0.0057227612
-0.05776839 0.065398179 0.0070358217
-0.056338649 0.065006137 0.0075624287
-0.054488178 0.064103737 0.0081983507
-0.054046452 0.064855739 0.0088698864
-0.052517846 0.06430757 0.0093303621
-0.051041447 0.06380181 0.010318488
-0.04971651 0.063467883 0.010637283
-0.047983345 0.062586971 0.010885835
-0.047824226 0.06376563 0.010362148
-0.046890084 0.063941024 0.0097930431
-0.045356862 0.063288644 0.010225475
-0.045074206 0.064391725 0.010776371
-0.044176862 0.06464906 0.011000365
-0.0435156 0.065273404 0.011643112
-0.042304426 0.065083735 0.011267215
-0.040809538 0.064436108 0.012564898
-0.039249159 0.063647285 0.013001591
-0.038099516 0.063499197 0.013121635
-0.036956657 0.063354269 0.013578564
-0.035722353 0.063039444 0.013850272
-0.034714449 0.063117184 0.013779521
-0.033607583 0.063014224 0.013887703
-0.032729466 0.063347347 0.014057964
-0.03189243 0.06378486 0.014322758
-0.03058196 0.06327302 0.01414156
-0.029642014 0.063518599 0.013540417
-0.02870512 0.063789152 0.013023704
-0.027322551 0.063052043 0.012882113
-0.026399145 0.063357942 0.012371987
-0.025563665 0.063909158 0.012007445
-0.024579562 0.064120598 0.0113177
-0.023576368 0.064299189 0.010881066
-0.022177599 0.063364565 0.010817796
-0.021139819 0.063419461 0.010743618
-0.020602515 0.065060571 0.010980189
-0.019714471 0.065714903 0.010980189
-0.01816646 0.064116918 0.011731267
-0.017134273 0.064253524 0.012653798
-0.015868755 0.06347502 0.013618439
-0.014815524 0.063495107 0.015073895
-0.013843025 0.063890882 0.017195374
-0.012487666 0.062438328 0.017981142
-0.011506842 0.0627646 0.018309772
-0.01047892 0.06287352 0.018314868
-0.0093143787 0.062095858 0.018159896
-0.0083435429 0.062576577 0.017986029
-0.0073705725 0.063176334 0.01763615
-0.0063327169 0.063327171 0.016976327
-0.0052891993 0.063470393 0.015881687
-0.0042377468 0.063566208 0.01488632
-0.0031868801 0.063737608 0.013784915
-0.0021281168 0.063843504 0.013161123
-0.0010643697 0.063862182 0.012986451
0 0.06410116 0.012734413
0.001081073 0.064864375 0.012957931
0.002133785 0.064013548 0.013557822
0.0032181756 0.064363517 0.014043838
0.0043002157 0.064503238 0.014235675
0.0052270941 0.062725127 0.015408128
0.0062202075 0.062202074 0.016274989
0.0073330104 0.062854372 0.017339081
0.0083440263 0.062580198 0.017605573
0.0094494801 0.062996536 0.017364979
0.01045963 0.062757783 0.017184347
0.011506842 0.0627646 0.017287761
0.012482602 0.062413011 0.017293841
0.013644798 0.062975988 0.017270386
0.014787681 0.063375778 0.017270386
0.01586966 0.063478641 0.016662627
0.016621392 0.062330224 0.015696824
0.017970836 0.06342648 0.015571773
0.019268805 0.064229354 0.015633285
0.020048598 0.063311361 0.01564905
0.020982025 0.062946074 0.01575768
0.022120692 0.063201971 0.015922844
0.02303458 0.062821582 0.015872121
0.023992455 0.062589012 0.01556918
0.025436532 0.063591331 0.015286952
0.026341969 0.063220724 0.01504755
0.027513431 0.063492537 0.014901966
0.028448446 0.063218765 0.014337689
0.02973971 0.063727945 0.013767749
0.030463351 0.06302762 0.012858272
0.031993456 0.063986912 0.012311667
0.033286758 0.064425983 0.010894686
0.034634799 0.064940244 0.0099953711
0.034978233 0.063596785 0.0093184114
0.036496662 0.064405873 0.0084213614
0.037734646 0.064687967 0.007319808
0.037928693 0.063214488 0.0058057606
-0.058238395 0.067029096 0.0053970218
-0.056691241 0.066503182 0.0064137876
-0.055465735 0.06634137 0.0072693825
-0.053919092 0.065781288 0.0077364147
-0.052528039 0.065392047 0.0080102384
-0.05148831 0.065433063 0.0088586509
-0.049763106 0.064586155 0.0091221631
-0.04883644 0.064761363 0.009254843
-0.048092533 0.065192096 0.0085754991
-0.046538096 0.06451872 0.0090385675
-0.045927949 0.065153606 0.0086255074
-0.045634393 0.066278517 0.0096108615
-0.04401809 0.065490328 0.010300219
-0.04372042 0.066673636 0.010946721
-0.04206429 0.065792866 0.011183441
-0.040327072 0.064735562 0.012203366
-0.039188128 0.064607456 0.012923598
-0.038074739 0.064515531 0.012961358
-0.036875837 0.064269319 0.013501346
-0.035780724 0.064194828 0.013779521
-0.034913845 0.064537711 0.013858557
-0.033858683 0.064543113 0.014022022
-0.032864626 0.064669102 0.014340281
-0.03159396 0.064241052 0.014805138
-0.030718919 0.064615652 0.014137536
-0.029964497 0.065279797 0.013457358
-0.028519174 0.064432204 0.013287902
-0.027512688 0.064548999 0.012891859
-0.026918871 0.065682046 0.012361765
-0.025541252 0.064917348 0.012170255
-0.02445147 0.064849548 0.01136753
-0.023292251 0.064583056 0.010962158
-0.022144141 0.064323455 0.010925144
-0.02134997 0.065117411 0.010872006
-0.020562883 0.06601768 0.011305213
-0.019619398 0.066487961 0.011457652
-0.018227331 0.065403953 0.012078881
-0.016874496 0.064334013 0.013029128
-0.015890006 0.064619355 0.013864815
-0.01486066 0.064750016 0.015482873
-0.01350113 0.063351452 0.017662823
-0.012540173 0.063745879 0.018191248
-0.011528444 0.063930467 0.018510759
-0.010341271 0.063081749 0.018457919
-0.0093684299 0.063497134 0.018262863
-0.0083206939 0.063445285 0.018016577
-0.0073151127 0.063745983 0.017810315
-0.0063350778 0.064406626 0.016943008
-0.0052760937 0.064368345 0.015591264
-0.0042212321 0.064373791 0.014585674
-0.0032142738 0.065356903 0.013117462
-0.002114913 0.064504847 0.012531132
-0.0010656038 0.06500183 0.012373745
0 0.066049978 0.012202471
0.0010656641 0.065005511 0.012486279
0.0021211819 0.064696044 0.013132215
0.0031853409 0.064768597 0.013621807
0.0041961572 0.063991398 0.01403904
0.0052417377 0.063949205 0.014850557
0.0063531594 0.064590454 0.016152978
0.0073383162 0.063948184 0.017317474
0.0083959075 0.064018793 0.017306536
0.0093619209 0.063453019 0.017068058
0.01045456 0.063772812 0.017020732
0.011434986 0.063412197 0.01704371
0.012562587 0.06385982 0.01704371
0.013724348 0.064398862 0.01681757
0.014819333 0.06456995 0.016753614
0.015957773 0.064894944 0.016167551
0.016935209 0.06456548 0.015749574
0.017936563 0.064360604 0.015618205
0.01869913 0.063369274 0.015414178
0.020116709 0.064585224 0.015357494
0.021364419 0.065161481 0.015458763
0.022016462 0.06395258 0.015641153
0.023277685 0.064542674 0.015694797
0.024326893 0.064519145 0.015729994
0.025337627 0.064399801 0.01535216
0.026285645 0.064136975 0.015182853
0.027609657 0.064776503 0.01478675
0.028238237 0.063797496 0.014885962
0.029550288 0.064377412 0.014223933
0.030375428 0.063893139 0.01303041
0.031518217 0.064087041 0.012312651
0.033527918 0.065974288 0.011171669
0.034435555 0.065642782 0.010078311
0.035355967 0.065354973 0.0091075897
0.036824327 0.066067174 0.007935375
0.0376052 0.065540493 0.0065771937
-0.055353764 0.067292817 0.0053865314
-0.05334001 0.066141613 0.006331414
-0.052869134 0.066895641 0.007093668
-0.050937895 0.065794781 0.0079647601
-0.050473273 0.066581763 0.0082477033
-0.049242463 0.066370279 0.0083089471
-0.047789037 0.065842673 0.0083010197
-0.047232483 0.066554867 0.0085743666
-0.046199474 0.066613197 0.0087158382
-0.045008268 0.066440776 0.0089170635
-0.044375334 0.067104168 0.010087818
-0.043094929 0.066797145 0.010826439
-0.041833442 0.066504449 0.011017114
-0.040380456 0.065883897 0.012257278
-0.039009247 0.065366842 0.012988627
-0.03790066 0.065273367 0.013378978
-0.036933534 0.06542512 0.013764113
-0.035673473 0.06505163 0.014079034
-0.034805689 0.065392509 0.013952702
-0.03400559 0.065885834 0.014112025
-0.03275365 0.0655073 0.014286131
-0.031679511 0.065470994 0.014744669
-0.030832939 0.065918699 0.014037192
-0.0296739 0.065706491 0.013524354
-0.028790969 0.066112593 0.01305443
-0.027832288 0.06636931 0.012891859
-0.02622319 0.06503351 0.012308687
-0.025510043 0.065900944 0.012028337
-0.024429865 0.065854423 0.011660486
-0.023139251 0.065210618 0.01100871
-0.022247054 0.065681778 0.011090875
-0.021289015 0.065995954 0.011090875
-0.020666109 0.067436785 0.011539608
-0.01964022 0.067649648 0.011903435
-0.018232781 0.066496029 0.012542725
-0.016932713 0.065614268 0.013202816
-0.016006887 0.066161796 0.014294833
-0.014590359 0.064614452 0.016003966
-0.013622118 0.064967029 0.017949164
-0.012568715 0.064938366 0.01863417
-0.011406844 0.064293124 0.018947691
-0.010432567 0.064681917 0.018924922
-0.0093876859 0.064670727 0.018698037
-0.0083084134 0.064390205 0.018395334
-0.007319537 0.064830191 0.017842978
-0.0062781139 0.064873844 0.016888529
-0.0052635688 0.065268256 0.014988303
-0.0042570042 0.065983571 0.013812512
-0.0032186708 0.066519201 0.012820512
-0.0021197831 0.065713279 0.012143105
-0.0010670114 0.066154703 0.011436313
0 0.066539705 0.011189014
0.0010680357 0.06621822 0.011428714
0.0021177344 0.065649763 0.01227653
0.0031431117 0.064957641 0.012977511
0.0041890391 0.064930104 0.013347179
0.0052897781 0.065593258 0.01426518
0.0062907664 0.065004587 0.015294135
0.0073524318 0.065121539 0.016771823
0.0084679406 0.065626539 0.017164707
0.0093535287 0.064435422 0.016924113
0.010427747 0.064652033 0.016811132
0.011467137 0.06463296 0.016760796
0.012560765 0.064897291 0.016760796
0.013687101 0.065276951 0.016256362
0.014742957 0.065290242 0.016336977
0.015800951 0.065310605 0.015882969
0.016855646 0.065315634 0.015604228
0.017907325 0.06530907 0.015085489
0.018811312 0.064794526 0.014873594
0.02020295 0.065925412 0.014662832
0.021106059 0.065428786 0.015182853
0.022144696 0.065379582 0.015327871
0.023520472 0.066284969 0.01534614
0.024232002 0.065321051 0.015800089
0.025319487 0.065408677 0.015360653
0.026287841 0.065193847 0.015211016
0.027530544 0.065649763 0.014306843
0.028498774 0.065441631 0.01444304
0.029712612 0.065792218 0.013847589
0.030390227 0.064972214 0.01266253
0.031778663 0.065675907 0.012025118
0.032926865 0.06585373 0.011067748
0.034265086 0.066388607 0.0098646283
0.035760954 0.06718725 0.0090179741
0.036385961 0.06635087 0.0078872144
0.037612196 0.066627324 0.0064728856
-0.052702766 0.067760706 0.0054178834
-0.051820267 0.0680141 0.0063051581
-0.050637074 0.067875229 0.0070572495
-0.049457937 0.067735873 0.0071868896
-0.048072759 0.067301862 0.0074119866
-0.047554564 0.068089493 0.0081100762
-0.045878138 0.067216806 0.0082464218
-0.045159884 0.067739822 0.0085946918
-0.04472468 0.068723291 0.009342581
-0.042752575 0.067335308 0.010685623
-0.041742817 0.067430705 0.011064053
-0.040515598 0.067170598 0.012337416
-0.039021123 0.066441372 0.013037711
-0.037977047 0.066459835 0.013690114
-0.036995165 0.0665913 0.013887703
-0.035704866 0.066159017 0.014112025
-0.034754869 0.066350207 0.014112025
-0.033619944 0.066189259 0.014306843
-0.032623947 0.066300273 0.014306843
-0.03174679 0.066668265 0.014723212
-0.03055816 0.066384971 0.014024198
-0.029874638 0.067217931 0.013444006
-0.028943934 0.067535847 0.013050705
-0.027391938 0.066372775 0.012619823
-0.026549894 0.066905737 0.012217492
-0.025448401 0.066802055 0.011978626
-0.024264287 0.066463046 0.011486709
-0.023393767 0.06699124 0.011152118
-0.022257544 0.066772632 0.01128599
-0.021171426 0.066689998 0.011311978
-0.020968048 0.069525629 0.011773169
-0.019392293 0.067873031 0.011984974
-0.018159343 0.067296393 0.012575924
-0.017186273 0.067670949 0.013311446
-0.015794937 0.066338733 0.014289528
-0.014662337 0.065980516 0.015917182
-0.013562147 0.065724246 0.017949164
-0.012499628 0.065623045 0.018805593
-0.011432303 0.065475918 0.019177735
-0.010397882 0.065506667 0.019177735
-0.0092849294 0.064994507 0.019041717
-0.0083529428 0.065779425 0.018543065
-0.0072813355 0.065532021 0.0181548
-0.0062706624 0.065841958 0.016290963
-0.0052826428 0.066561304 0.0148983
-0.0042341808 0.066688351 0.013642401
-0.0032113001 0.067437306 0.012357295
-0.0021352374 0.067259982 0.01132232
-0.0010742542 0.067678012 0.010678679
0 0.068004563 0.010843426
0.0010691343 0.067355469 0.010995418
0.0021189747 0.066747703 0.011300743
0.0031934113 0.06706164 0.011633664
0.0042999522 0.06772425 0.011882305
0.0052955919 0.066724457 0.013347179
0.0063407663 0.066578045 0.014766008
0.0074027479 0.066624731 0.016831219
0.0083698053 0.065912217 0.017334491
0.0093770623 0.065639444 0.016848207
0.010452678 0.065851875 0.016636789
0.011513106 0.065938704 0.016448587
0.012511187 0.06568373 0.016343057
0.013736672 0.066570029 0.016167551
0.014684249 0.066079117 0.01609984
0.015940299 0.066949256 0.015678108
0.016830934 0.066271804 0.015092283
0.017835034 0.06609454 0.014769673
0.019164836 0.067076929 0.014399737
0.019834023 0.06576544 0.01421842
0.02115819 0.066648304 0.014303505
0.022471026 0.067413077 0.014539331
0.023156919 0.066312999 0.014882773
0.024435794 0.066932827 0.015215784
0.025306981 0.066430829 0.015179545
0.02631543 0.066314884 0.014986396
0.027446639 0.06650532 0.01417461
0.028556112 0.06663093 0.013920486
0.029487658 0.066347234 0.012886822
0.030589521 0.066453099 0.012397647
0.031672906 0.066513106 0.011960179
0.033035398 0.067136452 0.010698348
0.034686357 0.068288766 0.0092076063
0.035153072 0.067110419 0.0082803369
0.036819112 0.068223648 0.0066182017
-0.050274793 0.068459295 0.0057264268
-0.049835321 0.069336094 0.0057023764
-0.048808385 0.069416367 0.0063628852
-0.047317773 0.068825848 0.0073345006
-0.046177253 0.068728931 0.0077345371
-0.045753811 0.069720097 0.0083190203
-0.044565096 0.069565028 0.0091765523
-0.043045368 0.068872593 0.010528117
-0.041380875 0.06790708 0.011335552
-0.040035348 0.067427948 0.012559563
-0.03921691 0.067834653 0.013071328
-0.037852347 0.067293063 0.013984591
-0.036993556 0.067645356 0.014023423
-0.035986934 0.067740113 0.014339268
-0.034794975 0.067481168 0.014342606
-0.03381829 0.067636579 0.014323235
-0.032652333 0.067411274 0.014363855
-0.031648107 0.067515962 0.014738709
-0.030696172 0.067743272 0.014455855
-0.029920312 0.068389289 0.013387173
-0.028606746 0.067808583 0.012779742
-0.027470428 0.067619517 0.012518704
-0.026832622 0.068691507 0.012121946
-0.02541839 0.067782372 0.011861175
-0.024557715 0.068334505 0.011232138
-0.023483939 0.068316914 0.010935754
-0.022175714 0.067583129 0.01112026
-0.021490395 0.068769261 0.01128599
-0.020868532 0.070294 0.011690438
-0.019369645 0.068869852 0.01196155
-0.018082784 0.068076365 0.012850434
-0.016834056 0.067336224 0.013662696
-0.015859228 0.067666039 0.014638633
-0.014760289 0.067475609 0.016459465
-0.013452853 0.066229433 0.018245071
-0.012531627 0.066835344 0.018826634
-0.011575521 0.067348488 0.019213557
-0.010355939 0.066278018 0.019196481
-0.0093474304 0.066470623 0.019041717
-0.0083078137 0.066462509 0.018629789
-0.0072262636 0.066068694 0.018209457
-0.0062942435 0.067138597 0.016316414
-0.005274578 0.067514598 0.0148983
-0.0042520491 0.068032786 0.01346162
-0.0031849504 0.067945614 0.01206848
-0.0021283901 0.068108484 0.01127857
-0.0010684797 0.068382703 0.010362834
0 0.069276899 0.010841817
0.0010522231 0.067342281 0.010995418
0.0021401912 0.068486117 0.011139184
0.0032311904 0.068932064 0.011064798
0.0042652944 0.068244711 0.011465579
0.0053073899 0.067934595 0.013214439
0.0063896053 0.068155795 0.014144689
0.0073164445 0.066893205 0.016310155
0.0083896825 0.06711746 0.016414464
0.0093956469 0.066813491 0.016412348
0.01050702 0.067244932 0.016357839
0.011530501 0.067086548 0.01630035
0.012589403 0.067143485 0.016161382
0.013745442 0.067669868 0.015862495
0.014868121 0.067968555 0.015769511
0.015832152 0.067550518 0.014880389
0.016980372 0.067921489 0.014424533
0.018037789 0.067906968 0.014360368
0.018957132 0.067403138 0.014041603
0.020033196 0.067480236 0.013412565
0.02150603 0.068819299 0.013609052
0.022000199 0.067048222 0.013894588
0.023267021 0.067685887 0.014252186
0.024398716 0.067892075 0.014479965
0.025480416 0.067947775 0.014282823
0.026472049 0.067768447 0.013787955
0.027496988 0.067684896 0.013594121
0.028447784 0.067431785 0.013158917
0.02960917 0.067678101 0.012430727
0.030791961 0.067954674 0.011894912
0.031613879 0.067442939 0.011189669
0.032851469 0.067822389 0.010027677
0.033945058 0.067890115 0.0085105896
0.035383143 0.068621852 0.007371366
0.036645841 0.068980411 0.0056265593
-0.048541792 0.070115916 0.0052236915
-0.04729677 0.069870234 0.0066668093
-0.046769246 0.070697695 0.0073628426
-0.045409162 0.070276082 0.0080707371
-0.044825193 0.071064323 0.0089229643
-0.042870503 0.069664568 0.010105014
-0.04138346 0.068972439 0.011807501
-0.040372703 0.069058575 0.012726068
-0.039021999 0.068552159 0.013067842
-0.038046941 0.068695866 0.013845831
-0.037113447 0.068924978 0.013923526
-0.035779178 0.068401374 0.014147788
-0.03491601 0.068773955 0.014135301
-0.033975963 0.06901367 0.014164209
-0.032620978 0.068398818 0.014173061
-0.031758185 0.068809405 0.013929784
-0.031035846 0.069563098 0.01369223
-0.029730408 0.069017015 0.012891293
-0.028713923 0.069126107 0.012612075
-0.027828226 0.069570564 0.012342215
-0.026631394 0.069241621 0.012007445
-0.025457466 0.068947308 0.011413425
-0.024698744 0.069800794 0.010640949
-0.023317404 0.06889233 0.010281712
-0.022509087 0.069670983 0.010716587
-0.021371365 0.069456935 0.011067122
-0.020722136 0.070891514 0.011690438
-0.01929062 0.069660574 0.01196155
-0.018061383 0.069058232 0.013027757
-0.016875565 0.068556987 0.013868093
-0.01590804 0.068934835 0.015232921
-0.014575129 0.067670241 0.016414285
-0.013630565 0.06815283 0.018134058
-0.012612616 0.068318337 0.018881381
-0.011426704 0.067521431 0.019246757
-0.010384365 0.067498371 0.01922968
-0.0094239088 0.068061568 0.019118667
-0.0083252508 0.067642659 0.019016296
-0.0072478577 0.067301534 0.018444896
-0.0062343604 0.067538902 0.016590893
-0.0052559567 0.068327434 0.015425622
-0.0042679524 0.069354229 0.013642401
-0.0031927272 0.069175757 0.011963964
-0.0021252672 0.069071181 0.011272281
-0.0010763657 0.069963768 0.010597348
0 0.069823138 0.010689408
0.0010787129 0.070116341 0.010732651
0.0021698042 0.070518635 0.010953873
0.0031862273 0.069034927 0.010888934
0.0042888965 0.069694564 0.010901093
0.0053059072 0.068976797 0.011918932
0.006285633 0.068094358 0.013562322
0.0073561165 0.068306796 0.014489293
0.0084417481 0.068589203 0.016065449
0.0094580259 0.068307966 0.016033977
0.010462582 0.068006791 0.015676349
0.011502811 0.067971155 0.015676349
0.012547643 0.067966402 0.01553303
0.013757253 0.068786263 0.014836758
0.014965023 0.069480464 0.014719576
0.015856616 0.068711996 0.014278591
0.017043956 0.069241069 0.014067739
0.018211657 0.069632806 0.014206201
0.019285208 0.069641031 0.013476998
0.020339472 0.069582403 0.013053179
0.021075608 0.068495728 0.013106406
0.02230587 0.069041975 0.013212144
0.023480028 0.06937281 0.013494939
0.024270307 0.068589993 0.013545543
0.025642036 0.069447182 0.013088763
0.026428651 0.068714492 0.01271522
0.027287902 0.068219759 0.012497097
0.028859852 0.069477417 0.012430727
0.029819509 0.069223858 0.011957735
0.030544899 0.0684627 0.010963172
0.031700566 0.068684556 0.010585248
0.03311583 0.069436409 0.0088510811
0.034346521 0.069766365 0.0073109865
0.035598967 0.070119172 0.0055332184
-0.048051849 0.072077774 0.0064356923
-0.046346925 0.071137138 0.0068388581
-0.045999493 0.072284915 0.0081688464
-0.044591542 0.071781501 0.0091493428
-0.04265241 0.070376478 0.010028392
-0.04154228 0.070302323 0.011406302
-0.039860543 0.069231465 0.012172043
-0.039345741 0.07018429 0.012762964
-0.037962858 0.069598578 0.013097942
-0.036928833 0.069637232 0.013675719
-0.035775211 0.069445997 0.013802528
-0.035078295 0.070156589 0.013926119
-0.033741795 0.069592454 0.013745129
-0.032766119 0.069760121 0.013571918
-0.032028187 0.070462011 0.01349774
-0.030809484 0.070118137 0.013062418
-0.029926997 0.070542209 0.01258415
-0.028743049 0.070260778 0.012409419
-0.027573662 0.069994681 0.012076914
-0.026656847 0.070374072 0.011355311
-0.025283037 0.069528349 0.01078698
-0.024596367 0.070580877 0.01031056
-0.023506381 0.070519142 0.01022765
-0.022360088 0.070274562 0.010275215
-0.021253506 0.070136569 0.010980189
-0.020768702 0.072143905 0.011539608
-0.019218033 0.070466124 0.011808813
-0.017958142 0.069719844 0.01274544
-0.016964072 0.069976792 0.013739526
-0.015667235 0.068935834 0.015306532
-0.014727578 0.069430016 0.016314387
-0.013597779 0.069034874 0.018145442
-0.012487803 0.068682916 0.01898542
-0.011394368 0.068366207 0.019451678
-0.010466835 0.069081113 0.01953423
-0.0093281288 0.068406284 0.01953423
-0.0083238585 0.06867183 0.019215375
-0.0072576026 0.068428822 0.01889202
-0.0063156122 0.069471732 0.017952561
-0.0052695028 0.069557436 0.015799165
-0.0042903153 0.070790201 0.014191568
-0.0031836936 0.070041262 0.011963964
-0.0021451155 0.070788808 0.010795951
-0.0010820732 0.071416825 0.010297537
0 0.070853211 0.0099515319
0.0010865853 0.071714632 0.010315239
0.0021584714 0.071229555 0.010400414
0.0032531791 0.071569942 0.010012835
0.0043365178 0.071552537 0.010222614
0.0052517559 0.069323182 0.010993063
0.0063441256 0.069785386 0.012623042
0.0074125566 0.069889821 0.013634682
0.0084013324 0.069310993 0.014784485
0.0094780754 0.069505893 0.014832199
0.010462023 0.069049351 0.014712423
0.011459199 0.068755195 0.014712423
0.012629243 0.069460832 0.014712423
0.013680641 0.069455557 0.014362186
0.014951489 0.070485592 0.014213353
0.016059525 0.07066191 0.013880342
0.016834222 0.069441162 0.01376605
0.018178863 0.070576765 0.013493538
0.019300254 0.070767596 0.013041973
0.020294843 0.070497878 0.012704253
0.021529915 0.071048722 0.01267758
0.022458501 0.070583858 0.012742013
0.023168046 0.069504134 0.012834609
0.024541108 0.070422307 0.012396216
0.02565491 0.070551008 0.012397647
0.026643336 0.070338406 0.012164742
0.02766108 0.070216589 0.012069315
0.028457789 0.069563478 0.011560768
0.029826166 0.070304528 0.010962546
0.030750317 0.069983475 0.009886384
0.031894993 0.070168979 0.0091324151
0.032795873 0.069823466 0.0074144006
0.034530595 0.071219347 0.0058240294
-0.047509149 0.072343476 0.0057958364
-0.046904411 0.073083617 0.0065743923
-0.046239857 0.073763579 0.0080256462
-0.043901533 0.071741529 0.0088329017
-0.042917803 0.071887329 0.0097115934
-0.041133426 0.070665121 0.010861814
-0.040179029 0.070841968 0.011862189
-0.039010879 0.070641316 0.012642235
-0.038417742 0.07149969 0.012956858
-0.037346002 0.071490921 0.013130516
-0.036097035 0.071132392 0.013400823
-0.034769483 0.07059259 0.01338622
-0.033839505 0.070851468 0.013229132
-0.032955561 0.071226537 0.012897849
-0.031797599 0.071014643 0.012922883
-0.031023236 0.071674369 0.012875319
-0.029728491 0.071136035 0.012392581
-0.028481975 0.070677489 0.012148499
-0.027520429 0.070918031 0.011413425
-0.026550071 0.071154192 0.010779798
-0.025376586 0.070842974 0.010308623
-0.024721786 0.072015643 0.0099061131
-0.023553712 0.071731761 0.0097340047
-0.022270354 0.071053036 0.0098550618
-0.021614932 0.072410025 0.010658205
-0.020734072 0.073114879 0.011323869
-0.019133499 0.071219139 0.011623442
-0.01804078 0.071101896 0.012658715
-0.016728396 0.070050158 0.013750225
-0.015798831 0.070568115 0.015309095
-0.014746032 0.070570298 0.016464144
-0.013486017 0.069504857 0.018262863
-0.012505841 0.069824278 0.019143313
-0.011494245 0.070010409 0.019612849
-0.010367616 0.06946303 0.019651622
-0.0093730576 0.069777213 0.019582033
-0.0083195325 0.069676086 0.019300073
-0.0072365692 0.069264308 0.018878132
-0.0062625487 0.069931798 0.018252015
-0.0052694767 0.070610993 0.016086727
-0.0042748698 0.071604066 0.013998687
-0.0032044163 0.0715653 0.011357695
-0.0021347464 0.07151401 0.010088205
-0.0010846425 0.072671048 0.009583205
0 0.071760662 0.0091688037
0.0010767044 0.072139189 0.0097419322
0.0021548322 0.07218688 0.0098535419
0.0032114522 0.07172244 0.0092031062
0.0042635645 0.071414702 0.0094957948
0.0053061582 0.071102522 0.010112673
0.0064007305 0.071474828 0.011046737
0.0073417947 0.070271462 0.012623042
0.0085191512 0.071347892 0.013875455
0.0094617996 0.070437841 0.013973147
0.010499278 0.070345171 0.013972849
0.011615919 0.070751511 0.014191806
0.012628468 0.070508949 0.014012575
0.013618853 0.070189476 0.014063358
0.014924414 0.071423985 0.013822645
0.015905201 0.071043238 0.013485074
0.016915878 0.070835248 0.013047606
0.018085724 0.071279034 0.013236105
0.019262187 0.071698144 0.012704253
0.02021475 0.071283586 0.012040824
0.021545256 0.072176613 0.012042046
0.022275398 0.071069129 0.012147784
0.023318559 0.071015611 0.012258857
0.024562977 0.071553022 0.011974692
0.025651777 0.071611211 0.011386335
0.026542569 0.071134083 0.011182398
0.027604688 0.071135156 0.011081159
0.028562982 0.070878506 0.010745078
0.029881358 0.071501821 0.010087073
0.030911904 0.071417153 0.0092162788
0.032027904 0.071528986 0.0078593194
0.033342201 0.072062172 0.0061010122
-0.04722983 0.074689038 0.0053013265
-0.04496292 0.072797105 0.0068264306
-0.043974441 0.072933219 0.0084148049
-0.042268645 0.0718567 0.0096506476
-0.040995359 0.07147909 0.010405988
-0.040189989 0.071918927 0.011326522
-0.03924752 0.072130576 0.012120515
-0.038052898 0.071877703 0.012642235
-0.037265815 0.072402157 0.012802303
-0.035913292 0.071826585 0.012957573
-0.035032123 0.072187409 0.012692392
-0.033938855 0.072120063 0.012545437
-0.032598373 0.071506105 0.012363076
-0.032013036 0.072562881 0.012537509
-0.030954935 0.072583981 0.012500405
-0.029543402 0.071748264 0.011985868
-0.02851893 0.071825452 0.01096499
-0.028031701 0.073313676 0.010397702
-0.026402725 0.071815409 0.010085225
-0.025527518 0.072327971 0.0095645785
-0.024228547 0.071632229 0.0093487501
-0.023620671 0.073009349 0.0091935396
-0.022378489 0.072463684 0.0094818473
-0.021538842 0.073232062 0.0097720325
-0.020548746 0.073542885 0.010854095
-0.019145124 0.072326027 0.011392087
-0.017985407 0.071941629 0.012479126
-0.016970461 0.072124459 0.013869792
-0.01590139 0.072086304 0.0153687
-0.014518786 0.07051982 0.0162628
-0.013696066 0.071640961 0.018312424
-0.012665114 0.071768984 0.019196987
-0.011456486 0.070821911 0.019757032
-0.010323104 0.070197105 0.019762754
-0.0093859835 0.070916325 0.019776583
-0.0083238147 0.070752427 0.019689023
-0.0072882972 0.070800602 0.019196987
-0.0062361783 0.070676692 0.018211275
-0.0052634091 0.071582362 0.016408145
-0.0042368104 0.072025776 0.014662236
-0.003193364 0.072382919 0.011400789
-0.0021629655 0.073540822 0.0098049641
-0.0010850993 0.07378675 0.0092082322
0 0.073141128 0.0081854463
0.0010875639 0.073954351 0.0086840391
0.0021765509 0.074002728 0.0088874996
0.0032032826 0.072607741 0.0077158809
0.0042805704 0.072769701 0.0085864663
0.0053361403 0.072571509 0.0097533762
0.0063339118 0.071784332 0.010388643
0.0074683693 0.072549872 0.011043668
0.0085483538 0.072661012 0.012351036
0.0095514944 0.072166845 0.012747139
0.010613963 0.072174951 0.013094157
0.011533822 0.071299993 0.013446808
0.012630504 0.071572855 0.013170749
0.013675759 0.071534738 0.012605101
0.014809801 0.071933322 0.012777746
0.015931126 0.072221108 0.012698084
0.01713288 0.07281474 0.012532651
0.018033395 0.072133578 0.012593627
0.019420773 0.073367365 0.011956871
0.020467741 0.073252968 0.011375457
0.02119061 0.072048075 0.011322349
0.02219443 0.071867675 0.011258006
0.023693301 0.073233843 0.010766059
0.024428703 0.072223991 0.010811836
0.025651377 0.072678901 0.010475904
0.02667872 0.072566114 0.010178924
0.027621487 0.072240815 0.010096639
0.028719744 0.072331205 0.0096551478
0.030023646 0.072914571 0.0093066096
0.030881902 0.072412737 0.0080877244
0.032592151 0.073875539 0.0065906346
-0.045037299 0.073989846 0.00532794
-0.043833781 0.07376904 0.007376343
-0.042409103 0.073155701 0.0084151328
-0.04109044 0.072698466 0.00958395
-0.040118858 0.072847404 0.010357738
-0.038868222 0.072483979 0.01171267
-0.038269911 0.073350668 0.0121243
-0.037091192 0.073122635 0.012156069
-0.035784449 0.072621383 0.01236549
-0.035237033 0.073677436 0.012348473
-0.033855822 0.073001616 0.012238026
-0.032934073 0.073304869 0.012055367
-0.032156203 0.073959269 0.011918187
-0.030665765 0.072963372 0.011631131
-0.029752733 0.073319234 0.01073879
-0.028720805 0.073397614 0.010383874
-0.027355919 0.072598398 0.009562552
-0.026865585 0.074149013 0.0092178881
-0.025669537 0.073799923 0.0088053346
-0.024632448 0.073897339 0.0085111856
-0.023756079 0.074507706 0.008443296
-0.022507826 0.073954284 0.0088069439
-0.021498701 0.074170522 0.0091811121
-0.02075462 0.07537204 0.0095387995
-0.019211736 0.073644988 0.010694355
-0.017780963 0.072169796 0.011912525
-0.01692787 0.073001437 0.013383806
-0.015675016 0.072105072 0.014995545
-0.014650635 0.072206706 0.015909076
-0.013733318 0.072892226 0.017343223
-0.012520026 0.071990155 0.01873827
-0.011531011 0.072330885 0.019278467
-0.010508634 0.072509579 0.019550472
-0.0093961395 0.072037078 0.01957044
