ply
format ascii 1.0
comment PCL generated
element vertex 1263
property float x
property float y
property float z
element camera 0
property float view_px
property float view_py
property float view_pz
property float x_axisx
property float x_axisy
property float x_axisz
property float y_axisx
property float y_axisy
property float y_axisz
property float z_axisx
property float z_axisy
property float z_axisz
property float focal
property float scalex
property float scaley
property float centerx
property float centery
property int viewportx
property int viewporty
property float k1
property float k2
end_header
0.045949772 -0.026714986 0.0098253489
0.047681857 -0.027091967 0.0084151626
0.047886778 -0.026603764 0.007987082
0.04972152 -0.027022565 0.0071204007
0.050705533 -0.026971029 0.0068168044
-0.06464234 -0.025856934 0.0062302947
-0.063875794 -0.025983373 0.0084632635
-0.062913381 -0.026033122 0.010108799
-0.060586359 -0.025510045 0.010647953
-0.060192112 -0.02579662 0.011347145
-0.058649778 -0.025592629 0.012496918
-0.05748209 -0.025547594 0.012894303
-0.056151446 -0.02542707 0.013738424
-0.055432986 -0.025584456 0.014022082
-0.053814445 -0.025324443 0.014481455
-0.053044368 -0.025461296 0.014968365
-0.052120641 -0.025528478 0.015134394
-0.051252007 -0.025626004 0.015313476
-0.050144915 -0.025605913 0.015736639
-0.048866719 -0.02549568 0.016124398
-0.048364874 -0.025794597 0.015850723
-0.047068775 -0.025673877 0.015992552
-0.044832509 -0.025022795 0.016049922
-0.044536117 -0.025449211 0.01576966
-0.044467464 -0.026029734 0.015347123
-0.04284621 -0.025707727 0.014693946
-0.041714359 -0.025670374 0.01443544
-0.040834021 -0.025789907 0.013899833
-0.039035343 -0.025320223 0.013928086
-0.038224597 -0.025483064 0.013769031
-0.037591156 -0.025776792 0.013365686
-0.036271282 -0.025603257 0.012776911
-0.035195757 -0.025596915 0.012310505
-0.034244813 -0.025683608 0.011515558
-0.032974195 -0.025528409 0.010433257
-0.032623041 -0.026098434 0.0091480911
-0.031587142 -0.026141083 0.0085242689
-0.030736234 -0.026345342 0.008608371
-0.029894432 -0.026572827 0.0084036589
-0.02853613 -0.026341043 0.0079048574
-0.027034398 -0.025953021 0.008262068
-0.025949674 -0.025949674 0.008379221
-0.024702953 -0.025776993 0.0090508163
-0.023586752 -0.025731003 0.0093316436
-0.022543164 -0.025763614 0.0096359253
-0.021699768 -0.026039721 0.0098845661
-0.020276506 -0.025612429 0.0097499788
-0.019345056 -0.025793411 0.0097771883
-0.018235104 -0.025743676 0.0095999241
-0.017579718 -0.026369577 0.0095357597
-0.016011799 -0.025618879 0.009696871
-0.015019785 -0.025748203 0.0096330643
-0.014167967 -0.026156249 0.0094356835
-0.012804636 -0.025609272 0.0097664595
-0.011850861 -0.025856424 0.010201097
-0.010826543 -0.025983704 0.010596782
-0.0096590305 -0.025757413 0.010591239
-0.0086471131 -0.025941338 0.010487586
-0.0075410176 -0.025854917 0.010521919
-0.0063953414 -0.025581365 0.010476559
-0.0053844089 -0.025845163 0.010476559
-0.0042901193 -0.025740715 0.010072619
-0.0032185724 -0.025748579 0.0099753737
-0.0021579214 -0.025895057 0.0098823905
-0.0010695974 -0.025670338 0.0096556544
0 -0.025872007 0.0094082057
0.0011011868 -0.026428485 0.0088751018
0.0021697294 -0.026036752 0.0079255998
0.0032487006 -0.025989605 0.0075183809
0.00444812 -0.026688719 0.0075723827
0.0054124049 -0.025979545 0.0076793432
0.0065607568 -0.026243027 0.0075774193
0.0076104552 -0.026092989 0.00814417
0.0086456519 -0.025936956 0.008692205
0.0097630844 -0.026034893 0.0094461441
0.010765088 -0.025836211 0.010706663
0.011753147 -0.025643229 0.011079937
0.012873992 -0.025747985 0.011650264
0.013773336 -0.025427697 0.012002468
0.014951656 -0.025631409 0.011815012
0.016122194 -0.02579551 0.011716455
0.01716713 -0.025750697 0.011699796
0.01845737 -0.026057463 0.01194936
0.019381175 -0.025841568 0.011974722
0.020219903 -0.025540929 0.012168199
0.021266941 -0.025520328 0.012350142
0.022401478 -0.025601689 0.01303637
0.023185641 -0.025293427 0.013183564
0.024708545 -0.025782827 0.013336688
0.025637625 -0.025637625 0.013598233
0.026593974 -0.025530213 0.013866812
0.027888658 -0.025743376 0.013952941
0.029064761 -0.025835341 0.013974369
0.029661765 -0.025424371 0.014234275
0.031066032 -0.025709819 0.014683902
0.031872835 -0.025498267 0.014787018
0.032622404 -0.025256054 0.014849871
0.033918634 -0.025438974 0.014828652
0.034573197 -0.025144143 0.015340179
0.035298001 -0.024916235 0.015794337
0.036929019 -0.025322756 0.015212804
0.03812857 -0.025419047 0.014800161
0.039028615 -0.025315857 0.014006197
0.040783364 -0.025757913 0.013040811
0.041832488 -0.025743071 0.012665093
0.043003682 -0.02580221 0.012103915
0.044527046 -0.02606461 0.011408269
0.044528496 -0.025444852 0.01090759
0.046008747 -0.025679301 0.0094773769
0.047018196 -0.02564629 0.0080914795
0.048046414 -0.025624754 0.0079079568
0.049083687 -0.025608879 0.0069438815
0.050667703 -0.025872869 0.0060149133
-0.064727448 -0.024812188 0.0058399737
-0.063643321 -0.024810107 0.0084097087
-0.061416347 -0.024354758 0.010026664
-0.061234016 -0.024708465 0.010467082
-0.059657194 -0.024502063 0.011187553
-0.058263481 -0.024364728 0.012303561
-0.057689078 -0.024571275 0.012702048
-0.056460183 -0.02450159 0.013389945
-0.055437826 -0.024520578 0.013848484
-0.053951547 -0.024331089 0.01398772
-0.053154703 -0.024451163 0.014383584
-0.051565602 -0.024204263 0.014788508
-0.05116076 -0.024514532 0.015011936
-0.049606558 -0.024275551 0.015529424
-0.049004536 -0.024502268 0.016486317
-0.048154082 -0.024612086 0.016246974
-0.046601657 -0.024359958 0.016315669
-0.046111703 -0.0246644 0.016285866
-0.045104533 -0.024700101 0.015992552
-0.043589991 -0.024452921 0.015724689
-0.042602859 -0.024496645 0.01529792
-0.041588079 -0.024526304 0.014872581
-0.040199731 -0.024331417 0.014435977
-0.039206978 -0.024371905 0.014244139
-0.038472425 -0.024579605 0.013862163
-0.037906509 -0.024909992 0.013576955
-0.036950938 -0.024996225 0.013140827
-0.035899606 -0.025020938 0.012378484
-0.034339115 -0.02468124 0.011613369
-0.03315397 -0.024598107 0.011134982
-0.031946678 -0.024492454 0.009065479
-0.031500183 -0.024982903 0.0084306598
-0.03084613 -0.025337894 0.0084736645
-0.029169029 -0.02484769 0.0083709061
-0.028478691 -0.025192689 0.0081691444
-0.027267696 -0.02508628 0.0085365772
-0.025959292 -0.024877656 0.0098397732
-0.024803009 -0.024803009 0.010091305
-0.023452459 -0.024518482 0.010046244
-0.022331983 -0.024458837 0.010214388
-0.021214111 -0.02439623 0.010202199
-0.020397313 -0.024691483 0.010106415
-0.019555867 -0.024988053 0.010071665
-0.018553121 -0.025101284 0.0100905
-0.017441168 -0.025071681 0.0100905
-0.016232224 -0.02488941 0.0100905
-0.015114818 -0.024831487 0.010299712
-0.013738966 -0.024307402 0.010187805
-0.012905812 -0.02473614 0.010622054
-0.011938275 -0.024961848 0.010658383
-0.010675986 -0.02455477 0.010671198
-0.0096116951 -0.024563221 0.010417134
-0.0086425357 -0.02484729 0.010414541
-0.0075476593 -0.024799453 0.010669738
-0.0064265896 -0.024635261 0.010506272
-0.0053708926 -0.024706107 0.010506272
-0.00425812 -0.024484189 0.010151982
-0.0032524629 -0.024935551 0.010147095
-0.0021047897 -0.024205083 0.010393083
-0.0010657972 -0.024513336 0.010413498
0 -0.02470943 0.010352999
0.0010805289 -0.024852166 0.0098297
0.002182587 -0.025099752 0.0097507834
0.0033118145 -0.025390578 0.0086401999
0.0043326272 -0.024912607 0.0083326399
0.0054402845 -0.02502531 0.0083625019
0.006604081 -0.025315646 0.0084352791
0.0074918452 -0.024616065 0.0087153614
0.0086736968 -0.024936879 0.0093293488
0.0096626338 -0.0246934 0.010707051
0.010639473 -0.024470789 0.010835022
0.011799715 -0.024672132 0.011633396
0.013005845 -0.024927871 0.012064695
0.013847328 -0.024499118 0.011903256
0.014871223 -0.024431296 0.01177305
0.016002277 -0.024536826 0.0119479
0.01700419 -0.024443524 0.011858881
0.018582072 -0.025140451 0.012083143
0.019249365 -0.024596412 0.012448251
0.020617981 -0.024958607 0.012580454
0.021355165 -0.02455844 0.012487352
0.022123892 -0.024230929 0.013184428
0.023528682 -0.024598168 0.013343751
0.024607314 -0.024607314 0.013435215
0.025607821 -0.024540829 0.013792604
0.027003402 -0.02484313 0.013803035
0.027780583 -0.024575133 0.01410988
0.028662298 -0.024416031 0.014057755
0.030317321 -0.024903513 0.014494359
0.030862786 -0.024477381 0.014778107
0.031631619 -0.024250908 0.014988303
0.03280025 -0.024335667 0.015434206
0.033424519 -0.024023872 0.015992224
0.034660306 -0.024157185 0.016106993
0.036029074 -0.024372609 0.01586476
0.036497142 -0.023983836 0.015796006
0.037865631 -0.024191933 0.015424758
0.039307907 -0.024434645 0.014675915
0.040314879 -0.02440111 0.013615757
0.041741673 -0.024616886 0.012890905
0.043121371 -0.024794791 0.012295604
0.044228096 -0.024810882 0.01113826
0.045384243 -0.024853276 0.010412574
0.045557331 -0.024367876 0.0087943077
0.047560155 -0.024860991 0.0075918436
0.048935372 -0.025011411 0.0071049631
0.04922431 -0.024612155 0.0057471693
-0.064877219 -0.023788314 0.0063522756
-0.06320072 -0.023566369 0.0084080398
-0.06337139 -0.024037423 0.0098946691
-0.061479498 -0.023728929 0.010412991
-0.059982799 -0.02356467 0.011113197
-0.059163898 -0.023665559 0.012029052
-0.057934869 -0.023603095 0.012637079
-0.057005387 -0.023662614 0.013326824
-0.055712335 -0.023570603 0.013719231
-0.054414861 -0.023473077 0.013879269
-0.052624352 -0.023154713 0.014128268
-0.051871806 -0.023289382 0.014383584
-0.050465632 -0.023130082 0.014849067
-0.04898249 -0.022927973 0.015187472
-0.049528837 -0.023687704 0.016314626
-0.04780136 -0.023369553 0.016314626
-0.047084767 -0.023542384 0.016374975
-0.046409637 -0.023744466 0.016354293
-0.044637758 -0.023381682 0.016280472
-0.043725166 -0.023462282 0.015614927
-0.042860795 -0.023573438 0.015589684
-0.041884538 -0.023627175 0.015366316
-0.040011846 -0.023164751 0.014853239
-0.039367206 -0.023407528 0.014503539
-0.03855418 -0.023560889 0.014012247
-0.037663411 -0.023674145 0.013680965
-0.0364528 -0.023587106 0.013140827
-0.035365969 -0.023577314 0.012369841
-0.03475368 -0.023893153 0.011375338
-0.033299726 -0.023632061 0.010859966
-0.03247752 -0.023816846 0.0093103945
-0.031814516 -0.024135148 0.0089772046
-0.030391274 -0.023878857 0.0092116892
-0.029604455 -0.024122147 0.0090233684
-0.028724354 -0.024305223 0.0091976523
-0.026598528 -0.023406703 0.0097352564
-0.025837479 -0.023684356 0.010286719
-0.0245059 -0.023440424 0.01023525
-0.023605527 -0.023605527 0.010177672
-0.022660689 -0.023739768 0.010436118
-0.021446932 -0.023591625 0.010705829
-0.020486826 -0.023721589 0.01069814
-0.01951481 -0.023851436 0.010720193
-0.018475059 -0.023908898 0.01062429
-0.017372556 -0.023887264 0.010496199
-0.016294727 -0.023898933 0.010600835
-0.014958492 -0.0235062 0.011189103
-0.013998779 -0.02369024 0.010742575
-0.012895205 -0.023641208 0.010962367
-0.011688227 -0.023376454 0.011086285
-0.010721914 -0.023588208 0.011125296
-0.0098108016 -0.02398196 0.011271
-0.0086169625 -0.023696648 0.010701478
-0.0075874943 -0.02384641 0.010685056
-0.0064778961 -0.023752285 0.010899335
-0.0053323782 -0.023462463 0.010841548
-0.0043488201 -0.023918509 0.010651439
-0.0031962988 -0.023439525 0.010586292
-0.0021106862 -0.023217546 0.010666877
-0.0010513955 -0.023130702 0.010912865
0 -0.023217836 0.011119902
0.0010859773 -0.023891499 0.010744721
0.002187642 -0.024064062 0.01018551
0.0031818701 -0.023333713 0.010152638
0.0043415143 -0.023878329 0.0093257725
0.0055095358 -0.024241956 0.0092915893
0.0065078475 -0.023862107 0.0092547238
0.0075299679 -0.023665614 0.0094461441
0.0085672922 -0.023560053 0.010707051
0.0096963085 -0.023702089 0.011130482
0.01080834 -0.023778349 0.011725128
0.011885719 -0.023771439 0.012071431
0.012943404 -0.023729572 0.01238814
0.013833445 -0.023410447 0.012137979
0.014946565 -0.02348746 0.012134612
0.016100341 -0.023613835 0.01194939
0.017391048 -0.023912692 0.012017131
0.018214468 -0.023571663 0.012222707
0.019408615 -0.023721641 0.012325525
0.020497225 -0.023733629 0.012331456
0.021315586 -0.023447145 0.012425572
0.022162735 -0.023218103 0.012613624
0.023577444 -0.023577444 0.013256907
0.024480736 -0.023416353 0.013400793
0.025590979 -0.023458397 0.013684243
0.026651697 -0.023453493 0.013899177
0.027763925 -0.023492552 0.01410988
0.028713861 -0.023396479 0.014057755
0.029872593 -0.023471322 0.014502823
0.030641679 -0.023245411 0.014952898
0.03192199 -0.023409458 0.015441865
0.032682505 -0.023194034 0.015845031
0.033530165 -0.023051986 0.016012967
0.034452885 -0.02296859 0.016156435
0.035718504 -0.023111973 0.01586476
0.037054159 -0.023291184 0.015948802
0.038425382 -0.023482179 0.015788853
0.039032981 -0.023208797 0.01474008
0.040792644 -0.023616793 0.013912171
0.042345379 -0.023887137 0.012961566
0.042749323 -0.023512127 0.012322962
0.044522293 -0.023890009 0.011236727
0.045360021 -0.02376001 0.010646552
0.046024386 -0.023547361 0.0090734065
0.04759071 -0.023795355 0.0077980757
0.048446625 -0.023685016 0.0070982575
-0.064253412 -0.022488695 0.007039547
-0.063827448 -0.022718245 0.0083497167
-0.062844932 -0.022754198 0.0091002285
-0.060721293 -0.022371003 0.010286778
-0.061024074 -0.022884028 0.010754943
-0.058763575 -0.022437003 0.011266917
-0.057707872 -0.02244195 0.012032717
-0.056881722 -0.022538042 0.012710184
-0.055776194 -0.022525003 0.013274759
-0.054859482 -0.022589199 0.01379621
-0.053422835 -0.022437591 0.013981551
-0.051795732 -0.022198172 0.014675707
-0.050861169 -0.022251762 0.014918178
-0.050202675 -0.022430982 0.015180498
-0.048848048 -0.022300195 0.016139358
-0.047864869 -0.022336937 0.016149193
-0.047189541 -0.022522282 0.016202688
-0.045884691 -0.022408804 0.016280472
-0.044417303 -0.022208652 0.016148597
-0.043644037 -0.022354262 0.015897244
-0.042847093 -0.022494724 0.015497684
-0.04154738 -0.022371667 0.015499562
-0.040095482 -0.022158029 0.014962375
-0.039332055 -0.022323599 0.014693946
-0.038578957 -0.022504393 0.014012247
-0.037734237 -0.022640543 0.013680965
-0.036632996 -0.022626262 0.013040721
-0.03552087 -0.022604192 0.012325674
-0.034261066 -0.022483826 0.011303216
-0.033648573 -0.022794195 0.010029227
-0.033041093 -0.023128767 0.0091129541
-0.031794101 -0.023023315 0.008667171
-0.030866455 -0.023149842 0.009675324
-0.029723233 -0.023118069 0.009749651
-0.028543342 -0.023054238 0.0098950267
-0.026839096 -0.02254484 0.010147989
-0.025840929 -0.022610813 0.0103966
-0.024544127 -0.022409856 0.010310262
-0.023529764 -0.02246023 0.010408044
-0.022258915 -0.022258915 0.01093483
-0.021606702 -0.022687038 0.010855615
-0.02067909 -0.022855837 0.011083037
-0.019552458 -0.022811202 0.011276633
-0.01872471 -0.023130525 0.010982335
-0.017358329 -0.022782806 0.010845184
-0.01603039 -0.022442546 0.011034042
-0.014914487 -0.02237173 0.011274636
-0.01395081 -0.022535924 0.01120913
-0.012765465 -0.022339564 0.011274636
-0.011945562 -0.022805167 0.011233687
-0.01079944 -0.022678824 0.011273593
-0.0095962491 -0.022391248 0.011327416
-0.0086634122 -0.022741456 0.010881603
-0.0075216009 -0.022564802 0.010881603
-0.0064824168 -0.02268846 0.011327595
-0.0054134633 -0.022736546 0.011293679
-0.0042700036 -0.022417519 0.011218876
-0.0032157248 -0.022510074 0.010899335
-0.0021171798 -0.022230387 0.011220276
-0.0010606701 -0.022274073 0.011675417
0 -0.022178236 0.011910617
0.0010680988 -0.022430075 0.01184386
0.0021521312 -0.022597378 0.01153332
0.0032347227 -0.022643059 0.011256337
0.0043652337 -0.022917477 0.011073917
0.00544482 -0.022868246 0.010343701
0.0065302723 -0.022855954 0.010385096
0.0075833965 -0.02275019 0.010450363
0.0085815899 -0.022526672 0.010996759
0.009828005 -0.022932013 0.011761755
0.010670998 -0.022409098 0.011907846
0.011670375 -0.022279808 0.012334645
0.012876481 -0.022533843 0.012201279
0.013895427 -0.022446459 0.012004077
0.01491193 -0.022367897 0.012024045
0.01604682 -0.022465548 0.012075692
0.017150974 -0.022510655 0.012037307
0.018140372 -0.022408694 0.012268037
0.01969042 -0.022972159 0.012325525
0.020390179 -0.022536514 0.012186348
0.021478988 -0.022552939 0.012308776
0.022583267 -0.022583267 0.012861609
0.023238167 -0.022181889 0.013219059
0.024514766 -0.022383047 0.013415039
0.025667334 -0.022458918 0.013571769
0.026536746 -0.022290867 0.013851196
0.027743934 -0.022408562 0.014124334
0.028727535 -0.022343637 0.014493614
0.029805144 -0.022353858 0.014547139
0.030939894 -0.022404751 0.015042424
0.031623852 -0.022136696 0.015690446
0.032707565 -0.022156736 0.016030252
0.033756055 -0.022152413 0.016180366
0.034261208 -0.021802589 0.01621294
0.035644867 -0.022015948 0.015888691
0.03689985 -0.022139911 0.015800595
0.038140114 -0.0222484 0.015749484
0.039547428 -0.022445837 0.015288144
0.041311752 -0.022830179 0.014190346
0.041441016 -0.022314394 0.013246089
0.042706523 -0.022420926 0.012471229
0.043952003 -0.022512002 0.011836171
0.044974331 -0.022487165 0.010714114
0.04693646 -0.022922458 0.0089447796
0.047903281 -0.02286293 0.0075863898
0.048589185 -0.022674952 0.0064715445
-0.064731218 -0.021577071 0.006320864
-0.064525045 -0.021872897 0.0080007613
-0.062419333 -0.021523906 0.0087757707
-0.061550256 -0.021596581 0.0098416805
-0.060656812 -0.021663148 0.010307819
-0.059268691 -0.02155225 0.010818839
-0.05787155 -0.021433907 0.011043996
-0.057212047 -0.021589451 0.012073755
-0.055754941 -0.021444209 0.012431234
-0.054894112 -0.021527102 0.013079554
-0.053635016 -0.021454006 0.013821691
-0.051737089 -0.021117179 0.013902307
-0.051471278 -0.021446366 0.014375508
-0.049623393 -0.021116337 0.014867038
-0.049021196 -0.021313561 0.015483141
-0.047819167 -0.021252962 0.015702993
-0.046830591 -0.021286633 0.015847266
-0.045593668 -0.021206357 0.015983909
-0.044929139 -0.021394826 0.015812069
-0.043455813 -0.021197956 0.015642345
-0.042731319 -0.021365659 0.015314728
-0.041259516 -0.021158725 0.015425116
-0.040605094 -0.021371102 0.015247673
-0.039455958 -0.021327542 0.014613271
-0.038409159 -0.021338422 0.013818681
-0.037458733 -0.021404991 0.013383865
-0.036550991 -0.021500582 0.012943178
-0.035515368 -0.021524465 0.012268007
-0.034401398 -0.021500872 0.010684222
-0.033899419 -0.021870593 0.0092460811
-0.03266634 -0.021777559 0.0086036921
-0.031555057 -0.021762107 0.008624047
-0.030943524 -0.022102516 0.0094756186
-0.029561313 -0.021897268 0.0095341802
-0.02841109 -0.021854684 0.0099221766
-0.026675364 -0.02134029 0.010180801
-0.025454674 -0.021212228 0.010775685
-0.02468849 -0.02146825 0.010727525
-0.023460524 -0.021327749 0.010813415
-0.022287296 -0.021225994 0.011426181
-0.021596076 -0.021596076 0.011250108
-0.02051645 -0.021596262 0.011465788
-0.019631607 -0.021812897 0.011395901
-0.018631937 -0.021919925 0.011252224
-0.017182374 -0.021477966 0.010937959
-0.016080817 -0.021441089 0.010976762
-0.015008413 -0.02144059 0.011252224
-0.013809369 -0.021245183 0.011131316
-0.012864246 -0.021440411 0.011404902
-0.011789722 -0.021435859 0.011286646
-0.010683929 -0.021367857 0.011346877
-0.0097262431 -0.021613875 0.011678338
-0.0086348057 -0.021587012 0.011041433
-0.0075852177 -0.02167205 0.010944933
-0.0065256273 -0.021752091 0.011280507
-0.0054269433 -0.021707773 0.011293679
-0.0042754211 -0.021377105 0.011184961
-0.003204626 -0.021364173 0.010899693
-0.0021274376 -0.021274377 0.01142776
-0.0010603184 -0.021206368 0.011808842
0 -0.021028608 0.012098193
0.0010492956 -0.020985913 0.012359619
0.002138034 -0.021380339 0.012030959
0.0032563284 -0.021708855 0.012234837
0.0042668954 -0.021334477 0.011628509
0.0054455157 -0.021782063 0.011086673
0.0066538672 -0.022179557 0.011007756
0.0075728572 -0.021636734 0.010975242
0.008684977 -0.021712441 0.011354089
0.009667065 -0.021482365 0.011865556
0.010770379 -0.021540757 0.011741161
0.011856686 -0.021557612 0.012147665
0.012873743 -0.021456238 0.012200207
0.013827569 -0.021273183 0.011948556
0.015008413 -0.02144059 0.012075901
0.016130112 -0.021506814 0.012159199
0.01700615 -0.021257685 0.012114555
0.018313354 -0.021545121 0.012740999
0.019229712 -0.021366347 0.012981117
0.020272577 -0.021339552 0.0128479
0.021543767 -0.021543767 0.012861609
0.022255367 -0.021195587 0.013417453
0.023374906 -0.021249915 0.013510942
0.024505302 -0.021308959 0.013790011
0.025634129 -0.021361774 0.013899177
0.026568996 -0.021255195 0.014134198
0.02789125 -0.021454807 0.014631897
0.028686894 -0.021249549 0.015049547
0.029834449 -0.02131032 0.015142471
0.031061845 -0.02142196 0.015411258
0.031746291 -0.021164192 0.01581046
0.032977115 -0.021275558 0.015997201
0.033507805 -0.020942377 0.016284883
0.03486643 -0.021131169 0.016350776
0.036024883 -0.021191107 0.0160065
0.036581773 -0.02090387 0.015607417
0.038099092 -0.021166163 0.015428364
0.039713986 -0.021467017 0.014653981
0.040770974 -0.021458406 0.013987273
0.042153068 -0.021616958 0.013015032
0.043252461 -0.02162623 0.012310922
0.044528857 -0.021721393 0.01115346
0.045542203 -0.021686763 0.010425001
0.047207974 -0.021957196 0.007863313
0.047251437 -0.021477925 0.0071991384
0.049760912 -0.022115959 0.006066829
-0.06519068 -0.020643717 0.0056028068
-0.063565731 -0.020470321 0.0074779093
-0.062867276 -0.020594452 0.0081214905
-0.062011283 -0.020670429 0.008749485
-0.060957931 -0.020682156 0.0096889436
-0.058827739 -0.02032231 0.010363996
-0.058129441 -0.020452952 0.010716021
-0.057314884 -0.020546846 0.011119336
-0.056044281 -0.02047772 0.011934549
-0.054561727 -0.020326918 0.012228668
-0.053454082 -0.020312551 0.012962937
-0.052288361 -0.020275081 0.013389945
-0.050629847 -0.020040981 0.013984531
-0.050425414 -0.020384742 0.014258474
-0.049380574 -0.020396324 0.015045226
-0.047778606 -0.02017319 0.015299231
-0.047001377 -0.02029605 0.015634567
-0.046000168 -0.020325655 0.015799135
-0.044425715 -0.020097347 0.015696973
-0.04336416 -0.020095587 0.015642345
-0.042392224 -0.020136308 0.015308261
-0.041266851 -0.020104364 0.015326828
-0.040197559 -0.020098779 0.01460129
-0.039355244 -0.02020945 0.014021873
-0.038350463 -0.020240523 0.013463199
-0.037715971 -0.020474385 0.013259381
-0.036423348 -0.020354224 0.012349129
-0.035429519 -0.020398814 0.011525989
-0.034461897 -0.020461751 0.0098004043
-0.033212647 -0.020356137 0.0084545314
-0.03281606 -0.020783504 0.0079236031
-0.031692762 -0.020764224 0.007969439
-0.03055428 -0.020733261 0.0093738735
-0.029735532 -0.020925002 0.0097329319
-0.028352899 -0.020719426 0.010085911
-0.026623884 -0.020234151 0.010320753
-0.0256956 -0.02034235 0.010784984
-0.024697078 -0.020401934 0.011217892
-0.02341654 -0.020223375 0.011305332
-0.02241517 -0.020280393 0.011591643
-0.021467298 -0.020393934 0.011469543
-0.020318964 -0.020318964 0.011533052
-0.019424802 -0.020503959 0.011624724
-0.01842213 -0.020589439 0.011660099
-0.017264305 -0.020501362 0.011283576
-0.016082769 -0.020371508 0.011339724
-0.014854288 -0.020159392 0.011708587
-0.013914716 -0.020336894 0.011728048
-0.012851197 -0.020347729 0.011728048
-0.011767714 -0.020326052 0.011712909
-0.010605464 -0.020150382 0.011528164
-0.0097871609 -0.020661784 0.011382639
-0.0086139319 -0.020458089 0.010966897
-0.007571646 -0.020551611 0.010796756
-0.0064632059 -0.020466819 0.010899693
-0.0053740088 -0.020421235 0.011076152
-0.0043110214 -0.020477353 0.010814041
-0.0032375394 -0.020504417 0.010779768
-0.0021408522 -0.020338096 0.011393845
-0.0010675124 -0.020282738 0.011808842
0 -0.019909015 0.011870682
0.001054113 -0.020028148 0.012359619
0.0021211186 -0.020150626 0.012404889
0.003213238 -0.020350508 0.012644231
0.0043005464 -0.020427594 0.012329251
0.0053651785 -0.020387679 0.011461198
0.0064566289 -0.020445991 0.011248559
0.007702515 -0.020906826 0.011089593
0.008659238 -0.020565692 0.011737317
0.0097904494 -0.020668728 0.011892289
0.010789954 -0.020500913 0.012015283
0.011840714 -0.020452144 0.01238814
0.012916218 -0.020450678 0.012340575
0.01396299 -0.020407448 0.012150049
0.014918202 -0.020246131 0.012218565
0.0158947 -0.020133285 0.012173712
0.017164011 -0.020382263 0.012159199
0.01814075 -0.020274956 0.012920678
0.019222187 -0.020290088 0.013046652
0.020496976 -0.020496976 0.012732118
0.021289671 -0.02022519 0.013051897
0.022577388 -0.02042716 0.013356745
0.023561036 -0.020348169 0.013495505
0.024333455 -0.020101549 0.013765216
0.025745211 -0.020381626 0.013794661
0.026625402 -0.020235306 0.01411885
0.027840897 -0.020345271 0.014517039
0.028608328 -0.020131785 0.014947802
0.029805737 -0.020225322 0.014852434
0.030826012 -0.020196352 0.015293837
0.032079931 -0.02031729 0.015711337
0.032766499 -0.020082692 0.015802324
0.033735279 -0.020030323 0.015930325
0.034956776 -0.02012663 0.015864938
0.035748612 -0.019977165 0.015607417
0.036957826 -0.020062821 0.015442461
0.038322072 -0.02022554 0.014944851
0.039061282 -0.020058496 0.014569581
0.040630728 -0.020315364 0.013656914
0.042177059 -0.020547798 0.012938797
0.042799488 -0.020329759 0.012320966
0.043749213 -0.020274024 0.011226296
0.045438278 -0.020555412 0.010313213
0.046580866 -0.020582244 0.0078378022
0.047579441 -0.020545669 0.0070121586
0.049118653 -0.020738987 0.0052535534
-0.064287566 -0.019613156 0.0064397156
-0.063332424 -0.019654889 0.00769189
-0.061313622 -0.019362196 0.0082755685
-0.060583085 -0.019473134 0.008800447
-0.059143074 -0.019355914 0.009755224
-0.058233827 -0.019411273 0.010118842
-0.057126153 -0.019401334 0.010704786
-0.055906147 -0.019352127 0.011086285
-0.054648049 -0.019287545 0.011570811
-0.053541757 -0.019275032 0.012268364
-0.052688338 -0.0193549 0.012635261
-0.051187187 -0.019195195 0.01318121
-0.050226428 -0.019235652 0.013837129
-0.049152363 -0.019233532 0.014966697
-0.047914799 -0.019165918 0.015064985
-0.047235858 -0.019323759 0.015605748
-0.045718938 -0.019138159 0.015747517
-0.044476584 -0.019061392 0.015550673
-0.043540541 -0.019115357 0.015429825
-0.042418886 -0.019088499 0.015327513
-0.041595496 -0.01919792 0.015247673
-0.04025976 -0.019070411 0.014443099
-0.039285693 -0.019111956 0.013651162
-0.038719598 -0.019359799 0.013355941
-0.037306126 -0.019186009 0.012569606
-0.036415137 -0.019278603 0.01173076
-0.035399519 -0.019308828 0.010874808
-0.034351211 -0.019322554 0.0095075667
-0.03379821 -0.019624766 0.007905364
-0.033102281 -0.019861368 0.0077730715
-0.031315833 -0.019437414 0.007905364
-0.03065137 -0.019704452 0.0092792511
-0.029546959 -0.019697972 0.010030538
-0.027757173 -0.019216504 0.010876328
-0.026750054 -0.019260038 0.011075944
-0.025561379 -0.019171033 0.011348218
-0.024505496 -0.019178214 0.011509031
-0.023558393 -0.019275049 0.011516958
-0.022397313 -0.019197697 0.011614263
-0.021518441 -0.019366596 0.011580557
-0.020411475 -0.019337185 0.011565298
-0.019401846 -0.019401846 0.011738896
-0.018373556 -0.019454353 0.011639655
-0.017292587 -0.019454161 0.011499882
-0.016133016 -0.019359618 0.011674643
-0.014881568 -0.019133443 0.011895567
-0.013674133 -0.018933414 0.0119932
-0.012769386 -0.019154079 0.011979848
-0.011700752 -0.019146685 0.011701196
-0.010712643 -0.019282758 0.011761785
-0.0095767286 -0.019153457 0.011694223
-0.0085447682 -0.019225728 0.010933608
-0.0075597297 -0.019439304 0.010801494
-0.006467971 -0.019403912 0.011012465
-0.0054105655 -0.019478034 0.010905832
-0.0042817947 -0.019268075 0.010848761
-0.0031891221 -0.019134732 0.010922611
-0.0021560837 -0.019404752 0.011749715
-0.0010664174 -0.019195514 0.012155861
0 -0.019203248 0.012280762
0.0010676357 -0.019217441 0.012663156
0.0021116172 -0.019004554 0.012861222
0.0031701173 -0.019020705 0.013113379
0.0042579174 -0.019160626 0.012925982
0.0053079333 -0.01910856 0.012531847
0.0064347158 -0.019304147 0.011970699
0.0076253852 -0.019608133 0.011892289
0.0087635266 -0.019717935 0.012108505
0.0098485788 -0.019697158 0.012194425
0.010744917 -0.01934085 0.012278259
0.011789835 -0.019292457 0.012699813
0.012976889 -0.019465333 0.012808442
0.01379127 -0.019095603 0.013065577
0.014899466 -0.019156456 0.012904674
0.016110189 -0.019332226 0.013268381
0.016889416 -0.019000592 0.013278693
0.018224573 -0.019296605 0.01332891
0.019478522 -0.019478522 0.013241768
0.020203382 -0.019140046 0.013502896
0.021554945 -0.019399449 0.013651311
0.022779265 -0.019525085 0.013743162
0.023363033 -0.019115208 0.014018178
0.024383808 -0.019082978 0.014118612
0.025669368 -0.019252025 0.014422297
0.02667862 -0.019208604 0.014594853
0.027765075 -0.019221975 0.014940023
0.028631307 -0.019087536 0.015150845
0.029657731 -0.019065684 0.015191376
0.030933503 -0.019200103 0.015345514
0.031976096 -0.019185657 0.015421212
0.032783434 -0.019035541 0.015494406
0.033923738 -0.019082101 0.015665621
0.035040915 -0.019113226 0.015247554
0.036227345 -0.019179182 0.014898449
0.037335861 -0.019201299 0.014808327
0.038136445 -0.019068222 0.014617324
0.039231826 -0.019085752 0.013916641
0.040838156 -0.019344389 0.013261378
0.041380331 -0.019098613 0.012642175
0.042952273 -0.019328523 0.012048006
0.043130599 -0.018935384 0.010752827
0.044260308 -0.018968701 0.0083840489
0.046961199 -0.019658176 0.0074569881
0.048208281 -0.019721569 0.0063593388
-0.064205542 -0.018499902 0.0055746734
-0.0618705 -0.018134458 0.0066179931
-0.061633024 -0.01838178 0.007542789
-0.060616594 -0.018401466 0.0079061091
-0.059066426 -0.018256895 0.0085068941
-0.058676936 -0.018472368 0.0091780722
-0.057074666 -0.018306969 0.010098279
-0.05582419 -0.018250216 0.010577977
-0.054918975 -0.018306324 0.010856211
-0.053565647 -0.01821232 0.011749029
-0.052199185 -0.018109921 0.012216866
-0.051033009 -0.018074192 0.012518078
-0.049876366 -0.018040389 0.013471901
-0.049199417 -0.018182393 0.013999641
-0.048257779 -0.018230716 0.014467061
-0.046572171 -0.017993793 0.015052646
-0.045812432 -0.018111892 0.015202343
-0.044802021 -0.018134151 0.015192449
-0.043671969 -0.018107889 0.015222162
-0.042636849 -0.018120661 0.01505509
-0.041458111 -0.018071484 0.01451692
-0.040317126 -0.018036608 0.013913929
-0.039202407 -0.018011916 0.013337612
-0.038658258 -0.01825529 0.013130099
-0.037826333 -0.018372791 0.012272298
-0.036668815 -0.018334407 0.011252522
-0.03554561 -0.018311376 0.01051718
-0.034864068 -0.018521536 0.0093658566
-0.033903558 -0.018592272 0.0079209507
-0.032661185 -0.018508004 0.0080532432
-0.031641696 -0.01854858 0.0082581639
-0.03103416 -0.01884217 0.0093854964
-0.029125115 -0.018338036 0.011062503
-0.02788822 -0.018234607 0.011255234
-0.026977932 -0.018344993 0.011897653
-0.025492646 -0.01805729 0.011903912
-0.024726385 -0.018276025 0.011863679
-0.02338431 -0.018069696 0.012041956
-0.022455964 -0.018178638 0.01207912
-0.021823792 -0.018550223 0.012132227
-0.020558223 -0.018394198 0.012118518
-0.01935357 -0.018278372 0.01225251
-0.018314509 -0.018314509 0.012122095
-0.017281812 -0.018361924 0.012094736
-0.016075419 -0.018218808 0.012093037
-0.014931777 -0.018131442 0.012199789
-0.013892509 -0.018167127 0.012122095
-0.012819008 -0.018160261 0.012105167
-0.011817916 -0.018264053 0.011816531
-0.01061637 -0.01804783 0.011765808
-0.0095969588 -0.018127589 0.011584133
-0.0085720122 -0.018215526 0.011185259
-0.007450975 -0.018095225 0.010708779
-0.0065001086 -0.018416975 0.010818571
-0.0053587682 -0.018219814 0.010792285
-0.0042795809 -0.01818822 0.010837048
-0.0032408247 -0.018364673 0.010887355
-0.0021505929 -0.018280039 0.011562735
-0.0010658638 -0.018119683 0.011989683
0 -0.018334119 0.012095034
0.0010681787 -0.018159039 0.012303919
0.0021267121 -0.018077053 0.01243338
0.0031911146 -0.018082984 0.012730926
0.0042286539 -0.01797178 0.012680531
0.0053103403 -0.018055158 0.012644231
0.0064430935 -0.018255433 0.012278259
0.0074236868 -0.018028954 0.012108505
0.0087138079 -0.01851684 0.012232959
0.0099028246 -0.018705336 0.012427658
0.010892254 -0.018516833 0.012586802
0.011814566 -0.018258877 0.012900084
0.012792702 -0.018122995 0.013365567
0.013967707 -0.018265463 0.013611346
0.014968429 -0.018175948 0.013622314
0.016058069 -0.018199144 0.013634831
0.016791914 -0.017841408 0.013788253
0.018076524 -0.018076524 0.013705105
0.019132286 -0.018069383 0.013936698
0.020395199 -0.018248336 0.013676107
0.021668028 -0.018417826 0.013936698
0.022638658 -0.018326532 0.014022589
0.023678722 -0.018297195 0.014159888
0.024775347 -0.018312212 0.014604896
0.025724702 -0.018221665 0.01470831
0.026734723 -0.018179612 0.014732182
0.02762584 -0.01806305 0.014940023
0.028647546 -0.018037343 0.015018553
0.029999577 -0.018214028 0.01506421
0.030762415 -0.018033139 0.015120924
0.031837411 -0.018041199 0.01522544
0.03294139 -0.018064633 0.015258402
0.033937134 -0.018029103 0.015280515
0.035002641 -0.018031664 0.014760077
0.036338594 -0.018169297 0.014593333
0.036883228 -0.017914711 0.014385402
0.038304396 -0.018088188 0.013782978
0.039626617 -0.018206824 0.013435453
0.03982624 -0.017817002 0.012786657
0.041375346 -0.018035408 0.012344718
0.042721715 -0.01815673 0.011216044
0.043838449 -0.018176917 0.010410249
0.045061577 -0.018239209 0.0077558458
0.04603643 -0.01820045 0.0068489015
-0.062932909 -0.017360801 0.0058093071
-0.061979622 -0.017397789 0.0065251291
-0.06032199 -0.017234854 0.0069788694
-0.059636761 -0.017348876 0.0075856149
-0.058620919 -0.01736916 0.0081707239
-0.057358943 -0.017315907 0.0089338422
-0.055886392 -0.017195813 0.010050207
-0.054295737 -0.017033957 0.010427922
-0.053815927 -0.017221097 0.010967374
-0.052545261 -0.017157637 0.011784583
-0.05100625 -0.017002083 0.012277395
-0.050151613 -0.01707289 0.012877077
-0.049571946 -0.017242417 0.013729364
-0.047807686 -0.016998287 0.014255762
-0.047093868 -0.017125044 0.014717877
-0.046054136 -0.017136423 0.015104651
-0.044394299 -0.016912114 0.014990687
-0.043919947 -0.017139491 0.014978588
-0.042367171 -0.016946869 0.014527649
-0.041363008 -0.016969441 0.014134765
-0.040713061 -0.017142342 0.013448805
-0.039469045 -0.017067693 0.013139933
-0.038465597 -0.017095821 0.012667239
-0.037600767 -0.017188923 0.011734873
-0.036862455 -0.017347038 0.01065442
-0.035879873 -0.017396303 0.0098482072
-0.03511057 -0.017555285 0.0080014765
-0.033923972 -0.017509146 0.0074276924
-0.032826748 -0.017507598 0.0076334178
-0.031919848 -0.01761095 0.0076930523
-0.030787176 -0.017592672 0.0094104409
-0.029197033 -0.017301945 0.010995299
-0.027905306 -0.017172495 0.011895269
-0.02633157 -0.016852204 0.012121767
-0.025784267 -0.017189512 0.012183845
-0.024281239 -0.016891297 0.012823075
-0.023323808 -0.01696277 0.013064235
-0.022635872 -0.017246377 0.012916058
-0.021524213 -0.01721937 0.012784004
-0.020459736 -0.01722925 0.012812555
-0.019432249 -0.017273109 0.012785196
-0.018260513 -0.017186364 0.012665123
-0.017160855 -0.017160855 0.012517542
-0.016230499 -0.017312532 0.012424558
-0.014897508 -0.017025724 0.012643456
-0.013897895 -0.017105101 0.012465924
-0.012951137 -0.017268183 0.012046397
-0.011750798 -0.01709207 0.011759013
-0.010822113 -0.01731538 0.011573017
-0.0097947512 -0.017412892 0.011538804
-0.0085787429 -0.017157486 0.010875642
-0.0075455545 -0.017246982 0.010483712
-0.0064974879 -0.017326634 0.010513783
-0.005384298 -0.017229754 0.010524094
-0.0042992742 -0.017197097 0.010824353
-0.0032201391 -0.017174074 0.010874659
-0.0021365574 -0.017092459 0.011494398
-0.0010629882 -0.017007811 0.011739433
0 -0.016925002 0.012051642
0.0010756608 -0.017210573 0.012380362
0.0021555664 -0.017244531 0.01273647
0.0032084414 -0.017111689 0.013150513
0.0042773415 -0.017109366 0.013354838
0.0053538373 -0.01713228 0.01296553
0.0063425074 -0.016913353 0.012699813
0.007502486 -0.017148539 0.012341648
0.0085119801 -0.01702396 0.012781203
0.0095749218 -0.017022083 0.012929261
0.010973773 -0.017558038 0.013230354
0.011910244 -0.017323991 0.013761222
0.012826172 -0.017101564 0.014386266
0.013824273 -0.017014489 0.014386266
0.014961443 -0.017098792 0.014333963
0.015833231 -0.016888779 0.014048219
0.017163778 -0.017163778 0.014048219
0.018021468 -0.016961381 0.014039338
0.019392809 -0.017238053 0.013453841
0.020480549 -0.017246777 0.013440698
0.021520562 -0.017216451 0.013557881
0.022663981 -0.017267795 0.013978809
0.023694538 -0.017232392 0.014185458
0.024372175 -0.016954556 0.014726728
0.025746316 -0.017164212 0.014580756
0.026504874 -0.016963119 0.014612228
0.02726035 -0.016775601 0.014805138
0.028722696 -0.017020857 0.014812469
0.02983417 -0.017048098 0.014853388
0.030654542 -0.016912851 0.014932185
0.032188807 -0.017167363 0.015092432
0.032991838 -0.017028045 0.015097171
0.034070816 -0.017035408 0.015084118
0.035322819 -0.017126216 0.014539987
0.036078107 -0.016977932 0.014385402
0.03744569 -0.017118031 0.014088005
0.038238402 -0.016994847 0.013884574
0.03924457 -0.016970625 0.013145268
0.04029819 -0.016967658 0.012820363
0.041580584 -0.017058702 0.012439162
0.042672724 -0.01706909 0.011164308
0.043621745 -0.01702312 0.0094588995
0.044511367 -0.016956711 0.0077989399
0.046030689 -0.017127698 0.0058336556
-0.062587231 -0.016470324 0.0055123866
-0.060959645 -0.016328476 0.0059791207
-0.059426613 -0.016207259 0.0066364408
-0.058362361 -0.016211767 0.0075468421
-0.057463642 -0.016263295 0.0079401731
-0.055879146 -0.016118985 0.0087477565
-0.054849621 -0.016132241 0.0098204613
-0.053917795 -0.016175337 0.010399222
-0.052781429 -0.016157581 0.010841697
-0.051127277 -0.015977275 0.011587232
-0.050463587 -0.0161054 0.01224494
-0.049507067 -0.016143609 0.012746245
-0.048343591 -0.016114531 0.01354757
-0.047346212 -0.016140755 0.014006257
-0.045699038 -0.015941525 0.014107615
-0.044604708 -0.015930252 0.014255762
-0.044137884 -0.016148007 0.014067292
-0.042524017 -0.015946507 0.013916373
-0.041705199 -0.016040461 0.013470978
-0.040735405 -0.016079765 0.013232201
-0.039430175 -0.015985206 0.012691081
-0.038576342 -0.016073477 0.011968583
-0.03749178 -0.016067905 0.010963768
-0.036533646 -0.016117785 0.0098061264
-0.036045641 -0.016384382 0.0079779327
-0.034977887 -0.016395885 0.0077619851
-0.034349088 -0.016620526 0.0074276924
-0.033528063 -0.016764032 0.0073598325
-0.031900007 -0.016500004 0.0079633594
-0.03050421 -0.016341541 0.0095206201
-0.029173581 -0.016207544 0.011653334
-0.027511183 -0.015871836 0.012360126
-0.026549997 -0.015929997 0.012870163
-0.025579466 -0.015987167 0.013009638
-0.024388516 -0.015905553 0.013268799
-0.023510769 -0.016030069 0.013338
-0.022583108 -0.01613079 0.01335907
-0.021599317 -0.016199488 0.013261557
-0.020342598 -0.016059944 0.01323843
-0.019460421 -0.016217019 0.01311332
-0.018407164 -0.016241616 0.012985319
-0.017205376 -0.016130039 0.012812555
-0.015921529 -0.015921529 0.012665123
-0.014887012 -0.015950369 0.013000071
-0.013922989 -0.016064988 0.012398839
-0.012677584 -0.015846981 0.011839151
-0.011837024 -0.016141398 0.011550307
-0.01071656 -0.01607484 0.011458755
-0.0096279308 -0.016046552 0.011419386
-0.0086385431 -0.016197268 0.010656834
-0.0075420206 -0.016161473 0.01049304
-0.0065346723 -0.016336681 0.010499418
-0.0054146736 -0.01624402 0.010320872
-0.0042977398 -0.016116524 0.010575414
-0.0032222786 -0.016111394 0.010596156
-0.00214237 -0.016067773 0.011533618
-0.0010699152 -0.016048729 0.011739433
0 -0.015973832 0.011911243
0.0010672952 -0.016009428 0.012255609
0.0021438324 -0.016078742 0.012531638
0.0032063755 -0.016031878 0.013202101
0.0043050512 -0.016143942 0.013586819
0.0053168838 -0.015950652 0.013220191
0.0064268336 -0.016067084 0.013057321
0.0075279474 -0.016131315 0.012799412
0.008501593 -0.015940487 0.013112694
0.009632865 -0.016054776 0.013375133
0.010712296 -0.016068444 0.014032722
0.012000507 -0.016364329 0.014906704
0.013098561 -0.016373202 0.015064061
0.013827984 -0.015955366 0.015114576
0.015068602 -0.016144931 0.014646143
0.015907828 -0.015907828 0.014233112
0.017022237 -0.015958346 0.014359653
0.018278833 -0.016128382 0.014163673
0.019367287 -0.016139407 0.014014602
0.020164508 -0.01591935 0.013973951
0.021343717 -0.016007788 0.013989031
0.022531996 -0.016094282 0.014163673
0.023312669 -0.015895003 0.014329135
0.024329752 -0.01586723 0.014423102
0.025396995 -0.015873121 0.014650136
0.026388839 -0.015833303 0.014484346
0.027383128 -0.01579796 0.014847249
0.028694278 -0.015941264 0.014770091
0.029893208 -0.016014218 0.014770091
0.030969443 -0.016018678 0.014727294
0.032009616 -0.016004808 0.014775783
0.0333905 -0.016156694 0.014777422
0.034324825 -0.016089762 0.014708728
0.0353202 -0.016054638 0.014258802
0.036217812 -0.015978446 0.013921291
0.037557643 -0.016096132 0.013182342
0.038200561 -0.015916901 0.013145059
0.03943691 -0.015987935 0.012839258
0.040802255 -0.016106153 0.01270026
0.041177765 -0.0158376 0.011679083
0.043302514 -0.016238444 0.01081261
0.043650776 -0.015969796 0.0081309974
0.045485348 -0.016244767 0.0073922575
0.046488386 -0.01621688 0.0050844252
-0.059581313 -0.015166152 0.0056864917
-0.058595829 -0.01519151 0.0064300001
-0.05762244 -0.015221022 0.007047236
-0.055598158 -0.014968734 0.007694453
-0.055424843 -0.015214663 0.0084767938
-0.053798642 -0.015063619 0.0097556114
-0.053014349 -0.015146958 0.010277629
-0.051837564 -0.015119289 0.010841697
-0.050237682 -0.014964416 0.01146847
-0.049567189 -0.015085666 0.011992604
-0.048549566 -0.015104309 0.012574345
-0.046484251 -0.014790444 0.01320681
-0.045752626 -0.014896204 0.013329864
-0.044967607 -0.014989202 0.013329864
-0.043381285 -0.01481312 0.013181865
-0.042675782 -0.014936524 0.013128012
-0.041763339 -0.014991968 0.012997031
-0.040395573 -0.014882579 0.012160122
-0.039725583 -0.0150313 0.011395812
-0.038614761 -0.015016852 0.010643393
-0.03768 -0.015071999 0.0096341968
-0.037003502 -0.015236735 0.0077761114
-0.036102995 -0.015316422 0.0071601272
-0.035212345 -0.015405401 0.0072287321
-0.034499086 -0.015580232 0.0073021054
-0.033153713 -0.015471733 0.0074071288
-0.031892303 -0.015396284 0.0081325769
-0.030619295 -0.015309648 0.010189325
-0.028916838 -0.014993915 0.012107879
-0.027700229 -0.014915507 0.013182312
-0.026750054 -0.01498003 0.013387382
-0.025551116 -0.014904818 0.013322502
-0.024504058 -0.014915513 0.013478011
-0.023384385 -0.014880973 0.013775945
-0.022638822 -0.015092547 0.013739884
-0.021693777 -0.015185645 0.01335907
-0.020534106 -0.015130393 0.01344344
-0.019310961 -0.015019636 0.013227284
-0.018299116 -0.01506986 0.013149321
-0.017130941 -0.014989574 0.01308918
-0.015942149 -0.014879338 0.013051689
-0.014995787 -0.014995787 0.013151586
-0.013683547 -0.014736128 0.013000071
-0.012865119 -0.015009305 0.012407035
-0.011803922 -0.015023175 0.011916935
-0.010518932 -0.014726506 0.011630803
-0.0096617006 -0.015029313 0.011535943
-0.0086690569 -0.015170849 0.010784686
-0.0075363051 -0.01507261 0.010448515
-0.0065513495 -0.015286483 0.010478675
-0.005392618 -0.015099331 0.010478675
-0.0042742426 -0.014959848 0.010599822
-0.0032397544 -0.015118854 0.010599822
-0.0021531668 -0.015072168 0.010926038
-0.0010646497 -0.014905094 0.01112473
0 -0.015079181 0.011873782
0.0010717794 -0.015004911 0.012005359
0.0021262325 -0.014883627 0.012457877
0.0032375609 -0.015108617 0.012728125
0.0042881356 -0.015008475 0.013415128
0.0054069376 -0.015139426 0.013528734
0.0064676292 -0.015091135 0.01314345
0.0074701975 -0.014940395 0.012993306
0.0085316077 -0.014930313 0.013299823
0.0095668435 -0.014881758 0.014154285
0.010580461 -0.014812645 0.014508456
0.01169135 -0.014879902 0.015044093
0.012879007 -0.015025508 0.015145481
0.013814983 -0.014877673 0.015136808
0.015045239 -0.015045239 0.014943689
0.016005175 -0.014938164 0.014720768
0.016935119 -0.01481823 0.014726013
0.018339483 -0.015103103 0.014576703
0.019230967 -0.01495742 0.014199644
0.020286608 -0.014948027 0.013975412
0.021702299 -0.01519161 0.014132082
0.022319334 -0.014879555 0.014188468
0.023619981 -0.015030898 0.014423102
0.024569822 -0.014955544 0.014492363
0.025434323 -0.014836689 0.014474124
0.026517417 -0.014849754 0.014460236
0.027676513 -0.014902738 0.014525175
0.028916838 -0.014993915 0.014493048
0.030161427 -0.015080714 0.014460236
0.030894678 -0.014914672 0.014304131
0.032329705 -0.015087195 0.014439315
0.033442475 -0.015103052 0.014629722
0.034298748 -0.015005702 0.014569938
0.035716191 -0.015152324 0.013471484
0.03686931 -0.01518148 0.013145059
0.037463274 -0.01498531 0.012752205
0.038531736 -0.014984564 0.012803733
0.039361868 -0.014893679 0.012728333
0.040510837 -0.014925045 0.01265949
0.041477125 -0.014889225 0.011570603
0.043531969 -0.01523619 0.0098034739
0.043873407 -0.014981163 0.0078391135
0.044738516 -0.014912838 0.0068507195
-0.058548495 -0.014095007 0.0059798956
-0.057281394 -0.014050153 0.0064300001
-0.056633554 -0.014158389 0.0073917508
-0.055377033 -0.014115714 0.0078014433
-0.054147802 -0.014078428 0.0087741911
-0.052494109 -0.013927009 0.0098655522
-0.051664699 -0.013992523 0.01044929
-0.050773833 -0.014043826 0.010797203
-0.049462695 -0.013978587 0.011114925
-0.048013996 -0.01387071 0.011592597
-0.047175802 -0.013938306 0.012053043
-0.046340086 -0.014009793 0.01264149
-0.044742249 -0.013848791 0.01264149
-0.043698099 -0.013855494 0.012528956
-0.042771518 -0.013900744 0.012143105
-0.041449837 -0.013816612 0.011781335
-0.041016813 -0.014032068 0.010960788
-0.039850149 -0.014001403 0.010139555
-0.038705397 -0.013976949 0.0094231069
-0.038144253 -0.014167866 0.0075694919
-0.036641154 -0.014009854 0.0068749785
-0.035807371 -0.014105935 0.0061284304
-0.035322215 -0.014349651 0.0065377355
-0.034161046 -0.014325599 0.0066813827
-0.032983288 -0.014292759 0.0071402192
-0.03189674 -0.014298539 0.0080458522
-0.030140128 -0.01399363 0.010238647
-0.028815836 -0.013874291 0.012052298
-0.027806912 -0.013903456 0.013324231
-0.026388871 -0.013722212 0.013483912
-0.025487557 -0.013805761 0.01340881
-0.024423551 -0.013804615 0.01374194
-0.023532271 -0.013905433 0.013943762
-0.022474578 -0.013912833 0.01390776
-0.021486217 -0.013966042 0.013674885
-0.02043405 -0.013981191 0.013789147
-0.019072589 -0.013774648 0.01339075
-0.01799323 -0.013759528 0.013423532
-0.017008644 -0.013819523 0.013304055
-0.016033929 -0.013896071 0.013155669
-0.014819691 -0.013761141 0.013345122
-0.013832774 -0.013832774 0.013155669
-0.01275436 -0.013817224 0.012722552
-0.011765379 -0.013904539 0.012342781
-0.010622781 -0.013809615 0.011699885
-0.0097370902 -0.014064686 0.011645168
-0.00861568 -0.014000479 0.011313647
-0.0075855656 -0.01408748 0.010792285
-0.0064601311 -0.013996951 0.010792285
-0.0053431029 -0.013892068 0.01079905
-0.0042629018 -0.013854431 0.010922611
-0.0032319832 -0.014005261 0.01133737
-0.0021396971 -0.013908031 0.01158613
-0.0010665067 -0.013864586 0.011669815
0 -0.013803626 0.011867106
0.0010687007 -0.013893108 0.011998266
0.0021628554 -0.014058559 0.012754023
0.0032115066 -0.013916529 0.013288558
0.0043360302 -0.014092098 0.013880491
0.0054040416 -0.014050508 0.013840705
0.0063939542 -0.013853567 0.013557106
0.0074640019 -0.013861718 0.013418019
0.0084826062 -0.013784234 0.014449298
0.009541329 -0.013781919 0.014832735
0.010651415 -0.013846841 0.015134215
0.011630683 -0.013745354 0.015276879
0.012766787 -0.013830686 0.015328616
0.013786055 -0.013786055 0.015276879
0.014938215 -0.013871199 0.015188575
0.015979119 -0.013848569 0.01497218
0.016944339 -0.013767276 0.014999449
0.017976668 -0.013746863 0.014726013
0.019161355 -0.013838757 0.014776528
0.020113666 -0.013761981 0.014086336
0.021128317 -0.013733407 0.014171839
0.02243368 -0.013887515 0.014118612
0.023865616 -0.01410241 0.014270037
0.02449492 -0.013844954 0.014239043
0.025617501 -0.013876147 0.014203697
0.026594155 -0.01382896 0.014239043
0.027587127 -0.013793563 0.014235824
0.028456295 -0.013701178 0.014156729
0.029607322 -0.013746256 0.014007032
0.03078798 -0.013801508 0.01362887
0.032445449 -0.014059694 0.013557613
0.032989446 -0.013834283 0.013818651
0.034517407 -0.014022696 0.013207883
0.036011811 -0.014186472 0.012643695
0.036166288 -0.013828286 0.012497991
0.037336789 -0.01386795 0.011650085
0.038550254 -0.013920926 0.011773854
0.039556008 -0.013898057 0.011679083
0.040975317 -0.014017871 0.011336744
0.042015214 -0.014005071 0.01066643
0.043229964 -0.014049739 0.0090318918
0.044046093 -0.013965833 0.0071154535
-0.058095962 -0.013153803 0.0056452453
-0.056257609 -0.012982525 0.0060477257
-0.055618703 -0.013086754 0.006973356
-0.054176155 -0.013002277 0.007833004
-0.052424036 -0.01283854 0.0088493824
-0.051468249 -0.012867062 0.0098771751
-0.050638337 -0.012928937 0.010057181
-0.049399655 -0.012886866 0.01042816
-0.048151247 -0.012840332 0.010691643
-0.047752559 -0.013023425 0.011028737
-0.045679189 -0.012747681 0.0113208
-0.045160674 -0.01290305 0.011211753
-0.044104181 -0.01290854 0.011203021
-0.042546794 -0.012764039 0.010893285
-0.041710909 -0.012834126 0.010305166
