ply
format ascii 1.0
comment PCL generated
element vertex 1245
property float x
property float y
property float z
element camera 0
property float view_px
property float view_py
property float view_pz
property float x_axisx
property float x_axisy
property float x_axisz
property float y_axisx
property float y_axisy
property float y_axisz
property float z_axisx
property float z_axisy
property float z_axisz
property float focal
property float scalex
property float scaley
property float centerx
property float centery
property int viewportx
property int viewporty
property float k1
property float k2
end_header
-0.0022930987 -0.099749789 0.0055017769
-0.0011514046 -0.1001722 0.0053593516
0 -0.099071369 0.0055633783
0.0011425631 -0.099402986 0.0057930946
0.0022651206 -0.098532751 0.0059261918
0.0033830951 -0.098109759 0.0061025918
0.0045564761 -0.099103354 0.0060005486
0.0056757573 -0.098758176 0.0060005486
0.0068026851 -0.098638937 0.0060005486
0.0080357529 -0.099872924 0.0060130358
0.0091140261 -0.099115036 0.0059695244
0.010289251 -0.099462755 0.0060246587
0.011394297 -0.099130385 0.0057584941
0.012606165 -0.099703304 0.0057774782
0.013826749 -0.10024393 0.0058622658
0.014755933 -0.098751239 0.0056770444
0.01589985 -0.09880621 0.005296886
0.017044928 -0.098860577 0.0053068101
0.018413819 -0.10012514 0.0054399371
0.019260291 -0.098567374 0.0055630207
0.020637164 -0.099746294 0.0051631033
-0.021836862 -0.098840535 0.0051750243
-0.020499283 -0.097941019 0.0052770376
-0.019329596 -0.097785018 0.0054176748
-0.018077226 -0.097165093 0.0057919919
-0.017075231 -0.097897999 0.0058608949
-0.015995942 -0.098260783 0.0060805082
-0.014816043 -0.098013818 0.0061916113
-0.013797288 -0.098880567 0.0062175691
-0.012653073 -0.098924033 0.0063062012
-0.011323682 -0.097383671 0.0064632297
-0.010236605 -0.097816452 0.0062912405
-0.0091045266 -0.097873658 0.0062535703
-0.0080490792 -0.098888688 0.0059921443
-0.0068765925 -0.098564491 0.0062600076
-0.0056979791 -0.098005243 0.0063655078
-0.0045539066 -0.097908989 0.0062884688
-0.0034136863 -0.097859003 0.0059959292
-0.0022906063 -0.098496065 0.005916357
-0.0011359851 -0.097694717 0.0062402785
0 -0.097882554 0.0061239898
0.0011376205 -0.097835369 0.0064050555
0.0022641951 -0.097360395 0.0063728094
0.0034362199 -0.098504975 0.0064950287
0.0045437301 -0.097690195 0.0065621734
0.0057546138 -0.098979354 0.0063809752
0.0068856776 -0.098694712 0.006265521
0.0079460545 -0.097622961 0.0063901246
0.0091665443 -0.098540351 0.0062415302
0.0101821 -0.097295627 0.006265521
0.011418153 -0.098196112 0.0059259236
0.012517856 -0.097866878 0.0058318377
0.01374134 -0.098479606 0.0058318377
0.014831784 -0.098117955 0.005982995
0.015933223 -0.097875513 0.0058660209
0.016950835 -0.097184777 0.0059000552
0.017971665 -0.096597694 0.0058660209
0.019464379 -0.098466866 0.0053991675
0.020479675 -0.097847342 0.005230099
-0.020593286 -0.097246073 0.0051177144
-0.019552169 -0.097760849 0.0055985749
-0.018264417 -0.097029708 0.0056042671
-0.017199913 -0.097466171 0.0057236552
-0.016020775 -0.097268984 0.0058235526
-0.014894992 -0.097390331 0.0058540106
-0.013728478 -0.097243384 0.005877018
-0.012625309 -0.097559206 0.0063260198
-0.011526756 -0.097977422 0.0062119365
-0.010262376 -0.096922442 0.0060706139
-0.0091914115 -0.097658746 0.006076932
-0.0080394633 -0.097622059 0.0060556829
-0.0068730693 -0.097368479 0.0060556829
-0.0057468377 -0.097696245 0.0063990355
-0.0045823292 -0.097374499 0.00652197
-0.0034090099 -0.096588612 0.0065216124
-0.002286281 -0.097166933 0.0065101385
-0.001153573 -0.098053709 0.0064575672
0 -0.096812755 0.0064241886
0.0011355163 -0.096518889 0.0067973435
0.0022884621 -0.097259641 0.0067510307
0.0034095549 -0.096604057 0.0067983866
0.0046276506 -0.098337576 0.0070158243
0.0056729196 -0.096439637 0.0067810714
0.0067661949 -0.095854424 0.0066233277
0.0080890823 -0.098224573 0.0065328777
0.0091017503 -0.0967061 0.0062444508
0.010239477 -0.096706182 0.0062898695
0.011487988 -0.097647898 0.0061187148
0.012477395 -0.096416235 0.0058324337
0.013739381 -0.097320616 0.0057397485
0.014931208 -0.097627126 0.0053184032
0.015928365 -0.096707925 0.005256772
0.01714905 -0.097177953 0.0052794218
0.018204354 -0.096710637 0.0051061511
0.01926709 -0.096335448 0.0050625801
0.020570403 -0.097138017 0.0050970316
0.02168888 -0.097029202 0.0050702393
-0.019495763 -0.096332006 0.005223453
-0.01832466 -0.09620446 0.0053894222
-0.01721099 -0.096381545 0.005685091
-0.016093014 -0.096558079 0.0060594976
-0.014932156 -0.096484698 0.006111443
-0.013698805 -0.09589164 0.0062019527
-0.01263544 -0.096488811 0.0062219501
-0.011431157 -0.096021719 0.0061241388
-0.010208478 -0.095279127 0.0061748624
-0.0092908926 -0.097554371 0.0060489178
-0.0079491949 -0.095390342 0.0061546564
-0.0068298685 -0.095618166 0.0060176551
-0.005717508 -0.096054137 0.0060650408
-0.0045544971 -0.095644437 0.0061241388
-0.0034032187 -0.095290124 0.0065104365
-0.0022934547 -0.096325099 0.0066530704
-0.0011429803 -0.096010342 0.0065339208
0 -0.096030995 0.0067364573
0.0011424953 -0.09596961 0.0070541501
0.002283636 -0.095912717 0.0070762634
0.0034194009 -0.095743224 0.0070367455
0.0046451651 -0.097548462 0.0068769455
0.0057035689 -0.095819958 0.006703198
0.0068411413 -0.095775977 0.0066455603
0.0080463393 -0.096556067 0.0066249371
0.0092109032 -0.096714482 0.0064569414
0.010352997 -0.096627973 0.0063993037
0.011412375 -0.095863946 0.0063017607
0.012526141 -0.09565416 0.0058760047
0.013791861 -0.096543029 0.0057586133
0.014725826 -0.095151491 0.0053754747
0.015989553 -0.095937327 0.0053161681
0.017194636 -0.096289963 0.0054344833
0.018251985 -0.095822923 0.0052132607
0.019534882 -0.096525304 0.0053472519
0.020361336 -0.095019571 0.0053291619
0.021385392 -0.094545946 0.0054415166
0.022918666 -0.096258394 0.0051603317
0.02403868 -0.09615472 0.0050866008
0.02510016 -0.095836975 0.0050971806
-0.022004407 -0.096124507 0.0050428808
-0.020510701 -0.094577119 0.0052419305
-0.019616326 -0.095773824 0.0056856871
-0.018146386 -0.094134375 0.0059328079
-0.017086565 -0.094545662 0.006257236
-0.016030321 -0.095036902 0.0066381097
-0.0149661 -0.095552787 0.0065555274
-0.013711938 -0.094840907 0.0068043172
-0.012560169 -0.09477219 0.0068043172
-0.011436651 -0.094924204 0.006604135
-0.010348686 -0.095437884 0.006641686
-0.0091760401 -0.09520141 0.0065822005
-0.0079886708 -0.094722815 0.006351918
-0.0068931724 -0.095355548 0.0062031448
-0.0056763063 -0.094226681 0.0062255561
-0.0045814249 -0.095064566 0.0062309504
-0.00344942 -0.09543395 0.0064292252
-0.0022951625 -0.095249243 0.0065126121
-0.0011400742 -0.094626158 0.0065438449
0 -0.094913274 0.0069474876
0.0011401954 -0.094636217 0.0071606636
0.0022886149 -0.094977513 0.0073746145
0.0034472377 -0.095373571 0.0072516799
0.0045935498 -0.095316157 0.0071835816
0.0056890366 -0.094438009 0.0072432756
0.0068462528 -0.094706498 0.0072210431
0.0079432689 -0.094184473 0.0069951415
0.0091066966 -0.094481975 0.0066899061
0.010262498 -0.094643034 0.0065887868
0.011408166 -0.094687782 0.0064028203
0.012568168 -0.094832547 0.0062355399
0.013746115 -0.095077299 0.0061359704
0.014818792 -0.094612293 0.0059269667
0.016123628 -0.095590085 0.0058455169
0.01706839 -0.094445094 0.0057623684
0.018028136 -0.093520962 0.0057313442
0.019542186 -0.095411845 0.0056915879
0.020655695 -0.095245704 0.0058503747
0.021774283 -0.09511923 0.0055894554
0.022812184 -0.094670564 0.0052451193
0.024005709 -0.094879709 0.0052008033
0.025285346 -0.095394716 0.0051282942
-0.021858253 -0.094335616 0.005282402
-0.020805053 -0.094778575 0.0052586496
-0.019419588 -0.093670957 0.0058066547
-0.018310146 -0.093839496 0.0057499111
-0.017154679 -0.093778908 0.006074965
-0.015785076 -0.092455439 0.0065727532
-0.014840805 -0.093611233 0.0067229569
-0.013845011 -0.094607569 0.0071320236
-0.012505453 -0.093222469 0.0072493255
-0.011465723 -0.094018929 0.0073108077
-0.010361224 -0.094402261 0.0073397756
-0.0091435257 -0.093721136 0.0071684122
-0.0081762457 -0.095778883 0.0069405138
-0.0068927999 -0.094201595 0.0063939095
-0.0057402533 -0.094140157 0.006688863
-0.0045845686 -0.093983658 0.006688863
-0.0034324976 -0.0938216 0.0065599382
-0.0022991612 -0.09426561 0.0066128671
-0.0011414046 -0.093595184 0.0067205727
0 -0.094057925 0.0070853829
0.0011509861 -0.094380856 0.007514298
0.0022615634 -0.0927241 0.0076838434
0.0034164884 -0.093384013 0.0077030361
0.0045523085 -0.093322329 0.0076822937
0.0057020518 -0.093513645 0.0078498423
0.0068440484 -0.093535326 0.0077697039
0.008009444 -0.093824916 0.0073258877
0.009152256 -0.093810625 0.0073150098
0.010342672 -0.094233237 0.0071720481
0.011445111 -0.093849905 0.0070370138
0.012509454 -0.093252294 0.0069006383
0.013658801 -0.093335137 0.0062689781
0.0149456 -0.094272248 0.0059397519
0.016130405 -0.094478086 0.0058816671
0.017133771 -0.093664616 0.0055945516
0.018299481 -0.093784839 0.0053967834
0.019575119 -0.094421156 0.0056079924
0.020595683 -0.093824781 0.0055678785
0.021768481 -0.093948178 0.0054017603
0.022661898 -0.092913784 0.0051461756
0.024234556 -0.094630174 0.0050676167
-0.022113664 -0.094274044 0.0051184893
-0.020966357 -0.094348602 0.0055556297
-0.019542014 -0.093111955 0.0058527887
-0.018467089 -0.093489632 0.0060264468
-0.017129069 -0.092496976 0.0061191916
-0.016253358 -0.094037279 0.0067411959
-0.014786286 -0.092129938 0.0068284273
-0.013762707 -0.092898272 0.0073775947
-0.012669404 -0.093292885 0.0074349642
-0.011480184 -0.092989497 0.0073623657
-0.010263459 -0.092371128 0.0074512064
-0.0092579452 -0.093736693 0.0074149072
-0.0081155114 -0.093908057 0.0071591437
-0.0068487162 -0.092457667 0.006949544
-0.0057435459 -0.093045443 0.0071018934
-0.0045993319 -0.093136467 0.0069774687
-0.0034543048 -0.093266226 0.0072544217
-0.0023082434 -0.093483858 0.00753811
-0.0011544963 -0.093514204 0.0076632202
0 -0.092507266 0.0077195466
0.001151524 -0.093273446 0.0076076388
0.0022862856 -0.092594564 0.0081421435
0.0034503015 -0.093158141 0.0080983341
0.0046097646 -0.093347736 0.0079798996
0.0057490049 -0.093133874 0.0079610348
0.0068236068 -0.092118688 0.0079317689
0.0080263577 -0.092876427 0.0077619255
0.0091492673 -0.092636339 0.0075824261
0.010239989 -0.092159905 0.0073765516
0.01154992 -0.093554348 0.007294625
0.012521333 -0.092202544 0.0068504214
0.013860201 -0.093556359 0.006723702
0.014751608 -0.091913871 0.0065959692
0.016082769 -0.093050309 0.0064469576
0.017290913 -0.093370929 0.0063130558
0.018035546 -0.09130495 0.0060737133
0.019419413 -0.092527792 0.0060737133
0.020689307 -0.093101881 0.0055287778
0.021725705 -0.092620112 0.0057657063
0.022723436 -0.092029914 0.0057001114
0.024033409 -0.092700288 0.0054398775
-0.02294242 -0.09176968 0.0051054358
-0.021981012 -0.092551626 0.005236268
-0.020694483 -0.09197548 0.0055004656
-0.01952629 -0.09188842 0.0061837733
-0.018253461 -0.091267303 0.0065947771
-0.017244309 -0.091969647 0.0068624318
-0.016076608 -0.091866329 0.0069457889
-0.015018606 -0.092422187 0.0071518719
-0.013724672 -0.091497809 0.0073300898
-0.012719943 -0.092508681 0.0077063739
-0.011446668 -0.091573343 0.0077597201
-0.010349555 -0.091996044 0.0077460408
-0.0091622351 -0.091622353 0.0076902807
-0.0081022568 -0.092597224 0.0074267685
-0.006875548 -0.09167397 0.0073363483
-0.0057443785 -0.091910057 0.0074267685
-0.0046002418 -0.092004836 0.0073480904
-0.0034588105 -0.092234947 0.0074115396
-0.0022784856 -0.091139421 0.0074576437
-0.0011367052 -0.090936415 0.0074215531
0 -0.092009388 0.0074781477
0.0011441072 -0.091528572 0.0077892542
0.0022862516 -0.091450065 0.0078497231
0.0034677293 -0.092472784 0.0081228614
0.0045854384 -0.091708764 0.0082354248
0.0057859365 -0.092574984 0.0082392097
0.0068409685 -0.091212913 0.0083349347
0.0079914248 -0.091330566 0.0079277158
0.0091593238 -0.091593236 0.0077496171
0.010351192 -0.092010602 0.0072772503
0.011425438 -0.091403507 0.007314235
0.012622539 -0.09180028 0.0072135627
0.013713027 -0.091420181 0.0070176721
0.014767914 -0.09087947 0.0067642331
0.015977286 -0.091298774 0.0065822005
0.017214296 -0.091809586 0.0068156421
0.01821563 -0.091078147 0.0062924325
0.019571634 -0.092101805 0.0060758591
0.020444637 -0.090865053 0.0057750344
0.021981012 -0.092551626 0.0054301918
0.022881823 -0.091527291 0.0055499673
0.024903584 -0.090558492 0.0052785873
-0.022148777 -0.092092276 0.0053505301
-0.020649333 -0.090627626 0.00543347
-0.019620733 -0.0911787 0.0058045089
-0.018294783 -0.090330496 0.0062401593
-0.01727945 -0.091005109 0.0068063438
-0.016071193 -0.090687446 0.0070130825
-0.015048295 -0.091447331 0.007127434
-0.013938395 -0.091761105 0.0071772635
-0.012602936 -0.090511993 0.0073511302
-0.011522874 -0.091030709 0.0076756179
-0.010396315 -0.091256537 0.0077522099
-0.0093071843 -0.091908447 0.0072177649
-0.0081084855 -0.09151005 0.0071772635
-0.006912909 -0.091019966 0.0070912242
-0.0057281847 -0.090505317 0.0076662004
-0.0045977253 -0.090805076 0.0073952377
-0.0034432712 -0.090672806 0.0076662004
-0.0022930007 -0.090573527 0.0076366067
-0.0011599837 -0.091638707 0.0077061057
0 -0.089994527 0.0073711872
0.0011543396 -0.091192834 0.0072316527
0.0023106001 -0.091268703 0.0075203478
0.0034165084 -0.089968055 0.0077496767
0.0046324371 -0.091490626 0.0078797042
0.0057202959 -0.090380676 0.0081326962
0.0068550189 -0.090257749 0.0078918934
0.0079946527 -0.090225369 0.0075703561
0.0091683585 -0.090537541 0.0074788034
0.010280551 -0.090240397 0.0071297884
0.011456138 -0.090503491 0.0072250664
0.012627626 -0.090689316 0.0069612265
0.013709098 -0.090251565 0.006863445
0.015097973 -0.091749221 0.0064076483
0.016127234 -0.091003679 0.0062366128
0.017137539 -0.090257704 0.0064916611
0.018452933 -0.091111355 0.0060866177
0.019367164 -0.090000346 0.0058769882
0.020640602 -0.090589307 0.0058769882
0.022026688 -0.091584645 0.0057303905
0.02291771 -0.090524957 0.0054276884
0.024401635 -0.091796629 0.0051231384
0.025169615 -0.090381794 0.0050177574
-0.020732837 -0.089842297 0.0051047802
-0.019563545 -0.089762144 0.005628109
-0.018680533 -0.091067597 0.0060549974
-0.017079746 -0.088814676 0.0061837733
-0.016254226 -0.090559259 0.0065762997
-0.01486101 -0.08916606 0.0069331229
-0.013617711 -0.088515125 0.0067279637
-0.012807516 -0.09081693 0.0072749555
-0.011440663 -0.089237168 0.0070334971
-0.010301026 -0.089275554 0.0073455274
-0.0091982186 -0.089682631 0.007291168
-0.0080993725 -0.090250149 0.0074072778
-0.0069156499 -0.089903444 0.0073489845
-0.0058166515 -0.090739764 0.0073902607
-0.0046063485 -0.089823797 0.0073575974
-0.0034643053 -0.090071939 0.0074804127
-0.0023071445 -0.089978635 0.007872045
-0.0011551005 -0.090097845 0.0083866417
0 -0.090363272 0.0080699027
0.0011537045 -0.089988947 0.0080625117
0.0022889341 -0.089268431 0.0080680549
0.0034501015 -0.089702636 0.0080424249
0.004594937 -0.089601263 0.0078613162
0.0057004159 -0.088926487 0.0078893304
0.0069207484 -0.089969724 0.0077446997
0.00807558 -0.089985035 0.0075011849
0.0091666589 -0.089374922 0.0074726641
0.010363837 -0.089819916 0.0072975159
0.011487389 -0.089601628 0.0070857108
0.012525841 -0.088819601 0.0072185397
0.013832501 -0.08991126 0.0072153211
0.015092894 -0.090557359 0.0069018006
0.016110692 -0.089759566 0.0068137348
0.017269915 -0.089803554 0.0066730976
0.01832146 -0.089317121 0.0064837933
0.019531583 -0.089615494 0.0061958432
0.020920584 -0.090655863 0.0061513484
0.021542305 -0.088436835 0.0058813691
0.022812819 -0.088969991 0.0053273141
0.024305597 -0.090277933 0.0050756633
-0.023190444 -0.089283206 0.0051460266
-0.022117697 -0.08963488 0.0052471459
-0.020865386 -0.089257486 0.0056416094
-0.019639237 -0.088954195 0.0056723356
-0.018403366 -0.088566206 0.0062398612
-0.017313968 -0.088878371 0.0060896277
-0.016267342 -0.089470387 0.0063917041
-0.014906272 -0.088290997 0.0067270398
-0.013935486 -0.089419365 0.0068414807
-0.012684974 -0.08879482 0.0074605942
-0.01144514 -0.088127583 0.0068877935
-0.010409949 -0.089062899 0.0073102713
-0.0092838835 -0.089357384 0.0076660514
-0.0080608837 -0.088669717 0.0077129602
-0.0069667948 -0.089407206 0.0076977611
-0.005747274 -0.088508017 0.0078359246
-0.004584833 -0.088258035 0.0081714094
-0.003461103 -0.088834979 0.0083182752
-0.0023175166 -0.089224391 0.0080020726
-0.0011556725 -0.088986784 0.0085952282
0 -0.088262409 0.0082757771
0.0011434685 -0.08804708 0.0082757771
0.0022719798 -0.087471224 0.0083114505
0.0034521779 -0.088605903 0.0085400343
0.0045187767 -0.086986452 0.0085062981
0.0057506128 -0.088559441 0.008076638
0.006911064 -0.088691987 0.0079617202
0.0080013899 -0.088015288 0.0077374578
0.0092625162 -0.089151718 0.0074439645
0.010301233 -0.088132769 0.0073187649
0.011551969 -0.088950157 0.0072380006
0.01268898 -0.088822857 0.0071485937
0.013836442 -0.08878383 0.0073266625
0.014889705 -0.088192865 0.0071428418
0.016173048 -0.088951759 0.006731838
0.017210215 -0.088345774 0.006632477
0.018332506 -0.088225186 0.006411463
0.019645426 -0.088982224 0.0063145161
0.020685241 -0.088486865 0.0063341558
0.021989789 -0.089116514 0.0061454773
0.023044905 -0.088722885 0.0057130456
0.024084581 -0.08831013 0.0052323937
-0.022027027 -0.088108107 0.0051336586
-0.020973844 -0.08855623 0.0054202974
-0.019674618 -0.087957114 0.0059463978
-0.018550247 -0.08811368 0.0059354007
-0.017318791 -0.087748535 0.0068105161
-0.016112123 -0.087465815 0.0068546832
-0.015008275 -0.08774069 0.0076524317
-0.013851223 -0.08772441 0.0074284077
-0.012649111 -0.087393858 0.0075791776
-0.011500548 -0.087404162 0.0072245598
-0.010420498 -0.087995321 0.0074053705
-0.0092233224 -0.08762157 0.0077049434
-0.008116263 -0.088119425 0.0078247488
-0.0068973252 -0.087366119 0.0081306696
-0.0057850089 -0.08793214 0.0083960891
-0.0046113757 -0.087616138 0.0086512268
-0.0034638904 -0.087751895 0.0089107156
-0.0023079598 -0.087702475 0.0088185072
-0.0011541729 -0.087717138 0.0088712573
0 -0.086858928 0.008774519
0.001155509 -0.087818682 0.0089946389
0.0023012797 -0.087448627 0.0088157058
0.0034332832 -0.086976513 0.0089576244
0.0046043312 -0.087482296 0.0089600086
0.0057847057 -0.087927528 0.0090399384
0.0068863947 -0.087227665 0.0088855922
0.008078008 -0.087704092 0.0085324943
0.0091995215 -0.087395452 0.0080935657
0.010307387 -0.087040156 0.0078492761
0.011476871 -0.087224215 0.007830888
0.012675823 -0.087578408 0.0073468685
0.013865063 -0.087812066 0.0075440705
0.014964087 -0.087482356 0.0072958767
0.016078986 -0.087285921 0.0071776807
0.017299674 -0.087651685 0.0071100891
0.018378396 -0.08729738 0.006795764
0.019471416 -0.08704868 0.0066105127
0.020759802 -0.087652504 0.0066322088
0.021865666 -0.087462664 0.0064095557
0.023162924 -0.08801911 0.0062341094
0.024404593 -0.088321388 0.005340457
0.025500618 -0.088093042 0.0050897002
-0.020982821 -0.087428413 0.0053523183
-0.019705769 -0.086937211 0.0055565238
-0.01848829 -0.086663857 0.0058735907
-0.017144138 -0.085720688 0.0063289702
-0.016443726 -0.088091388 0.0068904161
-0.015030519 -0.086714529 0.007117331
-0.013689606 -0.085560039 0.0075182319
-0.012826223 -0.087451525 0.0076540709
-0.011529797 -0.086473472 0.0072856843
-0.010383987 -0.086533226 0.0074994266
-0.0092681069 -0.086888507 0.0078232884
-0.0080912644 -0.086692125 0.0080874562
-0.0068981145 -0.086226426 0.0083368719
-0.0058184746 -0.087277114 0.0086793602
-0.0046327999 -0.086864993 0.0088164806
-0.0034593684 -0.086484209 0.0090044141
-0.0023192803 -0.086973011 0.0090241432
-0.001154913 -0.086618476 0.0093320906
0 -0.086267948 0.0093676746
0.0011593472 -0.08695104 0.0095958114
0.002300207 -0.086257763 0.0093816817
0.0034467948 -0.086169869 0.0092625618
0.0046174931 -0.086577997 0.0094502866
0.005703982 -0.085559726 0.0092462599
0.0069571505 -0.086964384 0.0090012848
0.0081410054 -0.087225065 0.0088669658
0.0092200078 -0.086437576 0.0083925426
0.010370869 -0.086423911 0.0079374611
0.011471501 -0.086036257 0.0080498755
0.012594452 -0.085871264 0.0078958571
0.014050262 -0.087814137 0.0078958571
0.014981586 -0.086432226 0.0078510046
0.016091021 -0.086201899 0.0074762106
0.017255221 -0.086276107 0.0074425936
0.018472752 -0.086591028 0.0073505342
0.019696483 -0.086896248 0.0069572628
0.02083973 -0.08683221 0.0066801608
0.021924654 -0.086544685 0.0063091815
0.022891365 -0.085842617 0.0061373115
0.024401035 -0.08714655 0.0057784915
0.02564499 -0.087426096 0.0054694712
0.026567033 -0.086631626 0.00532493
-0.021021172 -0.086420372 0.0052485466
-0.019827619 -0.086308457 0.0057298541
-0.01850584 -0.085589506 0.0060537457
-0.017623194 -0.086941086 0.0064429939
-0.016170118 -0.085470624 0.0068927407
-0.015152935 -0.08625517 0.0074034631
-0.013815694 -0.085196786 0.0078852177
-0.012677315 -0.085283749 0.0080218911
-0.011543804 -0.085424148 0.0081598759
-0.010496636 -0.086305678 0.0081901848
-0.0092282984 -0.085361756 0.0083019137
-0.0080929967 -0.085554533 0.0085966587
-0.0069433302 -0.085634403 0.0087156892
-0.0058005829 -0.085848629 0.0087773502
-0.0046532322 -0.086084798 0.0088025033
-0.0034706802 -0.085610114 0.0088791549
-0.0023135797 -0.085602447 0.0090800226
-0.0011583802 -0.085720137 0.0093295276
0 -0.085864276 0.009445101
0.0011358396 -0.084052138 0.0096688271
0.0023116353 -0.085530505 0.009658128
0.00347469 -0.08570902 0.0095324814
0.0046114339 -0.085311525 0.0094205737
0.0057762819 -0.085488975 0.009548068
0.0069440594 -0.085643403 0.0090933144
0.0079939179 -0.08450713 0.0090585053
0.0093264608 -0.086269766 0.0088414252
0.010355048 -0.08514151 0.0087304413
0.011547447 -0.085451111 0.008561939
0.012673974 -0.085261278 0.008384347
0.013803305 -0.08512038 0.0082771778
0.014972947 -0.085230619 0.0078011155
0.01619052 -0.085578457 0.0076670945
0.017368192 -0.085683085 0.0073723793
0.018301859 -0.084646098 0.0070791245
0.019742999 -0.085940115 0.0066616237
0.020706525 -0.085126825 0.0064099431
0.021991603 -0.085651502 0.0062997937
0.023318594 -0.086278796 0.0061184764
0.024171799 -0.085176818 0.0059234202
0.025399549 -0.085434847 0.0057650208
0.026639666 -0.085710235 0.0053405464
0.027875382 -0.085949101 0.0051416457
-0.022341009 -0.085836507 0.0050278902
-0.020987287 -0.085115112 0.0053534806
-0.019823477 -0.085124336 0.0054601133
-0.01837658 -0.083843149 0.0059592128
-0.017375443 -0.084560491 0.006311059
-0.016202385 -0.084483862 0.0068526566
-0.01516082 -0.085133836 0.0072309375
-0.01378795 -0.083876699 0.0076321959
-0.012764811 -0.084711924 0.0078387558
-0.011599662 -0.084677532 0.0077062249
-0.010344078 -0.083901964 0.0078535378
-0.0093318019 -0.085152693 0.0084896088
-0.0081699602 -0.085201018 0.0086362958
-0.0069447737 -0.084494747 0.0088086724
-0.0057689757 -0.084227048 0.0088591576
-0.0046481234 -0.08482825 0.0089193285
-0.0034759589 -0.084581666 0.0091822743
-0.0023107792 -0.084343441 0.0092285872
-0.0011665211 -0.085156038 0.009575069
0 -0.083710112 0.0096882582
0.0011541242 -0.084251061 0.009845525
0.0023285234 -0.084991105 0.0097986162
0.0034462439 -0.083858602 0.0098018646
0.0045873569 -0.083719268 0.0099959373
0.0057607726 -0.08410728 0.0098848045
0.0069101397 -0.084073365 0.0096429288
0.0081197722 -0.084677629 0.0096361637
0.0092559773 -0.084460787 0.0095556378
0.01035392 -0.083981797 0.0091742873
0.01153952 -0.084238492 0.0088733733
0.012846332 -0.085252933 0.0087948143
0.013894371 -0.084524088 0.0084154606
0.015081072 -0.084686019 0.0083177984
0.016191332 -0.084426224 0.008038044
0.017197818 -0.083696045 0.0078568459
0.018727304 -0.085443325 0.0074328482
0.019504542 -0.0837548 0.0073128641
0.020861622 -0.08460547 0.0067752004
0.022082664 -0.084843919 0.0065809488
0.022700712 -0.082857601 0.0062164068
0.024292784 -0.084446341 0.0060788393
0.025155185 -0.08346948 0.0060232282
0.026652163 -0.084591649 0.0054474473
0.028281521 -0.086022958 0.0050563216
-0.021065837 -0.084263347 0.0057444572
-0.019904897 -0.084303088 0.0059522986
-0.01871456 -0.084215522 0.0062034428
-0.017439989 -0.083711945 0.0065689087
-0.0162099 -0.083365202 0.0070018768
-0.015040676 -0.083302207 0.0073286295
-0.014042982 -0.084257893 0.0079489946
-0.012782089 -0.083664581 0.0082203448
-0.011566152 -0.083276294 0.0082511306
-0.010417807 -0.083342455 0.0082262754
-0.0093098627 -0.083788767 0.0083944499
-0.0081830956 -0.084168978 0.0084685385
-0.0069341417 -0.083209701 0.0087159574
-0.0058266623 -0.083903939 0.0089476407
-0.0046427404 -0.083569326 0.0088567734
-0.0034702788 -0.083286695 0.0090754628
-0.0023134337 -0.083283611 0.0094193518
-0.0011493731 -0.082754858 0.009517312
0 -0.083070211 0.0096310675
0.0011552689 -0.083179355 0.0098898113
0.002291431 -0.082491517 0.0098671615
0.0034834074 -0.083601773 0.0098616183
0.0045953332 -0.082715996 0.0099248886
0.0057835109 -0.08328256 0.0099248886
0.0069381529 -0.083257832 0.01000765
0.0080669597 -0.082974441 0.010096341
0.0092641646 -0.083377481 0.0098910928
0.010377883 -0.083023064 0.0096544027
0.011598963 -0.083512537 0.0095183551
0.012755355 -0.083489597 0.0090616345
0.013937269 -0.083623618 0.008654654
0.014895363 -0.082497396 0.0084509254
0.016263478 -0.083640739 0.008161813
0.017481899 -0.08391311 0.0078608692
0.018493976 -0.083222896 0.0076496899
0.019759333 -0.08368659 0.0078029335
0.020740133 -0.082960531 0.0072875321
0.021907156 -0.083016589 0.0070884228
0.023221282 -0.083596617 0.006828934
0.024417492 -0.083717115 0.0062884092
0.025552791 -0.083627313 0.0061243474
0.026703583 -0.083593823 0.0059992373
0.027800852 -0.083402559 0.0054756701
0.029098909 -0.083804861 0.0051579177
-0.01864532 -0.082738608 0.0061104
-0.017527232 -0.082962237 0.006234467
-0.016332153 -0.082827345 0.0064598918
-0.014984375 -0.081837736 0.0071161091
-0.014058123 -0.083177231 0.0076637566
-0.012812665 -0.082699925 0.0077652335
-0.01139703 -0.080918916 0.0082276464
-0.010448288 -0.082425386 0.0084019303
-0.0093218954 -0.082731821 0.0085570216
-0.0081544863 -0.082709782 0.0086823106
-0.0069971359 -0.082799442 0.0087150335
-0.0058205076 -0.082651205 0.008760184
-0.0046446212 -0.08244203 0.0086729228
-0.0034828123 -0.082426555 0.0087677836
-0.0023300571 -0.082717031 0.0091206133
-0.0011567716 -0.082130775 0.0095693469
0 -0.082761221 0.0098053813
0.0011458896 -0.081358157 0.0098589063
0.0022990529 -0.081616379 0.0098541677
0.0034771587 -0.082292758 0.0099202693
0.0046110651 -0.081846409 0.010170966
0.0057569835 -0.081749164 0.010173619
0.0069584758 -0.082341962 0.010189235
0.0080289664 -0.081436664 0.010229826
0.0092319399 -0.081933469 0.010036081
0.010443365 -0.082386553 0.010010719
0.011573884 -0.082174577 0.0097074807
0.012618139 -0.081444353 0.0091411173
0.013822594 -0.081783682 0.0088180304
0.015091011 -0.082420141 0.0088424385
0.016238589 -0.082352839 0.0083397031
0.017327666 -0.082017623 0.0080493093
0.018552016 -0.082324572 0.0078036487
0.019699175 -0.082273029 0.0078146458
0.021560788 -0.08504533 0.007458657
0.02196566 -0.082082205 0.0071850419
0.023440758 -0.083214693 0.0065253973
0.024216998 -0.081876516 0.0065197349
0.025697999 -0.082934447 0.006190449
0.026834426 -0.082836702 0.005633384
0.028053867 -0.082992688 0.0050584674
0.029089414 -0.082613938 0.0050133765
-0.018597327 -0.081363305 0.0052028596
-0.017718306 -0.082685426 0.0054685771
-0.016245916 -0.081229582 0.0067856908
-0.015112039 -0.081372514 0.0069097579
-0.013920026 -0.081200153 0.0072750747
-0.012757593 -0.081184678 0.008225739
-0.011576684 -0.081036791 0.0084860027
-0.010559143 -0.082126662 0.0086054802
-0.0092818365 -0.081216067 0.0089833438
-0.0081339013 -0.081339017 0.009120822
-0.006937542 -0.080937989 0.0095051527
-0.0058276905 -0.081587672 0.0097887814
-0.0046605808 -0.081560165 0.009581387
-0.0034889446 -0.081408709 0.0095234513
-0.0022981509 -0.080435276 0.0097377002
-0.001157538 -0.081027664 0.010128319
0 -0.081398211 0.010591745
0.0011580853 -0.081065968 0.010932922
0.0023195539 -0.081184387 0.011141658
0.003466873 -0.080893703 0.010792404
0.0045754579 -0.080070518 0.010653943
0.0058033704 -0.081247188 0.010773033
0.0069320695 -0.080874145 0.010845304
0.0081258155 -0.081258155 0.011048853
0.00929059 -0.081292666 0.010935217
0.010356712 -0.080552205 0.010792404
0.011555409 -0.080887862 0.010454953
0.012698755 -0.080810256 0.0092749
0.013914191 -0.081166111 0.008944124
0.01512784 -0.0814576 0.0090557635
0.016228899 -0.081144504 0.0085549355
0.017423 -0.081307337 0.0086019635
0.018636212 -0.081533425 0.0080841482
0.019806178 -0.081554852 0.0080367029
0.020831203 -0.081010237 0.0074218214
0.022040207 -0.081200764 0.0071978569
0.023305511 -0.081569292 0.0068109035
0.024482982 -0.081609935 0.0064947605
0.02535023 -0.080659822 0.0062367916
0.026726402 -0.081341222 0.0055770278
0.027993614 -0.081648044 0.0053188503
-0.019900702 -0.080773443 0.0051511228
-0.01862018 -0.080299519 0.0053758025
-0.017674148 -0.081301078 0.0058310032
-0.016253145 -0.080104791 0.0062435269
-0.015255462 -0.080971301 0.0072057843
-0.01388975 -0.079866059 0.007809937
-0.012884981 -0.080823973 0.0081494451
-0.011734447 -0.08096768 0.0082790256
-0.010412784 -0.079831347 0.0087563097
-0.0093078595 -0.080280282 0.0091592669
-0.0081090024 -0.079931602 0.0091327429
-0.0070022987 -0.080526434 0.0095020235
-0.0058050426 -0.080109589 0.0097514689
-0.0046261637 -0.079801321 0.010036826
-0.0034664143 -0.07972753 0.0098300874
-0.0023242366 -0.080186158 0.010348707
-0.0011657173 -0.080434494 0.010563552
0 -0.080048673 0.010946155
0.0011613385 -0.080132358 0.011292458
0.0022945586 -0.07916227 0.011248082
0.0034693333 -0.079794668 0.011214316
0.0046232445 -0.079750963 0.011255771
0.0057712924 -0.079643838 0.011105716
0.0069161928 -0.079536222 0.011275589
0.0081417775 -0.080254667 0.011239141
0.0092558116 -0.079831369 0.010954976
0.010520036 -0.080653615 0.010631084
0.011663921 -0.08048106 0.010482848
0.01266564 -0.079448104 0.010059416
0.014037831 -0.080717526 0.009913981
0.015081621 -0.080048598 0.009703517
0.016252294 -0.080100596 0.0095524192
0.017430749 -0.08018145 0.0094619393
0.018443223 -0.079536401 0.0091417432
0.019618709 -0.079628877 0.0085755885
0.020924691 -0.080211319 0.0080499947
0.02201885 -0.079963192 0.0077953041
0.023225954 -0.080129541 0.0068547726
0.024399457 -0.080169648 0.0067151189
0.025688849 -0.080569573 0.0067793727
0.026949137 -0.080847412 0.0060573518
0.028100718 -0.080789566 0.0054844618
0.029142709 -0.080433875 0.0053136647
-0.018737251 -0.079633318 0.005105108
-0.017611628 -0.079839386 0.0057929158
-0.016400702 -0.07966055 0.0062520504
-0.015111951 -0.079047129 0.0064249039
-0.01396371 -0.079127684 0.0068962872
-0.012921374 -0.079877585 0.0080362558
-0.01157356 -0.078700207 0.0084089935
-0.01044911 -0.078948833 0.0088301003
-0.0092988051 -0.079039842 0.0089455843
-0.0081517342 -0.07918828 0.0092741251
-0.0070210551 -0.079571962 0.0093296766
-0.0058343536 -0.079347208 0.009759903
-0.0046131155 -0.078422964 0.0097721815
-0.0034991442 -0.079313934 0.0097721815
-0.0023089552 -0.07850448 0.010177106
-0.0011526636 -0.078381121 0.010644048
0 -0.078927353 0.011266023
0.0011572256 -0.078691341 0.011185974
0.0023102935 -0.078549981 0.011163086
0.0035172093 -0.07972341 0.01122576
0.0045953551 -0.078121036 0.011406273
0.0058057676 -0.078958437 0.011501282
0.0070042689 -0.079381719 0.01112026
0.0080508385 -0.078208141 0.01151368
0.0093430784 -0.079416163 0.011379063
0.01032323 -0.077997737 0.010918409
0.01155471 -0.078572027 0.010814637
0.012765533 -0.07891421 0.01042527
0.013947658 -0.079036728 0.010275543
0.015095355 -0.078960314 0.010228962
0.016323255 -0.079284385 0.0099870563
0.017449334 -0.079103649 0.010035247
0.018858807 -0.080149934 0.0094958246
0.01971413 -0.07885652 0.0090197325
0.020846359 -0.078752913 0.0086327195
0.022155499 -0.07929337 0.0083514154
0.023565406 -0.080122381 0.007422924
0.024462448 -0.079211734 0.0071922243
0.025657313 -0.079304419 0.0071706474
0.026755564 -0.079103403 0.0063107014
0.027936641 -0.079153821 0.0056557357
0.029252576 -0.079567008 0.0052630305
-0.017635612 -0.078772396 0.0052393079
-0.01645628 -0.078755051 0.0059064925
-0.015225991 -0.078472413 0.0065747797
-0.014157283 -0.079044834 0.0065244138
-0.012788453 -0.077893309 0.0071293712
-0.011751913 -0.07873781 0.0073779523
-0.010606357 -0.078958437 0.0086088777
-0.0092497896 -0.077466987 0.0088352561
-0.0081586642 -0.078090064 0.0093112886
-0.0069791889 -0.07793428 0.0093741715
-0.005783644 -0.077500828 0.009485662
-0.0046688989 -0.078204051 0.0095610023
-0.003516716 -0.07853999 0.0097131729
-0.0023194491 -0.077701546 0.009989351
-0.0011660624 -0.078126185 0.010209531
0 -0.078032672 0.01075536
0.001152435 -0.077213138 0.011535227
0.0023295479 -0.078039855 0.011365026
0.0034866023 -0.077867456 0.011360675
0.0046737655 -0.078285567 0.01158601
0.005779082 -0.077439696 0.01166001
0.0069426908 -0.077526711 0.011692613
0.0081148064 -0.077670291 0.011764914
0.0092191333 -0.07721024 0.01149869
0.010419147 -0.077564761 0.011501074
0.011559118 -0.077446088 0.011322945
0.012676738 -0.077212855 0.010754883
0.013958069 -0.077932559 0.010331929
0.01517382 -0.078203537 0.010375082
0.016403506 -0.078502491 0.010158777
0.017383922 -0.077648185 0.0099389851
0.018536199 -0.077620335 0.0097652674
0.019777425 -0.077946328 0.0094319582
0.020948375 -0.077974506 0.0084543824
0.02237173 -0.07888978 0.0084646344
0.023274127 -0.077968329 0.0080787539
0.024363279 -0.077730462 0.0076272488
0.02569109 -0.07824105 0.0070841312
0.0265883 -0.077452876 0.0063032806
0.028400512 -0.079284765 0.0057733059
0.029374447 -0.07872352 0.0054139793
-0.017724251 -0.077986702 0.0055535138
-0.016399397 -0.077311434 0.0057583451
-0.015359738 -0.077980205 0.0064359903
-0.014010728 -0.077059001 0.0063195527
-0.012823345 -0.076940075 0.0069607198
-0.01169667 -0.077198021 0.0070407689
-0.01040444 -0.076299228 0.0074590445
-0.0093763908 -0.077355228 0.0079799891
-0.0081459554 -0.07680472 0.0087636411
-0.0069967662 -0.076964431 0.00915277
-0.0058630845 -0.077392712 0.0096137226
-0.0046562832 -0.076828673 0.0097078085
-0.0034826137 -0.076617502 0.01012522
-0.0023239693 -0.076690987 0.010184795
-0.0011610828 -0.076631457 0.010196537
0 -0.07682848 0.010307401
0.0011646727 -0.0768684 0.010458082
0.0023102178 -0.076237194 0.010559946
0.0034853518 -0.07667774 0.010543019
0.0046380297 -0.076527491 0.01061672
0.0057815555 -0.076316535 0.010820627
0.0070088129 -0.077096939 0.010989428
0.0081174225 -0.076535694 0.011300087
0.0093033891 -0.076752961 0.011300087
0.010476708 -0.076829195 0.011062443
0.011601171 -0.076567724 0.011033624
0.012791899 -0.076751396 0.010828227
0.014053059 -0.077291824 0.010805815
0.015139161 -0.076860353 0.010665715
0.016166128 -0.076211751 0.010375649
0.017646724 -0.077645585 0.010245353
0.018368043 -0.07576818 0.010055721
0.01969387 -0.076458558 0.0096275508
0.021312891 -0.07814727 0.0088658333
0.022030126 -0.076525703 0.0086345077
0.023555074 -0.077731743 0.0082029104
0.02473606 -0.077741906 0.0076183379
0.025532246 -0.076596737 0.007234931
0.027000649 -0.077480122 0.0065674484
0.028192349 -0.077528961 0.0058380663
0.029480992 -0.077829815 0.0051898956
-0.01652546 -0.076725349 0.0054765344
-0.015230122 -0.076150611 0.0061097443
-0.014143612 -0.076611236 0.006148845
-0.012976612 -0.076679982 0.0068264902
-0.011656547 -0.075767554 0.0068660378
-0.01054627 -0.076167502 0.0073728263
-0.0093715498 -0.076143846 0.0075568557
-0.0080918763 -0.075138852 0.0076805651
-0.0070311008 -0.076170258 0.0078661144
-0.0058463681 -0.076002784 0.0085453093
-0.0046438775 -0.075463012 0.0088955164
-0.0035098214 -0.076046132 0.0095762014
-0.0023306671 -0.075746678 0.0096903443
-0.0011654054 -0.075751349 0.0097823441
0 -0.076107591 0.009685725
0.0011686307 -0.075960994 0.0096875727
0.0023344401 -0.075869307 0.0098127723
0.003525157 -0.076378398 0.010136664
0.0046346281 -0.075312704 0.010008752
0.0058567128 -0.076137267 0.0099787414
0.0069296029 -0.075070694 0.010187477
0.0081617292 -0.075787485 0.010349542
0.0093175201 -0.07570485 0.010350794
0.010377617 -0.074949451 0.0098634064
0.011560423 -0.075142749 0.010193318
0.012767161 -0.075442314 0.010371447
0.013931926 -0.075464599 0.01054424
0.01511942 -0.0755971 0.010433137
0.016650628 -0.077306487 0.010295898
0.017469816 -0.075702533 0.0102669
0.018473115 -0.075047024 0.010222673
0.019847902 -0.075889036 0.0097591877
0.02107114 -0.076090224 0.0092686117
0.022249596 -0.076117039 0.0091523528
0.02355759 -0.076562166 0.0083825886
0.024612352 -0.076181091 0.0079055429
0.025914613 -0.076565899 0.0075446069
0.027094355 -0.076571003 0.0068632364
0.028204098 -0.076386102 0.0061346292
0.029537283 -0.076796941 0.005697459
0.030538654 -0.076346636 0.0052305758
-0.018866133 -0.075464532 0.0051420629
-0.017657684 -0.075339451 0.0055569708
-0.016449632 -0.075198315 0.0055117309
-0.015345533 -0.075547241 0.0064248443
-0.01405962 -0.07498464 0.0062943995
-0.012896938 -0.075036734 0.0065648258
-0.011628509 -0.074422464 0.006593585
-0.010579642 -0.075233012 0.00733006
-0.0093452306 -0.074761845 0.0074627697
-0.0083674537 -0.076502435 0.0075782537
-0.0069679059 -0.074324332 0.0077382922
-0.0058670398 -0.075098112 0.0078383386
-0.0047181086 -0.075489737 0.0079823434
-0.0035129129 -0.074942142 0.008215934
-0.0023743589 -0.075979486 0.0083348155
-0.001168809 -0.074803777 0.0084593892
0 -0.074722208 0.0084375739
0.0011641223 -0.074503824 0.0086788237
0.0023324834 -0.074639469 0.0090838671
0.0034855241 -0.074357845 0.0095511079
0.0046747741 -0.074796386 0.0096006691
0.0058883415 -0.075370774 0.0093715191
0.0069868937 -0.074526869 0.008954376
0.0081753284 -0.074745864 0.0092606246
0.0094630439 -0.075704351 0.009144485
0.010539663 -0.074948721 0.0088080764
0.011750813 -0.075205199 0.009411186
0.012884222 -0.07496275 0.0097182095
0.013898276 -0.074124135 0.0097356737
0.015037895 -0.074032716 0.0096803904
0.016344033 -0.074715577 0.0091969967
0.017338362 -0.073977008 0.0094009638
0.018731849 -0.074927397 0.0091969967
0.019820945 -0.074620031 0.0091535151
0.021159718 -0.075234555 0.0089200437
0.022350017 -0.075284265 0.0084928572
0.023026217 -0.073683895 0.0084087551
0.024972225 -0.076105826 0.0081250966
0.025651146 -0.074621513 0.0075440109
0.026866471 -0.074758872 0.0067693591
0.028381912 -0.075685099 0.0063961744
0.029376233 -0.075203158 0.0058882236
0.030742271 -0.075673282 0.0055481493
0.032062072 -0.075998992 0.0052426159
-0.017837288 -0.074916609 0.0053257346
-0.016698187 -0.07514184 0.0053866208
-0.015301111 -0.074151538 0.0055775046
-0.014169012 -0.074387312 0.0057130754
-0.012973126 -0.074300632 0.0058552623
-0.011733057 -0.073918261 0.0057970285
-0.010579547 -0.074056834 0.0059702694
-0.0094770882 -0.074632071 0.0060943365
-0.0082310606 -0.074079543 0.0059643388
-0.0071380176 -0.074949183 0.0066414475
-0.0059053339 -0.074407205 0.0066238642
-0.0046956679 -0.073956765 0.0058321059
-0.0035459334 -0.074464597 0.0058321059
-0.0023425648 -0.073790789 0.0066770315
-0.0011781722 -0.074224845 0.0073369145
0 -0.073515579 0.0073515773
0.0011731804 -0.07391037 0.0072559416
0.002331729 -0.07344947 0.0076190829
0.0035229232 -0.073981389 0.0073629618
0.0046861721 -0.07380721 0.0074522495
0.0058462899 -0.073663257 0.0074522495
0.0070478111 -0.074002013 0.0079327226
0.0082067745 -0.073860973 0.0080417395
0.0095248045 -0.075007834 0.0080417395
0.010587763 -0.074114345 0.0077955723
0.011720277 -0.07383775 0.0078878999
0.01291623 -0.073974773 0.0090247989
0.01416098 -0.074345142 0.0093066096
0.015467213 -0.074956492 0.0093066096
0.016283393 -0.073275268 0.0093066692
0.017543467 -0.073682562 0.0093884766
0.018642129 -0.073403381 0.0093884766
0.019929303 -0.073855653 0.0092545748
0.021083994 -0.073793977 0.0088236332
0.022156877 -0.073467538 0.0088604093
0.02410816 -0.075940706 0.0081093609
0.024424369 -0.073273107 0.0075275898
0.025772566 -0.073803261 0.0073517263
0.027056303 -0.074110746 0.0068124235
0.028355423 -0.074432984 0.0061661303
0.029735943 -0.074934579 0.0060022473
0.031032629 -0.075194448 0.0053421557
-0.016607674 -0.073548265 0.0050597191
-0.015387899 -0.073388442 0.005641073
-0.014176108 -0.073243223 0.0057443082
-0.012879879 -0.072595678 0.0055968463
-0.011679314 -0.072411746 0.0055892766
-0.010622663 -0.073178351 0.0054569542
-0.009427771 -0.073065229 0.0058380961
-0.0083144549 -0.073642321 0.0051117539
-0.0070652352 -0.073007435 0.0050022304
0.010617184 -0.073140606 0.0059923828
0.011766959 -0.072955146 0.0073143244
0.012923394 -0.072840951 0.0078144073
0.014099429 -0.072847053 0.0082990825
0.01511498 -0.072086826 0.0082381964
0.016526747 -0.073189884 0.0083494186
0.01753132 -0.07246279 0.0086505115
0.018642792 -0.072240815 0.0087502301
0.019885557 -0.072523795 0.0092932582
0.021021256 -0.072406545 0.0090677738
0.022473112 -0.073333316 0.0084679127
0.023411026 -0.072574183 0.0082793236
0.024440551 -0.072157815 0.007879287
0.025778843 -0.072649464 0.0072729886
0.027234834 -0.073415637 0.0066863596
0.028162474 -0.072753057 0.0062568784
0.02966414 -0.07356707 0.0055838525
0.030836346 -0.07353282 0.0051157475
-0.014163399 -0.071997277 0.0052380562
-0.013024889 -0.072228931 0.0055302083
-0.011719837 -0.071491003 0.0055348575
-0.010625729 -0.072018832 0.0056399405
-0.0094884522 -0.072349451 0.005785346
0.01408744 -0.071611159 0.0064541399
0.015296601 -0.071776353 0.0070156157
0.01645143 -0.071681231 0.0080150366
0.017563788 -0.071426071 0.0080817044
0.018700775 -0.071296699 0.0080676973
0.019813754 -0.071096405 0.0084092021
0.021152176 -0.071682379 0.0081156492
0.02232126 -0.071662992 0.0082587004
0.02338618 -0.07132785 0.0080639422
0.02484734 -0.072175607 0.0074134171
0.025869232 -0.071728319 0.0072039068
0.026947645 -0.071469843 0.0070471764
0.028476955 -0.072378926 0.0064204335
0.029683294 -0.072427236 0.0060596764
0.030644558 -0.071896851 0.0052416623
-0.014208305 -0.071041524 0.0050268173
-0.013008472 -0.070955299 0.0050960779
-0.011878406 -0.071270436 0.0050359964
0.016467163 -0.070573553 0.0068082511
0.017619887 -0.070479549 0.0074934065
0.01886965 -0.070761189 0.0079343617
0.019899029 -0.07023187 0.0084937513
0.021221673 -0.070738912 0.0082333982
0.02224898 -0.070259936 0.0084723532
0.023355098 -0.070065297 0.0080011189
0.024794314 -0.070840895 0.007512629
0.02581099 -0.070393607 0.0071701705
0.027125875 -0.070763156 0.0064762831
0.028413469 -0.071033671 0.0058303773
0.029299593 -0.070319027 0.005487442
0.018483421 -0.068157613 0.0066097081
0.020019377 -0.069479011 0.0078636408
0.021072011 -0.069069371 0.0076774955
0.022458592 -0.069739841 0.0081013441
0.023528257 -0.069408357 0.008117944
0.02462233 -0.069177024 0.0072653294
0.025692366 -0.068902254 0.0066698492
0.027021475 -0.069315962 0.0063816309
0.028786076 -0.070765771 0.0053575337
0.030066036 -0.070955843 0.005336225
0.021181783 -0.068252414 0.0067252815
0.022432273 -0.068477467 0.0069181025
0.023471344 -0.068066902 0.0069259405
0.024758017 -0.068379283 0.0066009164
0.026202457 -0.069079205 0.0061861873
0.027109904 -0.068364106 0.0055742264
0.028539844 -0.068971291 0.005226016
0.023982562 -0.0683503 0.0056686997
0.025082663 -0.068081513 0.0055837929
0.025619162 -0.066376925 0.0052554309
0.0035446142 -0.062621519 0.0051576495
0.0047613941 -0.063088477 0.0059203207
0.0059442632 -0.063009188 0.0063770115
0.0070977714 -0.062696978 0.0060274601
0.0082803974 -0.062694438 0.0062762797
0.0095140496 -0.063030578 0.00551036
0 -0.062020145 0.0056823194
0.0011862309 -0.061684005 0.005939424
0.0023456227 -0.060986191 0.006542176
0.0035567752 -0.061650772 0.0070440471
0.0047398256 -0.061617732 0.0071816742
0.0059428983 -0.061806142 0.0077835023
0.0070950342 -0.061490297 0.0080147982
0.0083288196 -0.061871231 0.0077890158
0.0095679285 -0.062191539 0.0066192746
0.010688219 -0.061754152 0.0055444241
-0.0024013792 -0.061235171 0.0051264167
-0.0011950323 -0.060946647 0.0067446232
0 -0.06045568 0.0071301162
0.001198019 -0.06109897 0.0072060227
0.0023568843 -0.060100552 0.0074406564
0.0035659906 -0.060621839 0.0084848106
0.0047779549 -0.060918923 0.0090925992
0.0059405831 -0.060593948 0.0091955662
0.0071544177 -0.060812548 0.009252131
0.0083733574 -0.06100589 0.0091804862
0.0095179137 -0.060676698 0.0082442462
0.010720247 -0.06074807 0.0072866678
0.01190093 -0.060694743 0.006305784
0.013139762 -0.060920715 0.0054592192
-0.0023793487 -0.059483718 0.0071873367
-0.0011933428 -0.059667144 0.0078646541
0 -0.059420463 0.008700192
0.0011893198 -0.059465989 0.0091045201
0.0023782514 -0.059456285 0.0093527138
0.0035568986 -0.05928164 0.0097491145
0.004745109 -0.059313864 0.01006496
0.0059397533 -0.059397534 0.010458857
0.0070510278 -0.058758564 0.010451913
0.0082966872 -0.059262048 0.010676384
0.0094332155 -0.058957595 0.0095357895
0.01078896 -0.059938665 0.0084996223
0.011870632 -0.059353158 0.0078554153
0.013150007 -0.05977276 0.0067481101
0.014364174 -0.059850723 0.0054618716
-0.0048158579 -0.058994256 0.0052408576
-0.0035907587 -0.058649056 0.0068096817
-0.0023807089 -0.058327373 0.0084387362
-0.001185367 -0.058082979 0.0089529753
0 -0.057778485 0.0095316172
0.0011882321 -0.058223374 0.0098929405
0.0023519364 -0.05762244 0.010384381
0.0035377245 -0.057782836 0.0108639
0.0047500236 -0.05818779 0.011761814
0.0059593068 -0.058401208 0.011950761
0.0070459605 -0.057542011 0.011899173
0.0082796859 -0.057957798 0.011832625
0.0094547411 -0.057910293 0.010993183
0.010568005 -0.057536915 0.010220528
0.011873164 -0.058178507 0.0090301037
0.013047559 -0.058120947 0.0082275271
0.014320422 -0.058475059 0.0070027411
0.015613964 -0.058852632 0.0056880713
-0.0048014824 -0.057617787 0.0064163208
-0.0035646139 -0.057033822 0.0088635385
-0.0024075371 -0.057780888 0.010034859
-0.0011867101 -0.056962088 0.010935515
0 -0.056461878 0.011223018
0.0011873198 -0.056991346 0.011760294
0.0023680332 -0.056832798 0.012942016
0.0035704661 -0.057127457 0.013164282
0.0047127241 -0.05655269 0.013517052
0.005844716 -0.056109272 0.013517052
0.0071838531 -0.057470825 0.013478577
0.0083206594 -0.05705595 0.013296098
0.0094737718 -0.056842633 0.012418061
0.010773716 -0.05745982 0.011897802
0.011804318 -0.056660727 0.010881454
0.013088471 -0.057113327 0.0095084012
0.014307288 -0.057229154 0.0083067417
0.015514988 -0.057286106 0.0071880817
0.016873369 -0.057851549 0.005399406
-0.0072529516 -0.056814786 0.0051369667
-0.0060187299 -0.056576058 0.0064838529
-0.0047824429 -0.056193706 0.008625865
-0.0035603913 -0.055779465 0.010682136
-0.0023771673 -0.055863433 0.011256158
-0.0011782305 -0.055376831 0.011890084
0 -0.0556922 0.012558073
0.0011707316 -0.055024389 0.014467597
0.0023747284 -0.055806123 0.014799505
0.0035201549 -0.05514909 0.015034884
0.0046890476 -0.055096306 0.015237927
0.0058840048 -0.055309646 0.015444905
0.0070638554 -0.055333532 0.015594721
0.0081589036 -0.05478121 0.015518963
0.0094356928 -0.055434696 0.0140706
0.010608557 -0.055400241 0.013447821
0.011839001 -0.055643305 0.012778789
0.013157463 -0.056218248 0.011697024
0.014231906 -0.05574163 0.0098562837
0.015515714 -0.056095276 0.0082993805
0.016775209 -0.056316778 0.0075078309
0.018092442 -0.056689654 0.0056495667
-0.0083772866 -0.055050742 0.0054921508
-0.0071767997 -0.055022132 0.0068883598
-0.0058921697 -0.054207958 0.0094648004
-0.0047889776 -0.055073243 0.011517078
-0.0036020544 -0.0552315 0.01218763
-0.002363119 -0.05435174 0.013791084
-0.0011765102 -0.054119471 0.015102327
0 -0.053982221 0.015395433
0.0011822414 -0.054383103 0.016163081
0.0023584857 -0.05424517 0.017039269
0.0035760826 -0.054833267 0.016833365
0.0047709318 -0.054865718 0.016921818
0.0058912556 -0.05419955 0.017164022
0.0070356117 -0.053939693 0.017059177
0.0082902368 -0.054478701 0.016695559
0.0094892299 -0.054563072 0.016407132
0.010621056 -0.054285396 0.01586464
0.011849842 -0.054509275 0.014613122
0.012971625 -0.054244976 0.013530403
0.014212739 -0.054482166 0.011799127
0.01558051 -0.055131033 0.010266036
0.016872285 -0.055437505 0.0085440874
0.018026462 -0.055281151 0.0075447857
0.019387195 -0.055738185 0.0057056546
-0.0097494833 -0.054840844 0.0057617724
-0.0083037503 -0.053381249 0.0072810054
-0.0071880203 -0.053910151 0.010124892
-0.0060100364 -0.054090329 0.012084544
-0.0047486597 -0.053422421 0.01258406
-0.0036074824 -0.054112237 0.014460236
-0.0023535672 -0.052955262 0.015381306
-0.0011880741 -0.053463332 0.015785724
0 -0.052824225 0.016357541
0.0011803919 -0.053117633 0.016944706
0.0023471043 -0.052809849 0.017843068
0.0035313929 -0.052970894 0.017232805
0.0046747671 -0.052591126 0.017524302
0.0057920828 -0.052128743 0.017989367
0.0070098834 -0.052574128 0.017926037
0.0082094427 -0.052774988 0.018086135
