ply
format ascii 1.0
comment PCL generated
element vertex 1271
property float x
property float y
property float z
element camera 0
property float view_px
property float view_py
property float view_pz
property float x_axisx
property float x_axisy
property float x_axisz
property float y_axisx
property float y_axisy
property float y_axisz
property float z_axisx
property float z_axisy
property float z_axisz
property float focal
property float scalex
property float scaley
property float centerx
property float centery
property int viewportx
property int viewporty
property float k1
property float k2
end_header
0.011434521 -0.049168438 0.038246989
0.012396123 -0.048457574 0.037783504
0.013498669 -0.048370231 0.036110312
0.014614495 -0.04834025 0.034956425
0.015755275 -0.048391204 0.031759739
0.016951328 -0.048593804 0.026441723
0.017969515 -0.048293069 0.02023533
0.019140353 -0.048413835 0.01607427
0.021577558 -0.051546387 0.012108475
0.022957679 -0.051956851 0.0078331232
-0.015188315 -0.049069941 0.0072387755
-0.013643691 -0.047752921 0.014410704
-0.012618912 -0.048181303 0.022091299
-0.011382276 -0.047805563 0.023560435
-0.01025947 -0.047877528 0.027564347
-0.0091468366 -0.048020892 0.030107766
-0.0082628997 -0.049577396 0.033007264
-0.0070202202 -0.049141541 0.033718348
-0.0057705138 -0.048472315 0.034887195
-0.0046711708 -0.049047295 0.035745382
-0.0036036952 -0.050451733 0.035347074
-0.0024283538 -0.050995428 0.035900235
-0.0011804693 -0.04957971 0.036509931
0 -0.049835965 0.036044151
0.0011552258 -0.048519485 0.037394941
0.0022925036 -0.048142575 0.037738234
0.0034145564 -0.047803789 0.037899464
0.0045992248 -0.048291858 0.038283467
0.0057668556 -0.048441589 0.038629979
0.0070805782 -0.049564049 0.038555086
0.0082940524 -0.049764317 0.038904756
0.0097159836 -0.051008914 0.039094299
0.010763116 -0.050227877 0.039293498
0.011599279 -0.048716974 0.039427519
0.01274362 -0.048657458 0.039013535
0.013874073 -0.048559252 0.038515151
0.014735937 -0.047608413 0.037295341
0.015868133 -0.047604401 0.036347181
0.016861109 -0.047211107 0.034299612
0.018114069 -0.04754943 0.029371947
0.019309461 -0.047705729 0.025525212
0.020061519 -0.046810213 0.016614288
0.022416458 -0.049552169 0.013194203
0.024706632 -0.051883928 0.0073195696
-0.014882645 -0.04693757 0.01760301
-0.013862501 -0.047363546 0.023570567
-0.012510414 -0.046629727 0.026310623
-0.011371411 -0.046622787 0.0286313
-0.010453785 -0.0476228 0.031472325
-0.0094107715 -0.048230201 0.033561498
-0.0083009591 -0.048619904 0.035169125
-0.0072119711 -0.049281802 0.035518467
-0.0058809244 -0.048223581 0.036205292
-0.0045241495 -0.046372533 0.036183238
-0.0032920314 -0.044991095 0.035857618
-0.0021619175 -0.044319306 0.036045671
-0.0010791395 -0.044244722 0.036356986
0 -0.043814864 0.036322594
0.001080359 -0.044294719 0.036747217
0.0020669189 -0.042371836 0.03693527
0.0031365482 -0.042866159 0.037370741
0.0043209898 -0.044290144 0.037496775
0.0053745629 -0.044071417 0.038472205
0.0064430353 -0.044027407 0.038671792
0.0075814375 -0.044405561 0.03897962
0.0086684832 -0.044425976 0.039306641
0.009923799 -0.045208417 0.040099502
0.011398842 -0.046735249 0.040321082
0.013032045 -0.048573986 0.040322632
0.014498066 -0.049535058 0.039996713
0.015407913 -0.048594188 0.039614558
0.016203564 -0.047453295 0.038380414
0.017012987 -0.046502165 0.037125647
0.01818735 -0.046605084 0.03543362
0.019189507 -0.046280574 0.032487094
0.020341301 -0.046332967 0.028159082
0.021407563 -0.046195269 0.016922981
0.023225792 -0.047612872 0.011431247
0.025920989 -0.050607648 0.0058016181
-0.01602019 -0.045771971 0.017929226
-0.015046689 -0.046297505 0.024118036
-0.013785017 -0.045950055 0.026857644
-0.012600968 -0.0458217 0.028290719
-0.011912133 -0.04764853 0.030089945
-0.011030989 -0.049026616 0.033040851
-0.0095805228 -0.047902614 0.034068406
-0.0078298375 -0.044741925 0.035281241
-0.0065469467 -0.043646313 0.035279572
-0.0054285391 -0.043428313 0.035327762
-0.0043149064 -0.043149062 0.035371244
-0.0032353359 -0.043137811 0.035185277
-0.0021781435 -0.04356287 0.034966499
-0.0010806064 -0.043224256 0.035289258
0 -0.043265853 0.035432637
0.0010935332 -0.043741327 0.035612196
0.00216229 -0.0432458 0.035641283
0.0032792368 -0.043723159 0.035772204
0.0043834392 -0.043834392 0.036450237
0.0054029315 -0.043223452 0.036634833
0.0064968304 -0.043312203 0.037052274
0.0075904224 -0.043373842 0.037922293
0.0086431494 -0.043215748 0.038263559
0.0097383885 -0.043281727 0.039778203
0.010714945 -0.042859782 0.040314168
0.011802428 -0.042917918 0.040984035
0.013172854 -0.043909512 0.040984035
0.014887444 -0.045807518 0.039938629
0.016731706 -0.047804873 0.039595008
0.017904183 -0.04774449 0.038361102
0.018458409 -0.046146024 0.037794679
0.01924135 -0.045273762 0.034681648
0.020589164 -0.045753695 0.033847511
0.021625191 -0.045526717 0.028599501
0.02271796 -0.04543592 0.016269356
0.024918549 -0.047463901 0.0095104873
-0.017343851 -0.045094013 0.01590386
-0.016214654 -0.045169394 0.024372071
-0.014903243 -0.044709727 0.027134985
-0.014025598 -0.045583192 0.028928399
-0.013610666 -0.048255995 0.02941829
-0.011743245 -0.045798656 0.030423224
-0.010001706 -0.043340724 0.033048749
-0.0087138396 -0.042479966 0.034022599
-0.0076049091 -0.042370208 0.034350067
-0.0065776538 -0.042754751 0.034378082
-0.0054504713 -0.042513676 0.034417361
-0.0043392815 -0.042307995 0.034350067
-0.0032843484 -0.042696532 0.033909202
-0.0021675271 -0.042266779 0.034320652
-0.001087615 -0.042416986 0.034203708
0 -0.042574074 0.034196556
0.0011004809 -0.042918753 0.034505934
0.0022767936 -0.044397473 0.034748405
0.0034288564 -0.044575132 0.035403222
0.0044314717 -0.043206848 0.035813332
0.0054651042 -0.042627811 0.036110967
0.0065011992 -0.042257793 0.036284447
0.0075225439 -0.041911315 0.037157565
0.0087435897 -0.042624999 0.038638175
0.0097860899 -0.042406388 0.039085716
0.01085633 -0.042339686 0.039592385
0.011891564 -0.042161003 0.039649516
0.013001671 -0.042255431 0.039962709
0.013983426 -0.041950278 0.040061027
0.015236964 -0.042445827 0.039668381
0.016900567 -0.043941475 0.039281845
0.019198246 -0.046795726 0.03858465
0.020129876 -0.046180304 0.036760867
0.020415859 -0.044234365 0.035234451
0.021536015 -0.044205505 0.033775657
0.022795841 -0.044451889 0.028000474
0.023753555 -0.044113744 0.013590038
0.026222117 -0.04648466 0.0063822269
-0.018512771 -0.043967828 0.0052281022
-0.017386649 -0.044046175 0.024771541
-0.016158197 -0.043857962 0.026623279
-0.015950464 -0.046624433 0.028492332
-0.014629577 -0.046326995 0.029620409
-0.012144891 -0.041955076 0.029756337
-0.010884268 -0.041360218 0.030667156
-0.0098106861 -0.0414229 0.033455521
-0.0087571638 -0.041596528 0.033342391
-0.0077042729 -0.041823193 0.033372402
-0.0066379504 -0.042040352 0.033993989
-0.0056363796 -0.042836484 0.033760846
-0.0045141079 -0.042884026 0.033777744
-0.0033622414 -0.04258839 0.033837229
-0.0022418951 -0.042596009 0.03396377
-0.0011412626 -0.043367978 0.034263492
0 -0.043189704 0.034407943
0.0011349212 -0.043127008 0.034555495
0.0022848209 -0.043411598 0.03505069
0.0033552905 -0.042500347 0.035625219
0.0045297164 -0.043032307 0.036559194
0.0057043615 -0.043353144 0.037514269
0.0068065878 -0.043108389 0.037538409
0.0078843646 -0.042800836 0.037769437
0.0090102796 -0.042798828 0.038371533
0.010145903 -0.042838253 0.038587511
0.011268289 -0.0428195 0.038811862
0.012265576 -0.042371988 0.038910687
0.013081999 -0.041426331 0.039649785
0.014148876 -0.041358255 0.039921314
0.01510544 -0.041000478 0.039921314
0.016183849 -0.040999085 0.039569944
0.017272802 -0.041022904 0.039208502
0.019291855 -0.04312297 0.038051486
0.021903535 -0.046240795 0.036609173
0.021980187 -0.043960374 0.035324126
0.022785885 -0.043293182 0.032187521
0.024078123 -0.043569937 0.02159822
0.025278918 -0.043663587 0.014075369
-0.018560246 -0.042920567 0.023579359
-0.017413795 -0.042954028 0.026139379
-0.017917061 -0.047352236 0.028199464
-0.015184117 -0.043216333 0.029235512
-0.012988181 -0.040046893 0.029967219
-0.012063576 -0.040577482 0.029723495
-0.011019418 -0.040771846 0.031190038
-0.0098072421 -0.040318664 0.033362299
-0.0088511519 -0.040936578 0.033864796
-0.007868452 -0.041590389 0.034042031
-0.006950608 -0.042862084 0.034788221
-0.0057384144 -0.042464267 0.034917206
-0.0045347675 -0.041946601 0.034783304
-0.0034037109 -0.041979101 0.034975767
-0.0022990529 -0.042532478 0.035370737
-0.0011494153 -0.042528365 0.03569594
0 -0.042404417 0.03613627
0.0011530127 -0.042661473 0.036197752
0.0022750294 -0.042088047 0.036988348
0.0034435869 -0.042470902 0.037710935
0.004574033 -0.042309802 0.038188756
0.0056670806 -0.041936398 0.03876093
0.0068829344 -0.042444762 0.038907737
0.0080203759 -0.042393416 0.039100111
0.0090667121 -0.041933544 0.039870292
0.010317464 -0.042416245 0.040128052
0.011257142 -0.041651424 0.039789826
0.012550999 -0.042216998 0.039789051
0.013643478 -0.04206739 0.040005445
0.014167671 -0.040323369 0.040009469
0.015169187 -0.040089995 0.03988865
0.01627408 -0.04014273 0.039591521
0.017322246 -0.040057693 0.038401812
0.018380208 -0.040003981 0.037739545
0.01993183 -0.040970985 0.037035465
0.023103487 -0.044990998 0.035896719
0.023558931 -0.043584026 0.034651279
0.024183882 -0.042609695 0.029846728
0.025187446 -0.042360704 0.019693464
-0.019841036 -0.042016312 0.010770291
-0.018719705 -0.042119335 0.02603215
-0.019283347 -0.046280034 0.027051508
-0.016137971 -0.04149764 0.029096633
-0.014184788 -0.039280951 0.030062199
-0.013107837 -0.039323512 0.030731112
-0.012212821 -0.039969232 0.030631185
-0.010980166 -0.039528597 0.031622797
-0.0099875219 -0.039950088 0.032387257
-0.0092337886 -0.041552048 0.034790009
-0.0080850646 -0.041580334 0.035134315
-0.0070422702 -0.042253621 0.036348373
-0.0056712246 -0.040832818 0.036597937
-0.0045688115 -0.041119304 0.036637396
-0.0034451578 -0.041341893 0.036784083
-0.0022987586 -0.041377656 0.037410051
-0.001154024 -0.041544866 0.038003236
0 -0.041790836 0.038356036
0.0011373785 -0.040945627 0.039223641
0.002289613 -0.041213032 0.039343894
0.0034230251 -0.041076303 0.039661765
0.004537839 -0.040840548 0.040376008
0.0057297535 -0.041254226 0.040822446
0.006933629 -0.041601773 0.040890723
0.0079604564 -0.040939488 0.041040272
0.0090621244 -0.040779561 0.041223943
0.010193801 -0.040775206 0.041210592
0.011403793 -0.041053656 0.040617198
0.012682803 -0.041507356 0.040509492
0.013814313 -0.041442938 0.040374666
0.014881154 -0.041209351 0.040225118
0.015696922 -0.040363513 0.040446669
0.016427267 -0.03942544 0.039288104
0.017341362 -0.039018068 0.038358659
0.01860971 -0.039408796 0.038176894
0.019493934 -0.038987868 0.037837684
0.020836078 -0.039478883 0.036715299
0.024270907 -0.04368763 0.036147773
0.025143629 -0.043103363 0.032542586
0.025154751 -0.041162319 0.024104714
0.026386866 -0.04130118 0.016032249
-0.019981317 -0.041138005 0.012851238
-0.020388935 -0.044600792 0.02678445
-0.01694317 -0.039534066 0.028064072
-0.015414967 -0.03853742 0.029797047
-0.014346792 -0.038625978 0.030642509
-0.013558694 -0.039546192 0.031372815
-0.012454502 -0.039627962 0.03087917
-0.011466864 -0.04013402 0.031521946
-0.010559978 -0.04106658 0.032266349
-0.0092940005 -0.040661253 0.034826279
-0.0082128569 -0.041064285 0.035648257
-0.0070417067 -0.041076623 0.036783636
-0.0057049012 -0.039934307 0.037220567
-0.0045720967 -0.040005848 0.037258267
-0.0034253066 -0.039961912 0.037349969
-0.0022912559 -0.040096976 0.038240403
-0.0011449679 -0.040073875 0.038649559
0 -0.040391967 0.039282858
0.0011436265 -0.040026926 0.039766073
0.0023097906 -0.040421337 0.039815336
0.0033806772 -0.039441235 0.040169328
0.0045694145 -0.039982378 0.040828317
0.0057527595 -0.040269319 0.041390657
0.0068090679 -0.039719563 0.041428596
0.0079610851 -0.039805427 0.041910917
0.0091389222 -0.039982785 0.042392403
0.010238499 -0.039816387 0.041946828
0.011348616 -0.039720159 0.041922808
0.012616745 -0.04014419 0.041346759
0.013869505 -0.040452726 0.0412938
0.015071657 -0.040577542 0.041129023
0.016099129 -0.040247824 0.040615082
0.017210949 -0.040158879 0.040002018
0.01828249 -0.039992947 0.038291812
0.018947817 -0.039010212 0.038105577
0.019678671 -0.038264081 0.038169712
0.020701263 -0.038133904 0.037658006
0.02153605 -0.037688088 0.037135154
0.024974145 -0.041623574 0.033361137
0.026364803 -0.041944005 0.024829537
0.026292324 -0.040010061 0.019193977
-0.021893263 -0.043786526 0.013921469
-0.018136628 -0.038540334 0.027418584
-0.016574293 -0.037568398 0.028533697
-0.015511685 -0.037671234 0.030814499
-0.014686936 -0.038411986 0.03127116
-0.013880731 -0.039328739 0.031573027
-0.012569384 -0.038850822 0.031401157
-0.01164688 -0.039599393 0.03215152
-0.010417533 -0.039355125 0.033275306
-0.0094194962 -0.04003286 0.03550148
-0.0082262298 -0.039955974 0.036597669
-0.0070085451 -0.039715089 0.037735581
-0.0057723755 -0.039252155 0.037976593
-0.0045836451 -0.038960986 0.03788951
-0.0034206165 -0.038766988 0.038012594
-0.0023016636 -0.039128281 0.038721621
-0.0011443188 -0.038906842 0.039209634
0 -0.038813684 0.039935142
0.0011490744 -0.039068531 0.040412635
0.0022819098 -0.038792469 0.040399611
0.0034145808 -0.038698584 0.040661871
0.0045992523 -0.039093647 0.041395158
0.0056919032 -0.038704939 0.041928232
0.0068337061 -0.038724337 0.041965038
0.0080512762 -0.039106198 0.042571157
0.0090995962 -0.038673282 0.043098956
0.010224981 -0.038627706 0.042806268
0.011298248 -0.038414042 0.042640895
0.012626367 -0.039026953 0.042136312
0.013952398 -0.039531793 0.042080492
0.015105205 -0.039505921 0.041810036
0.016042275 -0.038959812 0.041271329
0.01712811 -0.038823713 0.040103197
0.018276988 -0.038838599 0.038105488
0.019318925 -0.03863785 0.038213909
0.020629609 -0.038967039 0.03860414
0.020734109 -0.037103143 0.038065135
0.021738693 -0.036955781 0.037635595
0.023015777 -0.037263639 0.033872366
0.026382649 -0.040773187 0.026856095
0.027216805 -0.040233538 0.020906985
0.027759155 -0.039325472 0.013865173
-0.022462856 -0.041181903 0.010331959
-0.01947243 -0.037799422 0.01729551
-0.017830817 -0.036776058 0.028252333
-0.016555343 -0.036421757 0.030031383
-0.015729425 -0.037076503 0.031588048
-0.015415904 -0.039132681 0.031642675
-0.014042508 -0.038616896 0.032117099
-0.0127787 -0.038336102 0.031832039
-0.011600697 -0.038282301 0.03292492
-0.010524628 -0.038590301 0.03395319
-0.0093688862 -0.038646657 0.036261588
-0.0082544843 -0.038913995 0.037251413
-0.0071099405 -0.039104674 0.037840158
-0.0056922808 -0.037569053 0.038439125
-0.0045844344 -0.037821583 0.038681746
-0.003469859 -0.038168449 0.038958251
-0.002290962 -0.037800871 0.039926469
-0.0011390293 -0.037587967 0.040532291
0 -0.037942179 0.041215897
0.0011339082 -0.037418969 0.041370004
0.002284012 -0.037686195 0.041370004
0.0034340119 -0.037774131 0.041846037
0.0045378585 -0.037437335 0.042552233
0.0056593618 -0.037351787 0.043097734
0.0068996307 -0.037947968 0.043064624
0.007934887 -0.037407324 0.043283701
0.0091333603 -0.037675109 0.043534845
0.010244314 -0.037562486 0.043286949
0.011300837 -0.037292764 0.042722553
0.01266943 -0.038008288 0.042642057
0.013936474 -0.038325302 0.042549968
0.015011119 -0.038105149 0.042208225
0.016219903 -0.038232628 0.041633695
0.017335773 -0.038138699 0.040701836
0.018359095 -0.037865631 0.038690299
0.019661926 -0.038167264 0.038769066
0.021089213 -0.038663559 0.038775206
0.020912612 -0.036321905 0.03881374
0.022027651 -0.036345623 0.038329899
0.022856308 -0.035917055 0.034649909
0.024133008 -0.03619951 0.02831164
0.028619815 -0.041063212 0.022967309
0.027826678 -0.038261682 0.018294454
-0.021667039 -0.038519178 0.011266261
-0.018922735 -0.035619266 0.018329173
-0.017902108 -0.035804216 0.029164255
-0.016787589 -0.035813525 0.031196207
-0.016214879 -0.037062582 0.03258425
-0.015804106 -0.038902413 0.032720506
-0.014025033 -0.037400089 0.032720506
-0.012808267 -0.037260413 0.032344311
-0.011690352 -0.037409127 0.033737093
-0.010415525 -0.03703298 0.034739137
-0.0094264746 -0.037705898 0.037078112
-0.0082600713 -0.037760325 0.038063586
-0.0069954973 -0.037309319 0.038559198
-0.005629532 -0.036029004 0.039162517
-0.0045237467 -0.036189973 0.039444625
-0.0034093442 -0.03636634 0.039717346
-0.0022823198 -0.036517117 0.041017771
-0.0011399514 -0.036478445 0.041848898
0 -0.036230803 0.042833447
0.0011469012 -0.036700837 0.042930782
0.0022786621 -0.036458593 0.042833447
0.0033709384 -0.035956677 0.043146998
0.0045254538 -0.03620363 0.043381035
0.0056956722 -0.036452301 0.043887019
0.0067632529 -0.036070682 0.043845743
0.0079123285 -0.036170643 0.04442215
0.0090875849 -0.03635034 0.044603169
0.010193918 -0.036245044 0.044662714
0.011326514 -0.036244843 0.04395628
0.012511975 -0.036398474 0.043265253
0.013870743 -0.03698865 0.04312712
0.014989029 -0.036896069 0.042831421
0.016102288 -0.036805231 0.042241186
0.017302977 -0.036913019 0.040967494
0.018509306 -0.037018612 0.0390926
0.01949637 -0.036699049 0.03922534
0.021082746 -0.037480436 0.039325982
0.022389125 -0.037707999 0.039325982
0.021884145 -0.035014629 0.03922534
0.022911493 -0.03491275 0.035159737
0.024166698 -0.03515156 0.029637158
0.025334436 -0.035247911 0.0248878
0.029608645 -0.039478194 0.021023393
-0.02421012 -0.039500721 0.010214657
-0.020064378 -0.034555316 0.013812631
-0.019019058 -0.034681812 0.01852116
-0.017969379 -0.034815669 0.02940017
-0.017231701 -0.035612181 0.031281829
-0.016918533 -0.037462462 0.032880187
-0.015885642 -0.037881147 0.032348454
-0.013844416 -0.035764739 0.032348454
-0.012826357 -0.036147006 0.03260228
-0.011673886 -0.036189049 0.034247279
-0.010476406 -0.036085397 0.035131633
-0.009431337 -0.036546431 0.03804785
-0.0082289139 -0.036442332 0.038665652
-0.0070123146 -0.036230292 0.039686948
-0.0056926268 -0.035294287 0.040284455
-0.0045530107 -0.03528583 0.040587515
-0.0034239762 -0.035381086 0.041334182
-0.0022702508 -0.035188887 0.043148965
-0.0011361113 -0.03521945 0.04430154
0 -0.035368852 0.046072185
0.0011426341 -0.035421655 0.046025246
0.002199172 -0.034087166 0.04608646
0.0032509761 -0.03359342 0.046074301
0.0045347232 -0.035144106 0.046074301
0.0055938791 -0.03468205 0.046795845
0.0067742309 -0.03500019 0.046432167
0.0079545742 -0.035227399 0.047591746
0.0090666246 -0.035133168 0.046333402
0.010199959 -0.035133194 0.045185477
0.011237548 -0.0348364 0.045104027
0.01252941 -0.035310157 0.044751316
0.013895599 -0.035896964 0.043830991
0.015020708 -0.03581861 0.043530941
0.016254107 -0.035991237 0.042907387
0.017189667 -0.035525311 0.04142195
0.018239338 -0.035338718 0.039706856
0.019361774 -0.035306763 0.039404511
0.021303056 -0.036688596 0.039465189
0.022378683 -0.036512591 0.03941983
0.023285756 -0.036092922 0.039339602
0.023456158 -0.034625757 0.035690665
0.024134619 -0.034007873 0.030190378
0.02511473 -0.03385029 0.026730955
0.028172947 -0.036390059 0.02292493
0.029819952 -0.03697674 0.012453556
-0.021860238 -0.034516163 0.012144148
-0.020244047 -0.033740077 0.014550179
-0.019395825 -0.034227926 0.018793076
-0.018756704 -0.035168823 0.028332412
-0.017912304 -0.035824608 0.031842411
-0.017312407 -0.037098017 0.033080846
-0.015794411 -0.036448643 0.032570124
-0.01397447 -0.034936175 0.032546699
-0.012731088 -0.034721151 0.032944381
-0.011509272 -0.034527816 0.034634352
-0.010493334 -0.034977783 0.036657572
-0.0092957243 -0.034858968 0.038884461
-0.0081733903 -0.035028815 0.040427923
-0.006924496 -0.034622479 0.041416407
-0.0055316808 -0.033190086 0.041834444
-0.0044320519 -0.033240389 0.043406695
-0.0033683649 -0.03368365 0.044653445
-0.0022541455 -0.033812184 0.047511548
-0.0011183665 -0.033550996 0.047854662
0 -0.033424921 0.049560517
0.001072954 -0.03218862 0.047955513
0.0021179703 -0.031769555 0.048285902
0.0032193305 -0.032193307 0.04839471
0.0042499229 -0.031874422 0.05004248
0.0054247105 -0.032548264 0.050624698
0.0066385204 -0.033192601 0.051123589
0.0078226998 -0.033525858 0.051866919
0.0089758886 -0.033659581 0.050239831
0.010020553 -0.033401843 0.047313899
0.01088649 -0.032659471 0.046620607
0.012229727 -0.033353802 0.046417445
0.013804844 -0.03451211 0.045785189
0.014981801 -0.034573387 0.044468969
0.016196001 -0.034705717 0.043593049
0.017253522 -0.034507044 0.042543441
0.018218767 -0.034160189 0.040115386
0.019485898 -0.034386881 0.039824247
0.021453055 -0.03575509 0.039788783
0.022649225 -0.035761934 0.040138185
0.02372637 -0.035589557 0.040143371
0.024513226 -0.035018895 0.03619799
0.025098627 -0.034225401 0.031763405
0.025484163 -0.033240214 0.027955711
0.026277231 -0.03284654 0.025172681
0.031115558 -0.03733867 0.019459307
-0.021427322 -0.03270486 0.014169544
-0.020528788 -0.033074159 0.015472084
-0.020324219 -0.034670725 0.019227773
-0.019160854 -0.034729049 0.023854882
-0.018059142 -0.034914341 0.032152116
-0.016909599 -0.035027027 0.033038169
-0.016019879 -0.03573665 0.032931954
-0.014032774 -0.033912536 0.032997936
-0.012712829 -0.03351564 0.033976823
-0.011518877 -0.033404741 0.035813779
-0.010443288 -0.033650596 0.039138377
-0.0093779946 -0.03399523 0.040785015
-0.008040607 -0.033311088 0.042280793
-0.0065433756 -0.031626314 0.045188397
-0.0053469515 -0.031012319 0.048488498
-0.0043205894 -0.031324275 0.049443752
-0.0032472785 -0.031390358 0.05173561
-0.0021702501 -0.031468626 0.054348201
-0.0010805028 -0.031334579 0.054747611
0 -0.030926358 0.054528803
0.0010750171 -0.031175496 0.053543538
0.0021758575 -0.031549934 0.053178757
0.0032085138 -0.031015633 0.053231776
0.0042652474 -0.030923042 0.053411633
0.0053609693 -0.031093623 0.054131925
0.0064131957 -0.030997112 0.056310326
0.0075146062 -0.03113194 0.056225568
0.0086306212 -0.031286001 0.054810643
0.009594311 -0.030915003 0.054115772
0.010657276 -0.030906102 0.052369982
0.011661916 -0.030745052 0.050649613
0.013296554 -0.032133337 0.04911375
0.014910335 -0.033261515 0.047506243
0.015972357 -0.033085596 0.046380997
0.016986521 -0.032840606 0.044492781
0.01833646 -0.033234835 0.042537272
0.019325193 -0.032966506 0.040834486
0.021681819 -0.03493182 0.040737331
0.022675505 -0.034609981 0.040834486
0.023512967 -0.034093805 0.040795118
0.024649674 -0.034040026 0.037179768
0.025761096 -0.033957809 0.032742172
0.025793208 -0.03252187 0.02974233
0.026504768 -0.032026596 0.026821107
0.028569147 -0.033140209 0.020160705
-0.021616643 -0.031856105 0.015285224
-0.020588692 -0.032026853 0.016646564
-0.020477006 -0.033726834 0.019950688
-0.019158505 -0.033527385 0.024577796
-0.017824883 -0.033273116 0.031618476
-0.017044827 -0.034089655 0.032789856
-0.015986262 -0.034431949 0.033857584
-0.013778823 -0.032150585 0.034344673
-0.012600666 -0.032074422 0.03532964
-0.011562528 -0.032375079 0.038944602
-0.010299955 -0.032044306 0.043025404
-0.0091628265 -0.032069892 0.045836061
-0.0077247932 -0.030899173 0.050863266
-0.0064708735 -0.030197408 0.053655505
-0.0053819143 -0.03013872 0.053892732
-0.0042932197 -0.030052537 0.054879129
-0.0031775665 -0.029657286 0.055411816
-0.0020973228 -0.02936252 0.0554564
-0.0010470257 -0.02931672 0.057056904
0 -0.029296331 0.056128532
0.001042028 -0.029176783 0.055855364
0.0020171159 -0.028239625 0.05619511
0.0030095368 -0.028089011 0.056478232
0.0041467077 -0.029026954 0.056995839
0.0051893331 -0.029060265 0.058822155
0.0062522152 -0.029177004 0.058914423
0.007299928 -0.029199712 0.058741391
0.0083399462 -0.029189812 0.058928251
0.0095036859 -0.029567022 0.057853401
0.010630311 -0.029764874 0.057409495
0.011757584 -0.029928396 0.057548076
0.012993677 -0.030318579 0.055504203
0.0142013 -0.030587416 0.054890692
0.015912371 -0.031824742 0.050662518
0.017069351 -0.031862788 0.048130959
0.01805939 -0.031603932 0.044481903
0.019158181 -0.031554651 0.042939425
0.021383261 -0.033262853 0.041752934
0.022532759 -0.033206172 0.041752934
0.023682943 -0.033156119 0.041729808
0.024674751 -0.032899667 0.039016932
0.025605286 -0.032588545 0.033245862
0.025920117 -0.031554926 0.030157089
0.02658318 -0.03101371 0.027215004
0.027729176 -0.031056676 0.023213714
-0.023059035 -0.031129695 0.0054878891
-0.021653129 -0.030770237 0.016485959
-0.020680238 -0.031020356 0.017994791
-0.020723836 -0.032914329 0.020938069
-0.019153114 -0.032320879 0.026352018
-0.018233661 -0.03282059 0.032983243
-0.017152641 -0.033080094 0.034861147
-0.015680945 -0.032568116 0.035989195
-0.013752165 -0.030942373 0.036506146
-0.012444215 -0.030544892 0.039401293
-0.01116379 -0.030142233 0.044074029
-0.010002493 -0.030007478 0.050802171
-0.0087653268 -0.029582977 0.055636615
-0.0074682673 -0.028806174 0.056303293
-0.0063862759 -0.028738242 0.056257188
-0.0052797268 -0.028510526 0.057076663
-0.0041795354 -0.028211864 0.057154953
-0.0031617782 -0.028456004 0.058222502
-0.0021210487 -0.028634157 0.058667988
-0.001050052 -0.028351404 0.059085816
0 -0.02860654 0.059282303
0.0010582184 -0.028571898 0.059250861
0.0021454256 -0.028963247 0.05932337
0.0032113241 -0.028901916 0.059903413
0.0042341379 -0.028580431 0.060113996
0.0052736327 -0.028477618 0.060266733
0.0063500796 -0.028575357 0.060670733
0.0073031969 -0.028169474 0.061505497
0.0083865784 -0.028304702 0.061617613
0.0093450183 -0.028035056 0.060517341
0.010420512 -0.028135384 0.06074053
0.011565011 -0.028386846 0.060387611
0.012594273 -0.028337114 0.059857666
0.013817728 -0.028698359 0.059757173
0.015191463 -0.029297821 0.058035463
0.016462365 -0.029632257 0.054722399
0.017642925 -0.029772434 0.048899084
0.018947596 -0.03009324 0.044914663
0.020754756 -0.031132136 0.044470429
0.022820162 -0.032428652 0.044115216
0.023776053 -0.032097671 0.043443799
0.024550136 -0.031564463 0.041812032
0.025951363 -0.031849403 0.03420043
0.026815107 -0.031478606 0.030652225
0.026686234 -0.030022014 0.027765572
0.027892767 -0.030124187 0.017620832
-0.022893986 -0.029762181 0.005769819
-0.021686004 -0.029675586 0.016920686
-0.021483896 -0.031032296 0.018688947
-0.020597892 -0.031502657 0.022324651
-0.019189499 -0.031182935 0.026745647
-0.018224819 -0.031589687 0.03527537
-0.016937191 -0.031454783 0.03827253
-0.01585065 -0.0317013 0.03938216
-0.013244472 -0.028696356 0.041293949
-0.011986182 -0.028330974 0.045636535
-0.010915517 -0.028380344 0.052941382
-0.0097406572 -0.028139677 0.057031929
-0.0084877415 -0.027585158 0.058302343
-0.0074301059 -0.027597537 0.059100956
-0.0063550286 -0.027538458 0.05922398
-0.005283243 -0.027472863 0.059140593
-0.0042518182 -0.027636819 0.058906049
-0.0031933207 -0.027675446 0.059148043
-0.0021319606 -0.027715487 0.059432626
-0.0010685497 -0.027782291 0.059805393
0 -0.027644536 0.060138851
0.0010728763 -0.027894784 0.060100853
0.002164745 -0.028141685 0.060409665
0.0032339045 -0.028027173 0.061127126
0.0042998353 -0.027948929 0.061802745
0.0054048048 -0.028104987 0.062987536
0.0064584902 -0.027986791 0.063231409
0.0074812863 -0.027787635 0.063629061
0.00844095 -0.027433086 0.062739789
0.0095229791 -0.027510829 0.062215567
0.0105963 -0.027550381 0.062131286
0.011526515 -0.027244488 0.062040508
0.012514272 -0.027114255 0.062247753
0.013610703 -0.027221406 0.062338531
0.014682025 -0.027266618 0.061085135
0.015953111 -0.027652057 0.060064018
0.017461207 -0.02837446 0.055284023
0.018050712 -0.02760697 0.050292492
0.019819403 -0.028628027 0.047220707
0.022322094 -0.030546023 0.04648903
0.023503825 -0.030554973 0.045216024
0.024521235 -0.030359624 0.04304117
0.026008084 -0.030736826 0.035477042
0.027949067 -0.031594597 0.031289339
0.026856264 -0.029094286 0.028256148
0.027885864 -0.029001297 0.017941326
-0.022827409 -0.028534262 0.0060516894
-0.0217569 -0.0286275 0.016771734
-0.022637902 -0.031441528 0.01933679
-0.020369381 -0.029954972 0.022937626
-0.019366033 -0.030259427 0.027967662
-0.017866053 -0.029776754 0.037673205
-0.016962942 -0.030290967 0.040698677
-0.014749534 -0.028364489 0.041977316
-0.013098562 -0.02728867 0.046089649
-0.012076888 -0.027447473 0.053255141
-0.010688541 -0.026721351 0.057830662
-0.0095062181 -0.026406161 0.05871886
-0.0085191382 -0.026622308 0.059735924
-0.0074332724 -0.0265474 0.060057819
-0.0063741938 -0.026559141 0.059962332
-0.0053598383 -0.026799191 0.05962038
-0.0042857979 -0.026786236 0.059140593
-0.0032511598 -0.027092999 0.059470743
-0.0022140259 -0.027675323 0.059517622
-0.0011076325 -0.027690815 0.060204506
0 -0.028184457 0.060345203
0.0011332852 -0.028332131 0.060277879
0.0022681337 -0.02835167 0.061044306
0.0034290177 -0.028575148 0.06142959
0.0045780167 -0.028612604 0.061915457
0.005672399 -0.028361995 0.062911242
0.006773015 -0.028220896 0.063629061
0.0078226347 -0.02793798 0.063289374
0.0087598972 -0.027374679 0.063245177
0.00978857 -0.027190473 0.063006014
0.010762855 -0.026907139 0.063014418
0.011717094 -0.026629759 0.062919796
0.012739707 -0.026541056 0.063132912
0.013658559 -0.026266459 0.06330058
0.014606527 -0.026083084 0.062823802
0.015786353 -0.026310587 0.062526643
0.016906314 -0.026416115 0.061321467
0.018415444 -0.027081534 0.055914402
0.019610532 -0.027236849 0.053126067
0.021818191 -0.028708145 0.050238103
0.02363437 -0.029542964 0.047012419
0.02483209 -0.029562013 0.044135123
0.025498444 -0.028975504 0.038073659
0.028646117 -0.031137083 0.032235056
0.027455265 -0.028599234 0.028741091
0.027884869 -0.027884869 0.015871614
-0.023189098 -0.027826916 0.0062704682
-0.022833638 -0.02884249 0.016677082
-0.022938095 -0.030584129 0.019573659
-0.020453304 -0.028875254 0.024176121
-0.01898136 -0.028472042 0.029510409
-0.018027799 -0.028844478 0.040985733
-0.016619468 -0.028490517 0.042831093
-0.014368124 -0.026525768 0.045874208
-0.013070988 -0.026141975 0.053036571
-0.011804394 -0.025755042 0.057725579
-0.01061259 -0.025470216 0.059130698
-0.009532162 -0.025419099 0.060888946
-0.0085227014 -0.025568103 0.060875714
-0.0074670929 -0.025601462 0.06060636
-0.0065015084 -0.026006034 0.060306221
-0.0054884753 -0.026344681 0.060037643
-0.0044808267 -0.026884962 0.05962038
-0.0034592096 -0.027673677 0.059632123
-0.0022936251 -0.027523501 0.059912771
-0.0011198936 -0.026877448 0.060151756
0 -0.026821967 0.060470521
0.0010999707 -0.026399296 0.060856819
0.0022052822 -0.026463386 0.061089724
0.003331084 -0.026648672 0.061536252
0.0044203904 -0.026522344 0.06180504
0.0055594495 -0.026685357 0.062132984
0.0066707446 -0.026682978 0.062534899
0.0078385072 -0.026874883 0.063046813
0.0091874022 -0.027562208 0.063483715
0.010446018 -0.027856046 0.063483715
0.011260649 -0.027025558 0.063569933
0.012132666 -0.02647127 0.063483715
0.013006678 -0.026013356 0.063788444
0.013828231 -0.025529042 0.064789981
0.014945245 -0.02562042 0.063844889
0.015792133 -0.025267413 0.063270062
0.016772209 -0.025158314 0.063040435
0.01800905 -0.02542454 0.061093807
0.019271199 -0.025694933 0.057507426
0.021177802 -0.026750909 0.054311275
0.023361914 -0.028034298 0.051594377
0.024294335 -0.027764954 0.046570331
0.025727525 -0.028066391 0.041351646
0.028625168 -0.029869741 0.03490901
0.029393919 -0.029393919 0.02988106
0.028506991 -0.027366711 0.016611487
-0.023770824 -0.027336447 0.0067788959
-0.023491478 -0.028437052 0.016680062
-0.023436366 -0.029946469 0.020304739
-0.020360146 -0.02754608 0.025625944
-0.018936556 -0.0272213 0.036031067
-0.017746517 -0.027211327 0.042733431
-0.015720217 -0.02582607 0.046114355
-0.014136306 -0.025010388 0.05196026
-0.012929346 -0.024781248 0.057981789
-0.01174758 -0.024563121 0.059395611
-0.010591401 -0.024360223 0.059990972
-0.0097065885 -0.024805726 0.061185837
-0.0086246366 -0.024795832 0.06055364
-0.0077417661 -0.02543723 0.060033083
-0.0068224645 -0.026152782 0.059467614
-0.0057199993 -0.026311997 0.059157968
-0.0044737863 -0.025724271 0.058898121
-0.0033316547 -0.025542686 0.058884501
-0.0022119998 -0.025437998 0.05892089
-0.0011092391 -0.0255125 0.05943042
0 -0.025207123 0.059799433
0.0011058885 -0.025435435 0.060105979
0.0022144367 -0.025466023 0.06055367
0.0032916311 -0.025235837 0.060778737
0.0044055586 -0.025331963 0.061184049
0.0055491305 -0.025526 0.061723799
0.0066035404 -0.025313571 0.062261492
0.0077097872 -0.025332158 0.062781006
0.0088497549 -0.025443045 0.063216209
0.0099576395 -0.025447302 0.063298821
0.011176056 -0.025704928 0.063959807
0.012631813 -0.026411971 0.064126074
0.013713408 -0.026284033 0.064382225
0.014274036 -0.025254063 0.064535707
0.015109069 -0.024822041 0.064547747
0.015997799 -0.02452996 0.064522713
0.016936058 -0.024345582 0.064521402
0.017794047 -0.024074297 0.06431669
0.01893072 -0.024189254 0.063000619
0.020399824 -0.024694525 0.058957577
0.022148702 -0.025471007 0.057415813
0.02397117 -0.02625414 0.052302808
0.025616487 -0.026780874 0.044997752
0.028443176 -0.028443176 0.036573052
0.029345661 -0.028122924 0.030993223
0.029615227 -0.027246008 0.015280604
0.029822884 -0.026381781 0.006038487
-0.024101632 -0.027907152 0.016595453
-0.023087682 -0.028218279 0.020958602
-0.020030994 -0.025922462 0.026824832
-0.018580986 -0.025548855 0.040647566
-0.016875342 -0.024750501 0.045811415
-0.01523441 -0.023939786 0.05234006
-0.014039789 -0.023759644 0.05720982
-0.012844643 -0.023548512 0.059421927
-0.011759695 -0.023519389 0.060095936
-0.010798506 -0.023756713 0.060562044
-0.0097981552 -0.023951046 0.060346782
-0.0090617025 -0.024919683 0.060346782
-0.0079421503 -0.024961043 0.059788495
-0.0066868719 -0.024518529 0.059494317
-0.0055131977 -0.02425807 0.059058696
-0.0044058091 -0.02423195 0.058773726
-0.0032980333 -0.024185577 0.058917195
-0.0021962863 -0.02415915 0.059058696
-0.0010985191 -0.024167418 0.05944562
0 -0.024156772 0.059594959
0.0011050368 -0.024310809 0.059755087
0.0021870278 -0.024057304 0.059887171
0.0032958402 -0.024169495 0.060217291
0.0044411374 -0.024426255 0.060948133
0.0054641655 -0.024042329 0.06145528
0.0065911254 -0.024167459 0.06196028
0.0077268523 -0.024284393 0.062760323
0.0087591419 -0.024087641 0.063411266
0.0099488804 -0.024319485 0.06381613
0.011031734 -0.024269814 0.063939184
0.012106651 -0.024213303 0.064142108
0.013380202 -0.02453037 0.064377367
0.014890614 -0.025199501 0.064826399
0.015681854 -0.024642913 0.065063983
0.016409677 -0.024067525 0.064989537
0.017093923 -0.023504144 0.065320939
0.018104559 -0.023429429 0.065477401
0.019259453 -0.023539331 0.065063983
0.019922459 -0.02306811 0.062323719
0.021627951 -0.023790745 0.058543146
0.023403933 -0.024518408 0.056275904
0.024524493 -0.024524493 0.04733637
0.028428894 -0.027192853 0.038347065
0.029489858 -0.02703237 0.032119095
0.030209323 -0.026584204 0.015862256
0.029783292 -0.025201248 0.0083555877
-0.024190178 -0.026736513 0.017444342
-0.023179214 -0.027042417 0.022881418
-0.019434892 -0.024007808 0.028920501
-0.017922549 -0.023523346 0.044696271
-0.016560249 -0.02318435 0.051387012
-0.015107386 -0.022661079 0.057174176
-0.013879105 -0.022420093 0.059165061
-0.012834395 -0.022460191 0.060386509
-0.011939833 -0.022794226 0.060782492
-0.010925126 -0.022942765 0.060904354
-0.01029244 -0.024015693 0.060635656
-0.0089773526 -0.023565551 0.060224771
-0.0077634738 -0.023290422 0.059902281
-0.0066565028 -0.023297761 0.058800787
-0.0055165202 -0.023169385 0.058541059
-0.0043936074 -0.023066439 0.058272421
-0.0032992973 -0.023095081 0.058300704
-0.0022071181 -0.023174739 0.058410525
-0.0010968086 -0.023032982 0.058704376
0 -0.023290142 0.059061944
0.0010933978 -0.022961356 0.059051752
0.0022071181 -0.023174739 0.059431165
0.0033029516 -0.02312066 0.060265571
0.0043760668 -0.022974351 0.060690612
0.0055192611 -0.023180896 0.060969472
0.0066638109 -0.023323338 0.062067419
0.0076624444 -0.022987334 0.062730908
0.0087980786 -0.023094956 0.062875837
0.0098885456 -0.023073275 0.063339472
0.010936086 -0.022965781 0.063573062
0.012104585 -0.023108754 0.064006627
0.013271998 -0.023225997 0.064520597
0.014351555 -0.023183281 0.064960241
0.015834292 -0.023751438 0.065254003
0.017019469 -0.023827258 0.06576094
0.017574927 -0.023067091 0.066055834
0.018325923 -0.022637906 0.066492856
0.019114856 -0.022300666 0.065834761
0.020180251 -0.022304488 0.064484119
0.021183826 -0.022243017 0.061447889
0.022620816 -0.022620816 0.058392137
0.023915589 -0.022828517 0.050390184
0.027659217 -0.025254067 0.043524832
0.029525865 -0.025835132 0.033362329
0.030558424 -0.025669076 0.016378373
0.030032709 -0.024257189 0.0077193379
-0.02408091 -0.025348324 0.018183053
-0.023107409 -0.0256749 0.027351022
-0.019321855 -0.022731595 0.033275574
-0.017890193 -0.022362741 0.04791826
-0.016348284 -0.021797711 0.053585798
-0.014983703 -0.021405291 0.058104903
-0.013984242 -0.021514216 0.059622049
-0.013081195 -0.021801991 0.060372025
-0.011986597 -0.021793813 0.060569257
-0.011451025 -0.022902049 0.060569257
-0.0099969357 -0.022215411 0.059918433
-0.0088569224 -0.022142306 0.059618652
-0.007732268 -0.022092193 0.059408903
-0.006614774 -0.022049246 0.058805525
-0.0055347267 -0.022138907 0.058412403
-0.0044076885 -0.022038441 0.058313966
-0.0033093095 -0.022062063 0.058344632
-0.0022055099 -0.022055099 0.058367133
-0.0011075763 -0.022151526 0.05869028
0 -0.022035886 0.058768928
0.0011015474 -0.022030946 0.058930278
0.0022131831 -0.022131832 0.059561878
0.0033071174 -0.022047449 0.059865445
0.0044072014 -0.022036007 0.060497493
0.0055603026 -0.022241211 0.061163336
0.0065928525 -0.021976177 0.061991721
0.0076943333 -0.02198381 0.062643647
0.008836464 -0.022091161 0.063304424
0.0099317282 -0.022070508 0.063706607
0.011044342 -0.022088684 0.063674182
0.01207566 -0.021955745 0.063818485
0.013165198 -0.021941997 0.06403771
0.014276222 -0.021963419 0.064515471
0.015465125 -0.022093035 0.064948529
0.016798319 -0.022397758 0.065575331
0.018376026 -0.022970034 0.066237092
0.018667106 -0.021961302 0.066845983
0.019445444 -0.021606049 0.066615134
0.020232124 -0.021296972 0.064556658
0.021206805 -0.021206805 0.062336802
0.022293681 -0.021232078 0.06016776
0.024647128 -0.022406479 0.052809924
0.02648122 -0.023027148 0.046994328
0.029992077 -0.024993397 0.033805668
0.031246111 -0.02499689 0.016793638
0.030375108 -0.023365468 0.007822901
-0.024183003 -0.024183003 0.018580377
-0.022729995 -0.023992771 0.028340697
-0.019468321 -0.021758711 0.039299071
-0.017668873 -0.020981787 0.053173542
-0.016092457 -0.020383779 0.057087004
-0.015101918 -0.020495461 0.058777601
-0.014169965 -0.020709949 0.060087681
-0.013035703 -0.020639863 0.060480744
-0.012542808 -0.02166485 0.060358316
-0.011245637 -0.021366712 0.060323119
-0.0099534718 -0.021012885 0.059629798
-0.0088786818 -0.02108687 0.059460253
-0.0077248872 -0.020967552 0.059286684
-0.0066117365 -0.020937165 0.059126377
-0.0054889633 -0.020858061 0.05885148
-0.0044307499 -0.021046061 0.058660746
-0.0033024934 -0.020915791 0.058773935
-0.0022115607 -0.021009827 0.058849931
-0.0011078002 -0.021048203 0.059228182
0 -0.021005461 0.05942151
0.0011110274 -0.021109521 0.059432119
0.002216432 -0.021056104 0.059674472
0.0033030412 -0.020919262 0.060031384
0.0044412231 -0.021095809 0.060786247
0.0054850057 -0.020843022 0.061344415
0.0066592265 -0.021087551 0.062328339
0.007738099 -0.021003412 0.063215554
0.0088246204 -0.020958474 0.063558072
0.0099501843 -0.021005945 0.063599795
0.011004581 -0.020908704 0.063657761
0.012106257 -0.020910807 0.063745141
0.013265041 -0.02100298 0.064240336
0.014232469 -0.0208013 0.0644705
0.015482746 -0.021012299 0.064740151
0.016641924 -0.021079769 0.065070152
0.017787639 -0.021122821 0.066035569
0.019352488 -0.021629252 0.06676966
0.019656479 -0.020748505 0.066447645
0.020281548 -0.020281548 0.065000892
0.021150583 -0.020093054 0.063791752
0.022516865 -0.020372402 0.061388612
0.023704991 -0.020472491 0.05719161
0.026075166 -0.021540353 0.048160672
0.029534575 -0.023381539 0.034359038
0.030918514 -0.023498071 0.017232686
0.030687215 -0.022425272 0.006719768
-0.024075776 -0.02280863 0.017404705
-0.022003291 -0.022003291 0.030519277
-0.019094478 -0.020217683 0.048520803
-0.017304419 -0.019467471 0.054326236
-0.016242709 -0.019491252 0.057919502
-0.015231083 -0.019582821 0.059357792
-0.014139591 -0.019577894 0.060421735
-0.013605763 -0.020408645 0.060878277
-0.012403219 -0.020296175 0.060421348
-0.010999456 -0.01979902 0.059872031
-0.0099658342 -0.019931668 0.05937621
-0.008886259 -0.019994082 0.059340537
-0.00772087 -0.019853665 0.059241176
-0.0066546821 -0.019964047 0.059128672
-0.00556524 -0.020034863 0.0591214
-0.0044301562 -0.019935703 0.058809042
-0.0033184891 -0.019910933 0.059163511
-0.0022199098 -0.01997919 0.059071511
-0.00110546 -0.019898281 0.059178382
0 -0.020204099 0.059713721
0.0010999804 -0.019799648 0.060165584
0.0022150392 -0.019935353 0.060478747
0.0033535569 -0.020121342 0.060863227
0.0044016647 -0.01980749 0.061516732
0.0055369316 -0.019932954 0.062345058
0.0066901129 -0.020070339 0.063029051
0.0077276882 -0.019871198 0.06351769
0.0088409698 -0.019892182 0.063843071
0.010023903 -0.020047806 0.064261734
0.010999456 -0.01979902 0.064386874
0.012088569 -0.019781295 0.064485282
0.01322383 -0.019835744 0.064483434
0.014259833 -0.019744383 0.064499468
0.015422749 -0.019829249 0.064533263
0.016495503 -0.019794604 0.065055996
0.017741458 -0.019959142 0.065543294
0.019138945 -0.020264765 0.065885842
0.020215483 -0.020215483 0.066145122
0.020676326 -0.0195881 0.065277249
0.02173881 -0.019564928 0.064259112
0.022158906 -0.018993348 0.063174337
0.023426315 -0.019166986 0.059281766
0.025783688 -0.02017854 0.052328855
0.029311845 -0.021983882 0.035410404
0.031236446 -0.022490241 0.018398613
0.031213883 -0.021609612 0.0076747835
-0.023746608 -0.021246966 0.015138745
-0.021291977 -0.020109089 0.032026976
-0.018764047 -0.018764047 0.05309844
-0.01732049 -0.01840302 0.055965245
-0.016307048 -0.018481322 0.05908674
-0.015183808 -0.018437481 0.059826583
-0.014471395 -0.018924132 0.060133249
-0.013645478 -0.019331094 0.06074509
-0.012216734 -0.018880406 0.060043961
-0.011122062 -0.018907506 0.05976668
-0.01001976 -0.018926213 0.059656084
-0.0088538518 -0.018814435 0.059600979
-0.0077658021 -0.018859806 0.059387207
-0.0066877147 -0.018948525 0.059348792
-0.005540112 -0.018836381 0.059348792
-0.004442927 -0.01888244 0.058842599
-0.0033479731 -0.018971847 0.059169471
-0.0022159461 -0.018835543 0.059384614
-0.0011109663 -0.018886428 0.059329718
0 -0.018835777 0.059605896
0.0011079834 -0.01883572 0.059640825
0.0022434613 -0.019069422 0.059914738
0.0033160148 -0.01879075 0.060733587
0.0044536409 -0.018927973 0.061651349
0.0056049391 -0.019056793 0.062207431
0.0066274549 -0.018777788 0.06286186
0.0078041479 -0.01895293 0.063687801
0.0089040026 -0.018921005 0.063837528
0.0099260965 -0.018749293 0.064041197
0.011091634 -0.018855779 0.064541399
0.012163185 -0.018797649 0.064687461
0.013184738 -0.01867838 0.064586163
0.014291056 -0.018688304 0.064779133
0.015339674 -0.018626748 0.06455493
0.016496845 -0.018696425 0.064972967
0.017755521 -0.018865241 0.065454572
0.018816778 -0.018816778 0.066231281
0.020655986 -0.019508433 0.066285729
0.021067403 -0.018849783 0.065354615
0.021541212 -0.018310031 0.064781487
0.022496665 -0.018211586 0.064234763
0.023730604 -0.018337285 0.061134309
0.024934405 -0.018429779 0.057724565
0.028320422 -0.020060299 0.040813446
0.030692866 -0.020871148 0.017048985
-0.023015389 -0.01938138 0.015562177
-0.020866394 -0.018547906 0.041103303
-0.018570052 -0.017477697 0.055117667
-0.017553445 -0.017553445 0.057263494
-0.016261784 -0.017345903 0.058890402
-0.015265048 -0.017445769 0.059792548
-0.014839394 -0.018263869 0.060166687
-0.013314222 -0.017752295 0.060499638
-0.012233017 -0.017793478 0.06031397
-0.011099747 -0.017759595 0.059855819
-0.0098616639 -0.017531846 0.059508234
-0.0089017265 -0.017803453 0.059354484
-0.0077646663 -0.017747808 0.059200257
-0.0066907522 -0.017842006 0.058918178
-0.0055593853 -0.017790034 0.058894515
-0.0044366773 -0.017746709 0.058809042
-0.0033273981 -0.017746124 0.058918178
-0.0022518977 -0.018015182 0.058926255
-0.0011152469 -0.017843951 0.058535367
0 -0.017770968 0.058979779
0.0011188989 -0.017902382 0.059342593
0.0022075877 -0.017660702 0.059611052
0.0033452925 -0.017841559 0.060791969
0.0044661355 -0.017864542 0.061268955
0.0055268249 -0.01768584 0.061836898
0.0066713989 -0.017790398 0.06249699
0.0078264363 -0.017888997 0.063755095
0.008851096 -0.017702192 0.06394127
0.0099700997 -0.017724622 0.064260185
0.011035858 -0.017657371 0.064457685
0.012116564 -0.017624091 0.064914793
0.013310572 -0.01774743 0.065256417
0.014373587 -0.017690569 0.065171421
0.01544644 -0.017653074 0.06458655
0.01653914 -0.017641749 0.065750897
0.017472679 -0.017472679 0.066671729
0.018852279 -0.017743321 0.066798896
0.020114481 -0.01787954 0.067359447
0.021335786 -0.017966978 0.066412389
0.021852961 -0.017482368 0.065427274
0.022734629 -0.017321622 0.064329416
0.023487812 -0.017082045 0.061905444
0.024709942 -0.017189525 0.058645368
0.027496798 -0.018331198 0.046771258
0.029945746 -0.019165277 0.017640382
-0.022425154 -0.017704068 0.015781552
-0.020289795 -0.016908161 0.04719913
-0.018659219 -0.016464017 0.055902094
-0.017493369 -0.016400034 0.058091104
-0.016332284 -0.016332284 0.059448481
-0.015610975 -0.016726045 0.059963971
-0.014598334 -0.016844232 0.060556084
-0.013469134 -0.016836418 0.060616672
-0.01224989 -0.016704395 0.060179204
-0.01105851 -0.016587766 0.059370428
-0.0099477712 -0.016579619 0.058913529
-0.0089081563 -0.016702794 0.058863819
-0.0078090574 -0.016733695 0.058757842
-0.00670178 -0.01675445 0.058635801
-0.0055746636 -0.01672399 0.058419883
-0.0044248039 -0.016593015 0.058378577
-0.0033475207 -0.016737603 0.058085263
-0.0022387744 -0.016790809 0.057947874
-0.0011150768 -0.016726153 0.058135778
0 -0.016854005 0.058807373
0.0011080784 -0.016621176 0.059373677
0.002231715 -0.016737863 0.059792846
0.0033630389 -0.016815193 0.060893267
0.0044610729 -0.016729023 0.061585486
0.0055679698 -0.016703909 0.062042117
0.0067642126 -0.016910531 0.0624035
0.0077494266 -0.016605914 0.063467413
0.0088648358 -0.016621567 0.063691348
0.010046883 -0.016744804 0.064157426
0.011042692 -0.016564038 0.064747065
0.012174274 -0.016601281 0.065204352
0.013301244 -0.016626555 0.065495849
0.014422003 -0.016640773 0.065575451
0.015610122 -0.01672513 0.065573901
0.016595002 -0.016595002 0.065691233
0.017660715 -0.016556919 0.06601581
0.018914528 -0.016689289 0.066986144
0.020029347 -0.016691122 0.067081004
0.021801464 -0.017211681 0.06623131
0.022126799 -0.016595099 0.065712422
0.022908568 -0.016363263 0.064726263
0.023748936 -0.016192457 0.06249398
0.02492418 -0.0162549 0.059286177
0.027024616 -0.016890384 0.050503492
0.03011734 -0.018070403 0.017181993
-0.022689516 -0.016718591 0.011538953
-0.020119177 -0.015648248 0.04909873
-0.018657297 -0.015364833 0.056219101
-0.017393317 -0.015219152 0.058048606
-0.016454648 -0.015357672 0.059752882
-0.015541243 -0.015541243 0.060080379
-0.014426041 -0.015535736 0.060459882
-0.013481595 -0.015728528 0.060556084
-0.012166321 -0.015484409 0.060008675
-0.01100931 -0.015413035 0.059287518
-0.010000395 -0.01555617 0.058470517
-0.0088546695 -0.015495671 0.058307588
-0.0078031332 -0.015606266 0.058048844
-0.0067222542 -0.01568526 0.058181882
-0.0055527878 -0.015547806 0.057971686
-0.0044338368 -0.015518429 0.057473749
-0.0033727267 -0.015739392 0.057422072
-0.0022266149 -0.015586304 0.057589442
-0.001117638 -0.015646931 0.058236033
0 -0.015577979 0.058643997
0.0011119182 -0.015566856 0.059350938
0.002253144 -0.015772007 0.05996573
0.0033435209 -0.015603098 0.06084168
0.0044742376 -0.015659831 0.061470568
0.0056063291 -0.015697721 0.062086016
0.0066660382 -0.015554089 0.062551975
0.0077878023 -0.015575605 0.063466102
0.0088999309 -0.015574878 0.063643098
0.0099899918 -0.015539987 0.063971072
0.011079871 -0.015511819 0.064449906
0.012224531 -0.015558493 0.064859778
0.01336263 -0.015589735 0.064956367
0.01438335 -0.015489761 0.06514141
0.015561676 -0.015561676 0.065185338
0.016528526 -0.015426625 0.065302074
0.017694879 -0.015483019 0.066058606
0.018749276 -0.01544058 0.066264331
0.020023985 -0.015574211 0.067326546
0.021616707 -0.015928099 0.066131741
0.022080757 -0.015456529 0.065826744
0.023023615 -0.015349076 0.06494391
0.023932302 -0.015229647 0.062870294
0.024621239 -0.014986841 0.05985269
0.0268804 -0.015680233 0.051747561
0.030229481 -0.016928509 0.017740607
-0.023238841 -0.01590026 0.011547893
-0.020220887 -0.014603974 0.049879581
-0.018617027 -0.01423655 0.056792736
-0.017515922 -0.014231686 0.058934331
-0.016421847 -0.014232267 0.06035164
-0.015751485 -0.014626379 0.060721248
-0.014575436 -0.014575436 0.060963422
-0.013290376 -0.014397908 0.060902625
-0.012167661 -0.014379963 0.060164124
