ply
format ascii 1.0
comment PCL generated
element vertex 1273
property float x
property float y
property float z
element camera 0
property float view_px
property float view_py
property float view_pz
property float x_axisx
property float x_axisy
property float x_axisz
property float y_axisx
property float y_axisy
property float y_axisz
property float z_axisx
property float z_axisy
property float z_axisz
property float focal
property float scalex
property float scaley
property float centerx
property float centery
property int viewportx
property int viewporty
property float k1
property float k2
end_header
0.010509099 -0.049042463 0.037315845
0.011506017 -0.04832527 0.037449867
0.012674563 -0.048393782 0.037273139
0.013827265 -0.048395425 0.037198514
0.014658296 -0.04735757 0.037015557
0.015845099 -0.047535297 0.035373569
0.016988153 -0.047566827 0.030783445
0.018096521 -0.047503371 0.029124141
0.019235931 -0.047524065 0.02559489
0.020091124 -0.046879288 0.018394947
0.022069292 -0.048784751 0.013142794
0.024438677 -0.051321223 0.010132432
0.025736611 -0.051473223 0.0055904984
-0.01395246 -0.047670905 0.0080606937
-0.012519801 -0.046664711 0.017062366
-0.011356172 -0.046560306 0.025636286
-0.010357224 -0.04718291 0.028224617
-0.0091439961 -0.046862982 0.029569775
-0.0079591218 -0.046617717 0.0308792
-0.0070316256 -0.048049442 0.033003241
-0.0059620151 -0.048888523 0.034342378
-0.0048580342 -0.049794849 0.034784526
-0.0036695804 -0.050150935 0.034895152
-0.0023771578 -0.048731737 0.034880787
-0.0011512733 -0.047202203 0.034970909
0 -0.045794856 0.034582555
0.0011162735 -0.045767214 0.035318226
0.0017624113 -0.036129434 0.035529226
0.0030088695 -0.041121215 0.036833465
0.0041607544 -0.042647731 0.037066609
0.0056443578 -0.046283737 0.037512988
0.0066775205 -0.045629721 0.0374856
0.0078434693 -0.045940321 0.037793428
0.0091888653 -0.047092933 0.037862688
0.010458173 -0.04764279 0.038311392
0.011986461 -0.049144488 0.038522542
0.013549652 -0.05050325 0.038373649
0.014204053 -0.048530515 0.03848061
0.01510527 -0.047639698 0.03829816
0.016183089 -0.047393333 0.038162082
0.016978256 -0.046407234 0.036392272
0.018186375 -0.046602588 0.034468889
0.019216435 -0.046345517 0.031884164
0.02031718 -0.046278022 0.029194981
0.021468896 -0.046327617 0.020112664
0.022988284 -0.04712598 0.013578713
0.025335334 -0.049464222 0.0090257823
-0.015017375 -0.046207309 0.0056580007
-0.013806959 -0.046023197 0.017505825
-0.01264656 -0.045987491 0.025442034
-0.011418384 -0.045673534 0.028546304
-0.010357805 -0.046034686 0.030095518
-0.0094298217 -0.047149107 0.030961961
-0.0084631545 -0.048360884 0.032511324
-0.007371854 -0.049145695 0.033834964
-0.0058056437 -0.04644515 0.034672529
-0.0044449 -0.044448998 0.035279989
-0.0032627739 -0.043503653 0.035573602
-0.0021578998 -0.043157995 0.035228908
-0.0010736552 -0.042946208 0.034906358
0 -0.042970728 0.034239233
0.001093716 -0.043748643 0.034778535
0.0022443621 -0.044887245 0.034938544
0.0038552573 -0.051403429 0.035066366
0.0047402508 -0.047402505 0.035406947
0.0055166418 -0.044133134 0.035528898
0.0064982935 -0.043321956 0.036076754
0.0075605493 -0.043203138 0.037497491
0.0086904569 -0.043452285 0.038155556
0.0096972408 -0.043098845 0.038659155
0.010814304 -0.043257214 0.038827926
0.011932502 -0.043390915 0.039579123
0.013519527 -0.04506509 0.039722472
0.015446783 -0.047528561 0.039175779
0.016963759 -0.048467882 0.039579123
0.017694879 -0.047186345 0.03902337
0.018546144 -0.046365362 0.037819058
0.019185424 -0.045142174 0.03535834
0.020591356 -0.045758568 0.03324458
0.02165065 -0.045580316 0.030264139
0.022658279 -0.045316558 0.025022656
0.024170492 -0.046039034 0.012329817
-0.014942856 -0.044828568 0.016268015
-0.013839828 -0.044979442 0.025479078
-0.012722285 -0.045106281 0.027890414
-0.011653639 -0.045449194 0.030177683
-0.010971701 -0.047544036 0.030944705
-0.009703882 -0.047306426 0.031510115
-0.0078511508 -0.043742128 0.032414675
-0.0065392437 -0.042505085 0.03361243
-0.0054593123 -0.042582635 0.03435573
-0.004355622 -0.042467315 0.034500688
-0.0032759341 -0.042587142 0.034570545
-0.0021898437 -0.042701952 0.034606218
-0.0010921883 -0.042595342 0.034074634
0 -0.042200722 0.033984393
0.0010966394 -0.042768937 0.034018159
0.0021624051 -0.0421669 0.034164518
0.0032415451 -0.042140085 0.034292579
0.004364402 -0.042552918 0.034569591
0.0054068775 -0.042173643 0.034569591
0.0065604607 -0.042642996 0.034714699
0.007588692 -0.042279854 0.0355196
0.0087338351 -0.042577449 0.036120445
0.0097937714 -0.042439677 0.037175477
0.01088498 -0.042451419 0.038821936
0.011825859 -0.041928042 0.039905459
0.012973879 -0.042165104 0.04018569
0.01411415 -0.04234245 0.040365338
0.015370905 -0.042818952 0.040290117
0.017321916 -0.045036983 0.040025502
0.019331798 -0.047121257 0.03973344
0.02020237 -0.046346616 0.037320703
0.020528795 -0.044479057 0.036172479
0.021537172 -0.044207878 0.033409387
0.022829946 -0.044518396 0.030593246
0.023866082 -0.044322725 0.025366664
0.024921525 -0.044179067 0.01062125
-0.016181231 -0.043920483 0.011936814
-0.014978367 -0.04378292 0.022941917
-0.013908447 -0.044043414 0.027229428
-0.01357098 -0.046881568 0.029934496
-0.011886991 -0.045170564 0.031196684
-0.010098171 -0.042636722 0.031783193
-0.008705467 -0.041350968 0.031474978
-0.0076325773 -0.04143399 0.031357467
-0.0065534492 -0.041505177 0.032595128
-0.0054693213 -0.041566841 0.034030586
-0.0043780184 -0.041591179 0.034017414
-0.0033066338 -0.041884031 0.034232855
-0.002265187 -0.043038554 0.034194708
-0.0011383358 -0.04325676 0.033656746
0 -0.04241813 0.033866763
0.0011143727 -0.042346165 0.033572674
0.002227871 -0.04232955 0.034320354
0.003347242 -0.042398401 0.03445062
0.0044928896 -0.04268245 0.034961522
0.0057028369 -0.043341558 0.035512477
0.0068797492 -0.043571748 0.035470545
0.007919359 -0.042990804 0.035301626
0.0089424895 -0.042476825 0.035609335
0.0098282425 -0.041497026 0.036358416
0.01088183 -0.041350953 0.036927968
0.011947102 -0.041271806 0.037106931
0.013128076 -0.041572239 0.03814736
0.014136993 -0.041323517 0.038490355
0.015242793 -0.041373294 0.040316314
0.016304495 -0.041304722 0.040468872
0.017265003 -0.041004382 0.039331704
0.019539373 -0.043676246 0.038274169
0.02176648 -0.04595146 0.037732124
0.022061193 -0.044122387 0.036174208
0.022879669 -0.04347137 0.033151597
0.023975829 -0.043384831 0.030380249
0.025140958 -0.043425288 0.019260705
0.02661607 -0.043974377 0.0065471828
-0.017433902 -0.043003622 0.007478863
-0.016184391 -0.042773034 0.022068113
-0.015301369 -0.043550052 0.026733905
-0.015452125 -0.047644053 0.029131055
-0.012612681 -0.042424474 0.030562669
-0.010884708 -0.040273421 0.03137356
-0.0098286392 -0.040406626 0.031562597
-0.0087906774 -0.040656887 0.0314354
-0.0077024456 -0.040712927 0.030910999
-0.0066096801 -0.040759694 0.031699955
-0.0054701502 -0.040479112 0.032330811
-0.0045235492 -0.041842829 0.032998711
-0.00344505 -0.042488948 0.034290284
-0.002312589 -0.042782895 0.034727871
-0.0011442936 -0.042338859 0.034290284
0 -0.041732118 0.034849763
0.0011522201 -0.042632144 0.035053074
0.0023027114 -0.042600159 0.035730332
0.0034529155 -0.042585958 0.036424041
0.0045789103 -0.042354923 0.036579102
0.0056862859 -0.042078517 0.036473691
0.0068807397 -0.042431228 0.036453098
0.0079994649 -0.042282887 0.036467671
0.0091686407 -0.042404961 0.03657189
0.010365195 -0.042612467 0.037459344
0.011269943 -0.041698787 0.037460119
0.012268065 -0.041265313 0.03682965
0.013327531 -0.041093219 0.037456095
0.014488528 -0.041236579 0.037905931
0.015553089 -0.041104592 0.038376987
0.016398378 -0.040449332 0.0385378
0.017529879 -0.040537842 0.038849026
0.018566618 -0.040409699 0.038849026
0.01991648 -0.040939432 0.038336247
0.022902133 -0.044598889 0.0367468
0.024030281 -0.04445602 0.033856332
0.024073914 -0.042415943 0.031745583
0.025405768 -0.042727884 0.029886335
0.026194228 -0.042138539 0.014580131
-0.017390566 -0.041737359 0.015096903
-0.017037131 -0.043809768 0.023476601
-0.016624048 -0.04603583 0.027882427
-0.013368927 -0.040106781 0.029957741
-0.012143765 -0.03974323 0.03131181
-0.010954565 -0.039436437 0.031633079
-0.0099041332 -0.039616533 0.031635225
-0.0089348396 -0.040206775 0.031514406
-0.0078332862 -0.040285472 0.031072795
-0.0068099909 -0.040859945 0.031881452
-0.0057632858 -0.041495658 0.032720178
-0.0046441695 -0.041797526 0.03380245
-0.0034733261 -0.041679911 0.035966247
-0.0023293665 -0.041928597 0.036532193
-0.0011437197 -0.041173909 0.036751688
0 -0.041393541 0.036819071
0.0011414026 -0.041090496 0.037389725
0.0022844912 -0.041120842 0.037975848
0.0034735091 -0.041682109 0.03816548
0.0046166112 -0.041549504 0.03843835
0.0057084151 -0.041100588 0.038067818
0.0069442368 -0.041665424 0.037932843
0.008035562 -0.041325748 0.038146287
0.009108942 -0.040990237 0.038329959
0.010274996 -0.041099984 0.038508922
0.011492176 -0.041371834 0.038329959
0.012553407 -0.041083876 0.037677616
0.013744837 -0.041234508 0.03754279
0.014719541 -0.040761806 0.037558466
0.015937494 -0.040982127 0.03904736
0.016771823 -0.040252376 0.038717389
0.017457362 -0.039279066 0.038795829
0.01866149 -0.039518449 0.039426237
0.019636463 -0.039272927 0.0390369
0.020655558 -0.039136846 0.037347138
0.023049323 -0.041488782 0.034694731
0.026397998 -0.045253713 0.033360302
0.025095819 -0.041065887 0.032214522
0.026473669 -0.041437048 0.028242677
0.027384019 -0.041076031 0.0088600516
-0.018354621 -0.040150732 0.010613739
-0.018217176 -0.042506743 0.018979043
-0.01732243 -0.043306075 0.024244368
-0.014315105 -0.038540665 0.02850309
-0.013348805 -0.038934015 0.03051728
-0.012111244 -0.038535774 0.031750262
-0.011126143 -0.038941499 0.031888425
-0.010524319 -0.040927909 0.03162089
-0.0091798864 -0.040162001 0.031826347
-0.0080575263 -0.040287632 0.031583041
-0.0069667208 -0.040639207 0.032346219
-0.005831101 -0.040817708 0.033337474
-0.0046464778 -0.040656678 0.034727931
-0.003487861 -0.040691711 0.03667599
-0.0023205213 -0.040609125 0.03729105
-0.0011346638 -0.039713234 0.037393659
0 -0.040547747 0.037745804
0.0011372246 -0.03980286 0.0384368
0.0023055228 -0.040346649 0.038783848
0.0034075647 -0.039754923 0.039214253
0.0045774621 -0.040052794 0.039319098
0.0057768412 -0.040437888 0.038855016
0.00686613 -0.040052425 0.03862378
0.0079222526 -0.039611265 0.038845509
0.0092223128 -0.040347621 0.039587587
0.010313657 -0.04010867 0.039763153
0.011463205 -0.04012122 0.03983286
0.012705241 -0.04042577 0.0394063
0.013793448 -0.040230889 0.039409906
0.014906087 -0.040131774 0.038657814
0.016074389 -0.040185973 0.039022475
0.017502489 -0.040839143 0.039554805
0.018011509 -0.039400175 0.039491028
0.018656824 -0.038411107 0.039498329
0.01957342 -0.038059428 0.039072454
0.020733662 -0.038193591 0.037611693
0.021564061 -0.037737109 0.035597622
0.023543362 -0.039238933 0.034170717
0.027605027 -0.043917086 0.032890886
0.026478529 -0.040293414 0.029801548
0.027751343 -0.040470708 0.015806168
-0.019222466 -0.040847741 0.014373302
-0.018381964 -0.041665789 0.019901991
-0.015447707 -0.03751586 0.024463832
-0.01437561 -0.037597749 0.029153496
-0.013390762 -0.037940491 0.03108561
-0.012167811 -0.0376096 0.03263393
-0.011738914 -0.039912306 0.032739222
-0.010491042 -0.039632827 0.032686204
-0.0092102932 -0.039143745 0.033035874
-0.0081460066 -0.039566319 0.032762587
-0.0069225887 -0.039228 0.033597231
-0.0058366922 -0.039689507 0.034169495
-0.0046863114 -0.039833646 0.036197871
-0.003494143 -0.039600287 0.03734833
-0.002321417 -0.03946409 0.03789708
-0.0011398682 -0.038755517 0.037967801
0 -0.038749423 0.038424164
0.0011413924 -0.03880734 0.039093852
0.0023086139 -0.039246432 0.039950252
0.0034239087 -0.0388043 0.040035993
0.0045646238 -0.038799305 0.040304452
0.0057272618 -0.038945381 0.039739639
0.0067192195 -0.038075577 0.039430976
0.0080657844 -0.039176665 0.039766341
0.0091551887 -0.038909551 0.041073978
0.010294102 -0.038888831 0.041097492
0.011456717 -0.038952835 0.040729493
0.012720894 -0.039319128 0.040545285
0.013746903 -0.038949557 0.040303409
0.014963404 -0.039135057 0.039627194
0.015949294 -0.038734 0.039678723
0.017310888 -0.03923801 0.039292485
0.018886188 -0.040133148 0.039292485
0.019207088 -0.038414177 0.03949669
0.019895067 -0.037579574 0.039506882
0.02086949 -0.037345402 0.037905484
0.021748437 -0.036972344 0.035387248
0.023042627 -0.03730711 0.033871442
0.024979075 -0.038604025 0.033230305
0.028639173 -0.04233617 0.030909449
0.027941734 -0.039584123 0.024279714
-0.020208664 -0.039228585 0.0082802176
-0.020064786 -0.04138362 0.017442435
-0.016391763 -0.036061879 0.020408571
-0.015639007 -0.036863372 0.024897426
-0.014371859 -0.036482412 0.029825091
-0.013203746 -0.0363103 0.031629682
-0.012803504 -0.038410511 0.033064812
-0.012149832 -0.040094446 0.033204764
-0.010474159 -0.038405251 0.033295095
-0.0092464909 -0.038141776 0.033687085
-0.0081516504 -0.038429208 0.033687085
-0.0069724163 -0.038348291 0.034553081
-0.0058672405 -0.038723785 0.035232067
-0.0047178222 -0.03892203 0.037595898
-0.0035340548 -0.038874604 0.03830412
-0.0023275414 -0.038404431 0.038977116
-0.0011374442 -0.037535656 0.038995326
0 -0.037366778 0.039332718
0.0011454917 -0.037801225 0.039867252
0.0022852311 -0.037706316 0.040785939
0.0034506554 -0.037957206 0.040809393
0.0046132091 -0.038058978 0.041307539
0.0056365011 -0.037200909 0.040822625
0.0068696388 -0.037783012 0.040444046
0.0080304677 -0.03785792 0.040392369
0.0091811484 -0.037872236 0.041454196
0.010365546 -0.038007002 0.041589558
0.011511105 -0.037986647 0.041407675
0.012595017 -0.037785053 0.041232944
0.013826053 -0.038021646 0.040952951
0.014907348 -0.03784173 0.040025383
0.015968267 -0.037639484 0.039689183
0.017563323 -0.038639307 0.039101183
0.01867879 -0.038525004 0.038940579
0.019954968 -0.038736116 0.038974732
0.020841453 -0.03820933 0.038575202
0.021657756 -0.0376161 0.03721258
0.022497723 -0.037121244 0.03533718
0.023101784 -0.036302805 0.034568936
0.024104884 -0.036157325 0.03381744
0.026321156 -0.037765138 0.031808078
0.02917478 -0.040115323 0.026040196
0.02895128 -0.038215689 0.013643652
-0.021877892 -0.041181915 0.011365682
-0.0178563 -0.0357126 0.020127952
-0.016811347 -0.035864208 0.021379322
-0.015692865 -0.035869405 0.025816798
-0.014744268 -0.036293581 0.030221999
-0.014121556 -0.037657481 0.031230211
-0.013240639 -0.038518224 0.033612013
-0.011928034 -0.038169712 0.033667922
-0.010476962 -0.037251417 0.033961028
-0.0092455707 -0.036982283 0.034093678
-0.0080821458 -0.036946952 0.034499258
-0.0069289329 -0.03695431 0.035272121
-0.0057724798 -0.036943872 0.035955459
-0.0046134805 -0.036907844 0.038358778
-0.0035040788 -0.03737684 0.039043367
-0.002311582 -0.036985312 0.039839149
-0.0011315384 -0.036209229 0.039885253
0 -0.036523428 0.040156901
0.0011375129 -0.036400411 0.041105926
0.0022830514 -0.036528822 0.041716427
0.003425438 -0.036538005 0.04172948
0.0045181382 -0.036145106 0.041813761
0.0057124356 -0.036559589 0.041549206
0.0068254289 -0.036402285 0.041461676
0.0079464624 -0.036326684 0.041572183
0.009225579 -0.036902316 0.042906135
0.010334891 -0.036746282 0.04273665
0.011400865 -0.03648277 0.042453855
0.012637999 -0.036765087 0.041963041
0.013783727 -0.036756605 0.041530102
0.014748228 -0.03630333 0.04064858
0.015954725 -0.036467943 0.040296674
0.017606361 -0.037560239 0.039555848
0.018879667 -0.037759334 0.039046288
0.019853598 -0.037371479 0.039085805
0.020736337 -0.036864597 0.039029449
0.021852275 -0.036803834 0.037669152
0.023308909 -0.037294254 0.036093414
0.023177415 -0.035317965 0.035289913
0.02411581 -0.035077542 0.034999222
0.02521825 -0.035086263 0.032755911
0.028270829 -0.037694439 0.026425511
0.02948232 -0.03773737 0.015941262
-0.01959577 -0.035733461 0.016922116
-0.017947938 -0.034774132 0.0203076
-0.016988639 -0.035109855 0.021186143
-0.016353047 -0.036210317 0.026230961
-0.015263871 -0.036398463 0.029798567
-0.014203431 -0.036692198 0.031291813
-0.013228542 -0.037280437 0.032300353
-0.012171166 -0.037730616 0.032999992
-0.010571296 -0.036412243 0.033851951
-0.0092489813 -0.0358398 0.03439784
-0.008173448 -0.036196698 0.034929186
-0.0069150329 -0.035727672 0.035505205
-0.0057938127 -0.035921641 0.036681533
-0.004662002 -0.036130514 0.039192677
-0.0034949319 -0.036114294 0.040173769
-0.0022824425 -0.035377856 0.040899664
-0.001124407 -0.034856617 0.041236222
0 -0.035336725 0.04201147
0.0011336729 -0.03514386 0.043043256
0.0022780534 -0.035309829 0.04426983
0.0033884982 -0.035014484 0.044257671
0.0045720292 -0.035433225 0.044027209
0.005677388 -0.035199806 0.044083655
0.0067299781 -0.034771554 0.043105572
0.0079315342 -0.035125367 0.044133306
0.009180231 -0.035573397 0.044175833
0.010297045 -0.035467599 0.043406129
0.011467906 -0.035550509 0.043261737
0.012538794 -0.035336602 0.042775065
0.013648455 -0.035258509 0.042360961
0.014782296 -0.035250094 0.041574895
0.016099729 -0.0356494 0.040694594
0.017446434 -0.036055963 0.040170908
0.018772436 -0.036371592 0.039912522
0.019666176 -0.03586185 0.039511353
0.020948991 -0.036078818 0.039162159
0.022313895 -0.036406882 0.037783414
0.022924105 -0.035532363 0.036844879
0.024829164 -0.036652576 0.036225766
0.02419354 -0.034090899 0.035490483
0.025260307 -0.034046501 0.033818454
0.026664335 -0.034441434 0.028679758
0.031560019 -0.039134424 0.015544116
-0.02196165 -0.03660275 0.0076261759
-0.019164948 -0.033820495 0.01796782
-0.018150549 -0.034032278 0.020855188
-0.01749474 -0.03498948 0.02180621
-0.016691517 -0.03576754 0.026244521
-0.015428499 -0.035604227 0.027713597
-0.014129474 -0.035323683 0.030978173
-0.013306179 -0.03628958 0.031604409
-0.011899272 -0.035697814 0.032307714
-0.010479074 -0.034930248 0.03402555
-0.0091475081 -0.034303155 0.034765959
-0.0080983033 -0.034707014 0.035298556
-0.0068879267 -0.034439635 0.036160707
-0.0058001736 -0.034801044 0.039752722
-0.0046300292 -0.034725219 0.041094452
-0.0034565057 -0.034565058 0.042138308
-0.0022418324 -0.033627488 0.043500841
-0.0011033713 -0.033101138 0.045156151
0 -0.03375043 0.046150744
0.0011288511 -0.03386553 0.048704356
0.0022374436 -0.033561654 0.049912512
0.0034040236 -0.034040235 0.049700409
0.0044674049 -0.033505537 0.050064087
0.0054768245 -0.032860946 0.050187051
0.0063964278 -0.031982139 0.049469799
0.0076008523 -0.032575082 0.047958255
0.0090616988 -0.033981368 0.047310621
0.010303564 -0.034345213 0.047124594
0.011384959 -0.034154877 0.045465559
0.0125099 -0.034117907 0.044592053
0.013714912 -0.034287281 0.043942779
0.014772709 -0.034090865 0.042892039
0.015941845 -0.034161098 0.042337775
0.01765007 -0.035300139 0.04136315
0.018411722 -0.034521978 0.040526271
0.019844122 -0.03501904 0.039972514
0.021223968 -0.035373278 0.039788097
0.022142513 -0.034961864 0.038280904
0.023367176 -0.035050765 0.03651762
0.025301956 -0.03614565 0.036309123
0.024455896 -0.033348948 0.035751075
0.025555547 -0.033333324 0.034330398
0.026408661 -0.033010826 0.029065311
0.028455419 -0.034146503 0.017201841
0.031415615 -0.036248788 0.012217492
-0.020560574 -0.033125371 0.0078997612
-0.019192681 -0.032740455 0.018890053
-0.01808992 -0.032787979 0.021341234
-0.018487643 -0.035742775 0.022175431
-0.016539479 -0.034260347 0.026922822
-0.015414817 -0.034386899 0.028060585
-0.014305474 -0.034571562 0.031151533
-0.013303967 -0.035074092 0.031740904
-0.01200208 -0.034806032 0.033589929
-0.010359378 -0.033380214 0.03525728
-0.009222962 -0.033433236 0.035516798
-0.0079066539 -0.032756139 0.036559671
-0.0068611465 -0.03316221 0.040180326
-0.0057705389 -0.033469126 0.043752402
-0.0046102218 -0.033424105 0.045592427
-0.0033081684 -0.031978961 0.045860827
-0.0021515987 -0.031198181 0.046763003
-0.0010742856 -0.031154284 0.047789991
0 -0.031212712 0.050093114
0.0010847695 -0.031458315 0.050612152
0.0021723225 -0.031498674 0.051194221
0.0032836662 -0.031742107 0.050911814
0.0043376554 -0.031448003 0.050678879
0.0054021091 -0.031332232 0.051359504
0.0065254574 -0.031539712 0.051389635
0.007414781 -0.030718379 0.051955312
0.0086091701 -0.031208239 0.051578969
0.0098257512 -0.031660754 0.051819324
0.011153275 -0.032344498 0.05117768
0.012443398 -0.03280532 0.046956837
0.013551708 -0.032749962 0.045748085
0.014566622 -0.032494772 0.044699818
0.015667902 -0.032454941 0.044045657
0.017396748 -0.033633713 0.043779552
0.018736964 -0.033960745 0.043050677
0.019904939 -0.033955485 0.041355252
0.021025294 -0.033874083 0.04054144
0.021996465 -0.033573553 0.038977206
0.023169624 -0.033595953 0.037663192
0.025139242 -0.034716096 0.037695825
0.025964616 -0.034226082 0.036744475
0.025826801 -0.032564227 0.036426395
0.026437597 -0.03194543 0.030047089
0.027706824 -0.032139916 0.019574612
0.032099906 -0.035803743 0.013596386
-0.020396898 -0.031728506 0.0080752075
-0.019227538 -0.031668887 0.020110786
-0.018351708 -0.032115489 0.022064149
-0.018495452 -0.034524843 0.022722065
-0.016443636 -0.032887273 0.027612507
-0.015465186 -0.033309631 0.028965324
-0.014393636 -0.03358515 0.03268221
-0.013100618 -0.033347029 0.033414125
-0.012067631 -0.033789366 0.036083311
-0.010351505 -0.032204684 0.036764741
-0.0090770284 -0.0317696 0.037343323
-0.0080041979 -0.032016791 0.040859133
-0.0067732641 -0.031608567 0.046659827
-0.00555865 -0.03112844 0.049746871
-0.0044012144 -0.030808501 0.053018093
-0.0032686202 -0.030507123 0.052897722
-0.0021565638 -0.030191895 0.053119779
-0.0010798767 -0.030236546 0.053563446
0 -0.029820243 0.055140972
0.0010689669 -0.029931074 0.055876076
0.0021117064 -0.029563891 0.057201982
0.0031466666 -0.029368887 0.057477325
0.0041993642 -0.029395549 0.05767861
0.0052944603 -0.029648978 0.057046741
0.0063337549 -0.029557522 0.057139009
0.0073946263 -0.029578505 0.056771219
0.0084818052 -0.029686319 0.057781428
0.0096073328 -0.029889479 0.058223039
0.010826504 -0.030314211 0.057859391
0.01193317 -0.030375343 0.053985089
0.012989289 -0.030308342 0.051374376
0.013928091 -0.029998966 0.047724903
0.015152568 -0.030305136 0.046205997
0.017003573 -0.031740006 0.045324534
0.018613819 -0.032574184 0.044571757
0.019719251 -0.032478765 0.043816864
0.020721301 -0.032233138 0.041682363
0.022006456 -0.032430567 0.040116519
0.023105875 -0.032348223 0.039414078
0.025616748 -0.034155663 0.039426297
0.026578622 -0.033827338 0.037282377
0.026849382 -0.032686204 0.036759883
0.026819723 -0.031289674 0.028908759
0.027650096 -0.030968107 0.020369023
0.029355602 -0.031613726 0.01483956
-0.020420516 -0.030630773 0.0087447464
-0.019238461 -0.030555202 0.020963401
-0.019451255 -0.032823995 0.022916764
-0.018497666 -0.033295799 0.023763657
-0.016722035 -0.032249637 0.028288752
-0.015418843 -0.03202375 0.029592991
-0.014268978 -0.0321052 0.033270627
-0.013182692 -0.032357518 0.036984444
-0.011969212 -0.032316871 0.03775695
-0.0098478571 -0.029543573 0.04110688
-0.0087165814 -0.029418463 0.043533266
-0.0076192622 -0.029388582 0.049361914
-0.0065720109 -0.029574048 0.053570122
-0.0054207998 -0.02927232 0.054723024
-0.004264852 -0.028787751 0.056854457
-0.0031806093 -0.028625485 0.056711823
-0.0021201954 -0.028622638 0.056614429
-0.001047919 -0.028293815 0.056853414
0 -0.028287319 0.057333618
0.001054379 -0.028468233 0.057607114
0.0020809483 -0.028092803 0.059530944
0.003109856 -0.027988704 0.059818596
0.0041714911 -0.028157566 0.060029179
0.005194108 -0.028048184 0.058652908
0.0063010864 -0.028354891 0.059093922
0.007322818 -0.028245155 0.059880883
0.0083929151 -0.028326089 0.060040802
0.0094464645 -0.028339392 0.060051054
0.010507025 -0.028368967 0.06145221
0.011621302 -0.028525015 0.059924692
0.012792371 -0.028782835 0.059371978
0.014009356 -0.029096356 0.056539655
0.015086582 -0.029095551 0.052942872
0.016117059 -0.029010706 0.049937963
0.018158337 -0.030642195 0.046955198
0.019826401 -0.031488989 0.045838982
0.020675855 -0.031013783 0.042842001
0.021784985 -0.030957611 0.040990442
0.022939734 -0.03096864 0.040076762
0.025563633 -0.032867528 0.040076762
0.026411889 -0.032414593 0.038432658
0.02761556 -0.032418266 0.03589198
0.028381316 -0.031928983 0.028922737
0.028014416 -0.030255569 0.021045446
0.029302724 -0.030429751 0.017070383
-0.020392498 -0.029455829 0.0092040896
-0.020402273 -0.031203475 0.02118358
-0.019587962 -0.031830437 0.023188174
-0.018892538 -0.032747064 0.025076985
-0.016466547 -0.030580729 0.02982685
-0.015495933 -0.030991865 0.030540735
-0.014315286 -0.031016452 0.036939263
-0.013206376 -0.03121507 0.040278554
-0.011129953 -0.028937876 0.042110205
-0.0098064542 -0.028329756 0.047609746
-0.0087611778 -0.028473826 0.05242449
-0.0075456887 -0.028026843 0.053933591
-0.0064383829 -0.027899658 0.057321727
-0.0053003039 -0.027561581 0.057789236
-0.0042155008 -0.027400754 0.058044434
-0.0031812554 -0.027570879 0.057466537
-0.0021320824 -0.027717071 0.057600796
-0.0010572762 -0.02748918 0.057573766
0 -0.027562147 0.058617502
0.0010569714 -0.027481256 0.059566796
0.0021257449 -0.027634684 0.060136765
0.0032172687 -0.027882997 0.061201602
0.0042696116 -0.027752474 0.061547309
0.0053383876 -0.027759615 0.061842829
0.0064270492 -0.027850548 0.062254786
0.0073912945 -0.027453378 0.062690198
0.0084428992 -0.027439421 0.062718689
0.0095109176 -0.027475983 0.062840939
0.010562185 -0.027461682 0.062756658
0.011535895 -0.027266663 0.062543631
0.012573477 -0.027242534 0.062396586
0.013557655 -0.02711531 0.060469657
0.01483038 -0.027542133 0.059133738
0.016062722 -0.02784205 0.058423728
0.017525505 -0.028478948 0.054141045
0.019309293 -0.029531861 0.050807536
0.020606175 -0.029764475 0.046736926
0.021790093 -0.029818021 0.042717397
0.022880595 -0.029744772 0.042404801
0.025399186 -0.03144661 0.042450994
0.02661448 -0.031453475 0.04050529
0.027771359 -0.031393711 0.036529094
0.028174549 -0.030522428 0.029164433
0.028491018 -0.029630659 0.021365941
0.029197495 -0.029197495 0.017348737
-0.021568516 -0.029956272 0.0095290542
-0.020838201 -0.030644415 0.020569682
-0.020174574 -0.031522773 0.023748636
-0.018595818 -0.030993031 0.025748372
-0.016422432 -0.02932577 0.030174613
-0.015354399 -0.02952769 0.034281641
-0.01416197 -0.029504104 0.041134089
-0.012797816 -0.029085945 0.043273091
-0.01097788 -0.027444702 0.048375875
-0.009831883 -0.027310787 0.053412557
-0.0085888319 -0.026840098 0.056361258
-0.0074759186 -0.026699709 0.057778537
-0.0064001479 -0.026667284 0.058770567
-0.0052989102 -0.026494551 0.059236705
-0.0042531397 -0.026582122 0.058756918
-0.0031943112 -0.026619261 0.058278978
-0.0021590653 -0.026988316 0.058278978
-0.0010770444 -0.02692611 0.058511436
0 -0.027139461 0.059437811
0.0010869155 -0.027172888 0.059876055
0.0021874595 -0.027343243 0.061312348
0.0032666973 -0.027222479 0.061753154
0.004361107 -0.027256919 0.062195778
0.0054579326 -0.027289663 0.062362254
0.0065405215 -0.027252173 0.062718689
0.0075671822 -0.027025649 0.063224077
0.0086093014 -0.026904067 0.063346326
0.0096219005 -0.026727501 0.063878089
0.010689149 -0.026722873 0.063886493
0.011696323 -0.026582552 0.063337922
0.012681969 -0.026420768 0.063224077
0.013756731 -0.026455252 0.063088238
0.01469178 -0.026235323 0.062051713
0.015705978 -0.02617663 0.061576188
0.01699009 -0.026547017 0.059270471
0.018293323 -0.026901945 0.055533856
0.01991732 -0.027662946 0.052985817
0.021201819 -0.027897129 0.047764421
0.022531645 -0.028164556 0.043348908
0.025395615 -0.030232875 0.043280452
0.026748603 -0.030396141 0.042365581
0.02772128 -0.030131828 0.038458854
0.028690225 -0.029885652 0.029727161
0.028652651 -0.028652651 0.022017777
0.029438326 -0.028306084 0.018042713
0.031099008 -0.028795378 0.0063404739
-0.022097789 -0.029463718 0.009765923
-0.020957265 -0.029586727 0.02072829
-0.020324579 -0.030486867 0.02402997
-0.018674389 -0.029879022 0.027523845
-0.016438747 -0.028180709 0.03249076
-0.015205671 -0.028072007 0.041353256
-0.013622737 -0.027245475 0.046439976
-0.012280724 -0.026794305 0.048959374
-0.010856831 -0.026056394 0.054850757
-0.009528324 -0.025408864 0.057433069
-0.0085066203 -0.025519859 0.058903664
-0.0074380962 -0.025502045 0.05964449
-0.0064240186 -0.025696075 0.059736282
-0.0054001384 -0.025920665 0.059514582
-0.0043212064 -0.025927238 0.05942747
-0.0032727786 -0.026182229 0.059248447
-0.0022353798 -0.026824556 0.059236705
-0.0011265955 -0.027038295 0.059285253
0 -0.027367383 0.059756696
0.0011537689 -0.027690453 0.06044966
0.0022708387 -0.027250065 0.060974568
0.0034358143 -0.027486514 0.061297208
0.0045958511 -0.027575107 0.06176579
0.0056986567 -0.027353553 0.062093735
0.0068655671 -0.027462268 0.062886268
0.008086686 -0.02772578 0.062961996
0.0091513414 -0.027454024 0.063661337
0.010181783 -0.027151421 0.063661337
0.011052953 -0.026527088 0.063661337
0.011941733 -0.02605469 0.063661337
0.012954061 -0.025908122 0.063761353
0.013946976 -0.025748262 0.063732564
0.014885574 -0.025518127 0.063632548
0.015809486 -0.025295176 0.063214183
0.016756624 -0.025134936 0.062379479
0.017917985 -0.025295978 0.059684724
0.0194695 -0.025959332 0.057318479
0.020827442 -0.026308347 0.05359602
0.021474315 -0.025769178 0.04803881
0.024188286 -0.027643755 0.046825886
0.026760748 -0.029193543 0.044126064
0.027915869 -0.029129602 0.041952938
0.028795473 -0.028795473 0.030562341
0.028648371 -0.027502436 0.023839504
0.029444974 -0.027179977 0.017216653
0.030756263 -0.0273389 0.0063121617
-0.021996522 -0.026627369 0.0051065683
-0.022430731 -0.028661489 0.010213256
-0.021014089 -0.028430825 0.020902693
-0.020074133 -0.028856564 0.024339378
-0.01848801 -0.028348282 0.028707743
-0.015950356 -0.026204158 0.039171964
-0.014536831 -0.025719007 0.046976477
-0.01324721 -0.025390485 0.04968518
-0.011897631 -0.024876865 0.05520159
-0.010564604 -0.02429859 0.057891965
-0.0096243657 -0.024595601 0.058972895
-0.0085364422 -0.02454227 0.06036073
-0.0075162114 -0.024696123 0.060080647
-0.0065224031 -0.025002545 0.059927076
-0.0055205002 -0.025394302 0.05947122
-0.0044932803 -0.02583636 0.059067577
-0.0034533706 -0.026475841 0.058759838
-0.0022640254 -0.026036292 0.05842936
-0.0011122851 -0.025582558 0.058759063
0 -0.02556162 0.059128076
0.0011033907 -0.025377987 0.059491992
0.00222723 -0.025613144 0.059918046
0.0033226996 -0.025474031 0.060117275
0.0044233468 -0.025434244 0.060491055
0.0055792839 -0.025664706 0.06092006
0.0067124544 -0.025731076 0.06141904
0.0077178883 -0.025358776 0.061986357
0.0088858129 -0.025546711 0.062097937
0.010099062 -0.025808712 0.062928617
0.0114154 -0.026255419 0.063358188
0.012704829 -0.026564643 0.063473105
0.01352196 -0.02591709 0.063474119
0.014236042 -0.025186844 0.063474119
0.015200273 -0.024971876 0.063657165
0.01595488 -0.024464149 0.064579666
0.016991574 -0.024425387 0.065045357
0.017897518 -0.024214288 0.063483119
0.018939486 -0.024200452 0.061701924
0.02030733 -0.024582557 0.058848232
0.021895589 -0.025179926 0.055029631
0.022998935 -0.02518931 0.04995966
0.026398016 -0.027597925 0.046438903
0.028142421 -0.028142421 0.044347912
0.028487489 -0.027300511 0.034291655
0.029844753 -0.027457174 0.0238868
0.029538374 -0.026130101 0.018374115
0.030505303 -0.025985999 0.0068508685
-0.022223458 -0.027162002 0.010833979
-0.021120433 -0.027332325 0.0216133
-0.020049546 -0.027568126 0.026195675
-0.017622232 -0.025845939 0.031988293
-0.01534691 -0.024116574 0.044301212
-0.014538412 -0.024603466 0.049428076
-0.013044838 -0.023915537 0.05591765
-0.011781128 -0.023562256 0.058529466
-0.010723605 -0.02359193 0.059704483
-0.0097296452 -0.023783576 0.061049849
-0.0086319791 -0.023737943 0.061049849
-0.0076978621 -0.024193281 0.060317844
-0.0068666693 -0.025177788 0.059916019
-0.005691357 -0.025041969 0.058993727
-0.0044538071 -0.024495939 0.058809251
-0.0033380527 -0.024479052 0.058841884
-0.0022112711 -0.024323981 0.058740318
-0.0011101536 -0.024423378 0.059046865
0 -0.024407372 0.059378564
0.001097849 -0.024152678 0.059730321
0.0022074946 -0.024282441 0.05986926
0.0032920029 -0.024141354 0.059966683
0.0044501522 -0.024475837 0.060883731
0.0055165472 -0.024272809 0.061260134
0.0065929526 -0.024174159 0.061692417
0.0077272789 -0.024285734 0.062257975
0.0088653546 -0.024379726 0.062251121
0.0099318894 -0.024277952 0.062492341
0.011096891 -0.024413159 0.062547117
0.012129424 -0.024258848 0.062499195
0.013407966 -0.02458127 0.062496871
0.015017248 -0.025413804 0.062427163
0.015718501 -0.024700502 0.063262373
0.016464461 -0.024147874 0.063927948
0.017185465 -0.023630014 0.064430356
0.018060071 -0.023371857 0.064282656
0.019165253 -0.023424199 0.064124495
0.019935176 -0.023082834 0.061794192
0.021304291 -0.023434719 0.058187068
0.023251919 -0.024359154 0.05549565
0.026142245 -0.026142245 0.050487578
0.027344886 -0.026155978 0.046065509
0.028560273 -0.026180251 0.035230666
0.031233728 -0.027485682 0.024872482
0.029498814 -0.024960535 0.019430727
0.030840026 -0.02512891 0.0078309476
-0.022379989 -0.024735777 0.0051484406
-0.022361087 -0.026087934 0.011328161
-0.021155242 -0.026132947 0.022107482
-0.020304302 -0.026649397 0.029669136
-0.016965605 -0.023751847 0.037038028
-0.015719248 -0.023578871 0.047919899
-0.014029467 -0.022662984 0.05467543
-0.012748189 -0.022309331 0.058100641
-0.011814595 -0.022555135 0.059370637
-0.010744898 -0.022564285 0.06006363
-0.0097570196 -0.02276638 0.059980571
-0.0089773526 -0.023565551 0.059777319
-0.0080192434 -0.024057731 0.059498489
-0.0067040049 -0.023464017 0.058963448
-0.0055786404 -0.02343029 0.058698207
-0.0044311243 -0.023263402 0.058429569
-0.0032994798 -0.02309636 0.058511704
-0.0022283136 -0.023397291 0.058157325
-0.0011014985 -0.023131467 0.058385044
0 -0.023203168 0.058808744
0.0011035693 -0.023174955 0.058843136
0.0021989567 -0.023089046 0.059134722
0.0033223194 -0.023256235 0.05952251
0.0044130967 -0.023168758 0.060103357
0.0054970318 -0.023087533 0.06039995
0.0066027893 -0.023109762 0.061113656
0.0077280924 -0.023184277 0.061609507
0.0087781046 -0.023042524 0.061721116
0.0099559529 -0.023230556 0.062101454
0.010969575 -0.023036106 0.062274128
0.012051677 -0.023007747 0.062306255
0.013358204 -0.023376856 0.062425822
0.014391915 -0.023248477 0.062601835
0.015759299 -0.023638949 0.063015968
0.017258666 -0.024162134 0.063646317
0.017607059 -0.023109265 0.064990968
0.018528683 -0.022888372 0.065049082
0.019337187 -0.022560051 0.064828008
0.020102805 -0.022218889 0.063336164
0.020880887 -0.021924932 0.062137216
0.022383239 -0.022383239 0.058401942
0.024676874 -0.023555199 0.052845508
0.027140353 -0.024780322 0.048677236
0.028136756 -0.024619661 0.036527395
0.030970266 -0.026015023 0.026839852
0.030897107 -0.024955356 0.020054966
0.03100384 -0.024114098 0.0058086812
-0.02246858 -0.023651136 0.0057661831
-0.022264196 -0.024737995 0.011934698
-0.021079233 -0.024799099 0.022699594
-0.019526841 -0.024408551 0.032841295
-0.017218232 -0.022957642 0.043836772
-0.015304084 -0.021862976 0.051270425
-0.013907488 -0.021396134 0.055896401
-0.012938754 -0.02156459 0.059590548
-0.011896865 -0.021630665 0.059808731
-0.010903708 -0.021807415 0.059926748
-0.010113651 -0.022474779 0.059825748
-0.0091306726 -0.022826681 0.059518874
-0.0077523007 -0.022149431 0.059273839
-0.0066567902 -0.022189301 0.058774024
-0.0055666966 -0.022266787 0.058464766
-0.0043962398 -0.021981198 0.0583812
-0.0033136944 -0.022091296 0.058409065
-0.002209164 -0.022091638 0.058285236
-0.0011033134 -0.022066267 0.05837968
0 -0.022213712 0.05845046
0.0011031306 -0.022062613 0.058617085
0.0022045355 -0.022045355 0.058994055
0.0033266654 -0.022177769 0.059252441
0.0044128038 -0.022064019 0.060063809
0.0055149361 -0.022059744 0.060369134
0.0067170742 -0.022390246 0.061142176
0.0076649231 -0.02189978 0.061548352
0.0088403616 -0.022100903 0.06220752
0.0098780282 -0.021951174 0.062314153
0.011029731 -0.022059461 0.06223169
0.012176776 -0.022139592 0.06220752
0.013196609 -0.021994349 0.062353343
0.014380671 -0.02212411 0.062862009
0.015615942 -0.022308487 0.063080549
0.016803797 -0.022405064 0.063408226
0.01836629 -0.022957863 0.064013213
0.019070506 -0.022435889 0.064224184
0.019553857 -0.021726508 0.064395726
0.020406649 -0.021480683 0.064085573
0.021369813 -0.021369813 0.063253939
0.022214498 -0.021156665 0.060984105
0.023856506 -0.021687731 0.057310611
0.026128829 -0.022720719 0.051579714
0.02815523 -0.023462692 0.045187384
0.031878237 -0.025502589 0.0283719
0.031842984 -0.024494603 0.019677997
-0.022800852 -0.022800852 0.0052971244
-0.022330338 -0.023570914 0.012120664
-0.020860393 -0.023314558 0.025948435
-0.019085303 -0.022663798 0.035962224
-0.016659267 -0.021101737 0.049965501
-0.014986902 -0.020339368 0.055149227
-0.014012522 -0.020479839 0.057144701
-0.01291154 -0.020443272 0.059943527
-0.012015197 -0.020753523 0.06011939
-0.01130225 -0.021474274 0.060017884
-0.010150711 -0.02142928 0.059758961
-0.0088445889 -0.021005899 0.059594452
-0.0077457703 -0.021024233 0.059295535
-0.0066482676 -0.021052847 0.058947176
-0.0054907901 -0.020865003 0.058449149
-0.0044214949 -0.021002101 0.058121681
-0.0033057814 -0.020936616 0.057983696
-0.002206933 -0.020965865 0.058037341
-0.0011084091 -0.021059772 0.058225214
0 -0.020999676 0.058402956
0.0011065215 -0.021023907 0.058352649
0.0022286102 -0.021171797 0.058593631
0.0033090692 -0.020957438 0.05887723
0.0044027413 -0.02091302 0.059755355
0.0055370638 -0.021040844 0.060189605
0.0066161207 -0.020951048 0.061066836
0.0077696359 -0.021089012 0.061717451
0.0088523822 -0.021024408 0.061843157
0.0099731954 -0.021054525 0.06188488
0.011058758 -0.021011641 0.061933666
0.012173213 -0.021026459 0.062044352
0.013316897 -0.021085085 0.062590301
0.014361431 -0.020989783 0.06285733
0.015512565 -0.021052767 0.063004851
0.016682997 -0.021131797 0.063305527
0.017879147 -0.021231487 0.063857406
0.019438328 -0.021725191 0.064203352
0.019847 -0.020949611 0.064379066
0.020661756 -0.020661756 0.064379066
0.021112878 -0.020057233 0.064102024
0.022422368 -0.020286905 0.062659144
0.023468234 -0.020268021 0.059117675
0.025279585 -0.020883135 0.052612722
0.026768718 -0.021191901 0.04704991
0.031024868 -0.023578899 0.030763775
0.032303412 -0.023606339 0.017069519
-0.023692153 -0.022445198 0.0050450563
-0.022401799 -0.022401799 0.012926936
-0.020448104 -0.021650933 0.026371628
-0.018287515 -0.020573454 0.044607699
-0.016268263 -0.019521914 0.052775592
-0.015047083 -0.01934625 0.056224376
-0.014024094 -0.019417977 0.059100568
-0.012952897 -0.019429345 0.060461074
-0.012344305 -0.020199774 0.060550511
-0.011328734 -0.020391721 0.060199559
-0.0099915816 -0.019983163 0.059958845
-0.0089135291 -0.020055439 0.059222281
-0.007731949 -0.019882156 0.058838636
-0.0066068335 -0.0198205 0.05875358
-0.0055360179 -0.019929664 0.058542371
-0.0044267471 -0.019920362 0.058190703
-0.0032971196 -0.019782718 0.058255821
-0.0022305036 -0.020074531 0.058148682
-0.0011074083 -0.019933349 0.058263093
0 -0.020109851 0.058437645
0.0011090521 -0.019962939 0.058902085
0.0022138217 -0.019924395 0.059466481
0.0033431463 -0.020058878 0.059783757
0.0044362447 -0.019963101 0.06064871
0.0055320607 -0.019915419 0.061367035
0.0066572395 -0.019971717 0.061913937
0.0077656126 -0.019968718 0.061927915
0.0088623967 -0.019940393 0.062218666
0.010067727 -0.020135455 0.062458873
0.011077363 -0.019939253 0.062460423
0.012107315 -0.019811969 0.062770307
0.013343594 -0.020015392 0.062768519
0.014402225 -0.019941542 0.062888056
0.015521565 -0.019956296 0.06301403
0.016573075 -0.01988769 0.063290417
0.017718099 -0.019932861 0.063531995
0.018794592 -0.019900158 0.063784182
0.02086251 -0.02086251 0.06396696
0.020901648 -0.019801561 0.063901395
0.021765565 -0.019589009 0.063899994
0.022412987 -0.019211132 0.063523144
0.02320564 -0.018986434 0.061621368
0.024789697 -0.019400632 0.057319731
0.026927048 -0.020195287 0.050415516
0.030788301 -0.022167576 0.032152832
0.032784056 -0.022696653 0.017720491
-0.023821704 -0.021314157 0.0053186119
-0.021778001 -0.02056811 0.01489976
-0.019960321 -0.019960321 0.03094092
-0.017623162 -0.018724609 0.048662156
-0.01631891 -0.018494764 0.054842293
-0.015149739 -0.018396111 0.056925297
-0.014018174 -0.018331459 0.059172511
-0.013368012 -0.018938016 0.060490668
-0.012619697 -0.019503167 0.060573548
-0.011097719 -0.018866124 0.059740782
-0.0099715581 -0.018835166 0.059554726
-0.0088543389 -0.018815469 0.058764547
-0.0076690866 -0.018624924 0.05839926
-0.0066603236 -0.018870918 0.058368742
-0.0055382857 -0.018830173 0.058368742
-0.0044166306 -0.01877068 0.0577299
-0.0033351898 -0.018899409 0.057815731
-0.0022210598 -0.018879008 0.058077782
-0.0011084705 -0.018843997 0.058436781
0 -0.019019986 0.058743954
0.0011063399 -0.018807776 0.059039921
0.0022368869 -0.019013539 0.059315383
0.003329894 -0.018869398 0.060002446
0.0044156569 -0.018766541 0.06105867
0.0056192437 -0.019105429 0.061268419
0.0067286179 -0.019064417 0.062107325
0.0078058522 -0.018957069 0.06236878
0.0089298086 -0.018975843 0.062523961
0.010003327 -0.018895173 0.062520802
0.011109282 -0.01888578 0.062606335
0.012280324 -0.018978683 0.062870979
0.01331836 -0.018867677 0.062748253
0.014372525 -0.01879484 0.06311515
0.015516835 -0.018841872 0.062900752
0.016507795 -0.018708834 0.063399613
0.017738003 -0.018846627 0.06382224
0.018940851 -0.018940851 0.064139485
0.020126177 -0.019008057 0.064467192
0.021662397 -0.019382145 0.064613998
0.021824537 -0.018550856 0.064870298
0.022519644 -0.018230189 0.063440353
0.023642348 -0.018269086 0.062455714
0.024823977 -0.018348156 0.059350699
0.026864951 -0.019029342 0.051993072
0.030338956 -0.02063049 0.032821298
0.032773159 -0.021428606 0.016709447
-0.021878796 -0.019447818 0.016629934
-0.01976512 -0.018602466 0.031447977
-0.017608909 -0.017608909 0.051955462
-0.016429657 -0.017524969 0.055280238
-0.015081952 -0.017236518 0.057170808
-0.014152941 -0.017419005 0.058500379
-0.013661005 -0.018214673 0.060030699
-0.012290575 -0.017877199 0.060294807
-0.011097313 -0.0177557 0.059821039
-0.0099585988 -0.017704176 0.059043467
-0.0088486616 -0.017697323 0.058259338
-0.0077276044 -0.017663097 0.058000118
-0.006717409 -0.01791309 0.057815433
-0.0055621243 -0.017798798 0.057968915
-0.0044471463 -0.017788585 0.057459176
-0.0033321457 -0.017771443 0.057815433
-0.0022397246 -0.017917797 0.057940751
-0.0011182294 -0.01789167 0.058061093
0 -0.017733959 0.058246881
0.0011175598 -0.017880958 0.058473378
0.0022228039 -0.017782431 0.058807164
0.0033496746 -0.017864931 0.059687793
0.0044522583 -0.017809033 0.060340375
0.0055456916 -0.017746214 0.060799956
0.0067155831 -0.017908221 0.061690241
0.0078477357 -0.017937683 0.062528878
0.0088885818 -0.017777164 0.06275174
0.009952574 -0.017693466 0.062953323
0.01112652 -0.017802432 0.06296894
0.012178136 -0.017713653 0.063571364
0.01340037 -0.017867161 0.063692927
0.014496168 -0.017841438 0.063910306
0.015562258 -0.017785437 0.063440591
0.016567422 -0.017671918 0.064309835
0.017659511 -0.017659511 0.064522654
0.01892568 -0.017812405 0.06484434
0.020211892 -0.017966127 0.065472484
0.021666162 -0.018245189 0.0654957
0.022144755 -0.017715804 0.065335631
0.022830362 -0.017394561 0.064281315
0.023756558 -0.017277496 0.063296676
0.024368921 -0.016952293 0.060771734
0.026280681 -0.017520454 0.054398566
0.029918408 -0.019147782 0.036720097
0.033076327 -0.020354664 0.0161134
-0.021957539 -0.01829795 0.017106235
-0.019233922 -0.016971108 0.035529286
-0.017638337 -0.016535942 0.053442389
-0.016197277 -0.016197277 0.056090832
-0.015381075 -0.016479723 0.057808399
-0.014392747 -0.016607014 0.059124529
-0.013748707 -0.017185884 0.060176969
-0.012362979 -0.016858609 0.060515314
-0.01106216 -0.01659324 0.059434414
-0.0099647464 -0.01660791 0.058480412
-0.0089412564 -0.016764855 0.05796808
-0.0078358902 -0.016791195 0.057819486
-0.0066933827 -0.016733458 0.057340473
-0.0055895722 -0.016768716 0.05761978
-0.0044569345 -0.016713506 0.057162613
-0.0033416785 -0.016708393 0.057704449
-0.0022521627 -0.016891221 0.057560384
-0.0011194586 -0.016791878 0.057900608
0 -0.016704297 0.05833602
0.0011156854 -0.016735282 0.05855158
0.002211876 -0.01658907 0.059058994
0.003372167 -0.016860835 0.059504151
0.0045029405 -0.016886026 0.060387641
0.0055606677 -0.016682003 0.060989439
0.0067240517 -0.016810128 0.061262995
0.0078576133 -0.016837744 0.062058181
0.0089105899 -0.016707357 0.062345743
0.010096712 -0.016827853 0.062649876
0.011084671 -0.016627006 0.062934816
0.012213085 -0.016654206 0.063282102
0.013401978 -0.016752472 0.064095706
0.014568286 -0.016809562 0.064480156
0.015676538 -0.016796291 0.064547122
0.01679204 -0.01679204 0.064568549
0.017748278 -0.016639009 0.064675659
0.018901089 -0.016677432 0.064792395
0.020271191 -0.016892659 0.065376371
0.021310594 -0.016824154 0.065796793
0.022850096 -0.017137572 0.065404862
0.023364188 -0.016688706 0.064738721
0.02371284 -0.016167846 0.063885212
0.024766272 -0.016151916 0.061855376
0.026085695 -0.01630356 0.058434904
0.029605616 -0.017763369 0.040171057
0.032933936 -0.019000348 0.013083786
-0.022495665 -0.017496627 0.016459733
-0.019150265 -0.015770806 0.047108382
-0.017520752 -0.015330657 0.053691655
-0.016344288 -0.01525467 0.056395233
-0.015210072 -0.015210072 0.05803287
-0.01454305 -0.015661746 0.05927676
-0.013531953 -0.015787279 0.060259044
-0.012309502 -0.015666639 0.060598552
-0.011009919 -0.015413886 0.059009761
-0.010057333 -0.01564474 0.058092624
-0.008922318 -0.015614056 0.057217866
-0.007835499 -0.015670998 0.057118416
-0.0067667896 -0.015789175 0.056988925
-0.0055731698 -0.015604876 0.057144612
-0.0044484395 -0.015569538 0.05687508
-0.003378568 -0.01576665 0.056795597
-0.0022464509 -0.015725156 0.057072461
-0.0011166035 -0.015632449 0.057556838
0 -0.015664017 0.057880133
0.0011018177 -0.015425448 0.058164895
0.002232091 -0.015624638 0.058718801
0.0033626873 -0.015692541 0.059528649
0.0044467356 -0.015563576 0.060348809
0.005617585 -0.015729239 0.060969621
0.0067521879 -0.015755106 0.061459959
0.0078069661 -0.015613932 0.062286824
0.0089607658 -0.015681339 0.062413365
0.010152596 -0.015792927 0.062822491
0.011122451 -0.015571432 0.063019454
0.012334926 -0.015698997 0.063317269
0.013400582 -0.015634011 0.063539714
0.01443711 -0.015547657 0.064302862
0.015662987 -0.015662987 0.064209223
0.016612437 -0.015504941 0.064254284
0.017678341 -0.015468549 0.064636528
0.018902231 -0.015566543 0.065066725
0.019955054 -0.015520598 0.065255225
0.021140929 -0.015577527 0.066058725
0.022981392 -0.016086973 0.065394253
0.023349004 -0.015566004 0.065163016
0.023830721 -0.015165004 0.064320475
0.024819639 -0.015107607 0.062818766
0.025931424 -0.015126663 0.060587496
0.028696068 -0.016069798 0.0418832
0.032710865 -0.017613543 0.012962669
-0.022613395 -0.016331896 0.014773965
-0.018989015 -0.014521012 0.048784375
-0.017442975 -0.014172417 0.054285616
-0.016448291 -0.014255187 0.05704084
-0.015354825 -0.014258052 0.058735728
-0.014777006 -0.014777006 0.059045523
-0.013413699 -0.014531507 0.059832782
-0.012171006 -0.014383917 0.06021753
-0.011077438 -0.014400668 0.058598161
-0.010139975 -0.014646631 0.057954252
-0.0090064891 -0.014635544 0.057278574
-0.0078631621 -0.014603015 0.057094693
-0.0067456001 -0.014615467 0.057189822
-0.0055771181 -0.014500507 0.057179421
-0.0045112167 -0.014661455 0.057020128
-0.0033867713 -0.014676008 0.057316601
-0.002245472 -0.014595568 0.057529211
-0.0011263359 -0.014642366 0.05773595
0 -0.014503216 0.058029056
0.0011300469 -0.01469061 0.05837515
0.0022499738 -0.01462483 0.058982462
0.0033615853 -0.01456687 0.05940026
0.0045065931 -0.014646428 0.060268521
0.0056020594 -0.014565354 0.060822517
0.006691583 -0.01449843 0.061413825
0.0078090858 -0.014502588 0.062006235
0.0089734001 -0.014581775 0.062226951
0.010020643 -0.014474262 0.06313324
0.011219752 -0.014585678 0.063405007
0.012203116 -0.014421864 0.063570112
0.013390348 -0.014506211 0.063730806
0.01454856 -0.01454856 0.063982546
0.015580393 -0.014467509 0.064064592
0.016726427 -0.014496237 0.064003766
0.017741568 -0.014415025 0.064414948
0.018831953 -0.014400906 0.064908445
0.019894885 -0.014368529 0.065568358
0.021195183 -0.014501967 0.065585315
0.022504885 -0.014628176 0.065351754
0.023366854 -0.014465196 0.065301329
0.024072701 -0.014224778 0.064372867
0.024881218 -0.014063297 0.063022971
0.026198257 -0.014190722 0.060300678
0.028190423 -0.01465902 0.042519361
0.031349607 -0.015674803 0.0069849491
-0.022106394 -0.014737596 0.012611389
-0.018872131 -0.013321504 0.051270157
-0.017594619 -0.013195964 0.054826766
-0.016475571 -0.013180457 0.05751434
-0.015418584 -0.013215928 0.059210837
-0.014780802 -0.013643817 0.059338689
