ply
format ascii 1.0
comment PCL generated
element vertex 1262
property float x
property float y
property float z
element camera 0
property float view_px
property float view_py
property float view_pz
property float x_axisx
property float x_axisy
property float x_axisz
property float y_axisx
property float y_axisy
property float y_axisz
property float z_axisx
property float z_axisy
property float z_axisz
property float focal
property float scalex
property float scaley
property float centerx
property float centery
property int viewportx
property int viewporty
property float k1
property float k2
end_header
-0.0034720523 -0.082171902 0.0090692043
-0.0023256801 -0.082561642 0.0093075335
-0.0011579874 -0.082217105 0.0096229911
0 -0.082627416 0.0097078681
0.0011469231 -0.08143153 0.0099247992
0.0023068343 -0.081892624 0.0099591911
0.0034819006 -0.082404979 0.0099564493
0.0045938008 -0.081539959 0.010017574
0.0057557677 -0.081731901 0.010017574
0.0069322158 -0.08203122 0.010117143
0.0081004491 -0.082161695 0.010202885
0.0092684086 -0.082257122 0.0099123418
0.010425314 -0.08224415 0.0097821355
0.011508855 -0.081712872 0.0094451904
0.012688329 -0.081897393 0.0089230537
0.013770821 -0.081477359 0.0086180866
0.015108389 -0.082515046 0.0085738301
0.016216474 -0.082240686 0.0081504285
0.017328577 -0.082021929 0.0077999532
0.018559791 -0.082359076 0.0077178776
0.019620702 -0.081945278 0.0076812208
0.021614354 -0.085256614 0.0073676407
0.022053348 -0.082409881 0.0070950091
0.02336547 -0.082947418 0.0062867999
0.024364887 -0.082376525 0.0056450963
0.02570067 -0.082943074 0.0051953793
-0.017768435 -0.082919359 0.0051600635
-0.016325885 -0.081629425 0.0054799318
-0.015130999 -0.081474617 0.0061632097
-0.014007545 -0.081710681 0.0068470538
-0.012722156 -0.080959179 0.0078220069
-0.011606469 -0.081245281 0.0082355142
-0.010517562 -0.081803262 0.0085359514
-0.009255087 -0.080982015 0.0090700388
-0.0081224106 -0.081224114 0.009254247
-0.0069295163 -0.080844358 0.0094334781
-0.005813099 -0.081383385 0.0099334419
-0.0046593645 -0.081538878 0.010006785
-0.0034812833 -0.08122994 0.010012418
-0.0023069067 -0.080741733 0.010218233
-0.0011558963 -0.080912739 0.010366678
0 -0.081236474 0.010727882
0.0011594838 -0.081163868 0.011256009
0.0023081228 -0.080784298 0.011225611
0.003469062 -0.080944777 0.010798454
0.0045725396 -0.080019444 0.010568738
0.0058064107 -0.081289753 0.010565221
0.0069649005 -0.081257172 0.010571659
0.0081143249 -0.081143245 0.010841042
0.0093168532 -0.081522465 0.010552168
0.010380238 -0.080735184 0.010377973
0.011636254 -0.081453778 0.010241359
0.012688057 -0.080742188 0.0094044805
0.013903251 -0.081102297 0.0089708567
0.01512468 -0.081440583 0.0089336932
0.016346304 -0.081731521 0.0085241199
0.017432114 -0.081349872 0.0082795024
0.018678013 -0.081716307 0.007958442
0.019914616 -0.082001366 0.0076826215
0.020797309 -0.080878422 0.00706774
0.021998664 -0.081047714 0.0068427622
0.023317657 -0.081611797 0.0062209964
0.024553115 -0.081843719 0.0057563186
0.025521198 -0.081203811 0.0054943562
-0.017683264 -0.08134301 0.0056888461
-0.016264208 -0.080159307 0.006266892
-0.015285489 -0.081130676 0.0065945983
-0.013895584 -0.079899609 0.0074081719
-0.012918417 -0.081033707 0.007836014
-0.011716207 -0.080841832 0.0079581439
-0.010407313 -0.079789393 0.0085889101
-0.0093224524 -0.080406152 0.0090770125
-0.0081072999 -0.079914816 0.0092760026
-0.0070179873 -0.080706857 0.0095896721
-0.005797137 -0.08000049 0.0099985301
-0.0046295691 -0.079860069 0.010047257
-0.0034864829 -0.080189109 0.010241568
-0.0023174251 -0.079951167 0.010713011
-0.0011633454 -0.080270834 0.010934621
0 -0.079855643 0.011360675
0.0011565948 -0.079805046 0.011613905
0.0022989374 -0.079313338 0.011457115
0.0034686034 -0.079777882 0.011350453
0.0046200822 -0.079696417 0.011260539
0.0057895361 -0.079895593 0.010966629
0.0069242199 -0.079628527 0.01101017
0.0081285825 -0.080124602 0.011026949
0.0092631076 -0.079894304 0.01088649
0.010438503 -0.080028519 0.010638237
0.011663314 -0.080476865 0.010380477
0.012704425 -0.079691388 0.0099570453
0.014009382 -0.080553949 0.0098410547
0.015114808 -0.080224752 0.0093362331
0.016251443 -0.080096401 0.0091993809
0.017489092 -0.08044982 0.0090378225
0.018515171 -0.07984668 0.0087110102
0.019711673 -0.080006205 0.0079139471
0.020894071 -0.080093935 0.007353723
0.021988839 -0.079854205 0.0071647465
0.023364441 -0.080607325 0.0062327981
0.024308905 -0.079872116 0.0062642694
0.025730265 -0.080699466 0.006290257
0.026904449 -0.080713347 0.0056855679
-0.017634423 -0.079942718 0.005253166
-0.01649517 -0.080119394 0.0058819056
-0.015103257 -0.079001658 0.0065542758
-0.013993623 -0.079297192 0.0069223344
-0.012924049 -0.079894125 0.0077015162
-0.011538291 -0.07846038 0.0080809295
-0.010472097 -0.079122506 0.0085912645
-0.0093299421 -0.079304509 0.0089559555
-0.008138963 -0.079064213 0.009347856
-0.0070422208 -0.079811834 0.0096793473
-0.0058407402 -0.079434067 0.009973973
-0.0046294164 -0.078700081 0.010062337
-0.0035037063 -0.07941734 0.010278225
-0.002309077 -0.078508623 0.01044479
-0.0011539409 -0.07846798 0.010825902
0 -0.078828081 0.011364371
0.0011558874 -0.07860034 0.011410624
0.002317471 -0.078794017 0.011286944
0.0035144724 -0.079661369 0.011354476
0.0046140887 -0.078439511 0.01139015
0.0058054631 -0.078954302 0.011380583
0.0070064589 -0.079406537 0.011017889
0.0080367895 -0.078071669 0.011380583
0.0093367537 -0.079362407 0.010975003
0.010316116 -0.077943981 0.010480016
0.011569303 -0.078671262 0.01054281
0.012739449 -0.078752957 0.01014176
0.013959332 -0.079102881 0.0099831223
0.015145936 -0.079224892 0.0097700953
0.016273895 -0.079044633 0.0095281899
0.01748307 -0.079256579 0.0094112754
0.018789763 -0.079856493 0.0090506971
0.019715162 -0.078860648 0.0085909963
0.020941518 -0.079112403 0.0080354512
0.022208603 -0.07948342 0.0077573061
0.023526525 -0.079990186 0.0070567727
0.024537709 -0.079455443 0.0066583753
0.025677355 -0.079366371 0.0066185296
0.026877079 -0.07946267 0.0059716702
0.027920613 -0.079108402 0.0051970482
-0.017677559 -0.078959763 0.0052330196
-0.016382225 -0.078400649 0.0056644976
-0.015254447 -0.078619078 0.0061410964
-0.01416531 -0.079089649 0.0064302981
-0.012757681 -0.077705875 0.007280916
-0.011686836 -0.078301802 0.0074964166
-0.010588293 -0.078823961 0.0084868371
-0.009222053 -0.077234693 0.0086653829
-0.008151425 -0.078020781 0.0088174641
-0.0069828387 -0.077975035 0.0093037188
-0.0057982439 -0.077696472 0.0096493363
-0.0046418882 -0.077751629 0.0098233521
-0.0035079555 -0.078344338 0.010161221
-0.0023220042 -0.077787139 0.010405153
-0.001165454 -0.078085423 0.010405153
0 -0.078574799 0.011246502
0.0011579711 -0.077584065 0.011818528
0.0023358748 -0.078251809 0.011631817
0.0034842298 -0.077814467 0.011584342
0.0046550282 -0.077971727 0.011608541
0.0057672192 -0.077280737 0.011636674
0.0069248066 -0.077327006 0.011481613
0.0081480192 -0.077988185 0.011606783
0.0092283785 -0.077287674 0.011351943
0.010468413 -0.077931523 0.011025101
0.011537223 -0.077299394 0.011025101
0.012702826 -0.077371761 0.010399789
0.014007691 -0.078209609 0.010080904
0.015210971 -0.078395009 0.010057151
0.016333707 -0.078168452 0.009889096
0.017362949 -0.077554502 0.0097017586
0.018509939 -0.077510372 0.0094178021
0.019831158 -0.078158095 0.0088988245
0.020946188 -0.077966362 0.0081009567
0.022395976 -0.078975283 0.007971257
0.023305723 -0.078074172 0.0075449049
0.024298213 -0.077522866 0.0070326328
0.025719156 -0.078326523 0.0068255961
0.026641384 -0.077607512 0.0060430169
0.028352415 -0.07915049 0.0054151416
-0.017708745 -0.077918477 0.0052179694
-0.016514327 -0.077853255 0.0055835545
-0.015303605 -0.077695228 0.0061752796
-0.014027514 -0.077151328 0.0061994791
-0.012859475 -0.077156849 0.0068600178
-0.011646183 -0.076864809 0.0071907043
-0.010392942 -0.07621491 0.0080852509
-0.0093647111 -0.077258863 0.008433044
-0.0081357351 -0.076708354 0.0085779428
-0.0069817994 -0.076799795 0.0090537667
-0.0058536539 -0.077268228 0.0093690157
-0.0046463045 -0.076664031 0.0095295608
-0.0034917407 -0.076818295 0.010103911
-0.0023178847 -0.076490194 0.010165364
-0.0011671674 -0.07703305 0.010175228
0 -0.076896749 0.010287911
0.0011667415 -0.077004939 0.010499805
0.0023139904 -0.076361686 0.010428637
0.0035030579 -0.077067271 0.010371208
0.0046818377 -0.077250324 0.010442525
0.0058058924 -0.076637782 0.01086843
0.0070398413 -0.07743825 0.010708719
0.0081208292 -0.076567821 0.01086843
0.0093262633 -0.076941669 0.010966688
0.010488205 -0.076913506 0.010799408
0.011612118 -0.07663998 0.010827899
0.012777179 -0.076663077 0.010671616
0.013993212 -0.076962665 0.010671258
0.01511149 -0.076719873 0.010661334
0.016219763 -0.076464593 0.010536283
0.017519947 -0.077087767 0.0099458396
0.018454621 -0.076125309 0.0097919405
0.019746577 -0.076663181 0.009393096
0.021208948 -0.077766143 0.0085672438
0.021996636 -0.076409362 0.0086565614
0.023688773 -0.078172944 0.0080530941
0.024640359 -0.077441126 0.0075416267
0.025469424 -0.076408274 0.0071450174
0.027190667 -0.078025393 0.0061359406
0.02816611 -0.077456802 0.0057168901
0.029550832 -0.078014195 0.0051001012
-0.017627629 -0.076386392 0.0051478446
-0.016523758 -0.076717444 0.0050789416
-0.015259379 -0.076296896 0.0059933364
-0.014070617 -0.076215841 0.0061552227
-0.012971927 -0.076652303 0.0065451562
-0.011672974 -0.075874329 0.0067439377
-0.010541341 -0.07613191 0.0073425174
-0.0093739843 -0.07616362 0.0076316595
-0.0081084883 -0.075293101 0.007989794
-0.0070051788 -0.075889438 0.0081994534
-0.0058503239 -0.076054208 0.0085462928
-0.0046453383 -0.075486742 0.0085532963
-0.003510369 -0.076057993 0.0087386668
-0.0023432034 -0.076154113 0.0093191564
-0.0011657705 -0.075775079 0.0089448094
0 -0.076166928 0.0088481903
0.0011631537 -0.07560499 0.009400636
0.0023419864 -0.076114558 0.0090515912
0.0035262522 -0.076402135 0.0095360875
0.0046674889 -0.075846694 0.0097301304
0.0058646239 -0.076240107 0.0097001195
0.0069529694 -0.075323835 0.0098969936
0.0082132677 -0.076266058 0.010258168
0.0093408842 -0.075894684 0.010390222
0.010424708 -0.075289555 0.0099125206
0.011587192 -0.07531675 0.010217637
0.012776529 -0.075497672 0.010356337
0.013920247 -0.075401336 0.010373324
0.015120212 -0.075601064 0.010431468
0.016581658 -0.076986268 0.010333627
0.017334808 -0.075117499 0.010194927
0.018510085 -0.07519722 0.0099769235
0.019838599 -0.075853467 0.0098145306
0.020979216 -0.075758278 0.0093277395
0.02231543 -0.076342262 0.0093654096
0.023483437 -0.07632117 0.0086570382
0.024655746 -0.076315403 0.0080396533
0.026112465 -0.077150464 0.0072283149
0.026957409 -0.076183982 0.0067279637
0.028236175 -0.076472975 0.0062716305
0.029493248 -0.076682448 0.0056746304
-0.018854456 -0.075417824 0.0052654743
-0.01762484 -0.075199321 0.0057015419
-0.016369581 -0.074832365 0.0055254102
-0.015331298 -0.075477161 0.0060058832
-0.014006325 -0.0747004 0.0061431527
-0.01289493 -0.075025052 0.0062569678
-0.01160843 -0.074293956 0.0065444112
-0.01059169 -0.075318687 0.0068696439
-0.0093549667 -0.074839734 0.0071457922
-0.0083666015 -0.076494642 0.0068776608
-0.0069941971 -0.074604772 0.0070764422
-0.0058363052 -0.074704707 0.0074751079
-0.0047066663 -0.075306661 0.007266134
-0.0035163823 -0.075016156 0.0078779459
-0.0023638899 -0.075644478 0.0077445209
-0.0011663744 -0.074647963 0.0079968274
0 -0.074262545 0.0077227056
0.001160166 -0.074250624 0.0076560676
0.002325058 -0.074401855 0.007890135
0.0034740206 -0.074112438 0.0077601969
0.0046876771 -0.075002834 0.0079879463
0.0058664316 -0.075090326 0.0079047978
0.0069679059 -0.074324332 0.0086161494
0.0081817182 -0.074804284 0.0090996325
0.0094333468 -0.075466774 0.0092054009
0.010504065 -0.074695572 0.0092076659
0.011737426 -0.075119525 0.010140568
0.012872844 -0.074896552 0.010258168
0.013901926 -0.074143603 0.010399908
0.015124097 -0.074457094 0.010560244
0.016217142 -0.074135512 0.010319561
0.017460616 -0.074498631 0.010303736
0.018617025 -0.074468099 0.010052264
0.019784762 -0.074483812 0.0098977089
0.020993354 -0.074643038 0.0094069242
0.022250673 -0.074949637 0.0092252791
0.023042021 -0.07373447 0.0085971355
0.025011793 -0.076226413 0.0079837441
0.025599001 -0.074469827 0.0074834228
0.026976882 -0.075066105 0.0070050359
0.02823901 -0.075304024 0.0062153339
0.029452167 -0.075397551 0.0057656467
0.030555924 -0.075214587 0.0054565668
0.032062072 -0.075998992 0.0053169727
-0.017703153 -0.07435324 0.0057553053
-0.016828502 -0.075728253 0.0056465864
-0.015263936 -0.073971383 0.0057350695
-0.014149297 -0.074283808 0.0057280064
-0.012973126 -0.074300632 0.0058473051
-0.011770179 -0.074152134 0.0058732629
-0.010611864 -0.074283049 0.0061057806
-0.0094352141 -0.074302316 0.0063028336
-0.0082336161 -0.074102551 0.0053822398
-0.0071398434 -0.07496836 0.0052093863
-0.005868203 -0.073939361 0.005187571
0.0096270544 -0.075813055 0.0063160062
0.010582834 -0.074079834 0.0065930188
0.011659422 -0.073454358 0.0082449317
0.012847953 -0.07358373 0.0096089542
0.014177774 -0.074433312 0.010297
0.015312186 -0.074205205 0.010625482
0.016347272 -0.073562726 0.010403067
0.017510617 -0.073544592 0.010259986
0.018655755 -0.073457032 0.01004979
0.0200358 -0.074250318 0.010046124
0.020999705 -0.073498972 0.0092673004
0.022219265 -0.073674403 0.0088739693
0.024109377 -0.075944535 0.0082369149
0.024444794 -0.073334381 0.0080599189
0.025933035 -0.074262783 0.0076822042
0.027317697 -0.074826732 0.0068030059
0.028422508 -0.074609086 0.0063531101
0.029795181 -0.075083859 0.0058006644
0.031010516 -0.075140871 0.00541839
0.031924073 -0.074489497 0.0050982237
-0.016607674 -0.073548265 0.0050531924
-0.015390272 -0.07339976 0.0058116615
-0.014095779 -0.072828189 0.0059961677
-0.012869168 -0.072535314 0.0058646798
-0.011742005 -0.072800428 0.0058360994
-0.010622663 -0.073178351 0.0055284798
-0.0094141355 -0.07295955 0.0058516562
0.014051232 -0.072598033 0.0071874261
0.015052485 -0.071788773 0.0087736547
0.016507154 -0.073103115 0.0095251799
0.017614368 -0.07280606 0.0096241534
0.018723581 -0.072553881 0.009586066
0.019834887 -0.072338998 0.0095106065
0.021137305 -0.072806269 0.0091296732
0.022423428 -0.073171183 0.0090613961
0.02337819 -0.072472394 0.0085906684
0.024450766 -0.072187975 0.0082788765
0.025960732 -0.073162064 0.0071879923
0.027166333 -0.073230982 0.0067435205
0.028179979 -0.072798274 0.0062699616
0.029633759 -0.073491722 0.0057465434
-0.01525546 -0.071583308 0.0050507188
0.016356861 -0.071269184 0.0076943636
0.017444219 -0.070939824 0.0088904798
0.018588822 -0.070869885 0.0088764727
0.019775487 -0.070959099 0.0087888241
0.021190498 -0.07181225 0.0086628497
0.022174492 -0.071191795 0.0088904798
0.023352122 -0.071223974 0.0080545247
0.024902251 -0.072335109 0.0077629387
0.025783625 -0.071490958 0.0072840452
0.027003573 -0.07161817 0.0072099864
0.028707445 -0.072964758 0.0066209137
0.029610366 -0.072249293 0.0058272779
0.030654037 -0.071919084 0.0055765808
0.017834408 -0.071337633 0.0064936876
0.018678822 -0.070045575 0.0079915226
0.019815246 -0.069936164 0.0081666708
0.021093547 -0.070311829 0.0081039369
0.022282498 -0.070365779 0.0083506405
0.023468232 -0.070404693 0.0080879927
0.024730457 -0.070658445 0.0078336298
0.025706645 -0.070109032 0.0074388087
0.02714685 -0.070817873 0.0070254803
0.028257361 -0.070643403 0.0060827434
0.02943483 -0.070643589 0.0059287846
0.019920066 -0.069134347 0.0078241527
0.020998634 -0.068828851 0.0076372325
0.022348778 -0.069398835 0.0082226992
0.023446742 -0.06916789 0.0078829825
0.024704076 -0.069406688 0.0077835619
0.025683003 -0.068877138 0.0068022013
0.026971128 -0.069186807 0.0069065094
0.02871312 -0.070586421 0.0058620274
0.029911024 -0.070590019 0.0050285757
0.022290079 -0.068043396 0.0058301687
0.023423892 -0.067929283 0.006419152
0.024732469 -0.068308726 0.0063928962
0.026197106 -0.069065101 0.005898118
0.027130885 -0.068417013 0.0053578615
0.028567569 -0.069038294 0.0050097108
0.0011829914 -0.063881539 0.0050822496
0.0023701044 -0.063992821 0.005351007
0.0035700917 -0.064261653 0.0055520236
0.0047585559 -0.064240508 0.0055724084
0.0059666121 -0.064439416 0.0057930052
0.0071476251 -0.064328626 0.0056649446
0.0084234308 -0.064980753 0.0056428611
0.0096336398 -0.065027066 0.0054356456
-0.0012017398 -0.063692212 0.0055319369
0 -0.063120693 0.0058808029
0.001184371 -0.062771663 0.0061267912
0.0023554342 -0.062419005 0.0070427954
0.0035290741 -0.062346976 0.0070427954
0.0047772387 -0.063298412 0.0074273646
0.0059259813 -0.062815405 0.0077566803
0.0071112998 -0.062816478 0.0073464513
0.0082518198 -0.062478062 0.0074015856
0.0094599435 -0.062672123 0.0066084862
0.010827214 -0.063760266 0.0056748092
-0.002383532 -0.061971832 0.0060125291
-0.0011935447 -0.062064324 0.0069027245
0 -0.06162715 0.0079103708
0.001182696 -0.061500188 0.0080938041
0.0023320925 -0.060634404 0.0085973144
0.0035412339 -0.061381388 0.0089313984
0.0047315373 -0.061509985 0.0089909732
0.0059224823 -0.061593816 0.0094328821
0.0070847962 -0.061401565 0.009160459
0.0083104772 -0.061734971 0.0090069473
0.0095128436 -0.061833482 0.0077799559
0.010678897 -0.061700292 0.006698519
0.012035338 -0.062583759 0.0063420236
-0.0035937841 -0.061094329 0.0068088174
-0.002382728 -0.060759563 0.0078148246
-0.0011900342 -0.060691744 0.0090464652
0 -0.060297143 0.0094250143
0.0011908875 -0.060735263 0.0093311369
0.0023523739 -0.059985537 0.0095205605
0.0035628818 -0.060568992 0.0108293
0.0047389469 -0.060421575 0.011327922
0.0059384499 -0.060572192 0.011054605
0.0071434472 -0.0607193 0.011040419
0.0083464812 -0.060810082 0.010989487
0.0095047504 -0.060592782 0.0099390447
0.010721344 -0.060754284 0.0085050464
0.011886306 -0.060620159 0.0075507164
0.013121666 -0.060836814 0.0071380734
0.014447309 -0.061401062 0.0050671697
-0.0047841193 -0.059801493 0.006557405
-0.0036048088 -0.060080148 0.0079186559
-0.0023700835 -0.059252087 0.009790808
-0.0011901122 -0.059505612 0.010658979
0 -0.058823086 0.010997564
0.0011821878 -0.059109394 0.011449009
0.0023675233 -0.059188083 0.011766732
0.0035444638 -0.059074394 0.011951745
0.0047241412 -0.059051763 0.012402982
0.0059351819 -0.05935182 0.0125857
0.0070404229 -0.058670189 0.012530416
0.0082557304 -0.058969501 0.01227501
0.0094146887 -0.058841802 0.010991186
0.010737953 -0.059655294 0.01033324
0.011843819 -0.059219092 0.0089050829
0.01313191 -0.059690498 0.0081517398
0.014380258 -0.059917741 0.0068714023
0.015510869 -0.059657186 0.0051719844
-0.0072258948 -0.059011474 0.0053257942
-0.0059958799 -0.058759622 0.0068513751
-0.0047795274 -0.058549207 0.0084862113
-0.0035503432 -0.057988938 0.010419101
-0.0023693705 -0.058049582 0.011299431
-0.0011743333 -0.057542328 0.011936694
0 -0.057548482 0.012016475
0.0011821971 -0.057927657 0.012300164
0.0023423047 -0.057386462 0.013089508
0.0035223633 -0.057531931 0.013401926
0.0047288109 -0.057927933 0.014211088
0.0059206001 -0.058021881 0.014121145
0.0070393775 -0.057488251 0.013675809
0.0082485396 -0.057739779 0.013590187
0.0094288997 -0.057752009 0.012841821
0.010549356 -0.057435382 0.01183635
0.011803691 -0.057838086 0.010724306
0.012985891 -0.057846241 0.0092019737
0.014299949 -0.058391459 0.008189261
0.015538718 -0.05856901 0.007057786
0.016788889 -0.058761109 0.0051957965
-0.0082319099 -0.056447383 0.0058915317
-0.0071439878 -0.057151902 0.007620275
-0.0059663286 -0.057276756 0.0091520548
-0.0047368645 -0.056842372 0.010318011
-0.0035359007 -0.056574412 0.012603313
-0.0023925402 -0.057420965 0.012873173
-0.0011742127 -0.056362208 0.013742536
0 -0.056008309 0.014820248
0.0011821379 -0.05674262 0.015363872
0.0023477937 -0.05634705 0.015651971
0.0035585784 -0.056937255 0.016022027
0.004684926 -0.056219112 0.016470611
0.0058185034 -0.055857636 0.015779316
0.0071450844 -0.057160676 0.015746444
0.0082664713 -0.056684375 0.015035897
0.0094518298 -0.056710977 0.014197558
0.01074629 -0.057313547 0.013653189
0.011750686 -0.056403294 0.012338668
0.013056966 -0.056975849 0.011360466
0.014220272 -0.056881089 0.0094513297
0.015438152 -0.05700241 0.008625716
0.016852899 -0.057781365 0.006844312
-0.0096663423 -0.056789763 0.0057484508
-0.0084136426 -0.056491602 0.0078676939
-0.0072090607 -0.056470979 0.0097340345
-0.0059754471 -0.056169204 0.01080057
-0.0047631785 -0.05596735 0.013044238
-0.0035371638 -0.055415567 0.014353156
-0.0023644865 -0.055565432 0.015500188
-0.001177377 -0.055336718 0.016393453
0 -0.055437181 0.016741961
0.0011650618 -0.054757908 0.017703772
0.0023639987 -0.055553969 0.018072784
0.0034967444 -0.054782327 0.018023968
0.0046663694 -0.05482984 0.018227011
0.0058519999 -0.055008799 0.018475354
0.0070258169 -0.055035565 0.018139929
0.0081187943 -0.054511905 0.017744869
0.0093830284 -0.055125292 0.016532093
0.010575094 -0.055225495 0.015566915
0.011818889 -0.055548776 0.014805883
0.013119251 -0.056054983 0.013210326
0.014174867 -0.055518232 0.011674613
0.015416696 -0.055737283 0.0097243786
0.016686497 -0.056018956 0.0089396536
0.018043093 -0.056535028 0.0069214404
0.01925775 -0.05656964 0.0050688684
-0.010881083 -0.055614423 0.0062297881
-0.0095872488 -0.055126682 0.0079744458
-0.0083290683 -0.054733876 0.010372669
-0.0071376623 -0.054722078 0.011103511
-0.0058677844 -0.053983614 0.013843328
-0.004766786 -0.054818042 0.014834911
-0.0035694982 -0.054732304 0.01610291
-0.0023501939 -0.054054461 0.016648829
-0.0011647433 -0.053578194 0.017150521
0 -0.053048301 0.018195033
0.0011566955 -0.053207994 0.018488735
0.0022988589 -0.052873753 0.019394934
0.0034787792 -0.053341281 0.019277483
0.0046636323 -0.053631771 0.019277483
0.0058083441 -0.053436767 0.019503206
0.0069562397 -0.05333117 0.019418985
0.0082518328 -0.054226328 0.018941849
0.0094321752 -0.054235008 0.01872921
0.010633674 -0.054349884 0.017907351
0.011869347 -0.054598995 0.016397327
0.012939446 -0.054110408 0.015408009
0.014218589 -0.054504592 0.013512641
0.015444256 -0.054648906 0.012155592
0.016856929 -0.055387054 0.010111958
0.017930504 -0.054986879 0.0087983012
0.019310191 -0.055516802 0.0066840947
-0.012091619 -0.054412287 0.0056970119
-0.010779966 -0.053899832 0.0084065795
-0.0096719442 -0.054404687 0.011092007
-0.00825937 -0.053095952 0.011621863
-0.0070943795 -0.053207844 0.014082938
-0.0057725734 -0.051953163 0.016729474
-0.0045282003 -0.050942253 0.017300546
-0.0033836039 -0.050754059 0.017661303
-0.0022454062 -0.050521642 0.020341992
-0.0011262499 -0.050681245 0.020845324
0 -0.050138153 0.021597624
0.0011272865 -0.050727889 0.022792816
0.0022518691 -0.050667055 0.023980469
0.0033967732 -0.0509516 0.02381736
0.0044899122 -0.050511513 0.023980469
0.0055649839 -0.050084855 0.023619086
0.0066781174 -0.050085884 0.022944927
0.0078185573 -0.050262157 0.022551894
0.0090028616 -0.050641097 0.021778226
0.010239048 -0.051195242 0.020037413
0.011519891 -0.051839512 0.019139618
0.012943243 -0.05294963 0.017765731
0.014337552 -0.053765818 0.01635924
0.015503408 -0.053665645 0.01486668
0.016863478 -0.054204039 0.012711853
0.017942084 -0.053826254 0.010320872
0.019265041 -0.054182928 0.0086694062
0.020464929 -0.054171868 0.0061058998
-0.013463871 -0.053855482 0.005205363
-0.011917631 -0.052437577 0.0078149438
-0.010819221 -0.05289397 0.011543155
-0.0092874337 -0.051080886 0.01408419
-0.0079301568 -0.049846701 0.016223371
-0.0067810928 -0.049728014 0.017872781
-0.0056242794 -0.049493659 0.021061331
-0.004530279 -0.049833067 0.022364259
-0.0034334511 -0.050357282 0.025438726
-0.0022801012 -0.050162226 0.026601046
-0.0011374395 -0.050047338 0.027709931
0 -0.050280899 0.028179169
0.0011295741 -0.049701259 0.029682457
0.0022551029 -0.049612261 0.029991865
0.0033719926 -0.049455892 0.030319422
0.0045024767 -0.049527243 0.030976444
0.0056666522 -0.049866538 0.030804276
0.0068045035 -0.049899694 0.029204905
0.0079250364 -0.049814515 0.029275388
0.0090036029 -0.049519815 0.026113421
0.01017021 -0.049721029 0.025116056
0.011272743 -0.049600068 0.023511916
0.012345569 -0.049382277 0.020205051
0.013606613 -0.049890913 0.01884678
0.01504356 -0.050916664 0.017063737
0.016649827 -0.052328028 0.015664786
0.017793616 -0.052194607 0.013488621
0.019110592 -0.052554127 0.010585308
0.020285308 -0.05250315 0.0071404576
0.021287637 -0.052036449 0.005425334
-0.014428956 -0.051703759 0.0054733753
-0.013143685 -0.051379859 0.0084013343
-0.011563744 -0.049724102 0.012727708
-0.010114473 -0.048324704 0.015832424
-0.0090862205 -0.048838433 0.019185156
-0.0080489684 -0.049443662 0.022790641
-0.0068185534 -0.048866302 0.02586925
-0.0056896391 -0.048930898 0.028707564
-0.0045267195 -0.048662234 0.029847085
-0.0034150516 -0.048949074 0.030137062
-0.0022523475 -0.04842547 0.031728238
-0.0011294768 -0.048567507 0.032332391
0 -0.04855717 0.032487482
0.0011303915 -0.048606835 0.034278005
0.002260274 -0.048595894 0.035164952
0.0033870656 -0.048547938 0.035544127
0.0045323288 -0.048722532 0.035516143
0.0056695193 -0.048757866 0.035534292
0.0067369798 -0.048281688 0.035560161
0.0078518093 -0.04823254 0.03562659
0.008971124 -0.048219793 0.034120083
0.010204447 -0.048754584 0.033813745
0.011330287 -0.048720237 0.033562213
0.012387407 -0.048423503 0.028835148
0.013560103 -0.04859037 0.025046766
0.014610534 -0.048327148 0.020270556
0.015864475 -0.0487266 0.019269258
0.017458579 -0.050047927 0.015229523
0.019185094 -0.05155994 0.013164878
0.020223614 -0.051153846 0.010727435
0.022039151 -0.052649081 0.007248193
-0.015792806 -0.05102291 0.0063269138
-0.01408105 -0.049283676 0.0090264678
-0.012466717 -0.047600191 0.014159203
-0.011395687 -0.047861885 0.020568937
-0.01023533 -0.047764871 0.025279671
-0.0091283042 -0.047923595 0.028234929
-0.0079274671 -0.047564805 0.029969543
-0.0067751287 -0.0474259 0.031423181
-0.0056936913 -0.047827009 0.033723414
-0.0045575197 -0.047853958 0.03392902
-0.0034441892 -0.048218649 0.033834964
-0.0022964058 -0.048224524 0.033383906
-0.0011445552 -0.048071317 0.034399182
0 -0.048514515 0.035093039
0.0011451649 -0.048096929 0.035736531
0.002298357 -0.048265498 0.036044538
0.0034564449 -0.048390228 0.03641817
0.0045714215 -0.047999926 0.036771566
0.0056943009 -0.047832128 0.036771566
0.0068706046 -0.048094232 0.036624849
0.0079923347 -0.047954008 0.036622256
0.0091063576 -0.047808375 0.036367297
0.010257276 -0.047867287 0.036471426
0.011259146 -0.047288414 0.036194831
0.012345362 -0.047136836 0.035167336
0.013670021 -0.047845073 0.034365594
0.014755744 -0.047672402 0.032936007
0.015961125 -0.047883373 0.027154177
0.016862936 -0.047216222 0.020763874
0.018117968 -0.047559667 0.016064346
0.019943271 -0.049271613 0.013283968
0.021496758 -0.0501591 0.010623366
0.023201052 -0.051286533 0.0077674091
-0.014879475 -0.046927575 0.0097530782
-0.013696479 -0.0467963 0.01486516
-0.012470186 -0.046479784 0.025967807
-0.0113452 -0.046515319 0.028168529
-0.010343508 -0.047120426 0.030435413
-0.0091010779 -0.046643022 0.0321953
-0.0080107599 -0.046920165 0.033973396
-0.0070254072 -0.048006948 0.034690648
-0.0059263473 -0.048596047 0.035119951
-0.0047873063 -0.049069889 0.035064965
-0.0036512883 -0.049900942 0.034893721
-0.0024230108 -0.049671721 0.035173416
-0.001188712 -0.048737191 0.035263538
0 -0.047679853 0.036262155
0.0011815779 -0.048444696 0.036600888
0.0023978893 -0.049156729 0.036674052
0.0035570841 -0.048613481 0.037047684
0.0046917018 -0.048089944 0.037173718
0.0058199535 -0.047723621 0.037173718
0.0071713654 -0.049004331 0.037161142
0.0084840404 -0.049692236 0.037116706
0.0096736448 -0.049577426 0.037068516
0.010553088 -0.048075181 0.037497491
0.011610969 -0.047604974 0.037499011
0.012702171 -0.047344454 0.03706789
0.013648207 -0.046631373 0.036405593
0.01473766 -0.046480313 0.035610139
0.015877666 -0.04649888 0.035085917
0.017023956 -0.046532147 0.030256003
0.018229268 -0.046712499 0.028272539
0.01917915 -0.0462556 0.018059433
0.020780977 -0.047334448 0.013816684
0.022997594 -0.049626388 0.0098148286
0.0243573 -0.049932469 0.0064812601
-0.015996302 -0.04570372 0.0094647706
-0.014915965 -0.045895278 0.015858889
-0.013803302 -0.046011008 0.027162075
-0.012600297 -0.04581926 0.028819323
-0.011364742 -0.045458969 0.03032738
-0.010461498 -0.046495549 0.032015592
-0.0095273629 -0.047636814 0.032984406
-0.0084900409 -0.048514519 0.034737945
-0.0073228348 -0.048818897 0.035401911
-0.0058227158 -0.046581727 0.035619199
-0.0044668498 -0.044668496 0.035688251
-0.0033081386 -0.044108514 0.035582602
-0.0021689972 -0.043379944 0.035670459
-0.0010827405 -0.043309622 0.035670459
0 -0.042885367 0.03685987
0.0010932283 -0.043729134 0.037007809
0.0020699741 -0.041399483 0.037167817
0.0030633893 -0.040845189 0.037541449
0.0043692938 -0.043692939 0.037559479
0.0054062847 -0.043250278 0.037559479
0.0064587859 -0.043058574 0.037559479
0.007585302 -0.043344583 0.037817001
0.0087962896 -0.043981448 0.037903041
0.010044531 -0.044642359 0.038159043
0.011662819 -0.046651278 0.038131744
0.01313601 -0.047767308 0.038699061
0.014324774 -0.047749247 0.038360476
0.015286745 -0.047036137 0.036910504
0.015958764 -0.045596469 0.036891103
0.016940838 -0.045175564 0.036008656
0.018187407 -0.045468517 0.033785224
0.019334558 -0.045493077 0.030518413
0.020494869 -0.045544151 0.022643805
0.021857794 -0.04601641 0.014417082
0.024230706 -0.048461411 0.0081321597
-0.017195785 -0.044709042 0.005381912
-0.016008196 -0.044594262 0.016168803
-0.014927011 -0.044781033 0.027253956
-0.013796677 -0.0448392 0.029301196
-0.012749774 -0.045203745 0.03069815
-0.012039493 -0.046954025 0.032212645
-0.010942074 -0.047415655 0.033435762
-0.0094210124 -0.045927435 0.033789545
-0.0077794548 -0.043342676 0.034642428
-0.0065418044 -0.04252173 0.035045952
-0.0054391921 -0.042425696 0.035085231
-0.0043346472 -0.042262811 0.035051763
-0.0032503253 -0.042254228 0.035038352
-0.0021717951 -0.042350005 0.035228699
-0.0010931029 -0.042631011 0.03510049
0 -0.042236391 0.035155058
0.0010958468 -0.042738024 0.035239011
0.0021798438 -0.042506956 0.035712391
0.0032923971 -0.042801164 0.036195695
0.0043636705 -0.042545788 0.036749959
0.0053943782 -0.042076152 0.037338614
0.006482543 -0.042136528 0.037602305
0.007553271 -0.042082507 0.038407207
0.008691893 -0.042372975 0.038949281
0.0097098295 -0.042075925 0.039236039
0.0108417 -0.04228263 0.039334059
0.011838597 -0.041973207 0.039337516
0.013362239 -0.043427277 0.039268374
0.015406329 -0.046218988 0.039044946
0.017028544 -0.047436658 0.038116127
0.017803589 -0.046289328 0.037307203
0.018197099 -0.04435543 0.036730081
0.019365568 -0.044426892 0.034015179
0.020569364 -0.044566955 0.030971915
0.021419136 -0.043965593 0.023229599
0.02305771 -0.044962533 0.014002502
0.025568062 -0.047483545 0.0053702891
-0.017373852 -0.044013761 0.016782612
-0.016149664 -0.043834805 0.025664777
-0.014980745 -0.043789867 0.029655606
-0.014275595 -0.045206048 0.030892432
-0.013497229 -0.046626791 0.032369822
-0.011435918 -0.043456487 0.033015609
-0.0099302894 -0.041927885 0.033882737
-0.0087171718 -0.041406568 0.033876926
-0.0076364181 -0.04145484 0.03428787
-0.0065446692 -0.041449573 0.034881055
-0.0054842592 -0.04168037 0.035097778
-0.0043682633 -0.041498501 0.034899563
-0.0033349865 -0.04224316 0.034874141
-0.0022006766 -0.041812852 0.034586102
-0.0010924219 -0.041512031 0.034657836
0 -0.041305948 0.034907132
0.0010764465 -0.040904969 0.035054684
0.0021588483 -0.041018117 0.035871327
0.0032713306 -0.041436855 0.035947084
0.0044541117 -0.04231406 0.036521018
0.0056491834 -0.042933792 0.037248731
0.0066207577 -0.041931465 0.037272871
0.00758478 -0.04117452 0.03792578
0.0087318029 -0.041476063 0.038677871
0.0097624073 -0.041219052 0.038852662
0.010849522 -0.041228186 0.039455593
0.011942409 -0.041255593 0.039091468
0.013037386 -0.041285057 0.038976401
0.014033999 -0.041022461 0.038919836
0.015481668 -0.042021669 0.038907081
0.0176188 -0.04463429 0.038249791
0.019140553 -0.045458812 0.038026422
0.019765142 -0.044180904 0.036871344
0.020469395 -0.043213166 0.033804208
0.021736015 -0.043472029 0.03223753
0.022879669 -0.04347137 0.024199665
0.024200879 -0.043792069 0.0089095533
-0.018497858 -0.042776294 0.015745878
-0.017335193 -0.042760141 0.023678333
-0.016210837 -0.042842928 0.029251337
-0.016144315 -0.045949202 0.03058818
-0.014262207 -0.043975137 0.032072335
-0.012135315 -0.040818784 0.032868415
-0.010848135 -0.040138099 0.033168018
-0.0097935265 -0.040262278 0.032723993
-0.0088038454 -0.040717784 0.033083022
-0.007701165 -0.040706158 0.034066647
-0.0065928535 -0.04065593 0.03469336
-0.0055228886 -0.040869378 0.035161406
-0.0046062255 -0.042607587 0.034948289
-0.0033929187 -0.041846 0.03477639
-0.0022800292 -0.042180542 0.034772336
-0.0011468544 -0.042433612 0.034882367
0 -0.04179303 0.034990102
0.0011582565 -0.04285549 0.035020262
0.0023073452 -0.042685885 0.035734862
0.0034529155 -0.042585958 0.036426604
0.0045554978 -0.042138353 0.036982149
0.0056472654 -0.041789766 0.037261277
0.0068869586 -0.042469576 0.037472427
0.0079538021 -0.042041525 0.038315952
0.0089760013 -0.041514006 0.038752556
0.0098917307 -0.040666003 0.039018899
0.010954197 -0.040530525 0.039028347
0.011926802 -0.040117424 0.039018899
0.013037913 -0.040200233 0.039250523
0.01425957 -0.040584929 0.039019674
0.015236584 -0.040268112 0.038905054
0.016281391 -0.040160764 0.038813114
0.017817445 -0.041202843 0.038464159
0.020407954 -0.044417311 0.038208723
0.021839602 -0.044892512 0.034505963
0.021880327 -0.042609058 0.033694029
0.022787966 -0.042157736 0.031055182
0.024013815 -0.042310055 0.016562283
-0.019647378 -0.041606214 0.012425572
-0.018518899 -0.041667521 0.018617898
-0.017883182 -0.042919639 0.025962174
-0.017983213 -0.046242546 0.030406564
-0.014893038 -0.04124226 0.031414866
-0.01311442 -0.039343257 0.032760173
-0.012106891 -0.039622553 0.03282553
-0.01091007 -0.03927625 0.0328587
-0.009876702 -0.039506808 0.032526165
-0.0088387653 -0.039774444 0.032728791
-0.0078157904 -0.040195491 0.033489376
-0.0068473015 -0.041083809 0.035036892
-0.0057727359 -0.041563697 0.035471767
-0.0046234401 -0.041610964 0.035840899
-0.003412599 -0.040951189 0.03614822
-0.0022925395 -0.041265711 0.036215037
-0.0011427441 -0.041138787 0.036483437
0 -0.041404516 0.036756217
0.0011384761 -0.040985137 0.037406802
0.0022755894 -0.040960606 0.037917256
0.0034575956 -0.041491147 0.038035154
0.0045988085 -0.041389275 0.038752556
0.0056834184 -0.040920611 0.038733423
0.0069511868 -0.041707121 0.03857094
0.0080359895 -0.041327946 0.038929701
0.0090923607 -0.040915623 0.039113373
0.010287065 -0.04114826 0.039031774
0.011480595 -0.04133014 0.039031774
0.012487032 -0.040866651 0.038855642
0.013666582 -0.040999748 0.039093763
0.014649033 -0.040566552 0.039240241
0.015230279 -0.039163575 0.039376229
0.016305711 -0.039133709 0.038867295
0.017257532 -0.038829446 0.038692206
0.018556893 -0.039296947 0.038800061
0.020514678 -0.041029356 0.035632759
0.023804229 -0.045102749 0.034691364
0.023076117 -0.041537013 0.033584028
0.024079781 -0.041279625 0.030221194
0.024994025 -0.040899314 0.011448145
-0.019926433 -0.041025005 0.01645276
-0.019179264 -0.04195464 0.019411266
-0.018384423 -0.042896986 0.026539803
-0.015799701 -0.039499257 0.031150579
-0.014160625 -0.038124759 0.032202214
-0.013328329 -0.038874291 0.032376826
-0.012156162 -0.038678698 0.03272891
-0.011379092 -0.039826825 0.032394111
-0.010382232 -0.040375348 0.031555414
-0.0092169493 -0.040324152 0.032953441
-0.0081211096 -0.040605549 0.033789366
-0.0069692815 -0.040654141 0.035601884
-0.0058496953 -0.040947869 0.036415428
-0.0046635489 -0.040806051 0.036720455
-0.0034457922 -0.040200908 0.036919922
-0.002289061 -0.040058564 0.037293613
-0.0011403342 -0.039911695 0.037505269
0 -0.040498666 0.038684517
0.0011403951 -0.039913829 0.039244771
0.0023125953 -0.040470418 0.039635658
0.0034167098 -0.039861616 0.039789677
0.0045808763 -0.040082667 0.040007293
0.0057558077 -0.040290657 0.040002733
0.0068906378 -0.040195387 0.040091813
0.00794743 -0.03973715 0.040605813
0.0092008561 -0.040253747 0.040541947
0.010209423 -0.039703313 0.040409356
0.011382749 -0.039839622 0.040314734
0.012614064 -0.040135656 0.039556205
0.013692526 -0.039936535 0.039658874
0.015077996 -0.040594604 0.039582312
0.015855152 -0.039637879 0.03959316
0.01637928 -0.038218323 0.039560676
0.017401312 -0.03806537 0.039076507
0.018465243 -0.038016677 0.038587391
0.019371688 -0.037667174 0.036016673
0.021127092 -0.038918328 0.035678744
0.025205569 -0.044109747 0.034730524
0.024154544 -0.040257573 0.032172412
0.025253156 -0.040175475 0.022129625
-0.021057177 -0.039774667 0.013278991
-0.02115907 -0.042318139 0.018213987
-0.019269254 -0.040947165 0.020004332
-0.016781745 -0.038038623 0.026524395
-0.015440029 -0.037497215 0.031855881
-0.014394623 -0.037647475 0.032638729
-0.013425133 -0.038037878 0.032925695
-0.012802684 -0.03957193 0.032773286
-0.011417708 -0.038820211 0.032791942
-0.010368161 -0.039168607 0.032522619
-0.0092532067 -0.039326128 0.033532202
-0.0081882514 -0.039771508 0.035151899
-0.0069683101 -0.03948709 0.036695033
-0.0058912556 -0.040060535 0.037247449
-0.0046867994 -0.039837793 0.037498772
-0.0034297616 -0.038870633 0.037636667
-0.0022832511 -0.038815267 0.037967235
-0.0011426117 -0.038848799 0.038065344
0 -0.038828194 0.039336801
0.0011415143 -0.038811486 0.039891332
0.0023134912 -0.03932935 0.040219933
0.0034092767 -0.038638469 0.04028222
0.0045434078 -0.038618967 0.040574133
0.0057196417 -0.038893562 0.040591449
0.0067777433 -0.038407214 0.040713698
0.0081037618 -0.03936113 0.04137522
0.0091542136 -0.038905408 0.041847616
0.01032976 -0.039023537 0.041852206
0.011425023 -0.038845077 0.041306198
0.012610948 -0.038979292 0.040242285
0.013707413 -0.038837671 0.040199786
0.015198682 -0.039750397 0.039877146
0.0162035 -0.039351359 0.039841533
0.017015701 -0.038568921 0.039455295
0.017713599 -0.037641399 0.039050221
0.018519493 -0.037038986 0.038393497
0.019547533 -0.036923118 0.036200166
0.020929661 -0.037453078 0.035487086
0.022074822 -0.037527196 0.034851342
0.026521651 -0.042939816 0.032683641
0.025771935 -0.039829351 0.027945995
0.026453821 -0.03910565 0.01334241
-0.021443313 -0.039312739 0.016861647
-0.020989427 -0.040744182 0.019432008
-0.018034525 -0.037196208 0.020838082
-0.016394505 -0.03606791 0.026112765
-0.015615975 -0.036809087 0.032289475
-0.014362353 -0.03645828 0.032988489
-0.013885286 -0.038184535 0.033134848
-0.013058247 -0.039174743 0.032849789
-0.011684195 -0.038557842 0.032955617
-0.010346894 -0.037938613 0.03298974
-0.0093093961 -0.038401257 0.033797085
-0.0081507964 -0.038425185 0.035357028
-0.006987778 -0.038432781 0.037365705
-0.0058760801 -0.038782127 0.038212121
-0.0047212359 -0.038950197 0.038417518
-0.003466384 -0.038130224 0.038548052
-0.002290962 -0.037800871 0.038979679
-0.0011418947 -0.037682526 0.039092869
0 -0.037549857 0.040245354
0.0011425044 -0.037702646 0.040664732
0.0022827927 -0.037666079 0.04105562
0.0034548617 -0.038003478 0.04105562
0.0046010166 -0.037958387 0.04157722
0.005595657 -0.036931336 0.041674435
0.006916821 -0.038042516 0.041726768
0.008033881 -0.037874013 0.042001247
0.0091782222 -0.03786017 0.042283237
0.010332084 -0.037884306 0.04239738
0.011469051 -0.037847869 0.042374581
0.012595017 -0.037785053 0.040851504
0.013746345 -0.03780245 0.040275335
0.015208362 -0.038605843 0.040275335
0.01621649 -0.038224585 0.040194988
0.017471937 -0.038438261 0.040091962
0.0184166 -0.037984237 0.039501518
0.019405123 -0.037668768 0.03854233
0.019885493 -0.036456738 0.036927521
0.020831618 -0.03618123 0.036566377
0.02193388 -0.036190901 0.035438478
0.023368999 -0.036722712 0.033569872
0.026940044 -0.040410064 0.028556705
0.026634736 -0.038215056 0.019259334
-0.022389125 -0.037707999 0.0071811974
-0.02327521 -0.041378152 0.018022388
-0.019109113 -0.035970096 0.020272166
-0.017762735 -0.035525471 0.021791071
-0.016842417 -0.035930492 0.026846468
-0.015811427 -0.036140405 0.032118469
-0.015187847 -0.037385471 0.033775926
-0.014339463 -0.03823857 0.033775926
-0.013335158 -0.038793188 0.033399731
-0.011436823 -0.036597833 0.033396512
-0.010344765 -0.036781386 0.033529341
-0.0093021337 -0.037208535 0.034549981
-0.0081030531 -0.037042528 0.036169201
-0.0069669695 -0.03715717 0.038084745
-0.0057922918 -0.037070666 0.039070666
-0.0046495693 -0.037196554 0.039180398
-0.0034267183 -0.036551662 0.039287299
-0.0022843925 -0.03655028 0.039841712
-0.0011335502 -0.036273606 0.039982796
0 -0.036515623 0.041069537
0.0011370251 -0.036384802 0.041566849
0.0022876845 -0.036602952 0.041860402
0.0034420807 -0.036715526 0.041860402
0.0045052152 -0.036041722 0.041957736
0.0056840903 -0.036378175 0.042188674
0.0068543218 -0.036556385 0.042235315
0.0079554226 -0.036367647 0.042910308
0.0091987597 -0.036795039 0.043316662
0.010306368 -0.036644861 0.043461561
0.011358814 -0.036348205 0.04317373
0.012574317 -0.036579832 0.0414747
0.013690129 -0.03650701 0.040852487
0.015009624 -0.036946766 0.04081139
0.016501477 -0.037717659 0.040609419
0.017466549 -0.03726197 0.04046917
0.018673044 -0.037346087 0.038948447
0.019708635 -0.037098609 0.038568795
0.020546688 -0.036527444 0.037302047
0.021914754 -0.036909059 0.037078619
0.022192234 -0.035507575 0.036372125
0.022790037 -0.034727678 0.034599513
0.024564432 -0.035730083 0.030165941
0.02823632 -0.039285317 0.02323842
0.027759656 -0.037012875 0.0091942847
-0.023820231 -0.038864587 0.014385462
-0.020503944 -0.035312347 0.020473182
-0.019035626 -0.034712024 0.020965725
-0.017986922 -0.034849659 0.022246391
-0.017219821 -0.035587631 0.026588827
-0.016523629 -0.036588039 0.030451179
-0.015418324 -0.036766771 0.032979608
-0.014427177 -0.037270207 0.033701986
-0.013337803 -0.037588354 0.03343308
-0.011606243 -0.035979349 0.03343308
-0.010424846 -0.035907801 0.03376928
-0.0092967637 -0.036024958 0.034900159
-0.0082097137 -0.036357306 0.036996096
-0.0069775707 -0.036050782 0.038755894
-0.005827643 -0.036131386 0.039703697
-0.0046537118 -0.036066268 0.039810181
-0.0034276336 -0.035418879 0.040158123
-0.0022487929 -0.03485629 0.040688902
-0.0011337949 -0.035147641 0.041285604
0 -0.0355446 0.042174071
0.0011340997 -0.035157088 0.042567968
0.002284637 -0.035411872 0.042864293
0.0033978252 -0.035110861 0.042818964
0.0045815385 -0.035506923 0.042617023
0.0056359381 -0.034942817 0.042982578
0.0068290886 -0.035283625 0.042848319
0.0080117453 -0.035480589 0.044134468
0.009191446 -0.035616852 0.044014335
0.010294851 -0.03546004 0.043650448
0.011425246 -0.035418265 0.043483675
0.012536785 -0.035330936 0.041835815
0.013599466 -0.035131954 0.04120931
0.015074569 -0.035947047 0.041240454
0.016607216 -0.036773123 0.04100734
0.017341351 -0.035838794 0.040815413
0.018803623 -0.036432017 0.03948012
0.01960716 -0.035754234 0.038791001
0.020708928 -0.035665378 0.037485927
0.022549912 -0.036791962 0.037416309
0.022268988 -0.034516934 0.036545277
0.023274625 -0.034357779 0.035682321
0.024048917 -0.033887111 0.033194244
0.026675478 -0.035953905 0.023606569
0.028827215 -0.037235152 0.014658004
-0.023145521 -0.03654556 0.016389459
-0.020435866 -0.034059778 0.020677626
-0.019158736 -0.033809535 0.021321058
-0.01898377 -0.035594568 0.022678792
-0.017496567 -0.034993134 0.025554359
-0.016875738 -0.036162294 0.029859185
-0.015599575 -0.035999019 0.03243196
-0.014315917 -0.035789791 0.032997042
-0.013301487 -0.036276784 0.033041656
-0.011456257 -0.034368768 0.033809006
-0.010345248 -0.034484159 0.03399685
-0.0092113772 -0.034542665 0.035268277
-0.008192162 -0.035109267 0.037368149
-0.0069497298 -0.034748647 0.039726585
-0.0058193738 -0.034916241 0.040377587
-0.0046244212 -0.034683157 0.040524662
-0.0033500786 -0.033500783 0.040894479
-0.0022692624 -0.034038939 0.042211086
-0.0011306189 -0.033918563 0.043452054
0 -0.034235034 0.04654932
0.0011368972 -0.034106918 0.047777832
0.0022464651 -0.033696976 0.04810822
0.0034179213 -0.034179214 0.046667606
0.0044469247 -0.033351935 0.046569109
0.0054292823 -0.032575693 0.047151327
0.0067182425 -0.033591215 0.04628545
0.0079468498 -0.034057926 0.04702878
0.0091557968 -0.034334235 0.046393454
0.01028711 -0.034290366 0.045667976
0.011329507 -0.033988517 0.044444799
0.012468343 -0.034004573 0.043823928
0.013641797 -0.034104493 0.042430699
0.015098228 -0.034842066 0.042003661
0.016427128 -0.035200991 0.041573018
0.017670171 -0.035340343 0.041278988
0.018384436 -0.034470819 0.039833665
0.019774755 -0.034896627 0.038992882
0.021078186 -0.035130311 0.037336677
0.022506928 -0.035537258 0.038158923
0.023398833 -0.035098251 0.03744489
0.023165869 -0.033094097 0.036170602
0.024240313 -0.033054974 0.033454835
0.025551349 -0.033327844 0.024118513
0.029982096 -0.03747762 0.01763764
-0.021508297 -0.032828454 0.016589016
-0.02039288 -0.032855194 0.020999432
-0.019346934 -0.033003591 0.021914184
-0.019269994 -0.034926865 0.023345023
-0.017828904 -0.034469213 0.025894016
-0.016704071 -0.03460129 0.028182864
-0.015508268 -0.034595367 0.032248378
-0.014450233 -0.034921397 0.032839745
-0.013360267 -0.035222519 0.033932626
-0.011461599 -0.033238638 0.034572214
-0.010296308 -0.033176992 0.034955621
-0.0092809768 -0.03364354 0.037056267
-0.0079851495 -0.03308133 0.040108919
-0.0069273333 -0.033482112 0.040932804
-0.0058034505 -0.033660013 0.043751329
-0.0044512656 -0.032271672 0.043883294
-0.0032485584 -0.031402733 0.047279
-0.002169031 -0.03145095 0.047642648
-0.0010957408 -0.031776484 0.048594743
0 -0.032200813 0.050904691
0.0011114666 -0.03223253 0.052561551
0.0021952402 -0.031830981 0.053047806
0.0032558728 -0.031473435 0.050883263
0.0042725615 -0.03097607 0.050515026
0.0053609693 -0.031093623 0.050965369
0.0064866962 -0.031352364 0.050995499
0.0076882336 -0.031851254 0.051561177
0.0090528158 -0.032816458 0.051644087
0.010147133 -0.032696318 0.049553424
0.011273314 -0.032692611 0.047555029
0.012434015 -0.032780584 0.046049744
0.013497608 -0.032619219 0.044944137
0.014911127 -0.033263285 0.043202102
0.016345035 -0.033857577 0.042599469
0.017401317 -0.033642545 0.04247275
0.018682392 -0.033861838 0.041075349
0.019778637 -0.033740029 0.039659351
0.020969396 -0.033784028 0.037884116
0.022474222 -0.03430276 0.037984192
0.024163129 -0.035036538 0.038000792
0.023478802 -0.032423109 0.0366005
0.024244085 -0.031958111 0.033826739
0.025566474 -0.032235991 0.024851471
0.026907794 -0.032513585 0.018969387
0.029880118 -0.034660935 0.0090512037
-0.021548398 -0.031755533 0.018999994
-0.020412242 -0.031752374 0.021959692
-0.019849684 -0.032693598 0.022764802
-0.019208198 -0.033614349 0.024095744
-0.017631203 -0.03291158 0.026437789
-0.01655023 -0.03310046 0.02887255
-0.015591891 -0.033582535 0.033174008
-0.014536191 -0.033917777 0.03424111
-0.013153562 -0.033481795 0.035210282
-0.011506473 -0.032218125 0.035972893
-0.010274181 -0.03196412 0.03814894
-0.009252524 -0.032383833 0.039960504
-0.0080920719 -0.032368287 0.04223007
-0.0068401773 -0.031920828 0.049488604
-0.0054635783 -0.03059604 0.050786853
-0.0043488014 -0.030441612 0.051255018
-0.0032647809 -0.030471288 0.051342368
-0.00215632 -0.03018848 0.052685261
-0.0010845087 -0.030366244 0.053420871
0 -0.030057451 0.05358097
0.001078231 -0.030190468 0.053624123
0.0021512003 -0.030116806 0.054252803
0.0032168769 -0.030024184 0.054246992
0.0043085781 -0.030160045 0.054342419
0.0053758202 -0.030104592 0.054794788
0.0064737983 -0.030211058 0.055823177
0.0075358218 -0.030143287 0.05682382
0.0086470647 -0.030264726 0.057142079
0.0098754978 -0.030723771 0.055648685
0.011015384 -0.030843075 0.052094668
0.012034367 -0.030632935 0.048289716
0.013003179 -0.030340752 0.046906024
0.014465797 -0.031157102 0.045967847
0.016309753 -0.032619506 0.04495874
0.017344339 -0.032376099 0.04357329
0.018479353 -0.032338869 0.042696923
0.019555692 -0.032209374 0.040467829
0.020558005 -0.031979118 0.038819492
0.022376603 -0.032976046 0.038878381
0.0241894 -0.033865158 0.038935483
0.025008347 -0.033344463 0.037572831
0.024830097 -0.031601943 0.034784734
0.025295939 -0.030795058 0.025417358
0.026609462 -0.031044373 0.020735085
0.030559272 -0.034226384 0.011384606
-0.021660071 -0.030780099 0.019667625
-0.020500515 -0.03075077 0.022629231
-0.021105791 -0.033520959 0.02426973
-0.01904594 -0.032140024 0.025171697
-0.017764118 -0.031975411 0.027260065
-0.01692071 -0.032632798 0.03077966
-0.015574838 -0.032347739 0.035021782
-0.01447 -0.032557499 0.036381066
-0.012983666 -0.031868998 0.037091076
-0.011204001 -0.030250801 0.039137691
-0.010018944 -0.03005683 0.041411936
-0.0089744423 -0.030288745 0.049039423
