ply
format ascii 1.0
comment PCL generated
element vertex 1245
property float x
property float y
property float z
element camera 0
property float view_px
property float view_py
property float view_pz
property float x_axisx
property float x_axisy
property float x_axisz
property float y_axisx
property float y_axisy
property float y_axisz
property float z_axisx
property float z_axisy
property float z_axisz
property float focal
property float scalex
property float scaley
property float centerx
property float centery
property int viewportx
property int viewporty
property float k1
property float k2
end_header
-0.0011370429 -0.09437456 0.0066584051
0 -0.094928376 0.0068061352
0.0011437724 -0.094933107 0.0069734156
0.0022914037 -0.09509325 0.0069779158
0.003442327 -0.09523771 0.0069680214
0.0045680879 -0.094787821 0.0069477558
0.0056926738 -0.094498388 0.0068858266
0.0068509812 -0.094771907 0.0067373216
0.0079644844 -0.094436035 0.0065484047
0.0091789486 -0.095231593 0.0060171783
0.010201401 -0.094079584 0.0059917569
0.011468167 -0.095185794 0.0057893097
0.012616167 -0.095194712 0.0057453513
0.013761387 -0.095182925 0.0055300593
0.014728991 -0.094038948 0.0054132938
0.016135504 -0.095660493 0.00557971
0.01708384 -0.094530582 0.0054924786
0.018054307 -0.093656719 0.0058783293
0.019576166 -0.095577747 0.0059019327
0.020667687 -0.095301002 0.0060630739
0.02178924 -0.095184579 0.0056893826
0.022780698 -0.094539896 0.0053286552
0.023972651 -0.094749048 0.0053920746
0.025242729 -0.095233932 0.0054112971
0.026287626 -0.094864041 0.0051165223
0.027672062 -0.095699213 0.0051165223
-0.027775191 -0.094898567 0.0050942302
-0.026265265 -0.093641378 0.0053486526
-0.025411861 -0.094716936 0.0054576993
-0.024031075 -0.09383563 0.0054824948
-0.023041049 -0.094468303 0.0053335428
-0.021835234 -0.094236277 0.0060545802
-0.020800691 -0.094758704 0.0060913265
-0.019448429 -0.093810067 0.0065170228
-0.018314993 -0.093864344 0.0066952705
-0.01707923 -0.093366459 0.0067285299
-0.015840225 -0.092778467 0.0072770119
-0.014873899 -0.093819976 0.0074300766
-0.01377009 -0.094095618 0.0078164935
-0.012552797 -0.093575396 0.0078314245
-0.011496641 -0.094272457 0.0079632998
-0.010384141 -0.094611071 0.0079904497
-0.0091527412 -0.093815595 0.0075024664
-0.0081070634 -0.094968461 0.0072112381
-0.0068815215 -0.094047457 0.0066052079
-0.005728126 -0.093941264 0.0066307783
-0.0045918454 -0.094132833 0.0064947605
-0.0034232198 -0.093568005 0.0064597726
-0.0023017081 -0.09437003 0.0064967871
-0.0011401311 -0.093490757 0.0067944825
0 -0.094246887 0.00703758
0.00115135 -0.094410695 0.0072338879
0.002259623 -0.092644542 0.0073387921
0.0034175802 -0.093413852 0.0073233247
0.0045639514 -0.093561001 0.0072275996
0.0057026581 -0.093523599 0.0073951483
0.0068204007 -0.093212143 0.0072855055
0.0080098687 -0.093829893 0.0070965588
0.0091784485 -0.0940791 0.0070261359
0.010275559 -0.093621753 0.0069313943
0.011431773 -0.093740538 0.0065878332
0.012520123 -0.093331829 0.0065180957
0.01367844 -0.093469344 0.0059419274
0.014928265 -0.094162904 0.0058282316
0.016183859 -0.094791174 0.0058683157
0.017169222 -0.093858413 0.0055057704
0.018206408 -0.093307845 0.0055057704
0.019564819 -0.094371475 0.0056165457
0.020500813 -0.093392588 0.0056259334
0.021773085 -0.093968049 0.005541265
0.022671588 -0.092953511 0.0050733685
0.024121368 -0.094188206 0.005227536
0.025271986 -0.094195582 0.0051710904
0.026259696 -0.09362153 0.0050653517
-0.027610818 -0.093186513 0.0051414371
-0.026663376 -0.093901455 0.0053930581
-0.025395712 -0.093502387 0.0052902997
-0.024165705 -0.093210571 0.0053742528
-0.022943957 -0.09292303 0.0055584013
-0.022054952 -0.094023742 0.0057792366
-0.020973992 -0.094382964 0.0062765777
-0.019564681 -0.093219951 0.0066441894
-0.01838466 -0.09307234 0.0068711042
-0.017120887 -0.092452787 0.0069512129
-0.016299186 -0.094302438 0.0072545409
-0.014820965 -0.092346013 0.0076496899
-0.013735787 -0.09271656 0.0078687668
-0.012700752 -0.093523718 0.0078645349
-0.011446227 -0.092714436 0.007836163
-0.010245994 -0.092213944 0.0078419745
-0.009239994 -0.093554936 0.0077503324
-0.0081082936 -0.093824543 0.0074970722
-0.0068290648 -0.092192374 0.0071745813
-0.0057562832 -0.093251787 0.0072929263
-0.0045971484 -0.093092248 0.0072041452
-0.0034508475 -0.093172878 0.0071792603
-0.0023095778 -0.093537904 0.0072836578
-0.0011564373 -0.093671426 0.0074033141
0 -0.092861027 0.0075630546
0.0011558308 -0.093622297 0.00766927
0.0022917446 -0.09281566 0.007881701
0.0034632212 -0.093506977 0.00766927
0.0046061249 -0.093274035 0.0074168444
0.0057705366 -0.093482696 0.0073832273
0.0068654558 -0.092683651 0.0074168444
0.0080272071 -0.092886254 0.0072455704
0.0091133649 -0.092272818 0.0072152913
0.010259638 -0.092336737 0.0070480704
0.011524451 -0.093348056 0.0068660676
0.012536674 -0.092315502 0.0063937306
0.013823823 -0.093310803 0.0062418282
0.014724024 -0.091741994 0.0062414408
0.016020814 -0.092691854 0.0061310828
0.017242724 -0.09311071 0.0060778856
0.018055912 -0.091408052 0.0058439374
0.019477108 -0.092802688 0.0058439374
0.020727484 -0.093273669 0.0055413544
0.021733763 -0.092654459 0.005643934
0.022814309 -0.092397951 0.0055654347
0.023949452 -0.092376456 0.0054917932
0.025254468 -0.092982359 0.0051519275
-0.028859479 -0.092350334 0.0050112903
-0.027936041 -0.093120135 0.005223155
-0.026650531 -0.092697501 0.0051172376
-0.0254567 -0.092569821 0.0051793158
-0.024099218 -0.091806546 0.0056937337
-0.023074524 -0.092298098 0.0060159564
-0.021847438 -0.091989212 0.0061679184
-0.020696664 -0.091985174 0.0066491663
-0.01950568 -0.091791436 0.007058382
-0.01826801 -0.09134005 0.0072880387
-0.017249765 -0.091998748 0.0072880387
-0.016044348 -0.091681994 0.0076615512
-0.01494529 -0.091971017 0.0079431236
-0.013730493 -0.091536626 0.0079890788
-0.012713272 -0.092460155 0.0082998574
-0.011404815 -0.091238521 0.0081815124
-0.010359381 -0.092083387 0.0078039765
-0.0091690291 -0.091690294 0.0076732934
-0.0081413249 -0.093043707 0.0071460307
-0.0068861041 -0.091814719 0.0069184303
-0.0057647028 -0.092235245 0.0075181127
-0.0046172291 -0.092344582 0.0071460307
-0.0034593567 -0.092249513 0.0074525476
-0.0022884358 -0.091537431 0.0073484182
-0.0011397388 -0.091179103 0.0072478652
0 -0.091888048 0.0072626472
0.001145988 -0.091679044 0.0074582696
0.0022889213 -0.091556847 0.007935822
0.0034670013 -0.092453368 0.007776618
0.0045786435 -0.091572866 0.0078014731
0.005780173 -0.092482768 0.0077266097
0.0068813721 -0.091751628 0.0076828897
0.0080194511 -0.091650866 0.0073734224
0.0091753379 -0.091753379 0.0074006319
0.010341366 -0.091923252 0.0071593523
0.011461831 -0.091694646 0.0069652498
0.012631212 -0.091863364 0.0068147779
0.013709389 -0.091395922 0.0068969727
0.014816003 -0.091175407 0.006854564
0.016003601 -0.091449149 0.0068004429
0.0172625 -0.092066661 0.0066184402
0.018159369 -0.090796843 0.0062516332
0.019621098 -0.092334583 0.0060980618
0.020483915 -0.09103962 0.005808115
0.021884287 -0.092144363 0.005769372
0.02283092 -0.091323681 0.0055374801
0.023879094 -0.090967976 0.0054428279
0.024870263 -0.090437323 0.0053947866
-0.02906185 -0.091835447 0.0053837597
-0.02791377 -0.091882825 0.005407989
-0.026630551 -0.091470152 0.0054036379
-0.025564224 -0.091798797 0.0056446791
-0.024512362 -0.092213169 0.0057178736
-0.023078941 -0.091161817 0.0056254566
-0.022078518 -0.091800153 0.0061945617
-0.020624233 -0.090517469 0.0064539611
-0.019638257 -0.091260135 0.0067022741
-0.018260825 -0.090162821 0.0072128177
-0.017325845 -0.091249451 0.0075182021
-0.01594043 -0.089949563 0.0076463223
-0.015025428 -0.09130837 0.0077070296
-0.01389472 -0.091473572 0.0078105032
-0.012591591 -0.090430513 0.0078319013
-0.011582937 -0.0915052 0.0075541735
-0.010360275 -0.090940192 0.0073196888
-0.0093076695 -0.091913238 0.0072564483
-0.0080859736 -0.091255993 0.0071986318
-0.0069180061 -0.091087081 0.0070471168
-0.0057136212 -0.090275213 0.0072564483
-0.0045972397 -0.090795487 0.0073541105
-0.0034414504 -0.090624861 0.0072104633
-0.0022919085 -0.090530381 0.0071341097
-0.0011658703 -0.092103757 0.0071029067
0 -0.089865088 0.0069499314
0.0011548859 -0.09123598 0.0070390403
0.0023070802 -0.091129661 0.0074111223
0.0034301628 -0.090327621 0.0076644123
0.0046460303 -0.091759101 0.0079957545
0.0057230266 -0.090423822 0.0080043972
0.006860116 -0.090324864 0.0078055263
0.0079844585 -0.090110317 0.0076243281
0.0092232097 -0.09107919 0.0075948536
0.010318229 -0.09057112 0.0073454678
0.011440365 -0.090378881 0.0071606338
0.012650982 -0.090857059 0.0070151985
0.01373312 -0.090409704 0.0069280565
0.015027005 -0.091317952 0.0065812469
0.016113648 -0.09092702 0.0064427555
0.017254889 -0.090875752 0.0063917637
0.018474277 -0.09121675 0.0062296987
0.019333148 -0.089842282 0.0061900318
0.020746456 -0.091053896 0.006231904
0.022058938 -0.091718741 0.0057405233
0.022878919 -0.090371728 0.0055433512
0.024351999 -0.091609903 0.0051044226
-0.030280294 -0.090840884 0.0050050616
-0.028888512 -0.090132162 0.005212754
-0.027623734 -0.089777134 0.0051169991
-0.025531633 -0.090521239 0.0057910979
-0.024033172 -0.089266069 0.0058863461
-0.023109892 -0.090128578 0.0057917237
-0.022124093 -0.09082523 0.0058659315
-0.020585479 -0.089203745 0.0059258044
-0.019555297 -0.089724302 0.0064877272
-0.018633952 -0.090840511 0.0066476166
-0.017015142 -0.088478744 0.0068305135
-0.016255924 -0.090568721 0.0074311495
-0.014905178 -0.08943107 0.0077047348
-0.013607517 -0.08844886 0.0074771643
-0.012771472 -0.090561345 0.0076788664
-0.011457655 -0.089369707 0.00731498
-0.010272077 -0.08902467 0.0070613325
-0.0091841379 -0.089545347 0.0071885586
-0.0080972482 -0.090226479 0.0072215199
-0.0069269389 -0.090050206 0.0073032677
-0.0058196862 -0.090787105 0.0072887838
-0.0046175169 -0.090041585 0.0073132813
-0.0034604811 -0.089972511 0.0073132813
-0.0023134574 -0.09022484 0.0072355568
-0.0011508515 -0.089766413 0.0076389313
0 -0.090159677 0.0073221922
0.001156436 -0.090202011 0.007496953
0.0022797075 -0.08890859 0.0077678263
0.0034624843 -0.090024598 0.0076222122
0.0046296571 -0.090278313 0.007876724
0.0056855446 -0.088694498 0.0079427958
0.0069094589 -0.089822963 0.0077750087
0.0080879014 -0.090122327 0.0075314939
0.0092118131 -0.089815177 0.0075084567
0.010341989 -0.089630574 0.0074328482
0.011480107 -0.089544833 0.0071437657
0.012566557 -0.089108318 0.0073471665
0.013828133 -0.089882866 0.0071067512
0.015041626 -0.090249754 0.0065403879
0.016075021 -0.089560829 0.0065015852
0.017340887 -0.090172611 0.0061929226
0.018261293 -0.089023799 0.0061477125
0.019486219 -0.089407355 0.0058976412
0.020881288 -0.09048558 0.005885601
0.021478942 -0.088176712 0.0056108236
0.022748552 -0.088719361 0.0053293705
-0.029054271 -0.089487158 0.0050621331
-0.027954504 -0.08968737 0.0050024986
-0.026871694 -0.08996176 0.0050014555
-0.025578894 -0.089526132 0.0051175952
-0.024260297 -0.088954419 0.0055903196
-0.023298386 -0.089698784 0.0056063533
-0.022025513 -0.089261286 0.0059050024
-0.020921068 -0.089495681 0.0069127977
-0.019587675 -0.088720642 0.0065278709
-0.018289795 -0.088019639 0.0069377124
-0.017222958 -0.088411182 0.0067685544
-0.016269892 -0.089484408 0.0069228411
-0.014937827 -0.088477902 0.0072880685
-0.013864116 -0.088961408 0.0072903633
-0.01268898 -0.088822857 0.0079203248
-0.011454245 -0.088197686 0.0072460175
-0.010396291 -0.088946044 0.0073707998
-0.0092430906 -0.088964745 0.0077489614
-0.0080817062 -0.088898763 0.0076466203
-0.0069529535 -0.089229569 0.0076281726
-0.0057578986 -0.08867164 0.0078290403
-0.004616647 -0.088870451 0.0080450773
-0.0034689354 -0.08903601 0.0081011653
-0.0023119308 -0.089009337 0.0077662766
-0.0011531224 -0.088790432 0.0079825222
0 -0.088299811 0.0074879229
0.001145715 -0.08822006 0.0076378584
0.0022814516 -0.087835886 0.0077064037
0.0034612853 -0.08883965 0.0080385208
0.0045549623 -0.087683022 0.0079646707
0.0057697371 -0.088853955 0.007576853
0.0069208988 -0.0888182 0.0073894262
0.008031562 -0.088347182 0.0071651638
0.0092989383 -0.089502282 0.0069023371
0.01029577 -0.088086031 0.0069023371
0.011556217 -0.088982873 0.0070222616
0.012717688 -0.089023814 0.0071356297
0.013899801 -0.089190394 0.0071325898
0.014899172 -0.088248938 0.0068978667
0.016190037 -0.089045204 0.0064612925
0.017214766 -0.088369131 0.006331861
0.018345125 -0.088285916 0.0062900782
0.019641301 -0.088963538 0.0061931312
0.020627374 -0.088239327 0.0062127709
0.022003617 -0.089172557 0.0058966577
0.023057032 -0.088769577 0.0056633949
0.024153339 -0.088562243 0.0051093996
-0.025344532 -0.087553836 0.0050355196
-0.024354924 -0.088141628 0.0052414238
-0.023198105 -0.088152796 0.0055203736
-0.021967094 -0.087868378 0.0056001544
-0.020900676 -0.088247299 0.0059491992
-0.019632326 -0.087768048 0.0068241954
-0.018555103 -0.088136733 0.0074020028
-0.017332446 -0.087817721 0.0074647367
-0.016150361 -0.087673388 0.0075635314
-0.014968822 -0.087510034 0.0083058178
-0.013837382 -0.087636754 0.0079408586
-0.012685839 -0.087647617 0.0079904795
-0.011503584 -0.087427236 0.00768888
-0.010500824 -0.088673629 0.0079515874
-0.0092092361 -0.087487742 0.0079515874
-0.0081030857 -0.087976359 0.0078834593
-0.0069071623 -0.087490723 0.0082308352
-0.0057828841 -0.087899834 0.0083738863
-0.0046121045 -0.087629981 0.0086440444
-0.0034591535 -0.087631889 0.0087753832
-0.0023058951 -0.087624006 0.0086759031
-0.0011519867 -0.087550983 0.0086059272
0 -0.086831234 0.0083590746
0.0011557519 -0.087837145 0.0085590482
0.002309053 -0.087744012 0.0085062087
0.0034538703 -0.087498046 0.0084261894
0.0046121045 -0.087629981 0.008421272
0.0057677026 -0.087669075 0.0082924366
0.0068659917 -0.086969227 0.0081634521
0.0080801332 -0.087727159 0.0078851283
0.0091776624 -0.087187797 0.0077707767
0.010339627 -0.087312408 0.0077612102
0.011486584 -0.087298043 0.0078352392
0.012679162 -0.087601483 0.007422328
0.013892015 -0.087982759 0.007485956
0.014900172 -0.087108694 0.0072078109
0.016105326 -0.08742892 0.0069839358
0.017355204 -0.087933026 0.0069414973
0.018349269 -0.08715903 0.0065532327
0.019512676 -0.087233134 0.0060292184
0.020856995 -0.088062868 0.0061708093
0.021942889 -0.087771557 0.0061984062
0.023101056 -0.087784015 0.0060317814
0.024388036 -0.088261463 0.0054427683
0.025517961 -0.088152952 0.0053296685
0.026510999 -0.087601565 0.0050675273
-0.029165711 -0.08749713 0.005207479
-0.027918916 -0.087246619 0.0052663088
-0.02688784 -0.08767774 0.005143255
-0.025511554 -0.086971201 0.0053531528
-0.024421416 -0.087219343 0.0056242049
-0.023246882 -0.087175809 0.005671382
-0.022169054 -0.087509423 0.0054989457
-0.02088779 -0.08703246 0.0060038567
-0.019716086 -0.086982727 0.006164819
-0.018443618 -0.086454459 0.006455034
-0.017146869 -0.085734345 0.0074007511
-0.016373185 -0.087713495 0.0076141059
-0.014997371 -0.086523287 0.0079054236
-0.01371875 -0.08574219 0.0081791878
-0.012807521 -0.087324008 0.0081398487
-0.011492754 -0.086195655 0.007877171
-0.010317854 -0.085982114 0.0079792738
-0.0092676217 -0.086883947 0.00816679
-0.0080912644 -0.086692125 0.0083938539
-0.0069123269 -0.086404085 0.0085601509
-0.0057929638 -0.08689446 0.0088248551
-0.0046313419 -0.086837657 0.0089408755
-0.0034549951 -0.086374879 0.0089726448
-0.0023166076 -0.086872779 0.0090146065
-0.0011578894 -0.086841702 0.0090469122
0 -0.086245172 0.0092067719
0.0011650571 -0.087379277 0.0093740523
0.0023013004 -0.086298764 0.0091975033
0.0034482528 -0.086206317 0.0091124773
0.0046383878 -0.08696977 0.0089641809
0.0057246331 -0.085869499 0.0085086226
0.0069935927 -0.087419905 0.0083456337
0.0081473831 -0.087293394 0.0084096491
0.0092452718 -0.086674429 0.008053869
0.010303643 -0.085863687 0.0076545179
0.011543763 -0.08657822 0.0077908635
0.012592448 -0.0858576 0.0077044964
0.014069934 -0.087937094 0.0076669455
0.015062089 -0.086896665 0.0074092746
0.016147114 -0.086502396 0.0070065558
0.017223353 -0.086116761 0.0067461133
0.018496059 -0.086700276 0.0064840615
0.019702673 -0.086923555 0.0063436031
0.020825529 -0.086773045 0.0063436031
0.021969613 -0.086722158 0.0063247979
0.023109771 -0.086661644 0.0061136484
0.024485109 -0.087446824 0.0057987869
0.025580939 -0.087207749 0.0054605901
0.02670512 -0.087081909 0.0052366555
-0.027119584 -0.087254316 0.0050871968
-0.025603749 -0.086121701 0.0051876903
-0.024438096 -0.086115196 0.0055236816
-0.023327088 -0.08631023 0.0056142211
-0.022065399 -0.085938923 0.0058168769
-0.020796111 -0.085495122 0.0061337352
-0.019844128 -0.086380325 0.0062838793
-0.018486412 -0.085499659 0.0066526532
-0.017560354 -0.086631082 0.0069410503
-0.016147166 -0.085349306 0.0076478422
-0.015167934 -0.086340547 0.0083705187
-0.013760309 -0.084855236 0.0085304379
-0.012677983 -0.085288249 0.0084207058
-0.01152862 -0.085311785 0.0085304379
-0.010539277 -0.086656272 0.0085576773
-0.0092074014 -0.085168466 0.0085900128
-0.008087893 -0.085500591 0.0087854564
-0.0069673872 -0.085931107 0.0087320209
-0.0057860021 -0.085632831 0.0088678896
-0.0046525034 -0.086071312 0.0089014173
-0.0034838032 -0.085933812 0.0090085864
-0.0023104202 -0.085485548 0.0090690255
-0.0011600206 -0.085841529 0.0091280341
0 -0.085796833 0.0092484057
0.0011385737 -0.084254451 0.0094734728
0.0023155238 -0.085674375 0.0094036758
0.0035007538 -0.086351931 0.0092278123
0.0046155653 -0.085387953 0.009188056
0.0057875211 -0.085655309 0.0089972317
0.0069633783 -0.085881665 0.008508265
0.0080173053 -0.08475437 0.0085590482
0.0093177138 -0.086188853 0.008226037
0.010381836 -0.085361756 0.0081946254
0.011565669 -0.085585952 0.0079315603
0.012705374 -0.085472517 0.0077539682
0.013809864 -0.085160829 0.0075731277
0.014952422 -0.085113786 0.0070244968
0.016305279 -0.086185046 0.0068311095
0.017385496 -0.085768446 0.0068089068
0.018363053 -0.084929124 0.006729722
0.019766735 -0.086043432 0.0064424872
0.020859478 -0.085755631 0.0064583421
0.021970846 -0.085570663 0.006126821
0.023267621 -0.086090192 0.0061162114
0.024131026 -0.085033141 0.0059489012
0.025488969 -0.085735627 0.0057369173
0.026597813 -0.085575573 0.0055990815
0.027930694 -0.086119637 0.0053847432
0.029331107 -0.086820081 0.0051486194
-0.024466103 -0.085048839 0.0054663122
-0.023248171 -0.084855825 0.0054832101
-0.022232598 -0.085419975 0.0057778656
-0.020958876 -0.084999889 0.0061894357
-0.01977703 -0.084924892 0.0063307285
-0.018383382 -0.083874181 0.0067408979
-0.017249739 -0.083948731 0.006839186
-0.016142016 -0.084169082 0.0070440769
-0.015169505 -0.085182607 0.0074979961
-0.0137362 -0.083561875 0.008256346
-0.012730064 -0.084481336 0.0086815059
-0.011565642 -0.08442919 0.0087052286
-0.010328768 -0.083777785 0.0086064935
-0.0093663121 -0.085467599 0.0088581741
-0.0081682587 -0.08518327 0.0088581741
-0.0069433157 -0.084477007 0.0089124739
-0.0057695839 -0.084235922 0.0089638829
-0.0046568736 -0.084987946 0.0090240538
-0.0034710371 -0.084461898 0.0091861486
-0.0023085915 -0.084263586 0.0092325509
-0.0011670073 -0.085191526 0.0093268156
0 -0.083648011 0.009457916
0.0011579526 -0.08453054 0.0096366704
0.0023308326 -0.085075393 0.0095743239
0.0034449676 -0.083827548 0.0094612539
0.0045890585 -0.083750315 0.0097823441
0.0057765716 -0.08433795 0.0094551146
0.0068820673 -0.083731815 0.0092498064
0.0081699602 -0.085201018 0.0090615153
0.0092151482 -0.084088229 0.0088916123
0.010381806 -0.084207982 0.0085099041
0.011526762 -0.08414536 0.008354485
0.012847001 -0.085257366 0.0082690716
0.01391478 -0.084648244 0.0080579817
0.015098443 -0.084783569 0.0078648031
0.016240645 -0.084683366 0.0075850487
0.017271601 -0.084055126 0.007486403
0.018642781 -0.085057691 0.0072980821
0.019576792 -0.08406505 0.0069883764
0.020856159 -0.084583312 0.0065574348
0.022138024 -0.085056618 0.0064836442
0.022737131 -0.08299052 0.0062376857
0.024328467 -0.084570386 0.0060220361
0.025153851 -0.083465047 0.0062607229
0.026666116 -0.084635936 0.0060646832
0.028175242 -0.085699692 0.0053814054
-0.024492698 -0.083974965 0.005181849
-0.023268634 -0.083767086 0.005351305
-0.022074422 -0.08365044 0.0057969093
-0.020978399 -0.083913594 0.0063563883
-0.019778948 -0.083769664 0.006772846
-0.018602811 -0.083712645 0.0069946051
-0.017470054 -0.083856262 0.0074238181
-0.016161427 -0.083115913 0.0075335205
-0.014976707 -0.082947917 0.0077975988
-0.013917585 -0.083505511 0.0083089769
-0.012775406 -0.083620839 0.0088047981
-0.011572836 -0.083324417 0.0088958442
-0.010445699 -0.083565593 0.0089581609
-0.0093297958 -0.083968155 0.009014219
-0.0081511894 -0.083840802 0.0090031028
-0.0069490923 -0.083389103 0.0089043677
-0.0058363867 -0.084043965 0.0090464354
-0.0046449285 -0.083608709 0.0090278089
-0.0034653556 -0.083168536 0.0092014074
-0.0022996971 -0.082789101 0.0092048347
-0.0011501025 -0.082807377 0.0094039142
0 -0.083157733 0.0096841156
0.0011542356 -0.083104961 0.0097463131
0.0023123396 -0.083244227 0.0097198784
0.003498906 -0.083973743 0.0097976327
0.0045924159 -0.082663491 0.0098578632
0.0057783448 -0.083208166 0.0097466707
0.0069815461 -0.083778553 0.0096312165
0.0080622798 -0.082926303 0.0097266734
0.0092471484 -0.083224341 0.0096189678
0.010371868 -0.082974941 0.0093283653
0.011565545 -0.083271921 0.0091079473
0.012734637 -0.083353989 0.0086179972
0.013947477 -0.083684862 0.0082167685
0.014916686 -0.082615495 0.0079932213
0.016278785 -0.08371947 0.0076935589
0.0174409 -0.083716318 0.0077319145
0.018560054 -0.083520249 0.0075754523
0.019791337 -0.083822131 0.0076901317
0.020717181 -0.082868725 0.0071639419
0.021982137 -0.083300725 0.0070127249
0.023212785 -0.083566025 0.0069322586
0.024464654 -0.083878815 0.006765902
0.025636908 -0.083902605 0.0064583719
0.026512375 -0.082995258 0.0063146055
0.027797939 -0.08339382 0.0055707097
0.029021563 -0.083582103 0.0053614378
0.030556148 -0.084617026 0.0052188337
-0.024401858 -0.082501523 0.0050279796
-0.023405543 -0.083089679 0.0051757097
-0.022128344 -0.082690127 0.0055705309
-0.020895042 -0.082419328 0.0060369074
-0.019964542 -0.083381325 0.0061150193
-0.01856854 -0.082397893 0.0067827404
-0.017499896 -0.082832836 0.0070394576
-0.016294727 -0.082637541 0.007251054
-0.01494725 -0.081634976 0.0077238083
-0.014182816 -0.083914995 0.0080156326
-0.012791273 -0.082561858 0.0082814097
-0.011399461 -0.080936171 0.0086138844
-0.010449382 -0.082434013 0.0087695122
-0.0092985556 -0.082524687 0.008916378
-0.0081574637 -0.082739994 0.0091018975
-0.0069891126 -0.082704499 0.0090514719
-0.0058290181 -0.082772054 0.0091024339
-0.0046390286 -0.082342759 0.0090058744
-0.0034731464 -0.0821978 0.0091594756
-0.0023300571 -0.082717031 0.0091870725
-0.0011561027 -0.082083292 0.0093732178
0 -0.082787119 0.0094545782
0.0011474701 -0.081470378 0.0094545782
0.0022989314 -0.081612065 0.0097301006
0.0034828123 -0.082426555 0.0097866952
0.0046271137 -0.082131267 0.010056943
0.005742698 -0.081546307 0.01012978
0.0069588404 -0.082346275 0.010041952
0.0080574742 -0.081725813 0.0099324882
0.0092134615 -0.081769474 0.0097699463
0.010499707 -0.082831025 0.0097516477
0.011591509 -0.082299709 0.0094203353
0.012610117 -0.081392571 0.0086295307
0.013808739 -0.081701711 0.0085070133
0.015086271 -0.08239425 0.0084502697
0.016185001 -0.082081079 0.0081033707
0.01727299 -0.08175882 0.0079908073
0.018618107 -0.082617849 0.0077780485
0.019707436 -0.082307532 0.0077729225
0.021602329 -0.085209191 0.0074553788
0.021868743 -0.081720039 0.0073892474
0.023377612 -0.082990527 0.0066297054
0.024237396 -0.081945479 0.006247431
0.025691321 -0.0829129 0.0060079396
0.026735313 -0.082530744 0.0057050884
0.02797085 -0.082747102 0.0054339767
0.029192563 -0.082906879 0.005356282
-0.023582438 -0.08253853 0.0050323009
-0.022332169 -0.082276419 0.0050935447
-0.021046599 -0.081847891 0.0054940283
-0.019900158 -0.081941828 0.0061411858
-0.01863038 -0.081507914 0.0066156387
-0.017678203 -0.082498282 0.0067908168
-0.016296111 -0.081480548 0.0074497759
-0.015034614 -0.08095561 0.0076955855
-0.013907627 -0.081127822 0.0080280006
-0.012724162 -0.080971941 0.0088221133
-0.011600391 -0.081202731 0.0090979934
-0.010537805 -0.0819607 0.0093840361
-0.0092672464 -0.081088401 0.0094763041
-0.0081232619 -0.081232622 0.0095027685
-0.0069349878 -0.080908194 0.009554863
-0.0058605229 -0.082047321 0.010010958
-0.0046841716 -0.081973001 0.0099957883
-0.0034688795 -0.080940522 0.010116577
-0.0023155408 -0.081043929 0.01025638
-0.00115693 -0.080985099 0.010378212
0 -0.081342883 0.010663778
0.0011555923 -0.08089146 0.010663778
0.0023155408 -0.081043929 0.010776371
0.0034646841 -0.080842629 0.010408223
0.0045735124 -0.080036469 0.010344267
0.0058444105 -0.081821747 0.010452211
0.0069543221 -0.081133753 0.010579169
0.008139859 -0.081398591 0.01068601
0.0093197711 -0.081547998 0.010492027
0.010376955 -0.080709651 0.0102669
0.011579115 -0.081053808 0.010049939
0.012680034 -0.080691129 0.0092247128
0.013921484 -0.081208654 0.0089524984
0.015169713 -0.081683069 0.0089429617
0.016280796 -0.081403986 0.0085333884
0.017514145 -0.081732675 0.0085591376
0.018642046 -0.08155895 0.0080296695
0.019874338 -0.081835516 0.0075938702
0.020766694 -0.080759361 0.0072384179
0.021999819 -0.081051961 0.006703198
0.023314014 -0.081599049 0.0063566864
0.024573516 -0.08191172 0.0063711405
0.025502499 -0.081144318 0.0062149167
0.026773872 -0.081485696 0.005871594
0.027946999 -0.081512086 0.0056345761
0.029117662 -0.081529453 0.0053131282
0.030402221 -0.081852131 0.0050396025
-0.022449369 -0.081526659 0.0053055584
-0.020991402 -0.080467038 0.0055969357
-0.019869715 -0.08064767 0.0059625804
-0.018595871 -0.080194697 0.0059243143
-0.017628567 -0.081091411 0.0071232021
-0.016194433 -0.079815425 0.0076372623
-0.015309986 -0.081260696 0.0078603327
-0.01379346 -0.079312392 0.0083990693
-0.012888993 -0.080849141 0.0085993409
-0.011661489 -0.080464281 0.0084839761
-0.01037448 -0.079537682 0.0090308487
-0.0093185604 -0.080372587 0.0095052123
-0.0081128338 -0.079969361 0.0097292364
-0.0070103258 -0.080618747 0.0099651814
-0.0058062589 -0.080126375 0.01037699
-0.0046339477 -0.079935595 0.010391623
-0.0034990716 -0.080478646 0.010456026
-0.0023222903 -0.080119014 0.010702282
-0.0011652915 -0.080405116 0.010977954
0 -0.079943769 0.011497259
0.0011621899 -0.080191106 0.011565804
0.0022937073 -0.0791329 0.011394441
0.0034753538 -0.079933137 0.011320233
0.0046174065 -0.079650261 0.011143982
0.005795313 -0.079975314 0.011132896
0.0069289631 -0.079683073 0.011169195
0.0081251776 -0.080091029 0.011066854
0.0092558116 -0.079831369 0.010796309
0.010507451 -0.080557123 0.010653585
0.01164629 -0.080359407 0.010391116
0.012716462 -0.079766899 0.0098891258
0.014002817 -0.080516197 0.0096476078
0.015099795 -0.080145061 0.0094382465
0.01622932 -0.079987362 0.0092871487
0.01749365 -0.080470785 0.0090956986
0.018367385 -0.07920935 0.0086989105
0.019657962 -0.079788201 0.0080431104
0.020877667 -0.08003106 0.0075551867
0.021913815 -0.079581752 0.0072830319
0.023335287 -0.080506742 0.0066068769
0.024240034 -0.079645827 0.0067377985
0.025650108 -0.080448069 0.0069881976
0.026914226 -0.08074268 0.0062989295
0.028150255 -0.080931984 0.0059118569
0.028948475 -0.079897791 0.0056058764
-0.022284793 -0.079756103 0.0050297678
-0.02110449 -0.079728074 0.005130142
-0.019986875 -0.079947501 0.0056169629
-0.018687656 -0.079422534 0.0060964823
-0.017612539 -0.079843514 0.0065766871
-0.016389638 -0.079606809 0.0068132281
-0.015107209 -0.079022326 0.0079383254
-0.014028643 -0.079495646 0.0081788301
-0.012887931 -0.079670854 0.0084167123
-0.011562007 -0.078621648 0.0085164905
-0.010449657 -0.078952968 0.0090089738
-0.0093070753 -0.079110146 0.0090422034
-0.008098945 -0.078675464 0.0094625056
-0.0070159463 -0.079514056 0.0098909736
-0.0058465181 -0.079512648 0.01028958
-0.0046206578 -0.078551181 0.010540873
-0.0034989619 -0.079309799 0.010723263
-0.0023106583 -0.078562386 0.010955662
-0.0011541842 -0.078484528 0.010998309
0 -0.078910813 0.011619598
0.0011531502 -0.078414217 0.011751771
0.0023223369 -0.078959458 0.011772454
0.0035215886 -0.079822674 0.011792719
0.0045943819 -0.078104489 0.011753887
0.0058313129 -0.07930585 0.011805892
0.0069772652 -0.079075672 0.011487484
0.0080585014 -0.07828258 0.01158607
0.0093318876 -0.079321049 0.011187136
0.010325967 -0.078018419 0.01075846
0.011556534 -0.078584433 0.010448396
0.012801651 -0.079137474 0.010017425
0.013954224 -0.079073936 0.0096919537
0.0151325 -0.079154618 0.0095358491
0.0162373 -0.078866884 0.0092764497
0.017511334 -0.079384714 0.0094829798
0.018952163 -0.080546692 0.0089651048
0.019744089 -0.078976355 0.0084363222
0.020875892 -0.078864478 0.0080973804
0.022107014 -0.079119846 0.0078984499
0.023555687 -0.080089338 0.0072697699
0.024348918 -0.078844115 0.0072018206
0.025595848 -0.079114437 0.0068122149
0.026839366 -0.079351172 0.0062663257
0.027806949 -0.078786358 0.0059705079
0.029199455 -0.079422519 0.0057821572
0.030618304 -0.080078639 0.0053066611
0.031584248 -0.07954552 0.0052935183
0.032901369 -0.079903327 0.0050477386
-0.019898323 -0.0784228 0.0055012405
-0.018846465 -0.078919575 0.0057840645
-0.017631052 -0.078752033 0.0063583851
-0.016436702 -0.07866136 0.0068818927
-0.015298713 -0.078847215 0.007098496
-0.014094528 -0.078694448 0.0070676506
-0.012761026 -0.077726252 0.0085249543
-0.011703257 -0.078411825 0.008333832
-0.010598694 -0.078901388 0.0090089738
-0.0092590349 -0.077544414 0.0090937614
-0.0081352452 -0.077865914 0.0095286965
-0.0069817435 -0.077962808 0.0096427202
-0.0057696528 -0.077313349 0.0098242164
-0.0046579484 -0.07802064 0.010359675
-0.0035079555 -0.078344338 0.010824174
-0.0023177457 -0.077644475 0.011078894
-0.0011627773 -0.07790608 0.011211306
0 -0.078130506 0.011889666
0.0011543817 -0.077343576 0.012007535
0.0023209092 -0.077750459 0.011863023
0.0034849599 -0.077830769 0.012031108
0.0046594087 -0.078045093 0.011940181
0.005779386 -0.077443771 0.012232244
0.0069094775 -0.077155828 0.012156874
0.0081654768 -0.078155279 0.011872292
0.0092356773 -0.077348799 0.011291683
0.010478267 -0.078004874 0.010982722
0.011570065 -0.077519439 0.010747612
0.012689448 -0.077290274 0.010202616
0.013988717 -0.078103676 0.0096992552
0.015139829 -0.078028351 0.009761095
0.016394142 -0.078457683 0.0095447898
0.01735474 -0.077517845 0.0094734132
0.01852842 -0.077587754 0.0091568232
0.019812558 -0.078084789 0.0088019967
0.021043552 -0.078328773 0.008138299
0.022462944 -0.079211436 0.0078769922
0.023308154 -0.078082316 0.0073729455
0.024332661 -0.07763277 0.0068512559
0.025808694 -0.078599207 0.0067189932
0.026536614 -0.077302307 0.0065750778
0.028278084 -0.078942984 0.0063061714
0.029451864 -0.078930996 0.0058873594
0.031643711 -0.078523278 0.005133003
-0.019901598 -0.077265032 0.0055840313
-0.018740619 -0.077305049 0.0059045553
-0.017633956 -0.0775894 0.006508708
-0.016410463 -0.07736361 0.0068326294
-0.015246682 -0.077406228 0.0071827769
-0.013944313 -0.076693721 0.0073393881
-0.012831374 -0.07698825 0.0076408386
-0.011672947 -0.077041447 0.0076838434
-0.010401702 -0.076279148 0.0085960031
-0.0092936549 -0.076672658 0.0090711117
-0.0081157191 -0.076519631 0.0095036328
-0.0069912905 -0.0769042 0.0097912848
-0.0058603468 -0.077356577 0.010112673
-0.0046397336 -0.076555602 0.010230839
-0.003486447 -0.076701835 0.011152714
-0.0023186146 -0.076514289 0.011311084
-0.0011630298 -0.076759972 0.011585236
0 -0.076511227 0.011653066
0.0011588922 -0.076486886 0.011792302
0.0023087577 -0.076189004 0.011792302
0.0035005023 -0.077011056 0.011944711
0.0046489816 -0.076708198 0.011822104
0.0057736458 -0.076212123 0.012047321
0.0070139235 -0.077153161 0.011736661
0.0080914441 -0.076290764 0.011674941
0.0093175033 -0.076869398 0.011048138
0.01047616 -0.076825172 0.010833293
0.011586571 -0.076471366 0.01067093
0.012823345 -0.076940075 0.010396481
0.014040652 -0.077223584 0.010346264
0.015094097 -0.076631568 0.010307729
0.016225724 -0.07649269 0.0099560022
0.01759656 -0.077424869 0.0099211931
0.018426409 -0.076008938 0.009703666
0.019756911 -0.076703303 0.0090729296
0.021253807 -0.077930629 0.0082007349
0.022003565 -0.076433435 0.0079980493
0.023597615 -0.077872127 0.0074470639
0.024718197 -0.077685758 0.0072749555
0.025599077 -0.076797232 0.006536454
0.027081687 -0.077712663 0.0061584413
0.028323544 -0.077889748 0.0059030652
0.029399009 -0.077613384 0.0052567422
-0.021135705 -0.076323375 0.0050426722
-0.020391595 -0.077967867 0.005461514
-0.018624892 -0.075663626 0.0060636997
-0.017678712 -0.076607756 0.0064140856
-0.01658251 -0.076990224 0.0066122115
-0.015210355 -0.076051772 0.0071874261
-0.014097625 -0.076362133 0.0073549449
-0.012911702 -0.076296419 0.0075732768
-0.01161031 -0.075467013 0.0076898336
-0.010498082 -0.075819485 0.0081172884
-0.0093842056 -0.076246671 0.0085501671
-0.0080714319 -0.074949011 0.0092380345
-0.0070128455 -0.075972497 0.0095215142
-0.0058372403 -0.075884126 0.0099525154
-0.0046358448 -0.075332485 0.010258436
-0.0035105515 -0.076061949 0.010671228
-0.0023228775 -0.075493522 0.010869026
-0.001161693 -0.075510047 0.01121074
0 -0.076131329 0.011363685
0.0011590155 -0.075336002 0.011464685
0.002323973 -0.075529121 0.011467457
0.0035094563 -0.076038219 0.011735171
0.004629273 -0.075225681 0.011732996
0.0058183763 -0.07563889 0.011846155
0.0068952837 -0.07469891 0.011609524
0.0081106173 -0.075312875 0.01177609
0.0092703048 -0.075321227 0.011536837
0.010398972 -0.075103685 0.010975033
0.011565899 -0.07517834 0.010872751
0.012733703 -0.075244606 0.010700107
0.013984482 -0.075749278 0.010600775
0.0151297 -0.075648502 0.010517746
0.016603796 -0.077089049 0.0099745989
0.01751725 -0.075908087 0.0099669099
0.018447818 -0.074944258 0.0096183121
0.019911988 -0.076134071 0.009519279
0.021121478 -0.076272003 0.0086435676
0.022294641 -0.076271139 0.0085791051
0.023671858 -0.07693354 0.0076323748
0.024668509 -0.076354906 0.0071898401
0.025974771 -0.07674364 0.0070351064
0.026930857 -0.076108947 0.0065885484
0.028199727 -0.076374255 0.0061307847
0.029321661 -0.076236323 0.0053675473
-0.022410085 -0.0754866 0.0050526559
-0.021183796 -0.075320162 0.0054635704
-0.019932594 -0.075040355 0.0060014725
-0.018924518 -0.07569807 0.0065256357
-0.017568275 -0.074957974 0.0071543753
-0.016381504 -0.074886873 0.0070763528
-0.015300456 -0.075325318 0.0076141059
-0.013993184 -0.074630313 0.0075068772
-0.012829342 -0.074643441 0.0076375008
-0.011701526 -0.074889764 0.0079514682
-0.010574165 -0.075194061 0.0081934035
-0.0093296515 -0.074637212 0.0086956918
-0.0083303917 -0.076163583 0.0088280737
-0.0069905454 -0.07456582 0.0090875626
-0.0058566937 -0.074965678 0.0095991492
-0.0046930332 -0.075088531 0.0099844337
-0.0035068875 -0.074813597 0.010547489
-0.0023590208 -0.075488664 0.01066637
-0.0011631484 -0.0744415 0.010794163
0 -0.074192427 0.011031121
0.0011528013 -0.073779285 0.011355877
0.0023193364 -0.074218765 0.011591077
0.0034689079 -0.074003369 0.011862785
0.0046594366 -0.074550986 0.011811495
0.0058168294 -0.074455418 0.01161322
0.0069434405 -0.074063361 0.011913776
0.0081659565 -0.074660175 0.011853248
0.0093968343 -0.075174674 0.011636138
0.010516661 -0.074785143 0.011296719
0.011758722 -0.075255826 0.010881811
0.012866152 -0.074857607 0.01074025
0.013926748 -0.074275985 0.01074025
0.01514466 -0.074558325 0.010320723
0.016305711 -0.074540392 0.0099476874
0.017397664 -0.074230038 0.0096417665
0.018756175 -0.075024702 0.0094139576
0.019747546 -0.074343704 0.0089611113
0.021269167 -0.075623706 0.0086625814
0.022183673 -0.074723959 0.0080252886
0.02306634 -0.073812284 0.0076719522
0.024988817 -0.076156393 0.0076695979
0.02573538 -0.074866556 0.0071939528
0.027004834 -0.075143889 0.0063395798
0.028320666 -0.075521775 0.0057599843
0.029643524 -0.075887427 0.0055886805
0.030644361 -0.075432271 0.0054153502
0.032271951 -0.076496474 0.0052784979
-0.021529514 -0.075353302 0.0054059327
-0.020181587 -0.074790582 0.006105423
-0.019047963 -0.075001352 0.0065239966
-0.017792575 -0.074728817 0.0071116388
-0.016696483 -0.075134173 0.0072016418
-0.015252071 -0.073913887 0.0074775517
-0.014065327 -0.073842965 0.0076507926
-0.012930956 -0.074059114 0.007732451
-0.011751923 -0.074037112 0.0080109239
-0.010534085 -0.073738597 0.0081417263
-0.0094352141 -0.074302316 0.008485198
-0.0082080532 -0.073872477 0.0085236132
-0.0070704543 -0.074239768 0.0087987781
-0.0058742901 -0.074016057 0.0091038644
-0.0046778931 -0.073676817 0.0093105137
-0.0035207318 -0.073935367 0.0096672177
-0.002330268 -0.073403448 0.0099173188
-0.0011686757 -0.07362657 0.010609269
0 -0.073181927 0.010791928
0.0011683713 -0.073607393 0.011043429
0.002322111 -0.0731465 0.011419535
0.0035165315 -0.07384716 0.011484087
0.0046379613 -0.073047891 0.011598021
0.0058341157 -0.073509857 0.011532307
0.0070156725 -0.073664561 0.01180774
0.0081714112 -0.073542707 0.011679888
0.0094980253 -0.074796945 0.011540562
0.010530799 -0.07371559 0.011433721
0.011703237 -0.073730394 0.0109891
0.012799089 -0.073303871 0.011014432
0.014079201 -0.073915802 0.01085487
0.015403145 -0.074646011 0.0102548
0.016302131 -0.073359586 0.0098819137
0.01758909 -0.073874183 0.009881258
0.018683003 -0.073564328 0.0097486377
0.02006992 -0.074376762 0.0091497898
0.021042397 -0.073648393 0.0086012185
0.022304758 -0.073957883 0.0085215569
0.024171392 -0.076139882 0.0081510842
0.024624798 -0.073874392 0.0075237453
0.025923673 -0.074235976 0.006950587
0.027247805 -0.07463529 0.0062518716
0.028472094 -0.074739248 0.0060805678
0.029743537 -0.074953713 0.0056717396
0.030991564 -0.075094938 0.005184114
-0.020118229 -0.073372364 0.0058165491
-0.018770302 -0.072734922 0.0060496628
-0.017690115 -0.073119141 0.0062772334
-0.016521636 -0.073167242 0.0070035458
-0.015379198 -0.073346943 0.0074501932
-0.014162233 -0.073171541 0.0076460838
-0.012834355 -0.072339095 0.0075955093
-0.011701225 -0.0725476 0.0077817738
-0.010599655 -0.073019847 0.0080718994
-0.0094121881 -0.072944455 0.0087632537
-0.0082381796 -0.072966732 0.0083727837
-0.0070524509 -0.072875328 0.0086320639
-0.0057917093 -0.071817197 0.0088585615
-0.0046909689 -0.072710015 0.0090615749
-0.0035183034 -0.072711602 0.0093685389
-0.002329499 -0.072214469 0.0097988844
-0.0011660998 -0.072298191 0.010203302
0 -0.072468281 0.010650218
0.0011642734 -0.07218495 0.011051774
0.0023238978 -0.072040826 0.011201084
0.0034804957 -0.071930245 0.011202037
0.004630819 -0.071777694 0.011201084
0.005813017 -0.072081409 0.011097252
0.0070305355 -0.072648868 0.011254072
0.0081457114 -0.072147734 0.011704683
0.0092777833 -0.071902819 0.011677504
0.010533918 -0.072566986 0.011268318
0.011704877 -0.072570235 0.011012048
0.012889251 -0.07264851 0.01087749
0.014076791 -0.072730087 0.010827422
0.015133174 -0.072173595 0.010362118
0.01649523 -0.073050298 0.010316819
0.017574213 -0.072640084 0.01020208
0.018715795 -0.072523706 0.0098604858
0.019938296 -0.072716139 0.0094624162
0.021107744 -0.072704457 0.0090220869
0.022579417 -0.0736802 0.0090825856
0.023475481 -0.072773993 0.0085687637
0.024523543 -0.072402842 0.0077092648
0.025954045 -0.073143221 0.0068508387
0.027356463 -0.073743507 0.0064944625
0.028280621 -0.07305827 0.0058270395
0.029612491 -0.07343898 0.0055695772
0.030811071 -0.073472559 0.0050534904
-0.018823434 -0.071764335 0.0062052011
-0.017717127 -0.072049655 0.0061505735
-0.016330451 -0.07115411 0.0063876808
-0.01528948 -0.071742944 0.0075059533
-0.014153174 -0.071945302 0.007663995
-0.012983377 -0.07199873 0.0078096688
-0.011636441 -0.070982292 0.0082111955
-0.010576968 -0.071688339 0.008256048
-0.0094304942 -0.07190752 0.0089094639
-0.0082490854 -0.071884885 0.0089436769
-0.0070048096 -0.071215563 0.0090105832
-0.0059562712 -0.072666511 0.0090132356
-0.0046782014 -0.071342573 0.009227246
-0.0034937488 -0.071039557 0.0091388524
-0.0023309072 -0.071092665 0.0093738437
-0.0011779472 -0.071854778 0.0097684264
0 -0.070439823 0.0098625422
0.0011707621 -0.07141649 0.010110945
0.0023256706 -0.070932947 0.010608315
0.0034988637 -0.07114356 0.010666519
0.004660666 -0.071075156 0.010666519
0.0058183619 -0.070984013 0.010555416
0.0069876402 -0.07104101 0.010953397
0.0082426928 -0.071829177 0.0109891
0.0092731817 -0.070708014 0.011012942
0.010562723 -0.071591787 0.010872573
0.011698532 -0.071361043 0.010741562
0.012932491 -0.07171654 0.010711849
0.01402755 -0.071306713 0.01070565
0.015309259 -0.071835756 0.01043427
0.016428428 -0.071581006 0.010171115
0.017548271 -0.071362965 0.010091007
0.018649178 -0.071099989 0.0096899867
0.019793069 -0.07102219 0.0094137788
0.021211302 -0.071882747 0.009131968
0.022287747 -0.071555398 0.0089590847
0.023397127 -0.071361236 0.0084978938
0.024879264 -0.072268337 0.00752756
0.025940124 -0.071924888 0.0070163906
0.027009167 -0.071633004 0.0067319274
0.028714739 -0.072983295 0.0064244866
0.029581498 -0.072178856 0.0059937239
0.030693535 -0.072011754 0.0054096878
0.031801559 -0.071847968 0.0050747097
-0.01887257 -0.070772141 0.0063091815
-0.017629016 -0.070516065 0.0067027509
-0.016409222 -0.070325233 0.0067407787
-0.015286684 -0.070553929 0.0074356794
-0.014143293 -0.070716463 0.0078931153
-0.012950213 -0.070637524 0.0080720484
-0.011807175 -0.070843056 0.0084089339
-0.010501604 -0.070010692 0.0086293817
-0.0094073443 -0.070555083 0.0089892745
-0.0082420409 -0.070646062 0.0089014173
-0.0070692771 -0.07069277 0.0088790059
-0.0058623408 -0.070348091 0.0087172091
-0.0047063245 -0.07059487 0.0091865063
-0.003496205 -0.069924101 0.0094501376
-0.002344968 -0.070349045 0.0095635653
-0.0011759663 -0.070557982 0.0096403956
0 -0.069750667 0.0099110901
0.0011727995 -0.07036797 0.010078728
0.0023273074 -0.069819219 0.010673314
0.0035190417 -0.070380829 0.010429233
0.0046644276 -0.069966421 0.010757715
0.0058483351 -0.070180021 0.010742873
0.0070447987 -0.070447989 0.010964841
0.008196434 -0.070255145 0.010929763
0.009387861 -0.070408955 0.010988802
0.010450644 -0.06967096 0.010948658
0.011772474 -0.070634842 0.010912061
0.012835704 -0.070012935 0.010750651
0.014011079 -0.070055395 0.01069507
0.015146628 -0.069907516 0.010472625
0.016364913 -0.070135348 0.010162294
0.017667355 -0.07066942 0.010181785
0.018804418 -0.070516571 0.010025144
0.019932128 -0.070348687 0.0098509192
0.021147208 -0.070490688 0.0094149411
0.022246668 -0.070252635 0.0093193352
0.023403758 -0.070211276 0.0088069141
0.024733011 -0.070665747 0.0077474415
0.025781559 -0.070313342 0.0072332323
0.027188802 -0.070927314 0.0068334639
0.028479123 -0.071197808 0.006133765
0.029325424 -0.070381016 0.0057412982
0.03097553 -0.071481995 0.0051545203
-0.018869992 -0.069583096 0.005807668
-0.017812835 -0.070063822 0.0069813132
-0.01648365 -0.069466807 0.0070768893
-0.015267965 -0.069293074 0.0076077282
-0.014053692 -0.069097318 0.0076981187
-0.013005364 -0.069756046 0.0081298947
-0.011593067 -0.068399094 0.008536607
-0.010693593 -0.070102446 0.0088460147
-0.0093661044 -0.069075026 0.0090387166
-0.0082200235 -0.069283053 0.0089759827
-0.0070851175 -0.06967032 0.0089666843
-0.0058569633 -0.069112167 0.0089670718
-0.0046995888 -0.069318935 0.0090712011
-0.0035483388 -0.069783993 0.0087661445
-0.0023495166 -0.069310747 0.0092259645
-0.001167765 -0.068898134 0.0095901489
0 -0.068909131 0.01008603
0.0011705059 -0.069059841 0.0099016726
0.0023397717 -0.069023266 0.010042012
0.0035649659 -0.070110999 0.010029316
0.0046389285 -0.068424195 0.010518491
0.005841129 -0.068925321 0.010859132
0.0070335963 -0.069163695 0.011025488
0.0081317825 -0.068539307 0.010731101
0.009338337 -0.068870239 0.011087358
0.010513294 -0.068920478 0.010437489
0.01171058 -0.069092423 0.010501504
0.01291763 -0.069285467 0.010884523
0.01410337 -0.06934157 0.010799646
0.015207029 -0.069016516 0.010820329
0.016325997 -0.068802416 0.010591298
0.0177681 -0.069887862 0.010768324
0.018439602 -0.067996033 0.010501504
0.019938687 -0.069198973 0.01045841
0.02107968 -0.069094501 0.0095455945
0.022371897 -0.069470629 0.0092441738
0.023404162 -0.06904228 0.0088230968
0.024789654 -0.069647126 0.0084039867
0.025782008 -0.069142662 0.0074439943
0.027050845 -0.069391303 0.0071563721
0.028743761 -0.070661746 0.0059886277
0.030040201 -0.070894875 0.0058392286
0.030900268 -0.070119835 0.0052343011
-0.01889067 -0.068478674 0.0052160323
-0.018016677 -0.069664486 0.0064997077
-0.01642248 -0.06803599 0.0074662268
-0.015199285 -0.067812197 0.0079273283
-0.014182444 -0.068548478 0.0080915391
-0.012901705 -0.068027169 0.0082397163
-0.011693053 -0.067819707 0.0083027184
-0.010595074 -0.068279371 0.0087126791
-0.0093715703 -0.067943886 0.0089296401
-0.0082009342 -0.067950599 0.0088507533
-0.0070563345 -0.068211235 0.0086484849
-0.0058963164 -0.068397269 0.0085033774
-0.004697694 -0.068116568 0.0086333454
-0.0035706763 -0.069033079 0.0083268285
-0.0023529553 -0.068235703 0.0086169839
-0.0011657069 -0.067611001 0.0089666843
0 -0.068204753 0.0091380477
0.0011685698 -0.067777053 0.0089997053
0.0023427217 -0.067938931 0.0087983012
0.003509094 -0.067842484 0.0086996555
0.0046930648 -0.068049438 0.0090653002
0.0058859619 -0.068277158 0.0095761716
0.0070987255 -0.06862101 0.0099958479
0.0081813224 -0.067788102 0.010184646
0.0093618268 -0.06787324 0.010429919
0.010721135 -0.06909176 0.010184646
0.011657124 -0.067611322 0.010184646
0.012868214 -0.067850582 0.010352463
0.014088922 -0.068096459 0.010567814
0.015150215 -0.067593262 0.010483205
0.016673049 -0.069074057 0.010388017
0.01752636 -0.067768589 0.010584861
0.018740697 -0.067935027 0.010335177
0.019940984 -0.068033941 0.01004827
0.021205882 -0.068330064 0.009203732
0.022336321 -0.068184562 0.009085536
0.023431191 -0.067950457 0.0088454783
0.024795063 -0.068481602 0.0082669854
0.026079353 -0.068754658 0.0078050494
0.027196623 -0.068582788 0.0069016218
0.028496062 -0.068865485 0.0061422586
0.029494975 -0.068428345 0.0055329502
-0.017707251 -0.067287557 0.0059454143
-0.016610941 -0.067630261 0.0067629516
-0.015478777 -0.067868486 0.007386297
-0.014028348 -0.066634655 0.0075607896
-0.012987516 -0.067298949 0.0077413023
-0.011794208 -0.067226984 0.0078146458
-0.01059075 -0.067074746 0.0077819824
-0.0094676102 -0.067456722 0.0080915391
-0.008329316 -0.067824431 0.00767079
-0.0070677036 -0.067143179 0.007455796
-0.0058799037 -0.067030907 0.0072314441
-0.0046904092 -0.066838332 0.0063816607
-0.0034948564 -0.066402271 0.0063759089
-0.0023712444 -0.067580462 0.0051270425
0.0072182822 -0.068573684 0.0064816475
0.0082218684 -0.066949502 0.0088669062
0.0094096251 -0.06704358 0.0095210075
0.010488794 -0.066429026 0.0092378855
0.011780809 -0.067150608 0.009088248
0.012841484 -0.066542231 0.0098129809
0.01411092 -0.067026868 0.010302782
0.015474819 -0.067851126 0.010384083
0.01631858 -0.066439927 0.010390192
0.017665245 -0.067127928 0.01061371
0.018738844 -0.066757128 0.0099880993
0.019883141 -0.066667005 0.010064542
0.021177519 -0.067062147 0.0091210008
0.022126017 -0.06637805 0.0092577338
0.023819499 -0.06788557 0.0091339648
0.025104379 -0.068140462 0.0081898868
0.025694106 -0.066571087 0.0078836083
0.027179999 -0.067359127 0.0070289671
0.028397001 -0.067442879 0.0060399771
0.029782431 -0.067903943 0.005035162
-0.018083509 -0.067511767 0.0053649247
-0.016634813 -0.06653925 0.005520612
-0.015280085 -0.065821901 0.0062112212
-0.014211758 -0.066321537 0.0069856048
-0.012989523 -0.066128477 0.0073303878
-0.011803948 -0.06610211 0.0072087646
-0.010694353 -0.06654264 0.0077956021
-0.0094700474 -0.066290334 0.0074548125
-0.0081587508 -0.065270007 0.0070626736
0.011900792 -0.06664443 0.0053624213
0.012887022 -0.065606661 0.0085178912
0.014107254 -0.065833852 0.0099316537
0.015101967 -0.065054633 0.010185003
0.016543599 -0.066174395 0.010353595
0.017478015 -0.065251254 0.010217935
0.0188372 -0.065930203 0.010044694
0.019929685 -0.065650724 0.010090828
0.021313354 -0.066308215 0.0096137226
0.022553811 -0.066474393 0.009363085
0.023342442 -0.065358832 0.0090662539
0.024750477 -0.066001266 0.0083672702
0.025944341 -0.066040143 0.0076479912
0.02715341 -0.066112652 0.0072179437
0.028402833 -0.066273279 0.0056212544
-0.017828604 -0.065371551 0.0050419569
-0.016404528 -0.06444636 0.0053385496
-0.015615663 -0.066066265 0.0058918893
-0.014146622 -0.064838685 0.0060124695
-0.012997478 -0.064987391 0.0061562061
-0.011811181 -0.064961493 0.0059219599
-0.010565449 -0.064566635 0.0058360696
-0.0094212508 -0.064771101 0.0050166845
0.014568332 -0.066771522 0.0056014359
0.015299771 -0.064729802 0.0079789162
0.016372984 -0.064322442 0.0092437267
0.017603921 -0.06454771 0.010191411
0.019019237 -0.065378629 0.0098953247
0.020071322 -0.06493663 0.009716779
