ply
format ascii 1.0
comment PCL generated
element vertex 1275
property float x
property float y
property float z
element camera 0
property float view_px
property float view_py
property float view_pz
property float x_axisx
property float x_axisy
property float x_axisz
property float y_axisx
property float y_axisy
property float y_axisz
property float z_axisx
property float z_axisy
property float z_axisz
property float focal
property float scalex
property float scaley
property float centerx
property float centery
property int viewportx
property int viewporty
property float k1
property float k2
end_header
0.0070709693 -0.053032268 0.020043731
0.0081526879 -0.052410133 0.020402998
0.0094461534 -0.053134613 0.019645661
0.010553395 -0.052766975 0.01974234
0.011667395 -0.052503277 0.019146174
0.013034421 -0.053322632 0.018552572
0.014233703 -0.053376388 0.017836839
0.015376656 -0.053226888 0.016257972
0.016744902 -0.053822901 0.015465945
0.017648716 -0.05294615 0.013643295
0.019176338 -0.053933453 0.012381703
0.020351015 -0.053870335 0.01038453
0.021329798 -0.053324495 0.008231014
0.02322036 -0.054995589 0.0060447454
-0.0071435948 -0.052386362 0.0079134107
-0.0059361299 -0.052237943 0.010282993
-0.0047783027 -0.052561328 0.012131691
-0.003584537 -0.052573208 0.01294598
-0.002380217 -0.052364774 0.0143525
-0.0011863393 -0.052198932 0.016296715
0 -0.051209144 0.01739952
0.0011647551 -0.051249225 0.019065589
0.0022875399 -0.050325878 0.019931018
0.0033769314 -0.049528327 0.020684451
0.0044963798 -0.049460176 0.021698296
0.0056593358 -0.049802154 0.022354603
0.006711958 -0.049221024 0.022360623
0.0079177814 -0.049768914 0.022526324
0.0089938482 -0.049466167 0.021891981
0.010266218 -0.0501904 0.021923572
0.011498881 -0.050595075 0.02075848
0.012751859 -0.051007435 0.020714074
0.014050537 -0.051518634 0.019405842
0.015266175 -0.051670134 0.018513292
0.016515892 -0.051907089 0.018090963
0.017748833 -0.052063242 0.016242713
0.019101819 -0.052530002 0.014274925
0.020028479 -0.051838417 0.012800008
0.021363288 -0.052221373 0.0098712444
0.02281253 -0.052829016 0.0076920688
0.024023667 -0.052852068 0.0058468878
-0.0085094338 -0.052272234 0.0079599619
-0.0072472738 -0.051938795 0.010698736
-0.0059807668 -0.051434595 0.013017148
-0.0047006086 -0.05053154 0.014249414
-0.0034477939 -0.049418379 0.016438782
-0.0022753954 -0.048921 0.01716873
-0.0011298427 -0.048583239 0.018522501
0 -0.04854406 0.021306872
0.001133867 -0.048756279 0.022373885
0.0022594205 -0.04857754 0.023682386
0.0033868824 -0.048545316 0.024534851
0.0045691552 -0.049118418 0.025026172
0.0056399493 -0.048503563 0.025758833
0.006789655 -0.048659194 0.026331693
0.0078705857 -0.048347883 0.026500672
0.0089701489 -0.048214547 0.025882393
0.010172078 -0.048599932 0.025777161
0.011252265 -0.048384741 0.023726463
0.012277452 -0.047993675 0.023218095
0.013442354 -0.048168439 0.022789776
0.014552699 -0.048135854 0.020999551
0.016028272 -0.049229693 0.020256907
0.017592931 -0.050433069 0.019051343
0.018989159 -0.051033363 0.016586125
0.020197723 -0.051088355 0.01487869
0.021729961 -0.05191046 0.012219667
0.022770211 -0.051532585 0.0098656714
0.02389387 -0.05137182 0.0073062479
-0.0097403685 -0.051136937 0.0062191486
-0.0083845258 -0.050307155 0.011742741
-0.0070677749 -0.049474422 0.014119834
-0.0056921672 -0.047814205 0.017826915
-0.004506791 -0.047321305 0.018772423
-0.0034180318 -0.047852445 0.019114345
-0.0022816502 -0.047914654 0.023243576
-0.0011341285 -0.047633398 0.025662929
0 -0.047935743 0.02674374
0.001135531 -0.047692303 0.028483063
0.0022642117 -0.047548443 0.029894352
0.0034169343 -0.047837079 0.030663282
0.0044772811 -0.04701145 0.031167388
0.0056436961 -0.047407046 0.031167388
0.0068804813 -0.048163369 0.031976134
0.0079001551 -0.047400929 0.032325804
0.0090970909 -0.04775973 0.032918245
0.010143159 -0.047334742 0.031569541
0.011247564 -0.047239769 0.030580401
0.012375533 -0.047252033 0.03015238
0.013645153 -0.047758039 0.027273476
0.01470187 -0.047498349 0.026329011
0.015899699 -0.047699098 0.024678379
0.016817238 -0.047088265 0.023321539
0.018078001 -0.047454752 0.02021873
0.019773427 -0.048851997 0.017914981
0.021245671 -0.049573235 0.016880125
0.022895547 -0.050611205 0.013984561
0.024321752 -0.051075678 0.010619611
0.025246866 -0.050493732 0.0077626109
-0.011068261 -0.05042208 0.0072174966
-0.0094244266 -0.048300188 0.011326849
-0.0079877153 -0.046785191 0.015399098
-0.0068234792 -0.046627108 0.019257635
-0.0057245344 -0.046941184 0.020399332
-0.004580976 -0.046955001 0.0257774
-0.0034215394 -0.04676104 0.028225452
-0.0022694767 -0.046524271 0.030037791
-0.0011333465 -0.046467207 0.031736165
0 -0.046134856 0.032678813
0.0011309686 -0.046369709 0.034096181
0.0022969153 -0.047086764 0.034827858
0.0034109298 -0.046616044 0.03569454
0.0045846342 -0.046992499 0.036381543
0.0057766647 -0.047368649 0.036486149
0.0069902893 -0.047766976 0.036825776
0.0083214436 -0.048739884 0.037485898
0.0093420045 -0.047877774 0.037641168
0.010266699 -0.046770517 0.038242429
0.011329961 -0.046452839 0.037865937
0.012414536 -0.04627236 0.03625232
0.013505589 -0.046144098 0.035383403
0.014714684 -0.046407852 0.034200013
0.015733488 -0.04607664 0.031681985
0.016927987 -0.04626983 0.030293196
0.018228294 -0.046710003 0.026040703
0.019035196 -0.045908414 0.022766799
0.020243719 -0.046110693 0.02048561
0.022145875 -0.047788467 0.018139184
0.023700805 -0.048586652 0.013861924
0.025496453 -0.049778789 0.010989666
0.026996311 -0.050311305 0.006075263
-0.01209805 -0.048392199 0.0072345436
-0.010338602 -0.045949344 0.011527687
-0.0091752382 -0.045876194 0.016582102
-0.0079941414 -0.04568081 0.02021727
-0.0068871523 -0.045914348 0.026821107
-0.0057166265 -0.045733012 0.030305833
-0.0045241639 -0.045241639 0.031248719
-0.0034129529 -0.045506038 0.031833887
-0.0023196051 -0.046392102 0.032967746
-0.0011512159 -0.046048634 0.034035414
0 -0.046434145 0.034775794
0.0011542037 -0.046168149 0.035450041
0.0023255807 -0.046511613 0.036505371
0.00351484 -0.046864536 0.03685388
0.0047346409 -0.047346413 0.037080109
0.0058946609 -0.047157288 0.037224114
0.0069603147 -0.0464021 0.037576407
0.0081746625 -0.046712358 0.038281649
0.0094356742 -0.047178369 0.038790554
0.010576164 -0.047005177 0.038981855
0.011518962 -0.046075847 0.039019108
0.01256342 -0.045685165 0.039573103
0.013828901 -0.046096336 0.039546549
0.014936564 -0.045958657 0.037838697
0.015828235 -0.045223527 0.038055509
0.016838469 -0.044902585 0.037202328
0.018043132 -0.04510783 0.036574006
0.019316951 -0.045451649 0.032604724
0.020515701 -0.045590445 0.027221352
0.021418046 -0.045090623 0.023037046
0.022745974 -0.045491949 0.01923129
0.025297051 -0.04818486 0.013982534
0.02662403 -0.048407327 0.0094543993
0.028040329 -0.04876579 0.0054625869
-0.013291519 -0.047124479 0.0051710606
-0.011376897 -0.044369899 0.012064606
-0.010317174 -0.044707753 0.019349039
-0.0091952058 -0.044826627 0.025462478
-0.0080124671 -0.044640888 0.028489411
-0.0068377457 -0.044445347 0.030991673
-0.0057507521 -0.044855867 0.032329172
-0.0046448749 -0.045287531 0.03320235
-0.0035314751 -0.045909174 0.033781409
-0.0023572801 -0.04596696 0.034580201
-0.0012163338 -0.04743702 0.035179555
0 -0.047432411 0.035466403
0.0011830414 -0.046138611 0.03636685
0.0023117929 -0.045079961 0.036830276
0.0034562945 -0.044931829 0.03726694
0.0045056138 -0.043929737 0.037752151
0.0054029142 -0.04214273 0.037896156
0.0067181252 -0.043667816 0.038393557
0.0078285327 -0.043616112 0.039293915
0.0091722831 -0.044714879 0.040138185
0.010412089 -0.045119047 0.040225953
0.0116384 -0.04538976 0.040522963
0.013094399 -0.046425596 0.040341467
0.014403719 -0.046812087 0.040575862
0.015624993 -0.046874981 0.039920419
0.0163904 -0.045658972 0.039591908
0.017441649 -0.045348287 0.039438039
0.018377442 -0.044795014 0.039071321
0.019083871 -0.043780647 0.036970317
0.020408185 -0.044217736 0.034599841
0.02145038 -0.044029728 0.031859428
0.022676479 -0.044219136 0.025634766
0.023536172 -0.043710031 0.020321697
0.025828324 -0.045786574 0.012507617
0.028330069 -0.048037942 0.0072896481
-0.01252907 -0.043282241 0.0091074705
-0.011512113 -0.043746028 0.021086901
-0.010306104 -0.043514661 0.026639283
-0.0091736596 -0.043574885 0.029937357
-0.0080567747 -0.043736778 0.031707346
-0.0070578977 -0.044700019 0.032445937
-0.005951595 -0.045232121 0.033698916
-0.0049557872 -0.04707998 0.034338653
-0.0035524776 -0.04499805 0.034901768
-0.0022559192 -0.042862464 0.035000801
-0.0011116898 -0.042244215 0.035553396
0 -0.041037172 0.035539627
0.0010763246 -0.040900335 0.035981476
0.0021790916 -0.041402742 0.036372274
0.0032191984 -0.040776514 0.036797136
0.0043253391 -0.041090723 0.037699044
0.0053979866 -0.041024696 0.03834632
0.0063328668 -0.040108155 0.038992852
0.0075314352 -0.040884934 0.039453626
0.0086493809 -0.041084561 0.040152907
0.0097113838 -0.041003622 0.040272295
0.010783081 -0.040975709 0.04080838
0.01188609 -0.041061036 0.040399849
0.013109061 -0.041512027 0.04080838
0.014436465 -0.042198896 0.040648907
0.016223034 -0.044033948 0.041087806
0.018188208 -0.046076793 0.04071179
0.019121056 -0.045412511 0.04046151
0.01977757 -0.044208687 0.039451808
0.020618511 -0.043527968 0.038260937
0.021557802 -0.043115605 0.035588324
0.022700626 -0.043131188 0.03393209
0.023839004 -0.043137249 0.028169066
0.02513426 -0.043413721 0.021565288
0.026845688 -0.044353746 0.011921018
0.029295728 -0.046384905 0.0064498782
-0.013643478 -0.04206739 0.0093187094
-0.012720626 -0.042787559 0.020653754
-0.011544239 -0.042713683 0.027320445
-0.010244497 -0.042116266 0.029916942
-0.009438335 -0.0436523 0.03224811
-0.008511994 -0.044991966 0.033115566
-0.0073570143 -0.045368254 0.033477128
-0.0057890192 -0.042838741 0.034296274
-0.0044091679 -0.040784802 0.034720063
-0.0032495123 -0.040077318 0.034611523
-0.0021767407 -0.040269703 0.035111904
-0.0010879538 -0.040254291 0.035448134
0 -0.04013259 0.035542727
0.0010930756 -0.040443797 0.036040574
0.0021762529 -0.04026068 0.036603004
0.0032787789 -0.040438272 0.037380099
0.0043979487 -0.040681027 0.037535161
0.0054546031 -0.040364064 0.037535161
0.0064831125 -0.039979193 0.037760109
0.0076559298 -0.040467057 0.038378298
0.0087570269 -0.040501252 0.038722664
0.0098429024 -0.040465266 0.039717078
0.010849354 -0.040142611 0.039872706
0.011857074 -0.039882883 0.039871931
0.013009391 -0.040112287 0.04029128
0.014063095 -0.04002573 0.040453434
0.015075346 -0.039841983 0.04072395
0.01636182 -0.040359158 0.041042835
0.017874958 -0.041335844 0.041252434
0.020068271 -0.043678001 0.040682793
0.021893326 -0.045002948 0.040055931
0.022315433 -0.043456368 0.039069802
0.022557773 -0.041731879 0.036096424
0.023901291 -0.042111795 0.034386218
0.02515262 -0.042302135 0.029075384
0.025970215 -0.04177817 0.021660626
0.027884193 -0.042988129 0.0088986754
-0.014982559 -0.041490164 0.0060871542
-0.013799687 -0.041399062 0.02064237
-0.012810857 -0.041926444 0.025418192
-0.011497051 -0.041389387 0.030822098
-0.010880117 -0.043520469 0.032470345
-0.0098204715 -0.04419212 0.03346926
-0.0080022765 -0.041154563 0.034207851
-0.0065418635 -0.039251182 0.034226567
-0.0054175984 -0.03900671 0.034546494
-0.0043527354 -0.03917462 0.03460139
-0.0032741344 -0.039289612 0.035068452
-0.0021826683 -0.039288029 0.035287172
-0.0010970759 -0.039494731 0.035399169
0 -0.040987462 0.035779208
0.0011107336 -0.039986409 0.036963582
0.0022098618 -0.03977751 0.037550658
0.0033264474 -0.039917368 0.037897199
0.0043420047 -0.039078042 0.038090408
0.0054523502 -0.039256919 0.038071275
0.006797919 -0.040787514 0.038190037
0.0079237558 -0.040750746 0.038515061
0.0090416418 -0.04068739 0.038698733
0.010109315 -0.040437259 0.038732469
0.01090824 -0.039269667 0.039345741
0.011958722 -0.039137635 0.039448708
0.013058106 -0.039174318 0.039313883
0.014164983 -0.039226107 0.039497554
0.015283172 -0.039299585 0.040807426
0.016252704 -0.039006487 0.041085929
0.017271178 -0.038860153 0.041207075
0.018550679 -0.039283793 0.04119736
0.019818466 -0.039636932 0.040908366
0.022454964 -0.042546246 0.039963335
0.024268471 -0.04368325 0.037786007
0.024088731 -0.04129497 0.036397159
0.025032869 -0.040962875 0.034465104
0.026344866 -0.041235439 0.029163361
0.027221881 -0.040832821 0.021090299
0.029749919 -0.042839881 0.0079194009
-0.015016204 -0.04042824 0.015821844
-0.013966771 -0.040736414 0.02409783
-0.012792397 -0.040703081 0.028983355
-0.012242779 -0.042849727 0.032175928
-0.010668601 -0.041489005 0.032897621
-0.0088141337 -0.038561836 0.033839285
-0.0076124468 -0.038062233 0.034017354
-0.0065881349 -0.038430788 0.033791989
-0.0054741446 -0.03831901 0.033970058
-0.0043740738 -0.038273145 0.034367859
-0.0032850166 -0.038325194 0.034578741
-0.002235773 -0.039126027 0.034969747
-0.001153138 -0.040359829 0.035211623
0 -0.040193506 0.035924196
0.0011324079 -0.039634276 0.037385643
0.0023057668 -0.040350918 0.038022101
0.0033932978 -0.039588474 0.038804024
0.0045969719 -0.040223505 0.039021641
0.0057920828 -0.040544581 0.039068222
0.0068280888 -0.039830521 0.03910616
0.0079572452 -0.039786223 0.039109558
0.0091121001 -0.039865438 0.039550543
0.010213813 -0.039720383 0.03949219
0.011450406 -0.040076423 0.040122926
0.012469922 -0.039677024 0.039666682
0.01344607 -0.039217707 0.03950882
0.014565441 -0.039214648 0.0394651
0.015461886 -0.038654715 0.039348006
0.01661233 -0.038762104 0.039889753
0.017536802 -0.038361754 0.04091078
0.018448675 -0.037982564 0.040918082
0.019493384 -0.037903804 0.041037709
0.020687377 -0.038108326 0.040831089
0.022173008 -0.038802765 0.038773388
0.02541527 -0.042358782 0.037207574
0.02592952 -0.04125151 0.036077946
0.026052924 -0.039645754 0.034351528
0.027649095 -0.040321596 0.026016861
0.028512264 -0.039917171 0.011432976
-0.016200941 -0.039345145 0.01533106
-0.01513293 -0.039578434 0.022133499
-0.014187875 -0.040198978 0.025747031
-0.013627279 -0.04212068 0.030595809
-0.011429289 -0.038859583 0.032885402
-0.0098601757 -0.037249554 0.033195168
-0.0088591836 -0.037651528 0.033868194
-0.0076749125 -0.037278146 0.033944577
-0.0065644989 -0.037198827 0.033575028
-0.0055590011 -0.03780121 0.033587605
-0.0044868318 -0.038138069 0.034334421
-0.003427567 -0.038845759 0.0350402
-0.0023300746 -0.039611269 0.035571635
-0.0011613291 -0.03948519 0.036022753
0 -0.038772225 0.036969334
0.0011429166 -0.038859162 0.038506418
0.0022760569 -0.038692966 0.03900826
0.0034440279 -0.039032314 0.039549261
0.0046119331 -0.039201431 0.039916784
0.0057111066 -0.038835526 0.039934099
0.0068395589 -0.038757499 0.040175796
0.0080670649 -0.039182886 0.040348679
0.0090717999 -0.038555149 0.04086104
0.010307268 -0.038938567 0.040918738
0.011417708 -0.038820211 0.040973753
0.012547259 -0.03878244 0.040908337
0.013771768 -0.039020009 0.040563792
0.014924589 -0.03903354 0.040331125
0.015874228 -0.038551696 0.040134102
0.016939849 -0.038396988 0.03988865
0.018328648 -0.038948376 0.039996415
0.018664468 -0.037328936 0.039766788
0.019736102 -0.037279304 0.039776981
0.020676253 -0.036999613 0.039067209
0.021638829 -0.036786012 0.038202137
0.023120619 -0.037433386 0.037206024
0.025917916 -0.040054962 0.036658049
0.02831718 -0.041860178 0.035169482
0.027496243 -0.03895301 0.031627089
0.028521938 -0.038789835 0.024398595
0.030004533 -0.039236698 0.0075613558
-0.016431449 -0.03873127 0.018502384
-0.015377881 -0.039036158 0.022585034
-0.015156227 -0.041679624 0.026291102
-0.012397257 -0.037191771 0.03071329
-0.01103267 -0.03640781 0.033046454
-0.0099371215 -0.036436114 0.03343758
-0.0088880807 -0.036663335 0.033578902
-0.0080138268 -0.037779469 0.03343758
-0.0068901209 -0.037895665 0.033097446
-0.0057581193 -0.03800359 0.034107119
-0.0046549081 -0.03840299 0.034663737
-0.0035282022 -0.038810223 0.036136568
-0.0023182747 -0.03825153 0.037228107
-0.0011595748 -0.03826597 0.037955463
0 -0.038171533 0.038628489
0.0011353714 -0.037467256 0.040154487
0.0022879138 -0.037750576 0.04039827
0.0034693102 -0.038162414 0.040686816
0.0045756558 -0.03774916 0.04143092
0.0056956341 -0.037591185 0.041646242
0.0069274283 -0.038100857 0.041813672
0.0079865176 -0.037650727 0.041491598
0.0091401869 -0.037703272 0.041717231
0.010316724 -0.037827987 0.041864902
0.011509276 -0.037980612 0.042402089
0.012623844 -0.037871532 0.04222092
0.013805578 -0.037965339 0.041584104
0.01485269 -0.037702981 0.04144457
0.016064657 -0.037866689 0.040940851
0.017152088 -0.037734594 0.040837824
0.018404903 -0.037960116 0.040732771
0.01987006 -0.038571291 0.04036662
0.019755036 -0.036217567 0.040139407
0.020703185 -0.035958163 0.039061308
0.021900998 -0.03613665 0.038771719
0.022743797 -0.035740253 0.037773222
0.023966942 -0.035950411 0.036142588
0.026532544 -0.038068432 0.035905689
0.029725414 -0.040872443 0.034128219
0.028732229 -0.03792654 0.03008002
0.029995412 -0.0380711 0.018032342
-0.017645655 -0.037644066 0.014911115
-0.016642217 -0.038039349 0.022452116
-0.016325312 -0.040185381 0.023684621
-0.01346564 -0.035908375 0.026490599
-0.012147978 -0.035339572 0.031609505
-0.011017526 -0.03525608 0.033858627
-0.009982734 -0.035494164 0.034193844
-0.0094396397 -0.037758559 0.034335166
-0.0081333471 -0.037181016 0.034249753
-0.0068499329 -0.036532976 0.033816487
-0.0057331617 -0.036692236 0.035001963
-0.0046251849 -0.037001479 0.036681682
-0.0034777431 -0.037095927 0.037149668
-0.0023362108 -0.037379373 0.038372278
-0.0011684211 -0.037389476 0.038648099
0 -0.036382969 0.039236963
0.0011472059 -0.03671059 0.040746063
0.0022924396 -0.036679033 0.041127443
0.0034373258 -0.036664806 0.041435242
0.0045873895 -0.036699116 0.041811436
0.0057557165 -0.036836583 0.042160481
0.0068323775 -0.036439348 0.042322218
0.0080083311 -0.036609512 0.042400658
0.0091148913 -0.036459565 0.042750657
0.010374934 -0.036888655 0.042950958
0.011511784 -0.036837708 0.043781966
0.012597779 -0.036648083 0.043676615
0.013731077 -0.036616206 0.042859852
0.014847241 -0.036547057 0.042207301
0.015894163 -0.036329519 0.041615814
0.017058991 -0.036392514 0.041489929
0.018622363 -0.037244726 0.041159332
0.019673431 -0.03703234 0.04114756
0.020694679 -0.036790542 0.040878862
0.021603521 -0.036384877 0.03957355
0.02190241 -0.035043858 0.039500862
0.022861632 -0.034836773 0.038096666
0.024074296 -0.035017155 0.037140876
0.024941079 -0.034700632 0.036821187
0.02750553 -0.036674041 0.035050124
0.030300681 -0.038784873 0.032988489
0.029821606 -0.036703516 0.024365842
0.030965129 -0.036699411 0.0053320527
-0.017634667 -0.036444981 0.017644495
-0.017962506 -0.03977412 0.021534443
-0.014596161 -0.034806229 0.023862898
-0.013269697 -0.034280051 0.026770651
-0.012278045 -0.034601763 0.032299101
-0.011169903 -0.0346267 0.034178913
-0.010392484 -0.035796333 0.034433782
-0.0096741542 -0.037487347 0.034544021
-0.0081602214 -0.036138125 0.034339547
-0.0068850438 -0.035572726 0.034049571
-0.0057919845 -0.035910305 0.035493225
-0.0046539553 -0.036068156 0.037213713
-0.0035218145 -0.036392082 0.038063705
-0.002326699 -0.036063835 0.038929701
-0.0011668961 -0.03617378 0.039281338
0 -0.035769481 0.039734662
0.0011484863 -0.035603072 0.040938199
0.0022729328 -0.035230458 0.041478127
0.0034087976 -0.03522424 0.041773766
0.0046442025 -0.035992566 0.042052627
0.0056758639 -0.035190359 0.042765707
0.0068433518 -0.035357319 0.042602569
0.0080100391 -0.03547303 0.043347567
0.009103681 -0.035276763 0.04318282
0.010304175 -0.035492159 0.043061972
0.011454498 -0.035508946 0.044091254
0.012611859 -0.03554251 0.04403773
0.013811511 -0.035679739 0.043303818
0.01488685 -0.035499409 0.042760432
0.016112523 -0.035677727 0.042084008
0.017023362 -0.035181616 0.041944385
0.018390398 -0.0356314 0.04168281
0.019777998 -0.036065761 0.04130441
0.021007089 -0.036178876 0.040511936
0.021996895 -0.03588967 0.039560616
0.022976464 -0.035613518 0.039405823
0.024091525 -0.035563681 0.038583279
0.024488142 -0.034506019 0.03861776
0.02518752 -0.033948395 0.037343204
0.026445271 -0.034158476 0.036378711
0.029594837 -0.0366976 0.033629507
0.030689921 -0.036591828 0.026499987
0.030858392 -0.035430003 0.011667788
-0.019220732 -0.038441464 0.020090699
-0.015921377 -0.034117237 0.021735102
-0.014357692 -0.033133134 0.024104595
-0.013369809 -0.033424523 0.026988924
-0.012356408 -0.033699296 0.032327801
-0.011534257 -0.034602769 0.034112722
-0.010773603 -0.035912011 0.034144402
-0.0095448652 -0.035793245 0.03406775
-0.0081179282 -0.034791123 0.034112722
-0.0069453414 -0.034726705 0.034458637
-0.0058090119 -0.034854069 0.035765231
-0.0046483148 -0.034862362 0.037615627
-0.0035124621 -0.035124622 0.038375199
-0.002337533 -0.035062995 0.039052755
-0.0011583539 -0.034750618 0.039404392
0 -0.034792788 0.039904207
0.001137263 -0.034117889 0.041100264
0.0022657271 -0.033985905 0.041909367
0.0034343791 -0.034343794 0.042061418
0.004551277 -0.034134578 0.042765707
0.0056874133 -0.034124479 0.043435305
0.0068349005 -0.034174502 0.043548465
0.0079250913 -0.033964679 0.043750644
0.0091128917 -0.034173343 0.043850183
0.010272301 -0.034241002 0.043664157
0.011405678 -0.034217037 0.044431508
0.012698916 -0.034633406 0.044414788
0.013756587 -0.034391467 0.043941796
0.014838447 -0.03424257 0.0432432
0.016150799 -0.034608856 0.042377442
0.017026009 -0.034052018 0.042262912
0.018403925 -0.03450736 0.042067081
0.020009775 -0.035311367 0.041597933
0.02106832 -0.035113867 0.040808231
0.022145985 -0.034967344 0.040148437
0.02334404 -0.03501606 0.039236128
0.024202593 -0.034575131 0.038875341
0.025393212 -0.034627106 0.037832797
0.025645128 -0.033450168 0.037650377
0.026245104 -0.032806378 0.036764264
0.027547413 -0.033056896 0.034469515
0.031769883 -0.036657557 0.027119547
0.031380396 -0.034867108 0.014027208
-0.01741685 -0.033672575 0.020477921
-0.015656816 -0.032431975 0.022587955
-0.014678288 -0.032743875 0.024619699
-0.013865352 -0.033507932 0.026555747
-0.012982259 -0.034225956 0.031630486
-0.011832684 -0.034314785 0.034470499
-0.010735055 -0.034590732 0.034559071
-0.00970951 -0.035196971 0.034181863
-0.0080691893 -0.0334295 0.034559071
-0.0068882066 -0.033292998 0.034993589
-0.0057821185 -0.033536289 0.036233574
-0.0046931133 -0.034025069 0.038187444
-0.0034864496 -0.033702344 0.039373279
-0.0023275055 -0.033748832 0.040018886
-0.001163337 -0.033736777 0.040543884
0 -0.033098765 0.041931123
0.0011335313 -0.032872409 0.042476714
0.0022869117 -0.033160221 0.043147624
0.0033968519 -0.032836236 0.04391861
0.004584623 -0.033238515 0.044853359
0.0057284846 -0.033225212 0.045625538
0.0067997132 -0.032865282 0.045619398
0.0079313973 -0.032858644 0.046129793
0.0090065012 -0.032648567 0.045936942
0.010161941 -0.032744031 0.045404553
0.011399447 -0.033058397 0.045832068
0.012552644 -0.033093337 0.045854032
0.013670146 -0.033036187 0.045420736
0.014826386 -0.033074245 0.044355661
0.01589475 -0.032924838 0.043247521
0.016904293 -0.032681633 0.043104649
0.018544994 -0.033612803 0.042719275
0.019849036 -0.033860117 0.041881233
0.021200659 -0.034156617 0.041085541
0.022163045 -0.033827804 0.040280074
0.022969948 -0.033306424 0.039571196
0.024258532 -0.033499878 0.039690703
0.025730301 -0.033917215 0.038811564
0.026343253 -0.033215404 0.038588107
0.026469722 -0.031984247 0.038118571
0.027355507 -0.031732388 0.035573512
0.028838994 -0.03216657 0.027818441
0.033698473 -0.036194656 0.02032423
-0.016748684 -0.031264208 0.021024555
-0.015825389 -0.031650778 0.02327764
-0.015385995 -0.033139065 0.025336415
-0.014004718 -0.032677673 0.027344823
-0.01295586 -0.032978553 0.030027419
-0.011987814 -0.033565879 0.034526229
-0.010837383 -0.033716302 0.035049111
-0.0097838864 -0.034243602 0.034851998
-0.0081048692 -0.032419477 0.035108566
-0.0068602879 -0.032014679 0.035641253
-0.0057618967 -0.032266621 0.036743104
-0.0046449951 -0.032514967 0.038929224
-0.003490953 -0.032582227 0.040031761
-0.002321 -0.032494001 0.041277081
-0.0011541113 -0.032315116 0.043326259
0 -0.030926086 0.043871492
0.00111931 -0.031340681 0.044896513
0.002234089 -0.031277243 0.045688123
0.0033655253 -0.03141157 0.05040288
0.0045289556 -0.03170269 0.052217126
0.00556444 -0.031160863 0.052563637
0.006726461 -0.031390153 0.051749676
0.007728206 -0.030912824 0.051367104
0.0085573662 -0.029950781 0.051175416
0.0099495314 -0.030954098 0.050016105
0.011323076 -0.031704612 0.049652457
0.012464621 -0.031728126 0.049334973
0.013683787 -0.031928837 0.047743052
0.014702577 -0.031667091 0.046292245
0.015972916 -0.031945832 0.045258015
0.016967943 -0.031673495 0.044186562
0.018198729 -0.031847775 0.043684006
0.0197648 -0.032553785 0.043485463
0.02107968 -0.032790616 0.042775422
0.021956718 -0.032357268 0.041174263
0.023157006 -0.032419808 0.04046157
0.024214614 -0.032286152 0.0395661
0.025557088 -0.032527201 0.039162695
0.027553331 -0.033543184 0.039150596
0.026572959 -0.031001786 0.038394541
0.027525395 -0.030828442 0.036061227
0.028650334 -0.030854207 0.028180301
0.031338342 -0.032499019 0.021254361
0.033276562 -0.033276562 0.0088868141
-0.018192438 -0.030699741 0.005258888
-0.017001336 -0.030602405 0.021846831
-0.016005777 -0.030868286 0.023877054
-0.015668275 -0.0325418 0.025964081
-0.014192954 -0.031934146 0.027861297
-0.013133103 -0.032235797 0.029809117
-0.011817509 -0.031907275 0.034142315
-0.010914951 -0.032744851 0.035003215
-0.0097641116 -0.032953877 0.035483062
-0.008031725 -0.03097951 0.035667151
-0.0068667 -0.030900151 0.036755621
-0.0057300637 -0.030942343 0.03927964
-0.0045802793 -0.030916886 0.040430725
-0.0034420493 -0.030978445 0.043624192
-0.002304486 -0.031110562 0.044700831
-0.0010910669 -0.029458804 0.045579821
0 -0.029001454 0.047757417
0.0010637033 -0.02871999 0.049959511
0.0021482292 -0.029001093 0.051337123
0.0032769584 -0.029492624 0.054193586
0.0043677189 -0.029482104 0.057357967
0.0054485267 -0.029422045 0.054519892
0.0065186303 -0.029333837 0.053298324
0.0074793575 -0.02884895 0.054133087
0.00861568 -0.029077919 0.053476155
0.0096471608 -0.028941482 0.053486407
0.010751332 -0.029028596 0.054044545
0.01225658 -0.030084334 0.053360045
0.013427604 -0.03021211 0.051990092
0.014590572 -0.030303495 0.050505221
0.015756793 -0.030388102 0.048050165
0.016760169 -0.030168304 0.046543986
0.017963475 -0.030313363 0.045572877
0.019865735 -0.031551462 0.044902891
0.020790922 -0.031186383 0.044020712
0.022054479 -0.031340573 0.042145789
0.02325381 -0.031392645 0.04102087
0.0239699 -0.030818442 0.039882481
0.025591245 -0.031407438 0.03956008
0.028047971 -0.032925878 0.039657414
0.028321456 -0.031861637 0.038945109
0.027838023 -0.030065065 0.036698282
0.028931143 -0.030043878 0.028817356
0.029730283 -0.029730283 0.022501111
0.034848563 -0.033603974 0.014177889
-0.018098356 -0.029409828 0.0061740279
-0.017148795 -0.029724576 0.022232622
-0.015995052 -0.029705096 0.024622828
-0.016149942 -0.032299884 0.026445657
-0.014298474 -0.030980028 0.028577268
-0.013191635 -0.031180227 0.030769974
-0.011899364 -0.030938346 0.035043657
-0.010904162 -0.031500913 0.036283165
-0.0096818926 -0.031466153 0.036335379
-0.0081048338 -0.030103667 0.037588567
-0.0068185949 -0.029547244 0.039747953
-0.0056787012 -0.029529246 0.041098326
-0.004554301 -0.029602956 0.044347703
-0.0033781414 -0.029277226 0.050831646
-0.0021865605 -0.028425287 0.053782463
-0.0010844545 -0.028195817 0.05453217
0 -0.028008947 0.056360513
0.001073059 -0.027899535 0.056501776
0.0021440263 -0.027872341 0.057865709
0.0031955144 -0.027694458 0.05872941
0.0042340253 -0.027521163 0.059075117
0.0053548394 -0.027845165 0.059283078
0.0064098667 -0.02777609 0.058987111
0.0074185906 -0.027554763 0.059422523
0.0084146298 -0.027347546 0.059422523
0.0096293511 -0.027818125 0.059238702
0.010685851 -0.027783213 0.059154421
0.011805933 -0.027904933 0.059247464
0.013012767 -0.028194327 0.059247464
0.014065185 -0.028130369 0.058372736
0.015041828 -0.027934825 0.053665042
0.016041713 -0.027805636 0.051057786
0.017382294 -0.028246228 0.048594743
0.01935794 -0.02960626 0.047046334
0.020923952 -0.030223487 0.045437008
0.021847919 -0.029897152 0.043480814
0.022990147 -0.02988719 0.041800499
0.024061175 -0.029790025 0.040578008
0.025722958 -0.030399859 0.040000618
0.027926678 -0.031569287 0.040053844
0.028503029 -0.030878281 0.039181083
0.029144833 -0.030310625 0.036616176
0.028995119 -0.028995119 0.029095709
0.030195646 -0.02907729 0.023987085
0.032038856 -0.029750368 0.015618503
-0.01831493 -0.028617077 0.0067344904
-0.01688694 -0.028144902 0.022606939
-0.017033702 -0.030417323 0.024862558
-0.016116815 -0.030993875 0.02687788
-0.014061111 -0.02929398 0.0288046
-0.01317101 -0.029934114 0.031103015
-0.011936054 -0.029840134 0.036045164
-0.010755694 -0.029876929 0.03713429
-0.0096045006 -0.030014064 0.038103431
-0.0077411798 -0.027647071 0.040478617
-0.0065997415 -0.027498923 0.042739898
-0.0055018007 -0.027509002 0.048553556
-0.0044081444 -0.027550904 0.05652523
-0.0032358053 -0.026965044 0.057179034
-0.0021739327 -0.027174158 0.058063895
-0.0010628471 -0.026571179 0.059238076
0 -0.02652861 0.059316695
0.0010498685 -0.026246712 0.059396058
0.0020926492 -0.026158117 0.061355621
0.0031338066 -0.026115056 0.061838806
0.0041563832 -0.025977394 0.06228143
0.0050570262 -0.02528513 0.062199682
0.0061051445 -0.025438102 0.061895221
0.007285289 -0.02601889 0.062400609
0.0083622066 -0.026131896 0.062400609
0.009400405 -0.026112236 0.062392205
0.010421128 -0.026052821 0.061936826
0.011532841 -0.026211003 0.062392205
0.012659312 -0.026373567 0.062400609
0.013713978 -0.026373034 0.061863989
0.014858026 -0.026532188 0.059146821
0.016205581 -0.027009301 0.058298677
0.017167384 -0.026824037 0.056058824
0.018416477 -0.027083056 0.052616745
0.020835504 -0.028938198 0.048494577
0.021680575 -0.028527074 0.046754658
0.023117088 -0.02889636 0.04357934
0.024305623 -0.028935267 0.041766673
0.025174526 -0.028607417 0.040679991
0.028441841 -0.030915044 0.040750921
0.028678548 -0.029873488 0.040038556
0.029517734 -0.029517734 0.037268013
0.030865898 -0.029678749 0.029918045
0.030169945 -0.027935134 0.023888916
0.031462416 -0.028091442 0.01765424
-0.018157313 -0.027235968 0.006320864
-0.017667973 -0.028268758 0.02297917
-0.017621104 -0.030207606 0.0267784
-0.015871434 -0.029301109 0.027732551
-0.014174487 -0.028348975 0.029461831
-0.013148969 -0.02868866 0.031762153
-0.011878256 -0.028507814 0.037616998
-0.010634599 -0.028358931 0.040790021
-0.0089500789 -0.026850238 0.041870624
-0.0075677289 -0.0259465 0.04546982
-0.0065917922 -0.026367169 0.053182185
-0.0054257256 -0.026043482 0.05764401
-0.0042619887 -0.025571931 0.058551937
-0.0031828531 -0.025462825 0.059189409
-0.0021151113 -0.025381338 0.059269279
-0.0010533008 -0.025279218 0.060106546
0 -0.025482548 0.060870498
0.0010504372 -0.025210494 0.061538309
0.0020992707 -0.025191249 0.062091917
0.0032005822 -0.025604658 0.062746376
0.0042502913 -0.025501747 0.062982589
0.0053306869 -0.025587296 0.063310534
0.0063607837 -0.025443135 0.0636428
0.0073946016 -0.025352919 0.064109147
0.0084544765 -0.02536343 0.064132482
0.0095233908 -0.025395708 0.064010829
0.010553509 -0.025328422 0.064132482
0.011590682 -0.025288763 0.064132482
0.012572586 -0.025145171 0.064232498
0.013561451 -0.025036525 0.064401805
0.014779017 -0.025335457 0.062492341
0.015720898 -0.025153438 0.061788231
0.016921239 -0.025381858 0.061095029
0.01842298 -0.026008911 0.059711725
0.019669989 -0.026226653 0.057148069
0.021897027 -0.027659403 0.049787968
0.022970034 -0.027564039 0.047406912
0.023793474 -0.027192542 0.044538677
0.025336722 -0.02764006 0.0431678
0.028322982 -0.029554415 0.04272601
0.029021716 -0.029021716 0.041900814
0.029831095 -0.028637851 0.038410485
0.030971996 -0.028589536 0.030496567
0.030286854 -0.026921649 0.02541253
0.031605739 -0.027090635 0.019358635
-0.018831369 -0.027070094 0.0061126947
-0.018591197 -0.028506504 0.02254042
-0.017580936 -0.028882965 0.025088996
-0.016109644 -0.028501676 0.028054357
-0.014207374 -0.027230801 0.031327665
-0.01302302 -0.02722995 0.034879923
-0.01177411 -0.027080454 0.041817695
-0.010484957 -0.026794892 0.043545097
-0.0088443952 -0.025427636 0.048240095
-0.0076765297 -0.025222883 0.055742621
-0.006424454 -0.024627075 0.05921492
-0.0052990709 -0.024375726 0.059438974
-0.0042442488 -0.024404431 0.059522897
-0.0031859977 -0.024425982 0.059684187
-0.0021209856 -0.024391335 0.06018579
-0.0010683616 -0.024572315 0.061003685
0 -0.024472907 0.061621219
0.001073357 -0.02468721 0.062373489
0.0021588779 -0.024827095 0.062875092
0.0032267524 -0.024738435 0.063349843
0.0043200306 -0.024840176 0.06369549
0.0054559293 -0.025097275 0.06389147
0.0064909719 -0.02488206 0.064175636
0.0075618336 -0.024846025 0.06469515
0.0086455895 -0.02485607 0.064737082
0.0096802777 -0.024738487 0.064650387
0.0107467 -0.024717411 0.064991802
0.011750929 -0.024570124 0.065097243
0.012731322 -0.0244017 0.065098256
0.013732615 -0.024296165 0.065267563
0.014701637 -0.024152691 0.064828753
0.015619748 -0.023950281 0.064623386
0.016741266 -0.024065571 0.063884795
0.017755762 -0.024022501 0.064778537
0.019042458 -0.024332032 0.06249693
0.020609096 -0.024947852 0.059826642
0.021936962 -0.025227508 0.053639621
0.023228899 -0.025441173 0.048485547
0.024963429 -0.02609813 0.046092689
0.02798295 -0.02798295 0.044992805
0.029063981 -0.027852982 0.043911308
0.029911637 -0.027518706 0.039137036
0.031259656 -0.02765277 0.03165403
0.03066121 -0.026118809 0.026528925
0.031587191 -0.025946619 0.020131171
-0.01980219 -0.027228011 0.0068948865
-0.018517952 -0.027159663 0.023336411
-0.017671064 -0.027768813 0.026344866
-0.016071478 -0.027197886 0.028869212
-0.014050198 -0.025758697 0.032814354
-0.012900366 -0.025800731 0.042562336
-0.011737506 -0.025822513 0.044744432
-0.0099527165 -0.024328861 0.050123096
-0.0086685205 -0.023838433 0.056738973
-0.0074463254 -0.023402737 0.059939831
-0.0063641858 -0.023335347 0.060284793
-0.0052994061 -0.023317387 0.060397327
-0.0042350148 -0.023292582 0.060446799
-0.0032037408 -0.0234941 0.060887992
-0.0021514543 -0.023665998 0.06128186
-0.0010831078 -0.023828372 0.061679244
0 -0.024293462 0.062259465
0.0011273313 -0.024801288 0.062982589
0.0022687733 -0.024956506 0.063190222
0.0034475117 -0.025281753 0.063561618
0.0046314234 -0.025472827 0.064251184
0.0056810025 -0.024996411 0.064552039
0.0068812869 -0.025231386 0.064737082
0.0081122573 -0.025495665 0.065433741
0.0091323489 -0.025113959 0.065264434
0.010359397 -0.02532297 0.065384001
0.011313677 -0.024890089 0.065390527
0.012165594 -0.024331188 0.065342605
0.013130323 -0.02407226 0.065386772
0.013973306 -0.023647133 0.065764993
0.014961682 -0.023511214 0.065616965
0.015964098 -0.02341401 0.065389037
0.016819298 -0.023126535 0.065601945
0.01791626 -0.023185749 0.06665507
0.019044766 -0.023276936 0.065616965
0.019832287 -0.022963699 0.063698024
0.021670537 -0.023837591 0.059860408
0.02295172 -0.024044659 0.055601031
0.023788545 -0.023788545 0.050683945
0.02756029 -0.026362015 0.046998799
0.028898835 -0.026490599 0.045405835
0.030023895 -0.026421029 0.041832775
0.03079477 -0.026057113 0.032710642
0.030884331 -0.02516501 0.027509004
0.03174369 -0.02494147 0.020397365
0.03326096 -0.025232451 0.0052348077
-0.019677218 -0.025826348 0.0076426268
-0.018943997 -0.026521597 0.023467332
-0.01793576 -0.026903639 0.02688095
-0.015545737 -0.025112344 0.031181604
-0.013842561 -0.024224482 0.037769109
-0.012431411 -0.023732694 0.04537499
-0.011012196 -0.023125611 0.051570863
-0.0097159185 -0.022670476 0.057431877
-0.0085525503 -0.022450445 0.06058374
-0.0074424818 -0.022327445 0.060836583
-0.0064394549 -0.022538092 0.06102407
-0.005341731 -0.02243527 0.060944676
-0.0043178429 -0.022668676 0.060676038
-0.0032835838 -0.022985086 0.060782909
-0.0022579138 -0.023708096 0.060782909
-0.001141575 -0.023973076 0.061310709
0 -0.024017919 0.061668277
0.0011108781 -0.02332844 0.061702669
0.0022245373 -0.023357641 0.062626183
0.0033151936 -0.023206355 0.063368678
0.0043911715 -0.02305365 0.06330654
0.0055357045 -0.02324996 0.063339829
0.0066893892 -0.023412861 0.063980877
0.0076841847 -0.023052555 0.06460309
0.0088316929 -0.023183193 0.064652979
0.0099921227 -0.023314951 0.065033317
0.011079173 -0.023266261 0.065092206
0.012367117 -0.023609951 0.065095454
0.013809687 -0.024166951 0.065308928
0.014808178 -0.023920903 0.065484941
0.015498534 -0.023247801 0.065680563
0.016256234 -0.022758726 0.066418707
0.017128956 -0.022481754 0.067579508
0.018089024 -0.022345265 0.068081319
0.018944003 -0.022101337 0.067860246
0.019976808 -0.02207963 0.067471832
0.021046348 -0.022098664 0.063877255
0.022361524 -0.022361524 0.060559839
0.02394101 -0.022852782 0.055682391
0.026358562 -0.024066512 0.051326364
0.028514676 -0.02495034 0.047165215
0.029970294 -0.025175046 0.045037419
0.030914489 -0.024969395 0.033334881
0.031827502 -0.024754724 0.028250843
0.032087099 -0.024065325 0.020998359
0.032969985 -0.023874817 0.0055382848
-0.019898761 -0.024873452 0.0082604587
-0.018930744 -0.025240993 0.024404466
-0.017758906 -0.025369864 0.029639602
-0.015087281 -0.023211202 0.033363968
-0.013453003 -0.022421671 0.043038577
-0.012113829 -0.022025144 0.050361842
-0.010814822 -0.021629645 0.057758421
-0.0096035013 -0.021341115 0.05991587
-0.0085695339 -0.021423835 0.061473548
-0.007488037 -0.021394391 0.061745226
-0.0064642476 -0.021547491 0.061562777
-0.0054844888 -0.021937955 0.061284006
-0.004508046 -0.02254023 0.061255634
-0.003435916 -0.022906108 0.061253607
-0.0022213436 -0.022213435 0.061217189
-0.0011038006 -0.022076013 0.061599255
0 -0.021942101 0.061599761
0.0011004511 -0.022009023 0.06176272
0.0022077023 -0.022077022 0.062372357
0.0033018191 -0.022012128 0.062579632
0.0043867398 -0.021933699 0.063158333
0.0055036708 -0.022014683 0.063424468
0.0065541249 -0.021847084 0.063868582
0.0076798415 -0.021942403 0.063619435
0.0087945741 -0.021986434 0.064643264
0.0099043306 -0.022009624 0.064857662
0.011086349 -0.022172699 0.064276427
0.012176776 -0.022139592 0.064181477
0.013208296 -0.022013826 0.064952523
0.014437643 -0.022211758 0.064531893
0.015897978 -0.022711398 0.064589173
0.017260224 -0.023013633 0.065280348
0.017792832 -0.022241039 0.065685362
0.018421963 -0.021672897 0.067398965
0.019317318 -0.021463687 0.068221241
0.02012579 -0.021185042 0.068221241
0.02094283 -0.02094283 0.066407561
0.022035699 -0.02098638 0.063365847
0.023815034 -0.021650031 0.059696615
0.025356917 -0.022049494 0.054166675
0.028801555 -0.024001295 0.049933195
0.030092787 -0.02407423 0.046373904
0.030646879 -0.023574522 0.033802778
0.034010522 -0.02519298 0.02794084
0.032219302 -0.023013785 0.020515829
-0.020108443 -0.023878776 0.0086756051
-0.018622562 -0.023588579 0.02488187
-0.017643329 -0.023944516 0.031621516
-0.014772842 -0.021591077 0.034481198
-0.013325661 -0.021098964 0.048888326
-0.011945563 -0.020633245 0.05466345
-0.010823789 -0.020565201 0.058520615
-0.0095611848 -0.020184722 0.060256183
-0.008622013 -0.020477282 0.061944187
-0.0075829704 -0.020582348 0.061988086
-0.0066698208 -0.0211211 0.061847538
-0.005740731 -0.021814778 0.061703444
-0.0044648475 -0.021208026 0.061417311
-0.0033006666 -0.020904221 0.061473548
-0.0022116827 -0.021010986 0.061497748
-0.0011020155 -0.020938294 0.061875999
0 -0.020912906 0.061929584
0.0011007368 -0.020913998 0.061820686
0.0021898835 -0.020803893 0.061633497
0.0032867838 -0.020816296 0.06156683
0.0043900763 -0.020852864 0.062230885
0.0054789172 -0.020819886 0.062411517
0.0066011427 -0.020903619 0.062908739
0.0076942025 -0.020884264 0.063375413
0.008771047 -0.020831237 0.063460588
0.0098636178 -0.020823194 0.063488603
0.010951013 -0.020806925 0.063502312
0.012113621 -0.020923529 0.063465714
0.013290603 -0.021043455 0.064004391
0.014315542 -0.020922715 0.064264178
0.015441 -0.020955643 0.064278007
0.016689386 -0.02113989 0.064727664
0.018212082 -0.021626847 0.065158427
0.019270783 -0.021537933 0.06553188
0.019694801 -0.020788958 0.066274852
0.020252658 -0.020252658 0.066874206
0.021097066 -0.020042213 0.066874206
0.02234064 -0.020212961 0.06438607
0.023175299 -0.020015031 0.062515467
0.024597261 -0.020319477 0.059401333
0.027253035 -0.021575319 0.052485555
0.029810918 -0.022656297 0.047917277
0.030682474 -0.022421809 0.03498438
0.034317862 -0.024149608 0.027997553
0.033302028 -0.022597803 0.019842923
-0.019940283 -0.022432819 0.0089987218
-0.01882267 -0.022587202 0.025137037
-0.017655449 -0.022699863 0.032996029
-0.014713907 -0.020373102 0.042351902
-0.013098221 -0.019647332 0.051725209
-0.011905136 -0.01948113 0.057936192
-0.010701829 -0.019263292 0.058900028
-0.009702336 -0.019404672 0.060801983
-0.0087708468 -0.019734405 0.062174708
-0.0078516891 -0.020190056 0.062075347
-0.0068490012 -0.020547003 0.061303645
-0.0055351052 -0.019926379 0.061041564
-0.0044053174 -0.019823927 0.060701758
-0.003306252 -0.019837512 0.061041564
-0.0022020105 -0.019818094 0.060896844
-0.0010909697 -0.019637454 0.061022133
0 -0.020047385 0.061185807
0.001097606 -0.019756908 0.061426193
0.0022068808 -0.019861929 0.06141606
0.0033420504 -0.020052303 0.061454535
0.0043804781 -0.019712152 0.062106669
0.0055238423 -0.019885832 0.062199652
0.0066554132 -0.019966239 0.062687367
0.0076923203 -0.019780252 0.06306529
0.0088317171 -0.019871365 0.063288301
0.0099526867 -0.019905373 0.063729405
0.01099763 -0.019795734 0.063894689
0.012089908 -0.019783486 0.063729405
0.013269837 -0.019904755 0.063921988
0.01425825 -0.019742193 0.063976943
0.015544564 -0.019985868 0.064072043
0.016569424 -0.019883309 0.064125299
0.01775606 -0.019975567 0.064506829
0.01912757 -0.02025272 0.065078259
0.020646835 -0.020646835 0.065623671
0.020954799 -0.019851916 0.065805227
0.021860426 -0.019674383 0.066171497
0.022215083 -0.019041501 0.065683424
0.023185577 -0.018970018 0.064638048
0.024440194 -0.019127108 0.061591625
0.026097111 -0.019572834 0.056842327
0.028498964 -0.020519255 0.0515095
0.030262932 -0.02095126 0.039643854
0.034154192 -0.022769462 0.030723065
0.03455602 -0.022214586 0.021085024
-0.019979339 -0.021228049 0.010581315
-0.018741563 -0.021240437 0.028306395
-0.016630048 -0.020193629 0.035336316
-0.014448457 -0.018894136 0.050205916
-0.013082515 -0.018533561 0.055233002
-0.011833183 -0.018287648 0.05861181
-0.010777617 -0.018321948 0.059345812
-0.0098883025 -0.018677905 0.06112054
-0.0089687603 -0.019058617 0.061430812
-0.0079144975 -0.019220922 0.061061114
-0.0066577676 -0.018863674 0.061002165
-0.0055288514 -0.018798094 0.060530275
-0.00439983 -0.018699277 0.06016916
-0.0032981178 -0.018689334 0.05999732
-0.0021954924 -0.018661685 0.059972882
-0.0011055486 -0.018794324 0.060180366
0 -0.018708488 0.060409307
0.0011001915 -0.018703256 0.060283929
0.0022325041 -0.018976284 0.06056872
0.0033092578 -0.018752461 0.061049134
0.0044448753 -0.01889072 0.06184426
0.0056037218 -0.019052655 0.061734885
0.0066263597 -0.018774685 0.061998874
0.007778584 -0.018890847 0.062605858
0.0088864742 -0.018883757 0.062717885
0.0099430764 -0.018781366 0.063026309
0.011067292 -0.018814396 0.063147932
0.012172556 -0.018812131 0.063147932
0.013270899 -0.018800441 0.06326893
0.014382808 -0.018808287 0.0635508
0.015401851 -0.018702248 0.063665539
0.016479507 -0.018676775 0.063981801
0.017778877 -0.018890057 0.064470828
0.018812642 -0.018812642 0.06482631
0.020115232 -0.01899772 0.065064639
0.021878444 -0.019575449 0.065867484
0.021845208 -0.018568428 0.066444755
0.02264603 -0.018332502 0.066142797
0.023628976 -0.018258754 0.064962357
0.024267642 -0.017936952 0.06323278
0.025712825 -0.018213252 0.06069237
0.027867669 -0.018950015 0.053376406
0.028988848 -0.018954245 0.046800882
0.034026433 -0.021424051 0.032527298
0.034826662 -0.021144759 0.016561329
-0.020033833 -0.020033833 0.012218058
-0.018270787 -0.019488839 0.029019862
-0.016080035 -0.018377183 0.044671208
-0.014174294 -0.017445285 0.054418892
-0.012914146 -0.017218862 0.056217343
-0.011929835 -0.017352488 0.058749557
-0.01093911 -0.017502576 0.059677124
-0.0099651702 -0.017715858 0.06084612
-0.0090701701 -0.01814034 0.06092
-0.0077527384 -0.017720545 0.060539424
-0.0066743204 -0.017798187 0.060094267
-0.0055085663 -0.017627412 0.059758365
-0.0043928563 -0.017571425 0.059467524
-0.0033042089 -0.017622447 0.059488028
-0.0022303513 -0.017842811 0.059806585
-0.0011011868 -0.01761899 0.059903383
0 -0.017727144 0.060276717
0.0011140297 -0.017824475 0.060566753
0.002201501 -0.017612008 0.061049134
0.0033325108 -0.017773392 0.06190151
0.0044546933 -0.017818773 0.062286466
0.0055088708 -0.017628387 0.06244114
0.006647299 -0.017726131 0.062944323
0.0077944859 -0.017815968 0.063431025
0.0088520693 -0.017704139 0.063488841
0.0099684568 -0.017721701 0.063690424
0.011080885 -0.017729416 0.063740969
0.012141995 -0.017661083 0.063979328
0.013343425 -0.017791234 0.064127564
0.014340371 -0.017649688 0.064413399
0.015497536 -0.01771147 0.063990206
0.016557388 -0.017661214 0.064710587
0.017450299 -0.017450299 0.064969927
0.01886365 -0.017754024 0.06493029
0.020084931 -0.017853271 0.065162629
0.021172909 -0.017829819 0.065785319
0.02289734 -0.018317873 0.066313356
0.02318904 -0.017667839 0.066050649
0.023613494 -0.01717345 0.06571579
0.02442902 -0.0169941 0.064061701
0.025583673 -0.017055782 0.061773658
0.027196897 -0.017406015 0.054508984
0.029262561 -0.018007731 0.048078328
0.033641074 -0.019935451 0.033451736
0.035295919 -0.020169096 0.015068769
-0.019563774 -0.018341038 0.011736274
-0.01753732 -0.01753732 0.032125473
-0.015682498 -0.016802676 0.050738007
-0.014013199 -0.016169075 0.056276917
-0.013099777 -0.01637472 0.056614935
-0.012043784 -0.016423343 0.058921367
-0.01105121 -0.016576814 0.059639513
-0.010265364 -0.01710894 0.059899837
-0.0089607267 -0.016801363 0.059956521
-0.0077932971 -0.016699923 0.059866607
-0.0066627148 -0.016656786 0.059461296
-0.0055198963 -0.016559688 0.059190601
-0.0043941336 -0.016478 0.059149295
-0.0033245173 -0.016622586 0.059354872
-0.0022157708 -0.016618282 0.059643835
-0.0011060701 -0.016591052 0.059687257
0 -0.01679193 0.060341477
0.0010987673 -0.016481509 0.0608401
0.0022173531 -0.016630149 0.061212897
0.0033588398 -0.016794199 0.061843336
0.0044360007 -0.016635003 0.062520415
0.005547584 -0.016642753 0.062703133
0.0067236866 -0.016809216 0.06283623
0.007776686 -0.016664328 0.063639164
0.0089003686 -0.016688192 0.063699216
0.010022789 -0.016704649 0.063904971
0.011029917 -0.016544875 0.063954443
0.01224922 -0.016703483 0.064233333
0.013345771 -0.016682213 0.064429015
0.014470237 -0.016696427 0.064539284
0.015683349 -0.016803589 0.064624399
0.016732747 -0.016732747 0.064664334
0.0176792 -0.016574251 0.064731508
0.018838039 -0.016621798 0.064729959
0.020020591 -0.016683826 0.065210015
0.021234367 -0.016763974 0.065523416
0.022642225 -0.016981669 0.066110522
0.023870856 -0.017050611 0.066233695
0.023945451 -0.016326444 0.065769166
0.024864092 -0.016215712 0.064702511
0.025662888 -0.016039304 0.062644124
0.027154805 -0.016292883 0.059015781
0.029370222 -0.016944358 0.049205929
0.033183485 -0.01843527 0.034598798
0.035878707 -0.019220736 0.011768878
-0.019195879 -0.016796395 0.01313293
-0.017576495 -0.016404727 0.032429874
-0.01517772 -0.01517772 0.052227259
-0.014115336 -0.015201132 0.056684703
-0.013148787 -0.015340253 0.057527512
-0.012040537 -0.015324319 0.059128821
-0.011290337 -0.015806472 0.059599221
-0.010114271 -0.015733311 0.059959799
-0.0089130709 -0.015597874 0.059746474
-0.0077737486 -0.015547497 0.059269726
-0.0066751642 -0.015575383 0.059099555
-0.0055527878 -0.015547806 0.058876157
-0.0044180173 -0.015463061 0.058835566
-0.0033592191 -0.015676357 0.059026301
-0.0022194351 -0.015536045 0.059542298
-0.0011089368 -0.015525116 0.060010433
0 -0.015462127 0.060254782
0.0011055903 -0.015478264 0.060691208
0.0022445039 -0.015711527 0.061102569
0.0033245371 -0.015514507 0.061665624
0.0044666929 -0.015633425 0.062113672
0.0056054168 -0.015695166 0.062594384
0.006689766 -0.015609453 0.06288746
0.0077946163 -0.015589233 0.063566238
0.0089593055 -0.015678784 0.063685745
0.010051311 -0.015635371 0.063935965
0.011118801 -0.015566322 0.064039797
0.012276717 -0.015624913 0.064151555
0.013367009 -0.015594844 0.064337581
0.014499567 -0.015614918 0.064626306
0.015544649 -0.015544649 0.064638227
0.016626118 -0.01551771 0.064805984
0.017784374 -0.015561327 0.064740568
0.018787514 -0.015472071 0.064708561
0.019862052 -0.015448263 0.064910382
0.021252945 -0.015660064 0.065279871
0.022221746 -0.015555222 0.065813273
0.02421416 -0.016142773 0.066138238
0.02452042 -0.015603903 0.065933585
