ply
format ascii 1.0
comment PCL generated
element vertex 1270
property float x
property float y
property float z
element camera 0
property float view_px
property float view_py
property float view_pz
property float x_axisx
property float x_axisy
property float x_axisz
property float y_axisx
property float y_axisy
property float y_axisz
property float z_axisx
property float z_axisy
property float z_axisz
property float focal
property float scalex
property float scaley
property float centerx
property float centery
property int viewportx
property int viewporty
property float k1
property float k2
end_header
-0.010246273 -0.041780572 0.046786789
-0.0098972525 -0.040551834 0.046636946
-0.0098972525 -0.040551834 0.046636946
-0.0098637594 -0.040385552 0.04659247
-0.0099876057 -0.037771445 0.046777155
-0.01002399 -0.03635579 0.046489034
-0.0097016105 -0.036526546 0.046489034
-0.0095871678 -0.035245754 0.046694711
-0.0095730582 -0.035245754 0.046694711
-0.0096565476 -0.03274972 0.04667592
-0.0095641837 -0.032483634 0.046766613
-0.0093927654 -0.0306537 0.04706046
-0.0092672696 -0.030716289 0.047062848
-0.0092291776 -0.029059667 0.047410723
-0.009017691 -0.029059667 0.047302358
-0.0090535153 -0.027198581 0.047803119
-0.0088585857 -0.026945207 0.047905639
-0.0087655336 -0.025957275 0.048431754
-0.0087655336 -0.025284033 0.048778623
-0.0084365755 -0.024746705 0.048588831
-0.0085265804 -0.023200106 0.0494124
-0.0084111197 -0.020956371 0.049406812
-0.0086115953 -0.020937497 0.049406812
-0.0084966868 -0.018768944 0.049253743
-0.0083140451 -0.018024296 0.048428271
-0.0083140451 -0.018276189 0.046760399
-0.0083582513 -0.0174287 0.044701695
-0.0093849823 -0.017491542 0.035179336
-0.0072326586 -0.019726183 0.032035843
-0.0077162702 -0.022787683 0.030548725
-0.0064455695 -0.023993112 0.024876865
-0.0075693568 -0.01915545 0.02502772
-0.0083468435 -0.016018972 0.022693194
-0.0081986198 -0.014596514 0.020480037
-0.0081601869 -0.015237723 0.013488683
-0.01181927 -0.051928934 0.045228899
-0.012583205 -0.049579713 0.047207162
-0.012493063 -0.047589321 0.048478834
-0.012143683 -0.047351483 0.049098775
-0.012031838 -0.045849912 0.049469709
-0.012126908 -0.045552265 0.049469709
-0.011538554 -0.047130138 0.049209327
-0.011664848 -0.045449764 0.048329584
-0.011574293 -0.044547703 0.047798358
-0.011520145 -0.04371712 0.047698006
-0.01142151 -0.04298484 0.047469769
-0.011370055 -0.041829836 0.04721589
-0.011236096 -0.041654997 0.04708223
-0.011231254 -0.039897531 0.04737499
-0.011103325 -0.039265249 0.046964377
-0.010980976 -0.038437854 0.046890318
-0.010773282 -0.036843378 0.046930645
-0.010472475 -0.036951624 0.047202706
-0.010650657 -0.03624557 0.046956278
-0.01052962 -0.034159794 0.046999287
-0.010361878 -0.034966558 0.047163486
-0.010477172 -0.032480221 0.047240626
-0.010541562 -0.032695122 0.047407743
-0.010194045 -0.031394165 0.047513865
-0.010421326 -0.030226156 0.047383096
-0.010119585 -0.029126879 0.047410723
-0.0099261738 -0.029451486 0.047806449
-0.0098521821 -0.027271707 0.04866289
-0.0097123263 -0.026984423 0.048447229
-0.009533152 -0.025957275 0.048639871
-0.0096001159 -0.025547683 0.049128126
-0.0096133845 -0.02319058 0.049085919
-0.0096318983 -0.021536864 0.04932129
-0.0096318983 -0.020942084 0.04932129
-0.0093751578 -0.020558547 0.04932129
-0.0093610026 -0.018768944 0.048428271
-0.0093226358 -0.019492785 0.047748286
-0.0089651272 -0.018530596 0.045950949
-0.0093343556 -0.018600294 0.037964895
-0.0092482232 -0.022548689 0.032035843
-0.0077725155 -0.024821971 0.030752195
-0.0077733044 -0.023774814 0.029084379
-0.0092239967 -0.020125382 0.025207384
-0.0093335016 -0.016249079 0.023279499
-0.0091369962 -0.016249079 0.021439789
-0.009670482 -0.015780807 0.017324775
-0.013739206 -0.049940713 0.045382019
-0.012730762 -0.049073778 0.047344416
-0.013172457 -0.046674002 0.048609342
-0.012933266 -0.046945613 0.0495435
-0.012811979 -0.045474723 0.049948156
-0.012853968 -0.044556007 0.049512628
-0.012148298 -0.045841221 0.049246002
-0.012199484 -0.045492209 0.048702095
-0.012454774 -0.042857744 0.048094157
-0.012092056 -0.043633968 0.047698006
-0.012092056 -0.042795166 0.047723457
-0.011699844 -0.040445019 0.04759378
-0.011859421 -0.040242493 0.047582608
-0.011699844 -0.040139731 0.04737499
-0.011770635 -0.038032245 0.047250278
-0.011694753 -0.037811674 0.047250278
-0.011823207 -0.035694607 0.047473669
-0.011823207 -0.035694607 0.047473669
-0.011357283 -0.034857493 0.047566343
-0.011357283 -0.034142241 0.047619373
-0.01141909 -0.032195099 0.047773939
-0.011411209 -0.031770941 0.047759023
-0.01114446 -0.031355686 0.047558699
-0.010873277 -0.029990081 0.048210889
-0.01084929 -0.029551681 0.048497222
-0.010831419 -0.028322577 0.049050611
-0.010508642 -0.027367547 0.049025971
-0.010508642 -0.027342349 0.049009286
-0.010422832 -0.026199352 0.049016971
-0.011109194 -0.024159249 0.049346276
-0.010533881 -0.022295754 0.049434189
-0.010261432 -0.021668885 0.049421072
-0.0097591355 -0.021536864 0.049507119
-0.010254356 -0.020062659 0.048387151
-0.009662848 -0.019222699 0.048387151
-0.0097283628 -0.019492785 0.046839386
-0.010677297 -0.019177023 0.041725565
-0.0098135667 -0.022179712 0.032476395
-0.0087307952 -0.025957033 0.030986797
-0.0088609653 -0.025395911 0.029052639
-0.0095199989 -0.021119788 0.025565159
-0.010131596 -0.017253719 0.023279499
-0.010131596 -0.017253719 0.021343501
-0.0092180418 -0.016760187 0.017393075
-0.01407817 -0.049476355 0.045609683
-0.01412072 -0.0479398 0.047730088
-0.013649933 -0.047010571 0.048455618
-0.01382032 -0.044789929 0.048853137
-0.013691714 -0.044143833 0.049338639
-0.013523721 -0.044143833 0.048853137
-0.013198361 -0.04331797 0.048669543
-0.013446521 -0.044030093 0.048844334
-0.013034851 -0.042978592 0.048177186
-0.013034407 -0.042035367 0.04826634
-0.013034851 -0.041823652 0.048404541
-0.012733233 -0.040037658 0.048290342
-0.012733233 -0.039498646 0.048290342
-0.01252647 -0.038542464 0.048063893
-0.01252647 -0.038508933 0.048242837
-0.012471375 -0.036900695 0.048194528
-0.012433124 -0.035550419 0.04819347
-0.012351552 -0.03462062 0.04813721
-0.012287887 -0.033457775 0.048306376
-0.012210658 -0.032212123 0.048929464
-0.011998264 -0.032212123 0.049008045
-0.011958236 -0.031025853 0.048705395
-0.012105763 -0.029991917 0.048915301
-0.011865919 -0.028630629 0.04894888
-0.011589128 -0.028596897 0.04894888
-0.011547429 -0.028217798 0.04897318
-0.011432565 -0.026237134 0.049016971
-0.011326283 -0.024306266 0.049006779
-0.011295347 -0.024159249 0.04916583
-0.011476422 -0.022295754 0.049421072
-0.011231895 -0.022278905 0.049434189
-0.011134821 -0.020393793 0.048110802
-0.011134821 -0.020393793 0.048110802
-0.011165951 -0.019496977 0.046528853
-0.010909978 -0.019358341 0.042094558
-0.010998104 -0.022505432 0.033034176
-0.0099944137 -0.026350915 0.031056831
-0.009750152 -0.026351705 0.029084379
-0.0099952202 -0.02467845 0.029024856
-0.010854759 -0.019959662 0.024267934
-0.011202115 -0.017932236 0.020458976
-0.011303211 -0.01723082 0.017446175
-0.014718056 -0.049974512 0.039753694
-0.01407817 -0.048774872 0.045609683
-0.014544118 -0.046298489 0.047717411
-0.014544118 -0.045254786 0.048314229
-0.014540322 -0.044789929 0.048617549
-0.014502889 -0.043267816 0.049137782
-0.014327898 -0.042266406 0.049495071
-0.014327898 -0.042210735 0.049251907
-0.014115333 -0.041807212 0.048720885
-0.013911221 -0.041823652 0.048720885
-0.013920721 -0.042041071 0.049588412
-0.013852688 -0.039320592 0.049181879
-0.013188388 -0.040220823 0.049081266
-0.013617984 -0.037615858 0.048925437
-0.013404672 -0.037658188 0.049242198
-0.013415704 -0.035752814 0.049398564
-0.013179544 -0.035807006 0.049398564
-0.013415704 -0.035330344 0.049407154
-0.013376242 -0.033549149 0.04945755
-0.013086791 -0.033233181 0.049501155
-0.013187759 -0.031211194 0.049365204
-0.012968423 -0.031037267 0.049365204
-0.012509587 -0.029959124 0.049157087
-0.012509587 -0.029959124 0.049157087
-0.012327006 -0.027853783 0.04897318
-0.01270535 -0.025698233 0.049197134
-0.013075254 -0.024657071 0.049233321
-0.012467595 -0.024480641 0.049233321
-0.012399594 -0.023337778 0.049261261
-0.012183006 -0.023058649 0.048960112
-0.012183006 -0.022295754 0.048604809
-0.011942902 -0.020803805 0.04753238
-0.011942902 -0.02126777 0.046534151
-0.012062815 -0.020950746 0.042029209
-0.011397729 -0.022505432 0.032841742
-0.0099944137 -0.026350915 0.031056831
-0.010860875 -0.026390668 0.029749516
-0.011033081 -0.025398031 0.02729179
-0.011732151 -0.02011564 0.025770405
-0.013154303 -0.018791862 0.022662651
-0.012345483 -0.018455049 0.017485783
-0.015722988 -0.047138385 0.044994526
-0.016281886 -0.044906512 0.046793643
-0.014897969 -0.045254786 0.048318714
-0.015349367 -0.043516994 0.048429623
-0.015349367 -0.042879194 0.048382521
-0.015304789 -0.04095149 0.048762776
-0.015197192 -0.040894486 0.049101263
-0.014967435 -0.040130727 0.049120039
-0.014707108 -0.03909345 0.049500775
-0.01467603 -0.040559947 0.049440458
-0.014443599 -0.039283134 0.049423311
-0.014364053 -0.038327411 0.049598552
-0.014169042 -0.038325239 0.049598552
-0.014063705 -0.036461875 0.049573779
-0.014075763 -0.03554824 0.049582038
-0.013813407 -0.034191221 0.049782917
-0.013743967 -0.034315336 0.04990834
-0.013582043 -0.032753028 0.049878448
-0.013582043 -0.033233181 0.049831979
-0.013187759 -0.031037267 0.049365204
-0.013883921 -0.029270593 0.049323231
-0.013699876 -0.028278586 0.049251758
-0.013879307 -0.026767857 0.049089234
-0.01361431 -0.025605589 0.049197134
-0.013373955 -0.024663314 0.049197134
-0.013373955 -0.024657071 0.048985131
-0.012708829 -0.022961602 0.048222527
-0.013055521 -0.022608344 0.047811925
-0.012875921 -0.02267186 0.047351927
-0.013417343 -0.021749841 0.045839701
-0.013034755 -0.021253776 0.041532129
-0.013145895 -0.023557745 0.031093819
-0.013145895 -0.023557745 0.030321425
-0.01190237 -0.028539881 0.028483825
-0.012084704 -0.026462726 0.027492797
-0.012084704 -0.025588237 0.027287904
-0.013219279 -0.018841892 0.02228489
-0.01334676 -0.018772924 0.017784795
-0.015722988 -0.046944249 0.044994526
-0.016420092 -0.044512462 0.046677858
-0.016028559 -0.043633852 0.047930926
-0.016180709 -0.042267259 0.048228011
-0.016180709 -0.042267259 0.048228011
-0.016069651 -0.040924218 0.048418522
-0.016118983 -0.038562477 0.048688825
-0.015564572 -0.03941296 0.049072769
-0.015682856 -0.03759389 0.048868924
-0.015549378 -0.03759389 0.049076762
-0.015334538 -0.036490127 0.04897818
-0.015334538 -0.036498461 0.049131304
-0.015257571 -0.034442455 0.049109142
-0.015140632 -0.03408381 0.049566165
-0.015065504 -0.033188727 0.049359914
-0.01472573 -0.033074211 0.049359914
-0.014903805 -0.03029871 0.049285155
-0.014693195 -0.02938639 0.049175851
-0.014606354 -0.029053465 0.049175851
-0.014606354 -0.029053465 0.049175851
-0.014603899 -0.02704975 0.049067605
-0.014463468 -0.026303247 0.049067605
-0.014463468 -0.025605589 0.048779748
-0.014374488 -0.024958652 0.048751656
-0.01414377 -0.02425684 0.048751656
-0.01389278 -0.023731224 0.047612786
-0.013781522 -0.022835761 0.047015071
-0.014010789 -0.022797756 0.04472699
-0.013062051 -0.023612849 0.03481061
-0.014113689 -0.024008404 0.030824589
-0.014113689 -0.023557745 0.030321425
-0.013469663 -0.026917465 0.0276605
-0.013367216 -0.026869595 0.027492797
-0.014987478 -0.023872726 0.026170833
-0.014727464 -0.021001946 0.019881541
-0.01353077 -0.019385453 0.015461472
-0.016728781 -0.047501694 0.038833532
-0.017481318 -0.04457736 0.045259863
-0.017481318 -0.043739635 0.046486463
-0.017295972 -0.041507229 0.047139704
-0.016908327 -0.040413655 0.047968745
-0.016823642 -0.03942972 0.047937304
-0.01664036 -0.039081119 0.0483962
-0.01633467 -0.037869006 0.04835996
-0.016351482 -0.036784556 0.048349172
-0.016351482 -0.035514295 0.048349172
-0.016299559 -0.034914367 0.048419215
-0.015489568 -0.034914367 0.048943195
-0.016143639 -0.033334117 0.048734885
-0.015930675 -0.032257695 0.048910886
-0.015550533 -0.031964984 0.048910886
-0.01544494 -0.03029871 0.049271837
-0.015660662 -0.029356219 0.049042296
-0.015449457 -0.029271431 0.048836604
-0.015388259 -0.027065741 0.048581157
-0.015388259 -0.026822656 0.048581157
-0.015388259 -0.026822656 0.048581157
-0.015258583 -0.025605589 0.048779748
-0.015121197 -0.02500562 0.047917835
-0.015121197 -0.024928633 0.047064792
-0.014640525 -0.023826774 0.04517024
-0.015729079 -0.02504633 0.042348027
-0.015271666 -0.025897317 0.031890273
-0.014823332 -0.025896817 0.030824589
-0.014823332 -0.027042333 0.028483825
-0.01474523 -0.027042333 0.0276605
-0.015834454 -0.023872726 0.026878446
-0.015874645 -0.022668218 0.025099277
-0.016359592 -0.022029638 0.019389544
-0.018997192 -0.047562666 0.031944185
-0.01759694 -0.044987578 0.044365495
-0.017926004 -0.041736964 0.046537712
-0.017809287 -0.041022267 0.046857025
-0.017615713 -0.041416086 0.046925429
-0.017571604 -0.039571177 0.04769358
-0.017545238 -0.037635949 0.047232535
-0.017333522 -0.037876647 0.047937304
-0.017144158 -0.0355618 0.047920018
-0.017134639 -0.0355618 0.04814893
-0.017138347 -0.03397068 0.048061132
-0.016987177 -0.033604931 0.048366923
-0.016861971 -0.03331209 0.04861882
-0.016749367 -0.030949902 0.04813242
-0.016621541 -0.030949902 0.04813242
-0.016621541 -0.030949902 0.04813242
-0.016366236 -0.02879912 0.047890436
-0.016496293 -0.028548177 0.047890436
-0.016366236 -0.028322317 0.047966979
-0.016100157 -0.026049476 0.047436737
-0.016100157 -0.026049476 0.047162481
-0.016100157 -0.026049476 0.046373621
-0.016176356 -0.025144409 0.043873351
-0.016157473 -0.0261444 0.033771902
-0.016157473 -0.028080367 0.032197073
-0.014619755 -0.030724943 0.029656386
-0.015490877 -0.031523023 0.029656386
-0.015882321 -0.026917465 0.027614878
-0.01678567 -0.023108635 0.024843335
-0.017546227 -0.0238939 0.01947348
-0.016539391 -0.023293205 0.015305148
-0.018997192 -0.047562666 0.031944185
-0.019267008 -0.041548844 0.039693493
-0.017102234 -0.041234899 0.043821607
-0.01835341 -0.039428886 0.046544231
-0.018458802 -0.039276902 0.04672876
-0.018181706 -0.037635949 0.047189705
-0.018181706 -0.037229206 0.047232535
-0.018104156 -0.034811243 0.047354504
-0.01808759 -0.034239449 0.04788702
-0.018040681 -0.03397068 0.047987312
-0.017780036 -0.03305221 0.047918022
-0.01771524 -0.032729071 0.047752172
-0.017287675 -0.031156957 0.047544807
-0.017393392 -0.030138135 0.047184795
-0.017393392 -0.029730771 0.047189537
-0.017297857 -0.028548177 0.046597153
-0.017216172 -0.02806643 0.046579804
-0.017297857 -0.02806643 0.045103814
-0.017285541 -0.027522359 0.041845784
-0.017315999 -0.028080367 0.032866716
-0.017315999 -0.029676303 0.031686954
-0.016700326 -0.032758914 0.03094648
-0.016700326 -0.032758914 0.028779238
-0.016700326 -0.031523023 0.028779238
-0.016846361 -0.026421949 0.027114948
-0.017875165 -0.024125151 0.019493848
-0.017625842 -0.025311425 0.01568895
-0.020942945 -0.046441842 0.024580032
-0.019826028 -0.043193411 0.034886595
-0.018922739 -0.040211059 0.039693493
-0.018678095 -0.039437894 0.043894965
-0.019125532 -0.037357733 0.046300147
-0.019113259 -0.036286548 0.046794921
-0.018930107 -0.034795597 0.046623517
-0.018930107 -0.034811243 0.046801805
-0.018541466 -0.033564389 0.046597689
-0.018541466 -0.033564389 0.046597689
-0.018493045 -0.032281641 0.04641366
-0.018318126 -0.031402502 0.046175897
-0.018489366 -0.030893579 0.042221826
-0.018489366 -0.030893579 0.042221826
-0.018609809 -0.030765641 0.033771902
-0.018596523 -0.031481974 0.03105846
-0.018609809 -0.031100962 0.029808203
-0.018452039 -0.031100962 0.028243273
-0.017931074 -0.035126515 0.028620316
-0.017931074 -0.034814045 0.028440604
-0.018452039 -0.031466715 0.02782719
-0.018923523 -0.02738679 0.02234593
-0.018627435 -0.026155099 0.015927557
-0.020942945 -0.046201956 0.024198987
-0.020942945 -0.046201956 0.024198987
-0.022079356 -0.042756502 0.025275528
-0.020930845 -0.040041618 0.031124532
-0.020089481 -0.037426066 0.033863761
-0.020089481 -0.037426066 0.033901472
-0.020089481 -0.037426066 0.033901472
-0.020057324 -0.036290046 0.033901472
-0.020057324 -0.036290046 0.033901472
-0.020057324 -0.036290046 0.033901472
-0.019778129 -0.036473833 0.029531183
-0.019778129 -0.036112737 0.029314518
-0.019612713 -0.035231445 0.028620316
-0.019612713 -0.033103719 0.028115815
-0.019512067 -0.032860011 0.027486825
-0.019623123 -0.033103719 0.025910972
-0.0204695 -0.030134417 0.023756307
-0.01961695 -0.028641839 0.021720618
-0.019838579 -0.026265796 0.017143872
-0.021853136 -0.04366054 0.021280669
-0.021508068 -0.042166483 0.023821961
-0.021679461 -0.042311665 0.024621159
-0.021679461 -0.042311665 0.024621159
-0.022308521 -0.03917345 0.026741356
-0.021215945 -0.038979378 0.026058113
-0.021100115 -0.037558433 0.026058113
-0.0210356 -0.035920478 0.02588925
-0.02184307 -0.034914497 0.02588925
-0.021698125 -0.033077341 0.023947835
-0.020947158 -0.032765541 0.023498287
-0.020851914 -0.032116123 0.022279769
-0.0228846 -0.041522201 0.01683566
-0.0216802 -0.040280066 0.020512879
-0.022752577 -0.037507217 0.020711452
-0.022399504 -0.036859784 0.020989688
-0.022399504 -0.036852442 0.020989688
-0.022272494 -0.036399212 0.02048558
0.017797805 -0.052662104 0.039932508
0.018511891 -0.052438669 0.040807221
0.017230459 -0.049791884 0.042340044
0.018237213 -0.048994642 0.041438028
0.018710339 -0.04890066 0.041202508
0.018744497 -0.047514345 0.041438028
0.018899554 -0.046929028 0.041438028
0.020115517 -0.046790667 0.041202508
0.020618796 -0.046067271 0.040817801
0.019742316 -0.043566469 0.042284399
0.021608934 -0.044921611 0.040598631
0.021287929 -0.043086372 0.040787786
0.021910438 -0.043086372 0.038798895
0.015074255 -0.053998586 0.041775197
0.015333384 -0.052878857 0.044019677
0.016385481 -0.052249931 0.044117969
0.016390605 -0.051003255 0.044189408
0.017054051 -0.050623037 0.043709762
0.015561486 -0.04775684 0.044755816
0.018271267 -0.049596183 0.043360353
0.019188613 -0.049294084 0.043506775
0.018899554 -0.047514345 0.042492311
0.020115517 -0.047709111 0.042492311
0.020110106 -0.046790667 0.042253252
0.020110106 -0.045257416 0.042253252
0.021017984 -0.045455184 0.042173356
0.021353811 -0.044042498 0.042173356
0.021447547 -0.043479715 0.042062789
0.021353811 -0.04206679 0.04232629
0.021447547 -0.04151585 0.042062789
0.021957267 -0.041370161 0.04093428
0.022786994 -0.040664047 0.040816683
0.023229305 -0.039596103 0.039205737
0.014333105 -0.055712603 0.038604852
0.013302334 -0.054832023 0.042305868
0.013399921 -0.052735403 0.046185035
0.014601259 -0.05264828 0.046331838
0.015516167 -0.052316368 0.046524376
0.016016329 -0.051478039 0.046524163
0.016645016 -0.051141743 0.046657033
0.014839382 -0.048649009 0.045896262
0.01720807 -0.049668357 0.045503397
0.017123014 -0.048302189 0.044998374
0.016264258 -0.047248073 0.044755816
0.019130113 -0.047441423 0.043970749
0.020817311 -0.047831792 0.043010589
0.02194152 -0.047831792 0.043276884
0.023519682 -0.047518201 0.043010589
0.023912884 -0.046421923 0.042909637
0.019206701 -0.042983849 0.043878846
0.021987539 -0.043378942 0.042804416
0.021287538 -0.04206679 0.042749137
0.021957267 -0.041720852 0.042749137
0.022006189 -0.040150505 0.043434687
0.022063466 -0.039919015 0.043225739
0.022584073 -0.039168973 0.043062717
0.022497838 -0.037735194 0.042702213
0.023880517 -0.037695028 0.039205737
0.010756272 -0.056961667 0.039620906
0.011919635 -0.056234017 0.042011309
0.012350881 -0.054196578 0.046539873
0.013167136 -0.053546354 0.046798553
0.014784208 -0.053780377 0.047352407
0.014709828 -0.052804284 0.047181021
0.014907156 -0.051497988 0.047264498
0.017138977 -0.051729083 0.046807069
0.015723679 -0.050305825 0.046928909
0.017012572 -0.050406896 0.046342727
0.016853435 -0.048968803 0.046271671
0.015821993 -0.047475561 0.046257079
0.018154992 -0.047895532 0.045322828
0.018940043 -0.047631528 0.045058705
0.014507806 -0.043894839 0.044847298
0.0121997 -0.041098144 0.045282423
0.012728331 -0.040063486 0.044598147
0.010601872 -0.038120653 0.045014083
0.019180683 -0.042620156 0.043878846
0.019255664 -0.04192711 0.04375986
0.021081164 -0.041756235 0.043845233
0.022148065 -0.04151585 0.043434687
0.020134354 -0.039277367 0.043502577
0.022584073 -0.039853871 0.043225739
0.022649171 -0.039168973 0.043062717
0.022497838 -0.037735194 0.042702213
0.022497838 -0.037710071 0.042209111
0.023880517 -0.036750376 0.041117873
0.024238005 -0.035644941 0.041023504
0.0084117735 -0.056268483 0.042111263
0.012713566 -0.056895118 0.045279633
0.011347364 -0.054544531 0.046615392
0.012186849 -0.053947832 0.047395546
0.012638047 -0.053438433 0.047571898
0.013485578 -0.05274542 0.048052676
0.013148957 -0.051657241 0.047818478
0.014355662 -0.051028397 0.047597159
0.015205248 -0.050722808 0.047539093
0.015545383 -0.050215159 0.047291029
0.016431546 -0.049624249 0.047041584
0.016853435 -0.04885808 0.046508789
0.01804268 -0.048697803 0.04617779
0.020377904 -0.049348064 0.045951705
0.01866075 -0.047440968 0.045215689
0.022335026 -0.048430596 0.044659849
0.022778312 -0.048033219 0.044302262
0.025398398 -0.048150592 0.043839626
0.025398398 -0.048150592 0.043901563
0.022069689 -0.0438645 0.044156495
0.022224506 -0.043570027 0.044156495
0.020480813 -0.041311927 0.04375986
0.021080093 -0.041003127 0.043462485
0.022006189 -0.040150505 0.043434687
0.021118611 -0.038503319 0.044882767
0.023063213 -0.038707647 0.044706922
0.022687417 -0.037073277 0.045620732
0.022687417 -0.036568239 0.045620732
0.023022052 -0.03563714 0.044180706
0.023565948 -0.03532777 0.042813402
0.024706841 -0.035091855 0.04148693
0.025100939 -0.033856601 0.040170737
0.0094097406 -0.05677874 0.043130457
0.0088781714 -0.054808397 0.046831161
0.010296077 -0.055035207 0.047811627
0.011277067 -0.054315835 0.047830988
0.012044537 -0.053982455 0.047999814
0.011699479 -0.052474249 0.048122387
0.013485578 -0.05274542 0.04833037
0.01342557 -0.051442623 0.047956392
0.015305363 -0.052004982 0.04762141
0.015307741 -0.050907649 0.047539093
0.018377122 -0.051621262 0.047316197
0.016431546 -0.049624249 0.047041584
0.018975331 -0.049795631 0.047233991
0.018975331 -0.049293522 0.046635982
0.018907042 -0.048049178 0.045364957
0.019009583 -0.047440968 0.045364957
0.019454258 -0.047076192 0.044816885
0.020094633 -0.045477856 0.044577718
0.020636978 -0.045062017 0.044741217
0.021427806 -0.044419371 0.04440061
0.022224506 -0.0438645 0.044186879
0.022224506 -0.043570027 0.044156495
0.022069689 -0.042201929 0.043996159
0.023242211 -0.041783571 0.044146784
0.023242211 -0.040924702 0.043981671
0.023097258 -0.039194912 0.04482821
0.020970805 -0.037339717 0.046082258
0.02233115 -0.037041485 0.046441369
0.023176683 -0.036568239 0.046062957
0.023533905 -0.035779305 0.046062957
0.023045553 -0.034600824 0.046014823
0.022719629 -0.033856332 0.046245344
0.024766395 -0.033971794 0.042734817
0.025508285 -0.03359567 0.040170737
0.0069814995 -0.057843599 0.037340689
0.0068346979 -0.056232437 0.044030789
0.0089148115 -0.056163311 0.047226634
0.010044649 -0.055428833 0.047811627
0.0092059644 -0.053782422 0.048681442
0.010210864 -0.053515952 0.048848219
0.010687028 -0.052481674 0.048846647
0.011699479 -0.052474249 0.048122387
0.013542674 -0.052769732 0.04833037
0.014709828 -0.052804284 0.047436513
0.016619658 -0.053079963 0.047144931
0.015307741 -0.050907649 0.047006831
0.015723679 -0.050305825 0.046928909
0.016785167 -0.050142448 0.046594143
0.016944341 -0.048968803 0.046121728
0.017700136 -0.048385732 0.045503397
0.01866075 -0.047895532 0.045215689
0.018450743 -0.047146101 0.044845611
0.019325282 -0.0465854 0.044681136
0.019325282 -0.045818742 0.044458419
0.020254726 -0.045298301 0.044577718
0.020889901 -0.044807512 0.044458419
0.02050739 -0.043151744 0.044156495
0.022148065 -0.043378942 0.043996159
0.021527713 -0.041756235 0.043872677
0.023585238 -0.041882839 0.043610912
0.02352367 -0.041139655 0.043610912
0.023097258 -0.03951253 0.044668935
0.024700388 -0.039194912 0.044955876
0.022530735 -0.037043661 0.046287652
0.023820331 -0.036568239 0.045958068
0.02194955 -0.034901138 0.046886355
0.023533905 -0.034857757 0.046151824
0.022978913 -0.033745389 0.046367861
0.022365704 -0.032075953 0.045958389
0.021110352 -0.032799818 0.044540782
0.024160929 -0.030905556 0.041857034
0.008067904 -0.057843599 0.038724646
0.0052372357 -0.056716524 0.043786984
0.0081864214 -0.056150276 0.048185956
0.0084123202 -0.055276744 0.048372097
0.0085011423 -0.054247901 0.048898686
0.0099809822 -0.054337256 0.048882615
0.010278468 -0.053421151 0.048848219
0.012044537 -0.053952683 0.04834684
0.012638047 -0.05328067 0.047541004
0.014784208 -0.053780377 0.047352407
0.014709828 -0.052804284 0.047181021
0.015556991 -0.052232258 0.046824154
0.013990826 -0.050477039 0.045880437
0.014560867 -0.049321007 0.045896262
0.01572372 -0.048918243 0.04580465
0.014926774 -0.04775684 0.045520365
0.016682118 -0.047922481 0.04485378
0.017110839 -0.047248073 0.044845611
0.015550496 -0.044803165 0.044607528
0.017563201 -0.045422062 0.044342272
0.018394118 -0.045422062 0.044310827
0.018075598 -0.043537144 0.044280171
0.018792544 -0.043102123 0.044280171
0.020264713 -0.043109883 0.044034839
0.020964574 -0.042461615 0.044021148
0.020146564 -0.041016281 0.04375986
0.022006189 -0.04071115 0.043462485
0.022063466 -0.039919015 0.043225739
0.02352367 -0.039923318 0.044318579
0.022794891 -0.038031109 0.044882767
0.025952129 -0.039149221 0.045278788
0.023046551 -0.036092799 0.046014823
0.023046551 -0.035298765 0.046014823
0.022611512 -0.034045078 0.047038458
0.024557885 -0.033754442 0.046745248
0.022696218 -0.032193962 0.047432143
0.023575962 -0.031277724 0.045779876
0.024862573 -0.03109418 0.045581657
0.024937011 -0.030905556 0.041857034
0.0066030095 -0.060659163 0.035787314
0.0052372357 -0.05683244 0.043736283
0.0069228932 -0.055951044 0.048129346
0.0072039813 -0.055661768 0.048781224
0.006632024 -0.054055341 0.049303588
0.0088884383 -0.055116758 0.048857369
0.008230567 -0.053135004 0.048755694
0.010210864 -0.0535639 0.048645165
0.012751959 -0.054470114 0.047688656
0.011433655 -0.052498288 0.048039917
0.012870409 -0.052753888 0.047237124
0.013973844 -0.052181378 0.046341259
0.013882663 -0.051198997 0.046037257
0.012232733 -0.049025115 0.046146423
0.016527399 -0.051141743 0.045483369
0.014492912 -0.048557274 0.045312297
0.014926774 -0.047709707 0.045352209
0.016264258 -0.047619462 0.044755816
0.015387757 -0.045992725 0.045011379
0.016378915 -0.045859784 0.045091022
0.018242035 -0.045477856 0.044342272
0.016842429 -0.043765258 0.044883635
0.018688764 -0.043673363 0.044156678
0.019030455 -0.043022387 0.044280171
0.019206701 -0.04228206 0.043792505
0.019687882 -0.041311927 0.043731943
0.017761398 -0.039232906 0.044217687
0.022548599 -0.041003127 0.043434687
0.021423263 -0.039277367 0.043646887
0.021932732 -0.038878843 0.043646887
0.023063213 -0.038707647 0.044668935
0.023063213 -0.037492067 0.044847064
0.023820331 -0.03675174 0.044885218
0.024553737 -0.035988808 0.045958068
0.022843845 -0.034045078 0.046367861
0.021891464 -0.032617599 0.047194093
0.024412327 -0.033071712 0.047298674
0.023054272 -0.031187456 0.047555156
0.02229657 -0.030024834 0.04795691
0.023053728 -0.029574549 0.046271153
0.024160929 -0.029013714 0.041940056
0.0046393909 -0.060777552 0.035657942
0.002845291 -0.056514788 0.045345876
0.005329866 -0.056223404 0.047954906
0.0056090206 -0.055419862 0.049068794
0.0058984086 -0.054563556 0.049216423
0.006632024 -0.054055341 0.04900622
0.007399343 -0.053815223 0.048698172
0.0092059644 -0.054142371 0.048538741
0.011493552 -0.054824159 0.047253095
0.010761203 -0.052784845 0.047806378
0.01126304 -0.052513413 0.046857227
0.011842773 -0.051878072 0.046438739
0.011389174 -0.050444305 0.046257675
0.011829486 -0.049759582 0.046090215
0.012995473 -0.049634781 0.04540569
0.01309085 -0.048602603 0.045402668
0.014492912 -0.048557274 0.045312297
0.014471127 -0.047114938 0.044872981
0.014022245 -0.046067663 0.044816777
0.015387757 -0.045992725 0.045011379
0.015550496 -0.045115054 0.044492975
0.015550496 -0.044232402 0.044242069
0.015881233 -0.043267306 0.04452933
0.0192683 -0.044476058 0.044156678
0.017591629 -0.041779961 0.043957323
0.018318374 -0.041704297 0.043808453
0.019255664 -0.041277815 0.043684073
0.019111808 -0.040424038 0.043705083
0.018235259 -0.038431481 0.04352526
0.019140609 -0.038279876 0.04352526
0.021118611 -0.03814318 0.043595862
0.021930823 -0.03814318 0.043595862
0.0205983 -0.035879619 0.044516254
0.023022052 -0.035856564 0.044238299
0.023045553 -0.034658905 0.04475861
0.022719629 -0.034045078 0.04581264
0.024557885 -0.033670161 0.04703762
0.022867763 -0.031729933 0.047555156
0.021775935 -0.030311462 0.047929555
0.02229657 -0.02966594 0.048108738
0.024236619 -0.029654274 0.047754239
0.022894964 -0.028038286 0.045730785
0.024313949 -0.028314814 0.042056158
0.0033017327 -0.057957802 0.042436361
0.0044090711 -0.056271892 0.046936471
0.0045493282 -0.055838883 0.048787087
0.0056229611 -0.055419862 0.049294028
0.0059257993 -0.054563556 0.049216423
0.006220236 -0.054355208 0.04900622
0.0086873388 -0.054461315 0.048538741
0.010044649 -0.055428833 0.047811627
0.009023577 -0.053002536 0.046844065
0.011870047 -0.054129317 0.047043849
0.011238853 -0.052686393 0.046519205
0.01173478 -0.051868729 0.046438739
0.010543128 -0.050126985 0.045788229
0.012484815 -0.050332945 0.04558577
0.012995473 -0.049634781 0.04540569
0.012940847 -0.048602603 0.045263201
0.012255833 -0.046804365 0.044952922
0.013915867 -0.047114938 0.044872981
0.016264258 -0.047711279 0.04456253
0.0143453 -0.04533324 0.044816777
0.016378915 -0.045138504 0.04419272
0.016378915 -0.044750713 0.044127479
0.015881233 -0.043267306 0.04452933
0.016665822 -0.042725068 0.044367079
0.019180683 -0.043022387 0.043926403
0.018125569 -0.04153017 0.043808453
0.017987337 -0.04055246 0.043900143
0.016857518 -0.039108824 0.043826781
0.018143578 -0.038431481 0.04352526
0.019140609 -0.038130235 0.043477416
0.021423263 -0.038357101 0.043680847
0.020252191 -0.03664314 0.044516254
0.020362787 -0.035879619 0.044208989
0.022951387 -0.03563714 0.044238299
0.022136226 -0.034658905 0.044283818
0.023045553 -0.034600824 0.044805631
0.025907569 -0.034360178 0.045847893
0.021916758 -0.031250875 0.047089376
0.023054272 -0.031064019 0.047637958
0.021565609 -0.028954929 0.048229758
0.022035822 -0.028587421 0.048059162
0.022817906 -0.028038286 0.047050517
0.022966027 -0.027032413 0.0451193
0.02197553 -0.024551108 0.042702843
0.0026960745 -0.05794682 0.042428434
0.0033499477 -0.05766166 0.044908166
0.0042328015 -0.056327142 0.048510164
0.0036759903 -0.055124708 0.049483653
0.003253378 -0.053612597 0.049533844
0.0058984086 -0.054563556 0.049216423
0.0067986748 -0.054629344 0.048480157
0.0084681213 -0.055019174 0.047839046
0.0083696833 -0.053752325 0.047252975
0.009023577 -0.052988816 0.046810318
0.0085792132 -0.051749099 0.047229521
0.0091145393 -0.050953429 0.046021622
0.0096518304 -0.050472699 0.046087384
0.010135261 -0.049734902 0.045729361
0.0097351233 -0.048352335 0.045516662
0.011384168 -0.04811269 0.044931874
0.011725406 -0.047931239 0.045073058
0.0115686 -0.046751726 0.044821002
0.013691112 -0.047111809 0.044905864
0.014022245 -0.046067663 0.044816777
0.013357757 -0.044657484 0.044781309
0.015186673 -0.044891298 0.044607528
0.015640421 -0.043894839 0.04465612
0.015283858 -0.042662561 0.044935413
0.015643088 -0.04218176 0.044903595
0.01693007 -0.041777305 0.044651389
0.016979525 -0.040656395 0.044294149
0.019186059 -0.041016281 0.043731943
0.017761398 -0.039095152 0.043872222
0.018143578 -0.038431481 0.04352526
0.019140609 -0.038130235 0.043473095
0.020160912 -0.037571259 0.043477416
0.019081205 -0.036035847 0.043738306
0.020109333 -0.035708323 0.044208989
0.020728515 -0.034839649 0.043986317
0.021744892 -0.034313157 0.044259023
0.021019863 -0.033022396 0.044540782
0.022499304 -0.032926697 0.04541989
0.025174417 -0.032753579 0.046175592
0.024182679 -0.031187456 0.047286458
0.022811767 -0.02966594 0.048516899
0.02273331 -0.028301723 0.047880381
0.020560157 -0.026726486 0.04782147
0.022546321 -0.026724823 0.046726294
0.023255512 -0.026245032 0.04509129
0.023359431 -0.025872298 0.040776227
0.0027994555 -0.061126992 0.036594953
0.00014365464 -0.057125393 0.044076312
0.0024052453 -0.056589261 0.048428331
0.0026341113 -0.05531634 0.049304351
0.0036759903 -0.055389844 0.049483653
0.0038828775 -0.054799218 0.049434885
0.0043871268 -0.053910997 0.048790172
0.0082230587 -0.055793367 0.048223287
0.0088290228 -0.054801811 0.046877503
0.0066770446 -0.052516088 0.046917681
0.0096935676 -0.053958088 0.046344746
0.0076233409 -0.051056784 0.046462201
0.0087974099 -0.050953429 0.04576987
0.010519996 -0.051135503 0.045526229
0.010084642 -0.049269263 0.045234147
0.01023005 -0.049043134 0.04501323
0.010853173 -0.04811269 0.044931874
0.011116372 -0.047317624 0.044807255
0.01309085 -0.047619186 0.044975031
0.012244921 -0.04578742 0.045098834
0.011914994 -0.044634722 0.04501931
0.014165189 -0.045101453 0.044701118
0.014270934 -0.044064771 0.044630498
0.013182327 -0.0423209 0.044920463
0.015983514 -0.043118656 0.044573106
0.016113067 -0.04218176 0.044651389
0.016014125 -0.041367747 0.044903595
0.016979525 -0.040656395 0.044294149
0.016805947 -0.039401568 0.044118918
0.017761398 -0.039095152 0.043872222
0.017994413 -0.038256668 0.043476105
0.017455205 -0.036961041 0.043656882
0.019256515 -0.036944024 0.043443114
0.018283695 -0.035488177 0.043789923
0.018522428 -0.034576658 0.043970454
0.019496413 -0.03401465 0.044193324
0.021744892 -0.034313157 0.044259023
0.021019863 -0.032968856 0.044540782
0.022499304 -0.033204038 0.045327861
0.022419259 -0.031280268 0.04607664
0.022936586 -0.030931653 0.046562776
0.02229657 -0.029279049 0.047959484
0.022031724 -0.028194223 0.047880381
0.022128094 -0.027032625 0.047779713
0.023268186 -0.026489567 0.047112189
0.021096449 -0.025113165 0.046536304
0.021522693 -0.023973823 0.044397604
0.026294632 -0.02733467 0.033225663
0.00039682444 -0.064349644 0.024150638
-0.00035431283 -0.057424106 0.043430638
0.00084210548 -0.056815695 0.045636781
0.00087063236 -0.054931216 0.049543452
0.0037191263 -0.056046087 0.049483653
0.0031493525 -0.054887168 0.049577989
0.0056229611 -0.055693325 0.049068794
0.0069373539 -0.055661768 0.048577983
0.0067073833 -0.054629344 0.0479769
0.0061672102 -0.052986443 0.046735764
0.0064378297 -0.052465282 0.046332926
0.0069971783 -0.052142762 0.045664228
0.0073317285 -0.051056784 0.04607898
0.0076504298 -0.050125934 0.045583382
0.009323814 -0.050360449 0.04488007
0.0083676269 -0.048741382 0.045154359
0.010807574 -0.049315784 0.044895235
0.010687769 -0.04811269 0.044662554
0.010588959 -0.046861917 0.044689141
0.011756471 -0.04694397 0.044745881
0.011008215 -0.045004051 0.045013756
0.011864604 -0.044611372 0.044806797
0.013392987 -0.044590887 0.044781309
0.01289872 -0.043188561 0.044748884
0.014113532 -0.042925071 0.044748291
0.015983514 -0.043118656 0.04452933
0.014659873 -0.041182131 0.044715267
0.01693007 -0.041367747 0.044542879
0.01481884 -0.039379004 0.044811111
0.018357137 -0.040424038 0.043731943
0.017057935 -0.039095152 0.043826781
0.016160242 -0.037332013 0.043701675
0.017561067 -0.036885113 0.043656882
0.018958308 -0.036196031 0.043512907
0.018496424 -0.034950595 0.043789923
0.018146284 -0.034576658 0.04382547
0.020013984 -0.03401465 0.044112861
0.018240921 -0.032651097 0.044531755
0.021669157 -0.033204038 0.044283818
0.019855285 -0.0311835 0.04535358
0.022419259 -0.031280268 0.04607664
0.022184853 -0.029949427 0.046562776
0.023138605 -0.029574549 0.047265545
0.020985873 -0.027100854 0.048023582
0.020523999 -0.026323948 0.048365131
0.021856748 -0.026070822 0.047663283
0.022970926 -0.026264239 0.046855964
0.022506541 -0.024923973 0.045690767
0.02197553 -0.02318925 0.043098886
0.0011180942 -0.06052288 0.039627068
0.00029384065 -0.057890352 0.044076312
0.0017447672 -0.056589261 0.048643157
0.0021526217 -0.056150381 0.049304351
0.00087373424 -0.054177374 0.049992897
0.0023515644 -0.054425601 0.049621459
0.0059515238 -0.056350641 0.048599649
0.0043933019 -0.053641915 0.048567422
0.0052850433 -0.053891107 0.047471106
0.0055493475 -0.052945223 0.046097223
0.0064315321 -0.0524626 0.045823067
0.0068292776 -0.051955435 0.045664228
0.0088130701 -0.052327141 0.045749754
0.0077416683 -0.050120696 0.045446977
0.0093110623 -0.0505004 0.044908889
0.0080908993 -0.048405051 0.045227911
0.0090788426 -0.047570273 0.044987857
0.0090825735 -0.047085416 0.044603456
0.011116372 -0.047317624 0.044807255
0.0095763654 -0.045242235 0.044660542
0.011034233 -0.045072891 0.045057632
0.012517624 -0.044996772 0.044806797
0.012136628 -0.043754019 0.044769827
0.012314521 -0.042745739 0.044692539
0.014113532 -0.042925071 0.044748291
0.012953946 -0.041098144 0.044853941
0.014659873 -0.041182131 0.044715267
0.01426908 -0.039861236 0.0446155
0.017001705 -0.04055246 0.044247657
0.016857518 -0.039108824 0.043826781
0.015497565 -0.037559133 0.044005807
0.017994413 -0.038256668 0.043476105
0.017561067 -0.036885113 0.043656882
0.018496424 -0.036196031 0.04360459
0.018496424 -0.034950595 0.043789923
0.018218014 -0.033999287 0.044080857
0.018199805 -0.033089913 0.044494126
0.01980105 -0.033022396 0.044559311
0.019826178 -0.031925023 0.045031995
0.018670179 -0.030295614 0.045364048
0.020465594 -0.030344419 0.045531504
0.02207689 -0.030142952 0.046271153
0.023138605 -0.029552193 0.046880625
0.022777155 -0.028214332 0.047638923
0.021280674 -0.026601288 0.048221074
0.021277882 -0.025602847 0.047978193
0.021946251 -0.025052268 0.047806889
0.02070681 -0.023727605 0.04585696
0.02224417 -0.023610292 0.044475757
0.024525683 -0.024675293 0.03278828
0.00039682444 -0.065645523 0.023428492
-0.00035431283 -0.058375828 0.043962926
-0.00065419264 -0.056891698 0.046028603
-0.00088086113 -0.055093691 0.049279187
0.0015366911 -0.055964284 0.049631242
0.00081385812 -0.054177374 0.049748495
0.0025396002 -0.054589324 0.049621459
0.0046499483 -0.055693325 0.04890576
0.00343059 -0.053498056 0.047934603
0.0052118707 -0.053591728 0.047317609
0.004314418 -0.052049614 0.046003394
0.0044225752 -0.051213775 0.046046756
0.0061203237 -0.051403664 0.045025874
0.006732462 -0.050896984 0.045322269
0.0077416683 -0.050302725 0.044907503
0.0077308305 -0.049298253 0.044712648
0.009630979 -0.049448017 0.04474869
0.0088094734 -0.048123021 0.044458576
0.0090383543 -0.047081657 0.044460777
0.0093889395 -0.04613623 0.044374809
0.0097033875 -0.045666497 0.044425413
0.010208278 -0.044536669 0.04439719
0.0095582176 -0.043091666 0.044182692
0.01145014 -0.043426882 0.044376973
0.011742907 -0.042364255 0.044403598
0.011969192 -0.04157456 0.044453945
0.013198628 -0.041290231 0.044653896
0.012933741 -0.039977778 0.044492252
0.013852677 -0.039605949 0.044514794
0.015132406 -0.039379004 0.043570947
0.014564794 -0.038310524 0.04355656
0.015637327 -0.03759791 0.043701675
0.017847043 -0.037691623 0.043527529
0.014772698 -0.035467017 0.043991782
0.016085681 -0.034760747 0.043884039
0.019282369 -0.035708323 0.043789923
0.018023442 -0.033451825 0.044080857
0.019845929 -0.03395763 0.044230223
0.019434601 -0.032445371 0.044672534
0.017029837 -0.030297028 0.045233656
0.01877119 -0.030295614 0.045374811
0.020888381 -0.030121863 0.046001207
0.019913204 -0.028841216 0.046781577
0.020880155 -0.028179275 0.047277592
0.022128094 -0.028135221 0.047638923
0.019819632 -0.025853645 0.048395492
0.02038113 -0.024940802 0.048115809
0.022481423 -0.025052268 0.047806889
0.021096449 -0.023727605 0.046561498
0.021115184 -0.023192104 0.045466136
0.021878056 -0.022749994 0.040128317
0.024562614 -0.024194567 0.025956444
-0.0012034974 -0.060767803 0.037633482
-0.0023312066 -0.0571661 0.04520838
-0.0017531961 -0.055880774 0.047666132
-0.0010147234 -0.054930855 0.049279187
-3.5439618e-05 -0.054977503 0.049760856
0.00081385812 -0.054275237 0.049992897
0.0036759903 -0.055389844 0.049483653
0.0031895302 -0.054299369 0.047986142
0.0044255997 -0.054483362 0.047472492
0.0034496647 -0.052308045 0.047189921
0.0026940478 -0.05079909 0.046447128
0.0040244386 -0.050877281 0.046003394
0.0061203237 -0.051106229 0.04499393
0.0064616939 -0.050705887 0.045322269
0.0063365549 -0.049540516 0.04479298
0.0061883926 -0.048314746 0.044588517
0.0081156911 -0.048547644 0.044600252
0.0086747594 -0.048340473 0.044359453
0.0083915321 -0.046631087 0.043974441
0.0093889395 -0.04613623 0.044374809
0.0095757442 -0.045272011 0.043749627
0.0079644164 -0.043326426 0.044108238
0.0087012649 -0.04256836 0.044089455
0.010247841 -0.042492051 0.044139922
0.010852848 -0.041760743 0.044316161
0.011969192 -0.04157456 0.044453945
0.011630462 -0.040180828 0.044213664
0.012026543 -0.039425418 0.044159867
0.013239151 -0.039014008 0.044546895
0.013760503 -0.038477935 0.044450395
0.015132406 -0.038045559 0.04355656
0.015497565 -0.037772935 0.043633506
0.014909048 -0.035572398 0.043896478
0.01598496 -0.035232313 0.043896478
0.016085681 -0.034760747 0.043884039
0.017149633 -0.033999287 0.043970454
0.017032854 -0.03336481 0.044080857
0.017909128 -0.03274601 0.044531755
0.017119315 -0.031202465 0.045039099
0.018250048 -0.030861534 0.045114171
0.018670179 -0.030295614 0.045364048
0.019916583 -0.030121863 0.045806926
0.018962685 -0.027932694 0.04663394
0.021058422 -0.02818488 0.047071807
0.020981066 -0.027090438 0.047771286
0.021277882 -0.026146155 0.048052765
0.020535244 -0.025009912 0.048072584
0.019903211 -0.023569865 0.048147604
0.021096449 -0.023679933 0.04709113
0.020091251 -0.02218442 0.045748368
0.020161739 -0.021293949 0.044987109
0.025878288 -0.024341829 0.03239524
-0.00037161261 -0.06602037 0.021410996
-0.0032889154 -0.057661097 0.043479916
-0.0025657329 -0.056737483 0.047487199
-0.0017531961 -0.055880774 0.047666132
-0.0021316777 -0.054095738 0.049365506
-0.00060577132 -0.054402586 0.049334344
0.00075872242 -0.054275237 0.049444791
0.0026341113 -0.05531634 0.048907716
0.0027203597 -0.054299369 0.047763914
0.0029603071 -0.053224653 0.047465026
0.0015232358 -0.051041689 0.04657241
0.0030540647 -0.051165622 0.045438372
0.0032317014 -0.050754368 0.045324478
0.0056415414 -0.050994374 0.044947375
0.0057915472 -0.050182771 0.044769626
0.0051814839 -0.048604764 0.044435401
0.0060110767 -0.048314746 0.044405907
0.0063647926 -0.047485519 0.0442959
0.0064967927 -0.046416081 0.04425649
0.0080460245 -0.046231609 0.043974441
0.009206282 -0.046126593 0.04421122
0.0071104304 -0.043589812 0.04386986
0.0094231199 -0.044359952 0.044182692
0.0087012649 -0.04256836 0.044089455
0.010247841 -0.042492051 0.044139922
0.010869141 -0.04194095 0.044303574
0.011095197 -0.040981896 0.044340786
0.010852826 -0.039875701 0.044304125
0.011974594 -0.039456569 0.044049781
0.011521433 -0.038028646 0.04402956
0.013987579 -0.038477935 0.04397035
0.015132406 -0.038045559 0.04355656
0.013499103 -0.036221959 0.044413146
0.014729845 -0.03591425 0.043991782
0.014220759 -0.034649279 0.044286009
0.016085681 -0.03459892 0.043884039
0.015202949 -0.032814365 0.044381328
0.016578525 -0.032947686 0.044793431
0.015774317 -0.031522375 0.044809282
0.017119315 -0.031202465 0.045039099
0.017306656 -0.030258302 0.045335602
0.016794372 -0.028905081 0.045623057
0.018956292 -0.028914709 0.046280969
0.018590793 -0.027932694 0.04663394
0.01937452 -0.027174551 0.047026716
0.020560157 -0.026726486 0.04782147
0.021999106 -0.026377127 0.047663283
0.02038113 -0.024549056 0.048232507
0.020638604 -0.024361953 0.048052102
0.019903211 -0.023283994 0.047862649
0.019170944 -0.021491205 0.046813525
0.021505475 -0.021747641 0.045040976
0.021436464 -0.021792375 0.037076078
0.00039682444 -0.065645523 0.023428492
-0.0033475328 -0.056517743 0.045762822
-0.0035996288 -0.055663969 0.047930427
-0.0030162511 -0.054883394 0.048115119
-0.0029639346 -0.053918865 0.049185988
-0.00093758246 -0.054228604 0.049334344
-0.0008356896 -0.053484134 0.049049851
0.0026724702 -0.05531634 0.048574448
0.0021613692 -0.053781517 0.047569599
0.0021026665 -0.052739669 0.047188431
0.00087234704 -0.050543174 0.046023354
0.0030540647 -0.051165622 0.045395527
0.0020709678 -0.049312443 0.045328606
0.0034986215 -0.049574714 0.044686198
0.0047056424 -0.049418356 0.044832394
0.0046177628 -0.048248511 0.044716414
0.0061827269 -0.04833043 0.044405907
0.0057663922 -0.046888534 0.044242509
0.005233645 -0.045467526 0.044083055
0.0069417502 -0.045565955 0.044266261
0.0075275563 -0.045003325 0.043996871
0.0073974533 -0.043812022 0.043870896
0.0079644164 -0.043138523 0.0440627
0.0073030554 -0.041587565 0.043791112
0.010247841 -0.042311992 0.044073265
0.0089839734 -0.040712334 0.04419516
0.0096826404 -0.039942306 0.044308357
0.011615846 -0.040180828 0.044213664
0.012119699 -0.039425418 0.044159867
0.011521433 -0.038028646 0.04402956
0.011881188 -0.037175015 0.044350412
0.011941329 -0.036163863 0.044273112
0.013697749 -0.036350552 0.044413146
0.01343303 -0.035094984 0.044178654
0.013980555 -0.034316879 0.044286009
0.013766162 -0.033175353 0.044415079
0.014778152 -0.032777756 0.044414513
0.014719904 -0.031689085 0.044699647
0.016792737 -0.032011647 0.044942439
0.017526593 -0.031224573 0.045094822
0.017782602 -0.030327719 0.045355402
0.017749706 -0.029152732 0.045407444
0.016473664 -0.027293459 0.046087004
0.017491728 -0.02706621 0.046632946
0.018328672 -0.026471246 0.046741027
0.019279219 -0.025853645 0.047546864
0.019434579 -0.025025805 0.048395492
0.020394504 -0.024475215 0.048232507
0.019903211 -0.023569865 0.048147604
0.018223256 -0.021664649 0.047782965
0.019170944 -0.021491205 0.046970308
0.019023262 -0.020172715 0.046545796
0.019808836 -0.020227084 0.043259732
0.02575415 -0.023426121 0.025956444
-0.0020742705 -0.065645523 0.019919906
-0.0039704419 -0.056533244 0.04752522
-0.0045312499 -0.054468036 0.048681412
-0.0023718136 -0.055745229 0.048804138
-0.0026805014 -0.053936362 0.049258143
-0.0031562126 -0.052400567 0.050104231
0.00088475761 -0.054931216 0.049317587
0.00088475761 -0.054118384 0.048603833
0.00054888194 -0.052578155 0.047547683
0.00031518191 -0.051684469 0.046403497
0.0013699448 -0.051227018 0.045666646
0.0024388877 -0.051101901 0.045331683
0.0030540647 -0.050535567 0.045324478
0.0034986215 -0.049574714 0.044686198
0.0028105481 -0.04812574 0.044742953
0.0046177628 -0.048310384 0.044638611
0.0038806614 -0.046645202 0.04439136
0.0062630144 -0.047377836 0.044190276
0.0065837759 -0.04686043 0.043995969
0.0057226904 -0.044909909 0.043851689
0.0055955453 -0.043467063 0.043994814
0.0057862201 -0.042801846 0.043900821
0.0075771059 -0.04286762 0.043620083
0.0075747157 -0.041770909 0.043860782
0.0089839734 -0.041652225 0.043972891
0.007824651 -0.039652977 0.044210408
0.011084151 -0.04078377 0.044332542
0.008875221 -0.038445368 0.044315998
0.010197971 -0.038213708 0.044604663
0.011521433 -0.038282577 0.04402956
0.011480918 -0.037021801 0.044270862
0.011148967 -0.03574013 0.044261616
0.01234148 -0.035282467 0.044273112
0.01343303 -0.034958165 0.044178654
0.013923332 -0.034128532 0.044317931
0.016124425 -0.03459892 0.043866646
0.01455605 -0.032512285 0.044414513
0.014489844 -0.031353589 0.044699647
0.014157315 -0.030321155 0.044960845
0.015657648 -0.030004185 0.045176491
0.016025774 -0.02927874 0.045645952
0.015221419 -0.027917732 0.045796037
0.018216077 -0.028447676 0.04583776
0.016571023 -0.026650215 0.046243757
0.018479889 -0.026751485 0.046508722
0.018699665 -0.025541715 0.047188219
0.018833913 -0.024400799 0.048073769
0.020587208 -0.024421832 0.048072584
0.019903211 -0.023342157 0.048039082
0.018263053 -0.021747213 0.047525115
0.017266639 -0.020357504 0.047282811
0.018948033 -0.020170689 0.046545796
0.019808836 -0.0204188 0.044072587
0.023372814 -0.020937826 0.029142588
-0.00037161261 -0.06602037 0.021410996
-0.00578317 -0.055288244 0.047757857
-0.0051540211 -0.05437465 0.048681412
-0.0026522959 -0.055463761 0.0489836
-0.0041312492 -0.052865196 0.049468089
-0.0017132462 -0.053967256 0.049537182
0 -0.054275237 0.049444791
-0.00045392383 -0.052740835 0.048344016
0.0020445064 -0.053867225 0.047182634
-0.0017393837 -0.049857341 0.04673199
-0.0010569263 -0.049522676 0.045760103
0.0024388877 -0.051101901 0.045331683
0.0016018944 -0.049231675 0.045228977
0.0034986215 -0.049574714 0.044686198
0.0037333975 -0.049418356 0.044686198
0.0019296817 -0.046381459 0.044380616
0.0038806614 -0.046645202 0.04439136
0.005893372 -0.046906777 0.044190276
0.005233645 -0.045467526 0.044083055
0.0053419303 -0.044638198 0.043862369
0.0055955453 -0.043617345 0.043994814
0.0063656177 -0.043085147 0.043900821
