ply
format ascii 1.0
comment PCL generated
element vertex 1265
property float x
property float y
property float z
element camera 0
property float view_px
property float view_py
property float view_pz
property float x_axisx
property float x_axisy
property float x_axisz
property float y_axisx
property float y_axisy
property float y_axisz
property float z_axisx
property float z_axisy
property float z_axisz
property float focal
property float scalex
property float scaley
property float centerx
property float centery
property int viewportx
property int viewporty
property float k1
property float k2
end_header
-0.0052034808 -0.015076404 0.033459831
-0.0033873245 -0.01363554 0.029124588
-0.002889826 -0.012853708 0.018342214
-0.0018783072 -0.011797454 0.0078068199
0.030595949 -0.033815477 0.02194811
0.030039992 -0.037360162 0.028143138
0.028891822 -0.0362463 0.031526737
0.028072536 -0.035782009 0.032017238
0.02729645 -0.035919379 0.033393469
0.026145879 -0.031748585 0.035202269
0.025659516 -0.02961022 0.040232893
0.024267413 -0.028905962 0.046186496
0.023053728 -0.028136015 0.047638923
0.02260546 -0.027811402 0.047871433
0.021999106 -0.027426559 0.048115809
0.021468323 -0.026724823 0.048183095
0.020746745 -0.026072418 0.04808782
0.020138204 -0.025648419 0.048052765
0.019759633 -0.025170079 0.048052102
0.019212812 -0.024929505 0.047887992
0.017982092 -0.024734918 0.047414336
0.017352551 -0.023777515 0.047713704
0.016506288 -0.023659173 0.047406264
0.015523634 -0.023522934 0.047289491
0.014798589 -0.023063267 0.047237813
0.013774432 -0.02270533 0.047236085
0.01299698 -0.022434553 0.047143634
0.012196766 -0.021778394 0.047310889
0.011390491 -0.021698909 0.047178704
0.01101252 -0.020903178 0.047421504
0.010751715 -0.020058699 0.047642399
0.009494408 -0.020058699 0.04767704
0.0089452546 -0.019102838 0.047748052
0.0079848282 -0.018851945 0.047748052
0.0076017752 -0.01813026 0.047868755
0.0069937506 -0.01776474 0.047868755
0.0065068631 -0.017429352 0.047798149
0.0060091582 -0.017346976 0.047880266
0.0050345808 -0.01681124 0.047965739
0.0043879934 -0.01641313 0.04783605
0.0034693952 -0.016222274 0.047856387
0.0030639349 -0.015700765 0.047766909
0.0018822839 -0.015256986 0.046826333
0.0017286786 -0.014790766 0.04576971
-0.0002403073 -0.014502781 0.03986771
-0.0023882687 -0.015026377 0.037052698
-0.0045948783 -0.01527001 0.035778675
-0.0052034808 -0.01527001 0.034524832
-0.0056671984 -0.015076404 0.032818194
-0.0019785948 -0.013149808 0.024683807
-0.0034958376 -0.012940872 0.018124973
0.030346012 -0.036575425 0.02695201
0.02909467 -0.037730649 0.029442459
0.028199179 -0.036538251 0.032276481
0.027630351 -0.035778444 0.033161938
0.026628368 -0.033154409 0.035442762
0.02574886 -0.031021912 0.041520327
0.024104796 -0.029963531 0.047050517
0.023140581 -0.029574549 0.047979038
0.022811767 -0.02865486 0.04815533
0.022286512 -0.028601004 0.048315257
0.021935552 -0.02763062 0.048379868
0.021311898 -0.027331918 0.048230253
0.020572178 -0.027331918 0.048052765
0.019838817 -0.026519839 0.047953069
0.019333504 -0.02603103 0.047845095
0.018465033 -0.025696382 0.04735177
0.017395526 -0.02552006 0.047188219
0.016473664 -0.025300292 0.046892323
0.015733557 -0.025195481 0.046619028
0.014852979 -0.024404636 0.046709519
0.014538035 -0.023894828 0.046638846
0.013626399 -0.023298629 0.046815842
0.012761543 -0.022910755 0.046769079
0.011987544 -0.022553258 0.046857446
0.011283432 -0.022213504 0.04686898
0.010534935 -0.021746513 0.046910297
0.0098037077 -0.0212644 0.047154505
0.0090232519 -0.020844532 0.047310889
0.0080003217 -0.020618085 0.047465682
0.0070764422 -0.020346018 0.047403045
0.0068526431 -0.019263219 0.047738485
0.0063031493 -0.018805465 0.047763571
0.0059290007 -0.01813739 0.047771409
0.0051821112 -0.017617323 0.047856387
0.0042991717 -0.017429352 0.048052847
0.0034693298 -0.017258279 0.048289739
0.0027034888 -0.016738014 0.048278421
0.0025630891 -0.016329827 0.048089463
0.0017393908 -0.016196828 0.048044667
0.0013915394 -0.015630694 0.047603909
0.00086917152 -0.014810104 0.045810115
-0.0013266616 -0.014725343 0.04017948
-0.0019631963 -0.015026377 0.037209604
-0.0039679548 -0.014952261 0.035606764
-0.0053345039 -0.01521068 0.034110319
-0.0045948783 -0.014852271 0.032818194
-0.004620377 -0.013486585 0.020187851
-0.0027898632 -0.012341823 0.0084806718
0.032137588 -0.036275543 0.0075209783
0.030595949 -0.034850951 0.02194811
0.029460959 -0.03846284 0.029352695
0.028476249 -0.037921526 0.031910293
0.028072536 -0.034879137 0.032815315
0.02729645 -0.034442112 0.034611162
0.025962796 -0.032089051 0.041832775
0.024412327 -0.031066705 0.047110081
0.023313954 -0.030628927 0.048184812
0.02296667 -0.029724184 0.048421733
0.02269938 -0.029797632 0.048609108
0.022228697 -0.028697453 0.048434366
0.021775935 -0.028194223 0.048434366
0.021210216 -0.028159428 0.048243519
0.020200158 -0.027785242 0.047892794
0.019388199 -0.027174551 0.047705751
0.01831256 -0.02775697 0.046861261
0.017982092 -0.026859909 0.046809837
0.016654134 -0.026430152 0.04663394
0.016112093 -0.026122574 0.046523154
0.015517172 -0.025437603 0.046514191
0.014666237 -0.025196798 0.046504304
0.013897864 -0.024486009 0.046484992
0.013174736 -0.02396071 0.046547443
0.012420006 -0.023725495 0.046547443
0.011514205 -0.023351956 0.046627332
0.011126078 -0.022747906 0.046693504
0.010285211 -0.022467166 0.046784997
0.00951376 -0.021789184 0.04686898
0.0086619258 -0.021600589 0.046882164
0.0079536773 -0.020944791 0.047027588
0.0071594515 -0.020660743 0.047240019
0.0061303959 -0.02033475 0.047300838
0.0051821112 -0.0201234 0.047341868
0.0043720631 -0.019931316 0.047485724
0.0043720631 -0.018851945 0.047771409
0.003437059 -0.018207075 0.047828488
0.0027034888 -0.017475091 0.048228446
0.0020679124 -0.017393908 0.048596673
0.0017393908 -0.017212238 0.048688866
0.0010422738 -0.01681124 0.048829816
0.0008525427 -0.016382694 0.048694197
0.00070720632 -0.015776796 0.047913291
0 -0.01518447 0.046373993
-0.0017460834 -0.01484303 0.03982529
-0.0030495394 -0.015041864 0.037320673
-0.0035838895 -0.014952261 0.035658371
-0.0078616804 -0.016740441 0.033632189
-0.0046643154 -0.013888732 0.024509719
-0.0054124594 -0.013717078 0.018064111
0.030197944 -0.037257824 0.027738376
0.028683396 -0.038531307 0.030779142
0.028103774 -0.0346728 0.032276481
0.027450804 -0.034879137 0.033161938
0.02603915 -0.033422321 0.041774906
0.024766736 -0.032207653 0.047038458
0.023730282 -0.031494834 0.048325211
0.023140581 -0.030814152 0.048489243
0.022831935 -0.030557033 0.048591964
0.022617703 -0.030283425 0.048567612
0.022077866 -0.029820792 0.048555966
0.021650113 -0.029147599 0.048387546
0.020976704 -0.028633093 0.048042595
0.019417541 -0.029629674 0.047198668
0.018670179 -0.0288627 0.046797961
0.018255893 -0.02775697 0.046797961
0.017348085 -0.027717913 0.046364605
0.01646018 -0.026979407 0.04624223
0.01557141 -0.026855644 0.046148937
0.014861724 -0.026248088 0.046197508
0.014107801 -0.025967456 0.046148866
0.013748457 -0.025200414 0.046236109
0.012693027 -0.024880197 0.046289947
0.012180626 -0.024299528 0.046400174
0.011283432 -0.02405457 0.046480797
0.01044333 -0.023824971 0.046524733
0.010083479 -0.022873631 0.046638846
0.0090713585 -0.022461224 0.046692487
0.0079777157 -0.02233246 0.046756506
0.0074499268 -0.021891201 0.04676351
0.0065936539 -0.021600589 0.046779513
0.0061011557 -0.020890931 0.04700999
0.0052684988 -0.020536873 0.047145385
0.0044928752 -0.019981146 0.047341868
0.0033383467 -0.020040378 0.047445178
0.0026020899 -0.019589398 0.047663093
0.002518286 -0.018592745 0.047856387
0.0018686363 -0.01789758 0.048228446
0.0016516643 -0.017423302 0.048694197
0.00070720632 -0.017338268 0.048944518
8.1037171e-05 -0.017132729 0.048973892
0 -0.016592339 0.048948869
-0.00094133522 -0.016279694 0.048007354
-0.001686211 -0.015334088 0.045752704
-0.0028941426 -0.015106805 0.038925368
-0.004234924 -0.015076404 0.03698742
-0.007157967 -0.015797742 0.034545857
-0.0072326586 -0.016243566 0.032542996
-0.0064214948 -0.014677702 0.023545302
-0.0064365212 -0.013694778 0.014415501
0.032137588 -0.038312037 0.0075209783
0.030786213 -0.035640828 0.02108426
0.02953306 -0.039841406 0.029442459
0.028411731 -0.037730649 0.032276481
0.027754921 -0.035998028 0.033116389
0.026138749 -0.033856601 0.041163005
0.024580255 -0.033523906 0.04735902
0.024108863 -0.032595728 0.048034266
0.023436667 -0.032595728 0.048838366
0.023104101 -0.031461485 0.04872318
0.022803467 -0.031188477 0.048654322
0.022376925 -0.030919462 0.048635066
0.022011705 -0.030341245 0.048513062
0.02121181 -0.030542951 0.04803681
0.020120213 -0.030176867 0.047704089
0.018962685 -0.029446211 0.046939492
0.018277209 -0.029152732 0.04663394
0.017563596 -0.028736625 0.046296362
0.016699024 -0.028395113 0.046160758
0.016088381 -0.027832842 0.04606846
0.015036711 -0.027847249 0.045955457
0.014636903 -0.026960855 0.046063781
0.013811264 -0.026649661 0.046019495
0.013052851 -0.02619794 0.046049874
0.012296697 -0.025556892 0.04611063
0.011651377 -0.025288433 0.046210736
0.010929728 -0.024636332 0.046328455
0.01004285 -0.024367254 0.046384163
0.0095480029 -0.023872014 0.046472028
0.0082760919 -0.023441656 0.046519976
0.0076398985 -0.022953946 0.046563342
0.0072467895 -0.022396594 0.046646893
0.0061303959 -0.022280235 0.046644419
0.0056581609 -0.02156321 0.046779513
0.0049147322 -0.021147294 0.046904117
0.0039331424 -0.020904033 0.047038313
0.0034749818 -0.020161282 0.047302235
0.0025253939 -0.019974666 0.047445178
0.0013915394 -0.019897124 0.047538932
0.0012379978 -0.019014722 0.047856387
0.00086846924 -0.018304422 0.048640043
0 -0.017739948 0.048944518
-0.00075316429 -0.017406166 0.049098145
-0.0011699684 -0.017281054 0.04929854
-0.0015654154 -0.017132729 0.049158733
-0.0018241797 -0.016350387 0.047752757
-0.0025569778 -0.015817821 0.046158016
-0.0039679548 -0.01541 0.038954366
-0.0057384092 -0.015613968 0.036107708
-0.01091627 -0.017883485 0.033875525
-0.007157967 -0.01563235 0.032457225
-0.0064003766 -0.014596514 0.020187851
-0.0057451841 -0.013146706 0.0083066085
0.030786213 -0.035640828 0.02108426
0.030039992 -0.03909491 0.028035164
0.028476249 -0.042367652 0.031723194
0.027937312 -0.036538251 0.03291627
0.027630351 -0.035519764 0.033837527
0.025101501 -0.034181219 0.04703762
0.024298288 -0.033885695 0.048067626
0.023730282 -0.033275642 0.048899513
0.02332975 -0.033285141 0.049041092
0.023093324 -0.032428533 0.049041092
0.022803467 -0.031951699 0.048885185
0.022122445 -0.032071456 0.048584376
0.021456875 -0.032193962 0.048165672
0.020321116 -0.030815303 0.047601409
0.019388199 -0.03054391 0.046951547
0.018387776 -0.030469855 0.04655984
0.017972 -0.029995024 0.046098068
0.017302442 -0.029427981 0.045965225
0.016493896 -0.028695147 0.04591231
0.015593097 -0.028423076 0.045808047
0.014766188 -0.028389275 0.045743685
0.014375515 -0.027378978 0.045968216
0.013306335 -0.027453985 0.04579385
0.012767979 -0.026928389 0.045832887
0.012066225 -0.026471285 0.045892052
0.011208895 -0.025963284 0.045903817
0.010511786 -0.02542403 0.045983508
0.0098661073 -0.025178898 0.046076681
0.0089690089 -0.024589475 0.046263963
0.0081314761 -0.024349004 0.046345375
0.0074342657 -0.023623729 0.046432961
0.0066895466 -0.023238175 0.046480834
0.006163585 -0.022585303 0.04658594
0.0052441237 -0.02233246 0.04658594
0.0043979017 -0.021731161 0.046743728
0.0035831248 -0.021256506 0.046849605
0.0030727591 -0.02094315 0.046938695
0.0021826355 -0.020754475 0.047168572
0.0016375296 -0.019990552 0.047300838
0.00082573481 -0.019725956 0.047360171
0.00015332364 -0.019168833 0.047904324
-0.00043916237 -0.018592745 0.048296019
-0.00099993125 -0.017859705 0.048948869
-0.0015645474 -0.017641228 0.049334146
-0.0018247878 -0.017406166 0.049323339
-0.0028582094 -0.017289203 0.049219254
-0.0030875728 -0.01646043 0.047522608
-0.0042817118 -0.016218964 0.045499414
-0.0057384092 -0.01572739 0.037598453
-0.01091627 -0.018184435 0.035179336
-0.011130592 -0.018291844 0.033535756
-0.0091369962 -0.016339649 0.024267934
-0.0073179211 -0.014355557 0.016027516
0.032137588 -0.038312037 0.0075209783
0.030100184 -0.03927131 0.027738376
0.028632013 -0.043655962 0.029587518
0.028411731 -0.042367652 0.03274354
0.027754921 -0.036538251 0.033837527
0.025219161 -0.035561915 0.046611428
0.024346776 -0.034849551 0.04802037
0.023998097 -0.034070008 0.048305955
0.023639001 -0.033928342 0.048907965
0.023316106 -0.033800147 0.049041092
0.023035765 -0.033225384 0.049041092
0.022670478 -0.033214286 0.048823372
0.021426002 -0.033523906 0.048086036
0.020930707 -0.032108903 0.047729447
0.019826178 -0.031664953 0.047090236
0.018696824 -0.031292893 0.04672749
0.017901104 -0.031216213 0.046072554
0.017415561 -0.03054391 0.04591231
0.01685291 -0.030258302 0.045673579
0.015921764 -0.029660664 0.045645952
0.014926084 -0.029537261 0.045577269
0.014175192 -0.028684642 0.04566741
0.013777623 -0.028438199 0.045743685
0.012870096 -0.02813578 0.045694653
0.01226111 -0.027714008 0.045707941
0.011268869 -0.027281448 0.045783874
0.010530631 -0.0269644 0.045793884
0.0097539909 -0.026465127 0.045871872
0.0092694834 -0.025860313 0.045950532
0.0081314761 -0.025521703 0.046082407
0.007780984 -0.025002632 0.046182614
0.0067319907 -0.02479073 0.046230689
0.0063937409 -0.024031304 0.046364311
0.0057404041 -0.023530364 0.046387196
0.0045245634 -0.023027133 0.046404146
0.0042932932 -0.022564681 0.04653706
0.0034067151 -0.021970481 0.046597958
0.0026209434 -0.021556357 0.046710908
0.0018315427 -0.021238666 0.046788864
0.00085207075 -0.021008626 0.046784338
0.00029571354 -0.020561911 0.046928998
-0.00048291963 -0.020083059 0.047294248
-0.0014632344 -0.019814499 0.047531459
-0.0015645474 -0.018843785 0.048296019
-0.0018247878 -0.017896168 0.049334146
-0.0029213931 -0.018065741 0.049430728
-0.0030063009 -0.017547775 0.049372591
-0.0036669113 -0.01743054 0.048948869
-0.0040352861 -0.016741943 0.046682645
-0.0045382222 -0.016408721 0.045033336
-0.0087175919 -0.017633462 0.036535177
-0.012013411 -0.018477727 0.034505233
-0.012013411 -0.017883485 0.032287315
-0.0091228215 -0.016249079 0.023673266
0.030153554 -0.043953408 0.020884342
0.028885944 -0.044918533 0.029076159
0.028332345 -0.044550277 0.030819822
0.028103774 -0.040698133 0.03274354
0.025355026 -0.037695028 0.04371801
0.024444925 -0.036409993 0.047887355
0.024074018 -0.035561915 0.048184812
0.023711868 -0.034896698 0.049006969
0.023473322 -0.034636665 0.049070954
0.023253702 -0.034343995 0.049083296
0.02278745 -0.034337465 0.049041092
0.021891464 -0.034391455 0.048336953
0.020932825 -0.033431713 0.047634218
0.01997084 -0.033617456 0.046968013
0.019218044 -0.032451093 0.046796869
0.018277209 -0.032214385 0.046406865
0.017547302 -0.031647753 0.04595089
0.017233409 -0.031056706 0.045719016
0.016493896 -0.030845918 0.045637846
0.015516657 -0.030349843 0.045518011
0.014636903 -0.030004185 0.045491934
0.013676884 -0.02960269 0.045496136
0.013158996 -0.029441182 0.045496136
0.012277311 -0.028943127 0.045608938
0.011432215 -0.028639864 0.045637358
0.010665453 -0.028438199 0.04566893
0.010220915 -0.027448205 0.045768987
0.0095302844 -0.02722048 0.045813426
0.0091856755 -0.026145054 0.045924991
0.0078415005 -0.025963284 0.046044085
0.0070041437 -0.025558742 0.046094202
0.0063536572 -0.02525356 0.046148483
0.0061089704 -0.024795936 0.046176225
0.0052078241 -0.024352971 0.046225693
0.0043641492 -0.023753088 0.046295837
0.003487281 -0.023530364 0.046373237
0.0031104484 -0.022638343 0.046445817
0.0022237524 -0.022542771 0.046450436
0.0012762025 -0.021828394 0.046517752
0.00061547011 -0.021671385 0.046654116
0 -0.021252282 0.046747416
-0.0014721006 -0.021336012 0.046848148
-0.0015654154 -0.020229356 0.047266964
-0.0026302345 -0.020238247 0.047362957
-0.0026071055 -0.01902549 0.048944518
-0.0031887516 -0.018520631 0.049423244
-0.0037147254 -0.018126246 0.04945216
-0.0042858869 -0.018010378 0.049372591
-0.0046253009 -0.017286783 0.047694076
-0.0051625026 -0.016895987 0.046646606
-0.0065533072 -0.016567901 0.041135237
-0.010677297 -0.018184435 0.035778675
-0.012963289 -0.018690994 0.032287315
-0.011836716 -0.018161647 0.025881892
-0.0075124037 -0.014101927 0.0099292994
0.029806523 -0.044438843 0.025826495
0.028332345 -0.046752859 0.029678635
0.02798146 -0.044278368 0.031723194
0.027703963 -0.038918048 0.035452764
0.025219161 -0.037714943 0.046411067
0.024140891 -0.036745153 0.048062954
0.023839943 -0.036168739 0.048496209
0.023497151 -0.03590247 0.048968643
0.023436667 -0.035195187 0.049041092
0.023156594 -0.034896698 0.049070954
0.022648232 -0.035235044 0.048906114
0.021456875 -0.034505405 0.047893271
0.020235442 -0.034141377 0.047089148
0.019513741 -0.034029178 0.04674831
0.018831573 -0.033066005 0.04655984
0.017909128 -0.033079769 0.046072554
0.017242365 -0.032214385 0.045743525
0.01676861 -0.031772103 0.045668125
0.015755219 -0.031999707 0.045516104
0.014952447 -0.031310055 0.045491934
0.013994767 -0.031137057 0.045263588
0.013213031 -0.030523267 0.045327298
0.012651812 -0.029864088 0.045383055
0.011858514 -0.02957201 0.045523148
0.011216419 -0.029031783 0.045577269
0.010515086 -0.028694153 0.04566893
0.0099572083 -0.028105954 0.045707941
0.0095958933 -0.027419504 0.045769315
0.0082760919 -0.027141057 0.045831013
0.0076959804 -0.026524458 0.045924991
0.0066474034 -0.026184894 0.046044085
0.0061336132 -0.025716735 0.046094202
0.0052880156 -0.025409248 0.046051942
0.0044670822 -0.025266828 0.04613068
0.0039459141 -0.024551164 0.046176147
0.0030339062 -0.024241719 0.046176225
0.0022048806 -0.023784779 0.046221774
0.0014265003 -0.023344714 0.046384528
0.00074574072 -0.02295379 0.046290427
0.00031770114 -0.022386413 0.04644984
-0.00048291963 -0.021852018 0.046517752
-0.0014217049 -0.021665091 0.046721648
-0.0019032955 -0.021097586 0.046848148
-0.0027202014 -0.020841304 0.047108788
-0.0036946982 -0.020334978 0.047557741
-0.0038223336 -0.019279316 0.049026135
-0.0045425496 -0.018670782 0.049440805
-0.0047552157 -0.018520631 0.049440805
-0.0052567367 -0.018260121 0.049185053
-0.0058469009 -0.0178723 0.046795927
-0.0060705068 -0.017335851 0.045904696
-0.0093849823 -0.017667226 0.037971411
-0.012043176 -0.018600294 0.033872604
-0.013251785 -0.018791862 0.02759555
-0.009670482 -0.015854236 0.014854388
0.028885944 -0.046792507 0.027712379
0.027952362 -0.047427908 0.029587518
0.028103774 -0.0423503 0.032202352
0.025015501 -0.039168973 0.044885218
0.024777271 -0.038380105 0.046816502
0.023886267 -0.037487134 0.048062954
0.023537435 -0.037338562 0.048667651
0.023497151 -0.036434028 0.048893571
0.023185596 -0.036168739 0.04890107
0.022692613 -0.036694672 0.048839863
0.021813672 -0.035992011 0.048209392
0.020600241 -0.035418861 0.047039524
0.019814342 -0.03511928 0.046634424
0.019005243 -0.034783784 0.046448167
0.018395534 -0.034046412 0.046392441
0.017624104 -0.03336481 0.045805246
0.016858369 -0.032968696 0.045637846
0.016174763 -0.032512285 0.045561075
0.01513615 -0.032469951 0.045265287
0.014286686 -0.032062545 0.045156274
0.013542732 -0.032003369 0.04514607
0.013158996 -0.030557631 0.045320064
0.012366025 -0.030455967 0.045332849
0.011277296 -0.030309377 0.045377553
0.010722265 -0.029533453 0.045544297
0.010015946 -0.029580558 0.045544297
0.0096155787 -0.028947318 0.045636076
0.0089248409 -0.028313121 0.045758609
0.0074713374 -0.02825439 0.045758609
0.0071311095 -0.027505159 0.0458708
0.0062057166 -0.027202699 0.045925628
0.0057036318 -0.026315117 0.046044085
0.0051720114 -0.026184894 0.046031967
0.0043557147 -0.025765507 0.04603057
0.0035113848 -0.025281757 0.046050251
0.0023214594 -0.025176525 0.046031967
0.0019387784 -0.024352971 0.046175234
0.0010378594 -0.024039323 0.046174861
0.00065720081 -0.023489121 0.046228621
-0.00046307454 -0.023246281 0.046228621
-0.00067125447 -0.022509817 0.046360463
-0.0016501183 -0.022264414 0.046517752
-0.0021945685 -0.02175598 0.046598405
-0.0031464109 -0.021530872 0.046935953
-0.0038223336 -0.021018729 0.047171224
-0.0043655355 -0.020375682 0.047813408
-0.0050646421 -0.019488994 0.049300335
-0.0054546157 -0.01902549 0.049304571
-0.0062388219 -0.019003445 0.049235158
-0.0064403294 -0.018520631 0.047870103
-0.0064403294 -0.017859222 0.046348274
-0.0086821765 -0.017667226 0.043086834
-0.0093343556 -0.017633462 0.03494662
-0.012700558 -0.018612245 0.030842118
-0.011303211 -0.017777855 0.020066977
0.029697781 -0.044739164 0.020884342
0.028332345 -0.047943704 0.028436461
0.028332345 -0.044278368 0.030745994
0.027937312 -0.041814141 0.035640806
0.024751343 -0.039149221 0.046411067
0.024120256 -0.039338019 0.047750879
0.023717836 -0.038360253 0.048288755
0.023473322 -0.037418194 0.048794523
0.02332975 -0.037319925 0.048839863
0.022693545 -0.037338562 0.048589647
0.022049908 -0.038014002 0.048328038
0.020967565 -0.037053302 0.047460042
0.020015966 -0.036060326 0.046767548
0.019205622 -0.035440702 0.046467632
0.018522428 -0.035186116 0.046210974
0.018022291 -0.035093728 0.046023965
0.017088074 -0.034905218 0.045730297
0.016421027 -0.034287225 0.045532309
0.015541011 -0.033501003 0.045416411
0.01473261 -0.033132765 0.045122173
0.013914723 -0.032814365 0.045080774
0.013201292 -0.032469951 0.045075625
0.012582758 -0.031689085 0.045152225
0.011595059 -0.031583969 0.045253545
0.011216419 -0.030656692 0.045322329
0.010282135 -0.030484535 0.045383055
0.0096112257 -0.030309377 0.045523148
0.0091856755 -0.029513704 0.045588162
0.0081275674 -0.029437579 0.0455948
0.0070841266 -0.029162705 0.045635026
0.0064968485 -0.02825439 0.045760632
0.0060747275 -0.028030265 0.045773976
0.0052556749 -0.027514409 0.04586222
0.0043641492 -0.027172206 0.04587302
0.0035160074 -0.026643263 0.04586222
0.0028141867 -0.026163436 0.045909137
0.0019458337 -0.025682606 0.045970492
0.0012357729 -0.025348127 0.046084806
0.00074574072 -0.024645124 0.046060771
5.3690746e-07 -0.024368819 0.04601289
-0.00089161331 -0.024039323 0.04601289
-0.0012779459 -0.023131292 0.046279706
-0.0020417795 -0.022870427 0.04634586
-0.0029501426 -0.022647282 0.046519347
-0.0034696534 -0.022013215 0.046875704
-0.0043391734 -0.021734115 0.047155179
-0.0053297952 -0.021461736 0.047711305
-0.0054797158 -0.020229356 0.049201556
-0.0062762722 -0.019801013 0.049211264
-0.0064084837 -0.019512091 0.049201556
-0.0069818022 -0.019541685 0.048999496
-0.0074005048 -0.018651128 0.047007531
-0.0078238333 -0.018530596 0.045904696
-0.010677297 -0.018600294 0.035958752
-0.012013411 -0.018612245 0.032841742
-0.011546128 -0.017932236 0.020423207
0.029697781 -0.044739164 0.020884342
0.028332345 -0.046776429 0.029532403
0.028332345 -0.044278368 0.031276546
0.024796825 -0.040924702 0.043434687
0.024346776 -0.039847925 0.04737854
0.023876809 -0.039236058 0.047817916
0.023537435 -0.038951304 0.048217509
0.023309128 -0.038540699 0.048517913
0.022906771 -0.038818434 0.048496209
0.022341445 -0.038818434 0.048288755
0.021350954 -0.038498875 0.04769313
0.020291232 -0.037531633 0.046899434
0.019502118 -0.037148871 0.046545587
0.018591113 -0.036753047 0.046132218
0.018176323 -0.035755221 0.045994043
0.017492782 -0.035514213 0.045761108
0.016676659 -0.035467017 0.045596212
0.016009511 -0.034783412 0.045476049
0.015201607 -0.034316879 0.0452151
0.014388829 -0.033677999 0.045051564
0.013542732 -0.033326723 0.045053482
0.012874693 -0.033058006 0.045056045
0.012243866 -0.032397866 0.045118999
0.011337213 -0.032062545 0.045180708
0.010593918 -0.03167 0.045241535
0.0097544044 -0.03141211 0.045314968
0.0094526187 -0.030583169 0.045440942
0.0087187905 -0.030413182 0.045501649
0.0076514138 -0.030126974 0.045521557
0.0070512677 -0.029267076 0.045588162
0.0061453129 -0.029269464 0.045585871
0.0054384922 -0.028590392 0.04568531
0.0047619045 -0.028170362 0.045723893
0.0036035539 -0.028128751 0.045614652
0.003337366 -0.027353127 0.04573046
0.0026464462 -0.026700072 0.045748383
0.001327537 -0.026674386 0.045757946
0.00087344379 -0.026058171 0.045886517
0.00027046073 -0.025445404 0.045965284
-0.00045306515 -0.025176525 0.045970492
-0.00087618688 -0.024387531 0.045987159
-0.0018025092 -0.024128079 0.046065807
-0.0025097802 -0.023575997 0.04624033
-0.003215991 -0.023394872 0.046417527
-0.0041030031 -0.02287874 0.046812449
-0.0046118544 -0.022314254 0.047108788
-0.0053418824 -0.021799721 0.047611456
-0.0064041037 -0.021366714 0.048986517
-0.0067687007 -0.020770479 0.049204938
-0.0074586878 -0.020274837 0.049111448
-0.0077349562 -0.020093968 0.048991203
-0.0078244936 -0.019263901 0.047211736
-0.0084966868 -0.019027214 0.046602659
-0.010183848 -0.01888334 0.041839123
-0.011130592 -0.018644582 0.033535756
-0.01218174 -0.018841892 0.025565159
-0.012129778 -0.017302031 0.014415501
0.029697781 -0.044739164 0.020884342
0.02798146 -0.046776429 0.029532403
0.027951501 -0.044379398 0.031691372
0.024499618 -0.040858652 0.046292178
0.023876809 -0.040647477 0.047519196
0.023710385 -0.039859649 0.047802225
0.023429528 -0.039915018 0.048045635
0.023182753 -0.039338019 0.048299532
0.022693545 -0.039172828 0.048288755
0.021803204 -0.039733894 0.048047125
0.020501845 -0.03941948 0.047195103
0.019925572 -0.038279004 0.046547741
0.018891115 -0.038288109 0.046095151
0.018251084 -0.037535533 0.045961678
0.017494345 -0.037140451 0.045777917
0.016893506 -0.036816783 0.045615286
0.016128018 -0.036096741 0.045476049
0.015229405 -0.035896838 0.045169972
0.014705081 -0.035066567 0.045028124
0.01374582 -0.03504714 0.044899486
0.013152397 -0.034128532 0.044995174
0.012294506 -0.034034926 0.04494695
0.011518724 -0.033175353 0.04508777
0.010958648 -0.033081833 0.045146137
0.01012909 -0.032617085 0.045187566
0.0094818249 -0.032078359 0.045220595
0.0087187905 -0.031450819 0.04526794
0.0079517178 -0.031072795 0.045294791
0.0074713374 -0.030581174 0.045367856
0.0061114253 -0.030760949 0.045294829
0.0061114253 -0.029412998 0.045558233
0.0050874287 -0.029311594 0.045502253
0.0041242838 -0.029047819 0.04552348
0.0034983933 -0.028500177 0.045563675
0.0026382427 -0.028500177 0.045511834
0.001923576 -0.027977576 0.045570333
0.0013490976 -0.02693031 0.045723893
0.00066866679 -0.026617007 0.045873884
0 -0.026136212 0.045930903
-0.00075962394 -0.02573432 0.045970492
-0.0018025092 -0.025445404 0.046001822
-0.0025126152 -0.024739776 0.046060771
-0.0027102218 -0.024387531 0.046183031
-0.0038193837 -0.024374329 0.04634586
-0.0043692393 -0.023652591 0.046634763
-0.004639864 -0.022748962 0.046967413
-0.0060914005 -0.022833806 0.047403116
-0.0077324193 -0.022401858 0.04866875
-0.0071867472 -0.021384483 0.049166404
-0.0078686876 -0.021020947 0.049085919
-0.0076690186 -0.020274837 0.049053349
-0.0084963841 -0.020093968 0.04863362
-0.0094095385 -0.019759616 0.046955943
-0.010185669 -0.019541685 0.044913471
-0.011397729 -0.018690994 0.034379933
-0.013145895 -0.019738458 0.029095802
-0.012735607 -0.018530345 0.015461472
0.029673399 -0.047869727 0.0091514215
0.029329637 -0.045710325 0.026273796
0.027952362 -0.046792507 0.029587518
0.027951501 -0.044278368 0.031691372
0.023970857 -0.041493174 0.046666231
0.023632295 -0.041262254 0.047701158
0.02337425 -0.041149374 0.047779821
0.023124419 -0.040701844 0.048057888
0.022862982 -0.040101144 0.048299532
0.021896889 -0.040931672 0.048192333
0.021111086 -0.040141653 0.047589738
0.020124413 -0.039727621 0.046972513
0.019154781 -0.038840391 0.046180777
0.018334277 -0.038527895 0.045964729
0.017855637 -0.037976094 0.045840949
0.017021954 -0.038514283 0.045687269
0.016418889 -0.037332013 0.045509011
0.015774637 -0.036801931 0.045324229
0.014786962 -0.036969155 0.044999272
0.014105749 -0.035849027 0.044921149
0.013252025 -0.035630397 0.044869598
0.012439817 -0.035236813 0.044909149
0.011915261 -0.034863781 0.044942141
0.011063855 -0.034427997 0.044951003
0.010507416 -0.033796966 0.045102425
0.0097444579 -0.03325773 0.045146137
0.0087643368 -0.033220764 0.045121878
0.0081104338 -0.032410972 0.045220595
0.0075287828 -0.03186439 0.045228571
0.0069791228 -0.031305164 0.045245204
0.0060132369 -0.031201731 0.04524659
0.0053272308 -0.030641552 0.045336574
0.0041311495 -0.03076471 0.045280248
0.0037098518 -0.029538073 0.045469433
0.0031804307 -0.029047819 0.045501299
0.0025959066 -0.028943757 0.045477629
0.0019584 -0.028038481 0.045520067
0.00085154921 -0.027992848 0.045520067
0 -0.027731629 0.045669623
-0.00041165482 -0.026754968 0.045871705
-0.00097459182 -0.026295207 0.045886517
-0.0024872404 -0.026448948 0.046009816
-0.0026625264 -0.025445404 0.046006471
-0.0035055231 -0.025418123 0.046141028
-0.0035524219 -0.024670888 0.04626894
-0.0048250034 -0.024374329 0.04659969
-0.0056400076 -0.024094209 0.046916842
-0.006111233 -0.023495402 0.047447205
-0.0070982203 -0.022796977 0.048528247
-0.0084365755 -0.022594353 0.048833005
-0.0079893051 -0.021428062 0.049166404
-0.0086277798 -0.021192964 0.04907269
-0.0093424954 -0.020956371 0.048526194
-0.0094792917 -0.020380395 0.04753238
-0.010183848 -0.019851213 0.046009071
-0.012109484 -0.019885818 0.034505233
-0.014137701 -0.022075925 0.030656066
-0.01298731 -0.018772924 0.018591225
0.029673399 -0.047869727 0.0096674124
0.028853705 -0.047427908 0.027712379
0.027883995 -0.047568303 0.029587518
0.027523557 -0.043086372 0.036477838
0.023788866 -0.042098857 0.046988547
0.02337425 -0.042018488 0.047706917
0.02298665 -0.041901644 0.047802225
0.022861367 -0.041467123 0.048045635
0.022237964 -0.04123114 0.048195668
0.021557244 -0.041901644 0.048047125
0.020748163 -0.040714428 0.047409356
0.019399643 -0.040204536 0.046720363
0.018756539 -0.039583132 0.046152174
0.01810017 -0.038749926 0.045790046
0.017214835 -0.03941948 0.045646548
0.016854346 -0.038749926 0.045625627
0.015876569 -0.037976094 0.045327678
0.015212383 -0.037872273 0.045104653
0.014564794 -0.037281457 0.044921149
0.013651138 -0.036934983 0.044867057
0.012692327 -0.036221959 0.044864763
0.012280839 -0.035942111 0.044858288
0.011411744 -0.035475463 0.044909149
0.010650198 -0.03518153 0.044913523
0.01012909 -0.034202252 0.045070026
0.0089324638 -0.034058813 0.045056045
0.0085990634 -0.03366518 0.045101643
0.0079517178 -0.032805599 0.045184031
0.0070512677 -0.032714985 0.04513523
0.0064709806 -0.031900346 0.045154516
0.0054550841 -0.031745084 0.045119643
0.0049883993 -0.031391885 0.045188725
0.0041242838 -0.030826401 0.045223206
0.0033886656 -0.030371927 0.045401815
0.0027254745 -0.029788312 0.045423087
0.0018177396 -0.029453401 0.045462064
0.0015006633 -0.029035462 0.045462359
0.000345062 -0.028583126 0.04549263
0 -0.027900672 0.045626216
-0.00088419626 -0.027963024 0.045848399
-0.0021547303 -0.027582157 0.045987159
-0.0024872404 -0.026786741 0.046043746
-0.0034732623 -0.026589546 0.046135928
-0.0037103444 -0.025590088 0.04624033
-0.0041992404 -0.025362559 0.046326585
-0.0050620995 -0.024739776 0.046542898
-0.0056400076 -0.024394086 0.046916842
-0.0061407015 -0.023878489 0.047442112
-0.0078903176 -0.023652591 0.048448034
-0.0089665037 -0.023200106 0.048818585
-0.0086901356 -0.022295754 0.048916534
-0.0093751578 -0.022079431 0.048818585
-0.0093751578 -0.021366714 0.04863131
-0.010097803 -0.020942084 0.047899567
-0.010555175 -0.021048736 0.047332257
-0.011363329 -0.020070348 0.038806166
-0.015271666 -0.023362955 0.030031264
-0.014035149 -0.019385453 0.019839205
-0.016974162 -0.021879472 0.0053332108
0.029100725 -0.048578259 0.011048567
0.028332345 -0.047943704 0.028436461
0.02691029 -0.049662482 0.029492063
0.023788866 -0.043314967 0.044146784
0.023643337 -0.042675719 0.047195103
0.023004368 -0.042894222 0.047608525
0.022763483 -0.042495295 0.047859006
0.022573166 -0.041730121 0.048137516
0.021901265 -0.042270932 0.048211031
0.021132557 -0.042147052 0.04790866
0.020037754 -0.041904017 0.047281593
0.018988553 -0.041293755 0.046390545
0.018278623 -0.04003188 0.046041489
0.017494345 -0.040204536 0.045727178
0.017084481 -0.039623275 0.045481473
0.016034639 -0.039583132 0.045327678
0.01518247 -0.039290208 0.045039054
0.014838382 -0.038288109 0.044980243
0.013987579 -0.038243826 0.044858288
0.013247147 -0.037495717 0.044811111
0.012411385 -0.036683302 0.044813551
0.011753288 -0.036469415 0.044797175
0.011063855 -0.036373883 0.044797175
0.010523769 -0.035475463 0.044904526
0.0094418647 -0.035459019 0.044904526
0.0087300902 -0.034813885 0.044931732
0.008232628 -0.034042731 0.045028955
0.00725054 -0.034018144 0.044942141
0.0070084915 -0.033191208 0.045091197
0.0059276489 -0.032833688 0.045063574
0.0052665574 -0.032273177 0.045063574
0.0043654707 -0.032027982 0.045075007
0.003591534 -0.031572167 0.045115057
0.0027784796 -0.031311814 0.045223206
0.0026258021 -0.030371927 0.045381427
0.0014945727 -0.030425888 0.045368496
0.00087925285 -0.029677404 0.045431264
0 -0.029289983 0.04549263
-0.00087986252 -0.028959515 0.045658864
-0.0014269045 -0.028270626 0.045825627
-0.0023045074 -0.027937889 0.045969948
-0.0028216681 -0.027469657 0.046043746
-0.0034907283 -0.027118281 0.046135928
-0.0041368753 -0.026550032 0.046315435
-0.0050489157 -0.026244335 0.046316653
-0.0053320136 -0.025590088 0.046503536
-0.0059188148 -0.024954353 0.04681462
-0.0069996808 -0.024733644 0.047244191
-0.0077822842 -0.023961503 0.048220038
-0.0090829358 -0.023919029 0.048719071
-0.0093424954 -0.023136389 0.048946362
-0.0090829358 -0.022147303 0.048818585
-0.0097685382 -0.022107396 0.048526194
-0.010328284 -0.021513006 0.047899567
-0.010909978 -0.021501135 0.047453739
-0.012062815 -0.021366995 0.042452939
-0.016056491 -0.024008404 0.030715693
-0.014555932 -0.019602971 0.019493848
-0.016974162 -0.021879472 0.0053332108
0.028469978 -0.049360916 0.01371726
0.026342278 -0.050306909 0.028642058
0.026771823 -0.048934262 0.029532403
0.023533901 -0.043947611 0.044285603
0.023004368 -0.043570027 0.047376797
0.022861367 -0.043164793 0.047608525
0.022437386 -0.043136552 0.047706917
0.021983109 -0.042765789 0.048217509
0.021557555 -0.043267753 0.048335902
0.020320449 -0.042859115 0.047670245
0.019284673 -0.042307287 0.046871297
0.018498726 -0.041704297 0.045961678
0.017592503 -0.041510839 0.045699447
0.017214835 -0.040737331 0.045389891
0.016600953 -0.040545981 0.045341134
0.015774637 -0.040071148 0.045174144
0.014781705 -0.039975457 0.044980243
0.014149045 -0.039209239 0.044931527
0.013289265 -0.039419986 0.044767637
0.012933741 -0.038352046 0.044726159
0.012119699 -0.03768963 0.044660166
0.0112537 -0.037350927 0.044660166
0.010689248 -0.036781903 0.044752087
0.0096222796 -0.036871977 0.044689838
0.0092980117 -0.035505079 0.044862717
0.0084240567 -0.035315584 0.044804066
0.0078037805 -0.034979317 0.044829845
0.0070510656 -0.03458152 0.044841796
0.0065371022 -0.033923365 0.044919692
0.0053777769 -0.033802435 0.044931732
0.004424959 -0.033191208 0.044958498
0.0039157961 -0.032699734 0.045041539
0.0033986066 -0.032467928 0.045061111
0.0024838236 -0.032027982 0.045115057
0.0018177396 -0.031255357 0.045219723
0.0011435158 -0.030805264 0.045350343
0.00034394767 -0.030448977 0.045373738
-0.00027961284 -0.029932844 0.045450632
-0.0015596519 -0.029827632 0.04565407
-0.0017505127 -0.028904978 0.045848399
-0.0026523797 -0.028680479 0.046056271
-0.0034709647 -0.028111257 0.046126544
-0.0038193837 -0.027857032 0.046191812
-0.0044174865 -0.027200695 0.046315435
-0.0052548237 -0.027097125 0.04635486
-0.0054489467 -0.02609235 0.046433184
-0.0063626468 -0.025855925 0.046969868
-0.007619381 -0.025590088 0.047251046
-0.0081937909 -0.024649538 0.048164267
-0.0099084917 -0.025121221 0.048588831
-0.0096230917 -0.023768153 0.048800554
-0.010193199 -0.023495905 0.04863131
-0.010444423 -0.022695128 0.048448034
-0.01075274 -0.02202864 0.047926962
-0.011393067 -0.022278905 0.04746598
-0.012492478 -0.022279961 0.044327039
-0.015882321 -0.024008404 0.029832019
-0.016770465 -0.023134736 0.019389544
-0.016974162 -0.021879472 0.0053332108
0.028469978 -0.049360916 0.01371726
0.02589724 -0.051808581 0.029518738
0.026771823 -0.048934262 0.029589266
0.022974696 -0.044946402 0.044678699
0.022730447 -0.04439928 0.047353901
0.022536626 -0.044107579 0.047687959
0.021900285 -0.044497009 0.047741871
0.021803204 -0.043267753 0.048137516
0.020868033 -0.044705376 0.048199221
0.020068811 -0.044107579 0.047612716
0.018819213 -0.042810008 0.046445534
0.017684046 -0.042662676 0.045891225
0.017270098 -0.042100161 0.045549821
0.016805947 -0.041372973 0.045084476
0.015984707 -0.041438095 0.045130238
0.01518104 -0.041288756 0.045008965
0.014478302 -0.04026702 0.044937775
0.013504878 -0.040071148 0.044853941
0.013239151 -0.039290208 0.044715267
0.012254689 -0.039379004 0.0446155
0.011600509 -0.038587146 0.044604663
0.010852826 -0.038282577 0.044563442
0.0098630711 -0.037677865 0.044591218
0.009551513 -0.037161287 0.044643488
0.0090062218 -0.036343642 0.044678517
0.0079452097 -0.036215145 0.044671897
0.0074274559 -0.035254095 0.044754863
0.0069086598 -0.035114136 0.044762462
0.0059095146 -0.035007134 0.04476992
0.0049739107 -0.034494888 0.044813845
0.0041638473 -0.034018144 0.044847578
0.0034370327 -0.033664912 0.044925127
0.0030076269 -0.032858226 0.044983774
0.0022635758 -0.032407276 0.045049369
0.0011435158 -0.032317154 0.045071751
0.00057605281 -0.03175813 0.04518199
1.1442695e-05 -0.031074408 0.045265332
-0.00088239793 -0.031044746 0.045496128
-0.0017278027 -0.030103635 0.045658864
-0.0023456118 -0.02986539 0.045816988
-0.0028146207 -0.029569089 0.045938142
-0.0035000676 -0.028571703 0.046126544
-0.0041992404 -0.028214909 0.046135928
-0.0051369518 -0.027920563 0.04626894
-0.0055276966 -0.027469657 0.046319962
-0.0058579799 -0.026822265 0.046511829
-0.0061008451 -0.02617557 0.046695173
-0.0077414322 -0.0259587 0.047251046
-0.0088509265 -0.025679668 0.04798438
-0.010080868 -0.025502849 0.04866289
-0.010193199 -0.024663314 0.048749171
-0.011011129 -0.024480641 0.048778623
-0.010444423 -0.02319058 0.048588831
-0.011231895 -0.023091901 0.048169225
-0.011942902 -0.022763263 0.047826864
-0.012492478 -0.022390712 0.046412904
-0.015834454 -0.024008404 0.027614878
-0.017625842 -0.024081288 0.018079638
-0.016974162 -0.021879472 0.0053332108
0.028469978 -0.049360916 0.011048567
0.02589724 -0.053602211 0.023446754
0.026342278 -0.049657851 0.029518738
0.022750355 -0.045455184 0.045029934
0.022224506 -0.045234419 0.047310431
0.021989238 -0.044766836 0.047611263
0.021562288 -0.044709563 0.047728971
0.021159131 -0.04439928 0.047942754
0.020274516 -0.045372989 0.047988534
0.019661322 -0.044624306 0.047611151
0.018450743 -0.043673363 0.046564519
0.017570134 -0.042689126 0.045855295
0.01693007 -0.042442933 0.045549821
0.016113067 -0.042411916 0.045060717
0.015721807 -0.042109948 0.045008965
0.014870702 -0.041374873 0.044979334
0.014012337 -0.041197538 0.044952102
0.013227094 -0.040565159 0.044859696
0.012510248 -0.040055454 0.044606332
0.011901956 -0.040018756 0.044573531
0.011335738 -0.039148211 0.044553835
0.010536622 -0.038972244 0.044542219
0.0094093522 -0.038972244 0.044542219
0.0092741679 -0.037635911 0.04461401
0.0082512228 -0.037635911 0.044554442
0.0075363666 -0.037308075 0.044585377
0.0068660369 -0.036368467 0.044614583
0.0061641261 -0.03615706 0.044626594
0.0052405642 -0.035625182 0.044695288
0.0044081286 -0.035419803 0.044754863
0.0038651684 -0.034503806 0.044805173
0.0033886656 -0.033894092 0.044909958
0.0022734404 -0.033907846 0.044916779
0.0015931427 -0.033490803 0.04496086
0.00087765552 -0.032629002 0.045030516
0 -0.032551907 0.045042694
-0.00067134202 -0.032029923 0.045175679
-0.00096455845 -0.031255357 0.045393765
-0.0021438915 -0.031104662 0.045641154
-0.0027946355 -0.03051164 0.045783386
-0.0032676961 -0.029906347 0.045972347
-0.0039146859 -0.029752325 0.046075657
-0.0043705041 -0.028703222 0.046141028
-0.0052154586 -0.028360875 0.04617738
-0.0061214408 -0.028165409 0.046362013
-0.0061216657 -0.027420953 0.046511829
-0.0069481684 -0.027134132 0.046857938
-0.0089503229 -0.027216114 0.047375243
-0.0088456888 -0.026199352 0.047807474
-0.010193199 -0.026057903 0.048595496
-0.011326283 -0.026199352 0.048800554
-0.011109194 -0.024958652 0.048803948
-0.011234809 -0.02419805 0.048341304
-0.011909951 -0.023768153 0.048169225
-0.012574587 -0.023616901 0.047840953
-0.012875921 -0.022961602 0.046667069
-0.016056491 -0.024388075 0.0276605
-0.017625842 -0.024081288 0.017143872
0.02531212 -0.054182068 0.021461383
0.025931023 -0.050187282 0.029678635
0.022260498 -0.045858189 0.046473522
0.02171804 -0.045810282 0.047608525
0.021577839 -0.045312036 0.047728971
0.020953637 -0.045383506 0.047789957
0.020676278 -0.045372967 0.047988534
0.019908847 -0.045870844 0.047867954
0.019196264 -0.045312036 0.04768803
0.017922886 -0.044705376 0.046575397
0.017161632 -0.043773219 0.045752347
0.016665822 -0.042859115 0.045587268
0.015859161 -0.04282992 0.045047931
0.01518247 -0.042365905 0.044972472
0.014113532 -0.042773053 0.045005105
0.013704529 -0.041716643 0.044937775
0.012953946 -0.041290231 0.044859696
0.011857206 -0.041444894 0.044725679
0.011630462 -0.040239725 0.044591218
0.010852848 -0.040018756 0.044563442
0.0096590975 -0.039927393 0.044536252
0.0092832148 -0.039066702 0.04453963
0.0088505074 -0.038363338 0.044553246
0.007696107 -0.038527165 0.044553835
0.0072576031 -0.037659369 0.044554442
0.0061190622 -0.037652154 0.044581294
0.0052962168 -0.037326954 0.044585377
0.0052059828 -0.03615706 0.044686835
0.0039998982 -0.036081098 0.044665217
0.0034122472 -0.035451319 0.044757992
0.0026382711 -0.034848671 0.044820335
0.0019934382 -0.034503806 0.044892043
0.0012056936 -0.034142431 0.044931263
0.0008379959 -0.03303156 0.044985682
-0.00063620391 -0.033490803 0.045042694
-0.00087805255 -0.032551907 0.045076486
-0.0017595626 -0.032149062 0.04523043
-0.0025460725 -0.031617481 0.045641154
-0.0029933183 -0.031264655 0.04572501
-0.0035422663 -0.030689761 0.045891345
-0.0050088586 -0.030678347 0.046029747
-0.0050088586 -0.029546203 0.04617738
-0.0057993829 -0.029491022 0.04635486
-0.0063564843 -0.02912293 0.046370987
-0.0064777564 -0.028025806 0.046493083
-0.0083577484 -0.02808133 0.046991855
-0.0086063035 -0.027216114 0.047272198
-0.009533152 -0.027160633 0.047803119
-0.010543386 -0.026886204 0.048697099
-0.011194808 -0.026293371 0.048803948
-0.011374209 -0.02579629 0.048697099
-0.012048163 -0.024949098 0.048280805
-0.012467595 -0.024657071 0.048122413
-0.01306734 -0.024344156 0.047840953
-0.01365475 -0.024265938 0.047005385
-0.016250744 -0.024569705 0.027492797
-0.017589157 -0.024125151 0.015927557
0.025567323 -0.054012779 0.023346743
0.025558973 -0.050306909 0.029678635
0.021735486 -0.04726816 0.045519006
0.021494295 -0.04622956 0.047611263
0.021147028 -0.046029843 0.047728971
0.020676278 -0.045917358 0.047837444
0.020320449 -0.045383506 0.047853254
0.019348562 -0.04674251 0.047862571
0.018630527 -0.046147965 0.047635071
0.017442092 -0.045105457 0.046564519
0.016627708 -0.045017015 0.045803607
0.016087998 -0.044006623 0.045255903
0.015666738 -0.043080147 0.045008965
0.014324009 -0.044064771 0.045008965
0.014012337 -0.042773053 0.044972472
0.013354541 -0.0423209 0.044953566
0.012314521 -0.042046919 0.044859696
0.011684445 -0.041444894 0.044692539
0.011241798 -0.041040152 0.044561729
0.010416402 -0.04078377 0.044514701
0.0096160881 -0.040180828 0.044514701
0.0087100565 -0.039927393 0.044510029
0.0079452097 -0.039651468 0.044536252
0.0074143009 -0.038892154 0.044553246
0.0068881288 -0.038363338 0.044581294
0.0059095146 -0.038041629 0.044581294
0.0052168928 -0.037601359 0.04458002
0.0042578802 -0.037578791 0.044563338
0.0032071183 -0.037465479 0.044607364
0.0033801524 -0.035776079 0.044707771
0.0024996141 -0.035540175 0.044785023
0.0015507638 -0.03531969 0.044892043
0.0008702912 -0.034774639 0.044918884
0 -0.034454621 0.044947937
-0.00071660476 -0.033795711 0.045033749
-0.0013308674 -0.033095729 0.045050554
-0.001866672 -0.032665741 0.04523043
-0.0029634191 -0.032556541 0.045626622
-0.0035001377 -0.031845316 0.04575491
-0.0037534088 -0.031281553 0.045873314
-0.0047574607 -0.030870378 0.04598555
-0.0056751156 -0.030522209 0.04622829
-0.0062308693 -0.030015847 0.046326786
-0.0069086878 -0.029751992 0.046379834
-0.0077179 -0.029356152 0.046593636
-0.0083801076 -0.028806956 0.04688178
-0.0092121698 -0.027904857 0.04731597
-0.010260306 -0.027807508 0.047905639
-0.01084929 -0.027364248 0.048668709
-0.012064447 -0.027342349 0.048800554
-0.01186083 -0.026293371 0.048859358
-0.011573403 -0.025366742 0.048400842
-0.012595478 -0.024958652 0.048169225
-0.01361431 -0.024989117 0.047826864
-0.013838725 -0.024712076 0.047064792
-0.01678567 -0.024986217 0.026485205
-0.017625842 -0.025311425 0.014918483
0.02531212 -0.054182068 0.020472065
0.025126766 -0.051402137 0.029776745
0.021496184 -0.047514465 0.044761188
0.021073895 -0.047037892 0.047422543
0.020659273 -0.046878804 0.047784448
0.020160723 -0.046805318 0.047837444
0.019820305 -0.046551909 0.047862571
0.018830162 -0.047911365 0.047817733
0.018167695 -0.046413273 0.04762261
0.016937464 -0.046413273 0.046480417
0.01625105 -0.045646939 0.045991927
0.01579123 -0.044362459 0.045250088
0.014901367 -0.044844415 0.045157898
0.014165189 -0.044078149 0.045005105
0.013182327 -0.044180714 0.045098834
0.013004899 -0.043123044 0.044980496
0.012136628 -0.042715542 0.04483287
0.011371786 -0.042346545 0.044725679
0.010416402 -0.042184334 0.044613592
0.010041757 -0.041109532 0.044507004
0.0088505074 -0.041373815 0.044471309
0.0080382898 -0.04078377 0.044509411
0.0078458134 -0.039924361 0.044521786
0.0069863135 -0.039881866 0.044528496
0.0061559854 -0.039241567 0.044585377
0.0053376434 -0.038708404 0.044546634
0.0044652969 -0.038234048 0.044554442
0.0039998982 -0.037948526 0.044544451
0.0033153151 -0.037499994 0.044607364
0.0026053116 -0.037121449 0.044607364
0.0018123776 -0.036355894 0.044737842
0.00088036025 -0.035775166 0.044892043
0.00021617091 -0.035543788 0.044925127
-0.00034792139 -0.035025913 0.044933163
-0.0013155676 -0.03497168 0.044946473
-0.0017595626 -0.034144916 0.045076206
-0.0020775348 -0.032909196 0.04523043
-0.0032338928 -0.03310205 0.045632631
-0.0040076673 -0.032981317 0.045725998
-0.0046011358 -0.032440379 0.04586184
-0.006061241 -0.032465141 0.046129819
-0.0055311695 -0.030870378 0.046135575
-0.0067397803 -0.03087585 0.046324164
-0.0072067901 -0.030470639 0.046359718
-0.0077414322 -0.029823229 0.046559278
-0.0085416585 -0.029280838 0.046910077
-0.010116569 -0.029042996 0.047522016
-0.010460136 -0.028426919 0.047807474
-0.011465563 -0.028273607 0.048668709
-0.01227024 -0.027935643 0.04885111
-0.01203017 -0.027065951 0.048848327
-0.012379162 -0.026199352 0.048392028
-0.013075254 -0.026042042 0.04817462
-0.013908105 -0.025698233 0.047892123
-0.01414389 -0.02500562 0.047064792
-0.019394467 -0.02738679 0.021757852
0.024644438 -0.055080473 0.01491932
0.024695734 -0.051841132 0.0294514
0.021002907 -0.047980309 0.044681136
0.020234328 -0.048192035 0.047566921
0.020064473 -0.047774486 0.047728971
0.019748444 -0.047422715 0.047853254
0.019371537 -0.046957377 0.047876142
0.01840538 -0.048083164 0.047824088
0.017896315 -0.04746598 0.047659971
0.01673984 -0.046403203 0.046618491
0.015909389 -0.046052419 0.046094179
0.014926774 -0.046124503 0.045587268
0.014551783 -0.045101453 0.045171019
0.013876216 -0.045115054 0.045142107
0.01302363 -0.044707119 0.045101054
0.012299256 -0.044064771 0.045020346
0.01156403 -0.043737639 0.044920463
0.010757546 -0.043292869 0.044711437
0.0098849982 -0.042862736 0.044540472
0.0096002622 -0.041800048 0.044459581
0.0085652638 -0.042207215 0.0444334
0.0078619691 -0.041129947 0.0444334
0.0070468038 -0.041473228 0.044217467
0.0064743413 -0.040524598 0.044509411
0.0060260445 -0.039652977 0.044529542
0.0050755516 -0.03963149 0.044477087
0.0041155326 -0.039128508 0.044549625
0.0034739291 -0.038446963 0.044564169
0.0028666316 -0.038071353 0.04461807
0.0019180104 -0.037823588 0.04459786
0.0017939429 -0.036560033 0.044696555
0.0001886934 -0.037118204 0.04480771
-0.00013640523 -0.036355894 0.044882916
-0.00063620391 -0.035700675 0.044927057
-0.0014950186 -0.035323475 0.044946473
-0.002430283 -0.035026152 0.045088246
-0.002645588 -0.034090582 0.045331001
-0.0039594057 -0.034090582 0.045523327
-0.004360266 -0.033329938 0.045748424
-0.0051789209 -0.033139687 0.045891345
-0.0061650351 -0.032777414 0.046082813
-0.0062042163 -0.031765886 0.046148248
-0.0074858861 -0.031723101 0.046375971
-0.0078236796 -0.03131064 0.046449512
-0.008277352 -0.030678347 0.046613727
-0.0087666512 -0.029950446 0.046888176
-0.0098521821 -0.029423233 0.047416657
-0.01055114 -0.028869063 0.047807474
-0.012105763 -0.028790109 0.048697099
