ply
format ascii 1.0
comment PCL generated
element vertex 1257
property float x
property float y
property float z
element camera 0
property float view_px
property float view_py
property float view_pz
property float x_axisx
property float x_axisy
property float x_axisz
property float y_axisx
property float y_axisy
property float y_axisz
property float z_axisx
property float z_axisy
property float z_axisz
property float focal
property float scalex
property float scaley
property float centerx
property float centery
property int viewportx
property int viewporty
property float k1
property float k2
end_header
0.018914493 -0.038199883 0.046384808
0.018252915 -0.037872091 0.046318468
0.017588787 -0.037148871 0.04616968
0.016729958 -0.036753047 0.045970589
0.016365919 -0.036256183 0.045730297
0.015713528 -0.0360534 0.045608543
0.014678413 -0.034783412 0.045416411
0.013837188 -0.034783412 0.045254976
0.013252025 -0.034090992 0.04532513
0.012280839 -0.034090992 0.045332849
0.01168436 -0.033187557 0.045337617
0.01086602 -0.033086434 0.045337617
0.010008508 -0.032678474 0.045339286
0.0094029084 -0.03186439 0.045339588
0.0087323925 -0.031557683 0.045367856
0.0079517178 -0.031200701 0.045465335
0.0074501904 -0.030450732 0.045527466
0.0060890182 -0.030760949 0.045228571
0.0060888575 -0.02940771 0.045779031
0.0050765243 -0.029412998 0.045554042
0.0039916635 -0.029010452 0.045577455
0.0036954202 -0.028307308 0.045614652
0.0025959066 -0.028038481 0.045508098
0.001923576 -0.027830184 0.045617551
0.0017393865 -0.026643263 0.045617551
0.00063650124 -0.026591962 0.045943443
0 -0.026210712 0.046192724
-0.00087618688 -0.025813561 0.045873884
-0.0018025092 -0.025445404 0.045740277
-0.0022706985 -0.024766311 0.04598397
-0.0025430899 -0.024128079 0.046003934
-0.0038401037 -0.024094209 0.046065807
-0.0043692393 -0.02287874 0.046427816
-0.0045812726 -0.022689151 0.046692371
-0.0061786175 -0.022748962 0.047403116
-0.0072064819 -0.022660563 0.049117371
-0.0071867472 -0.021192964 0.049510054
-0.0078686876 -0.020937497 0.049406812
-0.0079326453 -0.020082373 0.049322926
-0.0086961212 -0.019844752 0.049204938
-0.0096553257 -0.019270102 0.04610496
-0.010758987 -0.019177023 0.042677484
-0.012013411 -0.018600294 0.03502899
-0.013715209 -0.018690994 0.028852714
-0.012428358 -0.018021157 0.014477044
0.029673399 -0.047869727 0.0091514215
0.029329637 -0.045710325 0.024138287
0.02798146 -0.046792507 0.029678635
0.027883995 -0.044184484 0.032202352
0.025320776 -0.042114161 0.045967408
0.024499618 -0.041395046 0.047802225
0.023710385 -0.041493174 0.048045635
0.02298665 -0.040714033 0.048217509
0.022383653 -0.039784588 0.048839863
0.02166383 -0.040589504 0.048643555
0.020773843 -0.039981596 0.047689352
0.019949563 -0.039899126 0.047589738
0.01910986 -0.038536154 0.046569608
0.018591113 -0.038244203 0.046270411
0.018163804 -0.037945393 0.046226628
0.017100275 -0.038487557 0.046095151
0.016390942 -0.037186828 0.045702755
0.015795968 -0.03655776 0.045625627
0.014838382 -0.036934983 0.045368224
0.014193013 -0.035748772 0.045354158
0.013365252 -0.035669815 0.045213625
0.012597909 -0.035261966 0.045213625
0.01182181 -0.034657158 0.045172751
0.011063855 -0.034427997 0.045249969
0.010582675 -0.033776965 0.045380533
0.0097544044 -0.033081833 0.045241535
0.008752034 -0.033030901 0.045192242
0.0083980635 -0.03237218 0.045284111
0.0076336954 -0.031740624 0.045336574
0.0070084915 -0.031446256 0.045336574
0.0060046818 -0.031212155 0.045088522
0.0053665559 -0.030463651 0.045619115
0.0041311495 -0.030646833 0.045324266
0.0036035539 -0.029333655 0.045501299
0.0033155205 -0.029010452 0.045577455
0.0025493558 -0.028859708 0.045497447
0.001923576 -0.028038481 0.045520067
0.00075666141 -0.027900672 0.045520067
-0.00011978624 -0.027731629 0.045859799
-0.00011978624 -0.026676793 0.045859799
-0.00089161331 -0.026285606 0.045643657
-0.0023216866 -0.025894098 0.045871705
-0.0026255797 -0.02551944 0.045969948
-0.0038307579 -0.025344701 0.046012349
-0.0038401037 -0.024648167 0.046006471
-0.0050984072 -0.024281776 0.046503536
-0.0058994461 -0.023992192 0.046519637
-0.0065028658 -0.023232736 0.047484696
-0.0070982203 -0.022956036 0.048818585
-0.0083603095 -0.022444177 0.0494124
-0.0081813755 -0.021366714 0.049506068
-0.0086277798 -0.020937497 0.049406812
-0.0093751578 -0.020558547 0.049204938
-0.0097283628 -0.019541685 0.047175705
-0.010413335 -0.019358341 0.045308597
-0.012784094 -0.019885818 0.03502899
-0.014612732 -0.020936653 0.030656066
-0.01353077 -0.018892489 0.018422604
0.029673399 -0.047869727 0.0096674124
0.028564706 -0.046776429 0.027712379
0.027436666 -0.047427908 0.029776745
0.027883995 -0.04341254 0.037194312
0.024483792 -0.042556245 0.046292178
0.023834925 -0.042018488 0.047802225
0.023363888 -0.041771177 0.04790866
0.022803549 -0.041149374 0.048362702
0.021996811 -0.040701844 0.048643555
0.021086173 -0.041712467 0.048445199
0.02026378 -0.040589504 0.047460042
0.019949563 -0.039981596 0.047157828
0.019041322 -0.039673973 0.046346694
0.018258534 -0.038933188 0.046014935
0.017214835 -0.039432988 0.045961678
0.016914345 -0.038661066 0.045997318
0.01613842 -0.037671342 0.045687269
0.015162265 -0.037577391 0.045473844
0.014705081 -0.036983132 0.045368224
0.01384384 -0.036983132 0.045114215
0.013049932 -0.036373883 0.045074631
0.012382418 -0.036005341 0.045221925
0.011453094 -0.035197355 0.045240011
0.010531814 -0.035115805 0.045240011
0.010452127 -0.034058813 0.045097768
0.0092069879 -0.034062631 0.045184031
0.0086105755 -0.033537678 0.045187566
0.0081104338 -0.032705083 0.045217693
0.0070193741 -0.032805599 0.04524659
0.0068510547 -0.031895299 0.045226894
0.0055828844 -0.031599246 0.045096252
0.0049883993 -0.03148428 0.045154933
0.0041311495 -0.03081922 0.045190755
0.0033986066 -0.03016616 0.045389734
0.0026804996 -0.029788312 0.045368496
0.0018676235 -0.029335357 0.045462064
0.0012470298 -0.029005013 0.045468699
0.00043615233 -0.028583126 0.045510452
9.1856811e-05 -0.027900672 0.045510452
-0.00088419626 -0.028080396 0.046137776
-0.0021701325 -0.027503116 0.045825627
-0.0023045074 -0.026589546 0.045835577
-0.0035055231 -0.026514251 0.04609628
-0.0038307579 -0.025441837 0.04609628
-0.0040390119 -0.02532278 0.046016693
-0.0050984072 -0.024510959 0.046433184
-0.0058548898 -0.024281776 0.046519637
-0.0064041037 -0.023652591 0.047550362
-0.0076738168 -0.023277141 0.048800621
-0.0089665037 -0.023200106 0.0494124
-0.0085489573 -0.022224791 0.049462255
-0.0094095385 -0.021536864 0.04932129
-0.0094283475 -0.020942084 0.048696931
-0.010185669 -0.020694347 0.04752776
-0.011408105 -0.020575866 0.046071939
-0.012784094 -0.02074175 0.040453162
-0.016056491 -0.023362955 0.030656066
-0.014063897 -0.019602971 0.018932939
-0.016974162 -0.021879472 0.0053332108
0.029100725 -0.048578259 0.011048567
0.027952362 -0.047568031 0.027298626
0.025931023 -0.049657851 0.029873086
0.024796825 -0.043704093 0.043150261
0.023970857 -0.043267734 0.046292178
0.023607085 -0.043136552 0.047257796
0.022934485 -0.042270932 0.04790866
0.022536626 -0.041610286 0.048384648
0.021292131 -0.042059552 0.048528504
0.020655505 -0.04211352 0.048195668
0.020037754 -0.041888297 0.047281593
0.019380476 -0.041644774 0.046845768
0.018498726 -0.040069222 0.046041489
0.017592503 -0.040069222 0.045735568
0.017214835 -0.039607409 0.045727178
0.016040193 -0.039634906 0.045564197
0.015662683 -0.039168108 0.045557953
0.014838382 -0.038223129 0.045282423
0.014039779 -0.038140848 0.045113981
0.013300387 -0.037088659 0.045104653
0.012685508 -0.036683302 0.045104653
0.012130437 -0.036525983 0.045155164
0.011077221 -0.036351416 0.045053333
0.010392553 -0.035240337 0.045146137
0.0094201053 -0.035240337 0.045172751
0.0087685017 -0.034879424 0.045184031
0.0081751561 -0.034021445 0.045121878
0.007316079 -0.034043457 0.044911154
0.006999976 -0.033012584 0.04524659
0.0059276489 -0.032833688 0.045061111
0.0053272308 -0.03226237 0.045061111
0.0043017445 -0.032112151 0.045076162
0.0038460046 -0.031546734 0.045083977
0.0026404511 -0.03133614 0.045313872
0.0026404511 -0.030152261 0.045270432
0.0014945727 -0.030397464 0.045431264
0.00086700264 -0.029587027 0.04542261
0.00024092151 -0.029177807 0.045510452
-0.00085452572 -0.028955827 0.045919612
-0.0013840743 -0.028183278 0.045866061
-0.0020846999 -0.027968254 0.045797478
-0.0026625264 -0.027420232 0.045898672
-0.0035055231 -0.026890047 0.046191812
-0.0038359491 -0.026514251 0.046026889
-0.0052474258 -0.025922712 0.04609628
-0.0056908531 -0.025590088 0.046315435
-0.0058994461 -0.024836309 0.046542898
-0.0073422417 -0.024649538 0.047005944
-0.0074508647 -0.023961503 0.048431769
-0.0089665037 -0.023277141 0.0494124
-0.0090591693 -0.023200106 0.049368601
-0.0090829358 -0.022147303 0.049406812
-0.0099237133 -0.021876968 0.048443854
-0.010800556 -0.021513006 0.047833264
-0.011393067 -0.021067347 0.046026751
-0.012079289 -0.020950746 0.042029209
-0.016645452 -0.023362955 0.030656066
-0.01533405 -0.020329732 0.019839205
-0.016974162 -0.021879472 0.0053332108
0.028469978 -0.049360916 0.01371726
0.026342278 -0.050306909 0.028642058
0.026342278 -0.049159512 0.029873086
0.024716798 -0.044946402 0.043623842
0.023871046 -0.043703754 0.046647929
0.022967268 -0.043362271 0.047257796
0.022567183 -0.043146845 0.047329266
0.02202931 -0.042747322 0.048706047
0.021053568 -0.042941108 0.048696768
0.020037754 -0.042689126 0.047720931
0.019380476 -0.041888297 0.046907008
0.018996671 -0.041644774 0.046180777
0.017804423 -0.041448236 0.046088398
0.017421402 -0.040545981 0.045370866
0.016854346 -0.040656395 0.045389891
0.01575017 -0.039913751 0.045439601
0.014929296 -0.039975457 0.045389891
0.01426908 -0.039196692 0.044930581
0.013320057 -0.039196692 0.044672322
0.013115126 -0.038243826 0.044856511
0.012254689 -0.037324104 0.044858288
0.011316142 -0.037597988 0.044943009
0.010934842 -0.036716014 0.044932723
0.0095013408 -0.036888577 0.044689838
0.0094201053 -0.035477724 0.045136306
0.008484235 -0.035459019 0.045028061
0.0077038119 -0.035040539 0.044741496
0.0070510656 -0.034563273 0.044911154
0.0061534895 -0.033850789 0.044942141
0.0057298616 -0.033802435 0.044922166
0.0046438952 -0.033329327 0.044862222
0.0039961548 -0.032625135 0.044983774
0.0031705461 -0.032436505 0.045296133
0.0026310137 -0.031980831 0.045380492
0.0019774144 -0.03115418 0.045219064
0.0013691268 -0.030696373 0.045390084
0.00034394767 -0.030591723 0.045544982
-0.00027726404 -0.03000153 0.045518883
-0.0014269045 -0.029827632 0.045746688
-0.001644969 -0.028895922 0.045746688
-0.0026523797 -0.028567102 0.045785036
-0.0034844945 -0.028214909 0.046378888
-0.0040438888 -0.027689617 0.046135928
-0.0043705041 -0.027136903 0.046141028
-0.0056248987 -0.026900265 0.046026889
-0.0056908531 -0.025922712 0.04626894
-0.0061238566 -0.025736162 0.04626894
-0.0077480413 -0.025360633 0.047005944
-0.0078691179 -0.024717197 0.048564281
-0.010080868 -0.02493507 0.049128126
-0.0092897182 -0.023309384 0.0494124
-0.010193199 -0.023178034 0.048448034
-0.010555175 -0.022695128 0.048317887
-0.011011129 -0.022106297 0.047870636
-0.011976982 -0.021356557 0.046071939
-0.012995481 -0.021351187 0.04230886
-0.016056491 -0.023362955 0.030656066
-0.016924592 -0.022821929 0.01947348
-0.016974162 -0.021879472 0.0053332108
0.028469978 -0.049360916 0.01371726
0.026181806 -0.051999044 0.02767095
0.026342278 -0.049159512 0.029873086
0.023912884 -0.045714922 0.044069499
0.023533901 -0.04454764 0.046788059
0.022750355 -0.044310756 0.047523439
0.022199398 -0.044497009 0.04759584
0.021281874 -0.043055534 0.048692014
0.020238232 -0.044353656 0.048730895
0.019793369 -0.043659858 0.047720931
0.018988553 -0.042777609 0.046575397
0.01823152 -0.042652577 0.046219915
0.017670345 -0.042176418 0.046088398
0.017001705 -0.041288756 0.044795509
0.01579123 -0.041197538 0.045084476
0.014898137 -0.04111312 0.045188997
0.014564866 -0.040293179 0.044931527
0.013704529 -0.040246297 0.044794526
0.013320057 -0.039164267 0.044606332
0.012294439 -0.039276168 0.044563442
0.011600509 -0.038515188 0.044591218
0.010601872 -0.038286887 0.044797175
0.010254723 -0.037825704 0.044678517
0.0094885454 -0.037155837 0.04446812
0.0088878954 -0.036085725 0.044966351
0.0079677943 -0.036060825 0.044603884
0.0076901466 -0.03523216 0.044741496
0.0065260176 -0.035161272 0.044770673
0.0059724739 -0.035032645 0.044958498
0.004968687 -0.034161419 0.044785473
0.0042918297 -0.034008086 0.044823781
0.0034370327 -0.033664912 0.044847578
0.0031313044 -0.032625135 0.045041539
0.0022690594 -0.032446403 0.045321602
0.00092288409 -0.032330364 0.045059413
0.00042302511 -0.031603787 0.045265332
6.281957e-05 -0.03103294 0.045552105
-0.0010666493 -0.030797914 0.045518953
-0.0015372327 -0.030231915 0.045746688
-0.0026020405 -0.029847663 0.045808878
-0.0028352663 -0.029372122 0.045715623
-0.0035348916 -0.028488185 0.046330452
-0.004364335 -0.02832019 0.046125829
-0.0050489157 -0.027689617 0.04611963
-0.0058579799 -0.027279895 0.04600016
-0.0061214408 -0.026640974 0.04626894
-0.0061214408 -0.025736162 0.04626894
-0.0077480413 -0.025553038 0.047087524
-0.0088456888 -0.025679668 0.048005667
-0.010080868 -0.025483659 0.049084444
-0.010149174 -0.024485163 0.049346276
-0.011234809 -0.02419805 0.049006779
-0.010444423 -0.023091901 0.048432373
-0.011118323 -0.022763263 0.048106875
-0.012754267 -0.021860396 0.04667687
-0.013381998 -0.021986071 0.045400888
-0.016643422 -0.023372415 0.028343737
-0.017626185 -0.024011761 0.01821363
-0.016974162 -0.021879472 0.0053332108
0.028469978 -0.049360916 0.011048567
0.02589724 -0.053602211 0.023446754
0.025126766 -0.049662482 0.029776745
0.023654679 -0.046421923 0.044194728
0.022702102 -0.0456836 0.046884738
0.022339191 -0.044709563 0.047523439
0.021852039 -0.044709563 0.047611151
0.020823456 -0.044075035 0.048528504
0.020021595 -0.045231506 0.048273765
0.019196264 -0.044190239 0.047612716
0.018278623 -0.043408383 0.046662189
0.017922886 -0.042652577 0.046219915
0.017409215 -0.042611301 0.045891225
0.016362898 -0.042219087 0.045084476
0.015731797 -0.042395305 0.045084476
0.014870702 -0.041182131 0.045188997
0.014050936 -0.041145887 0.044859696
0.013447066 -0.040448193 0.044853941
0.012728331 -0.039931607 0.044598147
0.011684445 -0.039931607 0.044563442
0.011314688 -0.038988005 0.044501737
0.010389112 -0.038633615 0.044553835
0.0093017146 -0.039026238 0.044459198
0.0091972584 -0.037519086 0.044552758
0.0082475534 -0.037659369 0.044626951
0.0073937047 -0.03721026 0.044602204
0.0069086598 -0.03640471 0.044602204
0.0061948616 -0.035977598 0.044546634
0.0052239238 -0.035399672 0.04458002
0.004424959 -0.035280973 0.044626594
0.0038884566 -0.034410827 0.044820335
0.003406629 -0.033666138 0.044823781
0.0021896597 -0.033877365 0.044892043
0.0015931427 -0.033376604 0.044975176
0.00092288409 -0.032854483 0.044977028
-5.5082142e-05 -0.03254224 0.045216598
-0.00066442974 -0.032044701 0.045190547
-0.0010666493 -0.031044746 0.045496128
-0.0021316214 -0.031118816 0.04565407
-0.0026020405 -0.03034167 0.045862254
-0.0030682283 -0.029842749 0.045916777
-0.0041434169 -0.029582825 0.046029747
-0.004385571 -0.028488185 0.04598555
-0.0051341718 -0.02832019 0.04598555
-0.0061497185 -0.028025806 0.04600016
-0.0061497185 -0.027093824 0.04600016
-0.0070040282 -0.026937045 0.04635486
-0.0089503229 -0.027223125 0.047150761
-0.0088456888 -0.026053581 0.04798438
-0.01028275 -0.025663462 0.049084444
-0.011374209 -0.025887441 0.048848327
-0.011234809 -0.024899438 0.048848327
-0.011161598 -0.02419805 0.048307776
-0.011977687 -0.023616901 0.048106875
-0.012875921 -0.022835761 0.047140379
-0.013781522 -0.022394974 0.045248866
-0.01678567 -0.024387747 0.027332585
-0.017646138 -0.024341978 0.016702056
0.02531212 -0.054182068 0.021461383
0.025126766 -0.050187282 0.029873086
0.023440002 -0.047037892 0.045059327
0.022191182 -0.046355333 0.047279671
0.021900285 -0.04525914 0.047523439
0.021150211 -0.045676112 0.04768803
0.020659273 -0.045231506 0.048068076
0.019661322 -0.045372989 0.048273765
0.019194141 -0.045017015 0.047374584
0.018021241 -0.044121545 0.046728104
0.017301122 -0.043757129 0.046262383
0.01679346 -0.042873479 0.045744143
0.015983514 -0.042873479 0.044935413
0.015620487 -0.042522434 0.044961121
0.014113532 -0.04292883 0.045170806
0.013447066 -0.041728336 0.044920463
0.013198628 -0.04135577 0.044853941
0.011969192 -0.041724108 0.04454989
0.011615846 -0.040018756 0.044906527
0.010773181 -0.040033594 0.04445352
0.0096826404 -0.039974932 0.044521786
0.0092832148 -0.039063614 0.044521786
0.008661936 -0.038445368 0.044347558
0.0076926947 -0.038840454 0.044585377
0.0071529793 -0.037722968 0.044585377
0.0061976016 -0.037650988 0.044664778
0.0052467012 -0.037247278 0.044582427
0.0052045947 -0.036178447 0.044546008
0.0039878115 -0.03615706 0.044785023
0.0034768991 -0.035575669 0.044665217
0.0026326086 -0.034921862 0.044762209
0.0019326063 -0.034371778 0.044892043
0.0014704624 -0.034257632 0.044985682
0.00090908888 -0.033071067 0.04496086
-0.00063620391 -0.033490803 0.044933125
-0.0008747424 -0.03254224 0.045042068
-0.0017642799 -0.032174636 0.045045078
-0.0023812708 -0.031629235 0.045586303
-0.0027464814 -0.031281553 0.04575491
-0.0037803999 -0.030815434 0.04572501
-0.0048359185 -0.030696172 0.045873314
-0.0048545226 -0.029569089 0.04598555
-0.0060569691 -0.029417507 0.04598555
-0.0062748296 -0.02897273 0.04603355
-0.0069086878 -0.028025806 0.046034962
-0.0083895065 -0.028165409 0.046477884
-0.0083801076 -0.027216114 0.047456145
-0.0095317001 -0.026962884 0.048005667
-0.010460136 -0.02668714 0.049016971
-0.011186691 -0.026199352 0.049016971
-0.011432565 -0.025502849 0.048844945
-0.012107402 -0.024989117 0.0480524
-0.012132969 -0.024513273 0.047975432
-0.013848621 -0.023826774 0.046686299
-0.01437905 -0.023702905 0.045166474
-0.01675272 -0.024388075 0.027332585
-0.017625842 -0.024671562 0.01568895
0.025567323 -0.054012779 0.023346743
0.025126766 -0.050187282 0.029873086
0.022958549 -0.048033219 0.044678699
0.021807343 -0.046563953 0.047269791
0.021343561 -0.046450242 0.047289241
0.020755494 -0.045917358 0.047741871
0.020068811 -0.045286104 0.048068076
0.019086685 -0.046682406 0.048100401
0.018357966 -0.046046056 0.047432467
0.017484792 -0.045105457 0.046662189
0.016834144 -0.045105457 0.046312582
0.016266653 -0.043765258 0.045549821
0.015859161 -0.043118656 0.044902936
0.014507806 -0.043894839 0.04465612
0.014099921 -0.042925071 0.045101054
0.013182327 -0.0423209 0.044920463
0.012314521 -0.042364255 0.044659887
0.011901956 -0.041782953 0.044453945
0.010869141 -0.040981896 0.044340786
0.010546752 -0.040771857 0.044471309
0.0096826404 -0.040194765 0.044507004
0.0088505074 -0.039991528 0.044521786
0.0078458134 -0.039534327 0.044509411
0.0074143009 -0.03896575 0.044585377
0.0067200302 -0.037986998 0.044658575
0.0061107278 -0.037968036 0.044658575
0.0052467012 -0.037478995 0.044582427
0.0041945819 -0.037499994 0.044607054
0.0031749739 -0.037465479 0.044508643
0.0033801524 -0.035782829 0.044538576
0.002418898 -0.035517771 0.044892043
0.0015507638 -0.03531969 0.044892043
0.00086226489 -0.03446386 0.044679578
0 -0.034454621 0.044751704
-0.00063620391 -0.033599798 0.044946473
-0.0008747424 -0.033194974 0.044946473
-0.0019241571 -0.032720599 0.045076486
-0.0029933183 -0.032571994 0.045641154
-0.0035001377 -0.031902544 0.04575491
-0.0037534088 -0.031264655 0.04572501
-0.0047874358 -0.030866994 0.045725998
-0.0056981379 -0.030412368 0.04601068
-0.0060774968 -0.029983195 0.045895815
-0.0071716057 -0.029650709 0.046058767
-0.0078564426 -0.029198093 0.046317577
-0.00843543 -0.028806956 0.046449512
-0.0090354802 -0.027807508 0.047302358
-0.010262956 -0.027901869 0.047768891
-0.01071634 -0.027453084 0.049025971
-0.012146186 -0.027367845 0.04897318
-0.011573403 -0.026161065 0.049016971
-0.011879482 -0.024997864 0.048122413
-0.012697685 -0.024949098 0.047986187
-0.014361262 -0.024712076 0.046636198
-0.01437905 -0.02410393 0.045485467
-0.01678567 -0.024569705 0.026313007
-0.017625842 -0.025311425 0.014958717
0.02531212 -0.054182068 0.020472065
0.024695734 -0.051402137 0.029776745
0.022632193 -0.047947485 0.044302262
0.021494295 -0.046957377 0.047200315
0.020953637 -0.046957377 0.047367875
0.020235835 -0.046878804 0.047862571
0.019377079 -0.046589196 0.048100401
0.018645965 -0.047635861 0.048139863
0.017896315 -0.046334695 0.047329098
0.016772307 -0.046403203 0.046679109
0.016341701 -0.045259465 0.046312582
0.016056091 -0.044371516 0.046038777
0.014778333 -0.044707119 0.044972472
0.014270934 -0.044006623 0.044847298
0.013392987 -0.044399761 0.044882983
0.01289872 -0.043188561 0.044769827
0.01220444 -0.042715542 0.044692539
0.01145014 -0.042311992 0.044376973
0.010454085 -0.042490073 0.044234771
0.010210872 -0.040845405 0.044471309
0.0089839734 -0.041355077 0.044536252
0.0083103925 -0.040861085 0.044510029
0.0077820318 -0.039651468 0.044281535
0.0070087826 -0.039424401 0.044660456
0.0060975533 -0.039128508 0.044658575
0.00539432 -0.038809173 0.044313885
0.0044652969 -0.038327768 0.044697791
0.0041155326 -0.038127571 0.044607054
0.0031749739 -0.037465479 0.044508643
0.0026139182 -0.037049457 0.044607364
0.0018123776 -0.03631293 0.044794861
0.0012118005 -0.035734441 0.044846434
0.00052207708 -0.035543788 0.045021296
-8.7787863e-05 -0.035058629 0.045021296
-0.0013743446 -0.034936149 0.044774752
-0.0017547122 -0.034141112 0.044907976
-0.0019541509 -0.03309359 0.045076486
-0.0031957242 -0.033073477 0.045489643
-0.0041275984 -0.032866474 0.045633007
-0.0046430007 -0.032440379 0.045891345
-0.0061478615 -0.032440379 0.04586184
-0.0054716915 -0.030866994 0.045959324
-0.0068077669 -0.030791052 0.046199173
-0.0071716057 -0.03027772 0.046135575
-0.0078219222 -0.029598519 0.046135575
-0.0088659944 -0.029059667 0.046584576
-0.010119585 -0.029086359 0.047410723
-0.010463201 -0.028368879 0.047676697
-0.011547429 -0.028217798 0.04897318
-0.012143967 -0.027853783 0.04897318
-0.01216901 -0.026761573 0.048844945
-0.012816562 -0.026237134 0.047975432
-0.013394559 -0.02579629 0.048030227
-0.01448639 -0.025189688 0.046734687
-0.014573073 -0.024339795 0.045819461
-0.019292446 -0.02738679 0.021801105
0.024644438 -0.055080473 0.01491932
0.024695734 -0.051808581 0.029518738
0.022200108 -0.048309438 0.044302262
0.020773243 -0.048858494 0.04743604
0.020567907 -0.047774486 0.047517471
0.019820305 -0.047479205 0.047862571
0.019051053 -0.046820771 0.048129946
0.018293429 -0.047714852 0.048139863
0.017540531 -0.046926193 0.047432467
0.017041661 -0.046403203 0.04699102
0.016329456 -0.046253975 0.046561118
0.014871597 -0.04612625 0.045803607
0.014648154 -0.045117978 0.045171019
0.013823539 -0.045089021 0.045171019
0.013177411 -0.044714447 0.045044258
0.012215747 -0.043990914 0.04501931
0.01156403 -0.043754019 0.044620868
0.010744405 -0.043517161 0.04441965
0.010142578 -0.042845301 0.044275176
0.0098808678 -0.041936047 0.044139922
0.0087100565 -0.042161394 0.044089455
0.0078366948 -0.041282244 0.043997169
0.0069193929 -0.041587565 0.043915682
0.0067718402 -0.040463138 0.044370361
0.0056968108 -0.039945178 0.044549625
0.0050277961 -0.039467499 0.044196472
0.0042880559 -0.039366085 0.044313885
0.0034878456 -0.038708404 0.044479504
0.0029710531 -0.037552111 0.044518199
0.0019412099 -0.037917089 0.044530839
0.0018408491 -0.036350865 0.044757992
0.00028175558 -0.037132937 0.044958495
-0.00032772042 -0.036560033 0.044938844
-0.000845626 -0.035689775 0.045088246
-0.0016399072 -0.03518847 0.045373261
-0.0024608287 -0.034936149 0.045098882
-0.0024789404 -0.034090582 0.045056593
-0.0040680049 -0.034293432 0.045721069
-0.0043160543 -0.033212233 0.045643281
-0.0051789209 -0.033174712 0.046053052
-0.0061478615 -0.032792814 0.04586184
-0.0062136725 -0.031940699 0.045967013
-0.0078236796 -0.031765886 0.045771878
-0.0078550586 -0.031218015 0.045970518
-0.0085530225 -0.030454971 0.046326786
-0.0088659944 -0.029751992 0.046584576
-0.010093417 -0.029195912 0.047410723
-0.010495867 -0.029042996 0.04766025
-0.012016313 -0.028630629 0.048910357
-0.012310289 -0.028217798 0.048927326
-0.012372051 -0.027367845 0.048927326
-0.012860814 -0.026767857 0.048073769
-0.013394559 -0.026402067 0.047892123
-0.015121197 -0.025944913 0.046734687
-0.015647011 -0.025846807 0.042901814
-0.019292446 -0.02738679 0.021801105
0.024457555 -0.055168543 0.010524169
0.02531212 -0.054182068 0.023346743
0.021708958 -0.050370209 0.043438546
0.020477686 -0.049418487 0.047309838
0.020234328 -0.048190884 0.047740057
0.019371537 -0.048192035 0.047868464
0.018661993 -0.047635861 0.048139863
0.018147174 -0.047911365 0.048139863
0.016968017 -0.048364431 0.04780836
0.016559944 -0.046956968 0.046679109
0.015665518 -0.046925396 0.046518508
0.014867267 -0.04612625 0.045932204
0.014076074 -0.045849673 0.04519923
0.013474192 -0.045117978 0.045142107
0.012299256 -0.045737211 0.045098834
0.011914994 -0.044714447 0.04501931
0.011381343 -0.044090901 0.044745285
0.01057901 -0.044090901 0.044400275
0.0096957013 -0.043091666 0.044396054
0.0089961179 -0.043075208 0.044182692
0.0082528498 -0.042692419 0.044089455
0.0075771059 -0.042207215 0.043915682
0.0068629165 -0.041473228 0.043915682
0.0060983761 -0.041129947 0.044178784
0.00523361 -0.040996611 0.044217244
0.0043708133 -0.040518902 0.044529542
0.0039095846 -0.039671369 0.044195648
0.0031944024 -0.039140064 0.04464956
0.0026053116 -0.038915582 0.044663746
0.0017707633 -0.037948526 0.044530839
0.00082157593 -0.037968811 0.044613507
0.00028175558 -0.037298828 0.044910669
-0.00032772042 -0.036626767 0.044938844
-0.0014147339 -0.036626767 0.045120601
-0.0016608767 -0.035640676 0.044759344
-0.0024897582 -0.035026152 0.044646714
-0.0039141639 -0.035618462 0.04487421
-0.0040680049 -0.034464192 0.04534097
-0.0047411085 -0.033842854 0.045643281
-0.0061671459 -0.034005452 0.045543402
-0.0062011327 -0.032792814 0.04586184
-0.0062896572 -0.032696921 0.045703229
-0.0077050268 -0.032373719 0.046214283
-0.0078969263 -0.031761333 0.046145245
-0.0088108303 -0.031373862 0.046338808
-0.009215639 -0.030546911 0.046584576
-0.010550545 -0.030199075 0.047545157
-0.01134237 -0.030106045 0.047697451
-0.012107761 -0.029447954 0.048894923
-0.01210805 -0.028651271 0.048889302
-0.013631372 -0.028327599 0.048392028
-0.012784497 -0.026913762 0.048007637
-0.013936698 -0.027233098 0.048097372
-0.015611425 -0.026528906 0.046509027
-0.015273634 -0.026613642 0.042358376
-0.01961695 -0.027862759 0.021720618
0.023994939 -0.057319127 0.010524169
0.022318764 -0.056345023 0.019537944
0.021572778 -0.051209338 0.042646617
0.020195263 -0.049746878 0.047309838
0.019679904 -0.049589381 0.047309838
0.018567862 -0.049401298 0.047674049
0.018202024 -0.049081013 0.047805421
0.017379044 -0.049075816 0.04780836
0.016812427 -0.048631981 0.04780836
0.015727282 -0.04885808 0.047216706
0.015142523 -0.047494229 0.046307802
0.014717498 -0.046382464 0.045991927
0.013674633 -0.046932448 0.045548528
0.013069589 -0.046767615 0.045559574
0.012256656 -0.045737211 0.045128614
0.011378145 -0.045259669 0.045266271
0.010556384 -0.045355607 0.044954471
0.010399318 -0.044536669 0.044425413
0.0094231199 -0.044321422 0.044194393
0.0085652638 -0.043326426 0.044171881
0.0077680619 -0.043326426 0.044171881
0.0071727503 -0.043085147 0.043864869
0.0062386822 -0.042665698 0.04396484
0.0056825634 -0.041300543 0.044217244
0.0043995921 -0.041853242 0.044467747
0.0043122154 -0.041117642 0.044243313
0.0034174388 -0.040461335 0.044721764
0.0026634217 -0.040176719 0.044594113
0.0023427415 -0.039015964 0.044663746
0.0012341241 -0.039213348 0.044442758
0.00028915115 -0.038864341 0.044678356
-0.0003837957 -0.038068995 0.044893019
-0.0010054776 -0.03769733 0.044882916
-0.0015580836 -0.037009932 0.044882916
-0.0027348343 -0.036990505 0.044706523
-0.0027355277 -0.036110304 0.044617515
-0.0039141639 -0.035729565 0.044711489
-0.004360266 -0.035194851 0.04487421
-0.0053965217 -0.035133272 0.044949755
-0.0061650351 -0.034113981 0.045441207
-0.006228881 -0.034023494 0.04550717
-0.0073026302 -0.033800155 0.045648307
-0.0075339377 -0.032460075 0.046214283
-0.009511956 -0.032859482 0.046379544
-0.009511956 -0.032010004 0.046475708
-0.010116569 -0.03144696 0.046958227
-0.01114446 -0.031355686 0.047641966
-0.012237795 -0.030861991 0.047794372
-0.012796636 -0.030303709 0.048822779
-0.013531089 -0.029919958 0.048728574
-0.013622506 -0.02881334 0.048456132
-0.013824169 -0.028327599 0.048335355
-0.01457041 -0.027755674 0.048125774
-0.015611425 -0.027865216 0.046509027
0.022251373 -0.057321038 0.01491932
0.020057341 -0.049789026 0.047101945
0.019322921 -0.049696088 0.047309838
0.01843363 -0.049589381 0.047675971
0.017659819 -0.049429532 0.047805421
0.016968017 -0.049075816 0.04780836
0.016084984 -0.049624249 0.047947042
0.015397276 -0.049252745 0.047216706
0.014853789 -0.048558462 0.047154166
0.0139446 -0.048217405 0.045966774
0.0132555 -0.047086015 0.045430798
0.012828702 -0.046804365 0.045583189
0.011469948 -0.047415126 0.044952922
0.011152973 -0.045598194 0.045057632
0.010285786 -0.046126168 0.044740379
0.009206282 -0.046126593 0.044431571
0.0094231199 -0.044359952 0.044194393
0.0079451418 -0.044139676 0.044194393
0.0073511992 -0.044027083 0.04390391
0.0068955249 -0.043512721 0.043900821
0.0060406076 -0.042680629 0.044082347
0.0052436925 -0.043065395 0.044322558
0.0043177791 -0.042414792 0.044319931
0.0035112733 -0.042104632 0.044046927
0.0028529728 -0.041210517 0.044228699
0.0026142823 -0.040460177 0.044594113
0.0012905933 -0.040368244 0.044373166
0.00069088209 -0.040231213 0.044330087
3.02013e-05 -0.039029807 0.044581614
-0.00046259165 -0.038640264 0.044851117
-0.0016288159 -0.038674008 0.044687185
-0.001719468 -0.037691567 0.044706523
-0.0034038862 -0.037924472 0.044480711
-0.0035119206 -0.036962818 0.044469614
-0.0046371892 -0.036782783 0.044708807
-0.0052791759 -0.036222737 0.044821415
-0.0053965217 -0.035492335 0.044949755
-0.0059734504 -0.035133272 0.045384657
-0.0070255287 -0.034351435 0.045509093
-0.0075235362 -0.03409227 0.046324566
-0.0092176683 -0.033949446 0.045951735
-0.0095448373 -0.033676855 0.046379544
-0.0096572964 -0.032483634 0.046831369
-0.010381622 -0.032010004 0.047240626
-0.011411209 -0.031770941 0.047772586
-0.012294844 -0.031308606 0.048044994
-0.013816421 -0.031652406 0.048624005
-0.013169708 -0.030254848 0.048649475
-0.013573582 -0.029454414 0.04853338
-0.013970104 -0.029056912 0.048335355
-0.014714058 -0.028620392 0.0476395
-0.016411668 -0.028113112 0.04529782
0.022251373 -0.057786468 0.010524169
0.01941853 -0.051447749 0.046611637
0.018656574 -0.051075853 0.047190446
0.017690312 -0.050007258 0.047675971
0.017546406 -0.049665831 0.047805421
0.016637824 -0.049445234 0.048147991
0.015589043 -0.050273035 0.048184682
0.015287872 -0.049306341 0.047216706
0.014308491 -0.049252745 0.047154166
0.013472262 -0.048602603 0.045966774
0.01309085 -0.047149468 0.045548528
0.01199935 -0.04800503 0.04552545
0.011463259 -0.04694397 0.045233462
0.010619942 -0.046738315 0.044841342
0.010225184 -0.0463866 0.044740379
0.009206282 -0.046160642 0.044460777
0.008373809 -0.045625418 0.044374809
0.0075275563 -0.04547064 0.044326361
0.0069566164 -0.044711091 0.043996871
0.0059572705 -0.044665322 0.043996871
0.0051944368 -0.044909909 0.04407119
0.0052436925 -0.043065395 0.044322558
0.0037930794 -0.042827625 0.044198185
0.003269624 -0.042414792 0.044198185
0.0025791703 -0.041849039 0.044090606
0.0015855432 -0.041696001 0.044349462
0.00096577761 -0.040737193 0.044372685
0.00057645491 -0.040231213 0.044261232
-0.00048277545 -0.040233206 0.044522464
-0.0011666294 -0.039713982 0.044585656
-0.0016288159 -0.039040163 0.044221088
-0.0027778819 -0.03892795 0.044248849
-0.0029983968 -0.037908163 0.044290181
-0.0041454281 -0.037908163 0.044419676
-0.0049214195 -0.037679851 0.044583343
-0.0051541454 -0.036549076 0.044695109
-0.0063659935 -0.036578242 0.044949755
-0.0067288727 -0.036549076 0.045035899
-0.0078634787 -0.035495155 0.045288488
-0.0082927393 -0.035188243 0.045639966
-0.0092176683 -0.035188243 0.045951735
-0.0094026513 -0.033840366 0.045951735
-0.010751511 -0.033933379 0.047062725
-0.010541562 -0.032480221 0.047368288
-0.011998264 -0.032212123 0.04847122
-0.012294844 -0.031994238 0.04847122
-0.013610744 -0.031652406 0.048627358
-0.013369284 -0.030424492 0.048649475
-0.013883921 -0.030303709 0.04853338
-0.014434561 -0.029454414 0.048318967
-0.015848503 -0.029605469 0.047495138
-0.017216172 -0.02943315 0.045103814
-0.020015458 -0.031555954 0.021331163
0.020548562 -0.057321038 0.019483799
0.018754575 -0.052060664 0.045116924
0.018339826 -0.051606074 0.047000773
0.017596817 -0.050725143 0.047707688
0.017546406 -0.049856365 0.047788519
0.016239852 -0.049856365 0.048173279
0.015545383 -0.050672598 0.048321139
0.014636329 -0.050722808 0.047976043
0.014089409 -0.049593408 0.047154166
0.012947182 -0.049097765 0.046327401
0.012302971 -0.049025115 0.046090215
0.011521352 -0.048673667 0.046090215
0.011083156 -0.048185304 0.0458862
0.0097906999 -0.04822715 0.045715936
0.0092984457 -0.047405999 0.045229904
0.0084748194 -0.047538508 0.045154359
0.0079668667 -0.046000436 0.044472497
0.0073482003 -0.045565955 0.044412322
0.0069417502 -0.045288444 0.044427197
0.0053419303 -0.044990178 0.0440135
0.0050038742 -0.044701438 0.044083055
0.0043845852 -0.044021402 0.044989802
0.0032194164 -0.043939304 0.04461864
0.0027607011 -0.042880867 0.044438656
0.0015855432 -0.043324802 0.044528406
0.001431115 -0.04183989 0.044426981
0.00068182801 -0.041859336 0.044546526
-0.00068890769 -0.041289106 0.044692539
-0.00077377143 -0.041088056 0.044658799
-0.0011666294 -0.039896451 0.044585656
-0.0026248619 -0.040223211 0.044340715
-0.0027778819 -0.039025921 0.044277206
-0.004051175 -0.039410103 0.044669397
-0.0045662522 -0.039086133 0.04461173
-0.0049214195 -0.037814684 0.044604532
-0.0063029705 -0.037870482 0.045095094
-0.0066979229 -0.036907401 0.045035899
-0.007151064 -0.036549076 0.045035899
-0.0079689324 -0.035827551 0.045288488
-0.0089063635 -0.035657492 0.045639966
-0.0089416699 -0.034922913 0.046535604
-0.010399774 -0.035030581 0.046956278
-0.010228083 -0.033646341 0.04693377
-0.011397377 -0.033655182 0.047653731
-0.013117567 -0.033606686 0.048497748
-0.013599784 -0.033182148 0.04862377
-0.013816421 -0.032157015 0.048662424
-0.01399222 -0.031652406 0.048593257
-0.014683749 -0.031435765 0.048456997
-0.014885552 -0.03037056 0.048263494
-0.01645951 -0.03013896 0.047184795
0.020124651 -0.06021221 0.01044796
0.017722093 -0.054281227 0.037635796
0.018226871 -0.051953204 0.047316197
0.017138977 -0.051729083 0.047732782
0.01678931 -0.051698104 0.047767382
0.015779622 -0.050391741 0.048246726
0.015307741 -0.05098759 0.048321139
0.014261503 -0.051277142 0.048150744
0.013698205 -0.050607845 0.047956392
0.012560248 -0.049772684 0.046715736
0.012232733 -0.048930932 0.046146423
0.011220594 -0.049058229 0.046111852
0.01023005 -0.04924849 0.045729361
0.0096503226 -0.04817304 0.04578352
0.0092984457 -0.047538508 0.04545439
0.0080908993 -0.047728814 0.045241196
0.0070579574 -0.047520921 0.045415595
0.0065837759 -0.046320774 0.044472497
0.005893372 -0.04658103 0.044390962
0.005233645 -0.045527436 0.044582382
0.0042379675 -0.045478448 0.044355143
0.0035330653 -0.045315243 0.045156047
0.0032763705 -0.04409299 0.0446795
0.0021691564 -0.043939304 0.044506803
0.0017549176 -0.043538284 0.044528406
0.0010696864 -0.04270225 0.044593215
-0.0003850183 -0.042780031 0.044912301
-0.00080175698 -0.042438444 0.044753037
-0.0009398688 -0.041289106 0.044753037
-0.0024502908 -0.041536927 0.04483762
-0.0023791899 -0.040126752 0.04450937
-0.0030956119 -0.039944574 0.044340715
-0.0043881387 -0.039751321 0.04461173
-0.0048029008 -0.039522931 0.044779118
-0.0057482654 -0.038947277 0.045016691
-0.0065628439 -0.038787626 0.044941936
-0.0067767641 -0.037889965 0.045271251
-0.007151064 -0.036844902 0.045288488
-0.0091326432 -0.037715066 0.045814246
-0.0080796182 -0.035492379 0.045443952
-0.010430705 -0.03624557 0.046806406
-0.010361878 -0.035122588 0.046956278
-0.010796063 -0.035030581 0.047154903
-0.011577807 -0.034142241 0.047653731
-0.013106641 -0.033712767 0.048357856
-0.013376242 -0.033628456 0.048506141
-0.013751157 -0.03264894 0.048727855
-0.014060555 -0.032157015 0.048627358
-0.014392165 -0.031652406 0.048557401
-0.01544494 -0.03117656 0.047913134
-0.01614821 -0.030466223 0.045989733
-0.019606583 -0.032245442 0.021801105
0.019168628 -0.056345023 0.019483799
0.017675629 -0.053142473 0.045342058
0.016619658 -0.053079963 0.047110569
0.016025834 -0.051980544 0.047897905
0.015388816 -0.050995003 0.048332173
0.014667473 -0.051144022 0.048464097
0.01342557 -0.051657241 0.04833037
0.013302871 -0.051405016 0.047956392
0.012062795 -0.051075261 0.04769497
0.011389174 -0.050126985 0.046257675
0.010757277 -0.049418531 0.046278238
0.010135261 -0.049739696 0.04598058
0.0094870618 -0.04829777 0.046174377
0.0084570423 -0.048741382 0.046189666
0.0079718009 -0.048221949 0.046088554
0.0070502348 -0.047742467 0.04568696
0.0061827269 -0.04799293 0.045187052
0.0055212975 -0.046888534 0.045622312
0.0047599464 -0.046432521 0.045019336
0.0038970197 -0.046528645 0.044879537
0.0034819178 -0.045264933 0.045443505
0.0020402642 -0.045652494 0.045261905
0.0017638233 -0.044648767 0.044892646
0.0017549176 -0.043665271 0.044622149
0.00040928368 -0.043608189 0.045419425
-0.00013168412 -0.043257426 0.045054458
-0.00082689663 -0.042558964 0.045027323
-0.001913394 -0.042484269 0.045011599
-0.0024502908 -0.0417035 0.044954866
-0.002990311 -0.041197717 0.04524374
-0.0042476887 -0.041016653 0.04491682
-0.0049825236 -0.040813189 0.044891614
-0.0047533959 -0.039672434 0.044862773
-0.0057823313 -0.039131939 0.044941124
-0.0066498201 -0.038863454 0.045346703
-0.0067767641 -0.038324244 0.045528032
-0.0085995849 -0.038638234 0.045534328
-0.0090975687 -0.037771445 0.045814246
-0.0092024645 -0.036357269 0.046362188
-0.0097016105 -0.036092632 0.046670906
-0.010534406 -0.035753805 0.047317088
-0.011823207 -0.035694607 0.04763326
-0.012669892 -0.035330344 0.048483223
-0.014039461 -0.035372809 0.049044162
-0.013376242 -0.033457775 0.049110662
-0.014165804 -0.033367924 0.048925638
-0.015413865 -0.033394717 0.04876399
-0.014885552 -0.032162316 0.048263494
-0.01614821 -0.031982198 0.047544807
-0.016942015 -0.031811748 0.042599007
0.020124651 -0.06021221 0.01044796
0.016178001 -0.053998586 0.041155279
0.016321242 -0.053153012 0.046865165
0.015145335 -0.052858114 0.047605842
0.014847201 -0.052255441 0.048464097
0.014261503 -0.051277142 0.048570238
0.01342557 -0.051737919 0.048612949
0.012248188 -0.052474249 0.048122387
0.011842773 -0.051286161 0.047742438
0.01126304 -0.05099972 0.046955407
0.010263118 -0.050492723 0.046780951
0.0093931723 -0.050472699 0.046087384
0.0089821378 -0.049051315 0.046142474
0.0081016449 -0.049051315 0.046142474
0.0072081918 -0.049120814 0.046131
0.0064658672 -0.048453514 0.045654081
0.0058590993 -0.04788493 0.045551486
0.0048585981 -0.04799293 0.045246609
0.004316207 -0.047078233 0.045014322
0.0038288464 -0.04669733 0.045019336
0.0027655391 -0.046305161 0.045261905
0.0018089581 -0.046258781 0.044861972
0.001378576 -0.044977494 0.044805359
0.00082060671 -0.044876825 0.044741917
-0.00013168412 -0.044691928 0.045498814
-0.0003850183 -0.043560017 0.045319051
-0.0020774161 -0.043899428 0.045396376
-0.0020676709 -0.042733092 0.045150056
-0.0034012794 -0.043000586 0.04530739
-0.0037470167 -0.042042647 0.045286406
-0.004242219 -0.041437786 0.045137145
-0.0051064035 -0.041059472 0.045078207
-0.0053820522 -0.040811568 0.044941124
-0.0061112628 -0.039534289 0.045044933
-0.0068997643 -0.039686229 0.045631472
-0.0081031965 -0.039448965 0.045644592
-0.0083487416 -0.038687628 0.045578133
-0.009134707 -0.038371786 0.046217062
-0.0099876057 -0.037407849 0.046819359
-0.011068856 -0.037407849 0.047122356
-0.011212606 -0.036843378 0.047164507
-0.012523619 -0.036900695 0.048242837
-0.013095587 -0.035550419 0.048966717
-0.013806829 -0.035330344 0.049383275
-0.013743967 -0.034191221 0.049566165
-0.014095026 -0.033817627 0.04945755
-0.015180697 -0.03339671 0.048963338
-0.01550616 -0.032847688 0.048734885
-0.016548747 -0.0326127 0.047502819
-0.01896278 -0.03327449 0.023238175
0.019168628 -0.057564765 0.019483799
0.015703883 -0.053840756 0.045264751
0.014800575 -0.053232525 0.047427416
0.01443643 -0.052541845 0.048508666
0.013711864 -0.052573852 0.048590653
0.013302871 -0.052216239 0.048693672
0.012248188 -0.051737919 0.048693672
0.011433655 -0.052333884 0.048122387
0.010532928 -0.051636085 0.047910973
0.0098785777 -0.05109106 0.047552079
0.0090939095 -0.050751314 0.046935581
0.0083710263 -0.050182778 0.046745542
0.0075385608 -0.050050106 0.046324939
0.006735567 -0.049852781 0.046394058
0.0063365549 -0.049089622 0.046131
0.0056242943 -0.048604764 0.046043716
0.0049346238 -0.047859799 0.04606989
0.0043344195 -0.047758371 0.045693539
0.0031760149 -0.047403917 0.045469582
0.0025331508 -0.047368474 0.045791671
0.0018089581 -0.046305161 0.045417819
0.00083184009 -0.04628088 0.045280613
0.00037871301 -0.045498412 0.045064975
-0.00026338547 -0.044653043 0.045547515
-0.0013748172 -0.044582024 0.045547515
-0.0018487001 -0.043997213 0.045521598
-0.0023700527 -0.043395542 0.045521598
-0.0039962232 -0.04370968 0.045640942
-0.0037723894 -0.042430494 0.045818392
-0.0050113262 -0.042042647 0.045854315
-0.0054154517 -0.041797817 0.045653116
-0.0064714737 -0.041577157 0.045653116
-0.0074106259 -0.041158229 0.045644592
-0.0075296061 -0.040599626 0.045879263
-0.0080212429 -0.039448965 0.045739669
-0.0093584666 -0.039351542 0.046352323
-0.0094924532 -0.039329857 0.046431147
-0.010246541 -0.038011748 0.047416121
-0.011212606 -0.037774008 0.047546372
-0.011694753 -0.03708785 0.04763326
-0.012523619 -0.036864482 0.048483223
-0.013849974 -0.036864482 0.049242198
-0.014039461 -0.035551041 0.049440399
-0.014037407 -0.035129018 0.049582038
-0.015300293 -0.035002548 0.049044162
-0.015413865 -0.033667207 0.04876399
-0.016299559 -0.034144439 0.047929645
-0.016942015 -0.032942969 0.042221826
0.014599295 -0.05388454 0.046824194
0.01439025 -0.053780377 0.047435474
0.01335229 -0.052872024 0.04833037
0.013094269 -0.051737919 0.048612949
0.011819534 -0.052163776 0.048937015
0.010687028 -0.053068686 0.048848219
0.010291905 -0.051926572 0.048348285
0.009313439 -0.051664941 0.047552079
0.0090939095 -0.050751314 0.047132336
0.0081161102 -0.050299771 0.046935581
0.0073317285 -0.05030049 0.046394058
0.006735567 -0.05030049 0.046351422
0.0061442973 -0.050291114 0.046433568
0.0048099458 -0.049489327 0.04637596
0.0041376697 -0.049084928 0.04637596
0.0034175902 -0.048902117 0.04623618
0.0026418404 -0.047758371 0.0459911
0.002199803 -0.047368474 0.045979097
0.0017526854 -0.047050141 0.045616962
0.00069966284 -0.046410564 0.045616962
-0.0001501115 -0.046325721 0.045315739
-0.00088325841 -0.045929436 0.045391601
-0.0017517511 -0.045845885 0.045584921
-0.0020774161 -0.044384897 0.045663923
-0.0034126844 -0.044892214 0.04555852
-0.0040279184 -0.044336319 0.04535646
-0.0044741896 -0.043374766 0.045910768
-0.0052817687 -0.043553922 0.045597102
-0.0053999769 -0.041862126 0.045506299
-0.0069395155 -0.042109959 0.045608811
-0.0075296061 -0.042089332 0.045686744
-0.0077987099 -0.041158229 0.045879263
-0.0084532425 -0.040567171 0.04633031
-0.0094924532 -0.040385552 0.04659247
-0.009560273 -0.039351542 0.046829868
-0.010989351 -0.03918295 0.047600709
-0.01190616 -0.039001483 0.0481067
-0.012728978 -0.038508933 0.048673034
-0.013977976 -0.038553998 0.049215801
-0.012689277 -0.035917152 0.048721287
-0.014063705 -0.036407627 0.049440399
-0.014075763 -0.035372809 0.049044162
-0.015300293 -0.035154313 0.049059749
-0.01585852 -0.034760013 0.048349172
-0.016721196 -0.034188587 0.04600079
0.014418775 -0.055206601 0.041775197
0.013489802 -0.054530039 0.046715401
0.012751959 -0.053933006 0.047688656
0.012044537 -0.053964969 0.048552718
0.011501964 -0.052474249 0.048937015
0.010784223 -0.052431755 0.048846647
0.0096563995 -0.053410623 0.04872828
0.0088283084 -0.053002536 0.047552079
0.0085792132 -0.052197561 0.04733108
0.0074094674 -0.051887754 0.046951503
0.0070202737 -0.051056784 0.046534441
0.0061225626 -0.05049016 0.046433568
0.0051894197 -0.050629415 0.046534441
0.0045619234 -0.050008308 0.04652667
0.0041427119 -0.049180631 0.04637596
0.0032787821 -0.049236394 0.04623618
0.0026247276 -0.048105549 0.046040207
0.0017526854 -0.048120007 0.046238333
0.00064549362 -0.048459839 0.045986064
-3.1263568e-05 -0.047493849 0.045868617
-0.00087995949 -0.047145903 0.045556538
-0.00088325841 -0.045929436 0.045578856
-0.0020356842 -0.045845885 0.045747817
-0.0034871944 -0.046577662 0.04580963
-0.0034126844 -0.045010988 0.045596365
-0.0034958208 -0.044381257 0.04555852
-0.0048059355 -0.044273805 0.046268631
-0.0057173269 -0.043788139 0.045424942
-0.0062869694 -0.043418687 0.045531806
-0.0070366589 -0.042764135 0.045635086
-0.0074253231 -0.041854288 0.045608811
-0.0088619841 -0.042049456 0.046310484
-0.0093917651 -0.041780572 0.046522003
-0.0096877366 -0.040551834 0.046674475
-0.01025246 -0.040303066 0.047455169
-0.011662079 -0.040242493 0.047657687
-0.012248806 -0.039431792 0.048402339
-0.013763146 -0.039865177 0.049014714
-0.013617984 -0.038186859 0.049263444
-0.013849974 -0.036864482 0.049466293
-0.014031311 -0.036461875 0.049383275
-0.015110776 -0.036457974 0.04903245
-0.015480987 -0.036145382 0.048848722
-0.016810749 -0.037027095 0.047232535
0.013220543 -0.055610321 0.044769913
0.012186849 -0.054196578 0.047102232
0.011946741 -0.053982455 0.047999814
0.010777235 -0.053421151 0.048848219
0.010291905 -0.05308634 0.048846647
0.0096563995 -0.053135004 0.048848219
0.0083696833 -0.05327623 0.048506703
0.007597249 -0.053323232 0.047671489
0.006949042 -0.052516088 0.047117162
0.0064378297 -0.052464299 0.046835087
0.0053895852 -0.052032731 0.046917681
0.0047970368 -0.051029295 0.046569221
0.0043569426 -0.05094431 0.046537697
0.0032958882 -0.050437357 0.046429515
0.0026358999 -0.049996525 0.046341185
0.0016132486 -0.049541648 0.046423733
0.0013119788 -0.048483152 0.046352506
0.00046270597 -0.048478145 0.046168633
-0.00088535051 -0.049003363 0.046049118
-0.00088715227 -0.047251105 0.045773178
-0.0017439963 -0.047251105 0.045795083
-0.003032228 -0.047083575 0.046144955
-0.0034871944 -0.046513662 0.045816183
-0.0034126844 -0.045386098 0.045665685
-0.0047972235 -0.045386098 0.046200994
-0.0050330302 -0.044612449 0.045643866
-0.0060339756 -0.044455696 0.045531806
-0.0070793862 -0.044455696 0.045810021
-0.0070793862 -0.042962924 0.045635086
-0.0077987099 -0.042764135 0.045886364
-0.0092399158 -0.042828195 0.046424355
-0.0094582373 -0.041685242 0.046737548
-0.010787253 -0.041983351 0.04721589
-0.011370055 -0.041829836 0.047723457
-0.011699844 -0.040246077 0.047954481
-0.013099685 -0.040353436 0.048861802
-0.01314583 -0.039397947 0.048918996
-0.013404672 -0.038325239 0.049263444
-0.014034293 -0.038290106 0.049466293
-0.014894317 -0.037852257 0.049191505
-0.015549378 -0.03759389 0.04897818
-0.016810749 -0.037156787 0.047232535
0.011947684 -0.056957293 0.016101232
0.011846721 -0.056049671 0.045544658
0.011347364 -0.054824159 0.0471748
0.0106401 -0.054148626 0.048108242
0.010050038 -0.053410623 0.048834838
0.0094668688 -0.053144716 0.048914984
0.0083739944 -0.053662565 0.048898686
0.0073650219 -0.05376469 0.048612833
0.0064381445 -0.053091221 0.047671489
0.0061347517 -0.052658185 0.047280908
0.0052336426 -0.052032731 0.047214795
0.0044054333 -0.05196096 0.047189921
0.003466839 -0.051744971 0.047043212
0.0029337285 -0.05079909 0.046495944
0.0026179503 -0.05079909 0.04657241
0.0015232358 -0.050610211 0.046625089
0.00087746629 -0.049350817 0.046549983
0.00046125427 -0.049003363 0.046404637
-0.00087460276 -0.04911961 0.046239495
-0.0014661821 -0.048694279 0.045955241
-0.0021710901 -0.047826488 0.045998722
-0.003032228 -0.047570683 0.046252701
-0.0035077287 -0.046672255 0.04582553
-0.0048452388 -0.047186054 0.046382248
-0.0052748388 -0.046348549 0.046428479
-0.0055269785 -0.045864195 0.04647249
-0.0061517851 -0.044561666 0.045761582
-0.0070366589 -0.044455696 0.045761582
-0.0077340296 -0.044455696 0.046103399
-0.0088314544 -0.04391139 0.046577532
-0.0094508706 -0.043255307 0.04672353
-0.010426086 -0.042692695 0.047835648
-0.011110341 -0.042573188 0.047835648
-0.011677681 -0.041829836 0.047758352
-0.013034851 -0.041823652 0.048746515
-0.012168074 -0.039498646 0.048861802
-0.012288467 -0.039111581 0.048768431
