ply
format ascii 1.0
comment PCL generated
element vertex 1256
property float x
property float y
property float z
element camera 0
property float view_px
property float view_py
property float view_pz
property float x_axisx
property float x_axisy
property float x_axisz
property float y_axisx
property float y_axisy
property float y_axisz
property float z_axisx
property float z_axisy
property float z_axisz
property float focal
property float scalex
property float scaley
property float centerx
property float centery
property int viewportx
property int viewporty
property float k1
property float k2
end_header
-0.0027946355 -0.029941361 0.046369124
-0.002939129 -0.028567102 0.046752594
-0.0026625264 -0.027832035 0.046550006
-0.0026098806 -0.026786741 0.046867155
-0.0025627799 -0.025737273 0.046736587
-0.0024872404 -0.024766311 0.046087313
-0.0025430899 -0.023575997 0.046003934
-0.0022131 -0.023279011 0.046519347
-0.0025097802 -0.021734115 0.047266964
-0.0022837585 -0.020389438 0.048081361
-0.0018014191 -0.021018729 0.048645191
-0.0020244401 -0.018760281 0.048948869
-0.0020452943 -0.017459478 0.048944518
-0.0020452943 -0.016724791 0.048944518
-0.0021611229 -0.014974426 0.048065003
-0.0021102624 -0.014717389 0.045374364
-0.0014846502 -0.016115829 0.041370172
-0.00063813571 -0.018243831 0.036047708
0.00095506106 -0.021964099 0.033266518
0.00099457055 -0.021397192 0.031156072
-0.00014783442 -0.017212598 0.026494944
-0.0014894735 -0.013564549 0.024683807
-0.0015165051 -0.013075024 0.019175818
-0.0016480414 -0.013029285 0.012889047
-0.0018783072 -0.012638498 0.010992289
-0.0067132004 -0.054989129 0.046250883
-0.0067525404 -0.052987583 0.047821689
-0.0062007187 -0.051906586 0.048557896
-0.0065905554 -0.050826542 0.048160095
-0.0061402647 -0.051815774 0.048557896
-0.0059603788 -0.051815774 0.048252728
-0.0056333728 -0.051955007 0.048252728
-0.0060869884 -0.049565479 0.047811471
-0.0052718772 -0.050319918 0.047146723
-0.0054308358 -0.048482768 0.046768002
-0.0053801704 -0.048340306 0.046665221
-0.005111238 -0.047222782 0.045839109
-0.005111238 -0.047222782 0.045839109
-0.0053541316 -0.04474197 0.045603774
-0.0049700225 -0.045347605 0.045340795
-0.0050622048 -0.043695413 0.045122262
-0.0053820522 -0.041891437 0.044837527
-0.0050659403 -0.040983401 0.0447006
-0.0049825236 -0.040813189 0.04491682
-0.0045093969 -0.039760642 0.044862773
-0.0044821873 -0.039633211 0.044816677
-0.0045042923 -0.038159084 0.045114703
-0.0044643022 -0.036939081 0.045209061
-0.0044432362 -0.036434535 0.045523327
-0.0043591214 -0.034793779 0.045960754
-0.0043591214 -0.034793779 0.045960754
-0.0041275984 -0.033212233 0.045992058
-0.0039594057 -0.032466851 0.046129819
-0.0036277745 -0.031501237 0.04626308
-0.0038236994 -0.030487828 0.046307355
-0.0035135753 -0.02986539 0.046056271
-0.0036310442 -0.028688561 0.046378888
-0.0034844945 -0.027937889 0.046330452
-0.0034709647 -0.026550032 0.046693522
-0.0032951711 -0.026550032 0.046856884
-0.0034445254 -0.024440855 0.046812449
-0.003215991 -0.024060205 0.046780311
-0.003208491 -0.022767372 0.046933409
-0.0030171564 -0.022056788 0.048084952
-0.0026680389 -0.021861859 0.048524283
-0.00285477 -0.019488994 0.049486328
-0.0030063009 -0.018230952 0.049372591
-0.0028582094 -0.017547775 0.049372591
-0.0029052235 -0.016425215 0.048543133
-0.0026798267 -0.016130878 0.047913291
-0.0027956199 -0.01515016 0.045060601
-0.0024246834 -0.016983327 0.040105656
-0.00079733785 -0.02071692 0.034262855
0.00015677791 -0.022153925 0.033266518
-0.0011955416 -0.02010907 0.026689133
-0.0019050874 -0.015751235 0.025505139
-0.0024807109 -0.013486585 0.022709303
-0.0034551341 -0.012746124 0.01633762
-0.0016480414 -0.013029285 0.012043621
-0.0084056035 -0.054768324 0.043516655
-0.0075472258 -0.053680055 0.046250883
-0.0071507692 -0.053086389 0.048803356
-0.0075558061 -0.050124001 0.048280809
-0.0071297614 -0.050723899 0.049204234
-0.0069307163 -0.0519871 0.049428642
-0.0070366319 -0.049920224 0.048168734
-0.0064073587 -0.051188253 0.048160095
-0.0064960429 -0.04936162 0.047833476
-0.0069215568 -0.04756517 0.047195058
-0.0062702857 -0.048112784 0.046923384
-0.0061567975 -0.046068031 0.046297368
-0.0061567975 -0.046068031 0.046297368
-0.0061517851 -0.04438021 0.045491017
-0.0061517851 -0.04438021 0.045491017
-0.0057173269 -0.043724917 0.045405839
-0.0060263462 -0.041797817 0.045229588
-0.0057767276 -0.040748544 0.045014795
-0.0056670317 -0.040811568 0.045233347
-0.0057482654 -0.038947277 0.045143507
-0.0054599345 -0.037870482 0.045095094
-0.0054599345 -0.037870482 0.045095094
-0.0053049801 -0.037440807 0.045324929
-0.0053965217 -0.035387419 0.045591421
-0.0052984282 -0.035387419 0.045923151
-0.0052065928 -0.033623993 0.046053052
-0.0052555627 -0.033068866 0.045875043
-0.0049314667 -0.032045707 0.046350051
-0.0049314667 -0.031354751 0.046407934
-0.0044955136 -0.030166779 0.04639414
-0.0044955136 -0.030166779 0.04639414
-0.0044964924 -0.028368052 0.046592638
-0.0044817319 -0.027469657 0.046735328
-0.0041992404 -0.027412795 0.046735328
-0.0041508563 -0.02519317 0.046967413
-0.0041508563 -0.02495411 0.046979789
-0.004074703 -0.023950301 0.047046684
-0.0041030031 -0.02249239 0.048048344
-0.0038029561 -0.022269916 0.047862794
-0.0035760468 -0.021715287 0.049339674
-0.004088426 -0.018533386 0.049787104
-0.0038161101 -0.018533386 0.049787104
-0.0042313728 -0.017074335 0.049683303
-0.0039178776 -0.016580582 0.049440805
-0.0034096157 -0.015877815 0.047001112
-0.0042817118 -0.015635882 0.043613408
-0.0028941426 -0.018414848 0.035652269
-0.0013437122 -0.022625584 0.03231971
-0.0021982472 -0.02177038 0.031156072
-0.0017176121 -0.019934289 0.026593035
-0.0019050874 -0.015751235 0.025505139
-0.003674469 -0.013312165 0.020187851
-0.0037839031 -0.013694778 0.012190875
-0.0081252353 -0.055373684 0.046031907
-0.008463107 -0.052132662 0.04785084
-0.0082103182 -0.051551137 0.048338436
-0.0083621927 -0.049991481 0.049651891
-0.0081265951 -0.049489763 0.049098186
-0.0074597746 -0.051551137 0.048205625
-0.0075009037 -0.050124001 0.048209578
-0.0073180459 -0.048292737 0.047772069
-0.0073180459 -0.048292737 0.047772069
-0.0074092355 -0.046522576 0.047246426
-0.0070136376 -0.046244219 0.046866838
-0.0070136376 -0.046154734 0.046664778
-0.0070971204 -0.044561666 0.045761582
-0.0070366589 -0.043356664 0.045586351
-0.0069395155 -0.042764135 0.045295525
-0.0067986753 -0.042109959 0.045482606
-0.0067541916 -0.041141644 0.045630753
-0.0064714737 -0.041257076 0.045630753
-0.0065628439 -0.038863454 0.045579653
-0.0064367922 -0.038787626 0.045528032
-0.006559968 -0.037858672 0.045572646
-0.006213556 -0.036844902 0.045717221
-0.0060897041 -0.036100432 0.046107851
-0.006228881 -0.034280732 0.046184659
-0.006061241 -0.033174712 0.046375971
-0.006061241 -0.033174712 0.046375971
-0.0057801846 -0.032090366 0.046642751
-0.0055684559 -0.031127378 0.046534542
-0.0055684559 -0.030412368 0.04657802
-0.0052278126 -0.029151145 0.046756417
-0.0052278126 -0.029151145 0.046756417
-0.0055036098 -0.027588058 0.046969868
-0.0052053034 -0.02618647 0.047145136
-0.0054419264 -0.025433339 0.047114816
-0.0050984072 -0.024588022 0.047114816
-0.0050620995 -0.023145754 0.047880284
-0.0048250034 -0.022940002 0.047813408
-0.0048530698 -0.021719534 0.047944009
-0.0048330622 -0.020238247 0.04953362
-0.0049173562 -0.018042378 0.049876302
-0.0046547316 -0.018353377 0.049876302
-0.0045425496 -0.016963212 0.049683303
-0.0048434911 -0.01646043 0.047556225
-0.0047928607 -0.015584145 0.045584574
-0.0044059288 -0.016567901 0.040105656
-0.0035838895 -0.018243831 0.034911182
-0.0021982472 -0.022430301 0.032287758
-0.0024536783 -0.021171778 0.029920796
-0.0028993357 -0.018894006 0.025602344
-0.0045253597 -0.013888732 0.023545302
-0.0043955697 -0.014435038 0.018079041
-0.0037839031 -0.013694778 0.012190875
-0.0092666969 -0.054596905 0.044348955
-0.009147549 -0.052825246 0.047440946
-0.0090720085 -0.051360257 0.048205625
-0.0087943552 -0.049493153 0.049063906
-0.0090815239 -0.049855396 0.049134541
-0.0088036256 -0.049489763 0.04876605
-0.0088036256 -0.048932236 0.048410323
-0.0085478295 -0.049300306 0.048316985
-0.0079962173 -0.048468973 0.047730926
-0.0079962173 -0.048063714 0.047602702
-0.0080262451 -0.046683881 0.047222115
-0.0081467489 -0.044438891 0.046103399
-0.0079882583 -0.044438891 0.046086539
-0.0079882583 -0.044438891 0.046086539
-0.0078339931 -0.042615384 0.045763135
-0.0075296061 -0.041854288 0.045910627
-0.0075296061 -0.041854288 0.045910627
-0.0074106259 -0.040599626 0.046138275
-0.0078094155 -0.039448965 0.045739669
-0.0073443176 -0.038243674 0.046039052
-0.0071374653 -0.038159546 0.046030734
-0.00703223 -0.036439236 0.046741396
-0.0070460215 -0.036040179 0.046213686
-0.0070297914 -0.034292109 0.046433754
-0.0070297914 -0.034270234 0.046433754
-0.0067270463 -0.033282317 0.046421137
-0.0066835508 -0.031940699 0.046559278
-0.0068077669 -0.031082537 0.046330724
-0.0065833405 -0.030522209 0.046831135
-0.0063793426 -0.02912293 0.046966512
-0.0064878911 -0.028622787 0.047000363
-0.0063564843 -0.026810423 0.04703084
-0.0063564843 -0.026398554 0.047244191
-0.0060017956 -0.025619064 0.047302626
-0.0055358633 -0.024770323 0.047797963
-0.0055358633 -0.024770323 0.047797963
-0.0061407015 -0.022956036 0.048833005
-0.0056577381 -0.021384483 0.049258869
-0.0057385108 -0.019863382 0.049784359
-0.005753804 -0.018520631 0.049854599
-0.0056910184 -0.017250728 0.049201161
-0.0054879859 -0.017426569 0.049185053
-0.0054164557 -0.015947524 0.047369681
-0.0056943372 -0.01572739 0.043076586
-0.0035838895 -0.018243831 0.034911182
-0.004673644 -0.019171827 0.032003205
-0.0024536783 -0.022430301 0.031008625
-0.0032287138 -0.022499073 0.02717144
-0.0028993357 -0.018894006 0.025602344
-0.0055460879 -0.014258396 0.020821989
-0.0056215199 -0.013129953 0.016466271
-0.0099860551 -0.053154033 0.045610137
-0.0099927317 -0.051205248 0.047934186
-0.0097848391 -0.050710574 0.048604004
-0.0098989485 -0.048183914 0.049281478
-0.0098989485 -0.048183914 0.049281478
-0.0091742426 -0.050204527 0.049134541
-0.0091670388 -0.048932236 0.048457414
-0.0092412736 -0.047101293 0.048101246
-0.0087362537 -0.048412349 0.047972817
-0.0089694439 -0.045227878 0.046826638
-0.0089694439 -0.045227878 0.046826638
-0.0088701211 -0.044444218 0.046601582
-0.0087864716 -0.043359656 0.046387196
-0.0085689444 -0.043235637 0.046290159
-0.0085858237 -0.041685242 0.046270616
-0.0083525572 -0.041685242 0.046270616
-0.0084532425 -0.040825203 0.04633031
-0.0080212429 -0.039160147 0.046120897
-0.0079792552 -0.038005702 0.046291411
-0.0079606222 -0.038145959 0.046362143
-0.0080107301 -0.036285713 0.04645497
-0.007917447 -0.034774847 0.046357289
-0.0079166414 -0.034264266 0.046357289
-0.007790138 -0.033800155 0.046427835
-0.0077321948 -0.032465141 0.046448588
-0.0077050268 -0.032460075 0.046559289
-0.0074858861 -0.030952558 0.046838447
-0.007224123 -0.029356152 0.04688178
-0.007224123 -0.029356152 0.04688178
-0.0071853651 -0.027685445 0.047128957
-0.0071544647 -0.026937045 0.047128957
-0.006939223 -0.026604116 0.047244191
-0.0070993826 -0.02483397 0.047904685
-0.0070298687 -0.024656091 0.048220038
-0.0067687007 -0.023147404 0.048525937
-0.0064861299 -0.022956036 0.049117371
-0.0066078454 -0.021322675 0.049258869
-0.0067352029 -0.018628683 0.050129749
-0.0067352029 -0.018126246 0.050129749
-0.006479864 -0.018651128 0.048991203
-0.0063830977 -0.017390564 0.048296571
-0.0064403294 -0.016886195 0.046441212
-0.0063086562 -0.01748172 0.039882239
-0.0071835583 -0.01826264 0.031502284
-0.0057769381 -0.019959487 0.030993704
-0.0041358573 -0.023783179 0.026787195
-0.0047546774 -0.021005634 0.025281958
-0.0054211458 -0.018894006 0.024150662
-0.0069288686 -0.014017755 0.020335162
-0.0066218972 -0.013908423 0.01327243
-0.010634206 -0.053978272 0.04398293
-0.011249986 -0.05221992 0.046189733
-0.010784875 -0.050114047 0.048261456
-0.010635434 -0.048485789 0.049142465
-0.010538206 -0.048321906 0.049142465
-0.010506404 -0.047423236 0.0493076
-0.010098858 -0.048183914 0.049292147
-0.0097539714 -0.048796866 0.04845842
-0.0096532283 -0.045948803 0.048109669
-0.009950377 -0.045511294 0.047445122
-0.0097559178 -0.045511294 0.047134779
-0.0095726466 -0.044059634 0.04672353
-0.0095726466 -0.043847594 0.04672353
-0.0094508706 -0.042828195 0.0464954
-0.0094582373 -0.041780572 0.046551373
-0.0097389668 -0.040165544 0.046569053
-0.0091126729 -0.040826086 0.046902765
-0.009134707 -0.039329857 0.046352323
-0.0089930911 -0.038687628 0.046431147
-0.0091326432 -0.036526546 0.046470266
-0.0089063635 -0.036526546 0.046470266
-0.0087094735 -0.03521027 0.04675132
-0.0088423314 -0.033949446 0.046549961
-0.0086398125 -0.033600658 0.046549961
-0.0086398125 -0.033394851 0.046549961
-0.0083362292 -0.030986566 0.046833169
-0.0083362292 -0.030986566 0.046833169
-0.0082504712 -0.03000439 0.047062848
-0.0083577484 -0.02849409 0.047412787
-0.0081318002 -0.027785391 0.047439992
-0.0079924548 -0.027160633 0.04731597
-0.0078903176 -0.026421696 0.047798853
-0.0078691179 -0.024786796 0.048431769
-0.0076738168 -0.023961503 0.048564281
-0.0076738168 -0.023961503 0.048564281
-0.0076690186 -0.021428011 0.049510054
-0.0077349562 -0.020052828 0.049225807
-0.0075212382 -0.01891163 0.05025709
-0.007403221 -0.017998651 0.04863362
-0.007403221 -0.018010378 0.048214957
-0.0074783312 -0.016895987 0.046646606
-0.0072837137 -0.017364249 0.043086834
-0.0072326586 -0.019726183 0.0321928
-0.0071835583 -0.01826264 0.031502284
-0.0057191374 -0.022787683 0.029214945
-0.0060038986 -0.021265186 0.025614634
-0.0063999929 -0.018915161 0.024150662
-0.0081690522 -0.016018972 0.022693194
-0.0073179211 -0.014661837 0.018064111
-0.011622004 -0.051907636 0.04453266
-0.011993214 -0.0496266 0.046761725
-0.010972716 -0.050114047 0.048480287
-0.011538554 -0.047298852 0.049098775
-0.011335689 -0.046919927 0.049278222
-0.011069367 -0.047489017 0.049409006
-0.010843027 -0.047489017 0.049335439
-0.010690708 -0.04623314 0.048261538
-0.010690708 -0.046342935 0.047927562
-0.010691634 -0.044914067 0.047733262
-0.010787253 -0.04290643 0.047238607
-0.010480656 -0.04290643 0.047118019
-0.010806002 -0.041461598 0.047058709
-0.010579446 -0.041983351 0.046790093
-0.010035026 -0.040678114 0.046674475
-0.010035026 -0.040678114 0.046674475
-0.0098637594 -0.040165544 0.04659247
-0.010028241 -0.0379612 0.046596941
-0.0098375212 -0.036357269 0.046489034
-0.0097016105 -0.036656555 0.046670906
-0.0095871678 -0.035245754 0.046694711
-0.0095730582 -0.035536774 0.046694711
-0.0096565476 -0.03274972 0.04667592
-0.0095641837 -0.032383505 0.046906177
-0.0093927654 -0.030601449 0.04706046
-0.0093927654 -0.030601449 0.04706046
-0.0092291776 -0.029059667 0.047302358
-0.0092291776 -0.029059667 0.047302358
-0.0090535153 -0.027448505 0.047752008
-0.0088585857 -0.026945207 0.047905639
-0.0088456888 -0.025957275 0.04798438
-0.0086063035 -0.025284033 0.048812881
-0.0086063035 -0.024746705 0.048778623
-0.0085265804 -0.023277141 0.049368601
-0.0086115953 -0.020956371 0.049348593
-0.0086115953 -0.020956371 0.049348593
-0.0085933916 -0.018697262 0.048943855
-0.0084966868 -0.018186036 0.048930567
-0.0083140451 -0.018276189 0.046602659
-0.0083582513 -0.017364353 0.044606104
-0.0093849823 -0.018644582 0.035179336
-0.0072326586 -0.019726183 0.0321928
-0.0077162702 -0.023204342 0.030752195
-0.0066200932 -0.023993112 0.024876865
-0.0075693568 -0.01915545 0.02502772
-0.0081690522 -0.016018972 0.022693194
-0.0091228215 -0.015438572 0.020480037
-0.0081601869 -0.015237723 0.013488683
-0.01181927 -0.052280061 0.045228899
-0.012583205 -0.0496266 0.047207162
-0.012493063 -0.047543999 0.048478834
-0.011570151 -0.047351483 0.049098775
-0.012126908 -0.045849912 0.049456675
-0.012031838 -0.04546551 0.049469709
-0.011538554 -0.047298852 0.049098775
-0.011664848 -0.045449764 0.048163243
-0.011574293 -0.044547703 0.047915857
-0.011801014 -0.04371712 0.047698006
-0.01142151 -0.04298484 0.047238607
-0.011370055 -0.041654997 0.04721589
-0.011236096 -0.041461598 0.04708223
-0.011231254 -0.039873831 0.046964377
-0.011103325 -0.039265249 0.046890318
-0.010980976 -0.038597133 0.046890318
-0.011011045 -0.036951624 0.046819359
-0.010773282 -0.036988258 0.046819359
-0.010650657 -0.035842288 0.046956278
-0.010751511 -0.034159794 0.046999287
-0.010361878 -0.034966558 0.047163486
-0.010541562 -0.032695122 0.047407743
-0.010541562 -0.032695122 0.047407743
-0.010194045 -0.031394165 0.047513865
-0.010180452 -0.030226156 0.047545157
-0.010093417 -0.029195912 0.047410723
-0.010119585 -0.029426485 0.048351195
-0.0098521821 -0.027271707 0.048447229
-0.0097123263 -0.026984423 0.048447229
-0.0096001159 -0.026073989 0.048639871
-0.0093996804 -0.025483659 0.049197249
-0.0095656579 -0.02319058 0.049356855
-0.0096776448 -0.021703584 0.049246769
-0.009510464 -0.020803483 0.04932129
-0.0093751578 -0.020558547 0.049204938
-0.0093610026 -0.018768944 0.048943855
-0.0093226358 -0.019027214 0.047748286
-0.0091269491 -0.018530596 0.045950949
-0.0091546448 -0.01950004 0.037971411
-0.0092482232 -0.022179712 0.032035843
-0.0077162702 -0.024821971 0.030986797
-0.0077733044 -0.023774814 0.029084379
-0.0085804649 -0.020125382 0.025207384
-0.0089922156 -0.017683696 0.023279499
-0.0091369962 -0.016339649 0.021343501
-0.0092180418 -0.016473431 0.017324775
-0.013384212 -0.049962815 0.045382019
-0.012730762 -0.049073778 0.047664791
-0.013649933 -0.046674002 0.048455618
-0.012933266 -0.046729662 0.049450859
-0.012853968 -0.045476567 0.049948156
-0.012757756 -0.044556007 0.049382228
-0.012322106 -0.045552265 0.048702095
-0.012322106 -0.045492209 0.048329584
-0.012454774 -0.042978592 0.048094157
-0.011801014 -0.04371712 0.047698006
-0.012092056 -0.042661689 0.047723457
-0.012033299 -0.040445019 0.047582608
-0.011859421 -0.040139731 0.04737499
-0.011859421 -0.040139731 0.04737499
-0.011694753 -0.038032245 0.047122356
-0.011694753 -0.038032245 0.047250278
-0.011823207 -0.035703421 0.047164507
-0.01157867 -0.035694607 0.047473669
-0.011352358 -0.034930333 0.047619373
-0.011357283 -0.033933379 0.047566343
-0.01141909 -0.031877942 0.047773939
-0.01141909 -0.031877942 0.047773939
-0.01114446 -0.031330187 0.047759023
-0.011050642 -0.029990081 0.048201788
-0.010873277 -0.029551681 0.048406295
-0.010831419 -0.028322577 0.048871189
-0.010508642 -0.027367547 0.04915056
-0.010640174 -0.027342349 0.048890378
-0.01028275 -0.026199352 0.049084444
-0.010522053 -0.024306266 0.049346276
-0.010533881 -0.022699952 0.049421072
-0.010261432 -0.021668885 0.049691569
-0.010261432 -0.021668885 0.049691569
-0.010254356 -0.019844752 0.048387151
-0.010254356 -0.019844752 0.048387151
-0.010053966 -0.019270102 0.046473701
-0.010677297 -0.019193303 0.041135237
-0.0098135667 -0.022179712 0.032476395
-0.0087307952 -0.025957033 0.031427495
-0.0088609653 -0.025395911 0.029052639
-0.0092239967 -0.021370813 0.025565159
-0.010108077 -0.017683696 0.02330146
-0.010131596 -0.017253719 0.021343501
-0.010272508 -0.016473431 0.017393075
-0.01407817 -0.049476355 0.045609683
-0.01393879 -0.048293166 0.047563676
-0.013800268 -0.047010571 0.048444059
-0.01382032 -0.044926561 0.049143147
-0.013523721 -0.044213448 0.049338639
-0.013523721 -0.044143833 0.048844334
-0.013168414 -0.04331797 0.048612621
-0.013446521 -0.044030093 0.048669543
-0.013117843 -0.043022066 0.048177186
-0.013034851 -0.042035367 0.04826634
-0.013034407 -0.042035367 0.048404541
-0.012733233 -0.040037658 0.048090875
-0.012733233 -0.039639127 0.048090875
-0.012681033 -0.038508933 0.048063893
-0.01252647 -0.038036462 0.048063893
-0.012471375 -0.036900695 0.048010744
-0.012433124 -0.035550419 0.04819347
-0.012222028 -0.03462062 0.047898561
-0.012287887 -0.033411957 0.048528589
-0.012210658 -0.032212123 0.048929464
-0.012210658 -0.032212123 0.048929464
-0.011958236 -0.031025853 0.048705395
-0.012105763 -0.029991917 0.048915301
-0.011865919 -0.028835885 0.04894888
-0.011865919 -0.028835885 0.04894888
-0.011465563 -0.028217798 0.049085733
-0.011432565 -0.026161065 0.049019158
-0.011326283 -0.024480641 0.049006779
-0.011453256 -0.023832735 0.04916583
-0.011231895 -0.022295754 0.049434189
-0.011231895 -0.022295754 0.049434189
-0.011134821 -0.020393793 0.048723795
-0.011134821 -0.020529658 0.047899567
-0.011165951 -0.019496977 0.04670589
-0.011185133 -0.019358341 0.042094558
-0.011397729 -0.022505432 0.033872604
-0.0099944137 -0.026085198 0.031427495
-0.009750152 -0.026390668 0.029451052
-0.0099952202 -0.02467845 0.027902858
-0.010854759 -0.019959662 0.024267934
-0.011690304 -0.017932236 0.019939123
-0.011303211 -0.01723082 0.017446175
-0.014718056 -0.049974512 0.040259898
-0.014497435 -0.048774872 0.045609683
-0.014788035 -0.046298489 0.047717411
-0.014544118 -0.045254786 0.048310257
-0.014540322 -0.044683181 0.048946772
-0.014502889 -0.043736782 0.049137782
-0.01437042 -0.042210735 0.049495071
-0.014241795 -0.042266406 0.048746515
-0.014161522 -0.041807212 0.048720885
-0.014161522 -0.041807212 0.048720885
-0.013645601 -0.042028654 0.049462184
-0.013824157 -0.039320592 0.049181879
-0.013458319 -0.040220823 0.049364626
-0.013617984 -0.037658188 0.049242198
-0.013372727 -0.037607532 0.049466293
-0.013415704 -0.035807006 0.049398564
-0.013415704 -0.035807006 0.049398564
-0.013415704 -0.035330344 0.049398564
-0.013086791 -0.033549149 0.049349099
-0.012906993 -0.033233181 0.049501155
-0.012968423 -0.031211194 0.049470738
-0.012968423 -0.031211194 0.049470738
-0.012509587 -0.029932849 0.049169134
-0.012509587 -0.029932849 0.049169134
-0.012327006 -0.027853783 0.04897318
-0.012737543 -0.025698233 0.049197134
-0.012649527 -0.024657071 0.049261261
-0.012649527 -0.024657071 0.049261261
-0.012399594 -0.023337778 0.049261261
-0.012233113 -0.023099825 0.048960112
-0.012183006 -0.022079431 0.048604809
-0.012135553 -0.020803805 0.04753238
-0.011976982 -0.021356557 0.046534151
-0.012062815 -0.021253776 0.041571677
-0.012109484 -0.022505432 0.032841742
-0.010860875 -0.026350915 0.031056831
-0.010860875 -0.026390668 0.029749516
-0.0099952202 -0.02467845 0.027902858
-0.010854759 -0.021119788 0.025565159
-0.01218174 -0.018841892 0.022662651
-0.012345483 -0.017981499 0.017485783
-0.016490078 -0.047138385 0.044994526
-0.015669294 -0.044906512 0.046707056
-0.015371134 -0.045258895 0.048318714
-0.015349367 -0.043516994 0.048382521
-0.015251033 -0.042818833 0.048382521
-0.015197192 -0.04147559 0.048762776
-0.015197192 -0.040928941 0.048762776
-0.014967435 -0.040130727 0.049120039
-0.014697841 -0.039095089 0.049455561
-0.01467603 -0.040574908 0.049474031
-0.014443599 -0.039283134 0.049455561
-0.014364053 -0.038327411 0.049625944
-0.014169042 -0.038238596 0.049625944
-0.01418394 -0.036461875 0.049677085
-0.014075763 -0.035230149 0.050056081
-0.013813407 -0.034364048 0.049782917
-0.013813407 -0.034364048 0.04990834
-0.013582043 -0.032753028 0.049878448
-0.013582043 -0.033073138 0.049831979
-0.0135702 -0.030919775 0.049365204
-0.013883921 -0.029270593 0.049323231
-0.013631372 -0.028278586 0.049251758
-0.013684605 -0.026382126 0.049089234
-0.01361431 -0.025399987 0.048985131
-0.0134764 -0.024958652 0.048985131
-0.013373955 -0.024657071 0.048985131
-0.013238462 -0.02267186 0.048222527
-0.013238462 -0.02267186 0.048222527
-0.012754267 -0.022608344 0.047351927
-0.013011529 -0.021749841 0.045839701
-0.013034755 -0.021892022 0.041532129
-0.013013812 -0.023436196 0.031896465
-0.013145895 -0.023557745 0.030321425
-0.01190237 -0.028539881 0.029551089
-0.012084704 -0.026462726 0.027287904
-0.012063353 -0.025588237 0.027287904
-0.013219279 -0.018841892 0.02228489
-0.01334676 -0.018892489 0.017485783
-0.016490078 -0.047138385 0.044994526
-0.016420092 -0.04457736 0.046677858
-0.016207315 -0.044153903 0.047904693
-0.016180709 -0.04215616 0.048311904
-0.016180709 -0.04215616 0.048311904
-0.016069651 -0.040924218 0.048418522
-0.015990097 -0.038562477 0.048688825
-0.015564572 -0.039461616 0.049072769
-0.015682856 -0.037483957 0.048868924
-0.015682856 -0.037483957 0.048868924
-0.015467446 -0.036490127 0.04897818
-0.015271777 -0.036498461 0.049440086
-0.015300293 -0.034421261 0.049487274
-0.015140632 -0.03408381 0.049713306
-0.01489736 -0.033074211 0.049507719
-0.01489736 -0.033074211 0.049507719
-0.014903805 -0.029971141 0.049643505
-0.014810094 -0.029775426 0.049285155
-0.014693195 -0.029053465 0.049166754
-0.014606354 -0.029053465 0.049175851
-0.014560601 -0.02704975 0.049068898
-0.014560601 -0.026303247 0.049067605
-0.014463468 -0.026042042 0.048859358
-0.014399446 -0.024600707 0.048751656
-0.014269787 -0.024122156 0.048542242
-0.01414377 -0.023731224 0.048041567
-0.01389278 -0.022835761 0.046785638
-0.014010789 -0.023071118 0.044957384
-0.013062051 -0.024983993 0.03481061
-0.014137701 -0.024879843 0.030824589
-0.014113689 -0.024008404 0.030321425
-0.013469663 -0.026917465 0.0276605
-0.013367216 -0.026869595 0.027492797
-0.013642907 -0.023971457 0.026170833
-0.014207432 -0.021001946 0.019881541
-0.01334676 -0.018892489 0.015461472
-0.016728781 -0.047501694 0.038833532
-0.017188301 -0.044891838 0.045259863
-0.017062167 -0.043739635 0.046486463
-0.017256703 -0.041416086 0.046925429
-0.017337371 -0.040413655 0.047968745
-0.016823642 -0.039678771 0.047774646
-0.016279267 -0.039081119 0.04858068
-0.016605986 -0.037876647 0.04835996
-0.016351482 -0.036772326 0.048349172
-0.016349042 -0.035172731 0.048419215
-0.016349042 -0.034914367 0.048533842
-0.016165558 -0.034760013 0.048943195
-0.016143639 -0.033334117 0.048734885
-0.015930675 -0.032257695 0.049152184
-0.015930675 -0.031964984 0.049152184
-0.015823241 -0.03029871 0.049271837
-0.015660662 -0.029271431 0.048836604
-0.015660662 -0.029271431 0.048836604
-0.015583346 -0.026822656 0.048775259
-0.015583346 -0.026822656 0.048775259
-0.015388259 -0.026822656 0.048581157
-0.015258583 -0.02558963 0.048779748
-0.015121197 -0.02500562 0.047917835
-0.01478038 -0.024712076 0.047064792
-0.014640525 -0.023702905 0.045485467
-0.01506816 -0.024469294 0.042234778
-0.015152447 -0.025896817 0.031093819
-0.015152447 -0.025896817 0.031093819
-0.01474523 -0.027042333 0.028483825
-0.01474523 -0.026917465 0.027614878
-0.014987478 -0.023872726 0.026313007
-0.015874645 -0.022716142 0.023731556
-0.01533405 -0.022029638 0.01947348
-0.018994436 -0.047812998 0.031709321
-0.018010598 -0.044891838 0.044365495
-0.017926004 -0.042089324 0.046204716
-0.017809287 -0.041022267 0.046925429
-0.017809287 -0.041022267 0.046925429
-0.017910948 -0.039571177 0.04769358
-0.017545238 -0.037697587 0.047232535
-0.017333522 -0.03794967 0.047666322
-0.017144158 -0.035874382 0.04814893
-0.017144158 -0.035874382 0.04814893
-0.017138347 -0.034144439 0.048061132
-0.016987177 -0.033604931 0.04861882
-0.016861971 -0.03331209 0.04861882
-0.016749367 -0.030921102 0.048177317
-0.016749367 -0.030921102 0.048177317
-0.016621541 -0.030921102 0.04813242
-0.016496293 -0.02879912 0.047966979
-0.016496293 -0.028322317 0.047966979
-0.016496293 -0.028322317 0.047966979
-0.016273994 -0.025944913 0.047436737
-0.016273994 -0.025944913 0.047436737
-0.016100157 -0.026142182 0.046337485
-0.016176356 -0.025144409 0.043372981
-0.016446624 -0.0261444 0.033771902
-0.017315999 -0.028080367 0.031890273
-0.015490877 -0.030724943 0.029656386
-0.015490877 -0.031523023 0.029871793
-0.015882321 -0.026917465 0.027614878
-0.016250744 -0.023108635 0.023731556
-0.016924592 -0.024125151 0.01947348
-0.016322546 -0.023265492 0.014735167
-0.018994436 -0.047812998 0.031709321
-0.019564185 -0.042355608 0.039693493
-0.017102234 -0.040977769 0.043160588
-0.018458802 -0.039276902 0.046544231
-0.018458802 -0.039276902 0.046544231
-0.018147975 -0.037635949 0.047189705
-0.018181706 -0.037229206 0.047189705
-0.018104156 -0.034811243 0.047354504
-0.018040681 -0.034239449 0.047354504
-0.01808759 -0.03397068 0.047987312
-0.017780036 -0.032847524 0.047918022
-0.01771524 -0.032194603 0.047544807
-0.017287675 -0.031156957 0.047544807
-0.01744584 -0.030138135 0.047254048
-0.01744584 -0.030138135 0.047254048
-0.017297857 -0.028504478 0.046585441
-0.017297857 -0.02806643 0.046579804
-0.017398775 -0.028045218 0.045066476
-0.017285541 -0.02739574 0.041845784
-0.017549183 -0.027979564 0.033771902
-0.017315999 -0.028571529 0.031890273
-0.016841151 -0.032758914 0.03096587
-0.016700326 -0.032758914 0.029132025
-0.016685499 -0.031523023 0.02782719
-0.01678567 -0.026586026 0.027114948
-0.017546227 -0.024125151 0.019389544
-0.01713495 -0.025311425 0.014958717
-0.020942945 -0.046201956 0.024580032
-0.019851957 -0.043476041 0.034079164
-0.019267008 -0.040285561 0.039693493
-0.019125532 -0.038331348 0.04344226
-0.019125532 -0.037512973 0.04499612
-0.019192582 -0.036286548 0.046937436
-0.018930107 -0.034795597 0.046623517
-0.018930107 -0.034795597 0.046623517
-0.018700996 -0.033564389 0.046597689
-0.018700996 -0.033564389 0.046597689
-0.018318126 -0.031766336 0.046362735
-0.018318126 -0.031402502 0.046175897
-0.01852832 -0.030893579 0.041690588
-0.018489366 -0.030293807 0.042221826
-0.018611722 -0.030765641 0.035386853
-0.018609809 -0.031481974 0.03105846
-0.018596523 -0.031078324 0.029808203
-0.018596523 -0.031078324 0.029084343
-0.017931074 -0.035126515 0.028440604
-0.017931074 -0.035126515 0.028440604
-0.017972955 -0.031466715 0.02782719
-0.018849775 -0.02738679 0.021757852
-0.018627435 -0.026155099 0.015927557
-0.021073319 -0.046201956 0.024198987
-0.021073319 -0.046201956 0.024198987
-0.022554953 -0.042756502 0.026527703
-0.020930845 -0.040041618 0.031255126
-0.020227727 -0.037484586 0.033935085
-0.020227727 -0.037484586 0.033935085
-0.020227727 -0.037484586 0.033935085
-0.019901892 -0.035634872 0.03379466
-0.019901892 -0.035634872 0.03379466
-0.019901892 -0.035634872 0.03379466
-0.019778129 -0.036473833 0.029531183
-0.019650683 -0.036473833 0.029167224
-0.019612713 -0.035231445 0.028620316
-0.019623123 -0.032860011 0.028115815
-0.019512067 -0.033103719 0.027486825
-0.019512067 -0.033103719 0.027486825
-0.01961695 -0.029331177 0.023756307
-0.019259615 -0.028641839 0.021629445
-0.020551171 -0.027938176 0.017590791
-0.021967329 -0.043934658 0.021450907
-0.021508068 -0.042166483 0.023821961
-0.021508068 -0.042166483 0.023821961
-0.021508068 -0.042166483 0.023821961
-0.021215945 -0.039682541 0.026058113
-0.021100115 -0.038979378 0.025964215
-0.021100115 -0.037558433 0.026058113
-0.020979211 -0.034924563 0.025736097
-0.020979211 -0.034924563 0.025736097
-0.020947158 -0.032765541 0.02403143
-0.020947158 -0.032765541 0.02403143
-0.020851914 -0.032116123 0.022624969
-0.022878878 -0.041522201 0.01683566
-0.022445008 -0.040280066 0.020512879
-0.022399504 -0.037507217 0.021104155
-0.022272494 -0.036852442 0.021104155
-0.022272494 -0.036852442 0.020989688
-0.0221803 -0.03597378 0.020446476
0.017797805 -0.052662104 0.039549392
0.018511891 -0.052269924 0.040807221
0.017230459 -0.049791884 0.041821238
0.017312087 -0.048994642 0.040900126
0.018710339 -0.04890066 0.040900126
0.018744497 -0.047819193 0.041202508
0.018899554 -0.046929028 0.041202508
0.02019573 -0.046790667 0.040817801
0.020618796 -0.046067271 0.040817801
0.019742316 -0.043566469 0.040787786
0.021608934 -0.045455184 0.040598631
0.020037541 -0.043086372 0.039719936
0.021963127 -0.042816542 0.038798895
0.015074255 -0.053606339 0.041878577
0.015703883 -0.052118763 0.044019677
0.016390605 -0.052118763 0.044010114
0.016385481 -0.05063412 0.044189408
0.017018592 -0.050623037 0.043709762
0.016206175 -0.047711279 0.044271123
0.018271267 -0.049596183 0.043506775
0.019188613 -0.049294084 0.043223094
0.018744497 -0.047709111 0.042818878
0.020115517 -0.047514345 0.042492311
0.020110106 -0.046512287 0.042284399
0.019742316 -0.045257416 0.042284399
0.021017984 -0.045455184 0.041876204
0.021353811 -0.043479715 0.042173356
0.021353811 -0.043314967 0.042062789
0.021447547 -0.04206679 0.04232629
0.021447547 -0.041370161 0.04093428
0.022715231 -0.041217655 0.040872384
0.023463069 -0.040664047 0.040816683
0.023229305 -0.039491877 0.039202921
0.014333105 -0.056730036 0.037846029
0.013089012 -0.054560971 0.042305868
0.01324697 -0.052735403 0.046185035
0.014601259 -0.05264828 0.046217501
0.015556991 -0.052316368 0.046524376
0.016021846 -0.051478039 0.04658848
0.016527399 -0.051141743 0.046033125
0.014839382 -0.048882671 0.045896262
0.01720807 -0.049668357 0.045132767
0.017110839 -0.048302189 0.044998374
0.016606666 -0.047248073 0.044755816
0.019130113 -0.047709111 0.043970749
0.020817311 -0.047831792 0.042492311
0.021195244 -0.047831792 0.043010589
0.023519682 -0.047518201 0.042768143
0.023799477 -0.046689108 0.042768143
0.019771958 -0.042983849 0.043792505
0.022069689 -0.043378942 0.043856092
0.021287538 -0.04206679 0.042749137
0.021957267 -0.041720852 0.042749137
0.022006189 -0.040515881 0.043434687
0.022584073 -0.039853871 0.043052346
0.022584073 -0.039168973 0.043062717
0.022497838 -0.037735194 0.042209111
0.023229305 -0.039491877 0.039202921
0.010756272 -0.056831934 0.039620906
0.012688631 -0.056192566 0.042011309
0.01240049 -0.054148842 0.046301186
0.013167136 -0.053546354 0.046715401
0.014784208 -0.053787217 0.047427416
0.014709828 -0.052686129 0.047181021
0.014636329 -0.051497988 0.047264498
0.016765382 -0.051729083 0.046796829
0.015881516 -0.050305825 0.046928909
0.017012572 -0.050406896 0.046202917
0.016853435 -0.048968803 0.046271671
0.015821993 -0.047475561 0.046257079
0.018154992 -0.047895532 0.045215689
0.01866075 -0.047440968 0.045058705
0.014507806 -0.043506566 0.044847298
0.0121997 -0.041300915 0.045282423
0.012728331 -0.040063486 0.044962823
0.010601872 -0.038120653 0.045163929
0.019180683 -0.042620156 0.043878846
0.019687882 -0.04192711 0.04375986
0.020964574 -0.041751824 0.043173231
0.022548599 -0.04151585 0.042864781
0.020134354 -0.039277367 0.043477416
0.022584073 -0.039853871 0.043225739
0.022584073 -0.039168973 0.043062717
0.022284746 -0.037735194 0.043042399
0.022497838 -0.037735194 0.042209111
0.023880517 -0.036750376 0.041023504
0.023880517 -0.035644941 0.041117873
0.007714225 -0.056268483 0.042111263
0.012713566 -0.056895118 0.045279633
0.011347364 -0.054544531 0.046631638
0.012186849 -0.054000951 0.04737575
0.012638047 -0.053438433 0.047571898
0.013485578 -0.05274542 0.048052676
0.013148957 -0.051442623 0.047818478
0.014480362 -0.051359333 0.047597159
0.015307741 -0.050907649 0.047311857
0.01571455 -0.050215159 0.046966191
0.016084984 -0.049445234 0.047092661
0.016812427 -0.04885808 0.046508789
0.01804268 -0.048697803 0.046379562
0.020464366 -0.049348064 0.045675449
0.01866075 -0.047146101 0.044845611
0.022335026 -0.048561893 0.044659849
0.022958549 -0.047947485 0.044302262
0.026096307 -0.048150592 0.043901563
0.026096307 -0.047937449 0.043901563
0.021427806 -0.044268902 0.044291534
0.022260498 -0.043378942 0.043996159
0.020146564 -0.041311927 0.043845233
0.021080093 -0.04071115 0.043508247
0.021932732 -0.040150505 0.043508247
0.021106888 -0.038503319 0.045140184
0.023063213 -0.038707647 0.044668935
0.022794891 -0.037409324 0.045620732
0.022687417 -0.036469501 0.045593802
0.022951387 -0.035856564 0.044180706
0.023565948 -0.03532777 0.042734817
0.024706841 -0.035091855 0.04148693
0.025508285 -0.033856601 0.040170737
0.0094097406 -0.05677874 0.042915106
0.0088781714 -0.054801811 0.046831161
0.010506134 -0.054876629 0.047969025
0.011493552 -0.054315835 0.047830988
0.012044537 -0.053952683 0.047999814
0.011699479 -0.052539296 0.048122387
0.013303053 -0.052575696 0.048436314
0.01342557 -0.051657241 0.047818478
0.015312184 -0.05198241 0.04762141
0.015307741 -0.050907649 0.047311857
0.018339826 -0.051917128 0.047319733
0.016431546 -0.049624249 0.047041584
0.018975331 -0.050172918 0.046744142
0.018907042 -0.049293522 0.046379562
0.019009583 -0.048049178 0.045364957
0.019009583 -0.047631528 0.045364957
0.020094633 -0.047076192 0.045029934
0.020094633 -0.045477856 0.044816885
0.020254726 -0.045298301 0.044816885
0.020889901 -0.044807512 0.044741217
0.022224506 -0.0438645 0.044186879
0.022260498 -0.043378942 0.043996159
0.022069689 -0.042201929 0.043996159
0.023585238 -0.041980684 0.044146784
0.023242211 -0.040924702 0.044146784
0.023063213 -0.03951253 0.04482821
0.020600241 -0.037117708 0.046082258
0.02233115 -0.037041485 0.046287652
0.023176683 -0.036568239 0.045958068
0.023176683 -0.035779305 0.046062957
0.023045553 -0.034600824 0.046014823
0.022719629 -0.033856332 0.045703538
0.024706841 -0.035091855 0.042734817
0.025508285 -0.03359567 0.04001911
0.0069814995 -0.058390893 0.036295421
0.0071406928 -0.056232437 0.044030789
0.0089148115 -0.056163311 0.047226634
0.0099959932 -0.055524189 0.047809642
0.0092240125 -0.053782422 0.048681442
0.010210864 -0.053515952 0.048848219
0.010777235 -0.052431755 0.048846647
0.011699479 -0.052539296 0.048122387
0.013542674 -0.052769732 0.048052676
0.01461999 -0.052686129 0.047436513
0.016569171 -0.053079963 0.047144931
0.015307741 -0.050907649 0.047311857
0.01571455 -0.050215159 0.046966191
0.017012572 -0.050142448 0.046342727
0.016944341 -0.049048275 0.046121728
0.017700136 -0.048495509 0.045958959
0.018451964 -0.048049178 0.045215689
0.018126283 -0.047146101 0.044845611
0.019325282 -0.0465854 0.044681136
0.020094633 -0.045477856 0.044577718
0.020636978 -0.045062017 0.044458419
0.021427806 -0.044419371 0.04440061
0.02050739 -0.042983849 0.044034839
0.022260498 -0.043378942 0.043996159
0.021527713 -0.042201929 0.043987382
0.023585238 -0.041882839 0.043610912
0.02352367 -0.040924702 0.043838333
0.023063213 -0.03951253 0.04482821
0.024273898 -0.039568882 0.044645965
0.022530735 -0.037073277 0.046175659
0.023533905 -0.036568239 0.046062957
0.022159642 -0.034901138 0.046886355
0.0238773 -0.034857757 0.046270505
0.023575943 -0.033754442 0.046367861
0.022365704 -0.032075953 0.045958389
0.021854036 -0.032799818 0.044231817
0.024160929 -0.031021912 0.041857034
0.0085064117 -0.058741178 0.038124621
0.0051800376 -0.056716524 0.043736283
0.0081864214 -0.056150276 0.048185956
0.0084123202 -0.05520479 0.048372097
0.0085011423 -0.054326091 0.048982698
0.0099328086 -0.054931298 0.048884254
0.010210864 -0.053515952 0.048848219
0.012059003 -0.053952683 0.048436645
0.012577847 -0.05328067 0.047571898
0.014784208 -0.053787217 0.047427416
0.014745738 -0.052804284 0.047105066
0.015556991 -0.052316368 0.046524376
0.013990826 -0.050232586 0.045922965
0.014560867 -0.049321007 0.046276141
0.015849084 -0.049319766 0.045726266
0.014926774 -0.047999438 0.045520365
0.016682118 -0.047922481 0.04485378
0.016682118 -0.047248073 0.044809904
0.015550496 -0.045115054 0.044527944
0.018242035 -0.045422062 0.044310827
0.018394118 -0.044934213 0.044156678
0.018688764 -0.043673363 0.044270515
0.019030455 -0.043102123 0.044280171
0.02050739 -0.042983849 0.044034839
0.021081164 -0.042461615 0.044021148
0.020146564 -0.041311927 0.043845233
0.022063466 -0.041003127 0.043434687
0.021932732 -0.039919015 0.043508247
0.023807166 -0.039923318 0.044318579
0.023063213 -0.038031109 0.04482821
0.025952129 -0.039080404 0.044955876
0.022687417 -0.036469501 0.045593802
0.023046551 -0.035298765 0.046014823
0.022611512 -0.034045078 0.0465707
0.024466373 -0.033754442 0.046745248
0.022813929 -0.032226387 0.047432143
0.023575962 -0.031404741 0.045778543
0.024008486 -0.03109418 0.045487955
0.024160929 -0.031021912 0.041857034
0.0062289196 -0.060659163 0.035787314
0.0051800376 -0.056998044 0.04369688
0.0069228932 -0.056350641 0.048129346
0.0072039813 -0.055661768 0.048781224
0.006632024 -0.054050557 0.049303588
0.0093403496 -0.054931298 0.048872791
0.0082213106 -0.053215493 0.048898686
0.010210864 -0.0535639 0.048645165
0.012806379 -0.054910712 0.047688656
0.011433655 -0.052513413 0.047464691
0.012870409 -0.05243108 0.047305629
0.013703287 -0.052181378 0.046591539
0.013884474 -0.051198997 0.046329211
0.012267116 -0.049025115 0.046146423
0.016527399 -0.051141743 0.045483369
0.014492912 -0.048563618 0.045312297
0.015329544 -0.04775684 0.045352209
0.016264258 -0.047711279 0.044755816
0.015403804 -0.045990601 0.04522264
0.016378915 -0.045859784 0.044667669
0.018242035 -0.045422062 0.044310827
0.016953319 -0.043765258 0.044883635
0.018688764 -0.043673363 0.044270515
0.019030455 -0.043102123 0.044280171
0.019206701 -0.04228206 0.043792505
0.019687882 -0.041618962 0.043684073
0.017761398 -0.039108824 0.043888561
0.022548599 -0.041220896 0.043434687
0.021932732 -0.039347757 0.043680847
0.021932732 -0.038878843 0.043646887
0.023258682 -0.038707647 0.043933094
0.023286209 -0.037409324 0.044885218
0.023820331 -0.036810987 0.044885218
0.024655357 -0.035988808 0.045814719
0.022843845 -0.034060065 0.046367861
0.021891464 -0.032617599 0.047213405
0.024308536 -0.033071712 0.047298674
0.023054272 -0.031187456 0.047493033
0.02260546 -0.030069413 0.047886729
0.023138605 -0.029552193 0.046760187
0.024088684 -0.028314814 0.042056158
0.0046393909 -0.060659163 0.034194797
0.0023877476 -0.056024358 0.044725899
0.005329866 -0.056223404 0.04788579
0.0055388384 -0.055419862 0.049068794
0.0059257993 -0.054563556 0.049453858
0.006632024 -0.054050557 0.049303588
0.007399343 -0.053815223 0.048695058
0.0092240125 -0.054069653 0.04826488
0.011493552 -0.054824159 0.047253095
0.010711314 -0.053068686 0.047806378
0.011238853 -0.052686393 0.046857227
0.01173478 -0.051878072 0.046439022
0.011340889 -0.050444305 0.046419907
0.012059708 -0.049759582 0.046090215
0.012995473 -0.049634781 0.045760468
0.01321253 -0.048602603 0.045759588
0.014492912 -0.048557274 0.045281924
0.014471127 -0.047488403 0.044872981
0.014022245 -0.046122685 0.044754237
0.015387757 -0.045992725 0.044992276
0.015550496 -0.045115054 0.044527944
0.015550496 -0.044232402 0.04419272
0.01603551 -0.043267306 0.044242069
0.018688764 -0.044476058 0.044100132
0.017591629 -0.041779961 0.043979257
0.018125569 -0.041704297 0.043808453
0.019255664 -0.041277815 0.043731943
0.019111808 -0.040383413 0.043731943
0.018235259 -0.038555261 0.04352526
0.019140609 -0.038130235 0.043477416
0.020919301 -0.03814318 0.043423407
0.021930823 -0.037735194 0.043423407
0.0205983 -0.035879619 0.044516254
0.022951387 -0.035856564 0.044180706
0.02310404 -0.034658905 0.04475861
0.022719629 -0.033856332 0.045703538
0.024557885 -0.033754442 0.046745248
0.022813929 -0.031729933 0.047637958
0.021775935 -0.030341245 0.047886729
0.022144394 -0.029850543 0.047959484
0.024058916 -0.029317232 0.047876734
0.022817906 -0.028038286 0.04572602
0.024088684 -0.028314814 0.042056158
0.0033017327 -0.058028925 0.042593241
0.0044090711 -0.056271892 0.046936471
0.0045493282 -0.055838883 0.04890576
0.0056229611 -0.055547699 0.049294028
0.0059257993 -0.054563556 0.049453858
0.006220236 -0.054055341 0.04900622
0.0085011423 -0.054326091 0.048538741
0.010296077 -0.055035207 0.047811627
0.0088283084 -0.052988816 0.047495198
0.012052449 -0.054129317 0.047043849
0.011238853 -0.052686393 0.046519205
0.01173478 -0.051878072 0.046439022
0.010542817 -0.050078381 0.045851327
0.012484815 -0.050332945 0.045599282
0.012995473 -0.049634781 0.045369916
0.01275749 -0.048398796 0.045263201
0.012255833 -0.04694397 0.044952922
0.013915867 -0.047111809 0.044872981
0.016264258 -0.047619462 0.04456253
0.0143453 -0.04533324 0.044701118
0.016654555 -0.045646939 0.044127479
0.016654555 -0.044750713 0.044127479
0.01603551 -0.043267306 0.044242069
0.016665822 -0.042725068 0.044367079
0.019030455 -0.043022387 0.043926403
0.018125569 -0.041704297 0.043808453
0.017987337 -0.040424038 0.043809831
0.016857518 -0.038731281 0.043818105
0.018143578 -0.038431481 0.043476105
0.019140609 -0.038130235 0.043477416
0.021423263 -0.03814318 0.043595862
0.0205983 -0.035885762 0.044208989
0.0205983 -0.035879619 0.044208989
0.022218933 -0.03563714 0.044238299
0.021744892 -0.034313157 0.044283818
0.02310404 -0.034600824 0.044805631
0.025922459 -0.034360178 0.045847893
0.021916758 -0.031280268 0.047089376
0.023093324 -0.031064019 0.047493033
0.021565609 -0.029152662 0.048229758
0.022260193 -0.028633093 0.048062339
0.022817906 -0.028038286 0.047050517
0.023255512 -0.027032413 0.0451193
0.02145528 -0.025978968 0.042675585
0.0025564774 -0.05794682 0.042428434
0.0034356688 -0.05766166 0.045195386
0.0042328015 -0.056905843 0.048429117
0.0037727579 -0.055124708 0.049483653
0.003253378 -0.053398538 0.049533844
0.0058984086 -0.054528244 0.049216423
0.0069644689 -0.054629344 0.048480157
0.0087027326 -0.05508763 0.047839046
0.0079306709 -0.053752325 0.047252975
0.009023577 -0.052988816 0.046844065
0.0085792132 -0.051664941 0.047229521
0.0087974099 -0.050953429 0.04576987
0.0096518304 -0.050555915 0.046157807
0.010135261 -0.049734902 0.045729361
0.0097351233 -0.048185304 0.045516662
0.011419101 -0.04832444 0.044931874
0.01199935 -0.047931239 0.045073058
0.011756471 -0.046751726 0.044745881
0.013691112 -0.047114938 0.044905864
0.014022245 -0.046122685 0.044754237
0.013357757 -0.044657484 0.044781309
0.015083898 -0.044707119 0.045047931
0.015470126 -0.043883763 0.04465612
0.015283858 -0.042578828 0.044935413
0.015803581 -0.04218176 0.044450335
0.017084481 -0.041779961 0.044651389
0.017001705 -0.040656395 0.044247657
0.019186059 -0.041016281 0.043502577
0.017761398 -0.039108824 0.043888561
0.018143578 -0.038431481 0.043476105
0.019140609 -0.038130235 0.043477416
0.020160912 -0.03814318 0.043477416
0.019282369 -0.036037296 0.043673795
0.020109333 -0.035708323 0.043986317
0.020728515 -0.035458639 0.043986317
0.021744892 -0.034313157 0.044283818
0.021110352 -0.032968856 0.044540782
0.022365704 -0.032558359 0.045703538
0.025251903 -0.032753579 0.046175592
0.024182679 -0.031066705 0.047250301
0.022811767 -0.029596042 0.048516899
0.02273331 -0.028587421 0.047880381
0.020560157 -0.026726486 0.047771286
0.022546321 -0.02627877 0.046726294
0.022966027 -0.026245032 0.04509129
0.023176454 -0.025312517 0.040334269
0.0035152324 -0.061126992 0.036633193
0.00063227862 -0.056764916 0.044076312
0.0026156495 -0.056589261 0.048428331
0.0025468571 -0.055414092 0.049304351
0.0036759903 -0.055389844 0.049434885
0.0038828775 -0.054799218 0.049524259
0.0044079865 -0.053910997 0.048790172
0.0081864214 -0.056150276 0.048185956
0.0088290228 -0.054801811 0.046877503
0.0066770446 -0.052464299 0.046958715
0.0096935676 -0.053958088 0.046118423
0.0076233409 -0.051056784 0.046130791
0.0087974099 -0.050953429 0.04576987
0.010440645 -0.051135503 0.045378182
0.010084642 -0.049448017 0.045234147
0.010321527 -0.049043134 0.04501323
0.010746877 -0.04811269 0.044725366
0.011116372 -0.047310993 0.044841342
0.013317474 -0.047619186 0.044975031
0.012244921 -0.04578742 0.045128614
0.011914994 -0.044634722 0.04501931
0.014165189 -0.045117978 0.044701118
0.014324009 -0.044064771 0.044847298
0.013182327 -0.042346545 0.044920463
0.015983514 -0.043047145 0.044573106
0.016113067 -0.042100161 0.044450335
0.016014125 -0.041094143 0.044903595
0.016979525 -0.04055246 0.044294149
0.016805947 -0.039401568 0.043818105
0.017761398 -0.039108824 0.043888561
0.017994413 -0.038256668 0.043476105
0.017561067 -0.036885113 0.043656882
0.019256515 -0.036684439 0.043473095
0.018496424 -0.035488177 0.043789923
0.018560141 -0.034576658 0.044193324
0.019845929 -0.03401465 0.044112861
0.021744892 -0.034313157 0.044283818
0.021019863 -0.032968856 0.044540782
0.022719629 -0.032926697 0.045327861
0.022419259 -0.031404741 0.045958389
0.022936586 -0.030628927 0.046562776
0.02229657 -0.02966594 0.047959484
0.022031724 -0.028194223 0.047880381
0.022128094 -0.027283086 0.047638923
0.023268186 -0.026936021 0.047243461
0.021033475 -0.025113165 0.046442404
0.021522693 -0.02422994 0.044003401
0.026294632 -0.026761074 0.032866895
0.00054629613 -0.064349644 0.024974231
-0.00035431283 -0.058071591 0.043430638
0.00084210548 -0.056815695 0.045636781
0.00087063236 -0.054931216 0.049317587
0.0037191263 -0.056304671 0.049634419
0.0036759903 -0.054887168 0.049616158
0.0056229611 -0.055547699 0.049294028
0.0069228932 -0.055758063 0.048577983
0.0067986748 -0.054629344 0.04796629
0.0061672102 -0.05336646 0.046735764
0.0064378297 -0.052465282 0.046185818
0.0071349181 -0.051955435 0.045664228
0.0073317285 -0.050937172 0.046130791
0.0077554788 -0.050120696 0.045583382
0.009323814 -0.050360449 0.044908889
0.0083676269 -0.048741382 0.045227911
0.010807574 -0.049315784 0.044850145
0.010746877 -0.04811269 0.044725366
0.010438149 -0.046861917 0.044662554
0.011756471 -0.046751726 0.044745881
0.011008215 -0.045072891 0.045013756
0.011746873 -0.044575572 0.044745285
0.01347253 -0.044590887 0.044604123
0.01289872 -0.043279398 0.044755526
0.014099921 -0.042925071 0.044748291
