ply
format ascii 1.0
comment PCL generated
element vertex 1596
property float x
property float y
property float z
element camera 0
property float view_px
property float view_py
property float view_pz
property float x_axisx
property float x_axisy
property float x_axisz
property float y_axisx
property float y_axisy
property float y_axisz
property float z_axisx
property float z_axisy
property float z_axisz
property float focal
property float scalex
property float scaley
property float centerx
property float centery
property int viewportx
property int viewporty
property float k1
property float k2
end_header
86.169159 63.936073 228.13817
87.376892 64.395836 226.48154
87.397957 63.95676 228.53577
88.30336 64.191574 227.80185
88.91433 64.201668 227.99498
89.238335 63.987144 229.11754
89.282837 63.548126 231.17188
90.181778 63.782513 230.42859
90.517105 63.567902 231.54922
91.686966 64.026382 229.86615
92.572365 64.260284 229.11336
93.724091 64.718277 227.42133
94.057976 64.503296 228.53435
94.663162 64.512482 228.70963
95.003769 64.297394 229.82108
95.348984 64.082291 230.93208
95.958069 64.091248 231.1032
96.823608 64.324158 230.33232
97.938202 64.78093 228.61742
98.538841 64.789474 228.78098
99.887314 65.469772 226.11629
100.23296 65.254074 227.21707
101.07214 65.486122 226.43047
101.66406 65.494141 226.5849
101.77664 65.054398 228.62708
102.13583 64.838478 229.72464
102.49963 64.622513 230.8217
103.10017 64.630241 230.97162
103.47074 64.414169 232.06699
104.52756 64.869034 230.31839
105.57426 65.323685 228.56566
105.94394 65.107292 229.65582
106.75794 65.338013 228.8463
107.34936 65.345016 228.98407
107.51063 64.904869 231.02158
108.10641 64.911728 231.15704
108.91194 65.141937 230.33905
109.08957 64.701691 232.37531
110.3024 65.378494 229.6476
110.89223 65.38488 229.77528
111.88229 65.837883 227.99341
112.26894 65.620697 229.0712
113.05093 65.850067 228.23842
113.05617 65.186165 231.22493
113.83769 65.415344 230.38887
113.862 64.751442 233.37607
114.45749 64.757217 233.49368
115.41904 65.209259 231.69482
116.1899 65.43795 230.85034
116.59914 65.220222 231.92001
117.18886 65.225563 232.03018
117.7784 65.230812 232.13872
118.02579 64.78981 234.16508
118.28273 64.348808 236.19154
118.88139 64.353851 236.29703
119.31621 64.135803 237.36185
119.75568 63.91769 238.4259
120.35864 63.922504 238.52733
120.9614 63.927223 238.62717
121.56399 63.93185 238.72539
122.3179 64.159309 237.85899
122.91771 64.163742 237.95361
123.664 64.390961 237.08289
124.40527 64.618065 236.20982
125.14151 64.845047 235.33447
125.59402 64.626236 236.38651
126.05122 64.407387 237.43767
126.64764 64.411285 237.52242
127.11182 64.192307 238.57149
127.71037 64.196045 238.65346
128.43604 64.422455 237.76732
129.03189 64.426018 237.84581
129.75002 64.652214 236.95561
130.46317 64.878311 236.06322
131.17136 65.104301 235.1687
131.75943 65.107498 235.24013
132.57285 65.555962 233.37332
133.04553 65.336304 234.40982
133.52295 65.116608 235.4453
134.0051 64.896866 236.47984
134.49197 64.677063 237.51338
134.98358 64.457199 238.54591
135.57814 64.4599 238.60748
136.17259 64.462509 238.66754
136.76695 64.465042 238.72607
137.45219 64.690094 237.81239
138.13251 64.915031 236.89677
138.80791 65.139877 235.9792
139.39465 65.142097 236.03104
139.98134 65.144241 236.08136
140.48904 64.92379 237.10193
140.925 64.480774 239.09331
141.51869 64.482727 239.13974
142.11232 64.484619 239.18465
142.63663 64.263931 240.20055
143.09885 63.820705 242.18793
143.76393 64.044884 241.25601
144.42412 64.268982 240.32228
145.07944 64.492981 239.38678
145.67268 64.494453 239.42268
146.37541 64.940758 237.51031
146.85901 64.497177 239.49007
147.40216 64.275993 240.49518
147.99762 64.277191 240.52527
148.59303 64.27832 240.55386
149.18842 64.279388 240.58095
149.74345 64.057953 241.58066
150.34116 64.058884 241.60487
150.90335 63.837334 242.60188
151.43726 63.393295 244.57198
152.01144 63.171623 245.56639
152.64694 63.394718 244.61035
153.22589 63.172909 245.60191
153.87996 63.618271 243.66801
154.46127 63.396339 244.65659
155.06602 63.39674 244.66899
155.67076 63.397079 244.67989
156.30309 63.842155 242.73952
156.90297 63.842354 242.74734
157.50285 63.842495 242.75363
158.10931 64.064964 241.78352
158.69846 63.620174 243.73669
159.29723 63.175312 245.68843
159.905 62.952789 246.6637
160.51758 62.730194 247.63744
161.12952 62.729931 247.6347
161.72571 63.174404 245.6806
162.32257 63.396423 244.69994
162.94002 63.173557 245.66757
163.5472 63.173031 245.65878
164.17192 62.950024 246.62329
164.80147 62.726944 247.5862
165.45821 62.28138 249.52214
166.05038 62.502998 248.53239
166.63776 62.724541 247.54129
167.24991 62.723606 247.52325
167.86211 62.722595 247.50371
168.47432 62.721519 247.4826
169.08659 62.720379 247.45999
169.73811 62.496731 248.40994
170.31125 62.717888 247.41011
170.92366 62.716537 247.38287
171.44322 63.160042 245.40642
172.14862 62.713631 247.32378
172.76117 62.712067 247.29195
173.37379 62.710438 247.25854
174.04256 62.486252 248.19693
174.71622 62.261978 249.1335
175.21202 62.705116 247.14912
175.82489 62.703201 247.10954
176.50359 62.478703 248.04112
177.18716 62.254105 248.97086
177.87566 62.02943 249.89864
178.56906 61.804649 250.82454
179.11658 62.024887 249.80446
179.73717 62.022511 249.75497
180.43808 61.797478 250.67557
180.97862 62.017509 249.65135
181.59949 62.0149 249.59715
182.39539 61.56702 251.48332
183.11118 61.341618 252.39629
183.64729 61.561363 251.3661
184.36812 61.335789 252.27539
184.80247 61.778042 250.27243
185.52596 61.552292 251.17825
186.1524 61.549103 251.11246
186.77898 61.545841 251.04498
187.61931 61.097107 252.91397
188.3602 60.870945 253.81148
188.99442 60.867386 253.73837
189.85692 60.418282 255.59995
190.49625 60.414532 255.52293
190.89787 60.856216 253.50909
191.53265 60.852322 253.42937
192.29135 60.625546 254.31497
193.05502 60.398651 255.19827
193.69511 60.394459 255.11293
194.4664 60.167339 255.99191
194.97577 60.385799 254.93723
195.61633 60.38134 254.84683
196.39539 60.1539 255.7197
197.03876 60.149223 255.62561
197.82544 59.921543 256.49402
198.90842 59.247837 259.28781
199.71008 59.019844 260.1506
200.21585 59.237686 259.08459
200.71696 59.455467 258.01761
201.52408 59.227142 258.87439
202.02074 59.444771 257.80469
202.67294 59.43927 257.69559
203.32536 59.433662 257.58478
203.978 59.427967 257.47214
204.63086 59.422153 257.35779
205.45389 59.193096 258.20151
206.10965 59.187065 258.08313
206.76564 59.18092 257.96298
207.42188 59.174675 257.84103
208.25806 58.945087 258.67532
208.91722 58.938595 258.54932
209.57666 58.932003 258.42148
210.23636 58.925293 258.29184
210.70683 59.141827 257.20416
211.36462 59.134926 257.07135
211.82832 59.351303 255.98154
212.68102 59.120785 256.8002
213.53889 58.890099 257.616
214.60365 58.435795 259.38245
215.2702 58.428246 259.2388
216.55688 57.750008 261.9509
217.02234 57.965694 260.84985
218.11774 57.510571 262.60233
219.00931 57.278824 263.39978
219.90613 57.046894 264.19415
220.80818 56.814793 264.98541
221.71548 56.582504 265.77356
222.40427 56.573761 265.60995
222.86713 56.788677 264.49631
223.55414 56.77972 264.32928
224.01033 56.994476 263.21344
224.6956 56.98531 263.043
225.38123 56.976025 262.87051
225.82866 57.19054 261.7511
226.75363 56.957073 262.5195
227.68393 56.723404 263.28464
227.88156 57.161659 261.21732
228.81509 56.927715 261.97766
229.50304 56.917671 261.79297
230.44479 56.683376 262.54715
231.39191 56.448879 263.29791
232.34438 56.214188 264.0452
233.04138 56.203552 263.85001
234.26547 55.744198 265.52924
234.96828 55.733238 265.32837
235.67151 55.722164 265.12531
236.64597 55.486549 265.8562
237.89914 55.026291 267.5188
238.33537 55.239216 266.37238
239.04533 55.227589 266.15903
239.75574 55.215836 265.94351
240.18335 55.428589 264.79337
241.17792 55.192001 265.50571
241.88968 55.179916 265.28342
242.31117 55.392471 264.12885
243.60783 54.930649 265.76126
243.73199 55.367859 263.67453
244.14484 55.580284 262.51633
245.45538 55.117943 264.13785
246.47314 54.880295 264.82782
247.49637 54.642464 265.51379
249.14163 53.954361 268.04428
249.87006 53.9412 267.79703
249.97232 54.37825 265.70224
250.69661 54.365036 265.4519
251.42136 54.351738 265.19928
251.50482 54.788971 263.10428
252.2254 54.775665 262.8486
253.27228 54.536934 263.50867
254.32463 54.298073 264.16452
255.38245 54.05909 264.81613
256.77917 53.59446 266.37885
257.5144 53.580757 266.10648
258.25 53.567055 265.83163
258.98599 53.553337 265.55435
259.72235 53.539635 265.27463
261.49738 52.848701 267.72427
262.59064 52.609116 268.34631
263.33807 52.595322 268.05521
264.43958 52.35569 268.66928
265.54636 52.116043 269.27881
265.94092 52.328354 268.07254
266.69193 52.314827 267.77039
268.17087 51.849258 269.27295
268.92734 51.835861 268.96378
269.315 52.04879 267.75055
270.44067 51.809555 268.33783
272.31952 51.117912 270.71933
273.08398 51.105087 270.39694
273.84842 51.092484 270.07208
274.61282 51.080139 269.74469
274.99295 51.294472 268.51981
274.98117 51.735619 266.40073
274.95905 52.177246 264.28363
275.31833 52.392815 263.06042
59.311432 61.910919 228.39827
59.179321 61.472225 230.47069
59.832016 61.481529 230.75673
60.100182 61.267342 231.93619
61.520073 61.724625 230.42598
62.550285 61.958298 229.80699
64.329704 62.63937 227.38626
64.9702 62.649586 227.65649
65.982742 62.88353 227.02374
66.251122 62.670513 228.19067
66.157501 62.234234 230.26059
66.802826 62.245117 230.52448
67.809944 62.479488 229.88121
68.093048 62.267181 231.0459
68.7379 62.278339 231.30341
70.091255 62.736084 229.74261
71.082466 62.970501 229.08478
71.719093 62.981705 229.3329
72.008713 62.769821 230.48993
72.991608 63.004223 229.82275
73.285736 62.792477 230.97748
74.602211 63.249802 229.39024
75.23494 63.261059 229.62685
76.869827 63.941006 227.11398
77.162735 63.729252 228.26031
78.118584 63.963184 227.57117
78.415871 63.75148 228.71515
79.041931 63.762547 228.93947
79.346046 63.550892 230.08209
79.973915 63.561924 230.30316
80.60141 63.572895 230.5222
81.542595 63.80637 229.81621
82.166847 63.817188 230.03029
82.481697 63.605488 231.16699
83.720772 64.06105 229.52682
84.341393 64.071625 229.73399
84.660118 63.859802 230.86633
85.58152 64.09256 230.1423
86.794067 64.547394 228.48587
87.408195 64.557579 228.68347
88.021935 64.567673 228.8791
88.924347 64.799805 228.1416
89.248299 64.587601 229.26451
89.576851 64.375381 230.38708
90.191589 64.385162 230.57571
90.526871 64.172882 231.6967
91.696548 64.626358 230.01221
92.581802 64.857689 229.25861
93.461723 65.088844 228.50163
94.067162 65.098007 228.67857
94.938927 65.328857 227.9157
95.276993 65.116058 229.02681
95.619652 64.903214 230.13751
96.226166 64.912018 230.30769
97.089096 65.142349 229.53534
98.201035 65.594101 227.81837
98.547272 65.380913 228.92314
99.646179 65.832291 227.1992
100.24112 65.840424 227.35765
100.59131 65.626999 228.45837
101.18808 65.634972 228.61389
101.30555 65.200043 230.65831
101.90662 65.20787 230.81155
102.27279 64.994247 231.90965
102.87569 65.001892 232.06
103.24864 64.788162 233.15637
104.53493 65.459335 230.45865
105.13201 65.466599 230.60255
105.72881 65.47377 230.74472
106.54512 65.701965 229.93504
107.35625 65.930023 229.12248
107.51747 65.494629 231.16096
107.90069 65.280312 232.24814
108.91856 65.729065 230.47754
109.09613 65.293564 232.5148
110.10368 65.741997 230.73868
110.69585 65.748322 230.86671
111.48799 65.975464 230.03862
111.68168 65.539749 232.07289
112.66621 65.987549 230.2854
112.86919 65.551735 232.31842
113.84348 65.999252 230.5256
114.43177 66.004951 230.64328
115.2054 66.231354 229.8018
115.97392 66.457603 228.95775
116.91804 66.904465 227.15271
116.96095 66.247543 230.13879
117.54572 66.252747 230.24794
117.95691 66.037193 231.31528
118.03088 65.38028 234.30243
118.11926 64.723389 237.2906
118.72027 64.728371 237.39639
119.15743 64.512665 238.4621
119.76048 64.517502 238.56502
120.36334 64.522224 238.66637
120.96602 64.526871 238.76607
121.72243 64.751938 237.90103
122.47381 64.976875 237.03358
123.07111 64.981216 237.12769
123.81486 65.20594 236.25592
124.5536 65.430534 235.38182
125.28732 65.655014 234.50543
125.73733 65.438538 235.55759
126.19203 65.222015 236.60886
126.78595 65.22583 236.69318
127.24763 65.009186 237.74237
127.71402 64.792496 238.79066
128.43959 65.016426 237.90388
129.03535 65.01992 237.9823
129.75339 65.243652 237.09145
130.58643 65.687576 235.23041
131.2921 65.911072 234.33498
131.99281 66.134468 233.43741
132.80128 66.578033 231.56883
133.15878 66.140472 233.57442
133.63371 65.923126 234.61009
134.11337 65.705719 235.64485
134.59778 65.488274 236.6786
135.18752 65.490967 236.74115
135.67896 65.273392 237.77264
136.17514 65.055779 238.80312
136.86279 65.278435 237.89063
137.45457 65.280853 237.94731
138.04626 65.283188 238.00253
138.72398 65.5056 237.08458
139.3131 65.507782 237.13654
139.90211 65.509903 237.18703
140.41217 65.291832 238.20828
141.00345 65.293816 238.25598
141.52058 65.075638 239.2748
142.18579 65.297577 238.34685
142.63838 64.859177 240.33609
143.23421 64.860901 240.37814
143.76555 64.642471 241.39204
144.48767 65.08419 239.48421
145.0809 65.085709 239.52156
145.73126 65.30719 238.58368
146.32198 65.308563 238.61792
146.86029 65.089813 239.62479
147.35342 64.650986 241.60461
147.9037 64.432137 242.60912
148.50386 64.433258 242.63792
149.104 64.434311 242.66521
149.70409 64.435287 242.69099
150.26625 64.216194 243.69003
150.90417 64.437057 242.73805
151.4711 64.217834 243.73427
152.0428 63.998562 244.72911
152.67581 64.219223 243.77246
153.2523 63.999813 244.76447
153.90388 64.440338 242.82944
154.48274 64.220802 243.81848
155.10362 64.441193 242.8555
155.68726 64.221527 243.84164
156.31711 64.661774 241.90016
156.90314 64.441986 242.88336
157.49397 64.222137 243.86508
158.09619 64.222198 243.86992
158.69426 64.002228 244.84871
159.29538 63.562172 246.80157
159.90483 63.56205 246.80186
160.51123 63.781857 245.82515
161.11829 63.781597 245.82246
161.72536 63.781269 245.81825
162.32214 64.000885 244.83705
162.93953 63.780437 245.80524
163.54665 63.779919 245.79646
164.1888 63.339321 247.73689
164.82069 63.118664 248.70029
165.4351 63.117943 248.68681
166.07428 62.897144 249.64696
166.664 63.116291 248.65526
167.2785 63.115376 248.63715
167.89304 63.114376 248.61755
168.50761 63.113312 248.59642
169.08542 63.332218 247.59891
169.69766 63.331028 247.57477
170.26834 63.549805 246.57451
170.87827 63.548485 246.54741
171.44179 63.767147 245.54439
172.14709 63.325584 247.46288
172.81085 63.103985 248.40521
173.42581 63.102375 248.37172
174.09691 62.880623 249.31056
174.7144 62.878868 249.27383
175.21016 63.317219 247.28841
175.82295 63.315338 247.24887
176.50157 63.093277 248.18108
177.11693 63.091248 248.13826
177.80292 62.869019 249.06686
178.63977 62.206448 251.93898
179.18964 62.424297 250.91823
179.81258 62.421947 250.86865
180.43559 62.419521 250.81747
181.0587 62.417027 250.76469
181.51181 62.854805 248.76686
182.39267 62.191612 251.62595
183.01849 62.188873 251.56821
183.64441 62.186058 251.50885
184.27045 62.183163 251.44794
184.89658 62.180187 251.38539
185.62238 61.956902 252.29156
186.35313 61.733501 253.19566
187.08885 61.509998 254.09761
187.82953 61.286392 254.99741
188.57516 61.062675 255.89502
189.10249 61.279465 254.85239
189.73918 61.275875 254.7774
190.25952 61.492531 253.73235
190.65623 61.929485 251.71806
191.28609 61.925686 251.63904
192.16357 61.481041 253.49344
192.79857 61.477039 253.41051
193.56232 61.252541 254.2928
194.20004 61.248344 254.20622
194.70447 61.464508 253.1517
195.3401 61.460152 253.0621
196.11421 61.235229 253.93639
196.89334 61.010185 254.80826
197.67751 60.785019 255.6777
198.75789 60.118656 258.47366
199.70502 59.672649 260.30154
200.21072 59.888149 259.23514
200.55887 60.324181 257.20441
201.36343 60.098389 258.06226
202.01534 60.093079 257.95505
202.34708 60.528957 255.92184
202.99452 60.523487 255.81197
203.97229 60.07655 257.62289
204.45757 60.291542 256.54782
205.10811 60.285755 256.43222
205.93124 60.059109 257.27487
206.93427 59.611553 259.07434
207.41562 59.826172 257.99304
208.43134 59.378284 259.78668
209.09285 59.371876 259.66037
209.57004 59.586239 258.57449
210.22963 59.579636 258.44501
210.88948 59.572929 258.31369
211.35771 59.787048 257.2243
211.82133 60.001114 256.13409
212.67387 59.773148 256.95343
213.53162 59.545002 257.76996
214.59622 59.095642 259.53781
215.26265 59.088219 259.39432
216.34253 58.638481 261.15518
217.0145 58.63076 261.00687
217.89822 58.401772 261.80865
218.7872 58.172615 262.60739
219.6814 57.943268 263.40311
220.7997 57.492504 265.14606
221.48553 57.484055 264.9852
222.39551 57.254173 265.77155
222.85828 57.466774 264.65756
223.54517 57.457954 264.49075
224.00125 57.670422 263.37451
224.6864 57.661381 263.20432
225.13583 57.873692 262.08591
225.81924 57.864449 261.91226
226.50305 57.855083 261.7366
227.43069 57.624031 262.50314
227.87177 57.835979 261.37918
228.55672 57.826244 261.19739
229.49295 57.594723 261.95581
230.43454 57.362999 262.71085
231.63736 56.909332 264.40338
232.59216 56.677177 265.15082
233.2915 56.666656 264.95517
234.51788 56.212288 266.63513
234.95728 56.423325 265.49567
235.92865 56.190468 266.23029
236.63467 56.179379 266.0246
237.0679 56.390182 264.88074
238.04807 56.156834 265.60666
238.75542 56.14539 265.39435
238.90179 56.578098 263.31238
239.88826 56.344337 264.03012
241.73729 55.443722 267.54071
241.87753 55.876217 265.45432
242.58966 55.864174 265.23004
243.88864 55.407333 266.86319
244.31096 55.617386 265.7037
244.72874 55.827423 264.54355
246.04411 55.370022 266.16495
247.06674 55.13488 266.85413
248.09488 54.899544 267.53934
249.74493 54.218834 270.07028
250.4783 54.205719 269.82162
250.89885 54.415222 268.64734
251.63062 54.402 268.39474
252.36282 54.38871 268.13974
251.81226 55.266685 264.20007
252.53531 55.25346 263.94379
253.58459 55.017265 264.60385
254.63937 54.780922 265.2597
255.36874 54.767464 264.99438
256.76535 54.307861 266.55862
257.50055 54.294266 266.28656
258.57462 54.057503 266.92612
259.65414 53.820633 267.56137
260.39557 53.806931 267.28
261.82947 53.346642 268.81863
262.92523 53.10955 269.44055
263.32413 53.319176 268.23947
264.4256 53.082077 268.85443
265.53241 52.844933 269.4649
265.92706 53.054848 268.25824
266.67819 53.041359 267.95636
267.79333 52.804359 268.55621
268.54739 52.791054 268.24829
269.30161 52.777878 267.93787
270.05594 52.764854 267.62494
271.93228 52.080605 270.00964
272.6944 52.067818 269.68851
273.45651 52.055237 269.36493
273.83701 52.266815 268.14203
274.5965 52.254761 267.81458
274.96921 52.466988 266.59006
275.33667 52.679565 265.36539
275.69885 52.892563 264.1405
60.10508 62.981087 226.77313
59.968246 62.547283 228.8445
60.616142 62.556583 229.12817
60.879517 62.34483 230.30592
61.912346 62.575909 229.68933
62.940178 62.807117 229.0685
64.717125 63.480816 226.64464
65.355255 63.491005 226.91364
65.993347 63.501347 227.18054
66.261902 63.290768 228.34792
66.535431 63.080402 229.51526
66.813904 62.870232 230.68257
67.45919 62.881191 230.94412
67.744942 62.671337 232.11023
68.749222 62.903343 231.46083
70.102547 63.356144 229.89856
71.09375 63.588051 229.23988
72.079666 63.819912 228.57709
72.713547 63.831043 228.82188
73.691353 64.06282 228.15195
73.980484 63.853355 229.30515
74.952667 64.085068 228.62907
75.58287 64.096199 228.86447
76.546875 64.327766 228.18138
76.842323 64.118408 229.32901
77.800613 64.349854 228.63991
78.100418 64.140533 229.78519
79.052994 64.371811 229.09012
79.357124 64.162506 230.23306
79.984932 64.173431 230.4539
80.612373 64.184296 230.67268
81.553444 64.415207 229.96587
82.177635 64.425911 230.1797
82.80146 64.436562 230.39146
83.424889 64.447128 230.60126
84.351921 64.677567 229.88206
84.369133 64.248177 231.9425
85.2929 64.478409 231.21849
85.91481 64.488678 231.42024
86.83033 64.71862 230.68979
87.740463 64.948402 229.95578
88.356239 64.958328 230.15001
88.68512 64.74852 231.27487
89.586647 64.977905 230.53264
90.201286 64.987556 230.72107
90.536499 64.777588 231.84241
91.982559 65.445549 229.22095
92.865196 65.674286 228.46577
93.470901 65.683434 228.64435
94.34536 65.91185 227.88327
94.681236 65.701431 228.99588
95.285866 65.710281 229.16887
95.890144 65.719025 229.34
96.494064 65.727661 229.50932
97.097656 65.736206 229.67677
98.209419 66.182968 227.95844
98.555588 65.972099 229.06361
99.405006 66.199402 228.28162
100.0023 66.207451 228.44054
100.59928 66.215408 228.59766
101.19594 66.223251 228.75301
101.31337 65.793076 230.79837
101.91431 65.800781 230.95146
102.28043 65.589485 232.04991
103.34735 66.034752 230.30458
103.71532 65.823273 231.40013
104.76933 66.268173 229.6483
105.58855 66.494087 228.84187
106.18033 66.501083 228.9827
106.77182 66.50798 229.12184
107.58037 66.733459 228.30798
107.7391 66.302795 230.34685
108.11978 66.090775 231.43388
108.92506 66.315926 230.6144
109.51765 66.322342 230.74564
110.31506 66.547218 229.92119
111.10733 66.771942 229.09399
111.89445 66.996521 228.26411
111.88546 66.347015 231.25395
112.6721 66.571396 230.42078
113.06789 66.358765 231.49817
114.03959 66.801315 229.70363
114.62535 66.806915 229.82065
115.58195 67.249138 228.01993
116.34547 67.472824 227.17427
117.10392 67.696396 226.32605
117.14438 67.046631 229.31322
117.72661 67.051727 229.42177
117.78859 66.40197 232.40985
117.86497 65.752251 235.39897
118.29272 65.538986 236.46664
118.72515 65.325668 237.53354
119.16225 65.112312 238.59966
119.92639 65.335205 237.74001
120.52673 65.339836 237.84082
121.12688 65.344383 237.94002
121.88077 65.56694 237.0739
122.78108 66.007462 235.24129
123.37343 66.011688 235.33455
123.96561 66.015839 235.42622
124.70182 66.23793 234.55112
125.43302 66.459908 233.67371
125.88054 66.245758 234.72595
126.46967 66.249557 234.81102
127.19315 66.471245 233.92792
127.51543 66.038956 235.94354
128.10654 66.042526 236.02431
128.69753 66.046005 236.10358
129.16357 65.831505 237.14922
129.75671 65.834854 237.22568
130.70959 66.491768 234.3949
131.29523 66.494919 234.46741
131.99585 66.715851 233.5692
132.80421 67.154526 231.69948
133.27194 66.939583 232.73631
133.7444 66.724579 233.77223
134.22159 66.509529 234.80717
134.70349 66.294426 235.84116
135.29076 66.297058 235.90337
135.77971 66.081848 236.93512
136.17763 65.648811 238.93712
136.8652 65.869019 238.02397
137.45691 65.871384 238.08064
137.95999 65.655945 239.10776
138.64005 65.875916 238.18944
139.1478 65.660347 239.21397
139.82286 65.880157 238.29219
140.33527 65.664459 239.31416
141.00536 65.884117 238.38898
141.5965 65.886002 238.4351
142.33084 66.323166 236.53299
142.77856 65.889549 238.52289
143.36951 65.89122 238.56458
143.83156 65.457504 240.55252
144.4892 65.676712 239.61746
145.08235 65.6782 239.6548
145.73264 65.897247 238.71631
146.32329 65.89859 238.75053
146.91389 65.899872 238.78325
147.35461 65.248192 241.7388
147.90483 65.031738 242.7438
148.50493 65.032822 242.77258
149.105 65.033859 242.79985
149.70503 65.034828 242.82559
150.34291 65.253334 241.87454
150.94046 65.254166 241.89722
151.53798 65.254944 241.91837
152.07414 64.82045 243.88918
152.70468 65.038681 242.93187
153.25284 64.60408 244.90002
153.90437 65.03978 242.96388
154.46213 64.605057 244.92926
155.06674 64.605438 244.94164
155.67134 64.605759 244.95253
156.28973 64.823616 243.98592
156.88051 64.606224 244.96971
157.48509 64.606354 244.97606
158.09624 64.824005 244.00487
158.69423 64.60643 244.98422
159.29527 64.171204 246.93813
159.90466 64.171082 246.93843
160.511 64.388474 245.9612
161.12346 64.170631 246.93454
161.72499 64.387909 245.95427
162.33202 64.387527 245.94855
162.92635 64.604675 244.96532
163.56119 64.168983 246.90845
164.17067 64.168404 246.89813
164.82001 63.732571 248.83797
165.43436 63.731857 248.82451
166.04872 63.731079 248.80952
166.63597 63.947845 247.81732
167.27756 63.729321 248.77495
167.89201 63.728348 248.75536
168.50652 63.72731 248.73421
169.12106 63.726204 248.71153
169.69644 63.942646 247.71213
170.26706 64.159042 246.71132
170.87691 64.157745 246.68425
171.44038 64.374031 245.68071
172.09677 64.154945 246.62555
172.75804 63.935791 247.56856
173.37051 63.934223 247.53522
174.03912 63.714912 248.47478
174.77112 63.277843 250.3868
175.26923 63.711403 248.40016
175.88437 63.709545 248.36053
176.56531 63.489929 249.29314
177.11488 63.705624 248.2766
177.8008 63.485844 249.20578
178.63754 62.830536 252.07959
179.11197 63.263752 250.08524
179.65462 63.479187 249.06299
180.27274 63.476826 249.01225
180.80832 63.692142 247.98747
181.42421 63.689644 247.93381
182.21509 63.251514 249.82274
182.74612 63.466633 248.79364
183.5493 63.028309 250.67828
184.36223 62.589859 252.56042
184.8936 62.804745 251.52657
185.61931 62.583916 252.43338
186.34998 62.362988 253.33807
187.08559 62.141949 254.24068
187.82617 61.920811 255.14108
188.57172 61.699562 256.03934
188.98734 62.131897 254.02666
189.73558 61.910477 254.92133
190.13937 62.342705 252.90681
190.65251 62.556973 251.86052
191.16095 62.771191 250.81319
192.03592 62.331455 252.6691
192.79456 62.109554 253.55434
193.42961 62.105534 253.46983
193.93381 62.319443 252.41653
194.56676 62.315266 252.32906
195.19987 62.311001 252.2399
195.97144 62.088589 253.11514
196.74805 61.866055 253.98804
197.67282 61.425297 255.82391
198.60748 60.984375 257.65665
199.55205 60.543304 259.48611
200.05524 60.756496 258.41962
200.40091 61.187805 256.38828
201.35822 60.746342 258.21069
202.01001 60.741119 258.10361
202.18155 61.390469 255.10678
202.98904 61.16687 255.95969
203.96667 60.724861 257.77185
204.28439 61.155823 255.73491
205.10229 60.931843 256.58087
206.09764 60.489388 258.38474
206.75343 60.48344 258.26489
207.23224 60.695766 257.18359
208.42502 60.034451 259.93814
208.90433 60.246567 258.85324
209.56355 60.240185 258.72571
210.41 60.015228 259.55411
211.2616 59.790108 260.37976
211.73463 60.001873 259.28897
212.20305 60.213573 258.19736
213.06036 59.988083 259.01645
213.52444 60.199608 257.92215
214.18558 60.192463 257.78177
215.05109 59.966568 258.59369
215.92181 59.740494 259.40274
216.58875 59.732944 259.25571
217.89035 59.069099 261.96454
218.99307 58.623734 263.71606
219.67322 58.615704 263.56049
220.79135 58.169918 265.30478
221.47707 58.161591 265.14413
222.16315 58.153145 264.98151
222.39716 58.582401 262.91855
223.30765 58.354836 263.70169
223.7612 58.565029 262.58572
224.44376 58.556168 262.41629
224.89063 58.766209 261.29819
225.80997 58.538067 262.07147
226.25266 58.747936 260.95056
227.1777 58.519485 261.71857
227.86212 58.510017 261.53903
228.79535 58.281212 262.30103
229.7339 58.052223 263.0596
230.67783 57.823036 263.81479
231.8829 57.374348 265.50806
232.84003 57.144745 266.25562
233.80252 56.914944 266.99966
234.77039 56.684944 267.74017
235.21216 56.893661 266.59967
236.18585 56.663349 267.33441
236.89424 56.65237 267.12823
237.32988 56.86084 265.98334
238.03668 56.849655 265.77353
239.02209 56.61871 266.49658
239.17093 57.046646 264.41293
239.87657 57.03516 264.19724
241.72531 56.144463 267.71045
241.57736 56.792042 264.69113
242.57755 56.560322 265.39917
243.87631 56.108532 267.03372
244.59424 56.096336 266.80359
245.01447 56.304031 265.6423
246.33215 55.85162 267.26437
247.05399 55.839088 267.02646
248.08197 55.606358 267.71252
249.11545 55.373432 268.39459
249.53299 55.580761 267.22327
250.25917 55.567841 266.97507
251.61728 55.114258 268.57031
252.03119 55.321442 267.39355
252.11975 55.749035 265.29498
252.84523 55.735889 265.03809
253.57117 55.722698 264.77878
253.96921 55.92997 263.59863
255.35516 55.475597 265.1705
256.75162 55.020996 266.73627
257.82272 54.78685 267.38019
258.89926 54.552605 268.01971
259.64029 54.539001 267.74112
260.03821 54.746208 266.54715
261.46948 54.290962 268.08829
262.21414 54.277344 267.80121
262.95914 54.263756 267.51166
264.41168 53.808243 269.03741
265.51852 53.573624 269.64877
266.272 53.560066 269.34866
266.66452 53.767708 268.14017
267.77972 53.533195 268.74091
268.53387 53.519928 268.43323
269.65704 53.285538 269.02579
270.04266 53.493782 267.81033
271.91907 52.816902 270.19714
273.05783 52.582726 270.77582
273.82269 52.570091 270.45135
274.58755 52.557678 270.12436
275.35236 52.545502 269.79489
274.95718 53.198235 266.77728
275.71417 53.186729 266.44623
276.47095 53.175514 266.11276
61.290871 64.260345 224.25031
61.146782 63.831402 226.31943
61.012993 63.402863 228.39096
61.274101 63.193558 229.56808
61.922455 63.203365 229.84749
62.570877 63.213375 230.12477
64.350395 63.879761 227.7
64.991211 63.889996 227.96986
65.26001 63.681721 229.13976
65.533798 63.473663 230.30965
66.179451 63.484379 230.57527
66.096214 63.058144 232.64928
67.108475 63.287624 232.00642
67.396881 63.080227 233.17392
68.76049 63.528175 231.61639
70.11377 63.976013 230.05269
71.104965 64.205414 229.39317
72.090866 64.434753 228.72955
73.071449 64.664032 228.06184
74.0467 64.89325 227.39011
74.67498 64.904251 227.62851
75.642067 65.133331 226.94972
75.930649 64.926239 228.09903
76.557976 64.93721 228.33119
76.853447 64.730209 229.47916
77.482635 64.741196 229.70804
77.784966 64.534256 230.85458
79.063965 64.980865 229.23894
79.689568 64.991676 229.46071
80.314819 65.002441 229.68042
81.256157 65.23085 228.97479
81.878151 65.24147 229.18954
82.188316 65.034409 230.32727
82.812057 65.044937 230.53882
83.435425 65.055389 230.74835
84.058395 65.065765 230.95586
84.680984 65.076073 231.16138
85.602142 65.303703 230.43568
86.221466 65.313812 230.63638
87.134361 65.541153 229.90431
88.04187 65.768318 229.16872
88.655052 65.778084 229.36194
88.981384 65.570557 230.48636
89.880287 65.797333 229.74257
90.492348 65.806824 229.92998
90.546005 65.382042 231.98636
91.715332 65.825516 230.29909
92.600311 66.051727 229.54388
93.208397 66.060791 229.72298
94.354271 66.503632 228.02344
94.95668 66.512421 228.19736
95.822861 66.737991 227.42961
96.160431 66.529701 228.53966
97.02095 66.75499 227.76686
97.362793 66.54657 228.87462
98.217682 66.771584 228.09685
98.312027 66.346344 230.14557
98.91449 66.354446 230.30739
99.516617 66.362457 230.46741
100.11842 66.370361 230.62566
100.71991 66.378159 230.78207
101.32106 66.385849 230.93675
101.92191 66.393448 231.08965
102.52245 66.400932 231.24078
103.35471 66.624756 230.44182
103.95218 66.632011 230.58885
105.00358 67.071915 228.83511
105.82021 67.295265 228.02736
106.18722 67.0858 229.11815
106.99836 67.308876 228.30585
107.58702 67.315536 228.44254
107.96056 67.10585 229.52997
108.12631 66.679916 231.56979
108.93147 66.902542 230.7496
109.31645 66.692688 231.83475
109.91113 66.698936 231.96469
110.50555 66.705078 232.09297
111.09972 66.711121 232.2196
111.49593 66.501015 233.3007
112.4826 66.938965 231.5112
113.26645 67.160706 230.67517
114.04517 67.382309 229.83656
114.63083 67.38781 229.95345
115.5873 67.825104 228.15149
116.16763 67.830368 228.26424
116.9284 68.051453 227.4158
117.14948 67.624756 229.44493
117.55585 67.41391 230.51384
117.62022 66.771347 233.50389
117.86992 66.344635 235.53363
117.96068 65.702118 238.5253
118.56392 65.706955 238.63127
119.33058 65.92746 237.77296
119.93102 65.932098 237.87527
120.69 66.152374 237.01251
121.60027 66.588242 235.18344
122.34676 66.808243 234.31551
122.93675 66.812469 234.40984
123.37756 66.60096 235.46764
124.11627 66.820671 234.5938
124.5616 66.609024 235.64925
125.29513 66.828537 234.77155
125.74501 66.61676 235.82458
126.33647 66.620499 235.90993
127.19676 67.055283 234.05933
127.65103 66.843292 235.10843
128.23965 66.846786 235.1888
128.95535 67.065704 234.29945
129.41649 66.853531 235.34494
130.0047 66.856796 235.42068
130.83269 67.290909 233.55672
131.41582 67.293991 233.62883
131.99883 67.296997 233.69946
132.6944 67.515366 232.79857
133.27477 67.518219 232.86588
133.74716 67.305573 233.90225
134.22427 67.09288 234.93768
134.80916 67.095535 235.00104
135.39392 67.098114 235.06293
135.8804 66.885254 236.09489
136.27585 66.456985 238.09766
136.86757 66.459381 238.15576
137.36827 66.246368 239.18465
137.96222 66.248627 239.23996
138.55611 66.250824 239.29376
139.06619 66.037628 240.31903
139.82489 66.470306 238.42369
140.41611 66.47229 238.47278
141.00725 66.474197 238.52036
141.59831 66.476044 238.56645
142.33258 66.908371 236.66322
142.84947 66.694794 237.68007
143.43793 66.696426 237.72153
143.89752 66.267494 239.71034
144.49068 66.269012 239.74915
145.0242 66.055222 240.76118
145.67682 66.271851 239.82228
146.26982 66.273178 239.85658
146.91512 66.489655 238.91428
147.35579 65.845184 241.87135
147.90593 65.631104 242.87689
148.46086 65.416969 243.88113
149.10597 65.633194 242.93285
149.62535 65.203735 244.91003
150.26797 65.41983 243.95865
150.87029 65.420654 243.98146
151.50563 65.636604 243.02678
152.01349 64.991722 245.97479
152.67703 65.422737 244.04092
153.25339 65.208122 245.03394
153.90483 65.638992 243.09676
154.48357 65.424255 244.08685
155.10432 65.639816 243.12276
155.72025 65.855316 242.15706
156.33134 66.07074 241.18983
156.90346 65.640579 243.15057
157.49416 65.425529 244.13339
158.10283 65.640778 243.16164
158.69418 65.210419 245.11809
159.29694 64.995178 246.09648
159.9032 65.210251 245.12019
160.50772 65.210052 245.11903
161.11771 64.994629 246.09291
161.71677 65.209503 245.11214
162.32132 65.209129 245.10641
162.92587 65.208694 245.09923
163.54555 64.993011 246.06696
164.15256 64.992447 246.0567
164.79941 64.561432 247.99767
165.43361 64.345535 248.96059
166.04791 64.344772 248.94562
166.6351 64.559151 247.9529
167.27661 64.343056 248.91106
167.89102 64.342087 248.89151
168.50545 64.341072 248.87039
169.11993 64.339981 248.84775
169.73445 64.338837 248.82355
170.34901 64.337608 248.79785
170.9196 64.551552 247.79503
171.53186 64.550201 247.76636
172.14415 64.548798 247.73613
172.7565 64.54731 247.70441
173.42258 64.330521 248.64619
174.03746 64.328896 248.61124
174.71089 64.111938 249.54955
175.26741 64.325439 248.53671
175.88249 64.323624 248.49709
176.56335 64.106445 249.4303
177.181 64.104477 249.38744
177.79871 64.10244 249.34302
178.63536 63.454395 252.21849
179.10973 63.882824 250.22314
179.65231 64.095901 249.20039
180.27036 64.093582 249.1497
180.72327 64.521873 247.15141
181.33667 64.519424 247.09802
182.21248 63.870815 249.96089
182.74345 64.083565 248.93134
183.54652 63.650105 250.81712
184.35938 63.216526 252.70041
184.98776 63.21365 252.63774
185.51675 63.426109 251.60207
186.34686 62.992222 253.47882
186.97803 62.989101 253.41109
187.71609 62.770447 254.31236
188.45914 62.551682 255.21152
188.9839 62.763779 254.16823
189.618 62.760326 254.0937
190.01932 63.187809 252.07846
190.64885 63.184219 252.00125
191.15723 63.39608 250.95349
191.90836 63.176788 251.84195
192.66446 62.95739 252.72812
193.297 62.953457 252.64401
193.66772 63.380627 250.62297
194.42915 63.160942 251.50357
195.1956 62.941139 252.38182
195.8288 62.936863 252.29111
196.74356 62.501171 254.13129
197.81134 61.849648 256.93427
198.60275 61.629322 257.80225
199.25122 61.62458 257.70261
199.89989 61.619747 257.60123
200.3959 61.83057 256.53372
201.19781 61.609802 257.39331
202.00478 61.388897 258.25037
202.49655 61.599476 257.17844
203.14624 61.59417 257.06839
203.96114 61.372917 257.91898
204.61369 61.36739 257.80502
205.43636 61.145878 258.65082
206.0918 61.140137 258.53287
206.74747 61.134296 258.41312
207.22621 61.344299 257.33142
208.2392 60.906319 259.12805
208.53392 61.332138 257.08395
209.37265 61.109882 257.91632
210.21652 60.887482 258.74588
211.06555 60.664917 259.57269
211.72789 60.658295 259.43936
212.3905 60.651569 259.30417
213.05339 60.64473 259.16714
213.5174 60.853951 258.07245
214.17842 60.846912 257.93225
214.63565 61.055992 256.83539
215.70786 60.616268 258.60046
216.58119 60.392597 259.40781
217.67117 59.952454 261.16534
218.77127 59.512081 262.91876
219.66518 59.287846 263.71597
220.34552 59.279831 263.55859
221.02621 59.27169 263.39929
221.93095 59.046982 264.18835
222.16246 59.471535 262.12509
222.84172 59.463074 261.96045
223.29025 59.671032 260.84534
223.96776 59.662357 260.67737
224.64563 59.653572 260.50739
225.80084 59.211388 262.22879
226.48438 59.202301 262.05353
227.1683 59.193081 261.87628
227.85263 59.183743 261.69702
228.78568 58.957523 262.45975
229.72409 58.731102 263.21915
230.66783 58.504498 263.97513
231.87273 58.060825 265.66974
232.82968 57.833786 266.41818
233.79201 57.606575 267.16302
234.49649 57.596149 266.96432
234.66998 58.019634 264.88489
235.63857 57.791977 265.62192
236.34187 57.781216 265.41748
236.77243 57.987484 264.27368
237.47412 57.976532 264.06558
238.45441 57.748249 264.79099
238.87886 57.954277 263.64285
239.58189 57.942986 263.42816
241.42787 57.062241 266.94476
241.56555 57.48531 264.85733
242.8562 57.038765 266.49805
243.86415 56.809422 267.20224
244.87759 56.57988 267.90259
245.00215 57.002766 265.81082
246.31964 56.555408 267.4343
247.04138 56.543026 267.19666
247.45793 56.748215 266.02975
248.48625 56.517975 266.71439
249.52005 56.287571 267.39493
250.8725 55.839184 268.99579
252.23547 55.390541 270.59082
252.97256 55.377438 270.33463
253.38942 55.582195 269.15427
253.80168 55.786987 267.97324
254.20938 55.991802 266.7916
254.61243 56.196678 265.60925
255.6725 55.965343 266.26266
256.73804 55.733891 266.91177
257.47321 55.720524 266.64029
258.54715 55.48888 267.28168
259.28564 55.47543 267.0043
259.68106 55.680328 265.811
261.10974 55.230133 267.35458
261.85187 55.216652 267.06879
262.24332 55.421684 265.87
263.69073 54.971245 267.39923
264.79248 54.739258 268.01343
265.18231 54.944473 266.80814
266.2897 54.712524 267.41531
267.4024 54.480576 268.01791
268.52039 54.248627 268.616
269.64368 54.016716 269.20944
271.14349 53.566002 270.70059
272.27975 53.33416 271.28372
273.4212 53.102394 271.86221
274.18878 53.089714 271.53687
274.95639 53.077248 271.20898
275.724 53.065002 270.87863
275.33173 53.710297 267.85822
276.09152 53.698685 267.52625
276.85114 53.687378 267.1918
60.123367 64.225754 227.08621
60.376854 64.018356 228.26463
61.02269 64.02771 228.54694
61.28405 63.820892 229.72452
62.314651 64.047081 229.10533
62.960716 64.05706 229.38136
63.983765 64.283501 228.7547
64.627251 64.293762 229.02548
64.526825 63.871758 231.09958
65.175224 63.88237 231.36821
65.45665 63.676983 232.53949
66.107307 63.687843 232.80487
67.119614 63.914841 232.16115
67.767395 63.925831 232.42116
68.771706 64.152832 231.7701
70.124939 64.595703 230.20496
71.116119 64.822586 229.54462
72.800323 65.481049 227.0564
73.429176 65.491928 227.2988
74.057762 65.502846 227.53905
74.34446 65.298065 228.692
75.314034 65.524673 228.01328
75.2686 65.10437 230.08058
76.23497 65.330887 229.39676
76.532974 65.126282 230.54601
77.493629 65.352661 229.85614
78.122437 65.363503 230.08269
79.398781 65.805061 228.46472
80.021828 65.81572 228.68536
80.644508 65.82634 228.90395
81.583229 66.052139 228.19664
82.516571 66.277817 227.48552
82.510277 65.857819 229.5475
83.131447 65.868179 229.75795
83.752235 65.878479 229.96638
84.068726 65.673653 231.10095
84.389847 65.468834 232.23514
85.313362 65.693939 231.50946
86.231499 65.918884 230.78018
86.850349 65.92878 230.97867
88.051651 66.368271 229.31087
88.664742 66.377914 229.50388
89.563881 66.602226 228.76122
89.889793 66.396912 229.88405
90.501755 66.406281 230.07124
90.834358 66.200897 231.19254
91.724541 66.424721 230.43993
92.335373 66.433792 230.62141
93.217369 66.65731 229.86279
94.363068 67.095154 228.16193
94.96537 67.103828 228.33562
95.831413 67.326828 227.56711
96.430527 67.335266 227.73645
97.029305 67.343597 227.90393
97.627731 67.351822 228.06966
98.225822 67.359955 228.23352
98.571861 67.153717 229.33939
99.420998 67.375916 228.55591
100.0181 67.383736 228.71442
100.37054 67.177284 229.81694
100.96945 67.184937 229.97255
101.32866 66.978378 231.07341
101.92939 66.985855 231.22615
102.52982 66.993225 231.37711
103.36195 67.214523 230.57739
104.18887 67.435638 229.77478
105.01056 67.656601 228.96924
105.60242 67.663483 229.11143
105.97182 67.456367 230.20319
106.78529 67.676941 229.39073
107.3763 67.683517 229.52786
107.53738 67.262367 231.56921
108.13275 67.268806 231.70406
109.14771 67.702675 229.92909
109.53017 67.495132 231.01407
110.1223 67.501244 231.14336
110.91676 67.720947 230.31531
111.50595 67.726852 230.44073
111.89719 67.519012 231.52122
112.68359 67.738365 230.68665
113.07924 67.53038 231.76488
113.86028 67.749496 230.92606
114.63622 67.968475 230.08461
115.40706 68.187317 229.2406
115.98975 68.19252 229.35368
116.75283 68.41111 228.50507
116.9763 67.989189 230.53561
117.56079 67.994141 230.64436
117.79845 67.572166 232.67447
118.04565 67.150185 234.70473
118.47084 66.941574 235.77281
119.0667 66.946274 235.87738
119.66237 66.950882 235.98035
120.41902 67.168739 235.11809
121.01189 67.173157 235.21748
121.91717 67.604065 233.38644
122.65869 67.821564 232.51704
122.94089 67.39917 234.54086
123.38163 67.190002 235.59912
123.82706 66.980782 236.65654
124.27718 66.771515 237.71315
125.01546 66.988571 236.83554
125.47012 66.779167 237.88976
126.20325 66.996033 237.00833
127.06584 67.425949 235.15691
127.65452 67.429451 235.23872
128.24306 67.432877 235.31903
129.08586 67.862434 233.46031
129.66928 67.865677 233.53691
130.13023 67.655777 234.5813
130.9557 68.085022 232.71587
131.53633 68.088028 232.7876
132.11685 68.090973 232.85785
132.69725 68.093826 232.92661
133.16727 67.883614 233.96466
133.64203 67.67334 235.00179
134.01608 67.250031 237.00928
134.60571 67.252655 237.07312
135.29584 67.468185 236.16357
135.78467 67.257698 237.19623
136.37401 67.260101 237.25557
136.96324 67.262451 237.31337
137.46147 67.051796 238.34248
137.8759 66.628159 240.34364
138.47212 66.630325 240.3976
138.98456 66.419518 241.42352
139.66431 66.634445 240.50098
140.33914 66.849289 239.57654
141.08554 67.276947 237.67609
141.67413 67.278748 237.72197
142.40591 67.706207 235.81743
142.78189 67.06929 238.78384
143.3727 67.0709 238.82544
143.77025 66.433907 241.79041
144.36816 66.43541 241.82947
144.90646 66.224014 242.8423
145.621 66.651047 240.92769
146.21634 66.652351 240.96213
146.86397 66.866409 240.01941
147.30701 66.229134 242.97816
147.90703 66.230255 243.00838
148.46188 66.018501 244.01314
149.10693 66.2323 243.06429
149.66655 66.020432 244.06625
150.34459 66.446899 242.13782
150.90654 66.234909 243.1369
151.50635 66.235649 243.15811
152.07545 66.023544 244.15445
152.70587 66.236954 243.19604
153.30559 66.237503 243.21277
153.92873 66.450775 242.25119
154.48396 66.02565 244.21863
155.08604 66.026031 244.23091
155.67191 65.81356 245.21869
156.26257 65.601036 246.20503
156.84665 65.175682 248.16696
157.44035 64.750267 250.12747
158.06999 65.175873 248.17825
158.67749 64.963104 249.15871
159.29156 64.963043 249.16057
159.9037 65.601242 246.22958
160.50749 65.813835 245.25128
161.11742 65.600815 246.22568
161.73218 65.387741 247.19853
162.33119 65.600143 246.21576
162.9381 65.599701 246.20854
163.54501 65.599213 246.19978
164.15196 65.598663 246.18951
164.75893 65.598053 246.17776
165.36591 65.597366 246.16452
165.99765 65.383835 247.12651
166.63425 65.170235 248.08685
167.24614 65.169357 248.06894
167.85806 65.168419 248.04944
168.50441 64.954613 249.00493
169.15559 64.74073 249.95872
169.73326 64.952408 248.95816
170.38936 64.738396 249.90866
170.96231 64.949951 248.90523
171.62332 64.735794 249.85246
172.19154 64.947227 248.84619
172.80624 64.94577 248.81436
173.42101 64.944244 248.78098
174.03581 64.942657 248.74603
174.6507 64.940994 248.70961
175.20476 65.152138 247.6964
175.88065 64.937469 248.63205
176.49573 64.935623 248.59091
177.11089 64.933693 248.54828
177.7261 64.931702 248.50407
178.56026 64.290924 251.38138
179.10753 64.501678 250.35934
179.65005 64.712387 249.33612
180.18784 64.923027 248.31175
180.80348 64.920685 248.25977
181.24919 65.34417 246.25951
182.12248 64.702827 249.12428
182.65099 64.913223 248.09447
183.54381 64.271667 250.95432
184.35655 63.842957 252.83871
185.08197 63.627129 253.74834
185.81235 63.411205 254.65587
186.44574 63.408203 254.58957
187.18359 63.192089 255.4931
187.81964 63.188919 255.42329
188.565 62.972614 256.32275
188.98051 63.395416 254.30811
189.84259 62.965862 256.17435
190.24869 63.388546 254.15759
190.88298 63.384998 254.07983
191.27484 63.807613 252.06154
191.78087 64.017059 251.01199
192.40834 64.013306 250.93028
193.16451 63.796299 251.81544
193.53275 64.218735 249.79373
194.29166 64.001541 250.67531
195.05557 63.784241 251.55455
195.68625 63.78006 251.46426
196.45778 63.562534 252.33914
197.52057 62.918365 255.14456
198.16148 62.913845 255.04787
198.95055 62.695942 255.91515
199.59427 62.691223 255.81467
200.23816 62.68642 255.71243
200.88228 62.681519 255.60854
201.68427 62.463161 256.46701
202.1711 62.671444 255.39551
203.30347 62.026035 258.17645
204.1207 61.807274 259.02728
204.77559 61.801819 258.91302
205.60056 61.582798 259.75906
206.25833 61.577129 259.64081
206.74162 61.784882 258.55957
207.22028 61.992561 257.47748
208.0535 61.773079 258.31503
208.34573 62.194187 256.27045
209.36638 61.760876 258.06332
210.21011 61.540997 258.89359
211.05902 61.320953 259.72113
211.91307 61.100769 260.54584
212.38376 61.307823 259.45291
213.04654 61.301094 259.31604
213.51047 61.508007 258.22095
214.17137 61.501087 258.0809
214.62852 61.707855 256.98367
215.90706 61.059261 259.70483
216.78271 60.838104 260.51239
217.66356 60.616795 261.31689
218.54964 60.395306 262.11844
219.65726 59.959709 263.86954
220.55626 59.737843 264.66443
221.01807 59.943798 263.55328
221.92265 59.721645 264.34308
222.15408 60.141476 262.27887
222.83324 60.133137 262.11447
223.51273 60.124695 261.94803
223.95906 60.330269 260.83118
224.8728 60.107437 261.60928
226.03029 59.670216 263.33139
226.71619 59.661228 263.15573
227.40247 59.652115 262.97806
228.08911 59.642887 262.79834
229.02449 59.419193 263.56125
229.7144 59.409695 263.37674
230.91127 58.971256 265.07684
231.8627 58.746994 265.82953
232.81949 58.522545 266.57874
233.52094 58.512428 266.38309
233.95964 58.716724 265.24478
234.65947 58.70639 265.04562
235.09157 58.910564 263.90512
236.06042 58.685371 264.64081
236.48843 58.889385 263.49744
236.9119 59.093357 262.35336
237.88704 58.867744 263.08105
238.58701 58.856754 262.86957
239.28745 58.845646 262.65591
241.13066 57.974838 266.17587
241.84198 57.963352 265.95468
242.84433 57.736782 266.6636
244.14522 57.295002 268.30029
245.16101 57.068005 269.00073
244.98996 57.701229 265.97723
246.00671 57.474033 266.67303
246.42274 57.677025 265.50815
246.83423 57.880013 264.34259
247.85739 57.652458 265.02972
249.19664 57.209404 266.6387
251.17265 56.335381 270.09183
252.53799 55.891727 271.68747
253.27751 55.878723 271.43069
253.69685 56.081131 270.24915
253.78842 56.499104 268.14545
253.87036 56.917194 266.04291
254.2709 57.119789 264.86121
254.99762 57.106747 264.59769
256.3913 56.662231 266.16736
257.7955 56.217518 267.73083
258.87192 55.988388 268.37219
259.61292 55.975006 268.09415
260.35431 55.961613 267.81363
261.44202 55.732277 268.4437
261.83823 55.934849 267.24509
262.22974 56.137516 266.04599
263.32358 55.90815 266.66656
264.77884 55.462612 268.19177
265.52737 55.44928 267.89426
266.63733 55.21981 268.50128
268.11627 54.774055 270.00983
268.87317 54.760849 269.7016
269.99905 54.53138 270.29489
271.13019 54.301956 270.88351
271.8927 54.289024 270.56561
273.03171 54.059776 271.146
273.79694 54.047134 270.82196
274.56219 54.034706 270.49536
274.94345 54.239098 269.26871
274.93304 54.660431 267.14532
275.69055 54.648827 266.81461
276.44791 54.637505 266.48145
60.132591 64.847977 227.24007
60.386368 64.643082 228.41891
61.032417 64.652466 228.7011
61.678558 64.662064 228.98119
62.706779 64.88578 228.36014
63.350471 64.895729 228.63492
64.371094 65.119659 228.00641
65.386604 65.343674 227.37366
65.281311 64.926468 229.44666
65.555412 64.723251 230.61736
66.201248 64.733902 230.88258
66.482651 64.531006 232.05212
67.130699 64.541885 232.31404
68.137756 64.76635 231.66536
69.496239 65.2043 230.10295
70.844368 65.64212 228.53439
71.830475 65.866394 227.87126
73.1604 66.303978 226.29153
73.786743 66.314743 226.53271
74.412804 66.325531 226.77177
74.697014 66.123062 227.92412
75.324982 66.133881 228.15996
75.279625 65.718369 230.2282
75.911949 65.72924 230.46172
76.212479 65.527016 231.61223
77.175575 65.750893 230.92244
77.806839 65.761665 231.14966
79.733398 66.624146 227.68756
80.353882 66.634659 227.90704
80.973984 66.645111 228.12453
81.593719 66.65551 228.33995
81.899208 66.453079 229.47865
81.586571 65.825203 232.46945
