ply
format ascii 1.0
comment PCL generated
element vertex 1596
property float x
property float y
property float z
element camera 0
property float view_px
property float view_py
property float view_pz
property float x_axisx
property float x_axisy
property float x_axisz
property float y_axisx
property float y_axisy
property float y_axisz
property float z_axisx
property float z_axisy
property float z_axisz
property float focal
property float scalex
property float scaley
property float centerx
property float centery
property int viewportx
property int viewporty
property float k1
property float k2
end_header
81.062569 125.3927 221.35211
81.984085 125.36384 220.61792
82.900116 125.33502 219.88005
83.810692 125.30626 219.13853
83.74147 125.35622 221.22966
84.970901 125.30132 219.53725
85.23056 125.32509 220.68091
86.129341 125.29649 219.92851
86.393105 125.3203 221.07018
87.598328 125.26561 219.36278
87.553909 125.31564 221.45204
88.133675 125.31335 221.64026
89.017853 125.28495 220.8746
88.08252 125.41339 225.82262
88.97084 125.38503 225.05493
90.151169 125.3306 223.32947
90.436447 125.35455 224.46465
90.726273 125.37851 225.59959
93.340309 125.19379 219.08078
93.331978 125.24392 221.16664
93.903183 125.24191 221.3374
94.474014 125.23992 221.50645
95.324547 125.21191 220.71417
95.892189 125.20998 220.87909
97.009735 125.15601 219.12024
97.571747 125.15416 219.2804
98.40361 125.1263 218.47644
98.694733 125.15052 219.59576
98.990448 125.17474 220.71481
99.027939 125.22498 222.79807
99.856026 125.19724 221.98689
100.42097 125.19551 222.13857
100.73015 125.2198 223.25513
101.54994 125.19215 222.43707
102.36452 125.16454 221.61617
102.6777 125.18888 222.72916
103.4868 125.16134 221.90375
104.29071 125.13383 221.07555
104.84869 125.13229 221.2148
105.88301 125.07893 219.4108
106.19969 125.10336 220.51717
106.75443 125.1019 220.65114
107.53987 125.07455 219.81099
108.09164 125.07314 219.94133
108.19099 125.12354 222.01767
108.74715 125.12215 222.14613
109.30309 125.12079 222.27301
109.85877 125.11945 222.39842
110.63057 125.09226 221.54633
111.18336 125.09097 221.66818
111.73593 125.0897 221.78854
112.28829 125.08845 221.90739
112.63383 125.11306 223.00287
112.98402 125.13768 224.09787
113.74236 125.11064 223.23421
114.49563 125.08363 222.36809
114.85007 125.10831 223.45966
115.5981 125.08134 222.58961
115.95702 125.10605 223.67926
116.69981 125.07913 222.80534
116.87605 125.12967 224.875
117.43131 125.1286 224.98015
118.35106 125.07596 223.11806
118.90112 125.07494 223.21941
119.27354 125.09972 224.30313
119.82571 125.09872 224.40207
120.20506 125.12353 225.48422
120.58911 125.14835 226.56581
121.14565 125.14739 226.6613
121.86742 125.1207 225.76945
122.25827 125.14555 226.84799
122.97491 125.1189 225.9525
123.52845 125.11802 226.04189
124.08185 125.11716 226.12988
124.63512 125.11632 226.21645
125.49002 125.064 224.32516
126.03819 125.06319 224.4082
126.4402 125.08814 225.47878
126.84691 125.11311 226.54871
127.39957 125.11234 226.62827
127.81328 125.13732 227.69644
128.23172 125.16231 228.76387
128.78885 125.16158 228.83995
129.34587 125.16088 228.91463
129.77364 125.1859 229.97919
130.33287 125.18522 230.05138
131.01634 125.15884 229.13026
131.57297 125.1582 229.19937
132.24902 125.13187 228.27461
132.92017 125.10555 227.34787
133.5864 125.07925 226.4192
134.36005 125.02728 224.49529
134.90417 125.02672 224.55615
135.66321 124.97478 222.62791
136.20238 124.97426 222.68559
136.43346 125.0508 225.72507
136.87943 125.07597 226.77545
137.42801 125.07548 226.83011
137.69016 125.15203 229.86868
138.2458 125.15155 229.92134
138.89204 125.12541 228.97704
139.26868 125.17632 231.01828
139.91238 125.1502 230.07106
140.46779 125.14978 230.11827
141.10416 125.1237 229.16772
141.73566 125.09764 228.21548
142.43854 125.04593 226.26469
142.98412 125.04556 226.30576
143.45822 125.07088 227.34264
144.0061 125.07053 227.38123
144.48734 125.09587 228.41589
144.97333 125.12121 229.44962
145.64949 125.0696 227.489
146.1972 125.06931 227.52226
146.80188 125.04337 226.55615
147.23792 125.09441 228.58301
147.78793 125.09416 228.61244
148.23833 125.14522 230.63737
148.79308 125.14499 230.66438
149.25781 125.19606 232.68736
149.81731 125.19585 232.71191
150.37679 125.19566 232.73508
150.97401 125.16983 231.75798
151.53104 125.16966 231.77838
152.08804 125.1695 231.79742
152.6756 125.14371 230.81595
153.23016 125.14358 230.83226
153.78473 125.14346 230.84723
154.33926 125.14335 230.86089
154.93575 125.09196 228.87427
155.48546 125.09189 228.88518
156.01898 125.11745 229.89427
156.54353 125.16868 231.90169
157.08905 125.19427 232.90833
157.64833 125.19423 232.914
158.1879 125.27113 235.91731
158.75856 125.24548 234.92068
159.32443 125.21983 233.9227
159.88737 125.27113 235.92235
160.45689 125.29679 236.92101
161.02037 125.27118 235.91891
161.59471 125.29688 236.91483
162.1534 125.27129 235.91006
162.71994 125.27136 235.90359
163.28648 125.27145 235.89575
163.83562 125.2459 234.88702
164.41962 125.27165 235.87601
164.98621 125.27177 235.86406
165.5282 125.24627 234.85139
166.11946 125.27206 235.83612
166.71555 125.29786 236.81935
167.31647 125.32368 237.80106
167.88797 125.32387 237.78217
168.45952 125.32407 237.76189
169.03108 125.32427 237.74023
169.60268 125.32449 237.71719
170.17432 125.32473 237.69279
170.74599 125.32498 237.66699
171.36633 125.35089 238.63831
171.88943 125.32552 237.61127
172.40778 125.30015 236.5831
172.9772 125.30045 236.55191
173.54666 125.30076 236.51935
174.17685 125.32674 237.48322
174.81187 125.35274 238.44543
175.51723 125.40442 240.40347
175.96077 125.35346 238.37003
176.60558 125.3795 239.32742
177.18257 125.3799 239.28604
177.75961 125.38031 239.24327
178.33673 125.38073 239.1991
178.99379 125.40684 240.14999
179.49113 125.38161 239.10652
180.15314 125.40775 240.05418
180.73293 125.40823 240.00418
181.22327 125.38305 238.95708
181.8927 125.40923 239.89987
182.66136 125.46112 241.83603
183.14952 125.43598 240.78488
183.73209 125.43653 240.72751
184.31474 125.4371 240.6687
185.10539 125.48907 242.59698
185.58667 125.46397 241.54082
186.28078 125.49028 242.47118
186.75742 125.46522 241.41263
187.45653 125.49156 242.33954
188.04456 125.49223 242.27156
188.51428 125.46719 241.2095
189.22092 125.49359 242.13118
190.05574 125.54573 244.04291
190.77466 125.57218 244.96019
191.2424 125.54721 243.89252
191.96638 125.57369 244.80624
192.56242 125.57448 244.72702
193.15858 125.57527 244.64629
193.75488 125.57609 244.56407
194.49142 125.60266 245.47015
195.37547 125.65499 247.36351
195.83446 125.63012 246.28664
196.43611 125.63101 246.19766
197.18771 125.65767 247.09557
197.79208 125.6586 247.0032
198.55122 125.6853 247.89693
199.47241 125.7378 249.7756
199.76556 125.68726 247.70372
200.53487 125.71404 248.59125
200.98056 125.68929 247.50427
201.5883 125.69033 247.40222
202.19623 125.69139 247.2986
203.4906 125.79562 251.13272
203.93459 125.77095 250.03987
204.90315 125.82367 251.89815
205.16624 125.77324 249.81897
206.32617 125.85182 252.65538
206.58238 125.80141 250.57428
207.57359 125.85426 252.42216
208.00905 125.82969 251.32132
209.01282 125.8826 253.16359
209.25287 125.83224 251.07919
209.87512 125.83355 250.95564
210.49759 125.83488 250.83044
211.32098 125.86208 251.68291
211.94635 125.86346 251.55389
212.98312 125.91656 253.37981
213.61385 125.918 253.2464
214.45528 125.94533 254.08859
214.66319 125.89507 251.9978
215.50758 125.92245 252.83601
215.9216 125.89809 251.72015
216.55121 125.89964 251.57877
217.18109 125.90121 251.43562
218.26143 125.95461 253.23878
218.89679 125.95625 253.09109
219.76241 125.98382 253.91449
220.63321 126.01143 254.73495
221.50922 126.03908 255.55246
221.91583 126.0149 254.42484
223.03714 126.06856 256.20807
223.68416 126.07037 256.0473
224.3315 126.07221 255.8847
224.73207 126.04812 254.75165
225.62724 126.07598 255.55405
225.77158 126.02595 253.4512
226.66991 126.05387 254.24928
227.5735 126.08183 255.04417
228.48239 126.10985 255.83592
229.13474 126.11189 255.65968
230.58044 126.19201 258.37381
230.97415 126.16811 257.22833
231.6326 126.17027 257.04504
232.01971 126.14641 255.89778
233.2249 126.20071 257.63394
233.61038 126.1769 256.48346
234.27051 126.17918 256.29239
235.21265 126.20755 257.05847
236.72836 126.28814 259.73801
237.3997 126.29054 259.53799
238.36057 126.31908 260.29294
239.32681 126.34767 261.04431
240.00452 126.35019 260.83667
240.68271 126.35275 260.62695
241.06239 126.32919 259.46121
241.73907 126.33181 259.24811
242.11229 126.3083 258.08054
243.09393 126.33714 258.81549
243.77213 126.33985 258.59601
244.45084 126.34261 258.37442
245.75793 126.39778 260.04883
246.75912 126.42683 260.7695
247.12799 126.4035 259.59149
248.13527 126.43264 260.30609
249.1481 126.46184 261.01675
250.1665 126.4911 261.72348
251.51944 126.54668 263.37018
252.55153 126.57607 264.06802
253.58922 126.60551 264.76178
254.29601 126.60872 264.51007
255.34241 126.63828 265.19644
256.05289 126.64157 264.93912
256.07587 126.59225 262.80231
256.43591 126.56926 261.60443
256.79153 126.54628 260.40607
257.84595 126.57605 261.07874
258.90601 126.60588 261.7471
259.61502 126.60938 261.47729
260.68384 126.63932 262.13791
262.4819 126.72215 264.65793
263.56717 126.75224 265.30771
263.92441 126.72951 264.0932
264.64655 126.73325 263.80707
264.99734 126.71055 262.59052
264.96915 126.66138 260.44662
265.30838 126.63869 259.23019
266.40222 126.66901 259.86282
267.11957 126.67288 259.56711
267.06808 126.62371 257.42349
268.16867 126.65417 258.04645
268.49524 126.63155 256.82361
67.977882 126.02742 216.23683
68.965157 125.99505 215.56908
69.176178 126.02061 216.74164
68.243385 126.13296 220.68434
69.231956 126.10065 220.01126
69.459534 126.1262 221.18483
69.691727 126.15175 222.3584
70.301193 126.14844 222.60437
70.910233 126.14515 222.84818
71.151176 126.17073 224.01945
72.126846 126.13866 223.3295
73.822006 126.04903 220.77243
75.141525 125.9883 219.13986
76.450439 125.92766 217.5014
77.748787 125.8671 215.85704
78.684151 125.83539 215.14224
79.264107 125.83248 215.35995
79.148842 125.88708 217.45027
79.73291 125.88421 217.66591
79.289467 125.96751 220.69704
79.880127 125.96468 220.91154
80.807625 125.93317 220.18315
81.394844 125.93041 220.39284
81.981583 125.92767 220.60062
82.897659 125.89632 219.86285
83.808266 125.86502 219.12146
83.739044 125.91967 221.21251
84.646248 125.88844 220.46646
84.908424 125.91449 221.61095
85.809723 125.88335 220.85951
86.390816 125.88085 221.05321
87.283775 125.84981 220.29555
87.861496 125.84738 220.48482
88.438797 125.84499 220.67226
89.320518 125.81408 219.90593
88.080338 125.98297 225.80556
89.268562 125.92356 224.08444
90.149048 125.89275 223.31273
90.729263 125.89048 223.49278
90.431763 125.97374 226.53862
93.33831 125.74361 219.0645
93.042511 125.82691 222.1076
93.901222 125.79632 221.32104
94.754623 125.76577 220.5313
95.602722 125.73527 219.73839
95.612709 125.79014 221.82317
97.007904 125.70284 219.1042
97.569931 125.70088 219.2644
98.401825 125.67054 218.46059
98.960716 125.66866 218.61678
99.519287 125.66679 218.77135
99.551865 125.72174 220.85313
100.37507 125.69153 220.04073
100.67721 125.71812 221.15688
100.98396 125.74471 222.27272
101.54831 125.74296 222.42117
102.11237 125.74123 222.56801
102.67613 125.73952 222.71327
103.48524 125.70951 221.88802
104.04597 125.70786 222.02948
104.60642 125.70624 222.16934
105.64322 125.648 220.36612
105.7265 125.70306 222.44438
106.28614 125.70152 222.57959
107.07649 125.67169 221.74069
108.09026 125.61362 219.92595
108.64182 125.61215 220.05478
108.7458 125.66727 222.13065
109.30174 125.66584 222.25757
109.85745 125.66444 222.38301
110.41293 125.66305 222.50691
110.96818 125.66169 222.62932
111.73468 125.6321 221.77324
112.07801 125.65903 222.86964
112.63261 125.65773 222.98756
113.187 125.65645 223.10399
113.74118 125.6552 223.21893
114.49447 125.62574 222.35291
115.04582 125.62453 222.46439
115.79144 125.59513 221.59396
116.14796 125.62217 222.68304
116.69874 125.62103 222.79021
116.87498 125.67628 224.85976
117.43025 125.67516 224.96492
118.35003 125.61769 223.10298
118.7202 125.64479 224.18764
119.27255 125.64374 224.28802
119.99979 125.61452 223.40283
120.37674 125.64168 224.48451
120.9286 125.64067 224.58061
121.64813 125.61153 223.68985
122.19727 125.61057 223.78271
122.42033 125.66592 225.84662
122.97403 125.66499 225.93742
123.36945 125.69221 227.01385
123.92528 125.6913 227.10225
124.63428 125.66228 226.20143
125.4892 125.60516 224.31032
126.0374 125.60432 224.39334
126.43941 125.63161 225.46387
126.84614 125.65892 226.53375
127.3988 125.65812 226.61334
128.09016 125.62923 225.70157
128.50378 125.65657 226.76833
129.05611 125.65582 226.84373
129.60832 125.65509 226.91777
130.03128 125.68246 227.98163
130.45894 125.70985 229.04477
131.01569 125.70917 229.11526
131.57231 125.70849 229.18439
132.24838 125.67974 228.25969
132.80243 125.6791 228.32576
133.35638 125.67847 228.39043
134.13486 125.6217 226.46721
134.79373 125.59303 225.53506
135.44769 125.56438 224.60106
136.09677 125.53575 223.66518
136.53561 125.56328 224.71609
136.87892 125.61888 226.76071
137.32965 125.64642 227.81017
137.59421 125.73009 230.84883
138.05923 125.75765 231.89697
138.80093 125.70105 229.95772
139.26823 125.72864 231.00336
139.82611 125.72818 231.05211
140.46736 125.69968 230.10341
141.10376 125.67121 229.15294
141.73528 125.64275 228.20073
142.43816 125.58626 226.25012
142.98375 125.58588 226.2912
143.60069 125.55747 225.33388
144.07477 125.58516 226.36935
144.62022 125.58482 226.40645
145.10143 125.61253 227.43977
145.64919 125.61221 227.47437
146.13751 125.63995 228.50548
146.7446 125.61163 227.5396
147.18306 125.66741 229.56644
147.78767 125.63911 228.59775
148.23808 125.69492 230.62259
148.79285 125.69468 230.6496
149.2576 125.75051 232.67245
149.8597 125.72227 231.69829
150.37659 125.75008 232.72018
150.97383 125.72187 231.74313
151.56625 125.69366 230.76454
152.08789 125.72153 231.78261
152.67546 125.69335 230.80118
153.23004 125.69321 230.81749
153.75882 125.72112 231.83176
154.31578 125.72099 231.84544
154.93565 125.63683 228.85965
155.4668 125.66476 229.86996
156.01892 125.66469 229.87959
156.54347 125.72066 231.88686
157.10037 125.72062 231.89388
157.63933 125.77662 233.8987
158.18788 125.83263 235.90222
158.75438 125.83262 235.90529
159.32088 125.83262 235.90698
159.88739 125.83263 235.90732
160.45692 125.86068 236.90588
161.01498 125.80468 234.90427
161.57912 125.80473 234.90054
162.14325 125.80479 234.89543
162.72002 125.83289 235.8885
163.28658 125.83298 235.88066
163.83572 125.80506 234.87202
164.41974 125.83319 235.8609
165.00858 125.86134 236.84833
165.55296 125.83347 235.83569
166.14664 125.86164 236.82028
166.71571 125.86181 236.8042
167.34848 125.91804 238.78494
167.88817 125.89021 237.76695
168.45972 125.89042 237.74666
169.0313 125.89064 237.72499
169.64435 125.9189 238.7007
170.17456 125.89112 237.67754
170.79248 125.91941 238.6503
171.36661 125.91969 238.623
171.88972 125.89194 237.59601
172.40807 125.8642 236.5679
172.97751 125.86452 236.53671
173.60526 125.89288 237.50204
174.23784 125.92126 238.46573
174.87529 125.94966 239.4277
175.51759 125.97807 240.388
176.02902 125.95042 239.35199
176.60597 125.95082 239.31201
177.18297 125.95123 239.27063
177.60986 125.89556 237.23427
178.25967 125.92405 238.18706
178.91434 125.95256 239.13808
179.49159 125.95303 239.09108
180.06891 125.95351 239.04268
180.82053 126.01013 240.98445
181.31328 125.98259 239.93721
181.89322 125.98312 239.88434
182.6619 126.0398 241.82033
183.05333 125.98423 239.77434
183.63351 125.98481 239.71721
184.21378 125.9854 239.65863
185.00203 126.04216 241.58702
185.37454 125.98663 239.53722
186.17262 126.04343 241.4617
186.64688 126.01601 240.40347
187.3436 126.04476 241.3306
187.81323 126.01736 240.27003
188.51497 126.04616 241.19371
189.22163 126.07498 242.11534
190.05646 126.13191 244.02692
190.90106 126.18888 245.93582
191.37122 126.16157 244.86786
192.09764 126.19048 245.78119
192.69611 126.1913 245.70164
193.15939 126.16402 244.63019
193.618 126.13676 243.55789
194.35214 126.16576 244.46423
195.09125 126.19476 245.36835
195.69038 126.19568 245.2813
196.43701 126.22474 246.18135
197.18863 126.25382 247.07918
197.79301 126.2548 246.98679
198.55219 126.28394 247.88045
199.31635 126.3131 248.77177
199.76657 126.28599 247.68721
200.37399 126.28704 247.58823
200.9816 126.28812 247.48772
201.75609 126.31738 248.37126
202.36646 126.3185 248.26721
203.32014 126.37598 250.13109
203.93571 126.37714 250.02301
204.72789 126.40652 250.89728
204.98856 126.35136 248.81862
206.1461 126.43716 251.6553
206.5836 126.41022 250.55736
207.57483 126.46791 252.40504
208.19885 126.46922 252.28592
209.20508 126.52698 254.12755
209.44759 126.47191 252.0428
209.87643 126.44507 250.93852
210.49893 126.44646 250.81331
211.32236 126.47612 251.66566
211.7446 126.44933 250.55789
212.57338 126.47903 251.40593
213.40727 126.50878 252.25125
214.03586 126.51031 252.11668
214.23891 126.45534 250.02702
215.29376 126.51344 251.84238
215.70535 126.48676 250.72707
216.55276 126.51666 251.56128
217.40532 126.5466 252.39262
218.48814 126.60487 254.19505
219.12595 126.60659 254.04674
219.99405 126.63665 254.86946
220.86732 126.66675 255.68924
221.74582 126.69688 256.50607
222.39221 126.69874 256.34894
223.27869 126.72895 257.16037
223.92819 126.73087 256.99896
224.33334 126.70446 255.86655
224.73393 126.67806 254.73352
225.62912 126.70841 255.5358
226.02551 126.68207 254.40039
226.92633 126.71249 255.19768
227.83243 126.74297 255.99187
229.00323 126.80187 257.74817
229.39864 126.77563 256.6059
230.84686 126.86307 259.31909
231.24306 126.83689 258.173
231.90399 126.83916 257.98898
232.02185 126.78458 255.87907
233.22708 126.8438 257.61505
233.33592 126.78925 255.5041
233.99359 126.79163 255.31366
234.65169 126.79404 255.12131
236.16252 126.88194 257.80203
237.40207 126.94144 259.51874
238.36296 126.9725 260.27356
239.32927 127.00362 261.02481
240.007 127.00627 260.81714
240.98172 127.03749 261.56198
241.06494 126.98314 259.44168
241.74164 126.98589 259.22852
242.11488 126.96011 258.06097
243.09659 126.99149 258.79587
243.15689 126.93719 256.67505
243.83063 126.94006 256.45499
245.13278 127.00018 258.13086
245.81259 127.00314 257.90491
246.49292 127.00615 257.67676
247.49524 127.03783 258.39291
248.17914 127.04092 258.15955
249.19006 127.0727 258.86871
250.8645 127.1619 261.46176
252.22308 127.22251 263.10425
253.59229 127.28322 264.74088
254.97214 127.34401 266.37161
256.02362 127.37617 267.05606
256.7392 127.37966 266.79688
256.76721 127.32571 264.65829
256.78577 127.27174 262.52103
257.14392 127.24654 261.32175
258.20087 127.27891 261.99332
258.90936 127.28255 261.72589
259.9751 127.31503 262.3898
261.04651 127.34758 263.04929
262.48541 127.40903 264.6362
263.20639 127.41288 264.35504
263.5611 127.38791 263.14154
264.65015 127.42069 263.78519
265.00095 127.39576 262.56863
265.34726 127.37084 261.35162
265.68903 127.34593 260.13412
266.78546 127.37888 260.76559
267.12326 127.35402 259.54514
267.07178 127.30019 257.40164
267.78513 127.30428 257.10287
268.10916 127.27943 255.88115
68.75563 126.53432 214.37663
69.349892 126.53078 214.62801
69.558372 126.55863 215.7995
69.005852 126.64917 218.81755
69.609077 126.64565 219.06682
69.456345 126.7048 221.16473
70.063774 126.7013 221.41183
70.298058 126.72913 222.58426
70.907097 126.72569 222.82816
71.883278 126.69102 222.14046
73.218987 126.62517 220.51819
74.544083 126.55939 218.88989
75.858589 126.49371 217.2556
76.805023 126.45933 216.54881
77.390999 126.45619 216.7724
78.328918 126.42191 216.05872
78.91143 126.41885 216.27739
79.146072 126.44697 217.43134
79.385292 126.4751 218.58519
79.629059 126.50324 219.73894
80.217247 126.50027 219.95255
80.804947 126.49734 220.16425
81.057365 126.52553 221.31577
81.978958 126.49158 220.58182
82.565277 126.48875 220.78772
83.478416 126.4549 220.04735
83.736511 126.48318 221.19383
84.643745 126.44942 220.44794
84.905937 126.47775 221.59239
86.124596 126.41308 219.89322
86.703209 126.41047 220.08617
87.906044 126.34592 218.37834
88.478806 126.34341 218.56601
89.358505 126.30995 217.80077
89.927948 126.3075 217.98405
88.682762 126.49072 223.88167
89.566193 126.45734 223.11264
90.146828 126.45494 223.29451
90.727066 126.45257 223.47462
90.722008 126.51202 225.5645
93.336212 126.29347 219.04681
93.040405 126.38388 222.08972
93.89917 126.35078 221.30327
94.470047 126.34859 221.47238
95.600731 126.28473 219.72086
95.888336 126.31345 220.84531
97.28112 126.21887 218.1259
97.568024 126.24766 219.24704
98.399963 126.21483 218.44328
98.958878 126.21284 218.59953
99.517464 126.21089 218.75414
99.550049 126.27055 220.83583
100.63367 126.20708 219.05849
100.93337 126.23598 220.17392
101.74863 126.20336 219.3564
101.79961 126.26306 221.4369
102.36124 126.26125 221.58316
102.67445 126.29021 222.69606
103.48361 126.25773 221.87086
104.04436 126.256 222.01236
104.60484 126.2543 222.15225
105.64166 126.19121 220.3492
105.96083 126.22028 221.45609
106.51805 126.21866 221.59071
107.30599 126.18637 220.75131
108.31734 126.12345 218.93619
108.86647 126.12193 219.06448
108.96803 126.18176 221.13965
109.30034 126.21094 222.24078
110.07486 126.17881 221.39095
110.41157 126.20802 222.49016
110.96684 126.20659 222.61259
111.52188 126.20518 222.73351
112.07671 126.2038 222.85295
112.42471 126.23307 223.94884
112.77737 126.26234 225.04424
113.53818 126.2304 224.18127
114.29393 126.19849 223.31583
115.04463 126.16663 222.44789
115.79028 126.13478 221.57755
116.33884 126.13356 221.68568
116.6976 126.16295 222.77377
117.06104 126.19235 223.86131
117.42915 126.22176 224.94835
118.16661 126.19003 224.06935
118.53922 126.21947 225.1544
119.094 126.21836 225.25525
119.82369 126.18671 224.37059
120.37573 126.18565 224.46812
120.92761 126.18459 224.56424
121.47934 126.18356 224.65894
122.03093 126.18256 224.75218
122.25642 126.24263 226.81638
122.81255 126.24165 226.90759
123.36853 126.24068 226.99741
124.08011 126.20921 226.09848
124.63341 126.20829 226.18509
125.48835 126.14636 224.29413
126.03656 126.14548 224.37718
126.43859 126.17513 225.44766
126.98898 126.17428 225.52829
127.53924 126.17345 225.60754
128.08939 126.17263 225.68541
128.50302 126.20232 226.75206
128.92137 126.23203 227.81801
129.47603 126.23126 227.89236
130.03056 126.23051 227.96536
130.58499 126.22977 228.03696
131.2637 126.19858 227.11539
131.81552 126.19788 227.18394
132.36726 126.19719 227.25107
132.91891 126.19652 227.31686
133.35577 126.22633 228.37421
134.13426 126.16477 226.45114
134.68324 126.16415 226.51254
135.55461 126.07218 223.59142
136.09622 126.0716 223.64932
136.53506 126.10149 224.7002
136.87839 126.16183 226.74469
137.23126 126.22218 228.78883
137.59369 126.28252 230.83255
138.05873 126.31244 231.88062
138.70981 126.28149 230.93694
139.356 126.25056 229.99142
139.82565 126.28053 231.03586
140.46692 126.24963 230.08723
141.10333 126.21875 229.13684
141.65625 126.21832 229.18114
142.28532 126.18748 228.22749
142.83574 126.18708 228.26894
143.4575 126.15627 227.31204
144.00542 126.1559 227.35065
144.55328 126.15555 227.38789
145.1011 126.1552 227.42383
145.71068 126.12446 226.46083
146.19661 126.15456 227.49174
146.80132 126.12384 226.52577
147.18279 126.21479 229.5504
147.78741 126.1841 228.5818
148.28763 126.21426 229.60822
148.7926 126.24442 230.6335
149.25737 126.30499 232.65623
149.85948 126.27436 231.68214
150.37639 126.30455 232.70395
150.93587 126.30435 232.72578
151.56609 126.24336 230.74847
152.08772 126.27359 231.76645
152.67532 126.24303 230.78511
153.25809 126.21249 229.80229
153.78448 126.24276 230.81642
154.33905 126.24264 230.83005
154.93556 126.18173 228.84372
155.44814 126.24245 230.85335
155.9865 126.27277 231.86238
156.52963 126.3031 232.87019
157.08896 126.30305 232.87724
157.63031 126.36381 234.88193
158.18785 126.39418 235.8858
158.7502 126.42457 236.8884
159.31911 126.42457 236.89009
159.88928 126.48538 238.88951
160.45998 126.45501 237.88893
161.02588 126.42464 236.88696
161.59482 126.42471 236.88321
162.16377 126.42477 236.87807
162.73273 126.42485 236.87155
163.28667 126.39455 235.86426
163.83583 126.36425 234.85567
164.41986 126.39478 235.8445
164.98648 126.39491 235.83255
165.55312 126.39506 235.81927
166.1468 126.42562 236.80379
166.7159 126.4258 236.78769
167.34866 126.48679 238.76831
167.88837 126.45659 237.75035
168.49657 126.48721 238.72894
169.03152 126.45704 237.7084
169.68604 126.5181 239.68272
170.13098 126.42713 236.66238
170.74651 126.45782 237.63515
171.31825 126.45811 237.60799
171.94107 126.48882 238.57765
172.46184 126.45872 237.54948
173.08954 126.48946 238.51613
173.72211 126.52023 239.48114
174.35951 126.551 240.44441
174.87566 126.52096 239.41096
175.51799 126.55177 240.37119
176.02942 126.52175 239.33521
176.67667 126.5526 240.2923
177.1834 126.52261 239.25383
177.76047 126.52306 239.21104
178.4151 126.55395 240.16339
178.91481 126.52399 239.12126
179.49208 126.52448 239.07425
180.06941 126.52499 239.02585
180.73393 126.55595 239.97176
181.31381 126.5565 239.92029
181.98569 126.58749 240.86273
182.66246 126.61852 241.80327
183.24738 126.61911 241.74709
183.8324 126.61972 241.68948
184.31593 126.58989 240.63606
185.00266 126.62099 241.56993
185.48155 126.59118 240.51411
186.17328 126.62231 241.4446
186.75874 126.623 241.37976
187.45789 126.65417 242.30652
188.04594 126.6549 242.23849
188.63411 126.65564 242.16902
189.3432 126.68688 243.0903
190.18047 126.74862 245.00142
190.90184 126.77991 245.91826
191.37202 126.75024 244.85039
192.09845 126.78158 245.76363
192.56406 126.75195 244.69337
193.02495 126.72232 243.6223
193.34341 126.66221 241.56038
194.21289 126.72412 243.45702
194.80707 126.72505 243.3721
195.40137 126.726 243.28568
196.29059 126.78799 245.17499
197.18961 126.85003 247.06134
197.79401 126.85104 246.96892
198.39856 126.85208 246.875
199.31738 126.91421 248.75374
199.76761 126.88476 247.66922
200.53696 126.9164 248.55658
201.14699 126.91753 248.45564
202.09067 126.97978 250.32419
202.53674 126.95041 249.23418
203.49289 127.01273 251.09752
203.93689 126.98339 250.00475
204.55267 126.98463 249.89505
204.81093 126.92476 247.81696
205.96608 127.01778 250.65385
206.40115 126.9885 249.55638
207.38998 127.05102 251.40437
208.01163 127.05239 251.28571
209.01544 127.11498 253.12766
209.64236 127.11641 253.00475
210.07365 127.08724 251.90002
210.69861 127.08871 251.77431
211.52451 127.12083 252.6261
212.15234 127.12235 252.49652
212.57486 127.09327 251.38712
213.40878 127.12547 252.23236
213.82692 127.09643 251.12062
214.45334 127.09805 250.98485
215.51068 127.16101 252.79947
216.1425 127.1627 252.65919
216.55438 127.13373 251.54224
217.85229 127.2275 254.32234
218.71494 127.25996 255.14961
219.12767 127.23109 254.0274
219.9958 127.26362 254.85004
220.86911 127.2962 255.66972
221.51277 127.2981 255.51492
222.15674 127.30003 255.35832
222.80103 127.30199 255.19989
223.68787 127.33472 256.00943
224.33527 127.33676 255.84677
224.73589 127.30807 254.71381
225.38153 127.31015 254.54811
226.02751 127.31226 254.38058
226.67386 127.31441 254.2112
227.8345 127.37815 255.97185
228.74594 127.41117 256.76273
229.40079 127.41344 256.58575
230.58472 127.47736 258.33475
231.24527 127.47971 258.15262
231.63696 127.45126 257.00598
232.02411 127.42282 255.85876
232.9552 127.4561 256.63342
233.33824 127.42772 255.4837
234.27509 127.46108 256.25299
234.9357 127.46362 256.05984
236.16496 127.52797 257.78131
237.118 127.5615 258.54025
238.36551 127.62598 260.2525
239.04031 127.62872 260.04761
239.71561 127.63149 259.84064
240.68787 127.66524 260.58612
241.0676 127.63715 259.42044
241.44286 127.60908 258.25424
242.11761 127.61198 258.03973
243.40579 127.67689 259.72583
243.46863 127.61792 257.60431
244.14493 127.62095 257.38345
244.82172 127.62402 257.16043
245.49904 127.62711 256.93521
246.1769 127.63026 256.70786
247.17676 127.66448 257.42477
248.18216 127.69878 258.13776
249.19315 127.73312 258.8468
250.86765 127.8297 261.43951
252.22629 127.89531 263.08179
253.59555 127.961 264.71823
254.63895 127.99566 265.40756
256.02698 128.06152 267.03305
256.74258 128.06519 266.7738
256.77063 128.00658 264.63531
256.78918 127.94796 262.49817
257.49646 127.95169 262.23544
258.20438 127.95547 261.97034
259.26706 127.99049 262.63748
260.33539 128.02559 263.30026
261.05014 128.02951 263.02594
262.12729 128.06474 263.68091
263.21008 128.10002 264.33139
262.83109 128.01025 261.25842
263.54565 128.01431 260.97519
264.26083 128.01843 260.68945
264.97656 128.02257 260.40121
265.69287 128.02675 260.11041
267.16895 128.09367 261.66635
267.50931 128.06659 260.44485
267.46039 128.00812 258.30042
267.78903 127.98103 257.07907
268.5029 127.98535 256.77771
67.580742 127.20068 217.11516
68.570641 127.16313 216.44875
69.16964 127.15943 216.70018
69.002495 127.2233 218.79591
69.605743 127.21962 219.04526
69.83078 127.24971 220.21774
70.060463 127.27981 221.3902
70.66745 127.27619 221.63524
71.644135 127.23891 220.9498
72.61528 127.2017 220.26025
73.580894 127.16455 219.56659
74.903511 127.09381 217.93755
75.855522 127.05679 217.23483
76.802002 127.01984 216.52817
77.742958 126.98296 215.81757
78.325966 126.97972 216.03827
78.558571 127.0101 217.19321
78.795761 127.04048 218.34805
79.037514 127.07088 219.50278
79.283821 127.10127 220.65741
80.214394 127.06464 219.93213
80.802132 127.06157 220.14386
81.389397 127.05853 220.35367
82.308517 127.02205 219.61899
83.551987 126.95216 217.93716
83.475731 127.01618 220.02724
84.383469 126.97985 219.28333
85.285759 126.94359 218.53581
85.86277 126.9408 218.73169
86.122047 126.97146 219.8734
87.015518 126.93533 219.11781
88.215897 126.86587 217.40941
88.476372 126.89661 218.54648
89.048752 126.894 218.73239
89.925583 126.85808 217.96468
88.982735 127.02226 222.90927
89.563828 127.01971 223.09296
90.144485 127.0172 223.27489
90.724762 127.01471 223.455
90.719719 127.07887 225.54475
93.044029 126.87669 219.98416
93.038208 126.9409 222.0704
93.897003 126.9053 221.28407
94.467918 126.903 221.4532
95.878738 126.80099 218.74248
95.886276 126.86527 220.82629
97.003952 126.79662 219.06798
97.56604 126.79448 219.22824
98.398003 126.75916 218.42462
98.689178 126.79029 219.54384
99.250244 126.78825 219.69916
99.285309 126.85259 221.78136
100.11104 126.81741 220.96983
100.67361 126.81543 221.12094
101.23587 126.81349 221.27042
101.79782 126.81158 221.41832
102.86061 126.7434 219.62955
103.16895 126.7747 220.74112
103.72755 126.77287 220.88361
104.04266 126.80419 221.99388
104.84393 126.7693 221.1638
105.64004 126.73445 220.33095
106.1951 126.73274 220.46654
106.98334 126.69798 219.62881
107.76643 126.66324 218.78835
108.54437 126.62855 217.94524
109.3172 126.59389 217.09943
109.19022 126.69152 220.14743
109.74133 126.68997 220.2733
110.29221 126.68845 220.39769
110.41014 126.75302 222.47206
110.75151 126.78457 223.5708
111.73199 126.71704 221.73863
112.07535 126.74862 222.83493
112.62999 126.7472 222.95288
112.98022 126.77882 224.04773
113.9404 126.71143 222.20547
114.49198 126.71008 222.31851
115.04338 126.70876 222.43004
115.78905 126.67448 221.5598
116.52968 126.64023 220.68713
116.69641 126.70493 222.75597
117.05987 126.73666 223.84348
117.42799 126.7684 224.93047
117.80078 126.80016 226.01691
118.17825 126.83192 227.1028
118.73791 126.83075 227.20454
119.47247 126.79665 226.32083
120.02937 126.79553 226.41927
120.75635 126.76149 225.53137
121.31052 126.76041 225.6265
122.02992 126.72643 224.73451
122.4184 126.75831 225.81247
122.97213 126.75729 225.90332
123.52571 126.75629 225.99278
124.07917 126.75531 226.0808
124.7858 126.72144 225.17976
125.48746 126.68761 224.2766
126.03569 126.68669 224.35968
126.58379 126.68579 224.44138
126.98814 126.7178 225.51074
127.53842 126.71693 225.59001
128.08859 126.71608 225.66789
128.63864 126.71525 225.74438
129.0546 126.74731 226.80994
129.73843 126.71364 225.89322
130.159 126.74572 226.95665
130.58427 126.77782 228.01933
131.13863 126.77707 228.08957
131.93677 126.71062 226.17442
132.48611 126.70992 226.2413
133.03539 126.70922 226.30681
133.69926 126.6757 225.37811
134.35825 126.6422 224.44749
134.90244 126.64156 224.50839
135.55403 126.60809 223.57426
136.09564 126.60749 223.6322
136.43182 126.67256 225.67719
136.77757 126.73764 227.72179
137.23073 126.7699 228.77135
137.59317 126.83499 230.81491
138.05821 126.86726 231.86295
138.7093 126.83392 230.91933
139.26727 126.8334 230.96948
139.82518 126.83291 231.01828
140.38304 126.83243 231.06569
141.10289 126.76633 229.11943
141.65582 126.76589 229.16376
142.36115 126.69984 227.21361
142.90915 126.69943 227.2549
143.38571 126.73183 228.29172
143.93604 126.73145 228.33049
144.48631 126.73107 228.36792
145.03654 126.73071 228.40404
145.71036 126.66478 226.44368
146.25571 126.66445 226.47682
146.80103 126.66414 226.50865
147.23711 126.72942 228.53508
147.83934 126.69635 227.56644
148.28737 126.76166 229.59085
148.79236 126.79418 230.61607
149.30212 126.82672 231.64021
149.85927 126.82649 231.66466
150.37619 126.85905 232.68642
151.01125 126.79328 230.71075
151.60129 126.76031 229.73225
152.15353 126.76013 229.75116
152.70575 126.75996 229.76871
153.25795 126.75982 229.78497
153.75858 126.82524 231.79814
154.29218 126.8579 232.81105
154.91447 126.75945 229.82573
155.42947 126.82492 231.83525
155.97025 126.85762 232.84427
156.52957 126.85755 232.85266
157.08891 126.8575 232.85971
157.62131 126.9558 235.86366
158.18126 126.98854 236.86751
158.74602 127.02131 237.87004
159.31557 127.05409 238.8712
159.89055 127.11966 240.87044
160.46606 127.08691 239.86992
161.03679 127.05418 238.86804
161.60271 127.02145 237.86479
162.16385 126.98875 236.86023
162.73282 126.98883 236.85373
163.28677 126.95615 235.8465
163.85338 126.95626 235.83728
164.43982 126.98917 236.826
165.00885 126.98931 236.81401
165.55327 126.95669 235.80148
166.11995 126.95686 235.78683
166.68665 126.95704 235.77083
167.31703 127.0228 237.75134
167.85434 126.99023 236.73357
168.46016 127.02324 237.71216
169.07082 127.05627 238.68919
169.72774 127.12211 240.66325
170.17508 127.02401 237.64302
170.79305 127.05708 238.61562
171.41585 127.09018 239.58658
171.99243 127.09049 239.55779
172.51561 127.05803 238.52954
173.14574 127.09117 239.496
173.72246 127.09154 239.46301
174.35989 127.12471 240.42622
174.87605 127.0923 239.39284
175.51839 127.12551 240.35294
175.96196 127.06033 238.31989
176.60681 127.09357 239.27708
177.18384 127.09402 239.23569
177.76094 127.09448 239.19287
178.41559 127.12778 240.14516
179.0751 127.16109 241.09561
179.6572 127.16161 241.04822
180.23935 127.16215 240.99939
180.82158 127.1627 240.94913
181.40388 127.16327 240.89746
181.98625 127.16385 240.84435
182.56871 127.16445 240.78983
183.15125 127.16506 240.73386
183.73386 127.1657 240.67647
184.21501 127.13351 239.62335
185.10727 127.23269 242.54544
185.58859 127.20054 241.48947
186.39154 127.26693 243.4131
186.98183 127.26765 243.34772
187.5722 127.26839 243.28088
188.16269 127.26916 243.2126
188.75328 127.26994 243.14282
189.46481 127.30359 244.06369
190.3045 127.37014 245.97435
191.02832 127.40385 246.89081
191.37286 127.33897 244.83147
192.0993 127.37273 245.7446
192.56493 127.34074 244.67441
193.02583 127.30878 243.60341
193.61975 127.30971 243.52147
194.63423 127.40932 246.40685
195.23566 127.41031 246.32088
195.83723 127.41131 246.23338
196.73373 127.47813 248.12149
197.34042 127.47918 248.03024
197.79504 127.44734 246.94963
198.39961 127.44843 246.85568
199.00435 127.44953 246.76021
199.44975 127.41774 245.67648
200.37617 127.48473 247.5508
200.98383 127.48591 247.45026
202.09184 127.58592 250.30449
202.70709 127.58715 250.19955
203.83728 127.68725 253.04692
204.46014 127.68854 252.93752
205.08322 127.68986 252.82652
205.34877 127.62527 250.74725
206.14865 127.65959 251.61679
206.40248 127.59503 249.53651
207.39134 127.66238 251.38434
207.63586 127.59785 249.30264
208.63486 127.66527 251.14532
209.25694 127.66675 251.02335
210.07512 127.70126 251.87984
210.3035 127.63677 249.79489
211.526 127.73737 252.60576
211.95073 127.70594 251.49759
212.5764 127.70755 251.36681
213.41037 127.74222 252.21193
214.03899 127.7439 252.0773
214.88075 127.77864 252.91747
215.94301 127.84647 254.73085
216.57974 127.84825 254.58948
216.77631 127.78392 252.49657
218.07669 127.88496 255.27582
218.71671 127.88683 255.12866
219.12949 127.85564 254.00652
219.76764 127.85755 253.8564
220.63855 127.8926 254.67657
221.04489 127.86148 253.55084
221.68401 127.86349 253.39543
222.5632 127.89865 254.20844
223.9321 128.00012 256.95776
224.33731 127.96912 255.82544
224.73793 127.93813 254.69249
225.63319 127.97346 255.49455
226.28168 127.97568 255.32635
226.42149 127.91158 253.2233
227.57973 127.98022 254.98441
228.74815 128.04892 256.741
229.40303 128.05128 256.56396
230.58701 128.12012 258.31277
231.2476 128.12257 258.13062
231.9086 128.12506 257.94647
232.57001 128.12759 257.76044
233.23184 128.13016 257.57245
233.89407 128.13275 257.38248
234.55676 128.13539 257.19055
235.21985 128.13806 256.99661
236.45166 128.20735 258.71713
237.12061 128.21011 258.51773
238.0791 128.24623 259.27304
238.75146 128.24908 259.06885
239.42429 128.25197 258.86258
240.69064 128.32158 260.56314
241.36942 128.32457 260.3512
241.44571 128.26088 258.23138
242.12048 128.26393 258.01682
243.40872 128.33379 259.7027
243.78055 128.30354 258.53177
243.83643 128.23991 256.41068
244.82472 128.27652 257.13727
245.18562 128.24634 255.964
245.86102 128.24962 255.73746
246.8584 128.28639 256.45502
247.86136 128.32323 257.16873
249.19635 128.39362 258.82312
250.54193 128.4641 260.47177
251.89813 128.53467 262.11472
253.59897 128.63885 264.69373
254.64241 128.67609 265.38297
256.03052 128.74695 267.00818
257.08771 128.78435 267.68814
257.11832 128.7211 265.54886
256.79276 128.62424 262.47345
257.15097 128.59456 261.27423
257.85638 128.5985 261.01001
258.56238 128.60248 260.74338
259.98242 128.67378 262.34155
261.05396 128.71153 263.00076
261.76932 128.71568 262.72391
262.48529 128.71986 262.44458
262.46808 128.65669 260.30347
263.54959 128.69466 260.94983
264.26477 128.69894 260.664
264.98053 128.70328 260.3757
266.07394 128.74141 261.01041
267.55261 128.8134 262.56503
267.89557 128.78409 261.3425
267.84918 128.72098 259.19708
268.56769 128.72549 258.89609
269.28674 128.73006 258.5925
67.967712 127.73669 216.17197
69.343071 127.66035 214.58366
69.936966 127.65652 214.83307
69.381859 127.7613 217.84961
69.602257 127.79366 219.02209
70.205086 127.78986 219.26938
70.432243 127.82223 220.44075
70.664009 127.8546 221.61209
72.010902 127.77864 219.99854
73.347191 127.70277 218.37885
74.672852 127.627 216.7531
75.625381 127.58739 216.05257
76.572372 127.54784 215.34807
76.798828 127.58043 216.50606
77.38485 127.577 216.72977
77.970406 127.57361 216.95149
78.205559 127.60625 218.10733
78.792702 127.60291 218.32605
79.724266 127.56365 217.60483
79.623184 127.6323 219.69643
80.891151 127.55719 218.03061
81.811241 127.51809 217.29991
82.056175 127.55087 218.44865
82.637985 127.54777 218.65482
83.549171 127.50881 217.91571
83.800255 127.54166 219.0614
84.380707 127.53867 219.26187
85.283028 127.49986 218.51453
85.860085 127.49696 218.71043
86.11937 127.52989 219.85211
87.012878 127.49124 219.09669
87.900978 127.45264 218.33777
88.163956 127.48566 219.47562
88.738853 127.48293 219.6624
89.618225 127.44447 218.89561
88.677849 127.62055 223.84056
89.561348 127.58214 223.07181
90.439476 127.54379 222.29968
91.312241 127.50549 221.52426
91.009781 127.61006 224.56795
93.331726 127.39337 219.00714
93.323425 127.4623 221.09251
93.894745 127.45987 221.26343
94.465691 127.45747 221.43263
95.596466 127.38381 219.6815
95.606476 127.45279 221.7659
96.451508 127.41486 220.96925
96.745834 127.44823 222.09239
97.585243 127.41039 221.29099
98.419373 127.37259 220.48654
99.248245 127.33485 219.67909
99.809021 127.33274 219.83281
100.62987 127.29508 219.02007
100.92963 127.32861 220.13538
101.48945 127.32658 220.28426
101.79594 127.36015 221.39835
102.6082 127.32263 220.57721
102.67088 127.39175 222.65742
103.23442 127.38984 222.80119
103.55444 127.42346 223.91267
104.36064 127.38608 223.08394
104.92334 127.38425 223.22293
105.72165 127.34695 222.38922
106.5148 127.30969 221.55278
107.53381 127.23701 219.7413
108.54279 127.16438 217.92598
109.08954 127.16273 218.05376
109.18867 127.232 220.12807
109.73981 127.23038 220.25398
110.07191 127.26423 221.3535
110.40865 127.29808 222.45261
110.5361 127.36738 224.52751
111.51906 127.295 222.69606
111.86487 127.3289 223.7928
112.62859 127.29201 222.93352
112.97884 127.32595 224.02831
113.93904 127.25373 222.18626
114.68999 127.21694 221.32001
114.84517 127.28632 223.39064
115.78778 127.21422 221.54071
116.52843 127.17752 220.66817
116.50555 127.28231 223.71809
117.05864 127.28101 223.8243
117.61156 127.27974 223.92908
117.98194 127.31384 225.01501
118.35701 127.34795 226.10037
119.09175 127.31139 225.21823
119.8215 127.27487 224.33374
120.20091 127.30904 225.41568
120.92549 127.27258 224.5275
121.30945 127.30676 225.60739
121.86348 127.30566 225.70113
122.25439 127.33988 226.77939
123.13168 127.26821 224.89789
123.68287 127.26717 224.98695
124.38965 127.23087 224.08745
124.93816 127.22987 224.17331
125.63743 127.19361 223.26988
126.33174 127.15739 222.36432
126.87504 127.15646 222.4453
127.27457 127.19082 223.5139
127.6788 127.22519 224.58182
128.3654 127.18904 223.66968
128.77423 127.22344 224.73555
129.05377 127.29311 226.79105
129.60605 127.29227 226.86511
130.15822 127.29146 226.93781
130.5835 127.32591 228.00044
131.01352 127.36037 229.06229
131.8141 127.28912 227.14758
132.36588 127.28838 227.21478
132.80043 127.32288 228.27309
133.35443 127.32217 228.33781
134.02066 127.28625 227.40811
134.68199 127.25036 226.4765
135.33841 127.21449 225.54303
135.98996 127.17863 224.60767
136.32855 127.24844 226.65269
136.77699 127.28305 227.70306
137.23016 127.31767 228.75256
137.59261 127.3875 230.79597
138.15073 127.38693 230.84886
138.70877 127.38638 230.90042
139.17851 127.42105 231.94606
139.73885 127.42052 231.99506
140.38255 127.38483 231.04678
140.94037 127.38435 231.09288
141.57675 127.34869 230.14131
142.28448 127.27786 228.19154
142.76111 127.31261 229.22964
143.31389 127.31219 229.26994
143.93565 127.2766 228.31187
144.48595 127.27622 228.34933
145.03619 127.27585 228.38541
145.58641 127.27549 228.4202
146.07718 127.31032 229.45125
146.6297 127.31 229.48349
147.12761 127.34485 230.5123
147.73466 127.30938 229.54398
148.28709 127.3091 229.57222
148.83951 127.30882 229.59911
149.39188 127.30857 229.62468
149.94421 127.30833 229.6489
150.49654 127.30811 229.6718
151.04883 127.30789 229.69339
151.6011 127.30769 229.71362
152.15335 127.30751 229.73253
152.7056 127.30734 229.75011
153.20145 127.37751 231.76433
153.70688 127.44769 233.77747
154.24529 127.48273 234.79041
154.87242 127.37714 231.80544
155.39223 127.44736 233.8149
155.95398 127.44727 233.82466
156.52951 127.41204 232.83383
157.07748 127.44714 233.84016
157.61229 127.55258 236.84392
158.18124 127.55255 236.84836
158.74184 127.62286 238.85016
159.3138 127.65801 239.85123
159.88995 127.65803 239.85156
160.46609 127.65807 239.85052
161.0314 127.58779 237.84937
161.60277 127.58785 237.84555
162.16393 127.55276 236.84108
162.73291 127.55286 236.83455
163.28688 127.5178 235.82742
163.85349 127.51791 235.81821
164.43996 127.55321 236.80682
165.009 127.55336 236.79485
165.55344 127.51836 235.78241
166.12012 127.51853 235.76773
166.68683 127.51872 235.75174
167.31725 127.58926 237.73207
167.85457 127.55431 236.71437
168.49704 127.62489 238.69159
169.07106 127.62514 238.66982
169.68657 127.66058 239.64522
170.17537 127.59052 237.62373
170.79333 127.62598 238.59625
171.31885 127.59113 237.57076
171.94171 127.62663 238.54024
172.51595 127.62698 238.51016
173.20195 127.69769 240.47433
173.7811 127.69807 240.44118
174.36029 127.69846 240.40668
174.87645 127.66369 239.37334
175.5188 127.6993 240.33337
175.96239 127.62936 238.30049
176.60725 127.665 239.25755
177.18431 127.66547 239.21617
177.8365 127.70116 240.16992
178.33859 127.66647 239.12917
178.83592 127.63179 238.08737
179.41081 127.63232 238.04053
179.90106 127.59767 236.99652
180.47368 127.59824 236.9471
181.22542 127.66923 238.88699
181.89493 127.70504 239.82945
182.56932 127.74087 240.77003
183.24863 127.77673 241.70876
183.83366 127.77739 241.65114
184.31723 127.74285 240.59785
185.10796 127.81399 242.52548
185.69568 127.8147 242.46327
186.50104 127.88589 244.38647
187.09375 127.88665 244.3208
187.68657 127.88743 244.25369
188.27948 127.88823 244.1851
188.8725 127.88904 244.11504
189.46562 127.88988 244.04349
190.05885 127.89073 243.97046
190.77786 127.92685 244.88741
191.11758 127.85724 242.82883
191.96973 127.92867 244.73335
192.43294 127.89433 243.66354
192.89145 127.86002 242.59294
193.6207 127.89626 243.50119
194.63521 128.00307 246.38626
195.23666 128.00409 246.30026
196.1282 128.07568 248.1904
196.88216 128.11205 249.08913
197.34148 128.07787 248.0094
197.94833 128.07898 247.9166
198.40071 128.04482 246.8349
198.8484 128.01067 245.75243
199.13193 127.94122 243.68262
200.05354 128.01303 245.55753
200.82068 128.04956 246.44354
201.75958 128.12146 248.31256
202.53917 128.15807 249.19339
203.66696 128.26537 252.04086
204.28745 128.26671 251.9319
204.90811 128.26808 251.82132
205.3501 128.23412 250.72586
205.96875 128.23553 250.61252
206.22015 128.16624 248.53284
207.20662 128.23843 250.38089
207.82587 128.23991 250.26263
208.63632 128.27681 251.1237
209.25844 128.27835 251.00172
210.07663 128.31531 251.85809
210.50333 128.28152 250.75281
211.32686 128.31854 251.60489
211.95232 128.32021 251.47575
212.78362 128.3573 252.32297
213.62006 128.39444 253.1675
214.04065 128.36076 252.05531
214.88246 128.39798 252.89537
215.72942 128.43523 253.73267
216.36374 128.43707 253.5918
216.77811 128.4035 252.4744
217.63321 128.44086 253.30489
218.49347 128.47827 254.13246
218.90381 128.44476 253.01094
219.53955 128.44675 252.86136
220.40807 128.48428 253.68201
220.81198 128.45084 252.55695
221.44865 128.45293 252.40204
222.32545 128.49057 253.21558
223.44971 128.56378 254.99561
224.09473 128.56599 254.83353
224.74007 128.56824 254.66959
225.88498 128.64162 256.43921
226.53593 128.64395 256.27032
227.18726 128.64632 256.09958
228.09595 128.6843 256.89276
229.26935 128.75792 258.64783
229.66728 128.72481 257.505
230.85379 128.79855 259.25296
231.51688 128.80113 259.07004
232.18037 128.80374 258.88519
232.84427 128.8064 258.69839
233.78284 128.84473 259.47064
234.17336 128.81181 258.31894
234.55937 128.77892 257.16669
234.94086 128.74602 256.01385
235.88609 128.78453 256.7767
236.55014 128.7874 256.5788
237.7928 128.86174 258.29208
239.04584 128.93614 260.00034
239.72119 128.93918 259.79327
240.99008 129.01373 261.49283
241.67139 129.01688 261.28006
241.75017 128.94852 259.15958
242.42747 128.95172 258.94415
243.41177 128.99075 259.6778
243.47464 128.92244 257.55655
243.83952 128.88994 256.38599
244.51389 128.89328 256.16364
245.18881 128.89667 255.93919
246.18321 128.93594 256.65967
247.18317 128.97528 257.37625
248.51266 129.05057 259.03433
249.85272 129.12596 260.68674
251.2034 129.20145 262.3334
252.23315 129.24112 263.03156
253.60254 129.31677 264.66748
254.64604 129.3566 265.35654
256.03421 129.43245 266.98151
256.74988 129.43646 266.72214
257.12207 129.40453 265.52213
257.14316 129.33661 263.38428
257.85306 129.3407 263.12048
258.21185 129.30882 261.91888
258.92044 129.31299 261.65125
260.34311 129.38933 263.2482
261.41721 129.4297 263.90625
262.13513 129.43404 263.62833
262.8537 129.43843 263.34796
262.83905 129.37062 261.20596
263.92313 129.41119 261.85114
265.01288 129.45186 262.49176
265.73376 129.45641 262.20132
266.07816 129.42482 260.98288
267.55692 129.50185 262.53723
267.89984 129.47031 261.3147
267.85349 129.40254 259.16943
268.57202 129.40726 258.86832
269.29108 129.412 258.56467
67.573479 128.34525 217.06696
69.339417 128.22523 214.55917
69.547913 128.25989 215.73055
69.378212 128.33315 217.82492
69.598602 128.36777 218.99739
70.201477 128.36382 219.24471
70.428635 128.39845 220.41605
71.033134 128.39453 220.6602
72.377548 128.3136 219.0459
73.343704 128.27127 218.35466
74.669441 128.19051 216.72916
75.622002 128.14833 216.02881
76.208984 128.14468 216.25662
76.437996 128.17953 217.41551
76.671585 128.21439 218.57434
76.909752 128.24924 219.73306
77.502434 128.2457 219.95572
78.442078 128.2038 219.23944
