ply
format ascii 1.0
comment PCL generated
element vertex 1597
property float x
property float y
property float z
element camera 0
property float view_px
property float view_py
property float view_pz
property float x_axisx
property float x_axisy
property float x_axisz
property float y_axisx
property float y_axisy
property float y_axisz
property float z_axisx
property float z_axisy
property float z_axisz
property float focal
property float scalex
property float scaley
property float centerx
property float centery
property int viewportx
property int viewporty
property float k1
property float k2
end_header
139.83774 161.06445 226.30496
140.31177 161.24356 227.3336
140.95322 161.06046 226.40106
141.51085 161.05853 226.44699
141.91541 161.41891 228.45247
142.40366 161.59822 229.47667
143.04001 161.41539 228.53809
143.53294 161.59482 229.55981
143.89696 162.13644 232.54285
144.53314 161.9538 231.60002
145.16443 161.77124 230.65547
145.79085 161.58875 229.70918
146.4124 161.40634 228.76122
147.13866 160.86189 225.84764
147.5885 161.22278 227.8423
148.04796 161.58371 229.83607
148.56458 161.76363 230.8466
149.04083 162.12463 232.83839
149.61217 162.12364 232.86414
150.30444 161.57964 229.94051
150.90639 161.39775 228.98036
151.46799 161.39694 229.00146
152.02954 161.39621 229.02119
152.59109 161.39554 229.03955
153.09607 161.75693 231.02267
153.66238 161.75636 231.03835
154.22868 161.75586 231.05264
154.81601 161.57442 230.08231
155.36125 161.75504 231.07704
155.91129 161.9357 232.0705
156.45232 162.29744 234.04601
157.00298 162.65921 236.02022
157.56326 163.02106 237.99313
158.15295 162.83998 237.01431
158.73782 162.65895 236.034
159.3161 162.65898 236.03574
159.8931 162.29709 234.06909
160.4635 162.11624 233.0845
161.0455 162.47845 235.04892
161.61353 162.29773 234.06154
162.17673 162.11707 233.07275
162.76053 162.29846 234.04941
163.36426 162.66092 236.00797
163.94261 162.66144 235.99826
164.56084 163.02403 237.95369
165.12173 162.84367 236.95782
165.70256 162.84439 236.9438
166.25629 162.66414 235.94524
166.86432 162.84598 236.91142
167.41328 162.66585 235.91013
167.99182 162.66679 235.89041
168.60721 162.84885 236.85205
169.18823 162.84991 236.82939
169.81091 163.0321 237.78789
170.35042 162.85226 236.77972
171.02446 163.21564 238.71751
171.61049 163.21698 238.68883
172.19656 163.21838 238.65871
172.78268 163.21986 238.62712
173.42496 163.40247 239.57593
174.07211 163.58516 240.52303
174.66324 163.58684 240.48676
175.1911 163.4075 239.46759
175.77994 163.4093 239.42856
176.3007 163.23006 238.40691
176.74612 162.86975 236.40323
177.32794 162.87173 236.36028
177.83443 162.69264 235.33531
178.41397 162.69476 235.28967
179.15402 163.05923 237.2029
179.73856 163.06149 237.1539
180.40823 163.24501 238.08322
181.08282 163.4286 239.01064
181.67244 163.43109 238.95682
182.16985 163.25244 237.92233
182.94669 163.61751 239.8235
183.53902 163.62021 239.76494
184.33057 163.98547 241.66165
185.02991 164.16962 242.57773
185.73421 164.35385 243.49176
186.33664 164.3569 243.42612
187.04842 164.54132 244.3363
187.6535 164.54456 244.26733
188.14464 164.36655 243.22
188.51456 164.00726 241.19521
189.23167 164.19202 242.09865
189.71107 164.01419 241.04817
190.55707 164.38049 242.92352
191.2867 164.56557 243.8208
192.14992 164.93213 245.69084
192.62988 164.75462 244.63412
193.37207 164.94002 245.52509
194.11926 165.12552 246.41379
194.59485 164.94823 245.35294
195.20647 164.95245 245.2645
196.10458 165.31978 247.12029
196.72141 165.32422 247.02789
197.33838 165.32874 246.93387
198.10599 165.51492 247.81007
198.87866 165.70122 248.68387
199.34572 165.52448 247.61316
200.12361 165.71098 248.48289
201.06674 166.07927 250.32043
201.69458 166.08443 250.215
202.65271 166.45302 252.04671
203.28583 166.4584 251.93707
203.91916 166.4639 251.82576
204.20801 166.10603 249.77649
204.83688 166.11168 249.66264
205.28879 165.93567 248.57986
206.27504 166.30508 250.39665
206.90706 166.31107 250.27725
207.90843 166.68082 252.08783
208.9198 167.05078 253.89478
209.94122 167.42096 255.69809
210.78076 167.60941 256.53323
211.43115 167.61609 256.40173
211.88503 167.4409 255.30498
212.13507 167.0838 253.24458
212.77893 167.09073 253.10921
213.42307 167.09778 252.97202
214.48064 167.46907 254.75575
215.33928 167.65851 255.57472
215.78018 167.48384 254.47021
216.64433 167.67355 255.28442
217.29733 167.68127 255.13655
217.95064 167.6891 254.98679
218.60428 167.69705 254.83519
219.48198 167.88739 255.63918
220.13873 167.89561 255.48323
220.33847 167.53928 253.41286
220.99097 167.54768 253.25432
221.87743 167.73862 254.049
222.53308 167.7473 253.88605
223.66617 168.12105 255.62889
224.5685 168.31255 256.41409
225.23267 168.32172 256.2435
225.65128 168.14844 255.119
226.81055 168.52304 256.84772
227.22746 168.35001 255.71992
228.14655 168.54236 256.49142
229.07097 168.73494 257.25958
230.25906 169.11046 258.97296
231.19672 169.30348 259.73367
232.40302 169.67955 261.4382
233.08815 169.69017 261.24472
233.50551 169.51804 260.10336
234.18906 169.52888 259.90643
234.59982 169.3569 258.76303
234.73038 169.00197 256.67529
235.40781 169.01311 256.47421
236.36638 169.2075 257.21326
237.33038 169.40211 257.94864
238.01418 169.41376 257.73969
239.27478 169.79199 259.40836
239.96451 169.804 259.19354
240.65475 169.81615 258.97653
241.34546 169.82841 258.75729
242.33484 170.02423 259.47263
242.72833 169.85336 258.31223
243.42052 169.86604 258.08633
244.11319 169.87885 257.85818
244.80637 169.89178 257.62778
245.81079 170.0885 258.32776
246.82071 170.28543 259.02368
247.8362 170.48259 259.71567
248.85721 170.67996 260.40353
249.88377 170.87755 261.08734
250.91589 171.07536 261.76703
251.62773 171.08946 261.51523
252.66844 171.28766 262.18747
254.04562 171.6701 263.78107
254.76654 171.68468 263.51929
255.82394 171.8835 264.17877
257.5639 172.4509 266.67947
258.29648 172.466 266.40662
259.02954 172.48119 266.13123
260.10922 172.6808 266.77325
261.19443 172.8806 267.4108
260.88049 172.34277 264.37204
261.96661 172.54272 265.00455
262.70203 172.55827 264.71655
264.15549 172.94312 266.25595
264.1741 172.58952 264.13293
265.63858 172.97467 265.66318
267.11365 173.36005 267.18674
268.23026 173.56084 267.79272
268.60919 173.39197 266.57437
269.35745 173.40791 266.26431
270.4827 173.60886 266.85938
270.47562 173.25473 264.7298
270.84036 173.08545 263.50757
271.58453 173.10117 263.18933
271.94196 172.93159 261.96521
271.905 172.57658 259.83862
273.03394 172.77719 260.41718
65.503456 164.24686 216.08342
66.115227 164.23453 216.35179
66.726982 164.22208 216.61807
66.568642 164.58447 218.68965
67.185318 164.57178 218.95396
68.181763 164.37169 218.31035
69.172951 164.17166 217.66249
69.784058 164.15894 217.91837
70.02269 164.3334 219.08122
71.00563 164.13345 218.42389
71.983246 163.93362 217.76236
73.32016 163.54686 216.18449
74.646629 163.16034 214.60046
75.603073 162.96097 213.92453
75.840103 163.13547 215.07495
77.14534 162.74945 213.47672
78.440109 162.36368 211.87247
79.374977 162.16489 211.1805
80.998215 161.59291 208.64626
82.605896 161.02132 206.10431
83.172607 161.00977 206.31784
84.756828 160.43877 203.76343
85.988762 160.05458 202.12444
86.541756 160.0435 202.32759
88.089531 159.47342 199.75453
89.292618 159.09003 198.09984
89.831909 159.07944 198.29294
90.695007 158.88269 197.55672
91.552696 158.68616 196.81696
92.404991 158.48981 196.07365
93.568504 158.10756 194.39673
94.093399 158.09763 194.57661
94.306366 158.27377 195.68658
94.833061 158.26398 195.86386
94.746239 158.62605 197.90648
94.669083 158.98802 199.95068
94.903137 159.16414 201.06131
96.039032 158.78302 199.36386
96.274849 158.95929 200.47186
96.809387 158.94992 200.64215
97.635132 158.75504 199.87238
98.455521 158.56035 199.09935
98.697418 158.73689 200.20294
100.08031 158.17152 197.54367
100.60312 158.16284 197.70251
100.84646 158.33965 198.80191
101.09444 158.51649 199.90118
101.6212 158.50803 200.05663
102.14763 158.49968 200.21043
102.9429 158.30618 199.41754
103.99959 157.92767 197.6758
105.04604 157.54942 195.92966
105.29704 157.72681 197.02078
106.33049 157.34894 195.26804
106.58336 157.52649 196.35677
107.09518 157.51904 196.49606
107.35487 157.69669 197.58374
107.61919 157.87436 198.67125
107.39435 158.42189 201.66096
107.6729 158.59955 202.74927
106.98818 159.51665 207.64735
107.28589 159.69426 208.73764
107.82528 159.68712 208.87381
108.36439 159.68008 209.00844
109.13535 159.48843 208.18651
110.13079 159.11227 206.40623
110.20728 159.47495 208.44675
111.41711 158.91447 205.70428
111.50043 159.27725 207.7435
111.15363 160.00916 211.69934
111.04359 160.55638 214.69971
111.16296 160.91904 216.74284
109.80444 162.57303 225.50378
109.53998 163.30437 229.47229
110.748 162.7446 226.71875
111.32565 162.73831 226.84401
111.90303 162.73212 226.96768
112.48019 162.72601 227.08971
113.84834 161.98273 223.35915
114.21989 162.16122 224.43922
114.98193 161.97124 223.59126
115.73888 161.78139 222.74071
116.49072 161.59167 221.88768
116.86627 161.77051 222.96252
117.24649 161.9494 224.03682
117.63138 162.12833 225.11052
117.84266 162.49144 227.15016
118.06348 162.85455 229.19008
118.12044 163.40176 232.19772
118.53377 163.58081 233.27058
119.45741 163.20775 231.43765
120.37114 162.83487 229.60147
121.27495 162.46214 227.76207
122.33011 161.90561 224.94986
123.21169 161.53323 223.10373
123.7706 161.52893 223.19533
124.32936 161.52472 223.28545
125.03948 161.33667 222.40292
125.4464 161.51653 223.46129
126.00468 161.51256 223.547
126.41856 161.69254 224.60358
126.97899 161.68871 224.68674
127.26048 162.05261 226.71446
127.96244 161.86511 225.82201
128.52487 161.8615 225.90111
129.21928 161.67419 225.00473
129.64932 161.85452 226.05496
130.21136 161.85115 226.1297
130.77328 161.84785 226.20297
131.21263 162.02837 227.25015
131.89674 161.84149 226.34523
132.45831 161.83842 226.41418
133.13493 161.65173 225.50549
133.5811 161.83249 226.54774
134.25267 161.646 225.63564
134.70348 161.82687 226.67558
135.37 161.64053 225.76007
135.82544 161.82153 226.7977
136.58762 161.45174 224.90099
137.14352 161.44926 224.95798
137.69936 161.44685 225.01357
138.06827 161.81169 227.02484
138.62877 161.8094 227.07809
139.18918 161.80719 227.1299
139.74951 161.80504 227.18031
140.22601 161.9865 228.20876
140.95128 161.6174 226.29726
141.50899 161.61545 226.34322
141.99011 161.79709 227.36783
142.55008 161.79529 227.41119
143.11 161.79353 227.45317
143.60059 161.97534 228.47429
144.02908 162.3407 230.4751
144.66051 162.15562 229.53244
145.22502 162.15411 229.56911
145.84909 161.96921 228.62317
146.46829 161.78436 227.67551
147.13742 161.41614 225.74466
147.48256 162.14873 229.70174
147.99686 162.33099 230.71312
148.46838 162.69675 232.70523
148.99467 162.87912 233.71442
149.61121 162.69464 232.75815
150.26323 162.32683 230.81808
150.86765 162.14252 229.85852
151.39621 162.32513 230.86215
151.96266 162.32437 230.88205
152.52908 162.32367 230.90057
153.12375 162.13962 229.93506
153.68773 162.13905 229.95071
154.25168 162.13853 229.96494
154.83665 161.95468 228.99498
155.3609 162.32111 230.97214
155.911 162.50418 231.96512
156.4659 162.68732 232.9568
157.0256 162.87051 233.94713
157.58115 163.23718 235.91911
158.16608 163.05368 234.9407
158.742 163.05365 234.94388
159.31793 163.05368 234.9456
159.89386 163.05377 234.94591
160.46675 162.87053 233.96178
161.04575 163.05415 234.94225
161.61383 162.87103 233.95531
162.17709 162.68796 232.96693
162.76096 162.87177 233.94316
163.36475 163.23904 235.90077
163.96068 163.423 236.87398
164.58138 163.79044 238.82848
165.14474 163.60767 237.83299
165.72804 163.60838 237.81885
166.28423 163.42575 236.82066
166.92432 163.79344 238.76891
167.47815 163.61093 237.76787
168.09596 163.79535 238.73042
168.68184 163.79639 238.709
169.26776 163.7975 238.68616
169.85371 163.79866 238.6618
170.35165 163.43298 236.67194
170.97932 163.61774 237.62686
171.61185 163.80255 238.58006
172.198 163.80399 238.54993
172.73051 163.62201 237.53674
173.31435 163.62357 237.50381
174.01526 163.99217 239.43196
174.60403 163.99387 239.39583
175.19287 163.99564 239.3582
175.71603 163.81396 238.3383
176.4389 164.18291 240.2592
176.88922 163.81783 238.25604
177.40294 163.63632 237.23239
177.98729 163.63841 237.18777
178.57173 163.64058 237.14169
179.15625 163.64281 237.09413
179.74084 163.64511 237.0451
180.49567 164.01465 238.9532
181.08527 164.01711 238.9008
181.76486 164.20325 239.82579
182.26474 164.02225 238.7915
183.0441 164.39218 240.69148
183.63892 164.39494 240.63263
184.3334 164.58145 241.55023
185.03284 164.76804 242.46577
185.84163 165.13841 244.35672
186.33972 164.95786 243.31358
187.05159 165.14474 244.22327
187.65675 165.14801 244.15421
188.03386 164.78392 242.13092
188.2849 164.23611 239.13121
189.1162 164.60707 241.01048
189.59325 164.42685 239.96068
190.4369 164.79803 241.83534
191.29042 165.16937 243.70724
192.15376 165.54085 245.57631
192.76485 165.5448 245.49416
193.50955 165.7327 246.38423
194.12337 165.73685 246.29854
194.73735 165.74107 246.21126
195.35149 165.74539 246.12238
196.25214 166.11763 247.97675
196.87148 166.12216 247.88393
197.78706 166.49469 249.73291
198.41161 166.49944 249.63606
199.03632 166.50429 249.53755
199.66122 166.50922 249.43741
200.44411 166.69827 250.3058
200.91164 166.51938 249.23215
201.53712 166.5246 249.12701
202.49297 166.8981 250.95813
203.12375 166.90356 250.8488
203.75473 166.90912 250.73782
204.55832 167.09894 251.59276
205.367 167.28889 252.44518
205.64903 166.92642 250.39461
206.6403 167.30081 252.20943
207.27731 167.30693 252.08896
208.09914 167.49742 252.93216
208.73907 167.50378 252.80775
209.56873 167.69455 253.64604
210.21162 167.70116 253.51765
210.85477 167.70786 253.38747
211.69501 167.89908 254.21848
211.94264 167.5372 252.15935
212.58417 167.5442 252.02434
213.43011 167.73581 252.84894
214.48785 168.11206 254.63155
215.13759 168.11952 254.48956
215.99913 168.31165 255.30554
216.65192 168.31934 255.15933
217.30504 168.32718 255.01129
217.73959 168.15048 253.90324
218.39088 168.15852 253.75204
219.2663 168.35138 254.55595
219.92068 168.35971 254.40041
220.34674 168.18338 253.28722
220.99936 168.19191 253.12851
221.88597 168.38541 253.92252
222.54176 168.39423 253.75941
223.43646 168.58807 254.54773
224.33649 168.7821 255.3329
225.24182 168.97635 256.11487
225.90649 168.98578 255.94209
227.06844 169.36543 257.66901
227.73883 169.37521 257.491
228.91641 169.75534 259.20996
229.59256 169.76546 259.02661
230.26913 169.77571 258.84119
230.68529 169.60088 257.7063
231.88683 169.98189 259.41098
232.83295 170.17789 260.16479
233.51617 170.18877 259.96973
233.92909 170.0144 258.82794
234.61073 170.02553 258.62943
235.01707 169.85132 257.4856
235.41888 169.67715 256.34116
236.37762 169.87416 257.07944
237.34181 170.07138 257.81409
238.31146 170.26881 258.54504
239.57477 170.65216 260.21173
240.26715 170.66437 259.99591
241.25322 170.86249 260.71567
241.94907 170.87502 260.4946
243.24184 171.2594 262.14374
243.34222 170.90048 260.04575
244.03955 170.91342 259.81796
244.43164 170.74051 258.65414
245.12744 170.75366 258.42264
245.82376 170.76695 258.18887
246.83386 170.96651 258.88406
247.84952 171.16628 259.57523
249.18903 171.55251 261.19183
250.21826 171.75278 261.87399
251.25307 171.95328 262.552
251.64165 171.7812 261.37216
252.68253 171.98203 262.04364
253.72894 172.18306 262.71085
254.78094 172.38431 263.37384
255.83849 172.58575 264.03253
257.91724 173.34735 267.45367
258.31134 173.17596 266.25821
259.04449 173.19131 265.98254
260.1243 173.39355 266.62375
260.86093 173.40913 266.34207
260.89557 173.05095 264.22296
261.98181 173.25351 264.85464
263.07361 173.45624 265.48181
264.1709 173.65913 266.10443
264.55084 173.48792 264.8956
266.01801 173.87817 266.42349
267.49573 174.26868 267.94464
268.24588 174.28482 267.63843
268.62476 174.11362 266.42032
269.37302 174.12971 266.10999
270.49829 174.33324 266.70422
270.49106 173.9743 264.57547
271.61935 174.1778 265.16345
271.98419 174.0061 263.93887
272.34406 173.83421 262.71393
272.69891 173.66214 261.48871
273.83292 173.86542 262.06427
65.884308 164.64815 215.0544
66.493439 164.6358 215.32181
66.71492 164.81332 216.48924
67.32653 164.80075 216.75365
67.938026 164.78809 217.01601
68.929367 164.58556 216.37097
69.538071 164.57285 216.62808
70.146584 164.56009 216.88315
70.382591 164.73697 218.04463
70.993256 164.72412 218.29655
71.970917 164.52171 217.63579
73.30793 164.12993 216.05923
74.272354 163.92781 215.38916
75.591019 163.53644 213.80132
75.470947 163.90262 215.86615
77.48793 163.13295 212.43881
78.780304 162.74219 210.83487
79.71273 162.54088 210.14267
81.333626 161.96146 207.60928
82.938995 161.38242 205.06813
82.819481 161.74884 207.12202
84.745789 160.98132 203.64886
86.314705 160.4032 201.0887
86.530945 160.5809 202.21452
88.410713 159.81453 198.71893
89.282211 159.6149 197.98976
89.494858 159.79289 199.10916
90.036377 159.7822 199.30157
91.220924 159.39438 197.63641
92.395027 159.00684 195.96599
93.558723 158.61957 194.29027
94.083717 158.60951 194.47035
94.608345 158.59955 194.64871
94.823494 158.77806 195.75752
94.736671 159.1449 197.79933
95.267746 159.13509 197.97505
96.100082 158.93713 197.21436
96.927032 158.73938 196.45038
97.452026 158.72995 196.61937
97.388435 159.09683 198.66083
98.209335 158.89946 197.89017
98.157532 159.26633 199.93221
98.40197 159.44514 201.03625
98.935173 159.43607 201.2
100.03133 159.05132 199.48016
100.00055 159.41821 201.52245
100.25605 159.59724 202.62363
101.06455 159.40079 201.83827
102.13945 159.0168 200.10594
102.66564 159.00844 200.25833
103.72499 158.62489 198.51845
104.77409 158.24161 196.77414
105.02763 158.42126 197.86565
105.54512 158.41344 198.00957
106.0623 158.4057 198.15192
106.83353 158.21063 197.34395
107.09575 158.39056 198.43199
107.36261 158.57053 199.51979
107.14023 159.12521 202.50887
107.17684 159.49249 204.54887
106.25497 160.60886 210.39799
106.79968 160.60144 210.53719
107.5812 160.40691 209.72147
108.3575 160.21255 208.90295
109.12859 160.01837 208.08167
110.3539 159.45012 205.34738
110.42796 159.8176 207.38649
111.18594 159.62387 206.55757
110.16011 160.9265 213.38087
109.82801 161.66785 217.33839
109.51529 162.40904 221.29886
109.65187 162.77625 223.34511
108.09783 164.6387 233.06487
108.69324 164.6319 233.19731
110.11887 163.87779 229.4873
110.90912 163.68449 228.65358
111.49152 163.67813 228.7784
112.47421 163.29836 226.97809
113.64473 162.73203 224.21179
114.01878 162.91284 225.29205
114.59045 162.907 225.40845
115.54289 162.52791 223.59573
116.2973 162.33566 222.74373
116.67535 162.51682 223.81873
117.05809 162.698 224.89311
117.62623 162.69267 225.00124
117.65924 163.2471 228.00621
117.70668 163.80148 231.01231
118.11542 163.98282 232.08551
119.04182 163.60472 230.25562
119.62115 163.59975 230.35822
120.53258 163.22197 228.52266
121.59778 162.65793 225.71513
122.64821 162.0941 222.90361
123.36623 161.90324 222.02721
123.92279 161.8989 222.11853
124.32522 162.08098 223.1787
125.03545 161.89044 222.29671
125.74065 161.70001 221.41248
126.14748 161.88232 222.46904
126.70326 161.87839 222.55301
127.40075 161.68826 221.66331
127.5356 162.24324 224.66168
128.2328 162.05328 223.76909
128.79045 162.04965 223.84761
129.21584 162.2323 224.89825
129.51622 162.60117 226.922
130.33536 162.22539 225.04866
130.64517 162.59436 227.07082
131.20947 162.59108 227.14304
131.89366 162.40173 226.23865
132.57291 162.21249 225.33218
133.24719 162.02336 224.42371
133.69101 162.20651 225.46532
134.36024 162.01755 224.55342
134.80869 162.20081 225.59273
135.47287 162.01202 224.67743
136.02905 162.00935 224.73729
136.58513 162.00677 224.79578
137.04285 162.19028 225.83046
137.60117 162.18784 225.88634
137.97255 162.55743 227.897
138.62653 162.36911 226.9722
139.18701 162.36685 227.02405
139.74741 162.36467 227.07451
140.22397 162.54851 228.10251
140.78664 162.54645 228.15036
141.27029 162.73041 229.17618
141.83524 162.72847 229.22136
142.47421 162.54068 228.28535
142.96492 162.72481 229.3075
143.52966 162.72307 229.34843
143.89375 163.27911 232.32886
144.53008 163.0916 231.38699
145.03745 163.27594 232.4046
145.72845 162.90268 230.47885
146.35254 162.71541 229.53198
147.02657 162.34232 227.60237
147.48135 162.71278 229.59552
148.04568 162.71158 229.62518
148.51486 163.08214 231.61629
148.99362 163.45276 233.60648
149.61023 163.26587 232.65071
150.18166 163.26491 232.67508
150.79097 163.07816 231.71616
151.35991 163.07732 231.73758
151.96193 162.89072 230.77559
152.49773 163.07584 231.77621
153.12315 162.70352 229.82907
153.68719 162.70294 229.84471
154.25121 162.70242 229.85898
154.83624 162.51614 228.88948
155.36053 162.88739 230.86572
155.89447 163.2587 232.84074
156.45184 163.44423 233.832
157.02544 163.444 233.83939
157.58102 163.81549 235.81047
158.16602 163.62958 234.8325
158.742 163.62955 234.83566
159.31624 163.8154 235.82001
159.89464 163.81549 235.82031
160.46999 163.62984 234.83659
161.04053 163.44424 233.8515
161.60626 163.25871 232.86501
162.16719 163.07324 231.87712
162.73599 163.07364 231.87039
163.33504 163.44574 233.82719
163.92621 163.63211 234.8
164.56209 164.19019 237.73605
165.14543 164.19086 237.72336
165.72881 164.19159 237.70927
166.25789 163.82071 235.72928
166.89563 164.19325 237.67668
167.4791 164.19417 237.6582
168.06259 164.19516 237.63832
168.64612 164.19621 237.61696
169.22969 164.19734 237.59415
169.81329 164.19852 237.5699
170.35291 164.01392 236.56262
170.98065 164.2011 237.51706
171.61325 164.38835 238.4698
172.25073 164.57568 239.42085
172.78572 164.39133 238.40797
173.42813 164.57881 239.35583
174.07542 164.76639 240.30194
174.66669 164.76813 240.26561
175.32135 164.95584 241.20833
175.8494 164.77179 240.18851
176.44086 164.77374 240.14775
176.89122 164.40387 238.14545
177.47798 164.40594 238.10205
177.98941 164.22212 237.07756
178.57391 164.2243 237.0314
179.23875 164.41257 237.96309
179.74318 164.22893 236.93474
180.58315 164.78932 239.82076
181.17525 164.79184 239.7681
181.76743 164.79442 239.71393
182.3597 164.79709 239.65825
183.14157 165.17191 241.55702
183.64171 164.98868 240.52014
184.33629 165.17764 241.43719
185.03581 165.3667 242.35223
185.94911 165.92802 245.21918
186.44971 165.74512 244.17618
187.16408 165.93448 245.08505
187.77174 165.93784 245.01567
188.15132 165.56897 242.99294
188.52135 165.20015 240.96985
189.23865 165.38985 241.87222
189.83955 165.39348 241.79749
190.56439 165.58339 242.69589
191.42041 165.95963 244.56645
192.2863 166.33601 246.4342
192.8999 166.34006 246.35162
193.51364 166.34418 246.26744
194.12753 166.34839 246.18167
194.87994 166.539 247.06699
195.4966 166.54341 246.97766
196.25662 166.73424 247.8587
196.73041 166.55249 246.79414
197.64368 166.9299 248.64246
198.11539 166.74834 247.57503
198.73535 166.75322 247.47717
199.51083 166.94463 248.34784
200.44917 167.3226 250.18571
200.91678 167.14137 249.11246
201.70502 167.33318 249.9761
202.66344 167.71161 251.80577
203.12923 167.53067 250.72787
203.93027 167.72287 251.58438
204.56403 167.72864 251.47112
205.19798 167.73451 251.35614
205.83218 167.74049 251.23947
206.82605 168.11987 253.05278
207.46561 168.1261 252.93172
208.10541 168.13245 252.80894
208.9325 168.32562 253.64885
209.38574 168.14548 252.55811
210.02629 168.15215 252.43005
210.66711 168.15894 252.30022
211.70184 168.53946 254.09358
211.94955 168.17285 252.03526
212.59119 168.17998 251.90013
213.23311 168.18723 251.76318
214.28854 168.56842 253.54521
214.93596 168.57596 253.40361
216.00671 168.95758 255.17883
216.65964 168.96541 255.03246
217.5293 169.1604 255.84245
217.9664 168.98143 254.73415
218.39893 168.80252 253.62512
219.27448 168.99794 254.42838
219.929 169.00638 254.27269
220.35513 168.82776 253.15979
221.00787 168.83643 253.00092
221.89464 169.03249 253.79425
222.78668 169.22873 254.58444
223.68402 169.42519 255.37151
224.34561 169.43446 255.20311
225.2511 169.63127 255.98438
226.1619 169.82829 256.76239
227.32652 170.213 258.48749
227.99953 170.22295 258.30859
229.17978 170.60814 260.02573
230.11447 170.80603 260.78979
230.79611 170.81651 260.60284
231.21733 170.63947 259.46683
232.16071 170.83789 260.22269
232.84363 170.84879 260.02948
233.52701 170.85982 259.8342
233.94003 170.68317 258.69269
234.6218 170.69446 258.49393
235.30402 170.70587 258.29303
235.98668 170.71742 258.09003
236.6698 170.72911 257.88489
237.63667 170.92897 258.61804
238.32323 170.94098 258.40784
239.58676 171.32939 260.07327
240.27927 171.34177 259.85718
241.26552 171.5425 260.57617
241.96149 171.55521 260.35486
243.25449 171.94464 262.00275
243.65569 171.76936 260.84039
244.35567 171.78253 260.61154
244.75034 171.60738 259.44711
245.75708 171.80925 260.14694
246.14774 171.63426 258.97961
246.8472 171.64789 258.74246
248.17886 172.03894 260.3627
249.20273 172.24161 261.04813
250.55304 172.63324 262.65759
251.59052 172.8364 263.33392
251.98169 172.66211 262.15341
253.02524 172.8656 262.82315
254.40535 173.25827 264.41321
254.79549 173.08426 263.22632
256.18924 173.47737 264.80685
258.60944 174.43814 269.14645
259.00864 174.26456 267.94931
259.74695 174.28018 267.67142
260.48572 174.2959 267.39099
261.22498 174.31169 267.10803
261.26212 173.94879 264.98871
261.99719 173.96461 264.70267
263.08905 174.16995 265.32901
264.18643 174.37546 265.95078
264.56638 174.20193 264.74219
265.66965 174.40762 265.35684
267.14493 174.80312 266.87769
267.52341 174.62958 265.66238
268.64047 174.83557 266.26416
269.76291 175.04166 266.86121
270.89075 175.24782 267.45355
272.02393 175.45406 268.04114
273.16248 175.66034 268.62396
273.15292 175.2964 266.49191
272.74631 174.74202 263.45944
273.49316 174.75781 263.13452
274.6322 174.96375 263.70709
66.265236 165.04469 214.02467
66.871689 165.03235 214.29117
67.090485 165.21234 215.45712
67.314323 165.39214 216.62326
67.925766 165.37939 216.8858
68.537079 165.36661 217.1463
69.525734 165.16153 216.49886
70.134216 165.1487 216.75412
69.625389 165.71219 219.73126
70.980766 165.31502 218.1675
71.591187 165.30206 218.41757
72.93084 164.90518 216.84334
73.897873 164.70044 216.17505
75.938522 163.92029 212.76324
75.815834 164.29134 214.82622
77.475922 163.70351 212.31541
79.120476 163.11603 209.79665
79.700958 163.10382 210.02133
80.628098 162.90007 209.32594
82.238731 162.31343 206.78854
82.124222 162.68454 208.84355
83.37706 162.28981 207.21654
85.293159 161.51262 203.74004
85.516998 161.6925 204.86833
87.73642 160.72476 200.45409
88.613083 160.52246 199.72748
88.830795 160.70268 200.84839
89.377441 160.69176 201.0428
90.888924 160.10773 198.45334
92.065735 159.7151 196.785
93.232117 159.32277 195.11143
94.3881 158.93071 193.43263
94.59861 159.11154 194.54118
95.122986 159.10156 194.718
94.726997 159.66397 197.69064
94.95401 159.84477 198.7999
95.788971 159.6442 198.04077
96.319412 159.63446 198.21327
96.552856 159.81541 199.31982
96.790932 159.99637 200.42628
97.908615 159.60585 198.72055
98.437637 159.59653 198.88628
98.679642 159.77771 199.98927
99.494644 159.57817 199.21272
100.30431 159.37885 198.43304
99.991867 159.94083 201.41493
100.24744 160.12216 202.51578
101.3303 159.73294 200.78845
102.40289 159.34399 199.05658
103.19597 159.14543 198.26431
104.25053 158.75696 196.52415
104.76627 158.74886 196.67068
105.01987 158.93085 197.76187
105.53745 158.9229 197.90594
105.541 159.29492 199.94366
106.31731 159.09721 199.1377
106.83646 159.08954 199.27779
106.85641 159.46161 201.31552
107.13292 159.64386 202.40407
107.41408 159.82616 203.49236
106.97374 160.57762 207.435
107.51117 160.57019 207.57242
108.28542 160.37323 206.75549
108.35049 160.74527 208.79601
108.65733 160.9277 209.88336
109.88776 160.35199 207.1519
109.73949 160.91367 210.14658
110.95462 160.33835 207.40845
110.37585 161.27896 212.31633
110.48109 161.65109 214.35757
109.72609 162.78079 220.22958
109.21527 163.72087 225.14865
107.87851 165.41812 233.90623
108.47647 165.41118 234.03937
109.90475 164.64723 230.33197
111.10799 164.07288 227.57887
112.09354 163.688 225.78178
113.06905 163.30334 223.98099
114.03455 162.91888 222.17654
114.40379 163.10208 223.25545
114.77769 163.28532 224.33377
115.34679 163.27951 224.4482
116.10374 163.08473 223.59732
116.48431 163.26819 224.67242
116.86955 163.45171 225.74695
117.44023 163.44626 225.85564
117.47571 164.00784 228.85973
117.70151 164.38045 230.8989
117.93684 164.75305 232.93828
119.03684 164.18109 230.1429
119.61627 164.17604 230.24562
120.69398 163.60446 227.44324
121.59318 163.22195 225.60506
122.64377 162.65079 222.79503
123.203 162.64626 222.88834
123.76209 162.64182 222.98012
124.32101 162.63745 223.07045
125.03134 162.44443 222.189
125.43837 162.629 223.24664
125.85011 162.81361 224.30353
126.41084 162.80957 224.38832
126.97142 162.80562 224.47163
127.253 163.17908 226.49765
128.09215 162.79796 224.63388
128.65231 162.79425 224.71278
129.21234 162.79062 224.79025
129.6425 162.97568 225.83972
130.332 162.7836 224.94084
130.76675 162.96878 225.98805
131.45117 162.7769 225.08563
132.25066 162.39658 223.20645
132.92273 162.20491 222.29962
133.58984 162.01335 221.39082
133.91367 162.38741 223.40677
134.46779 162.38449 223.47067
134.91386 162.57013 224.50931
135.57573 162.37891 223.59428
136.12955 162.37621 223.65395
136.5826 162.56204 224.68912
137.04037 162.74791 225.72339
137.50291 162.93384 226.75673
138.06363 162.9314 226.81148
138.62425 162.92903 226.86481
139.1848 162.92674 226.91673
139.83145 162.73615 225.98892
140.30566 162.92236 227.01631
140.86598 162.92027 227.064
141.26834 163.29497 229.0681
141.83336 163.293 229.11334
142.39828 163.29111 229.15715
142.89146 163.4776 230.17905
143.45869 163.47585 230.2202
143.89212 163.85077 232.21957
144.46405 163.84912 232.25824
144.97389 164.03584 233.2756
145.72702 163.46944 230.37062
146.29398 163.468 230.40468
146.91568 163.27835 229.45674
147.42773 163.46533 230.46855
147.99454 163.4641 230.49838
148.46617 163.83946 232.48872
148.99257 164.02661 233.49702
149.60925 163.8373 232.54175
150.22107 163.64806 231.58485
150.82803 163.45889 230.62631
151.43015 163.26979 229.6662
151.99431 163.26901 229.68605
152.55844 163.2683 229.70453
153.15083 163.07941 228.73988
153.71251 163.07881 228.75549
154.25072 163.26653 229.75156
154.83583 163.07782 228.7825
155.36018 163.45387 230.75784
155.9104 163.64175 231.74995
156.46542 163.82971 232.74075
157.03667 163.82948 232.74811
157.5899 164.20578 234.71825
158.16595 164.20569 234.72282
158.74202 164.20566 234.726
159.3163 164.39392 235.70985
159.89542 164.58224 236.69231
160.47324 164.39418 235.70905
161.05171 164.39441 235.70651
161.62233 164.20647 234.72041
162.18814 164.01859 233.73296
162.74913 163.83076 232.74409
163.35065 164.2077 234.69994
163.92677 164.20825 234.69028
164.52286 164.39709 235.66109
165.10146 164.39778 235.64851
165.68007 164.39851 235.63451
166.23155 164.21107 234.63731
166.86696 164.58844 236.58385
167.44806 164.58937 236.56543
168.02921 164.59038 236.54558
168.6104 164.59145 236.52429
169.19162 164.59259 236.50157
169.77289 164.59378 236.4774
170.31015 164.40677 235.47066
170.88908 164.4081 235.44371
171.5658 164.78607 237.37709
172.20094 164.97585 238.32777
172.78728 164.97739 238.2961
173.48587 165.35562 240.22395
174.13565 165.54564 241.16946
174.66846 165.35909 240.15273
175.3232 165.54926 241.09492
175.8513 165.36282 240.07555
176.44283 165.36481 240.03471
177.03442 165.36685 239.99245
177.55309 165.1806 238.96927
178.14241 165.18279 238.92419
178.73183 165.18504 238.87764
179.3213 165.18736 238.82959
179.91087 165.18976 238.78006
180.6707 165.56906 240.68584
181.26529 165.57162 240.6329
181.85995 165.57425 240.57845
182.45473 165.57697 240.52248
183.14435 165.76822 241.44254
183.64456 165.58263 240.40607
184.33922 165.77405 241.32259
185.03883 165.96558 242.23712
185.74339 166.1572 243.1496
186.34605 166.16042 243.08377
187.16737 166.54077 244.96834
187.66342 166.35564 243.92319
188.26886 166.3591 243.85245
188.7579 166.17407 242.80502
189.36118 166.1777 242.73146
189.8432 165.99281 241.68184
190.69194 166.37381 243.55389
191.42429 166.56633 244.44925
192.29028 166.94762 246.31598
192.90396 166.95172 246.23329
193.65131 167.14459 247.12195
194.26772 167.1489 247.03574
194.74593 166.96457 245.97569
195.36023 166.96904 245.88663
196.11794 167.16234 246.76746
196.58936 166.97824 245.70364
197.50034 167.36055 247.5513
197.9697 167.17661 246.48459
198.58731 167.18156 246.38705
199.36047 167.37544 247.25749
200.29652 167.75833 249.09476
200.76176 167.57474 248.02223
201.71037 167.95793 249.85419
202.66891 168.34131 251.68274
203.1348 168.15802 250.60521
203.76598 168.16376 250.49394
204.22496 167.98061 249.41429
205.37874 168.55359 252.19893
205.83818 168.37065 251.11586
206.8322 168.75496 252.92809
207.47186 168.76129 252.80692
208.29639 168.95686 253.64844
208.93898 168.96344 253.52328
209.3923 168.78098 252.43288
210.22495 168.97694 253.26768
210.6739 168.79465 252.17474
211.31509 168.80167 252.04298
211.95657 168.80878 251.90948
212.80006 169.00531 252.73514
213.44455 169.0127 252.59752
214.29596 169.20955 253.418
215.15259 169.40659 254.23563
216.01443 169.60381 255.05032
216.45345 169.4223 253.94548
217.3208 169.61983 254.7554
217.97447 169.62802 254.60515
218.40707 169.44681 253.49643
219.28278 169.64479 254.29904
219.93744 169.65337 254.14316
220.36366 169.47244 253.03058
220.78529 169.29156 251.91725
221.66975 169.49014 252.71054
222.08716 169.30948 251.59468
222.97726 169.50838 252.38287
223.63156 169.5177 252.21619
224.77338 169.90683 253.94981
226.17149 170.4861 256.62939
227.0878 170.6859 257.40344
228.00946 170.88593 258.17422
228.93646 171.08615 258.94162
229.61288 171.09656 258.75781
230.2897 171.10712 258.57196
231.22786 171.30791 259.33054
232.17142 171.50893 260.08569
232.85448 171.51997 259.89224
233.26962 171.34094 258.75238
233.68025 171.16197 257.61185
234.08633 170.98306 256.47067
234.76372 170.99457 256.27103
235.44154 171.0062 256.06927
236.11981 171.01796 255.86539
237.08186 171.22035 256.5993
238.33516 171.61348 258.26871
239.59892 172.00694 259.93286
240.29156 172.0195 259.71652
241.27798 172.22284 260.43475
241.97409 172.2357 260.21313
242.96901 172.43947 260.92453
243.66861 172.45267 260.69766
244.06537 172.27515 259.53494
244.45761 172.09767 258.37158
245.46204 172.30211 259.07144
246.1611 172.3158 258.8363
247.17407 172.52065 259.52905
248.19257 172.72571 260.21774
249.21661 172.93102 260.9024
250.56714 173.32773 262.51056
250.95786 173.15103 261.33264
251.67001 173.16565 261.07996
253.0397 173.56308 262.67468
254.08897 173.76941 263.33939
254.47662 173.59305 262.15366
255.86807 173.99123 263.73383
257.60876 174.58125 266.22894
257.65921 174.21362 264.11462
259.07489 174.61253 265.67883
260.15494 174.82002 266.31839
260.89169 174.83592 266.0361
261.27759 174.66005 264.8349
262.72049 175.05978 266.37933
263.46112 175.07591 266.08844
264.20215 175.09209 265.79498
264.94357 175.10829 265.49899
266.04944 175.31662 266.11176
266.79416 175.33292 265.8096
267.53918 175.34921 265.50488
269.02802 175.75008 267.01401
269.77878 175.76646 266.70203
270.90662 175.97519 267.29352
272.03979 176.18401 267.88028
273.17831 176.39288 268.46234
273.16858 176.02409 266.33109
272.76169 175.4624 263.30002
273.11877 175.28558 262.07422
273.86301 175.30128 261.74765
67.824608 164.85146 210.2982
67.640259 165.22919 212.36005
67.853798 165.41171 213.52342
67.687241 165.78886 215.58904
67.913429 165.97092 216.75385
68.144608 166.1528 217.91878
69.513329 165.75046 216.36787
70.12175 165.73753 216.62338
69.985161 166.11374 218.69168
70.968201 165.90613 218.03664
71.945938 165.69861 217.37741
72.553558 165.68561 217.6246
73.523178 165.47824 216.95813
75.926308 164.49377 212.63713
74.731995 165.45239 217.44012
76.754517 164.6627 214.01956
78.756447 163.87347 210.589
79.689056 163.66701 209.89835
79.922226 163.84875 211.03885
82.227127 162.86655 206.66817
81.770607 163.43637 209.6418
82.007805 163.61819 210.77835
83.93428 162.83084 207.30797
84.502625 162.81908 207.5174
86.398087 162.03249 204.03198
87.614296 161.63374 202.38568
88.820061 161.23528 200.73386
89.366783 161.22423 200.9285
90.878502 160.63272 198.34082
91.736214 160.42853 197.60149
93.222046 159.83769 195.00146
94.378204 159.44061 193.32391
94.277046 159.81709 195.36241
94.804008 159.80693 195.54031
94.717186 160.18332 197.58047
94.944244 160.36642 198.68941
95.779358 160.16328 197.931
96.609085 159.96033 197.16927
96.543381 160.33669 199.20996
97.369904 160.13399 198.444
97.899384 160.12442 198.6116
98.42852 160.11497 198.77751
98.957291 160.10562 198.94177
99.769943 159.90356 198.16518
100.01381 160.08723 199.26526
99.983063 160.46367 201.30591
100.51544 160.45465 201.46503
101.04748 160.44576 201.62248
102.39452 159.85916 198.94963
102.91844 159.85059 199.10164
103.70885 159.64961 198.30772
104.49399 159.44882 197.5108
104.48827 159.82555 199.54808
104.75153 160.00981 200.64012
105.53324 159.80939 199.83777
106.30969 159.60913 199.03247
106.82895 159.60135 199.1727
106.84892 159.97818 201.20961
107.37253 159.97054 201.34805
107.89583 159.96301 201.48497
108.17677 160.14772 202.57135
109.18119 159.75613 200.80247
109.46404 159.94101 201.88641
109.28214 160.51004 204.8759
108.6503 161.46298 209.77458
108.04279 162.41571 214.67772
107.91422 162.98434 217.67584
109.59889 162.01753 213.03343
109.03482 162.97 217.94249
110.03458 162.57928 216.16046
110.15434 162.95612 218.2027
109.63857 163.90829 223.11836
108.29675 165.62735 231.87054
109.31017 165.23691 230.08539
110.31352 164.84666 228.29637
111.92249 163.88161 223.6243
112.89841 163.49188 221.8262
113.66396 163.29402 220.98526
114.62226 162.90469 219.18039
114.59337 163.47345 222.18105
114.5789 164.04214 225.18317
115.15054 164.03621 225.2982
115.91006 163.8389 224.44841
116.29314 164.02466 225.52364
116.68089 164.21049 226.59827
117.43489 164.01352 225.74283
117.8271 164.19948 226.81523
118.22398 164.38551 227.88702
118.79903 164.38022 227.99207
119.887 163.80103 225.19608
120.45436 163.79599 225.29671
121.02151 163.79106 225.39586
121.91598 163.40369 223.55794
122.63922 163.20772 222.68501
122.88081 163.58557 224.71559
123.75774 163.19859 222.87025
124.31673 163.19417 222.96069
124.72399 163.381 224.01939
125.28511 163.37672 224.10722
125.84607 163.37254 224.19357
126.26257 163.55956 225.24936
126.96754 163.36441 224.36185
127.24918 163.74265 226.38699
128.08844 163.35663 224.52425
128.78326 163.16182 223.63097
129.34094 163.15814 223.70815
129.8985 163.15454 223.78391
130.58325 162.96004 222.88493
131.13812 162.95662 222.95749
131.81535 162.7623 222.05469
132.36757 162.75906 222.12407
132.91966 162.75587 222.192
133.58687 162.56186 221.28374
133.91075 162.94069 223.29878
134.35457 163.12863 224.33817
134.80313 163.31664 225.37665
135.46748 163.12292 224.46243
135.92068 163.31105 225.4986
136.37863 163.49922 226.53387
136.84132 163.68745 227.56821
137.4046 163.68489 227.62469
137.87436 163.87323 228.65691
138.53091 163.67999 227.73335
139.18257 163.48683 226.80791
139.7431 163.48457 226.85846
140.21979 163.67317 227.88567
140.78258 163.67105 227.93361
141.26636 163.85976 228.95856
141.83144 163.85776 229.00383
142.47057 163.66507 228.06885
142.96138 163.85397 229.09013
143.52626 163.85217 229.13115
143.95734 164.23192 231.12949
144.52692 164.23026 231.168
145.03441 164.41936 232.18475
145.7852 163.8457 229.28108
146.34981 163.84424 229.31502
146.96916 163.65216 228.36743
147.53127 163.65085 228.39844
147.99335 164.03098 230.38879
148.5126 164.22046 231.39774
149.03665 164.41 232.40547
149.65099 164.21826 231.45056
150.13945 164.5986 233.43652
150.78923 164.21634 231.49777
151.39381 164.02481 230.53822
151.92735 164.21468 231.53929
152.49637 164.21393 231.55794
153.12193 163.83197 229.61267
153.6861 163.83136 229.62834
154.22676 164.02147 230.62402
154.8354 163.63971 228.6741
155.37845 163.82994 229.66701
155.92632 164.02023 230.65862
156.47899 164.21057 231.6489
157.04788 164.21036 231.65627
157.59879 164.59148 233.62544
158.15932 164.97266 235.59328
158.74202 164.78198 234.61481
159.31638 164.97266 235.59822
159.89555 165.16339 236.58017
160.47038 164.78229 234.61574
161.04651 164.7825 234.61317
161.61478 164.59216 233.62759
162.17824 164.40189 232.64061
162.73688 164.21165 231.65225
163.33604 164.59343 233.60721
163.90984 164.59398 233.59756
164.50357 164.78525 234.56793
165.07982 164.78592 234.5554
165.65608 164.78668 234.54144
166.23238 164.78749 234.52602
166.83829 164.97903 235.49042
167.44904 165.17064 236.45319
168.03024 165.17166 236.43332
168.6115 165.17274 236.41202
169.19278 165.1739 236.38928
169.77411 165.17513 236.36507
170.35548 165.17642 236.33943
170.9369 165.17776 236.31232
171.56725 165.36989 237.26422
172.20245 165.5621 238.2144
172.78885 165.56367 238.18269
173.43141 165.75603 239.12956
174.13739 166.13921 241.05458
174.7312 166.14101 241.01802
175.32507 166.14288 240.97998
175.85324 165.95407 239.96101
176.51302 166.14685 240.89943
177.1071 166.14894 240.85692
177.55522 165.76955 238.8551
178.0692 165.58098 237.83127
178.7341 165.77405 238.76338
179.24341 165.5856 237.73692
179.9133 165.77885 238.6657
180.67322 166.16302 240.57047
181.26788 166.16562 240.51747
181.86263 166.1683 240.46298
182.54982 166.36192 241.38425
183.14717 166.36478 241.32648
183.64746 166.17682 240.29045
184.34221 166.3707 241.20644
185.14392 166.7556 243.09669
185.851 166.94971 244.00838
186.34929 166.76205 242.96645
187.17072 167.14729 244.85004
187.66684 166.95979 243.80527
188.15823 166.77234 242.75952
188.76146 166.77594 242.68742
189.36482 166.77962 242.6138
189.84692 166.59238 241.56456
190.69577 166.97827 243.43558
191.55446 167.36432 245.30382
192.29433 167.55945 246.19608
192.9081 167.56363 246.11336
193.78906 167.95009 247.97388
194.27203 167.76337 246.91513
194.8887 167.76782 246.82722
195.50552 167.77238 246.73772
196.12253 167.77702 246.64658
196.59402 167.59058 245.58313
197.20894 167.5954 245.48911
197.67351 167.40907 244.42352
198.43932 167.60532 245.29622
199.21017 167.80168 246.16646
200.14391 168.18947 248.00307
200.76706 168.19482 247.89966
201.71581 168.58295 249.73053
202.34424 168.58856 249.62297
202.8053 168.40289 248.54662
203.43172 168.40868 248.43611
204.05835 168.41457 248.32394
204.86011 168.61201 249.17587
205.84427 169.00107 250.99051
206.65868 169.19884 251.83676
207.29599 169.20525 251.7159
208.30286 169.59485 253.52124
208.94557 169.60155 253.39598
209.39899 169.41675 252.30591
210.03976 169.42365 252.17757
210.87523 169.62228 253.00946
211.32211 169.43776 251.91557
211.9637 169.44499 251.78192
212.80734 169.64407 252.60695
213.65616 169.84332 253.42914
214.3035 169.85097 253.28902
215.3694 170.24237 255.06487
216.23384 170.44215 255.87837
216.88945 170.45026 255.73111
217.54538 170.45848 255.582
218.42058 170.65878 256.3877
218.63678 170.28334 254.32204
219.29123 170.29193 254.16791
219.946 170.30063 254.01183
220.14351 169.92532 251.94521
220.79404 169.93422 251.78656
221.44492 169.94324 251.62601
222.09616 169.95239 251.46358
222.74776 169.96169 251.29922
223.88199 170.35559 253.03551
225.02647 170.74976 254.76727
226.18123 171.14421 256.49454
227.34625 171.53894 258.21719
228.27054 171.74158 258.98657
228.94669 171.75201 258.8046
229.87924 171.95503 259.5679
230.55869 171.96579 259.38116
230.97762 171.78413 258.24643
231.65543 171.79512 258.05624
232.59958 171.99887 258.80856
233.01233 171.81752 257.66968
233.42056 171.63623 256.53015
234.371 171.84048 257.27475
235.60274 172.23776 258.95746
236.00981 172.05684 257.81229
236.69322 172.06888 257.60669
237.37708 172.08102 257.3989
238.34726 172.2863 258.12762
239.03455 172.29878 257.91473
239.72232 172.3114 257.69968
240.70393 172.51727 258.41873
241.39516 172.53023 258.19846
242.68359 172.92972 259.84537
243.38083 172.94304 259.61905
244.38193 173.1498 260.32352
244.77675 172.97008 259.15958
245.78384 173.1772 259.85779
246.48557 173.1911 259.62149
247.18777 173.20512 259.3829
248.20645 173.41283 260.0708
249.23065 173.62076 260.75467
250.26041 173.82889 261.43436
250.64865 173.64987 260.25757
251.68443 173.85835 260.93076
253.05435 174.26086 262.52417
254.10376 174.46983 263.18805
254.8251 174.48509 262.92508
256.55542 175.08237 265.42453
257.62402 175.29201 266.07452
257.67444 174.91962 263.96097
258.74655 175.12949 264.60504
259.82416 175.33954 265.24469
260.55847 175.35555 264.9631
260.59042 174.983 262.84726
262.02838 175.38771 264.39227
262.76395 175.40387 264.10309
263.49994 175.42007 263.81137
264.59787 175.63083 264.42892
265.70126 175.84172 265.0419
266.44339 175.85808 264.74045
267.55511 176.06915 265.34521
269.04401 176.47505 266.85297
269.79474 176.49155 266.54068
270.92258 176.70285 267.13135
272.43518 177.10915 268.62173
273.19421 177.12566 268.29849
273.18433 176.75203 266.16812
272.39001 175.98792 262.23724
273.13409 176.00381 261.91296
273.4859 175.82436 260.68719
67.027275 165.82352 211.96333
67.238075 166.00862 213.12723
67.453995 166.19351 214.29135
67.674995 166.37817 215.45564
67.518372 166.7599 217.52271
68.132088 166.74693 217.78471
69.123276 166.53673 217.13989
69.734192 166.52368 217.39668
70.344963 166.51059 217.65138
71.325478 166.30048 216.99608
71.933319 166.2874 217.24557
72.540916 166.27431 217.49303
73.872894 165.86755 215.91631
75.913994 165.06747 212.50931
75.433884 165.64488 215.48369
77.096886 165.04199 212.97758
79.448662 164.04628 208.63342
79.327446 164.42699 210.68968
78.86895 165.00403 213.6649
80.148094 164.59857 212.05403
77.3125 166.55008 221.46461
77.582588 166.73352 222.61317
80.216125 165.54297 217.31575
81.481216 165.13803 215.69212
84.395393 163.75249 209.44939
87.932655 161.97549 201.34467
89.136086 161.57205 199.69324
89.680359 161.56093 199.88721
91.189789 160.96198 197.30046
92.04512 160.75526 196.56099
92.895058 160.54874 195.81799
94.053902 160.14658 194.14262
93.643478 160.72356 197.11089
94.175552 160.71318 197.2907
94.400505 160.89856 198.40021
95.238617 160.69269 197.6451
95.769615 160.6826 197.81972
96.898735 160.28156 196.12479
96.830536 160.66272 198.16382
97.066223 160.84837 199.26886
97.598297 160.83865 199.43745
98.13002 160.82903 199.60435
98.661392 160.8195 199.76958
99.192413 160.81009 199.93312
100.00486 160.60558 199.15558
99.974152 160.98676 201.19537
100.50662 160.97763 201.35468
101.31307 160.77353 200.57068
102.92967 159.98447 196.95645
103.44874 159.97586 197.10719
103.96747 159.96738 197.25636
105.01463 159.56914 195.51491
105.00399 159.95071 197.54993
105.26235 160.13739 198.64027
106.03926 159.93448 197.83722
106.81091 159.73175 197.03123
106.82133 160.11339 199.06618
106.84134 160.49498 201.10222
107.36504 160.48723 201.24084
107.39928 160.86884 203.27771
107.68522 161.0558 204.36502
108.21545 161.04826 204.5009
109.21977 160.65179 202.73161
109.27507 161.03351 204.76796
108.17864 162.38742 211.57033
106.19722 164.51862 222.19406
106.31567 164.8998 224.24139
107.56805 164.30919 221.51537
106.80363 165.46776 227.38269
108.48802 164.48889 222.73965
110.14758 163.51047 218.08931
109.84682 164.28047 222.04555
108.5024 166.02133 230.79286
109.51353 165.62593 229.00826
110.09918 165.61905 229.13734
111.5056 164.83582 225.42767
112.28375 164.63518 224.59155
113.4575 164.04659 221.83215
114.4184 163.65228 220.02892
115.17383 163.45219 219.18341
115.73112 163.44623 219.2972
116.66934 163.05247 217.4848
117.40945 162.85284 216.63173
117.95877 162.84726 216.73947
118.32463 163.03563 217.80945
119.23761 162.64252 215.98621
119.78387 162.63724 216.089
120.32996 162.63203 216.19029
120.70235 162.82072 217.25569
121.2505 162.8157 217.35448
121.29256 163.39198 220.35115
121.51526 163.77451 222.382
122.23878 163.57596 221.51118
122.79595 163.5712 221.60576
123.03515 163.95386 223.63506
123.90977 163.56198 221.79041
124.46643 163.5575 221.88049
124.87132 163.7467 222.93843
125.43009 163.74237 223.02597
125.98871 163.73814 223.11206
126.54717 163.73399 223.19664
127.10548 163.72992 223.27979
127.5242 163.91945 224.33258
128.22169 163.72205 223.44164
128.64499 163.9117 224.4922
129.33736 163.71451 223.59767
130.02475 163.51741 222.701
130.70715 163.32043 221.80225
131.13477 163.51039 222.84772
132.05707 162.92682 219.99857
132.48445 163.11693 221.04118
133.03421 163.11371 221.10889
133.58385 163.11058 221.17522
134.13339 163.10753 221.2401
134.46205 163.4912 223.2534
135.0162 163.48827 223.31606
135.67581 163.29211 222.40181
136.12424 163.48264 223.43704
136.4767 163.86649 225.44736
137.03531 163.86383 225.50484
137.59384 163.86125 225.56088
