ply
format ascii 1.0
comment PCL generated
element vertex 1596
property float x
property float y
property float z
element camera 0
property float view_px
property float view_py
property float view_pz
property float x_axisx
property float x_axisy
property float x_axisz
property float y_axisx
property float y_axisy
property float y_axisz
property float z_axisx
property float z_axisy
property float z_axisz
property float focal
property float scalex
property float scaley
property float centerx
property float centery
property int viewportx
property int viewporty
property float k1
property float k2
end_header
142.44193 118.02428 226.33681
142.91359 118.01885 227.37509
143.46141 118.0187 227.41496
143.94019 118.01328 228.45111
144.49031 118.01314 228.48849
144.91202 118.00246 230.52039
145.46686 118.00233 230.5554
146.02167 118.00219 230.58908
146.51945 117.9968 231.61977
147.022 117.9914 232.64941
147.63368 117.99656 231.68068
148.14098 117.99117 232.70786
148.70041 117.99107 232.73508
149.25983 117.99097 232.76094
149.90436 118.00143 230.78731
150.45892 118.00134 230.81026
151.12679 118.01707 227.83408
151.67409 118.017 227.85411
152.22139 118.01692 227.87282
152.7075 118.0063 229.88925
153.25957 118.00624 229.90547
153.78583 118.0009 230.92003
154.36363 118.00613 229.93393
154.89467 118.0008 230.94595
155.44907 118.00076 230.95694
155.97112 117.99016 232.96628
156.50276 117.97957 234.97443
157.06674 117.97954 234.98154
157.62175 117.97424 235.9872
158.18813 117.97421 235.99162
158.7545 117.9742 235.99466
159.32266 117.97947 234.99635
159.88664 117.97946 234.99669
160.4476 117.98475 233.99568
161.00377 117.99003 232.99333
161.55515 117.99532 231.98969
162.12218 117.99006 232.98459
162.6814 117.99008 232.9782
163.24063 117.9901 232.97044
163.79988 117.99014 232.9614
164.37897 117.98489 233.95074
164.98511 117.97438 235.9384
165.57623 117.96915 236.92482
166.17218 117.96392 237.90974
166.74352 117.96398 237.89362
167.28307 117.96932 236.87663
167.81783 117.97467 235.85843
168.34782 117.98002 234.83904
168.87305 117.98537 233.81844
169.47636 117.98018 234.79495
170.04068 117.98026 234.77087
170.60503 117.98036 234.74544
171.26668 117.96991 236.71623
171.83591 117.97001 236.68782
172.45862 117.96485 237.6566
173.03033 117.96497 237.62532
173.54384 117.97036 236.59436
174.17389 117.96521 237.55859
174.80879 117.96007 238.52113
175.3831 117.96021 238.48419
175.95746 117.96035 238.44582
176.67238 117.94995 240.40111
177.25165 117.95011 240.35957
177.75592 117.95554 239.31949
178.33292 117.9557 239.27538
178.83009 117.96114 238.23303
179.48708 117.95605 239.18288
179.97958 117.96149 238.13814
180.64151 117.95641 239.08478
181.21884 117.9566 239.03362
181.98004 117.94627 240.97253
182.65663 117.94121 241.9136
183.33812 117.93616 242.85281
184.12361 117.92585 244.78514
184.91882 117.91556 246.71507
185.72375 117.90527 248.64255
186.11302 117.91602 246.59029
186.60152 117.92152 245.53162
187.08528 117.92702 244.47202
187.33719 117.94304 241.42447
187.69072 117.9538 239.37032
188.27148 117.95406 239.30179
188.73157 117.95957 238.23918
189.43333 117.95459 239.16042
190.26567 117.94437 241.07169
190.72365 117.9499 240.005
191.56827 117.93969 241.91179
192.42264 117.92949 243.81587
193.01625 117.92979 243.7356
193.74768 117.92486 244.64423
194.62415 117.91469 246.54086
195.3679 117.90977 247.44482
196.11662 117.90486 248.34654
197.01765 117.89472 250.23515
197.62897 117.89507 250.1433
198.24045 117.89542 250.04991
198.54288 117.90625 247.97906
198.99283 117.91184 246.89575
199.43806 117.91744 245.81165
199.87865 117.92304 244.72681
200.47881 117.92342 244.62759
201.24583 117.91857 245.51288
201.84875 117.91897 245.41019
202.62338 117.91414 246.29111
203.40305 117.90932 247.16963
204.18773 117.90451 248.04568
204.97745 117.89971 248.91933
205.77222 117.89492 249.79047
206.57202 117.89014 250.65912
207.37689 117.88538 251.52525
207.80981 117.89104 250.42471
208.42902 117.89149 250.30507
209.43517 117.88155 252.14597
210.05968 117.88202 252.02213
210.48618 117.8877 250.91644
211.1087 117.88819 250.7897
211.93456 117.88348 251.64052
212.56 117.88398 251.50996
213.39365 117.8793 252.3559
214.6532 117.86423 255.1543
215.28912 117.86476 255.01657
215.92532 117.8653 254.87717
216.5618 117.86584 254.73604
217.19855 117.86639 254.59317
217.39038 117.87732 252.49878
218.47287 117.86752 254.30222
219.11047 117.8681 254.15411
219.74837 117.86868 254.00427
220.38657 117.86927 253.85265
221.25989 117.86469 254.6713
221.66389 117.87047 253.54411
222.06332 117.87625 252.41632
222.70035 117.87687 252.25819
223.33768 117.87749 252.09828
223.97534 117.87813 251.93654
224.86288 117.87361 252.74136
226.00763 117.86395 254.51082
226.90814 117.85947 255.30881
227.81393 117.85499 256.10364
228.46567 117.85568 255.92952
229.11778 117.85638 255.75351
230.03455 117.85194 256.54004
230.6899 117.85265 256.35959
231.61484 117.84824 257.14029
232.54512 117.84384 257.91763
233.20663 117.8446 257.73001
233.31537 117.85561 255.61848
234.53091 117.84612 257.34888
234.91214 117.85202 256.19577
235.28888 117.85793 255.04219
235.94759 117.85872 254.84613
236.89572 117.85441 255.60542
237.84927 117.85011 256.36121
239.39612 117.83561 259.02505
240.95834 117.82114 261.68228
241.93816 117.81691 262.42429
242.62204 117.81779 262.20908
243.30643 117.81868 261.99179
243.3786 117.82977 259.86853
243.13245 117.84595 256.79529
243.80591 117.84686 256.57559
244.16605 117.85286 255.40436
244.52168 117.85887 254.23257
246.14827 117.84458 256.85156
246.82632 117.84554 256.62244
248.15266 117.83638 258.28336
249.48953 117.82724 259.9386
250.83704 117.81813 261.5882
251.86374 117.81411 262.28848
253.22992 117.80505 263.92734
254.27032 117.80108 264.61859
254.97743 117.80217 264.36493
256.36801 117.79319 265.98871
256.73737 117.79935 264.78952
257.10229 117.80553 263.58978
257.46277 117.81171 262.38956
258.17032 117.81287 262.12497
258.87848 117.81405 261.85794
259.58722 117.81525 261.58853
260.29657 117.81645 261.31668
261.36816 117.81267 261.9747
262.44543 117.80891 262.62827
263.16162 117.81019 262.34708
264.24768 117.80648 262.99268
265.33945 117.8028 263.63376
266.43686 117.79915 264.27026
267.16302 117.80051 263.97592
267.51028 117.80686 262.75381
268.23505 117.80826 262.45538
268.19119 117.8196 260.30826
268.91193 117.82103 260.00677
269.24353 117.82743 258.78186
66.444313 118.61578 220.03761
67.829269 118.61946 218.45151
68.818375 118.62064 217.78175
68.653809 118.6142 219.87935
69.639496 118.61542 219.20432
70.997292 118.61922 217.59909
71.594299 118.61794 217.84161
72.190849 118.61668 218.08205
73.52697 118.62057 216.46237
74.117538 118.61935 216.69664
75.072586 118.62072 215.99785
75.659683 118.61954 216.22707
76.606224 118.62096 215.52126
77.189865 118.61981 215.74547
77.418198 118.61607 216.90265
78.003433 118.61494 217.12384
78.937981 118.61645 216.40625
79.172478 118.61274 217.56033
80.101051 118.61428 216.83694
80.68187 118.61321 217.04941
81.26223 118.61216 217.25992
81.84214 118.61112 217.46849
82.756294 118.61274 216.73286
83.000557 118.60909 217.87997
83.579071 118.60809 218.08289
84.15715 118.6071 218.28389
84.410072 118.60347 219.42885
84.667542 118.59985 220.57365
85.249268 118.59888 220.77078
85.830551 118.59794 220.96606
86.411385 118.59701 221.1595
87.616241 118.60144 219.45108
89.120445 118.60858 216.78677
89.380318 118.60502 217.9223
90.863792 118.61221 215.248
89.309181 118.59251 222.0993
89.887482 118.59164 222.28188
90.168076 118.58809 223.41742
90.748047 118.58723 223.5972
90.450546 118.57828 226.64413
93.066376 118.59641 220.12321
93.060455 118.59019 222.21037
93.348999 118.58666 223.34018
94.207047 118.58859 222.55121
95.339798 118.59326 220.79904
95.907242 118.5925 220.96376
96.474335 118.59174 221.1268
97.31369 118.59373 220.32603
98.147766 118.59573 219.52223
98.976601 118.59776 218.71538
99.534958 118.59705 218.86974
100.35574 118.5991 218.05762
100.91101 118.59841 218.20808
101.46597 118.59773 218.35692
102.02061 118.59706 218.5042
102.32201 118.59364 219.61736
102.8785 118.59299 219.7621
103.43472 118.59234 219.90523
103.74506 118.58893 221.0162
104.30314 118.58829 221.15686
104.37956 118.58212 223.23711
104.70374 118.57872 224.34705
105.26834 118.5781 224.48479
105.83267 118.57749 224.62099
106.39676 118.57689 224.7556
107.41754 118.58187 222.94157
108.20227 118.58408 222.09785
108.75827 118.58351 222.22615
108.87171 118.57735 224.30338
109.65085 118.57959 223.45396
109.99229 118.57624 224.55457
110.33838 118.5729 225.65472
111.11195 118.57516 224.7997
111.88046 118.57744 223.94206
112.02419 118.5713 226.0172
112.99396 118.5764 224.17715
113.34869 118.57308 225.2719
113.50882 118.56695 227.3461
114.269 118.56927 226.47948
115.21854 118.57442 224.62952
115.58221 118.57111 225.72034
116.51924 118.57629 223.86502
116.69783 118.57018 225.93571
117.07066 118.56689 227.024
117.81274 118.56926 226.14526
118.72968 118.57448 224.2805
119.28187 118.57404 224.38075
120.18394 118.57928 222.51047
120.73097 118.57887 222.60699
120.93747 118.57278 224.67297
121.1535 118.56669 226.73918
121.5444 118.56344 227.81937
122.10292 118.56303 227.91229
122.82181 118.56549 227.0168
123.69383 118.57079 225.13162
124.55605 118.57612 223.24355
125.10194 118.57575 223.3289
125.79855 118.57824 222.42427
125.89647 118.56933 225.47327
126.44682 118.56898 225.55519
126.70982 118.56291 227.61499
127.40596 118.56543 226.70482
127.95837 118.56509 226.78291
128.51067 118.56477 226.85963
128.92889 118.56158 227.92596
129.48338 118.56126 228.00021
129.7795 118.55522 230.05635
130.46533 118.55779 229.13654
131.27057 118.56322 227.2225
131.82225 118.56293 227.29094
132.37384 118.56264 227.35802
133.04245 118.56523 226.43059
133.70613 118.56783 225.50125
134.02809 118.56182 227.55103
134.68921 118.56443 226.6187
135.23798 118.56418 226.67867
135.68159 118.56105 227.73177
136.2326 118.56081 227.78931
136.98404 118.56633 225.85558
137.43225 118.56322 226.90514
137.98064 118.56299 226.95836
138.62199 118.56565 226.01462
139.07722 118.56255 227.06084
139.62543 118.56235 227.11005
140.08775 118.55926 228.15422
140.72165 118.56194 227.20447
141.26967 118.56175 227.24968
141.73904 118.55868 228.29045
142.36557 118.56139 227.33609
142.91344 118.56121 227.37727
143.38985 118.55815 228.41463
143.94003 118.55799 228.45334
144.55676 118.56072 227.49292
144.91187 118.5519 230.52261
145.46672 118.55174 230.55765
146.02153 118.55161 230.59134
146.46234 118.54568 232.62041
147.02188 118.54555 232.65166
147.63358 118.54832 231.68294
148.09108 118.5424 233.70889
148.65292 118.54229 233.73621
149.21474 118.54218 233.76218
149.90427 118.55077 230.78954
150.41866 118.54777 231.81171
151.08893 118.55637 228.83557
151.63864 118.55628 228.85571
152.22131 118.5591 227.87505
152.73801 118.55613 228.89195
153.28767 118.55606 228.90813
153.81154 118.55309 229.92259
154.36357 118.55304 229.93619
154.91559 118.55299 229.94844
155.44904 118.55004 230.95918
155.97108 118.5442 232.96854
156.48895 118.53545 235.97662
157.04396 118.53252 236.98367
157.60378 118.52959 237.98941
158.16838 118.52668 238.99385
158.74614 118.52956 237.99693
159.32088 118.53535 235.99866
159.88727 118.53535 235.99896
160.44458 118.54406 232.99797
161.00378 118.54407 232.99561
161.55516 118.54698 231.99193
162.12221 118.5441 232.98683
162.66881 118.54703 231.98053
163.22565 118.54706 231.97284
163.7825 118.5471 231.96379
164.37901 118.54134 233.95303
164.98515 118.53558 235.9407
165.57628 118.53274 236.92714
166.19926 118.527 238.91171
166.77301 118.52706 238.89548
167.28313 118.53294 236.87894
167.74945 118.5417 233.86189
168.3479 118.53889 234.84129
168.91216 118.53898 234.81995
169.43501 118.54197 233.79811
170.04077 118.53917 234.77315
170.69759 118.53348 236.74554
171.21815 118.53649 235.71971
171.83603 118.53371 236.69014
172.45874 118.53094 237.65894
173.0863 118.52818 238.62607
173.60222 118.5312 237.59497
174.23466 118.52845 238.55905
174.87198 118.5257 239.52148
175.51414 118.52296 240.48221
176.02545 118.52602 239.44582
176.67255 118.52329 240.40341
177.17915 118.52635 239.36456
177.75609 118.52654 239.32182
178.25562 118.5296 238.28072
178.83026 118.52979 238.23535
179.56955 118.52422 240.18181
180.23383 118.52153 241.12967
180.90298 118.51885 242.0757
181.39803 118.52196 241.02789
182.07214 118.51929 241.97063
182.75114 118.51664 242.91148
183.33833 118.51688 242.85515
184.12384 118.51135 244.78751
184.91905 118.50584 246.71744
185.62006 118.50323 247.65039
185.90059 118.51212 244.604
186.60178 118.50951 245.534
187.08554 118.51267 244.47435
187.56459 118.51582 243.41383
187.92294 118.52186 241.35915
188.50854 118.52215 241.29004
188.85263 118.52819 239.23416
189.43362 118.52849 239.16273
190.26596 118.52306 241.07402
190.72394 118.52625 240.00732
191.56856 118.52084 241.91415
192.42294 118.51543 243.81822
193.15184 118.51292 244.72873
193.88568 118.5104 245.63707
194.76457 118.50504 247.53339
195.51076 118.50254 248.437
196.11696 118.50292 248.34895
197.01801 118.49759 250.23753
197.62933 118.49798 250.14572
198.24081 118.49837 250.05232
198.69785 118.50163 248.96941
198.99319 118.50774 246.89813
199.43845 118.511 245.81403
199.87903 118.51427 244.72916
200.47919 118.51469 244.62996
201.24622 118.51228 245.51524
202.01826 118.50988 246.39813
202.79533 118.50749 247.27864
203.57742 118.50511 248.15675
204.36453 118.50275 249.03239
205.15669 118.50039 249.90561
205.95389 118.49805 250.77631
206.93979 118.49288 252.62749
207.56343 118.49339 252.51019
207.99878 118.49673 251.40918
208.81136 118.49443 252.27063
209.62901 118.49213 253.12952
210.06015 118.4955 252.02452
210.68488 118.49604 251.89896
211.10919 118.49941 250.79213
211.93506 118.49716 251.6429
212.35498 118.50054 250.53372
213.18619 118.49831 251.38017
214.44333 118.49048 254.17909
215.28967 118.48827 255.01904
215.92587 118.48888 254.87962
216.56235 118.48951 254.73846
217.1991 118.49014 254.5956
217.39095 118.49636 252.50119
218.24841 118.49422 253.33029
219.11105 118.49208 254.15654
219.74896 118.49274 254.0067
220.38716 118.49342 253.85509
221.4953 118.48854 255.64575
221.66449 118.49479 253.54651
222.30365 118.49549 253.38956
222.70096 118.49898 252.2606
223.3383 118.49969 252.10068
223.72891 118.50319 250.96992
224.3645 118.50392 250.80704
225.25238 118.5019 251.61005
226.39995 118.49714 253.37704
227.30084 118.49516 254.17317
227.94766 118.49593 254.00038
229.38028 118.48848 256.72104
230.2995 118.48654 257.5069
230.69061 118.49011 256.362
231.61555 118.4882 257.1427
232.54584 118.48632 257.92007
232.93323 118.48991 256.77075
233.31607 118.49352 255.62086
234.53165 118.48894 257.35129
234.9129 118.49255 256.19818
235.28963 118.49619 255.04457
235.94835 118.49709 254.84851
237.18547 118.49258 256.56512
238.43298 118.48811 258.27676
239.9848 118.48095 260.93912
240.95917 118.47923 261.68475
241.93898 118.47752 262.4267
242.62288 118.47855 262.21152
243.30728 118.47957 261.9942
243.37946 118.48599 259.87094
243.44215 118.49241 257.74875
244.42949 118.49078 258.47858
244.48076 118.49721 256.35617
244.83891 118.50095 255.18358
246.14917 118.4967 256.85391
246.82724 118.49781 256.62482
247.50586 118.49893 256.39349
248.83777 118.49475 258.05054
250.18024 118.49061 259.70181
250.87053 118.49179 259.46039
252.5631 118.48506 262.04453
253.93491 118.48101 263.67929
254.6395 118.48226 263.42651
256.02759 118.47826 265.05121
256.39444 118.48219 263.85294
257.10333 118.48349 263.59216
257.46381 118.48743 262.39191
258.17139 118.48876 262.12732
258.52548 118.49272 260.92511
259.94489 118.48888 262.52515
260.29764 118.49287 261.31903
261.0076 118.49428 261.04474
262.08234 118.49312 261.69931
263.16275 118.49199 262.3494
263.87955 118.49346 262.06567
264.96875 118.49239 262.70776
266.43805 118.48877 264.27258
267.54114 118.48776 264.90445
267.89099 118.49189 263.68134
268.61829 118.49348 263.38184
268.577 118.50018 261.23358
269.68747 118.49927 261.85309
269.63446 118.50599 259.70505
67.223808 119.19482 218.19661
68.603691 119.1935 216.60835
69.587715 119.19211 215.93648
69.035324 119.19025 218.95586
69.638321 119.18877 219.20467
70.99614 119.18758 217.59946
71.968254 119.18629 216.91499
72.189735 119.18472 218.08241
73.155846 119.18348 217.39178
73.381485 119.18194 218.55708
74.706566 119.18091 216.92926
75.296204 119.17957 217.15948
76.245277 119.17843 216.45468
77.188812 119.17732 215.74594
77.41716 119.17585 216.90309
77.650078 119.17439 218.0602
78.587173 119.17333 217.34354
78.824196 119.17189 218.49857
79.41053 119.17067 218.71483
80.680901 119.16989 217.04988
81.261269 119.16871 217.26042
81.841187 119.16754 217.46901
82.755348 119.16662 216.73338
83.331825 119.16548 216.9373
83.90786 119.16436 217.13931
84.156235 119.16301 218.28442
84.733856 119.16191 218.48358
84.988838 119.16057 219.62755
85.568069 119.15949 219.82385
85.829659 119.15816 220.96664
86.725227 119.15738 220.21091
87.927612 119.15689 218.50166
89.119614 119.15643 216.78734
89.686737 119.15544 216.97127
90.558205 119.15475 216.20102
89.30835 119.15204 222.09991
89.886665 119.15106 222.28249
90.167259 119.1498 223.41806
90.4524 119.14854 224.55341
90.449745 119.14697 226.64478
93.065598 119.14821 220.12387
92.77227 119.14635 223.16881
93.348236 119.14545 223.34084
93.92382 119.14455 223.51112
95.059052 119.14433 221.7597
95.628975 119.14346 221.92514
96.473618 119.14294 221.12746
97.312973 119.14245 220.32672
98.417206 119.1423 218.5601
98.975906 119.14149 218.71606
99.799484 119.14105 217.90623
100.88061 119.14098 216.12857
101.43096 119.14021 216.27771
101.981 119.13945 216.42525
102.53075 119.13871 216.57123
102.5743 119.13724 218.65059
103.12836 119.13651 218.79469
103.68213 119.13578 218.93723
103.99001 119.13469 220.04758
104.30251 119.13361 221.15759
104.86034 119.1329 221.29665
105.65614 119.1326 220.463
105.97517 119.13153 221.57014
106.53218 119.13085 221.70457
106.85802 119.12979 222.81042
107.64545 119.12953 221.96881
108.20171 119.12888 222.0986
108.5341 119.12785 223.2016
108.64998 119.1264 225.27939
109.65029 119.12659 223.45474
109.77545 119.12515 225.53166
110.12398 119.12413 226.63237
111.11143 119.12436 224.80046
111.87993 119.12418 223.94286
112.23022 119.12318 225.03957
112.78931 119.1226 225.15691
113.14648 119.12161 226.25215
113.10977 119.11977 229.30679
114.07166 119.12007 227.46074
114.82922 119.11996 226.59216
115.38973 119.11942 226.70256
116.13963 119.11933 225.82956
116.69736 119.11881 225.93654
117.0702 119.11786 227.02483
117.81229 119.1178 226.14609
118.72923 119.11819 224.28131
119.28143 119.11771 224.38159
120.18352 119.11813 222.51131
120.55795 119.11722 223.59282
120.93706 119.11631 224.67381
121.15308 119.11494 226.74002
121.70934 119.11449 226.83398
122.10252 119.11359 227.91315
122.82142 119.11362 227.01762
123.69345 119.11411 225.13249
124.39999 119.11417 224.23218
125.10157 119.11423 223.32974
125.64734 119.11383 223.4137
126.19299 119.11343 223.49626
126.59248 119.11258 224.56676
126.85309 119.11125 226.62622
127.54681 119.11135 225.71573
128.09682 119.11098 225.79349
128.51033 119.11015 226.86053
129.06252 119.10979 226.93587
129.61461 119.10944 227.0098
129.90831 119.10813 229.06561
130.33829 119.10731 230.12936
131.14595 119.10795 228.21562
131.70004 119.10763 228.28435
132.25406 119.10732 228.35173
133.04216 119.10799 226.43149
133.59117 119.10769 226.49553
134.02782 119.1069 227.55191
134.68895 119.10711 226.61958
135.23772 119.10683 226.67955
135.78641 119.10655 226.73819
136.43767 119.10679 225.80077
136.9838 119.10653 225.85648
137.6277 119.10677 224.91562
138.1713 119.10653 224.9684
138.62178 119.10579 226.0155
139.07701 119.10505 227.06172
139.53699 119.10432 228.10706
140.00172 119.10359 229.15144
140.55463 119.10337 229.19841
141.18848 119.10367 228.24728
141.66025 119.10296 229.28827
142.28918 119.10326 228.33409
142.83945 119.10307 228.37547
143.38968 119.10289 228.41553
143.87086 119.1022 229.45186
144.49001 119.10254 228.49162
144.91171 119.10135 230.52354
145.52837 119.1017 229.56047
146.08078 119.10155 229.59402
146.57617 119.10088 230.62459
147.07632 119.10022 231.65408
147.63344 119.10008 231.68387
148.09096 119.09892 233.70984
148.60542 119.09827 234.73604
149.16965 119.09815 234.76212
149.86159 119.0996 231.78957
150.41855 119.09949 231.81264
151.05106 119.10043 229.8358
151.60318 119.10034 229.85602
152.15527 119.10025 229.87488
152.70737 119.10017 229.89244
153.23125 119.09958 230.90826
153.78571 119.09951 230.92323
154.34015 119.09944 230.93684
154.91554 119.09991 229.94937
155.44899 119.09933 230.96011
155.97104 119.09825 232.96947
156.51646 119.09769 233.97777
157.06668 119.09713 234.98476
157.63068 119.09711 234.99051
158.1881 119.09657 235.99487
158.75449 119.09655 235.99792
159.32442 119.09759 233.9996
159.88602 119.09759 233.99992
160.44762 119.09759 233.99892
161.00922 119.0976 233.99654
161.55518 119.09866 231.99286
162.13245 119.09764 233.98775
162.66884 119.09872 231.98149
163.24071 119.09823 232.97366
163.79996 119.09827 232.96458
164.39888 119.09727 234.9538
165.00743 119.09628 236.94142
165.57634 119.09634 236.9281
166.1723 119.09589 237.91304
166.77309 119.09544 238.89645
167.31503 119.09604 237.87939
167.81799 119.09717 235.86166
168.45789 119.09621 237.84024
169.02934 119.09631 237.81862
169.51797 119.09746 235.79733
170.12854 119.09705 236.77217
170.69771 119.09717 236.74651
171.21826 119.09781 235.72066
171.83615 119.09743 236.6911
172.45886 119.09705 237.65988
173.08644 119.09667 238.62704
173.60236 119.09734 237.59593
174.23482 119.09698 238.56003
174.9352 119.09612 240.52046
175.51431 119.09628 240.48317
176.02563 119.09698 239.44678
176.67271 119.09665 240.40439
177.10667 119.09786 238.36815
177.60614 119.09856 237.32845
178.25581 119.09826 238.28166
178.83047 119.09846 238.23633
179.48747 119.09818 239.18619
180.14935 119.09789 240.13423
180.81612 119.09762 241.08046
181.39825 119.09785 241.02885
182.07239 119.0976 241.97159
182.75139 119.09735 242.91248
183.33858 119.09761 242.85612
184.02498 119.09737 243.79341
184.81779 119.09666 245.7236
185.30852 119.09743 244.66762
185.68817 119.09872 242.61632
186.60205 119.09753 245.53494
186.86349 119.09932 242.48773
187.45131 119.09963 242.42125
187.92325 119.10044 241.36009
188.50883 119.10076 241.29099
188.73215 119.10256 238.24239
189.55714 119.10191 240.15605
190.26628 119.10178 241.07495
190.85231 119.10213 241.00003
191.56889 119.102 241.91508
192.55615 119.10092 244.81032
193.15219 119.1013 244.72968
193.88603 119.1012 245.638
194.62485 119.10113 246.54417
195.2261 119.10153 246.45836
195.97243 119.10147 247.36047
197.0184 119.10047 250.23851
197.62973 119.10091 250.14665
198.24123 119.10135 250.05327
198.69827 119.10227 248.97037
199.15062 119.10319 247.88666
199.43887 119.10458 245.81496
200.04131 119.10505 245.7169
200.80817 119.10506 246.60371
201.41336 119.10555 246.50218
202.01872 119.10604 246.39908
202.79579 119.10609 247.27957
203.40393 119.1066 247.17293
204.36502 119.10622 249.03334
204.97836 119.10675 248.92264
205.95438 119.1064 250.77721
206.94029 119.10607 252.6284
207.56395 119.10664 252.51108
207.9993 119.10765 251.41006
208.62096 119.10823 251.28998
209.62955 119.10796 253.13043
209.8649 119.10943 251.0448
210.48721 119.11003 250.91972
211.10976 119.11065 250.79301
211.93562 119.11086 251.6438
212.35556 119.11192 250.53464
213.39474 119.11172 252.35918
214.23352 119.11197 253.20236
215.29027 119.11181 255.0199
215.71121 119.11291 253.90393
216.12755 119.11401 252.78734
216.75943 119.11472 252.64555
217.16899 119.11583 251.52716
218.02402 119.11615 252.35683
218.88423 119.11648 253.18364
219.5197 119.11723 253.03433
219.9231 119.11837 251.91068
220.79153 119.11874 252.7305
220.9534 119.12029 250.633
221.82492 119.12069 251.44873
222.21735 119.12186 250.32095
223.09439 119.12229 251.13185
223.72964 119.12311 250.97075
224.61473 119.12356 251.7762
225.50508 119.12403 252.57858
226.4007 119.12452 253.37787
227.30161 119.12503 254.17401
228.20778 119.12556 254.96698
229.38107 119.12575 256.72186
230.30032 119.12631 257.50775
230.69141 119.12759 256.36279
231.61636 119.1282 257.14349
232.00334 119.12949 255.99609
232.3858 119.1308 254.84816
232.76372 119.1321 253.69968
233.97437 119.13243 255.43152
234.91376 119.13311 256.19894
235.57452 119.13413 256.00412
236.23573 119.13517 255.80734
237.47534 119.13559 257.52322
238.4339 119.13635 258.2775
239.6918 119.13683 259.98404
240.36726 119.13794 259.77536
241.64104 119.13847 261.47318
242.02106 119.13991 260.30524
243.00439 119.14077 261.04224
243.38043 119.14223 259.87164
244.06088 119.14342 259.65167
244.43048 119.1449 258.47925
244.79562 119.14639 257.3063
244.83994 119.14814 255.18423
245.51248 119.14937 254.95898
246.50693 119.15036 255.6785
247.50691 119.15137 256.39417
248.51247 119.1524 257.10593
249.85245 119.15323 258.75809
250.54025 119.15456 258.51752
251.89642 119.15545 260.15991
252.92683 119.15659 260.8548
253.96283 119.15778 261.54553
255.68732 119.15854 264.11191
256.39563 119.16 263.85352
257.45105 119.16126 264.53082
257.46503 119.16317 262.39249
258.17261 119.16468 262.12787
258.5267 119.1664 260.92563
259.58957 119.16776 261.59143
260.29889 119.16932 261.31952
260.64719 119.17108 260.11292
262.08365 119.17234 261.6998
263.16406 119.17381 262.34988
263.88089 119.17547 262.06616
264.59827 119.17715 261.77994
265.69064 119.17871 262.41846
266.7887 119.1803 263.05243
267.8924 119.18192 263.68173
268.2377 119.18384 262.4581
268.96301 119.18564 262.15707
270.07605 119.18735 262.77551
270.80499 119.1892 262.4682
67.612793 119.7665 217.27469
68.602348 119.7625 216.60707
69.586372 119.75853 215.93527
69.034004 119.76378 218.95459
69.637001 119.76214 219.20345
70.617195 119.75823 218.52423
71.966965 119.75209 216.91383
71.443329 119.75733 219.93729
72.784561 119.75124 218.31967
73.012741 119.75197 219.48598
74.705338 119.74371 216.92815
74.932564 119.74446 218.09041
76.24408 119.73852 216.4536
76.830276 119.73708 216.6788
77.415993 119.73566 216.90204
77.296608 119.73868 218.99501
77.886421 119.73728 219.21617
78.823051 119.73369 218.49756
79.754173 119.73013 217.77513
80.679787 119.72659 217.04892
81.260178 119.72528 217.25945
81.840096 119.72398 217.46805
82.419563 119.72269 217.67474
82.998558 119.72142 217.87956
83.57711 119.72017 218.08246
84.155197 119.71893 218.28349
84.408127 119.71986 219.42848
85.310028 119.7165 218.67998
85.88678 119.71531 218.87544
86.145874 119.71627 220.0174
86.724243 119.7151 220.21001
87.926643 119.70969 218.50081
88.499168 119.70856 218.68814
89.071281 119.70744 218.8737
89.947754 119.70423 218.10503
89.005127 119.71369 223.05229
89.885735 119.71049 222.28168
90.166328 119.71152 223.41725
90.74633 119.71046 223.59705
91.033562 119.7115 224.73137
93.644501 119.69585 218.20898
93.058815 119.70318 222.21022
93.347374 119.70425 223.34004
93.640488 119.70534 224.46964
94.778206 119.70021 222.71895
95.073059 119.70131 223.84583
96.197723 119.69623 222.08815
97.584778 119.68912 219.36386
98.416428 119.68616 218.55937
99.242813 119.68321 217.75185
100.06395 119.68028 216.94138
100.87985 119.67738 216.1279
101.43022 119.67653 216.27704
101.98027 119.67569 216.42461
102.53003 119.67486 216.57056
102.82652 119.67607 217.68245
103.37814 119.67526 217.82593
103.68143 119.67648 218.93657
103.98931 119.6777 220.04694
104.54498 119.67692 220.18697
104.85965 119.67815 221.29604
105.65546 119.67538 220.46236
105.97449 119.67664 221.56953
106.76489 119.67389 220.73158
107.31921 119.67316 220.86389
108.10178 119.67044 220.02112
108.65317 119.66973 220.1498
109.20431 119.66904 220.27696
109.53404 119.67033 221.37787
110.30589 119.66766 220.52679
110.42374 119.67095 222.60211
110.97882 119.67029 222.72438
111.53369 119.66963 222.84512
112.29734 119.66702 221.98648
112.64279 119.66834 223.08215
112.78874 119.67165 225.15636
113.14592 119.67298 226.2516
113.30849 119.67628 228.32632
114.07111 119.67371 227.46021
114.82867 119.67115 226.59164
115.77319 119.66666 224.73924
116.51825 119.66414 223.86533
116.88399 119.66552 224.9537
117.2544 119.6669 226.04155
118.17638 119.66247 224.17911
118.90862 119.65999 223.29712
119.28094 119.6614 224.38109
120.35808 119.65508 221.52625
120.55748 119.65843 223.59235
120.7664 119.66179 225.65874
121.15262 119.66322 226.73955
121.54354 119.66464 227.81973
121.93915 119.66608 228.89929
122.82098 119.66176 227.01717
123.53492 119.65937 226.11942
124.39957 119.65508 224.2317
124.94789 119.65463 224.31744
125.64694 119.65228 223.41324
126.04415 119.65376 224.48477
126.5921 119.65334 224.5663
126.85269 119.65675 226.62576
127.54643 119.65443 225.71527
127.95765 119.65593 226.78337
128.3736 119.65744 227.85074
128.92819 119.65705 227.92639
129.4827 119.65667 228.00069
129.90796 119.65819 229.06519
130.33795 119.65971 230.12892
131.02129 119.65746 229.20743
131.5778 119.6571 229.27647
132.13423 119.65676 229.34413
132.92476 119.65265 227.42416
133.59087 119.65043 226.49512
134.1398 119.65012 226.55782
134.79852 119.64792 225.62523
135.34489 119.64761 225.68494
135.89119 119.64732 225.74332
136.54005 119.64515 224.80565
137.18404 119.64299 223.86615
137.62744 119.64459 224.91521
138.07559 119.6462 225.96344
138.62154 119.64594 226.01512
139.07678 119.64757 227.06136
139.53677 119.64919 228.10664
140.08733 119.64895 228.15475
140.5544 119.65059 229.19801
141.10724 119.65036 229.24362
141.66003 119.65014 229.28786
142.28897 119.64806 228.33369
142.83926 119.64785 228.37509
143.46089 119.64577 227.41769
144.00868 119.64558 227.45624
144.48984 119.64726 228.49124
144.91154 119.65082 230.52316
145.46642 119.65064 230.55818
146.08063 119.64861 229.59364
146.57602 119.65031 230.62419
147.13077 119.65016 230.6552
147.68549 119.65001 230.68484
148.14061 119.65359 232.71069
148.65268 119.65532 233.73677
149.21451 119.65519 233.76274
149.86148 119.65135 231.78917
150.45863 119.64938 230.81306
151.05096 119.64742 229.83542
151.5677 119.64917 230.855
152.1552 119.64722 229.8745
152.73785 119.64528 228.89252
153.25935 119.64706 229.90829
153.81142 119.64698 229.92317
154.38684 119.64506 228.93704
154.93646 119.645 228.9492
155.46751 119.6468 229.95993
155.98718 119.65047 231.96924
156.51643 119.65414 233.9774
157.05528 119.65781 235.98433
157.62167 119.65778 235.9901
158.1815 119.65961 236.99446
158.75029 119.6596 236.99754
159.32265 119.65588 234.99924
159.88664 119.65588 234.99956
160.44762 119.65404 233.99852
161.00923 119.65405 233.99615
161.55521 119.65036 231.99251
162.13248 119.6541 233.98737
162.68149 119.65228 232.98103
163.25577 119.65417 233.97319
163.83485 119.65607 234.96391
164.43858 119.65984 236.95303
165.02971 119.66175 237.9408
165.60103 119.66182 237.92743
166.17238 119.6619 237.91264
166.74374 119.66197 237.89651
167.31512 119.66206 237.879
167.85231 119.6603 236.86072
168.45798 119.66226 237.83987
169.06848 119.66423 238.81746
169.60095 119.66248 237.79521
170.08482 119.65889 235.77277
170.69783 119.66088 236.74614
171.2184 119.65915 235.72029
171.78525 119.65929 235.69202
172.40558 119.66131 236.66092
173.03075 119.66332 237.6282
173.60252 119.66349 237.59555
174.23499 119.66553 238.55963
174.87231 119.66757 239.52205
175.44904 119.66776 239.48491
176.02582 119.66795 239.44638
176.67291 119.67002 240.40399
177.10687 119.6665 238.36778
177.68141 119.66671 238.32523
178.25601 119.66693 238.28125
178.91057 119.66903 239.2327
179.4877 119.66927 239.18576
180.14958 119.67139 240.1338
180.72926 119.67164 240.08383
181.30901 119.6719 240.03246
181.98074 119.67404 240.97542
182.65735 119.6762 241.9165
183.24214 119.67648 241.8604
184.02525 119.68053 243.79298
184.71655 119.68272 244.72835
185.30881 119.68303 244.66714
185.68848 119.67959 242.61588
186.49361 119.68368 244.54044
186.86382 119.68024 242.48729
187.45163 119.68058 242.42082
188.03955 119.68093 242.35289
188.62756 119.68129 242.28351
188.85329 119.67597 239.23462
189.5575 119.67824 240.15559
190.26663 119.6805 241.07451
190.85266 119.68089 240.99954
191.56927 119.68318 241.91463
192.42368 119.68739 243.8187
192.88203 119.68591 242.7476
193.61107 119.68822 243.65659
194.34505 119.69057 244.56343
195.084 119.69291 245.46808
195.97284 119.69718 247.35997
196.87149 119.70147 249.2489
197.48042 119.70194 249.15744
198.08949 119.70243 249.06442
198.69872 119.70293 248.96983
198.99408 119.69959 246.89854
199.43933 119.69818 245.81444
200.20364 119.70061 246.70319
200.97293 119.70306 247.5896
201.74725 119.70553 248.47366
202.35745 119.70608 248.36974
202.96785 119.70663 248.26421
203.57841 119.70721 248.15714
204.54193 119.71165 250.01709
204.97891 119.7103 248.92207
205.59247 119.7109 248.80978
206.7572 119.71734 251.64487
207.37843 119.71796 251.528
207.81137 119.71664 250.42743
208.62154 119.71924 251.28935
209.43678 119.72185 252.14871
209.86551 119.72056 251.04419
210.48782 119.72123 250.91914
211.11038 119.72192 250.7924
211.93626 119.72457 251.64319
212.56172 119.72528 251.51263
213.3954 119.72797 252.35857
214.23419 119.73067 253.20175
215.07811 119.73339 254.04219
215.49661 119.73218 252.92673
215.91052 119.73096 251.81068
216.53996 119.73174 251.66942
216.9471 119.73054 250.55157
217.79971 119.73332 251.38181
218.65747 119.73612 252.20915
219.29051 119.73695 252.06046
219.92384 119.73779 251.90997
220.7923 119.74063 252.72978
220.7169 119.73547 249.66086
221.8257 119.74036 251.448
222.46028 119.74124 251.29047
223.0952 119.74213 251.13113
223.73044 119.74304 250.97002
224.86508 119.74801 252.74385
225.50592 119.74895 252.57785
226.14711 119.7499 252.41
227.30246 119.75494 254.1732
228.468 119.75999 255.93195
229.64377 119.76508 257.68619
230.30121 119.76611 257.5069
230.95906 119.76715 257.32578
231.61731 119.7682 257.1427
232.00429 119.76722 255.99527
232.66089 119.7683 255.80901
233.04129 119.76733 254.65982
234.25439 119.77257 256.3909
234.91473 119.77369 256.19806
235.57552 119.77483 256.00323
236.52324 119.77807 256.76453
237.47638 119.78133 257.52231
238.43494 119.78461 258.27658
239.69284 119.79002 259.98309
240.66478 119.79337 260.72949
241.64212 119.79673 261.4722
242.32355 119.79801 261.25775
243.00549 119.79931 261.0412
243.0752 119.79638 258.91876
244.06203 119.79983 259.65067
244.74301 119.80117 259.42853
245.11064 119.80039 258.25476
245.15746 119.79749 256.13187
245.83252 119.79887 255.90573
246.82948 119.80241 256.62442
247.50812 119.80383 256.3931
248.84006 119.80959 258.05005
250.18257 119.81539 259.70132
251.2043 119.81905 260.40338
252.23161 119.82275 261.10138
253.60095 119.82866 262.73703
253.96414 119.82805 261.54437
255.34723 119.83402 263.17084
256.05304 119.83564 262.91333
257.10593 119.83949 263.59152
257.46643 119.83894 262.39127
257.82248 119.83841 261.19046
258.17404 119.83788 259.98917
259.23438 119.84182 260.65585
259.94122 119.84356 260.38498
260.64865 119.84532 260.1116
262.08511 119.8516 261.69846
263.53235 119.85793 263.27884
264.621 119.86204 263.9234
265.34351 119.86391 263.63513
266.06659 119.86581 263.34436
266.79025 119.86774 263.05099
267.13501 119.86741 261.8299
267.85724 119.86937 261.53247
268.19547 119.86906 260.30942
269.69055 119.87568 261.85196
270.02725 119.87541 260.62479
68.392029 120.32863 215.43053
69.764313 120.31734 213.83911
70.355446 120.31554 214.08688
69.797958 120.3279 217.10414
70.395897 120.32613 217.35088
71.371025 120.31966 216.6696
71.96553 120.31793 216.91113
71.814453 120.32558 219.00658
72.783157 120.3192 218.31699
73.01133 120.32218 219.48332
74.339005 120.31119 217.85654
74.931206 120.30956 218.08777
75.882835 120.30328 217.384
76.828941 120.29705 216.67625
77.05983 120.30012 217.8344
76.942963 120.30782 219.92831
77.885124 120.30165 219.21361
78.474487 120.30013 219.43279
79.752907 120.28941 217.77266
80.678543 120.28333 217.04645
81.598694 120.27728 216.31647
82.176117 120.27585 216.5242
82.753082 120.27444 216.73003
83.32959 120.27305 216.93396
84.235367 120.2671 216.19191
84.481239 120.27032 217.3362
84.731682 120.27354 218.4803
85.631111 120.26765 217.73096
86.205368 120.26634 217.92558
86.461975 120.26959 219.06671
86.723137 120.27284 220.20769
87.92556 120.26251 218.4985
88.4981 120.26126 218.68587
89.377487 120.25552 217.91982
90.251472 120.24979 217.15039
89.306358 120.27116 222.09682
89.884697 120.26996 222.2794
90.462631 120.26878 222.46021
90.745323 120.2721 223.59477
90.740189 120.27993 225.68541
93.353638 120.24737 219.16385
93.057831 120.25971 222.20804
93.631348 120.25861 222.37932
93.922005 120.26199 223.50818
95.33728 120.24751 220.79683
95.627205 120.25092 221.92227
96.471878 120.24541 221.1246
97.583878 120.23548 219.36179
98.415543 120.23003 218.55728
98.974258 120.22904 218.7133
100.0631 120.21918 216.93933
101.14178 120.20937 215.16103
101.42939 120.21287 216.27502
101.97945 120.21194 216.42259
102.78462 120.20661 215.60173
103.07869 120.21014 216.71297
103.37735 120.21367 217.82394
103.68064 120.2172 218.93457
104.23414 120.21633 219.07556
104.5442 120.21988 220.18497
105.09959 120.21903 220.32346
105.41646 120.2226 221.43158
105.97375 120.22176 221.56758
106.53078 120.22095 221.70201
107.08756 120.22014 221.8349
108.10107 120.21058 220.01918
108.65247 120.2098 220.14786
109.20361 120.20904 220.27505
109.97571 120.20391 219.42549
110.74269 120.1988 218.57335
110.85567 120.2068 220.64758
111.61977 120.20172 219.7919
111.9559 120.20537 220.88847
112.71471 120.20031 220.02878
112.84872 120.20833 222.10185
113.1964 120.212 223.19656
113.34702 120.22002 225.27026
113.9057 120.21935 225.3846
114.4642 120.21868 225.49745
115.0225 120.21803 225.60883
115.77261 120.21305 224.73734
116.70725 120.20376 222.88161
117.25772 120.20314 222.98718
117.62329 120.20686 224.07413
118.54044 120.19762 222.2108
119.08795 120.19704 222.31165
119.45787 120.20078 223.39514
120.18253 120.1959 222.509
120.55696 120.19966 223.59055
120.76589 120.20774 225.65694
121.3199 120.2072 225.75189
121.87375 120.20667 225.84547
122.42746 120.20614 225.93762
123.14155 120.20132 225.04129
123.85066 120.19651 224.14282
124.71049 120.18742 222.25435
125.25399 120.18694 222.33932
125.6465 120.19076 223.41148
126.34061 120.186 222.50517
126.7377 120.18984 223.57529
126.9959 120.19797 225.63437
127.54602 120.19753 225.7135
127.95725 120.20138 226.7816
128.3732 120.20523 227.84895
128.79384 120.20909 228.91562
129.35077 120.20868 228.9902
129.77844 120.21255 230.05504
130.33757 120.21214 230.12715
131.14525 120.2032 228.21344
131.69937 120.20283 228.28218
132.25339 120.20245 228.34956
132.92441 120.19781 227.42245
133.47585 120.19746 227.48679
134.02721 120.19712 227.54976
134.68834 120.19251 226.61746
135.34459 120.18792 225.68324
135.89088 120.1876 225.74164
136.53976 120.18303 224.80397
136.883 120.19125 226.8493
137.52933 120.18669 225.90874
137.97989 120.19066 226.95718
138.52824 120.19038 227.00905
138.98589 120.19435 228.05553
139.44829 120.19834 229.10106
140.00125 120.19808 229.14935
140.38733 120.20633 231.18933
141.10703 120.19758 229.2419
141.65982 120.19734 229.28616
142.28876 120.19286 228.33202
142.83905 120.19263 228.37341
143.5321 120.18393 226.41858
144.00848 120.18797 227.45459
144.48964 120.19201 228.48956
144.91136 120.20031 230.52148
145.46623 120.20012 230.55652
146.02106 120.19994 230.59018
146.51888 120.20401 231.6209
147.07603 120.20384 231.65199
147.63316 120.20368 231.68181
148.09068 120.21201 233.70775
148.69994 120.20763 232.73621
149.25937 120.20749 232.76207
149.90393 120.19888 230.78844
150.49869 120.19453 229.81219
151.05086 120.19441 229.83376
151.56761 120.19854 230.85332
152.15511 120.19421 229.87282
152.7072 120.19411 229.89038
153.23109 120.19827 230.90622
153.81134 120.19395 229.92151
154.36339 120.19388 229.93509
154.89445 120.19805 230.94711
155.43031 120.20222 231.95789
155.97095 120.20641 232.96742
156.50261 120.21484 234.9756
157.05525 120.21903 235.98262
157.6396 120.21054 233.98848
158.19463 120.21475 234.99283
158.75864 120.21474 234.99585
159.32442 120.21049 233.99754
159.88664 120.21473 234.99785
160.45065 120.21474 234.99684
161.00925 120.21052 233.99448
161.56305 120.20631 232.99078
162.13251 120.21057 233.98569
162.68153 120.20638 232.97934
163.25581 120.21066 233.9715
163.86975 120.2234 236.96188
164.43864 120.22346 236.95131
164.98532 120.2193 235.93959
165.55185 120.21937 235.92632
166.14543 120.22369 236.91129
166.7144 120.22378 236.89522
167.28339 120.22387 236.87778
167.88664 120.22821 237.8584
168.49472 120.23256 238.83746
169.10764 120.23692 239.81494
169.60107 120.22857 237.7935
170.17262 120.2287 237.76909
170.69797 120.2246 236.7444
171.26718 120.22475 236.71736
171.83644 120.22491 236.68895
172.40573 120.22507 236.65918
173.03091 120.22948 237.62645
173.66093 120.23391 238.59209
174.29582 120.23833 239.55603
174.8725 120.23853 239.52028
175.44923 120.23874 239.48315
176.02602 120.23895 239.44461
176.67313 120.24342 240.40218
177.10709 120.23515 238.36601
177.68164 120.23538 238.32344
178.33372 120.23988 239.27649
178.9108 120.24013 239.23094
179.48795 120.24038 239.18399
180.23453 120.24915 241.12842
180.81662 120.24944 241.07823
181.30928 120.24546 240.03065
181.98102 120.25001 240.9736
182.65764 120.25457 241.91466
183.24243 120.25488 241.85855
184.02556 120.26372 243.79115
184.71687 120.26831 244.72652
185.2052 120.26439 243.67075
185.6888 120.26047 242.61403
186.60271 120.27362 245.53265
186.86417 120.26118 242.48546
187.56555 120.26582 243.41251
188.15588 120.2662 243.34428
188.74632 120.26659 243.27461
188.97446 120.25417 240.22548
189.80429 120.26312 242.13849
190.51828 120.26781 243.05679
191.23718 120.27251 243.97301
191.96103 120.27723 244.88708
192.68982 120.28196 245.79907
193.15302 120.27813 244.72731
193.74919 120.27859 244.64516
194.3455 120.27907 244.56152
194.94194 120.27955 244.47636
195.82838 120.28863 246.36859
196.57727 120.29343 247.2688
197.18138 120.29395 247.17805
197.93781 120.29877 248.07411
198.54463 120.2993 247.9799
199.15161 120.29985 247.88419
199.59929 120.2961 246.79967
200.52788 120.30528 248.67482
201.13776 120.30586 248.57404
201.91449 120.31076 249.45766
202.35802 120.30705 248.36772
202.96841 120.30766 248.26219
203.75296 120.3126 249.13986
204.54253 120.31756 250.01506
204.97951 120.31388 248.92007
205.77431 120.31886 249.79117
206.9415 120.33251 252.62578
207.56517 120.3332 252.50847
208.18904 120.33389 252.38947
209.00409 120.33894 253.25047
209.63083 120.33966 253.12773
209.86618 120.33171 251.0421
210.68674 120.3368 251.89717
210.9104 120.32885 249.81064
211.73387 120.33396 250.66193
212.56244 120.3391 251.51053
213.18816 120.33988 251.37828
214.02452 120.34504 252.22198
215.07886 120.35458 254.04001
215.2821 120.34669 251.94803
215.91129 120.34753 251.80849
216.32059 120.344 250.69179
216.94789 120.34486 250.54939
217.80051 120.35012 251.37959
218.43082 120.35101 251.23318
219.06142 120.35191 251.08504
219.92468 120.35722 251.90775
220.55832 120.35815 251.75551
220.71776 120.3503 249.65865
221.82657 120.36005 251.44572
222.70334 120.36543 252.25842
223.3407 120.36642 252.09845
224.22549 120.37183 252.9057
225.36505 120.38169 254.67822
226.01082 120.38274 254.51097
226.65694 120.38379 254.34186
227.56032 120.38929 255.1373
228.46898 120.39481 255.92955
229.64478 120.4048 257.68375
230.03793 120.40149 256.54004
230.69334 120.40263 256.35956
231.07993 120.39935 255.21407
231.46198 120.39606 254.06805
231.83951 120.39278 252.92149
232.21251 120.38951 251.77443
233.69733 120.40412 254.4679
234.35272 120.40535 254.2765
235.2926 120.41108 255.04193
236.52438 120.42132 256.76199
238.0555 120.43608 259.43439
238.72757 120.43741 259.23056
239.98801 120.44775 260.93631
240.66599 120.44912 260.72684
241.64337 120.45502 261.46954
242.02341 120.45193 260.30161
243.00674 120.45787 261.03854
243.07643 120.45027 258.91605
243.75443 120.45174 258.69687
244.43292 120.45322 258.47552
245.11194 120.45471 258.25201
245.15875 120.44714 256.12912
246.15269 120.45321 256.85077
246.83081 120.45476 256.62164
247.50948 120.45633 256.39032
248.51506 120.46249 257.10202
250.18399 120.47782 259.69849
251.20572 120.48405 260.40051
252.23306 120.49032 261.09848
253.26601 120.49662 261.79239
253.96562 120.49835 261.54138
255.34872 120.50932 263.16782
255.71057 120.50649 261.97134
257.10748 120.51753 263.5885
257.11896 120.51012 261.45111
257.82404 120.51197 261.18741
257.46744 120.49993 258.11566
258.52274 120.50645 258.7843
259.22455 120.50835 258.51532
260.2886 120.51493 259.17621
261.35834 120.52155 259.8327
263.16727 120.53756 262.34534
264.25342 120.54427 262.99084
264.97339 120.54633 262.70358
266.06836 120.55311 263.34106
267.16898 120.55993 263.97391
267.13678 120.55266 261.82657
267.47702 120.55009 260.60501
267.81265 120.54755 259.38297
268.91806 120.55447 260.00455
268.85995 120.54722 257.85861
69.951889 120.86678 211.74367
70.538338 120.86483 211.99141
71.12439 120.86289 212.23706
70.17907 120.88952 216.17598
70.774467 120.88759 216.42171
71.369431 120.88568 216.66534
71.963959 120.8838 216.90686
72.18544 120.88903 218.07434
72.781601 120.88718 218.31274
72.642288 120.89952 220.40909
73.972511 120.88354 218.78337
74.567261 120.88174 219.01561
75.161537 120.87997 219.24582
76.112717 120.87116 218.54004
77.058372 120.8624 217.83034
76.589172 120.88182 220.86009
77.533875 120.87309 220.14636
78.473061 120.8644 219.42877
79.751518 120.84871 217.76866
80.334908 120.8471 217.98209
81.257599 120.8385 217.25305
82.174782 120.82993 216.52031
82.41703 120.83539 217.66844
82.663834 120.84084 218.81645
83.574623 120.83235 218.07623
84.15274 120.83086 218.2773
84.730408 120.82938 218.47649
85.629845 120.82097 217.72717
86.523849 120.81258 216.97432
86.777969 120.81813 218.11462
86.721916 120.83062 220.20392
87.924355 120.81535 218.49478
88.187164 120.82093 219.63293
88.761787 120.81958 219.81932
89.945549 120.80441 218.09912
89.305199 120.83076 222.09309
89.883545 120.82945 222.27571
90.461502 120.82816 222.45651
91.039047 120.82688 222.63556
91.031441 120.8394 224.72542
93.06266 120.80372 220.11729
92.769333 120.82315 223.16219
93.630287 120.81506 222.37572
93.920952 120.82074 223.50456
95.336258 120.79897 220.79326
95.348648 120.81154 222.87938
96.745956 120.78983 220.1597
97.582901 120.78187 219.35828
98.414581 120.77393 218.55382
99.240997 120.76601 217.74635
100.06216 120.75812 216.93591
100.8781 120.75025 216.1225
101.16817 120.75606 217.23715
101.46283 120.76187 218.35155
101.7621 120.76768 219.46564
102.31894 120.76669 219.61198
102.62497 120.77253 220.72487
103.43172 120.76476 219.89996
103.74208 120.77061 221.01091
104.54337 120.76287 220.18163
105.09877 120.76194 220.32011
105.6539 120.76103 220.45706
106.20876 120.76013 220.59245
106.99674 120.75246 219.75394
107.54865 120.75159 219.88568
108.32878 120.74397 219.04239
108.87775 120.74313 219.17052
109.42648 120.74229 219.29712
109.97498 120.74148 219.42224
110.52322 120.74068 219.54587
110.85495 120.74664 220.64433
111.61906 120.7391 219.78868
112.16664 120.73833 219.90785
112.71402 120.73757 220.02557
113.05461 120.74357 221.12022
113.39986 120.74957 222.21442
113.54804 120.76231 224.2876
113.90504 120.76831 225.38136
114.66039 120.76086 224.51382
115.02185 120.76688 225.60561
115.96397 120.75275 223.75279
116.8962 120.73862 221.89661
117.63141 120.73125 221.01941
117.99213 120.73731 222.10542
118.90444 120.72325 220.24124
119.44714 120.72263 220.34117
119.81221 120.72871 221.4238
120.53204 120.72141 220.5368
120.72902 120.73421 222.60246
120.76535 120.75372 225.65376
121.15158 120.75982 226.73456
121.70786 120.75924 226.82854
122.42694 120.75198 225.93448
123.14104 120.74474 225.03819
124.00826 120.73082 223.15233
124.86569 120.71693 221.26353
125.40678 120.71641 221.34814
125.79689 120.72258 222.41988
126.34014 120.72208 222.50212
126.88327 120.72159 222.58296
127.13905 120.73445 224.64168
127.54558 120.74065 225.71045
128.0956 120.74017 225.78822
128.37276 120.75304 227.8459
128.79343 120.75925 228.91252
129.2188 120.76547 229.97841
129.64888 120.77169 231.04355
130.08369 120.77792 232.10791
131.02054 120.75752 229.20258
131.69897 120.75046 228.27913
132.37253 120.7434 227.35367
133.04115 120.73636 226.42632
133.59019 120.73598 226.49036
134.25142 120.72897 225.55943
134.90776 120.72195 224.62657
135.45174 120.7216 224.68605
135.99564 120.72127 224.74417
136.64211 120.71429 223.80629
136.98294 120.72724 225.85136
137.52902 120.72693 225.90573
137.9796 120.73325 226.95419
138.52795 120.73295 227.00606
138.98561 120.73929 228.05251
139.53624 120.739 228.10196
