ply
format ascii 1.0
comment PCL generated
element vertex 1595
property float x
property float y
property float z
element camera 0
property float view_px
property float view_py
property float view_pz
property float x_axisx
property float x_axisy
property float x_axisz
property float y_axisx
property float y_axisy
property float y_axisz
property float z_axisx
property float z_axisy
property float z_axisz
property float focal
property float scalex
property float scaley
property float centerx
property float centery
property int viewportx
property int viewporty
property float k1
property float k2
end_header
204.83061 152.04248 248.82631
205.63007 152.17514 249.68791
206.07123 152.05042 248.59723
207.06012 152.31203 250.42909
207.87239 152.44498 251.28345
208.68979 152.57803 252.13519
209.12941 152.45358 251.03825
209.95215 152.58684 251.88567
210.38739 152.46249 250.78632
210.81799 152.33821 249.68625
211.64636 152.47171 250.52754
212.47986 152.60535 251.3661
213.31851 152.73909 252.20195
213.74527 152.61507 251.09599
214.58936 152.74901 251.92729
215.22519 152.75409 251.78732
216.07718 152.88824 252.61346
216.71605 152.89352 252.46945
217.35522 152.89888 252.32365
218.21788 153.03337 253.14223
218.63446 152.90984 252.02666
219.27455 152.91544 251.87546
220.37607 153.17938 253.65138
221.02171 153.18521 253.49539
222.13863 153.44946 255.26408
223.02779 153.58472 256.06586
223.92221 153.72009 256.86453
224.33621 153.59715 255.73726
225.23627 153.73276 256.53091
225.89383 153.73924 256.36127
226.80202 153.87512 257.1492
227.4628 153.88181 256.97504
228.63431 154.14732 258.71539
229.30081 154.15427 258.53604
230.74805 154.54953 261.22534
231.16019 154.42731 260.08383
231.83287 154.4346 259.89719
232.23845 154.3125 258.75375
232.9095 154.31998 258.56378
233.03601 154.06845 256.46497
233.70297 154.07607 256.27237
234.37038 154.0838 256.07779
235.31815 154.22125 256.83237
235.98892 154.22922 256.63293
236.94504 154.36697 257.38116
238.19398 154.63461 259.07483
239.45337 154.9025 260.76337
240.13849 154.91103 260.55179
241.41379 155.17931 262.23145
241.80753 155.05827 261.06808
242.4966 155.06717 260.84924
242.58151 154.81635 258.73959
242.96176 154.69543 257.57449
243.33755 154.57458 256.40887
244.63838 154.8438 258.06824
245.63737 154.98322 258.78104
246.64194 155.1228 259.48999
247.65204 155.26257 260.19495
248.98758 155.53267 261.83444
249.68892 155.54263 261.59293
249.74098 155.29227 259.47568
251.09323 155.5629 261.103
252.12616 155.70348 261.78949
252.83224 155.71391 261.53784
253.53885 155.72443 261.28375
254.58353 155.86548 261.95956
255.63383 156.00668 262.63113
257.03232 156.27856 264.22882
258.09637 156.42017 264.89087
259.16608 156.56195 265.54855
259.8912 156.57329 265.27432
260.26416 156.45407 264.07104
261.34314 156.59624 264.71838
261.35431 156.34637 262.58743
262.07654 156.35799 262.30518
263.52509 156.63127 263.86563
264.98428 156.9048 265.41946
264.9823 156.655 263.28442
266.08221 156.7979 263.90955
266.81464 156.80995 263.61148
267.17188 156.69106 262.39343
267.90268 156.70317 262.09131
268.63391 156.71533 261.78659
269.36557 156.72752 261.47931
268.94003 156.34619 258.42987
269.66479 156.35831 258.1207
269.9989 156.23915 256.89795
68.484993 150.34987 212.11424
67.912659 150.74075 215.10504
68.128479 150.86433 216.27521
67.581131 151.25481 219.27271
67.430237 151.51161 221.3598
68.425903 151.36809 220.70171
69.416145 151.22467 220.03934
70.77475 150.94806 218.45482
72.12281 150.67166 216.86406
73.460327 150.39548 215.26706
74.054939 150.38586 215.50584
75.37645 150.11002 213.89857
75.243019 150.36682 215.97716
75.47789 150.49043 217.13373
75.71743 150.61404 218.29021
75.608109 150.87062 220.37256
75.859451 150.99417 221.5298
76.812294 150.85188 220.83119
77.413727 150.84262 221.05745
78.358109 150.70062 220.3519
79.297005 150.55876 219.64246
80.568748 150.2843 217.99751
80.486702 150.54094 220.07704
81.414169 150.39948 219.35794
82.005386 150.39081 219.56938
82.267906 150.51483 220.71407
83.186508 150.37375 219.98639
84.746155 149.96773 217.381
85.969574 149.69452 215.70634
86.546059 149.68646 215.90378
87.437851 149.54608 215.15977
88.010979 149.53822 215.35263
88.583702 149.53047 215.54364
88.539551 149.78746 217.61693
89.116432 149.77982 217.80589
89.389656 149.90451 218.93674
88.765244 150.42593 222.90082
89.949852 150.15399 221.19769
90.53257 150.14662 221.38173
91.40815 150.0072 220.6171
92.569145 149.73582 218.90147
94.296387 149.20052 215.28424
94.288506 149.45779 217.35403
95.140167 149.319 216.57541
95.986481 149.18036 215.79356
96.549103 149.17383 215.9599
97.111374 149.16737 216.12453
97.399857 149.29289 217.24025
97.692932 149.41846 218.3557
97.990601 149.54405 219.47087
98.824883 149.40604 218.6759
99.390335 149.39996 218.83345
100.21653 149.26221 218.03307
100.52025 149.38806 219.14359
101.59698 149.11882 217.38089
101.90253 149.24481 218.48874
101.96147 149.5025 220.55522
102.52744 149.49692 220.70348
103.09309 149.49139 220.8501
103.41463 149.61755 221.95592
104.22351 149.48061 221.13844
104.78827 149.47534 221.2802
105.82568 149.20711 219.49492
105.91693 149.46503 221.55882
106.48084 149.45999 221.69572
107.04448 149.45505 221.83105
107.38118 149.5816 222.92986
107.94672 149.57678 223.06259
109.1773 149.17786 220.29512
109.73499 149.17323 220.42303
110.29242 149.1687 220.54935
110.84961 149.16423 220.67412
111.40656 149.15985 220.79739
112.17282 149.02423 219.95015
112.72687 149.02 220.06982
113.28069 149.01584 220.18794
114.0365 148.88051 219.33409
114.58743 148.87651 219.44873
114.9408 149.00378 220.53336
115.29883 149.13109 221.61749
116.04649 148.99608 220.75612
116.40899 149.12349 221.83826
117.15138 148.98865 220.97295
117.33317 149.24727 223.02696
117.70724 149.3748 224.10698
118.44662 149.24017 223.23677
119.00308 149.23671 223.33942
119.3839 149.36438 224.41635
120.46152 148.96788 221.58804
121.01259 148.96463 221.68546
121.39531 149.09248 222.75845
122.11423 148.95834 221.87593
122.6648 148.95528 221.96902
122.89342 149.21423 224.01712
123.44853 149.21126 224.10812
124.0035 149.20834 224.19768
124.40469 149.33643 225.2652
124.96178 149.33362 225.35226
125.51874 149.33087 225.43787
126.36828 149.06638 223.561
126.92012 149.06375 223.64304
127.33029 149.19208 224.70488
127.88429 149.18956 224.78442
128.57486 149.05623 223.88063
128.72337 149.44638 226.90381
129.28185 149.444 226.97977
129.96964 149.31085 226.07137
130.65247 149.17776 225.16095
131.08115 149.30637 226.21556
132.00331 148.9118 223.334
132.67133 148.77895 222.41754
133.21707 148.77692 222.48354
133.64775 148.90572 223.53291
134.19571 148.90378 223.59642
134.41321 149.29417 226.61444
134.96823 149.29231 226.67601
135.31256 149.55199 228.70784
135.87222 149.5502 228.76714
136.43179 149.54848 228.82506
136.89322 149.67752 229.86815
137.35939 149.80658 230.91029
138.01678 149.67429 229.97746
138.48763 149.80344 231.01729
139.14005 149.67123 230.08121
139.95956 149.27771 227.16791
140.51379 149.27634 227.2157
141.14914 149.14432 226.27399
141.70084 149.14301 226.3188
142.17609 149.27243 227.35075
142.73007 149.27121 227.39304
143.21245 149.4007 228.42278
143.69958 149.53021 229.45152
144.39168 149.26784 227.51166
144.8168 149.52808 229.52716
145.31343 149.6577 230.55241
145.81482 149.78737 231.5766
146.37807 149.78644 231.60991
146.83191 150.0468 233.62167
147.45218 149.91533 232.66243
148.11749 149.65331 230.71138
148.67819 149.65254 230.73901
149.28394 149.52122 229.77489
149.92747 149.25935 227.81868
150.48087 149.25873 227.84193
150.99637 149.38875 228.85452
151.55211 149.38821 228.87518
152.07478 149.51831 229.88531
152.60225 149.64844 230.89427
153.13451 149.77861 231.90201
153.69739 149.77823 231.9174
154.30708 149.51671 229.94911
154.86511 149.51642 229.96167
155.42313 149.51616 229.97282
155.98114 149.51595 229.98268
156.51155 149.77693 231.9738
157.07434 149.77679 231.98099
157.61917 150.03787 233.96957
158.18678 150.03781 233.97401
158.75021 150.16838 234.96854
159.32022 150.1684 234.97023
159.89087 150.29904 235.96201
160.4633 150.29916 235.96095
161.04117 150.42989 236.94989
161.60817 150.2995 235.95462
162.18062 150.29973 235.94934
162.76575 150.43059 236.93405
163.31049 150.16972 234.94333
163.86311 150.03947 233.94263
164.45068 150.17047 234.92313
165.06537 150.4321 236.89333
165.64034 150.43257 236.87964
166.2695 150.69429 238.84665
166.87881 150.82547 239.82104
167.49298 150.95668 240.79387
168.00905 150.69612 238.79253
168.58896 150.69682 238.77165
169.12978 150.56696 237.75871
169.66583 150.43712 236.74451
170.24103 150.43794 236.7196
170.86263 150.56941 237.68359
171.44032 150.57033 237.65576
172.06921 150.70192 238.61659
172.59584 150.57228 237.59578
173.11771 150.44269 236.57387
173.75156 150.5744 237.53015
174.39029 150.70618 238.48479
175.03389 150.83801 239.43768
175.74797 151.10056 241.37807
176.33572 151.10184 241.33823
177.06438 151.3645 243.27472
177.7299 151.49658 244.22038
178.24983 151.36734 243.18703
178.765 151.23813 242.1526
179.27544 151.10896 241.11713
179.78111 150.97983 240.08055
180.36694 150.98143 240.0307
181.04015 151.1138 240.967
181.71825 151.24623 241.90138
182.30913 151.248 241.84673
182.90012 151.24982 241.79059
183.49118 151.25168 241.73303
183.98299 151.12285 240.68752
184.6736 151.25557 241.61343
185.36914 151.38835 242.53731
185.85641 151.25964 241.48788
186.44797 151.26178 241.42288
187.26248 151.52553 243.32668
187.74524 151.39697 242.27328
188.45581 151.53008 243.18813
189.05264 151.53242 243.11658
189.89177 151.79649 245.01152
190.61719 151.92981 245.92004
191.34758 152.06322 246.82645
191.82623 151.93497 245.76454
192.43094 151.93762 245.68446
192.9026 151.80946 244.62045
193.64078 151.94313 245.51974
193.96986 151.68416 243.47154
194.85118 151.94885 245.34877
195.74234 152.21367 247.22305
196.20749 152.08578 246.15231
196.96335 152.21982 247.04135
197.87436 152.48491 248.90805
198.49013 152.48817 248.81252
199.10605 152.49149 248.71536
200.03696 152.75688 250.57422
200.49826 152.62933 249.49466
201.2794 152.7639 250.3703
201.73621 152.63646 249.2883
202.52258 152.77118 250.15987
203.14447 152.77493 250.05225
203.76656 152.77875 249.94293
204.21443 152.65152 248.85612
204.65765 152.52434 247.76849
205.27548 152.52834 247.65517
205.89354 152.53239 247.54016
206.8801 152.79887 249.37177
207.8766 153.06549 251.19983
208.88309 153.33224 253.02434
209.13376 153.07426 250.95447
210.15048 153.34123 252.77367
210.58823 153.2146 251.67406
210.82256 152.95673 249.60251
211.65102 153.09274 250.44339
212.4846 153.22887 251.28154
213.32335 153.36511 252.11693
213.75018 153.23877 251.01123
214.80533 153.50658 252.81067
215.65714 153.64317 253.63817
216.29823 153.64847 253.49525
216.93964 153.65387 253.35059
217.36057 153.52789 252.23766
218.22333 153.66489 253.0558
218.63998 153.53906 251.94044
219.28015 153.54477 251.78914
220.38181 153.81364 253.5643
221.26057 153.95114 254.37172
222.38007 154.22035 256.13901
223.03386 154.22655 255.97742
223.68799 154.23285 255.81393
224.09959 154.10757 254.68745
224.99728 154.2457 255.48128
225.65251 154.25227 255.31213
226.80861 154.52238 257.05945
227.21677 154.39745 255.92661
227.87556 154.40434 255.75107
229.05008 154.67493 257.48798
229.97476 154.8139 258.26373
230.64215 154.82118 258.08029
231.30998 154.82855 257.89487
231.71069 154.70412 256.75299
232.37688 154.71167 256.56427
232.49849 154.45538 254.46741
233.71057 154.72708 256.18082
234.37805 154.73494 255.98604
235.6059 155.00702 257.69101
236.27927 155.01517 257.49066
237.23801 155.15552 258.23767
238.20221 155.29605 258.98108
239.46175 155.56892 260.66876
240.14697 155.57761 260.457
241.42242 155.85089 262.13577
242.11362 155.85986 261.91812
242.50543 155.73665 260.7536
242.89276 155.61346 259.58838
243.58047 155.62271 259.36581
243.65395 155.36725 257.25638
244.95743 155.64151 258.914
245.6467 155.65109 258.68478
246.6514 155.79327 259.39316
247.66162 155.93564 260.0976
248.99733 156.21077 261.73615
249.69878 156.22092 261.49445
249.75085 155.96585 259.37769
250.77585 156.10883 260.06863
251.47641 156.11926 259.82086
251.845 155.99701 258.63705
252.87917 156.14041 259.31827
253.58139 156.15115 259.06348
254.62424 156.29486 259.73724
256.70053 156.83752 263.19684
258.45248 157.24765 265.71744
259.8725 157.52509 267.3017
260.95303 157.66974 267.95251
261.33365 157.5484 266.74646
262.42032 157.6933 267.39026
262.0813 157.30571 264.33261
262.80872 157.31758 264.04816
263.89954 157.46277 264.68335
264.99597 157.60812 265.31403
264.99396 157.35361 263.17947
266.09396 157.49913 263.80396
266.82642 157.51138 263.50571
267.55936 157.52368 263.2049
268.29276 157.53603 262.90149
269.02658 157.5484 262.59549
269.7608 157.56082 262.28687
268.95178 157.03871 258.32443
270.06503 157.18468 258.92676
270.79272 157.19702 258.61371
66.908737 151.46414 215.66563
67.124763 151.59006 216.83772
67.34565 151.71587 218.00986
66.803284 152.11345 221.00859
67.420395 152.10315 221.2686
67.658257 152.22871 222.44185
68.653656 152.08263 221.78215
70.391296 151.66516 219.2832
72.113312 151.24797 216.77588
73.450951 150.96675 215.17981
74.778053 150.68575 213.57756
76.094597 150.40497 211.96922
75.594925 150.80212 214.96785
75.827286 150.92807 216.12323
76.064301 151.05402 217.27855
75.952431 151.31535 219.35936
76.201263 151.44122 220.51547
76.803207 151.43175 220.74394
77.404716 151.42233 220.97038
78.005791 151.41301 221.19476
78.947319 151.26852 220.48679
79.883354 151.12421 219.77495
79.806343 151.3855 221.85579
81.072311 151.10626 220.20595
81.666122 151.09741 220.41847
82.587799 150.95361 219.69415
83.504028 150.80998 218.96608
85.061333 150.39658 216.3611
85.961632 150.25333 215.62393
86.856461 150.11024 214.88319
87.114334 150.23703 216.01727
87.690063 150.22902 216.21112
88.265373 150.22108 216.40311
88.531998 150.34801 217.53497
89.108963 150.34023 217.72409
89.078979 150.60191 219.79808
88.75779 150.9982 222.81758
89.644272 150.85591 222.06024
89.637985 151.11755 224.13669
90.521149 150.97548 223.37489
92.271378 150.42999 219.76788
93.712997 150.01933 217.10097
93.995941 150.1468 218.22293
95.13356 149.871 216.496
95.979996 149.72983 215.71466
96.264297 149.85754 216.83214
96.829124 149.85095 216.99763
97.3936 149.84442 217.16138
97.686722 149.97229 218.27663
97.715958 150.23445 220.34546
98.552811 150.09389 219.55167
99.384384 149.95346 218.75476
99.949585 149.94736 218.9108
100.51446 149.94135 219.06514
101.59132 149.66716 217.30325
102.15062 149.66136 217.45296
102.20713 149.9238 219.51819
102.52194 150.05219 220.62518
103.08768 150.04657 220.77191
103.16541 150.30904 222.83803
103.97686 150.16956 222.02161
104.54416 150.16417 222.16408
105.34766 150.02492 221.34256
105.67788 150.15363 222.44415
106.01273 150.28236 223.54533
106.58134 150.27727 223.68192
107.14968 150.27226 223.81693
107.71774 150.26732 223.95033
109.1727 149.72725 220.21866
109.9498 149.58878 219.3802
110.28796 149.71793 220.47308
111.05968 149.57964 219.6304
111.61426 149.5752 219.75322
111.95903 149.70451 220.84311
112.72272 149.5665 219.99423
113.07191 149.69592 221.08212
113.83025 149.55809 220.2292
114.18389 149.68762 221.31506
114.54218 149.8172 222.40047
115.29501 149.67961 221.54199
115.65775 149.80928 222.62537
116.21523 149.80542 222.73555
117.14777 149.53455 220.89801
117.32957 149.79791 222.95146
117.7037 149.92776 224.0312
118.6235 149.65717 222.18689
118.99968 149.78714 223.26414
119.38055 149.91714 224.34081
120.28522 149.64684 222.48938
120.66817 149.77695 223.56354
121.05579 149.9071 224.63712
121.77963 149.77048 223.75583
122.49846 149.63393 222.87228
122.89044 149.76424 223.94231
123.6041 149.62784 223.05507
124.00064 149.75824 224.12299
124.55551 149.75534 224.21117
125.11024 149.75249 224.2979
125.51602 149.88301 225.36304
126.36565 149.61365 223.48686
126.91754 149.61098 223.56894
127.32777 149.74165 224.63055
127.88181 149.73909 224.71014
128.43575 149.73657 224.78831
128.72098 150.00061 226.82896
129.27951 149.9982 226.90498
130.0968 149.72937 225.01436
130.65025 149.72707 225.08688
131.20358 149.72482 225.15802
132.00122 149.45624 223.26068
132.42973 149.5873 224.31221
132.98035 149.58522 224.37885
133.53085 149.58319 224.44409
133.96873 149.71439 225.49265
134.41135 149.8456 226.54036
135.18182 149.57741 224.63152
135.41606 149.97499 227.64771
136.07625 149.84006 226.72105
136.63104 149.83832 226.7785
137.08769 149.96973 227.82082
137.45343 150.23428 229.84869
138.20169 149.96646 227.92929
138.66776 150.09799 228.96835
139.22699 150.09647 229.01933
139.87216 149.9619 228.08156
140.42883 149.96048 228.12958
140.98546 149.95911 228.17618
141.54201 149.95776 228.22144
142.17487 149.82343 227.27715
142.65492 149.95525 228.30779
143.28285 149.821 227.36037
143.76762 149.9529 228.38864
144.3239 149.95178 228.427
144.81578 150.08376 229.45302
145.25052 150.34879 231.46718
145.75435 150.48082 232.49121
146.32007 150.47987 232.52467
146.88573 150.47897 232.55676
147.45135 150.47812 232.58746
148.16661 150.07826 229.64716
148.72495 150.0775 229.67471
149.32831 149.94377 228.71085
149.92685 149.81009 227.74535
150.44002 149.94246 228.75891
150.95796 150.07486 229.77132
151.51614 150.07431 229.79204
152.04128 150.20679 230.80196
152.57118 150.33931 231.81068
153.13411 150.33887 231.82748
153.69702 150.33849 231.8429
154.25992 150.33813 231.85692
154.84381 150.20485 230.87869
155.40428 150.20459 230.88992
155.94853 150.33734 231.89079
156.49759 150.47014 232.89034
157.08562 150.20404 230.91544
157.62808 150.46989 232.90338
158.18675 150.60281 233.89891
158.75021 150.73578 234.89311
159.32381 150.46985 232.91258
159.89032 150.73587 234.89514
160.46039 150.73598 234.89409
161.0359 150.86911 235.88272
161.60052 150.73633 234.88777
162.17061 150.73656 234.88251
162.76604 151.00281 236.85799
163.3259 150.87013 235.85889
163.86348 150.60452 233.86749
164.4511 150.73792 234.84766
165.06583 151.00433 236.81721
165.64084 151.00482 236.80351
166.27005 151.27135 238.76991
166.87941 151.40492 239.74394
167.49362 151.53854 240.7164
168.04404 151.40622 239.70627
168.58968 151.27393 238.69487
169.13054 151.14168 237.68221
169.66663 151.00946 236.66833
170.24187 151.0103 236.64339
170.86351 151.1442 237.60706
171.44125 151.14511 237.57918
172.12135 151.41214 239.52948
172.59686 151.14711 237.5192
173.17474 151.14816 237.48706
173.75267 151.14928 237.45351
174.45224 151.4165 239.39702
175.0351 151.41772 239.36032
175.68362 151.55202 240.31113
176.26901 151.55331 240.27139
177.06573 151.95387 243.19606
177.58563 151.82222 242.16447
178.17604 151.82367 242.12003
178.76651 151.82518 242.07414
179.27698 151.69363 241.03893
179.7827 151.56215 240.00267
180.36856 151.56378 239.95279
181.04182 151.69858 240.88872
181.71999 151.83344 241.82275
182.40305 151.96837 242.75488
182.90195 151.8371 241.71191
183.49307 151.83899 241.65428
184.08427 151.84094 241.59518
184.77736 151.9761 242.52046
185.47537 152.11133 243.44374
186.07172 152.11346 243.37965
186.55913 151.98247 242.32906
187.26469 152.11787 243.24702
187.7475 151.98697 242.19395
188.45813 152.1225 243.1084
189.05501 152.12491 243.03683
189.89423 152.39381 244.93106
190.61971 152.52959 245.8392
191.35014 152.66544 246.74522
191.95721 152.66809 246.66634
192.56439 152.67082 246.58592
193.03853 152.54031 245.5218
193.64357 152.54315 245.43861
194.11073 152.41275 244.37247
194.99457 152.68231 246.24864
195.74535 152.81866 247.14114
196.35583 152.82178 247.05099
197.1142 152.9583 247.93932
197.72742 152.96153 247.84563
198.49339 153.09822 248.72968
199.10938 153.10159 248.63245
199.88297 153.23845 249.5121
200.50174 153.24197 249.41127
201.28296 153.379 250.28653
201.73981 153.24924 249.20477
202.52628 153.38643 250.07597
202.97867 153.25677 248.99181
203.59839 153.26064 248.88284
204.21831 153.26459 248.77228
204.48473 153.00156 246.70979
205.45879 153.27269 248.54619
205.89761 153.14328 247.45642
206.88426 153.41466 249.28726
207.69429 153.55257 250.14127
208.69846 153.8242 251.96552
208.94675 153.56148 249.8967
210.15503 153.96698 252.6875
210.78917 153.97168 252.55951
211.22476 153.84279 251.45891
211.85696 153.84763 251.32796
212.69312 153.98627 252.16518
213.53439 154.12503 252.9996
213.96373 153.99641 251.8936
214.81046 154.13538 252.72348
215.87579 154.40826 254.51828
216.51944 154.4137 254.37473
217.16336 154.4192 254.22935
217.58682 154.29095 253.11615
218.45215 154.4305 253.93326
219.09698 154.43626 253.7825
219.74216 154.44214 253.62994
220.84885 154.71599 255.40311
221.49959 154.72209 255.24568
222.38617 154.86227 256.04901
222.80206 154.73456 254.92525
223.69424 154.87498 255.72362
224.10593 154.74742 254.59737
225.24911 155.02217 256.35086
225.90688 155.0289 256.18094
227.06558 155.30399 257.92679
227.72903 155.31096 257.75168
228.13766 155.18384 256.61716
228.54175 155.05676 255.48201
229.46158 155.19823 256.25861
229.59889 154.93703 254.16534
230.25693 154.94443 253.98254
230.91537 154.95192 253.79774
231.8443 155.09389 254.56442
232.23352 154.96724 253.42221
233.44327 155.24388 255.13548
234.10838 155.25186 254.94125
235.33391 155.5289 256.64612
236.0049 155.53716 256.44635
236.96129 155.68005 257.19357
238.21057 155.95769 258.88553
239.18034 156.10097 259.62479
240.15559 156.24442 260.36038
241.13632 156.38803 261.09229
241.52771 156.26245 259.93005
242.21451 156.27162 259.71164
242.90181 156.28091 259.49103
243.58963 156.29031 259.26825
244.27795 156.29984 259.04327
245.58664 156.57919 260.69839
246.28104 156.589 260.46732
247.29086 156.73386 261.17343
247.67139 156.60895 259.99835
249.00726 156.8891 261.63602
249.38635 156.76437 260.45721
249.43594 156.50458 258.34183
250.78604 156.78525 259.9682
251.48669 156.79585 259.72021
251.85536 156.67136 258.53656
252.88968 156.81737 259.21722
253.92957 156.96356 259.89371
254.97507 157.10994 260.56598
256.71149 157.52721 263.09332
258.11847 157.80942 264.68384
259.53613 158.09189 266.26813
260.96448 158.3746 267.84607
261.34515 158.25101 266.64017
262.07663 158.26299 266.35855
262.45074 158.13942 265.15048
263.18079 158.15152 264.86478
263.91129 158.1637 264.57651
265.00784 158.31168 265.20657
265.37387 158.18823 263.99234
266.1059 158.20062 263.69644
266.83841 158.21304 263.39795
267.19568 158.0896 262.18015
268.30481 158.23804 262.79324
269.03867 158.2506 262.487
270.15631 158.39922 263.09167
269.3497 157.86755 259.12946
271.24255 158.28842 261.55273
271.97791 158.30106 261.23611
68.074158 151.62869 212.84514
68.282486 151.75703 214.01369
68.495667 151.88528 215.18236
67.177376 152.56696 220.00259
67.410416 152.69489 221.17569
67.648247 152.82275 222.34875
68.267288 152.81232 222.6057
70.007629 152.38733 220.10913
72.103699 151.82446 216.68599
73.441444 151.53822 215.0909
74.768669 151.2522 213.48959
76.085335 150.96637 211.8822
75.94677 151.23273 213.95767
76.176605 151.36102 215.11185
76.054993 151.6272 217.19022
76.296677 151.75542 218.34528
76.191963 152.02144 220.42641
76.793983 152.0118 220.65504
76.70359 152.27773 222.73782
77.653244 152.13046 222.03528
78.597404 151.98337 221.3288
79.536072 151.83643 220.61845
80.133369 151.82722 220.83604
81.730347 151.40547 218.25351
81.988358 151.53406 219.39801
82.907646 151.38773 218.67332
83.495628 151.37898 218.88033
85.053146 150.95813 216.2766
85.632736 150.94968 216.47711
86.530197 150.804 215.73776
86.790627 150.93303 216.87248
87.368942 150.92485 217.06734
87.946838 150.91675 217.26033
88.216011 151.04593 218.39284
88.795555 151.03798 218.58296
88.768105 151.30435 220.65715
88.449402 151.70776 223.67654
89.338493 151.56287 222.92055
89.630554 151.69217 224.05182
90.220497 151.68454 224.23671
91.973434 151.12918 220.63203
93.417702 150.71111 217.96713
93.703194 150.84085 219.08963
94.843445 150.56004 217.3643
95.973389 150.27946 215.63423
96.257751 150.40948 216.75153
97.098618 150.26601 215.96574
97.387207 150.39613 217.08105
97.680405 150.52631 218.19606
97.978195 150.65651 219.31079
98.812698 150.51343 218.51677
99.641907 150.37051 217.7197
100.20473 150.36432 217.87515
100.76721 150.35823 218.02895
101.58557 150.21567 217.22415
101.89122 150.34628 218.33156
101.95023 150.61343 220.39691
102.26756 150.74409 221.50429
102.34317 151.01123 223.57083
102.67218 151.14195 224.67812
103.48865 150.99991 223.86342
104.06093 150.99437 224.00722
104.86944 150.85255 223.18738
105.43869 150.84721 223.32732
106.00766 150.84195 223.46564
106.57635 150.83675 223.60233
107.37147 150.69539 222.77306
108.16142 150.55415 221.94104
109.38982 150.14059 219.17522
110.16457 149.99965 218.33664
110.93417 149.85881 217.49542
111.05524 150.12654 219.55313
111.39786 150.25813 220.64377
111.95472 150.25365 220.76566
112.3042 150.38533 221.85481
112.86303 150.38098 221.97418
113.82616 150.10458 220.15236
114.5795 149.96437 219.2973
114.93297 150.09631 220.38144
115.48605 150.09229 220.49371
116.03893 150.08832 220.60454
116.40152 150.2204 221.68616
117.14407 150.0806 220.82169
117.32593 150.34871 222.8745
117.88287 150.34499 222.98032
118.80034 150.06952 221.13629
119.17414 150.20184 222.21281
119.37713 150.47008 224.26382
120.45496 150.05904 221.43767
120.83553 150.19151 222.51112
121.38897 150.18819 222.60765
121.94225 150.18494 222.70273
122.82208 149.91016 220.842
122.88741 150.31439 223.86609
123.44264 150.31131 223.95721
123.52948 150.71555 226.98199
124.399 150.44106 225.11386
124.9562 150.43814 225.20107
125.66208 150.29956 224.30727
126.36298 150.16107 223.41132
127.05889 150.02266 222.51324
127.32519 150.29138 224.55479
127.8793 150.28876 224.63443
128.43327 150.28621 224.71266
128.58426 150.69064 227.73431
129.01337 150.82381 228.79265
129.70612 150.68575 227.88567
130.52095 150.41214 225.99402
130.95215 150.54544 227.0484
131.87688 150.1364 224.16917
132.30785 150.26982 225.22076
132.9783 150.13211 224.30394
133.41391 150.26561 225.35329
133.96678 150.26358 225.41747
134.40944 150.39716 226.46489
135.07227 150.25969 225.54166
135.51955 150.39334 226.58682
136.07448 150.39151 226.64571
136.62932 150.38974 226.7032
137.08601 150.52351 227.74522
137.73875 150.38632 226.81404
138.38661 150.24918 225.881
138.84789 150.38309 226.91934
139.49077 150.24608 225.98309
140.04274 150.24458 226.03207
140.51105 150.37862 227.06693
141.06529 150.37721 227.11336
141.5407 150.51132 228.1461
142.09723 150.51001 228.18999
142.65372 150.50874 228.23248
143.21013 150.50752 228.27365
143.6282 150.77724 230.29015
144.18933 150.77609 230.32887
144.68608 150.91043 231.35492
145.18759 151.0448 232.37988
145.75339 151.04379 232.41475
146.37625 150.90741 231.45911
146.93956 150.90648 231.49107
147.55511 150.7702 230.53224
148.16583 150.63397 229.57176
148.67673 150.7686 230.58902
149.1924 150.90326 231.6051
149.84085 150.63176 229.65041
150.35887 150.76651 230.66386
150.88168 150.90129 231.67613
151.48016 150.76532 230.70688
152.07382 150.62943 229.7361
152.60136 150.76433 230.74445
153.19017 150.62851 229.77077
153.74831 150.62811 229.78606
154.28302 150.76314 230.79048
154.88556 150.49208 228.82199
155.42265 150.62718 229.82373
155.94833 150.89771 231.8149
156.49744 151.0329 232.81415
157.08551 150.76201 230.83989
157.61902 151.16803 233.81795
158.18013 151.30333 234.81317
158.75023 151.30331 234.81627
159.32385 151.03259 232.8364
159.88979 151.16803 233.8275
160.45747 151.16815 233.82642
161.02518 151.1683 233.82399
161.5929 151.1685 233.82016
162.18112 151.43948 235.79642
162.76633 151.57513 236.78046
163.31116 151.30472 234.791
163.88133 151.30508 234.78157
164.45152 151.30548 234.77078
165.02173 151.30594 234.75859
165.61665 151.44183 235.73549
166.27061 151.84853 238.69171
166.85051 151.84912 238.67505
167.49428 152.12054 240.63754
168.01041 151.85043 238.6375
168.51697 151.58037 236.63637
169.01392 151.31033 234.6342
169.58437 151.31113 234.61084
170.15485 151.31197 234.58609
170.81805 151.58368 236.53935
171.4422 151.72005 237.50119
172.12236 151.99187 239.45078
172.65147 151.85748 238.43047
173.23181 151.85858 238.39819
173.81219 151.85971 238.36449
174.45343 151.99632 239.31824
175.09953 152.133 240.27028
175.68491 152.13428 240.23198
176.33835 152.27107 241.18068
176.99669 152.40791 242.12758
177.51422 152.27388 241.0965
178.02701 152.13989 240.0643
178.6127 152.14142 240.01875
179.11839 152.00749 238.98422
179.70183 152.00911 238.93599
180.28532 152.01077 238.88628
181.04353 152.28351 240.80899
181.72176 152.42079 241.74266
182.22061 152.28711 240.70145
182.71472 152.15346 239.65924
183.30107 152.15538 239.60205
183.98688 152.29289 240.52916
184.67761 152.43048 241.4543
185.37326 152.56815 242.37746
186.07385 152.70587 243.29865
186.67035 152.7081 243.23303
187.1555 152.57478 242.18144
187.7498 152.5771 242.11311
188.46049 152.71509 243.02719
189.17612 152.85315 243.93918
189.89671 152.99129 244.84908
190.62225 153.12952 245.75684
191.35278 153.26781 246.66249
191.9599 153.27052 246.58354
192.56714 153.2733 246.50307
193.04132 153.14046 245.43924
193.5108 153.00766 244.37459
194.11363 153.01059 244.29008
194.99754 153.28502 246.16554
195.7484 153.42383 247.05766
196.50426 153.56273 247.94749
197.41287 153.83748 249.8147
198.03101 153.84081 249.72023
198.64931 153.84421 249.62419
199.26779 153.84766 249.52652
200.04388 153.987 250.4054
200.50528 153.85478 249.32634
201.28659 153.99429 250.20117
201.7435 153.86218 249.11971
202.3629 153.86598 249.01395
202.81291 153.73398 247.93045
203.60226 153.87381 248.79753
204.3967 154.01373 249.66211
204.84247 153.88191 248.57457
205.64218 154.02202 249.43497
206.26526 154.02628 249.31892
207.25688 154.30257 251.14809
207.88525 154.30701 251.02776
208.70293 154.44754 251.87827
208.95125 154.1801 249.81003
209.96573 154.45685 251.62817
210.5975 154.46162 251.50056
211.42834 154.60257 252.34183
212.06308 154.60751 252.21028
213.10544 154.88481 254.01607
213.74557 154.88997 253.87999
214.38599 154.8952 253.74217
215.0267 154.90054 253.6026
216.0946 155.17838 255.39607
216.74078 155.18393 255.25188
217.38724 155.18954 255.10582
218.03401 155.19528 254.95801
218.90434 155.33739 255.77354
219.32848 155.207 254.65691
219.9762 155.21301 254.50365
221.08546 155.49182 256.27539
221.50568 155.36166 255.15442
222.39238 155.50438 255.95728
223.04633 155.5108 255.79539
223.70065 155.51733 255.63167
223.86948 155.25099 253.54521
225.01035 155.53067 255.29848
225.66574 155.53748 255.12906
226.82213 155.81752 256.87473
227.73598 155.96117 257.65796
228.14468 155.83176 256.52365
228.80655 155.83904 256.34521
229.46881 155.84642 256.16483
229.86882 155.71719 255.02727
230.2643 155.58804 253.88911
231.19044 155.73242 254.65797
231.58182 155.60342 253.51727
232.51376 155.74808 254.2807
233.45111 155.8929 255.04073
234.11632 155.90102 254.84634
235.062 156.04614 255.60014
236.29559 156.32837 257.29984
237.25461 156.47388 258.04581
238.50653 156.75655 259.73608
239.47896 156.90244 260.47406
240.16437 156.91144 260.2619
241.44019 157.19473 261.93893
241.83414 157.06691 260.77606
242.52356 157.07629 260.5567
243.21347 157.08577 260.33508
244.20886 157.2326 261.05377
244.59485 157.10509 259.88531
245.59625 157.25221 260.59787
246.60318 157.39952 261.30652
247.30072 157.40965 261.07217
247.99879 157.41989 260.83551
249.33737 157.70512 262.47137
250.04153 157.71565 262.22839
250.42123 157.58876 261.04742
251.45151 157.73703 261.73544
251.82724 157.61029 260.55161
252.53108 157.62122 260.30017
253.57056 157.76993 260.97842
254.27802 157.7811 260.72131
255.66634 158.06787 262.32227
257.40805 158.49272 264.84641
258.82025 158.78008 266.43405
260.24313 159.06769 268.01544
261.67673 159.35556 269.59052
261.70969 159.09183 267.45731
262.79913 159.24203 268.09894
262.8205 158.97826 265.96558
263.5531 158.99059 265.67865
264.28625 159.00299 265.38913
265.0199 159.01546 265.09711
265.38593 158.88977 263.883
266.48868 159.04059 264.50528
267.22379 159.05322 264.20551
267.95935 159.06593 263.90317
268.69534 159.07867 263.59821
269.43179 159.09146 263.29068
270.16861 159.10426 262.98053
269.74786 158.70149 259.93167
271.25485 158.99136 261.44153
271.99023 159.00417 261.12473
67.672615 152.34251 213.66209
67.88343 152.47313 214.83156
67.712448 152.74452 216.91251
67.167297 153.15657 219.90817
67.400307 153.2868 221.08105
67.259094 153.55771 223.16855
68.257164 153.4064 222.51108
69.997665 152.97394 220.01585
72.093925 152.40115 216.59448
73.800629 151.96933 214.08154
75.125435 151.67831 212.48019
76.075951 151.52798 211.79356
75.937347 151.79907 213.86844
75.808495 152.07005 215.94531
75.6894 152.34093 218.02408
75.933647 152.47139 219.17992
76.533615 152.46158 219.40987
76.784607 152.59206 220.56451
77.386261 152.58235 220.79132
77.987465 152.57272 221.01611
78.588242 152.56317 221.23885
79.527031 152.41365 220.52905
80.460335 152.26428 219.8154
81.721581 151.9751 218.1656
82.310516 151.96603 218.37668
82.899033 151.95706 218.5858
83.812973 151.8083 217.85794
85.044807 151.5199 216.19052
85.945335 151.37151 215.45445
86.840401 151.2233 214.7148
87.414223 151.21494 214.90999
87.98761 151.2067 215.10333
88.560577 151.19853 215.29483
88.516487 151.46967 217.36642
89.399452 151.32205 216.61409
89.670349 151.45367 217.74352
88.742485 152.14334 222.64638
89.330872 152.13541 222.8343
89.622978 152.267 223.96539
89.919662 152.39862 225.09621
91.675301 151.83342 221.49391
93.410637 151.26855 217.88368
93.982086 151.26129 218.05791
95.120003 150.97556 216.3327
95.966667 150.82928 215.55235
96.251083 150.96161 216.66942
96.816086 150.95477 216.83517
97.107224 151.08719 217.95094
97.402946 151.21962 219.06645
97.971817 151.21301 219.22853
98.806442 151.0674 218.43497
99.635765 150.92194 217.63838
100.19867 150.91565 217.79398
100.76125 150.90944 217.94789
101.57971 150.76436 217.14355
101.88541 150.89729 218.25078
102.19573 151.03024 219.35762
102.26184 151.30214 221.42267
102.58385 151.43513 222.52943
102.91045 151.56819 223.63586
103.72458 151.42365 222.82098
103.81651 151.6956 224.8864
104.86411 151.41251 223.10599
104.96529 151.68452 225.17056
105.53923 151.67912 225.3102
106.34209 151.5351 224.48473
107.36648 151.25253 222.69246
108.15652 151.1088 221.86087
109.6069 150.5493 218.13103
110.15992 150.54446 218.25807
110.71268 150.53972 218.38361
110.83622 150.81216 220.44127
111.18134 150.94606 221.5322
111.53111 151.08 222.62265
112.09268 151.07547 222.74416
112.65403 151.07101 222.86414
113.82199 150.65125 220.07413
114.57542 150.50854 219.21951
115.12634 150.50439 219.33287
115.87202 150.36189 218.47377
116.22757 150.49628 219.55516
116.77787 150.49234 219.66406
117.51565 150.3501 218.79903
117.69266 150.62299 220.85034
118.06202 150.75754 221.92865
118.97715 150.47722 220.08493
119.17062 150.75018 222.13504
119.54916 150.88489 223.21072
120.45159 150.60484 221.36037
121.00285 150.60141 221.45798
121.38571 150.73627 222.53015
121.93906 150.73296 222.62529
122.6556 150.59151 221.74214
122.88431 150.8647 223.78847
123.43961 150.86156 223.87965
123.83865 150.99664 224.94742
124.70341 150.71732 223.07925
125.10458 150.85249 224.14453
125.80811 150.71147 223.25078
126.65305 150.43243 221.37534
127.20022 150.42969 221.45679
127.46413 150.70316 223.49736
128.01587 150.70052 223.57674
128.56749 150.69791 223.65466
128.85037 150.97147 225.69376
129.27469 151.10701 226.75116
129.96268 150.96651 225.84389
130.64569 150.82611 224.9346
131.07451 150.96178 225.98839
131.87469 150.6835 224.09279
132.18591 150.95726 226.12721
132.85884 150.81711 225.21107
133.29691 150.95296 226.26041
133.9648 150.81293 225.3409
134.51762 150.81091 225.40375
135.1781 150.67101 224.48061
135.62302 150.80704 225.52522
136.27849 150.66727 224.59882
136.62758 150.9413 226.62651
137.28046 150.80162 225.69707
137.83278 150.79991 225.75159
138.47827 150.66035 224.81868
138.84634 150.93452 226.84276
139.5777 150.6572 224.92039
140.1273 150.65569 224.96921
140.50963 150.92996 226.99046
141.06393 150.92854 227.03694
141.61816 150.92715 227.08203
142.17233 150.92583 227.12576
142.65248 151.06239 228.15582
143.20894 151.06114 228.19699
143.6962 151.19778 229.22482
144.25496 151.19662 229.26341
144.74934 151.33334 230.28897
145.24849 151.47009 231.31348
145.75241 151.60689 232.3369
146.26109 151.74371 233.35924
146.88396 151.60497 232.40254
147.44968 151.60406 232.43326
148.06525 151.46542 231.4734
148.62848 151.46461 231.50122
149.19168 151.46385 231.52768
149.84019 151.18756 229.57367
150.35825 151.32469 230.58681
150.95682 151.18628 229.61928
151.55054 151.04793 228.65021
152.10637 151.04739 228.66949
152.63155 151.18469 229.67743
153.21799 151.04646 228.70404
153.77377 151.04607 228.71927
154.28268 151.32126 230.71353
154.86426 151.18317 229.7359
155.40379 151.32066 230.73738
155.93193 151.59598 232.72794
156.46967 151.87132 234.71727
157.07399 151.45787 231.75334
157.60995 151.87106 234.73042
158.18008 151.871 234.73492
158.75023 151.87099 234.73799
159.32213 151.73325 233.74925
159.8905 151.87108 234.74002
160.46065 151.8712 234.73897
161.02536 151.73358 233.74605
161.59311 151.73378 233.74222
162.18138 152.00957 235.7178
162.76665 152.14763 236.70152
163.32658 152.01019 235.70308
163.8992 152.01056 235.69362
164.45195 151.8732 234.69249
165.04449 152.01144 235.67049
165.61717 152.01195 235.65683
166.24408 152.28807 237.62198
166.82162 152.28867 237.60536
167.46303 152.5649 239.56726
167.90816 152.01443 235.58823
168.48097 152.01515 235.56755
169.01469 151.87813 234.5558
169.58519 151.87895 234.53244
170.11176 151.742 233.5182
170.81898 152.15633 236.46027
171.44316 152.2951 237.42172
172.0722 152.43393 238.38152
172.59895 152.29716 237.36165
173.17693 152.29828 237.32948
173.75494 152.29942 237.29587
174.39383 152.43845 238.24945
175.03758 152.57755 239.20131
175.75183 152.85454 241.13968
176.40775 152.99374 242.08783
177.06854 153.13303 243.03423
177.58853 152.99663 242.00325
178.25429 153.13602 242.94637
178.76959 152.99971 241.91281
179.28014 152.86343 240.87817
179.86844 152.8651 240.82951
180.45682 152.86681 240.77936
181.04529 152.86856 240.72777
181.72356 153.00829 241.66107
182.22246 152.87224 240.62016
182.52751 152.46037 237.60641
183.10909 152.46231 237.54964
183.98888 152.87814 240.44774
184.57788 152.88022 240.38734
185.27118 153.02031 241.31038
186.18268 153.4364 244.20079
186.78163 153.43867 244.13487
187.15779 153.16504 242.09917
187.86601 153.30539 243.01465
188.57918 153.44583 243.92804
188.94119 153.1723 241.88951
189.65701 153.31287 242.79959
190.37779 153.45351 243.70758
190.97758 153.45619 243.63107
191.5775 153.45892 243.55301
192.30835 153.59979 244.45517
192.77774 153.46457 243.3923
193.37805 153.4675 243.30968
193.97852 153.47047 243.22546
194.86011 153.74976 245.10054
195.60861 153.89102 245.99258
196.36212 154.03238 246.8824
197.12064 154.17381 247.76988
197.73399 154.17717 247.67609
198.34753 154.1806 247.58073
199.11624 154.3223 248.46193
199.88998 154.4641 249.34081
200.34901 154.32953 248.26242
201.12798 154.4715 249.13727
201.74725 154.4753 249.03304
202.36671 154.47917 248.92722
202.81677 154.34483 247.84398
203.60623 154.48714 248.71063
204.40076 154.62955 249.57481
204.84657 154.49541 248.48752
205.64638 154.638 249.3475
206.45126 154.7807 250.2049
207.44543 155.06189 252.03282
207.88971 154.92804 250.93933
208.70746 155.07106 251.78937
209.14734 154.93732 250.69342
210.16438 155.21899 252.51031
210.79868 155.22388 252.38211
211.43323 155.22885 252.2522
212.06804 155.23389 252.12057
213.11052 155.5161 253.92555
213.75073 155.52135 253.78938
214.39124 155.52669 253.65146
215.03203 155.53212 253.51178
216.10007 155.81488 255.30444
216.74632 155.82053 255.1601
217.1745 155.68761 254.048
217.81891 155.69342 253.90065
218.6869 155.83801 254.71628
219.10864 155.70531 253.60043
219.98219 155.85016 254.41132
221.32227 156.27267 257.14536
221.74498 156.14024 256.02396
222.63425 156.28552 256.82574
223.29077 156.29208 256.66315
223.94763 156.29875 256.49863
223.87604 155.88882 253.45212
224.77164 156.03453 254.2451
225.92041 156.31935 255.99373
226.82907 156.46539 256.77972
227.74304 156.61159 257.5625
228.66235 156.75795 258.34204
229.32927 156.76541 258.16211
229.73639 156.6339 257.02475
230.40161 156.64154 256.84152
230.80212 156.51015 255.70222
231.73334 156.65715 256.46915
232.12973 156.52592 255.32724
232.52161 156.39473 254.18472
233.45908 156.54211 254.94424
234.12442 156.55038 254.74969
235.07022 156.69809 255.50294
236.02145 156.84595 256.25266
236.97812 156.994 256.99884
238.51524 157.42107 259.63657
239.48779 157.56953 260.37396
240.46582 157.71817 261.10773
241.74429 158.00653 262.78299
242.43829 158.01602 262.56403
243.13281 158.02562 262.34283
243.82784 158.03534 262.11945
244.52338 158.04518 261.89386
244.91196 157.91544 260.72476
245.916 158.06519 261.43591
246.30063 157.93561 260.26401
247.31075 158.08566 260.96899
248.00891 158.09607 260.73215
249.02765 158.24648 261.43002
249.40686 158.11722 260.25153
250.10663 158.12796 260.00775
250.80698 158.13881 259.76169
251.50784 158.14977 259.51328
252.54187 158.3009 260.19513
253.58148 158.45222 260.87277
253.95137 158.32343 259.68472
255.67755 158.75542 262.21545
257.41943 159.18776 264.73816
258.83182 159.48016 266.32483
260.60269 159.91318 268.83224
261.33832 159.92543 268.55325
261.72162 159.79736 267.34665
262.10034 159.66931 266.13943
262.47455 159.54124 264.9317
262.84418 159.41318 263.72339
263.93536 159.56625 264.35678
265.39771 159.86011 265.90567
265.76633 159.73219 264.69073
266.50101 159.74498 264.39331
267.60941 159.89856 265.01028
267.97177 159.77068 263.79068
268.32944 159.64276 262.57062
269.44427 159.79655 263.17773
269.79764 159.66859 261.95462
268.98816 159.11763 257.99619
270.49014 159.41246 259.5072
271.61148 159.56641 260.10178
68.054497 152.77461 212.65901
68.262703 152.90761 213.82715
68.475784 153.0405 214.99539
67.925415 153.45984 217.98785
68.153282 153.59248 219.15839
68.006905 153.86823 221.24315
69.37645 153.57129 219.66888
70.361534 153.41765 219.00456
72.084007 152.97806 216.50133
73.421997 152.68175 214.90816
75.482147 152.09975 211.46994
76.430199 151.94687 210.7829
76.289017 152.22275 212.8562
76.516342 152.35568 214.00899
76.392151 152.63138 216.08519
76.277679 152.90697 218.16331
76.875198 152.89705 218.39247
76.775085 153.17252 220.47232
77.030731 153.30528 221.62666
77.978088 153.15289 220.9243
78.919952 153.00066 220.21803
79.517838 152.99107 220.43803
80.451263 152.83913 219.72495
81.712669 152.54492 218.07608
82.301689 152.53572 218.28735
82.890282 152.5266 218.49664
83.804344 152.37527 217.76936
84.712944 152.22411 217.03839
85.616089 152.07312 216.30376
86.195427 152.06447 216.50273
86.458466 152.19806 217.63792
87.039452 152.18956 217.83398
88.241745 151.897 216.14857
88.50853 152.03081 217.27983
89.391624 151.88062 216.52805
89.662582 152.01453 217.65723
88.734642 152.7162 222.5584
89.323105 152.70813 222.74652
89.911171 152.70015 222.93275
90.498817 152.69228 223.11717
91.667877 152.40089 221.40736
93.691849 151.68445 216.85181
93.974968 151.81882 217.97311
94.82959 151.66983 217.19727
95.397881 151.66264 217.36737
96.244301 151.51393 216.5858
96.809387 151.50697 216.75169
97.37413 151.50011 216.91585
97.667435 151.63489 218.03044
98.233917 151.62817 218.19193
99.066177 151.48006 217.39819
99.629501 151.47357 217.5556
100.1925 151.46716 217.71132
100.49646 151.60225 218.82092
101.31749 151.45461 218.01776
101.37195 151.73117 220.08224
101.68726 151.86639 221.19016
102.25603 151.86035 221.33955
102.57809 151.99567 222.44611
102.90476 152.13103 223.55226
103.71899 151.98398 222.7379
103.81096 152.26065 224.8027
104.62213 152.1138 223.98441
104.95988 152.24939 225.08711
105.53393 152.24387 225.22684
106.10768 152.23845 225.36494
107.3614 151.80986 222.61038
107.70295 151.94574 223.70779
109.15839 151.37645 219.98059
109.71637 151.37149 220.10887
110.27411 151.36661 220.2356
110.61708 151.50278 221.32727
111.17677 151.49803 221.45142
111.52658 151.63429 222.54163
112.29543 151.48877 221.69513
112.8544 151.48425 221.81468
113.81775 151.19807 219.99445
114.57127 151.05289 219.14024
115.31969 150.90781 218.28355
116.06302 150.76285 217.42441
116.60872 150.75879 217.53391
116.96411 150.89558 218.61356
117.69953 150.75089 217.74849
117.6889 151.16928 220.77127
118.24113 151.16544 220.87627
118.97354 151.02097 220.00635
119.345 151.15799 221.08191
119.54562 151.43573 223.13126
120.44816 151.1508 221.28166
120.82881 151.28796 222.3546
121.38239 151.28452 222.45126
121.93579 151.28114 222.54648
122.8158 150.99661 220.68721
123.04212 151.27457 222.7325
123.59505 151.27138 222.82336
123.83562 151.54938 224.86816
124.70045 151.2652 223.00073
124.95041 151.54327 225.04422
125.80527 151.25925 223.17239
126.50388 151.11586 222.27689
127.34151 150.83205 220.39966
127.60303 151.11029 222.43927
128.15242 151.1076 222.51831
128.42819 151.38589 224.55717
128.84785 151.52374 225.61504
129.27222 151.66164 226.67213
129.83078 151.65912 226.74686
130.5163 151.51625 225.83826
131.19685 151.37346 224.92763
131.87247 151.23074 224.01497
132.18372 151.50926 226.04877
132.8567 151.36667 225.13303
133.52477 151.22415 224.21529
133.96277 151.36241 225.26294
134.62581 151.22002 224.34187
135.17618 151.21802 224.40309
135.62114 151.35641 225.44742
136.17375 151.35452 225.50612
136.62579 151.493 226.54842
137.27873 151.35089 225.61937
137.8311 151.34915 225.67392
138.47665 151.20715 224.74138
138.93559 151.34581 225.7789
139.57617 151.20393 224.84314
139.95378 151.48296 226.86475
140.50819 151.48145 226.91261
141.06253 151.48 226.95911
141.53802 151.61885 227.99124
142.09465 151.61749 228.03519
142.72519 151.47592 227.09041
143.20773 151.6149 228.11894
143.69502 151.75392 229.14645
144.18709 151.89297 230.17296
144.74826 151.89183 230.21034
145.24745 152.03096 231.23451
145.81093 152.02991 231.2693
146.37436 152.02892 231.30269
146.99246 151.88776 230.34608
147.50111 152.02705 231.36531
148.06442 152.02618 231.39455
148.6277 152.02538 231.42239
149.19095 152.0246 231.44887
149.75417 152.02386 231.47394
150.27707 152.16338 232.48697
150.91835 151.88237 230.53058
151.47908 151.88179 230.55142
152.07281 151.74106 229.58136
152.60045 151.88074 230.58905
153.21758 151.59995 228.62634
153.74756 151.7397 229.63136
154.2355 152.15985 232.61484
154.84296 151.87918 230.64777
155.38493 152.01907 231.649
155.93172 152.159 232.64891
156.4557 152.5793 235.62761
157.07387 152.01849 231.67467
157.60089 152.57904 235.64081
158.16689 152.71915 236.63545
158.74188 152.71913 236.63858
159.32219 152.29866 233.66991
159.89124 152.57906 235.65047
160.45775 152.29884 233.66916
161.02553 152.29901 233.6667
161.58548 152.15904 232.67278
162.18166 152.57979 235.63777
162.74162 152.43991 234.64107
163.2968 152.30008 233.64301
163.84717 152.16029 232.64365
164.41263 152.16071 232.63293
165.02269 152.44153 234.60056
165.61771 152.58221 235.57678
166.24466 152.86314 237.5412
166.85176 153.00394 238.51428
167.4637 153.14478 239.48581
167.94319 152.72493 236.49765
168.48174 152.58548 235.48743
169.05463 152.58627 235.46536
169.62756 152.58711 235.44186
170.15659 152.44778 234.42783
170.81992 152.72913 236.37973
171.39539 152.7301 236.35191
172.02206 152.87134 237.31148
172.54645 152.73219 236.29204
173.17805 152.87354 237.2485
173.75612 152.87471 237.2149
174.39505 153.01616 238.16811
175.10207 153.29791 240.1077
175.75316 153.43948 241.05727
176.40913 153.58112 242.00507
177.14044 153.86307 243.93869
177.66287 153.7243 242.90785
178.18056 153.5856 241.8759
178.77118 153.58719 241.82993
179.28177 153.44855 240.79559
179.87012 153.45024 240.7469
180.45856 153.45198 240.69672
181.1344 153.59409 241.63135
181.63567 153.45563 240.59196
182.22433 153.45752 240.5374
182.62399 153.17882 238.51021
183.11105 153.04047 237.46782
183.89154 153.3232 239.37978
184.57997 153.46565 240.3044
185.16913 153.46782 240.24249
186.07828 153.89114 243.13208
186.78392 154.03383 244.05045
187.16013 153.75543 242.01537
187.75453 153.75784 241.94696
188.46535 153.90073 242.86026
188.82498 153.62242 240.82263
189.41731 153.625 240.74998
190.13333 153.76807 241.65819
190.72835 153.77078 241.58223
191.45186 153.914 242.48647
192.31117 154.19778 244.36995
192.78061 154.06023 243.30737
193.51665 154.2037 244.20541
194.1196 154.20674 244.12082
195.00368 154.49089 245.99477
195.7547 154.63464 246.88611
196.36536 154.63791 246.79578
197.12396 154.78183 247.68285
197.73738 154.78525 247.589
198.35097 154.78874 247.49355
198.96474 154.79231 247.3965
199.57867 154.79594 247.29785
200.0329 154.65901 246.22055
200.80708 154.80341 247.09575
