ply
format ascii 1.0
comment PCL generated
element vertex 1596
property float x
property float y
property float z
element camera 0
property float view_px
property float view_py
property float view_pz
property float x_axisx
property float x_axisy
property float x_axisz
property float y_axisx
property float y_axisy
property float y_axisz
property float z_axisx
property float z_axisy
property float z_axisz
property float focal
property float scalex
property float scaley
property float centerx
property float centery
property int viewportx
property int viewporty
property float k1
property float k2
end_header
257.54877 186.4754 262.40073
258.27997 186.4933 262.12244
259.01154 186.51122 261.84167
259.39618 186.29541 260.65024
261.5249 187.24834 263.99429
261.91266 187.03256 262.79691
263.36017 187.51833 264.31461
265.17548 188.23825 266.72992
266.64633 188.72444 268.23343
266.67755 188.27448 266.12186
267.79388 188.5266 266.71512
268.91541 188.77872 267.30377
269.30185 188.5623 266.0899
269.68323 188.34561 264.8757
270.81 188.59738 265.45474
271.56409 188.61464 265.13348
270.79675 187.69368 261.23123
271.54041 187.71024 260.90948
272.66934 187.96115 261.47775
273.41519 187.97722 261.15015
274.16077 187.99298 260.82019
275.69211 188.47792 262.26599
65.267448 176.10484 213.16435
64.701912 176.80388 216.10382
64.929054 177.02847 217.26727
64.775513 177.48953 219.3226
65.782837 177.2397 218.70247
66.40432 177.22647 218.97192
67.782814 176.73962 217.44969
69.151253 176.25279 215.92114
70.136276 176.00259 215.28333
70.374641 176.22543 216.43753
71.354622 175.97507 215.79361
71.963768 175.96109 216.04579
72.572868 175.94702 216.29594
72.821228 176.16916 217.44637
73.790802 175.91859 216.79022
73.688416 176.37665 218.84296
73.949066 176.59828 219.99239
74.915657 176.34763 219.32912
75.876968 176.09705 218.66183
76.487564 176.08252 218.8988
77.440849 175.83209 218.22446
78.729202 175.34598 216.63593
78.993637 175.5674 217.77509
79.933487 175.31731 217.08987
80.868011 175.06737 216.40073
81.466927 175.05316 216.62175
82.393265 174.80348 215.92584
82.989067 174.78943 216.14192
83.907219 174.54004 215.43929
84.499847 174.52615 215.65051
85.40979 174.27707 214.94124
85.999229 174.2634 215.14769
86.588341 174.2498 215.35216
86.867004 174.47141 216.47588
87.150352 174.69296 217.59937
87.43837 174.91454 218.72266
88.033623 174.90112 218.92192
88.628517 174.8878 219.11925
89.223038 174.8746 219.31467
90.112236 174.62674 218.58197
91.288589 174.14436 216.91869
91.584488 174.36632 218.03374
92.747597 173.88445 216.3627
93.330307 173.87202 216.54539
94.195168 173.62521 215.7961
94.494644 173.84752 216.90521
95.353798 173.60106 216.1507
95.107483 174.29221 219.12256
96.238472 173.81168 217.43115
96.819046 173.79999 217.60281
97.666824 173.55423 216.838
98.244217 173.54283 217.00529
99.609001 172.82925 214.36256
99.397964 173.52042 217.33453
99.716721 173.74342 218.43398
100.0401 173.96646 219.533
100.87341 173.72171 218.75394
100.95091 174.17879 220.79036
102.27646 173.46671 218.12666
103.3416 172.9888 216.3981
103.91106 172.97865 216.54823
104.23993 173.20235 217.63881
105.2868 172.72513 215.90054
105.38223 173.18265 217.93179
105.95291 173.17299 218.07573
106.5233 173.16347 218.21797
107.0934 173.15407 218.35854
107.43776 173.37825 219.4433
108.00975 173.36908 219.58109
108.58144 173.36003 219.71724
109.3709 173.1178 218.90405
109.724 173.34232 219.98447
110.50799 173.10042 219.16684
111.28679 172.85872 218.34645
111.8522 172.85039 218.47319
112.41736 172.84218 218.59831
112.98226 172.83411 218.72183
113.74776 172.59308 217.89224
114.30971 172.58528 218.01201
114.87141 172.57761 218.13017
115.04593 173.03598 220.15285
115.99413 172.56262 218.36177
116.36655 172.78821 219.42924
116.74367 173.01385 220.49609
117.12543 173.23956 221.56236
118.05559 172.76689 219.76155
118.43938 172.99281 220.82515
119.18054 172.75328 219.97527
119.9166 172.51392 219.12292
120.30466 172.74011 220.18275
121.03543 172.50105 219.32643
121.42798 172.72743 220.38409
121.82522 172.95387 221.44106
122.38884 172.94777 221.53828
123.27079 172.47667 219.71509
123.51553 172.93594 221.7282
124.07861 172.93018 221.82083
124.64153 172.92453 221.91197
125.20425 172.91899 222.00157
125.61975 173.146 223.05112
126.32924 172.90823 222.17627
127.03368 172.67062 221.29918
127.45358 172.89792 222.34491
128.0155 172.89291 222.427
128.4424 173.12035 223.47084
129.13895 172.88321 222.58669
129.70044 172.87852 222.66428
130.3894 172.64166 221.77617
130.94821 172.63719 221.85046
131.38411 172.86505 222.8882
131.94508 172.86078 222.95988
132.38802 173.08878 223.99561
132.95116 173.08467 224.06464
133.62723 172.84851 223.16608
134.1877 172.8446 223.23189
134.74806 172.84082 223.29622
135.30832 172.83711 223.3591
135.86845 172.83353 223.42055
136.5294 172.59793 222.51306
137.08693 172.59453 222.57133
137.45221 173.05533 224.56404
137.92072 173.28412 225.5881
138.48521 173.28096 225.64275
138.87202 173.74191 227.63322
139.52756 173.50691 226.71654
140.17816 173.27203 225.79796
140.66078 173.50122 226.8161
141.22726 173.4985 226.86368
141.79369 173.49588 226.90979
142.36002 173.49335 226.95451
143.06999 173.02705 225.05759
143.77022 172.5609 223.15852
144.19264 173.02248 225.13902
144.88306 172.55652 223.23639
145.37721 172.78638 224.24397
145.81638 173.24817 226.22136
146.37985 173.24625 226.25575
146.9982 173.01257 225.31757
147.50664 173.24271 226.32033
147.96979 173.70477 228.29341
148.49023 173.93504 229.29395
149.06071 173.93356 229.32156
149.58832 174.16399 230.31958
150.16113 174.16266 230.34441
150.80992 173.69778 228.42378
151.37784 173.69666 228.44556
151.94572 173.69559 228.46588
152.51358 173.69463 228.48479
153.16641 172.99832 225.58519
153.72697 172.99753 225.60101
154.28751 172.99683 225.61543
154.80586 173.45979 227.5735
155.35252 173.69104 228.55777
155.87149 174.38594 231.48598
156.43263 174.61734 232.46762
157.02144 174.38525 231.5025
157.59639 174.38504 231.50861
158.15816 174.84848 233.45869
158.73795 174.84842 233.46191
159.31421 175.31204 235.40921
159.90013 175.77573 237.35504
160.48651 175.54416 236.38113
161.06807 175.31268 235.40572
161.65271 175.31305 235.4016
162.21672 174.84995 233.45059
162.79655 174.85049 233.44357
163.3764 174.85114 233.43512
163.99142 175.31544 235.37041
164.61612 175.77988 237.30403
165.2057 175.78078 237.29097
165.77049 175.54996 236.30397
166.35773 175.55104 236.28801
166.97462 175.78403 237.24286
167.53227 175.55347 236.2516
168.15408 175.78664 237.20332
168.74388 175.78807 237.18134
169.33371 175.7896 237.15784
169.92358 175.79121 237.13286
170.51352 175.79291 237.10638
171.05692 175.56285 236.1068
171.64453 175.56471 236.07742
172.2836 175.79857 237.01801
172.81993 175.56874 236.01428
173.46396 175.8028 236.95157
174.11288 176.03694 237.88707
174.76674 176.27121 238.82079
175.42548 176.50557 239.75264
175.95729 176.27618 238.74168
176.55269 176.27882 238.69986
177.21893 176.51352 239.62666
177.74371 176.28438 238.61165
178.33936 176.28731 238.56529
179.09114 176.7543 240.45651
179.61134 176.52544 239.43729
180.1268 176.29665 238.41695
180.80811 176.53198 239.33339
181.40663 176.5354 239.27913
182.18555 177.00302 241.16035
182.60399 176.54253 239.16597
183.39281 177.01042 241.04317
183.99661 177.01427 240.98224
184.60054 177.01822 240.91975
185.10229 176.79013 239.88837
186.01811 177.49072 242.72411
186.41301 177.03067 240.72281
187.01743 177.03503 240.65402
187.73395 177.27171 241.54988
188.34105 177.27631 241.47763
188.9483 177.28099 241.40379
189.67496 177.51807 242.29372
190.28493 177.52301 242.21637
190.89503 177.52805 242.13742
191.2522 177.06856 240.12814
191.85776 177.07378 240.04663
192.59491 177.31148 240.92722
193.20323 177.31696 240.84218
193.81172 177.32254 240.75551
194.83655 178.02554 243.55524
195.59384 178.26385 244.4265
196.21259 178.26988 244.3335
196.83154 178.27603 244.23882
197.59914 178.51482 245.10367
197.9191 178.05612 243.08366
198.53618 178.06259 242.98436
199.30925 178.30179 243.84344
200.0874 178.54117 244.69998
200.87065 178.78073 245.55405
201.82211 179.25314 247.36435
202.28691 179.02766 246.29616
203.25104 179.50049 248.10088
203.88428 179.50801 247.98718
204.34488 179.28285 246.91469
205.15149 179.52344 247.75452
205.78546 179.53134 247.63554
206.23944 179.3065 246.55914
207.05414 179.54758 247.39232
208.05914 180.02182 249.17746
208.69904 180.03032 249.05043
209.52922 180.272 249.87534
210.36461 180.51389 250.69745
211.20517 180.75598 251.51671
211.45874 180.29892 249.47652
212.30235 180.54134 250.29164
212.94884 180.55077 250.15266
213.39085 180.3271 249.06123
214.03549 180.33679 248.91913
215.09984 180.81323 250.67421
215.53787 180.58994 249.57831
216.61514 181.06686 251.32684
217.05136 180.84383 250.22774
217.70251 180.85431 250.07509
218.354 180.86496 249.92058
219.23033 181.10931 250.71024
219.88496 181.1203 250.55125
220.76941 181.36507 251.33527
221.42722 181.3764 251.17178
222.55417 181.85532 252.89365
223.45453 182.1008 253.66801
224.3602 182.34653 254.43915
225.0294 182.35866 254.26523
226.18759 182.83871 255.97145
226.61574 182.61731 254.85175
227.2886 182.62996 254.67111
227.7101 182.40872 253.5493
228.6355 182.65572 254.30362
229.05283 182.43469 253.17906
229.98401 182.68208 253.92784
231.18228 183.16396 255.60941
232.9193 184.11475 259.15723
233.60997 184.12878 258.95767
234.57025 184.37735 259.69012
235.2643 184.39174 259.4855
235.13626 183.70282 256.48071
235.54703 183.48285 255.34207
236.23239 183.49748 255.13393
236.63651 183.27762 253.99318
237.88861 183.7619 255.64064
239.15117 184.24652 257.28278
239.55663 184.0271 256.13541
241.1243 184.74716 258.69632
242.70752 185.46768 261.25015
243.41608 185.48376 261.01996
244.72357 185.97005 262.63705
245.43806 185.9865 262.4006
245.54449 185.53278 260.31558
245.64127 185.07893 258.2316
246.34705 185.09552 257.99155
247.05327 185.11221 257.74911
248.38864 185.59979 259.34369
250.3683 186.55859 262.7699
251.41037 186.81145 263.43295
252.13602 186.82896 263.17487
252.86206 186.84654 262.91431
253.91551 187.0999 263.5665
254.6449 187.11768 263.30014
255.37469 187.13553 263.03134
256.43945 187.38931 263.67245
257.17252 187.4073 263.3978
258.24564 187.66135 264.03113
258.98193 187.67944 263.75055
260.06332 187.93369 264.37598
260.45551 187.71567 263.18192
262.24222 188.44254 265.61349
262.98737 188.46078 265.32001
264.08765 188.71538 265.9285
265.90814 189.44292 268.33948
267.02411 189.69774 268.93683
267.42023 189.47946 267.72668
268.17648 189.49759 267.41653
268.9328 189.51556 267.10382
269.68924 189.53342 266.78867
270.44568 189.55107 266.47101
270.82684 189.3317 265.25473
271.58069 189.34891 264.9332
271.19324 188.65494 261.92737
271.93921 188.67148 261.60434
272.685 188.68776 261.2789
273.81854 188.94089 261.84177
274.95685 189.19373 262.39996
276.09991 189.44637 262.95364
65.256332 176.69907 213
65.081505 177.1662 215.04883
65.305756 177.39345 216.2106
65.149292 177.85962 218.26358
65.770317 177.84674 218.53514
66.010544 178.07283 219.69783
67.391449 177.58102 218.17822
68.762337 177.08925 216.65231
69.376373 177.07564 216.91273
69.990456 177.06186 217.17122
71.341209 176.57001 215.63078
71.950226 176.55606 215.88316
71.83271 177.01967 217.93465
72.807426 176.76657 217.28349
73.418777 176.75226 217.53091
73.318748 177.21518 219.58354
73.934929 177.20059 219.82889
74.901527 176.94742 219.16655
75.862869 176.69431 218.50018
76.473442 176.67973 218.73741
77.426765 176.42676 218.06401
78.715233 175.93562 216.47708
79.31752 175.9212 216.70531
80.254921 175.66862 216.02007
81.186996 175.4162 215.33093
81.783409 175.40198 215.5513
82.379539 175.38777 215.76964
82.975357 175.37364 215.98604
83.893639 175.12166 215.2843
84.486313 175.10768 215.49582
85.396385 174.85602 214.78746
86.301086 174.60454 214.07539
86.575073 174.82854 215.19893
86.85376 175.05249 216.32228
87.137131 175.27643 217.4454
87.425194 175.50034 218.56827
87.717918 175.72421 219.6909
88.315414 175.71074 219.88934
89.210152 175.46005 219.1611
89.804413 175.44684 219.35486
91.276062 174.72217 216.76762
91.572014 174.94646 217.88228
92.735344 174.45952 216.21278
93.318153 174.44696 216.39575
94.183189 174.19756 215.64734
94.202644 174.65913 217.68637
95.064476 174.41 216.93347
95.370789 174.63475 218.04083
96.499496 174.14923 216.35023
97.077698 174.13745 216.52139
97.655556 174.12579 216.69073
98.498184 173.87766 215.92354
99.335487 173.62976 215.15315
98.866776 174.56465 219.06032
99.190582 174.78989 220.16075
99.774193 174.77873 220.32323
100.35746 174.76773 220.48392
100.9404 174.75684 220.64284
102.51393 173.80096 217.04169
103.0863 173.79054 217.19443
103.65836 173.78023 217.34541
104.4704 173.53392 216.55315
104.80151 173.76003 217.64226
105.13728 173.98619 218.73093
105.94345 173.74036 217.93227
106.51398 173.7307 218.07471
107.31215 173.48524 217.27081
107.65413 173.71181 218.35455
108.00076 173.93842 219.43781
108.79312 173.69342 218.62769
109.36221 173.68443 218.76175
109.49977 174.14705 220.78934
110.71271 173.43112 218.07675
111.2785 173.42258 218.20534
111.84404 173.41412 218.33226
112.40932 173.40582 218.45757
112.97435 173.39761 218.58124
113.53912 173.38956 218.70332
114.30206 173.14613 217.87236
114.86389 173.13837 217.99071
115.03845 173.60153 220.01233
115.98685 173.12317 218.22261
116.35936 173.3511 219.28963
116.73654 173.5791 220.35606
117.30212 173.57187 220.46745
118.41128 172.85898 217.71265
118.79026 173.0873 218.77484
119.3503 173.08049 218.88062
120.08405 172.83862 218.02856
120.46976 173.0672 219.08749
121.19823 172.82562 218.23145
121.42181 173.28946 220.24579
121.81914 173.51825 221.30229
122.38287 173.51208 221.39967
123.26498 173.03601 219.57782
123.66663 173.26509 220.63057
124.22739 173.25928 220.72292
124.93993 173.01865 219.85373
125.34837 173.24797 220.90312
125.76151 173.47737 221.95181
126.32402 173.47198 222.03851
126.88637 173.46667 222.12369
127.30878 173.6963 223.16933
127.73589 173.92599 224.21416
128.30266 173.92099 224.29555
129.00175 173.68134 223.41246
129.56578 173.67654 223.49049
130.25731 173.43716 222.60341
130.94383 173.19792 221.71416
131.50259 173.19348 221.78709
132.06122 173.18915 221.85855
132.50182 173.41956 222.89346
133.06262 173.41541 222.96228
133.3972 173.88054 224.96062
134.07326 173.64198 224.06131
134.63614 173.63811 224.12599
135.30469 173.3998 223.22292
135.76158 173.63068 224.25102
136.526 173.15807 222.37759
136.98509 173.38911 223.40305
137.44894 173.62022 224.42757
137.91754 173.85141 225.45108
138.48213 173.84819 225.50578
138.95782 174.07951 226.52711
139.61104 173.84206 225.61087
140.25932 173.60471 224.69269
140.82115 173.60188 224.74136
141.38287 173.59915 224.7886
141.94453 173.59653 224.83443
142.58041 173.3596 223.90948
143.21136 173.1228 222.98273
143.83742 172.88609 222.05415
144.32451 173.11819 223.06354
144.94559 172.8817 222.13184
145.37521 173.34827 224.10886
145.87422 173.58058 225.11481
146.37802 173.81296 226.11957
146.99644 173.57681 225.18202
147.50497 173.80936 226.18423
147.9682 174.27626 228.15616
148.48871 174.50894 229.15616
149.10454 174.27316 228.21271
149.67265 174.27173 228.23882
150.24072 174.2704 228.26347
150.80876 174.26917 228.28671
151.37675 174.26801 228.3085
151.91156 174.50117 229.30048
152.48192 174.50018 229.31949
153.10892 174.03081 227.39349
153.72624 173.56154 225.46581
154.28687 173.56082 225.48022
154.80528 174.02863 227.43715
155.3707 174.02809 227.44888
155.87108 174.96449 231.34732
156.4323 175.19832 232.32841
157.02118 174.96379 231.36386
157.59622 174.96358 231.36998
158.16467 175.19766 232.34677
158.74629 174.96339 231.37781
159.31956 175.19765 232.35172
159.899 175.90042 235.26857
160.4837 175.90063 235.26741
161.06293 175.66672 234.2926
161.63733 175.43289 233.31633
162.21724 175.43336 233.31081
162.78442 175.19969 232.33167
163.37709 175.43457 233.2953
163.99219 175.90375 235.2294
164.61699 176.37305 237.16185
165.20665 176.37396 237.14877
165.79636 176.37498 237.1342
166.38608 176.37608 237.11813
166.97585 176.37727 237.10059
167.5015 175.91003 235.13826
168.15549 176.37991 237.06102
168.78227 176.61565 238.01047
169.33528 176.38293 237.01547
169.92525 176.38455 236.99043
170.60358 176.85487 238.90627
171.10533 176.38812 236.93593
171.69545 176.39003 236.90642
172.28561 176.39203 236.87541
172.82202 176.15981 235.87227
173.4099 176.16199 235.83838
174.11519 176.63293 237.74379
174.76913 176.86966 238.67686
175.42798 177.10651 239.60809
175.95987 176.87473 238.59766
176.55536 176.87741 238.5558
177.15092 176.88017 238.51239
177.67339 176.64865 237.49809
178.34232 176.88602 238.42102
179.09421 177.35793 240.31104
179.6145 177.12668 239.29234
180.21294 177.12994 239.24109
180.89676 177.36777 240.15668
181.58554 177.60574 241.0703
182.27928 177.84384 241.98189
182.7928 177.61304 240.95604
183.39659 177.61684 240.89661
184.00049 177.62074 240.83559
184.60452 177.62476 240.77301
185.00409 177.15971 238.77545
185.81291 177.63307 240.64313
186.31017 177.40279 239.60968
186.80269 177.17258 238.57516
187.62646 177.64636 240.43649
188.34567 177.88565 241.32976
189.06989 178.12511 242.22086
189.79909 178.3647 243.10974
190.53331 178.60446 243.99644
191.14841 178.60962 243.91676
191.5105 178.14537 241.90791
192.12103 178.15071 241.82565
192.73174 178.15616 241.74174
193.20872 177.92691 240.69347
193.95363 178.16742 241.56909
194.98108 178.87784 244.36655
195.74094 179.11873 245.23676
196.36226 179.12486 245.14325
196.98376 179.13112 245.04808
197.60544 179.1375 244.95122
197.92548 178.67401 242.93228
198.69604 178.91559 243.79266
199.31589 178.92232 243.69118
200.09419 179.16423 244.54698
200.87759 179.40633 245.40028
201.66611 179.64861 246.25107
202.29413 179.65591 246.14151
203.42645 180.36891 248.90219
204.06229 180.37657 248.78789
204.69833 180.38437 248.67181
205.51001 180.62756 249.50995
205.97119 180.40033 248.43439
206.42773 180.17319 247.35797
207.06233 180.18149 247.23531
207.88235 180.42532 248.06497
208.51993 180.43393 247.93825
209.34785 180.67815 248.76288
210.18094 180.92256 249.58466
211.21422 181.40274 251.35576
211.86272 181.41205 251.21977
212.51152 181.42149 251.08195
213.16061 181.43109 250.94226
214.01483 181.67651 251.75073
214.66699 181.68643 251.60678
215.52919 181.93228 252.40985
215.97226 181.70674 251.31323
216.84003 181.95294 252.1114
217.27881 181.72763 251.01212
217.93259 181.73831 250.8587
218.58669 181.74913 250.70335
219.46567 181.99611 251.49158
220.34995 182.24332 252.27663
221.46898 182.72685 254.00278
221.90242 182.50233 252.8936
223.03455 182.9864 254.61275
223.70316 182.99837 254.4426
224.61151 183.24673 255.21217
225.52521 183.49538 255.97849
226.44423 183.74426 256.74142
227.12181 183.75699 256.56125
227.30118 183.29698 254.50073
227.72278 183.07344 253.3793
228.3941 183.0865 253.19495
228.80905 182.86313 252.07144
229.4787 182.87645 251.88364
230.67224 183.36331 253.56509
232.14038 184.08728 256.17657
232.82373 184.1013 255.97888
234.04596 184.5892 257.64609
235.00687 184.84055 258.3754
235.15054 184.38129 256.30499
235.5614 184.159 255.16669
236.52612 184.41086 255.88873
237.21457 184.42584 255.67731
238.47192 184.91531 257.32159
239.73975 185.40517 258.96057
240.1503 185.18353 257.81195
241.7233 185.91127 260.36899
243.01756 186.4021 261.99316
243.43198 186.18094 260.83688
244.44041 186.4348 261.5282
244.85071 186.21378 260.36896
245.25642 185.99277 259.20908
245.65753 185.77176 258.04852
246.05405 185.55074 256.88736
246.75786 185.5675 256.64551
248.09091 186.06012 258.23929
250.06836 187.0289 261.66339
250.7886 187.04633 261.40915
251.83125 187.3019 262.06882
252.55484 187.31955 261.80884
253.93294 187.8136 263.37543
254.66238 187.83151 263.10873
255.72435 188.08777 263.75226
256.79175 188.34418 264.39139
257.52737 188.36234 264.11545
258.60309 188.61902 264.7468
258.99963 188.39871 263.55609
259.73627 188.41693 263.27274
260.47321 188.43512 262.98685
261.91016 188.93074 264.51022
262.65271 188.94901 264.21741
264.10544 189.44492 265.7298
265.56854 189.94101 267.2356
266.68192 190.19829 267.83301
267.43793 190.21652 267.52505
267.82886 189.99554 266.31491
268.58252 190.01346 266.00296
269.33621 190.03123 265.6886
270.08994 190.04883 265.37177
270.46826 189.82686 264.15701
270.84143 189.60455 262.94199
270.44849 188.90295 259.94025
271.57208 189.15883 260.51135
272.31497 189.17493 260.18683
273.05762 189.19072 259.85999
274.19055 189.44583 260.41968
276.1145 190.18015 262.75015
66.032837 176.80939 211.06027
65.461304 177.52365 213.9935
65.682663 177.75356 215.15353
65.52327 178.22485 217.20413
65.757896 178.45389 218.366
65.99781 178.68256 219.52815
67.378586 178.18588 218.01009
68.373375 177.93082 217.38028
68.989746 177.91721 217.64198
69.977104 177.66191 217.005
71.327827 177.16513 215.46613
71.570869 177.39258 216.61752
71.818962 177.61977 217.76903
72.79361 177.36421 217.1188
73.404892 177.34988 217.36642
73.660347 177.5766 218.515
74.627106 177.32095 217.85561
75.939255 176.82437 216.28723
76.893005 176.56894 215.61882
77.841522 176.31358 214.9464
78.784752 176.05833 214.27002
79.382202 176.04399 214.49863
79.641449 176.27034 215.63507
79.905518 176.49658 216.77142
80.507294 176.48213 216.99591
80.778397 176.70825 218.1311
81.709999 176.45331 217.43889
82.310921 176.43895 217.65735
83.557152 175.94394 216.04297
84.472687 175.68951 215.33934
85.382874 175.43527 214.63193
85.97245 175.42139 214.8389
86.248978 175.64769 215.96292
86.840408 175.63391 216.16689
87.12381 175.8602 217.28961
87.106697 176.32642 219.33371
87.704651 176.31271 219.53436
88.302254 176.2991 219.73306
88.899475 176.2856 219.92986
89.496353 176.2722 220.12469
90.970779 175.53992 217.54048
91.559418 175.52692 217.72905
93.010582 174.79536 215.13385
93.305893 175.02223 216.24434
94.171082 174.77023 215.49686
94.47068 174.99722 216.60521
95.330177 174.74557 215.85246
95.358932 175.21198 217.88982
96.487869 174.72139 216.20073
97.066193 174.70947 216.37213
97.644165 174.69771 216.54175
98.221802 174.68607 216.70955
99.061752 174.43552 215.94075
98.855667 175.1411 218.91075
99.17955 175.36868 220.01082
99.763275 175.35741 220.17354
100.59943 175.10742 219.39685
100.92975 175.33524 220.49361
102.25581 174.60815 217.83417
103.0761 174.35884 217.04816
103.64827 174.34842 217.19939
104.22014 174.33813 217.34889
104.79169 174.32796 217.49666
105.12753 174.55644 218.5849
105.93388 174.30803 217.78708
106.50453 174.29826 217.92973
107.07487 174.28864 218.07071
107.64494 174.27913 218.20999
108.43776 174.03145 217.40236
109.00478 174.02225 217.53769
109.78964 173.77495 216.72499
109.92233 174.24243 218.75037
110.91738 173.75728 216.98625
111.48085 173.74863 217.11444
111.83577 173.9782 218.18967
112.40118 173.96977 218.31512
112.96632 173.96147 218.439
113.33031 174.19127 219.51149
114.09587 173.94525 218.68187
114.46427 174.17523 219.7522
114.6438 174.64314 221.77377
115.59727 174.1597 219.98648
115.97478 174.38992 221.05403
116.54315 174.38243 221.16766
117.29504 174.13733 220.32591
118.2231 173.65471 218.52737
118.78346 173.64767 218.63483
119.52002 173.40311 217.78554
119.90356 173.63397 218.84509
120.4633 173.62729 218.94792
121.02284 173.62073 219.04918
121.41556 173.85182 220.1059
121.64878 174.32048 222.11935
122.37682 174.07671 221.25943
123.09979 173.8331 220.39713
123.50395 174.06451 221.44984
124.06726 174.05859 221.54272
124.93436 173.57803 219.71521
125.34288 173.80974 220.76413
125.609 174.27881 222.77252
126.31874 174.03601 221.89911
126.8812 174.03064 221.98442
127.4435 174.02539 222.06825
128.00565 174.02023 222.15053
128.56763 174.0152 222.23135
129.26199 173.77307 221.34825
129.69119 174.00543 222.38846
130.25275 174.0007 222.46478
130.81418 173.99608 222.53961
131.62105 173.51735 220.68559
132.05699 173.75006 221.72084
132.6156 173.74576 221.79089
133.28958 173.50452 220.89493
133.61935 173.97452 222.89159
134.06938 174.2075 223.92273
134.74059 173.96658 223.02206
135.30103 173.96277 223.08511
135.758 174.19603 224.11269
136.52254 173.71851 222.24055
136.98172 173.95192 223.26547
137.44565 174.18542 224.28947
137.82065 174.6559 226.27948
138.479 174.41574 225.36728
138.95477 174.64944 226.38805
139.60809 174.4095 225.47243
140.1725 174.40654 225.52287
140.81839 174.16681 224.60368
141.30109 174.40086 225.61929
141.86526 174.39818 225.66537
142.50365 174.15878 224.74126
143.13713 173.91949 223.81535
143.69624 173.91708 223.85669
144.25528 173.91479 223.89664
144.81427 173.91258 223.93513
145.31099 174.14722 224.9418
145.93205 173.90842 224.00784
146.4335 174.14322 225.01193
146.99467 174.14136 225.04488
147.50328 174.37631 226.04655
148.01668 174.61133 227.04704
148.48718 175.08313 229.01677
149.14836 174.60818 227.10341
149.71414 174.60675 227.12946
150.32031 174.36873 226.18332
150.84558 174.60416 227.17722
151.34006 175.07634 229.14081
151.91054 175.07526 229.16129
152.45023 175.31091 230.1514
153.05141 175.07332 229.19786
153.67365 174.59917 227.27153
154.2627 174.36177 226.31477
154.7836 174.83444 228.27061
155.35153 174.83388 228.28238
155.8544 175.78 232.17853
156.41812 176.01625 233.15907
157.02094 175.54263 231.22363
157.59605 175.54242 231.22975
158.158 176.01558 233.17752
158.74631 175.54224 231.23759
159.32143 175.54227 231.23933
159.89851 176.25235 234.1544
160.47781 176.0159 233.18166
161.05229 175.77957 232.20746
161.62985 175.77995 232.20337
162.22809 176.25374 234.1409
162.8105 176.2543 234.13385
163.39294 176.25496 234.12532
163.99298 176.49237 235.08676
164.61786 176.96654 237.01802
165.18521 176.7308 236.0336
165.77258 176.73183 236.01906
166.38724 176.96962 236.97426
166.97708 176.97083 236.95667
167.5349 176.73544 235.96655
168.19139 177.21021 237.88802
168.78378 177.2117 237.86588
169.33687 176.97656 236.87144
169.96867 177.21494 237.81706
170.60536 177.45343 238.761
171.10719 176.98184 236.79181
171.79541 177.45724 238.70293
172.39052 177.45929 238.67162
172.93184 177.22469 237.66873
173.5809 177.46368 238.60448
174.29356 177.93956 240.50822
174.89377 177.94202 240.47057
175.49405 177.94455 240.43135
176.02844 177.71039 239.42131
176.62645 177.71312 239.3792
177.08295 177.24229 237.39763
177.74948 177.48203 238.32162
178.42094 177.72189 239.24371
179.01929 177.72501 239.19547
179.53723 177.49135 238.17749
180.21625 177.73154 239.09438
180.81487 177.73497 239.04152
181.58908 178.21231 240.92224
182.28293 178.4529 241.83316
182.88913 178.45667 241.77498
183.49545 178.46054 241.71519
184.10188 178.46452 241.65385
184.60855 178.23161 240.62459
185.1105 177.99878 239.59424
185.71243 178.00304 239.52867
186.20735 177.77036 238.49599
186.80711 177.77481 238.42758
187.51903 178.01646 239.3226
188.23593 178.25826 240.21547
188.95782 178.5002 241.10617
189.56544 178.50514 241.03055
190.41666 178.98453 242.88092
191.02942 178.98973 242.80145
191.64235 178.99507 242.72038
192.25543 179.0005 242.63766
192.86868 179.00607 242.55334
193.34821 178.77448 241.50519
194.09567 179.01753 242.37975
194.98697 179.49808 244.21346
195.74698 179.7415 245.08296
196.51205 179.98508 245.95003
197.13611 179.99146 245.85435
197.76036 179.99794 245.75697
198.23386 179.76712 244.69833
198.85605 179.77383 244.59796
199.47847 179.78067 244.49593
200.25937 180.02516 245.35057
201.04535 180.26984 246.20274
201.99962 180.75227 248.00989
202.30145 180.28453 245.98505
203.26595 180.76735 247.78706
203.89944 180.77507 247.673
204.5332 180.78294 247.55722
205.34258 181.02866 248.39503
206.1571 181.2746 249.23019
206.61618 181.04514 248.15373
207.25337 181.05359 248.03041
208.07602 181.30002 248.85878
208.71619 181.30878 248.73141
209.35663 181.31767 248.60223
210.38245 181.80263 250.37524
211.22337 182.04987 251.1929
211.87202 182.0593 251.05672
212.52097 182.06888 250.91869
213.1702 182.0786 250.77881
213.81975 182.08847 250.63707
214.26228 181.86032 249.54462
215.32953 182.34688 251.29625
215.98247 182.35724 251.14833
216.85042 182.60603 251.94563
217.28931 182.3784 250.84676
217.94324 182.38921 250.69308
218.59749 182.40018 250.53755
219.47665 182.64975 251.32489
220.13408 182.66107 251.16487
221.25089 183.14963 252.89012
221.91394 183.16133 252.72496
222.81186 183.41183 253.5002
223.47813 183.4239 253.33044
224.3842 183.67484 254.09976
225.05371 183.68729 253.92537
225.7236 183.69986 253.7489
226.39389 183.71262 253.57045
227.3139 183.96442 254.3284
227.98746 183.97752 254.14514
228.66141 183.99078 253.95979
229.33578 184.00421 253.77242
230.26984 184.25688 254.51865
230.68571 184.03151 253.39133
232.41846 185.00224 256.93491
232.83768 184.77722 255.80261
233.79086 185.03088 256.53537
234.74948 185.28482 257.2645
235.43927 185.29958 257.05859
235.57593 184.83553 254.98923
236.26157 184.85049 254.78047
237.22943 185.10516 255.4986
238.20276 185.36011 256.21298
239.7551 186.09468 258.77859
240.45503 186.11047 258.55704
241.73904 186.60605 260.18509
243.03354 187.10197 261.80762
243.44803 186.87849 260.65167
244.45665 187.13498 261.34201
244.867 186.91164 260.18307
245.27277 186.68829 259.0235
245.67395 186.46494 257.86328
246.07051 186.24161 256.70248
246.77438 186.2585 256.46024
247.79318 186.51585 257.13403
249.45145 187.25421 259.63858
250.1667 187.27165 259.38577
251.20442 187.52969 260.04623
251.923 187.54733 259.78772
253.29623 188.04636 261.35449
254.02068 188.06424 261.08932
255.40985 188.56374 262.64563
256.47479 188.82269 263.28473
256.87064 188.59998 262.0993
257.94138 188.85909 262.7316
259.01746 189.11833 263.35947
259.75409 189.1366 263.07574
260.49097 189.15488 262.78961
262.27798 189.89673 265.21643
263.37549 190.15637 265.82651
264.12326 190.17474 265.52884
265.5864 190.67583 267.03296
266.3396 190.69412 266.72827
267.4556 190.95386 267.32114
267.84634 190.73039 266.11139
268.59985 190.74831 265.79926
269.72369 191.00775 266.3815
270.8526 191.26711 266.95917
271.23575 191.04272 265.74274
271.61368 190.81799 264.52603
271.6059 190.35092 262.41647
271.97076 190.12535 261.2005
272.71588 190.14139 260.87466
273.46075 190.15709 260.54657
274.59589 190.4146 261.10431
275.73572 190.6718 261.6575
63.659515 178.86545 216.21046
63.885147 179.09822 217.37398
64.504951 179.0862 217.64955
64.73893 179.31813 218.81273
64.978287 179.54965 219.97621
65.604057 179.53662 220.24834
66.987221 179.03502 218.73291
67.984367 178.7775 218.10506
68.603073 178.76389 218.36801
69.963814 178.26213 216.83696
71.314476 177.76044 215.29967
71.557312 177.99039 216.45058
71.805206 178.22009 217.60162
72.7798 177.96207 216.9523
73.390976 177.94772 217.20013
73.646301 178.17691 218.34824
74.966248 177.67522 216.78653
76.626617 176.93019 214.31448
76.879005 177.15924 215.45555
77.82753 176.90138 214.78407
78.427696 176.88693 215.01591
79.027672 176.87247 215.24573
78.951363 177.34438 217.29187
79.555931 177.32977 217.51958
79.827278 177.55826 218.65636
80.433861 177.54362 218.88097
81.040146 177.52904 219.10361
81.97155 177.27158 218.41032
83.220459 176.77145 216.79849
84.138626 176.5144 216.09671
85.051453 176.25752 215.39113
85.958916 176.00084 214.68182
86.235443 176.22952 215.80547
86.516693 176.45815 216.92886
87.110374 176.44427 217.13203
87.093246 176.91531 219.17505
87.691277 176.9015 219.37599
88.288963 176.88779 219.575
89.183998 176.63191 218.84862
89.188072 177.10283 220.89137
90.665276 176.36298 218.31024
91.256523 176.34978 218.49989
92.135101 176.09468 217.76099
92.723145 176.08176 217.94604
94.441528 175.10132 214.4164
94.458519 175.57257 216.45256
95.318184 175.31831 215.70073
95.622124 175.54779 216.80655
96.476105 175.29388 216.04953
97.05455 175.28186 216.22118
97.632645 175.26996 216.39102
97.94519 175.49973 217.49251
98.525101 175.48802 217.65947
98.844421 175.7179 218.75949
99.168381 175.94781 219.85913
99.752243 175.9364 220.02209
100.58856 175.68384 219.24631
101.41958 175.43149 218.46738
102.49312 174.93817 216.74704
103.31109 174.68634 215.96127
103.63806 174.91693 217.05167
103.96967 175.14758 218.14165
104.54382 175.13725 218.29027
105.11768 175.12706 218.43716
105.92419 174.87605 217.6402
106.95596 174.38438 215.89751
107.74953 174.13387 215.09407
108.08675 174.36517 216.17574
108.87481 174.11501 215.36775
109.43703 174.10576 215.50211
109.7808 174.33734 216.5806
110.12923 174.56898 217.6586
110.90878 174.31946 216.84225
111.47238 174.31068 216.97061
111.82739 174.5426 218.04539
112.59877 174.29356 217.22249
112.95819 174.52567 218.2951
113.52321 174.51736 218.4175
114.08798 174.50922 218.5383
114.65251 174.50119 218.65752
114.82964 174.97394 220.67751
115.78085 174.48552 218.89111
116.15599 174.71812 219.9577
116.72203 174.71056 220.07101
117.28785 174.70313 220.18272
118.03477 174.45566 219.33922
118.77658 174.20837 218.49319
119.33685 174.20137 218.59926
119.8969 174.19449 218.70377
120.45676 174.18771 218.80672
121.01642 174.18106 218.90811
121.24257 174.65448 220.92075
121.6425 174.88797 221.97672
122.37068 174.64166 221.11757
123.09378 174.39552 220.25603
123.65494 174.38943 220.35019
124.37036 174.1436 219.48436
125.08073 173.89795 218.61624
125.63648 173.89224 218.70503
125.75064 174.60594 221.6712
126.45808 174.36064 220.79814
127.0182 174.35522 220.88319
127.43834 174.5896 221.92747
127.72579 175.06372 223.93207
128.42773 174.81891 223.05226
128.99211 174.81387 223.13199
129.42625 175.04857 224.17238
130.12045 174.80414 223.287
130.80966 174.55986 222.39948
131.49385 174.31573 221.50986
132.05269 174.31128 221.58153
132.72934 174.0674 220.68797
133.40102 173.82367 219.79239
133.72844 174.29851 221.78764
134.28677 174.29445 221.85342
134.95325 174.05106 220.95288
135.50893 174.04723 221.01546
135.96112 174.2829 222.04198
136.51903 174.27924 222.10191
136.97829 174.51506 223.12633
137.44229 174.75095 224.1498
137.91106 174.98689 225.17226
138.47583 174.98358 225.22713
139.04051 174.98038 225.28052
139.69153 174.73798 224.36537
140.16962 174.97424 225.38293
140.81561 174.73206 224.46442
141.37753 174.72923 224.51178
141.86264 174.96577 225.52563
142.42683 174.96313 225.5703
143.06284 174.72136 224.64522
143.55499 174.95815 225.65529
144.11897 174.95578 225.69562
144.7475 174.71432 224.76569
145.24673 174.95134 225.77191
145.8703 174.71007 224.83878
146.37425 174.94727 225.84248
146.93794 174.94536 225.8756
147.44904 175.18271 226.87686
148.01505 175.18098 226.90723
148.53331 175.41849 227.90598
149.1469 175.1778 226.96368
149.75562 174.93723 226.01971
150.31903 174.93585 226.04422
150.80637 175.41281 228.0078
151.30334 175.88985 229.97032
151.84314 176.12784 230.96133
152.38774 176.36592 231.95105
153.0222 175.88678 230.02771
153.62102 175.64682 229.07327
154.23849 175.16789 227.14659
154.783 175.40633 228.13051
155.35101 175.40575 228.14229
155.87022 176.12251 231.06519
156.43161 176.36119 232.04514
157.00925 176.36087 232.05269
157.58688 176.36066 232.05885
158.15791 176.59958 233.0345
158.74213 176.36046 232.06676
159.32327 175.88232 230.1265
159.89738 176.36063 232.06879
160.47809 176.59993 233.03864
161.05264 176.36115 232.065
161.62239 176.12245 231.08995
162.22861 176.84021 233.99727
162.81113 176.84077 233.9902
163.40881 177.08054 234.95255
164.01135 177.3204 235.91333
164.61876 177.56035 236.87253
165.1862 177.3222 235.88869
165.74883 177.08414 234.90347
166.36115 177.32437 235.85811
166.94867 177.32559 235.84058
167.53622 177.32689 235.82155
168.19283 177.80655 237.74181
168.74838 177.56894 236.74934
169.29915 177.33139 235.75557
169.9704 177.81137 237.67076
170.60718 178.05231 238.61406
171.10909 177.57587 236.64601
171.79741 178.05618 238.55591
172.39261 178.05827 238.52458
172.98787 178.06046 238.49173
173.58319 178.06271 238.45732
174.35466 178.7827 241.32901
174.95737 178.7852 241.29115
175.56017 178.7878 241.25174
176.09708 178.55125 240.24208
176.69759 178.55403 240.19974
177.22739 178.31766 239.18752
177.82565 178.3206 239.14226
178.42401 178.32368 239.09552
179.17857 178.80545 240.98282
179.70146 178.56943 239.96497
180.30251 178.57281 239.91338
180.90366 178.57629 239.86024
181.59267 178.81924 240.77251
182.19644 178.82294 240.71602
182.80032 178.82675 240.65796
183.40433 178.83067 240.59837
184.00842 178.83469 240.53717
184.61266 178.83881 240.47441
185.11469 178.60361 239.4446
185.71674 178.60793 239.37895
186.31891 178.61235 239.31175
186.8116 178.37738 238.27824
187.63567 178.86107 240.13699
188.24066 178.86584 240.06476
188.96271 179.11029 240.95474
189.68974 179.3549 241.84253
190.54355 179.83926 243.69131
191.15886 179.84457 243.61142
191.77432 179.85001 243.52991
192.26091 179.61588 242.48451
192.74278 179.38184 241.43813
193.21996 179.14786 240.39082
193.82878 179.15369 240.30379
194.71536 179.63914 242.13684
195.61188 180.12482 243.96681
196.51833 180.61073 245.79369
197.43471 181.09686 247.61739
198.06396 181.1035 247.5191
198.54242 180.87038 246.46014
199.16963 180.87723 246.35884
199.79706 180.88423 246.25587
200.26637 180.65138 245.19339
201.05252 180.89861 246.04475
201.84378 181.14603 246.8936
202.30887 180.91351 245.82677
203.27356 181.40132 247.62738
204.07773 181.64926 248.46881
204.71405 181.65727 248.3524
205.70148 182.14577 250.14375
206.52106 182.39432 250.97714
207.16547 182.40283 250.85405
207.81015 182.4115 250.72913
208.26987 182.17999 249.64955
208.91263 182.18889 249.52147
209.55566 182.19795 249.39162
210.19897 182.20714 249.25992
211.03761 182.45694 250.0773
211.88144 182.70692 250.89177
212.33057 182.47612 249.80371
213.17992 182.7265 250.61346
213.82961 182.7365 250.47148
214.4796 182.74664 250.32767
215.54953 183.23828 252.07729
216.20508 183.24881 251.92857
217.07568 183.50024 252.72447
217.73436 183.51114 252.57138
218.39337 183.52217 252.41634
218.83057 183.29248 251.31459
219.7124 183.54471 252.10046
220.37244 183.55621 251.93959
221.49196 184.04987 253.66273
222.38969 184.30283 254.4391
223.29274 184.556 255.21216
223.96414 184.56833 255.04091
224.87537 184.82196 255.80807
225.54999 184.83464 255.63211
225.98056 184.6062 254.51489
226.65347 184.61914 254.33549
227.32681 184.63225 254.15404
228.0005 184.64549 253.97049
228.92899 184.90039 254.72137
229.60599 184.91402 254.53299
230.54274 185.16937 255.2776
230.69937 184.7001 253.21556
231.90379 185.19751 254.88892
232.58493 185.21181 254.69138
233.80518 185.70982 256.35611
234.76399 185.96637 257.08429
235.72824 186.22318 257.80878
235.86745 185.75443 255.73967
236.55573 185.76958 255.52983
237.52631 186.02695 256.24622
238.78665 186.52667 257.88651
240.05746 187.02676 259.52139
241.62811 187.76947 262.07693
242.33867 187.78577 261.84955
243.34407 188.04459 262.54437
244.05804 188.06125 262.31158
244.77245 188.078 262.07645
244.88345 187.60988 259.99503
245.59372 187.62679 259.75693
245.99747 187.40115 258.59619
246.39658 187.17552 257.43481
247.4151 187.43539 258.10995
248.12454 187.45265 257.86331
250.10266 188.44153 261.2814
250.50345 188.21625 260.11057
251.86595 188.71997 261.68408
252.58966 188.73785 261.42343
253.96812 189.24207 262.98663
254.69766 189.26019 262.71927
256.09207 189.76486 264.27203
257.16217 190.02652 264.9082
257.56305 189.80154 263.72125
258.97876 190.30679 265.259
259.72015 190.32529 264.97549
260.11688 190.10016 263.78305
260.85626 190.11855 263.49554
262.29593 190.62427 265.01456
263.39343 190.88644 265.6236
264.14111 190.90483 265.32562
265.24661 191.16702 265.92664
266.35736 191.42923 266.52313
267.4733 191.69144 267.11502
267.86383 191.46545 265.90567
268.24933 191.23923 264.69598
269.37048 191.50104 265.27835
270.49667 191.76279 265.85617
270.87695 191.5358 264.64127
271.63007 191.5528 264.31912
272.00241 191.32507 263.10266
272.36948 191.09695 261.88608
273.11682 191.11292 261.55899
273.47565 190.88396 260.34113
274.61044 191.14375 260.89798
275.74988 191.40324 261.45035
63.254921 179.71664 216.92345
63.482658 179.95203 218.08745
63.715874 180.18695 219.25191
64.340759 180.17462 219.52794
64.582275 180.40872 220.69199
65.591484 180.14906 220.07431
66.59584 179.88924 219.45253
67.595345 179.62926 218.8266
68.589928 179.36916 218.19656
69.950577 178.86252 216.66711
70.932678 178.60229 216.02779
71.909744 178.34204 215.38438
72.154915 178.57431 216.53386
72.766022 178.56009 216.78392
73.377075 178.54576 217.03201
73.632225 178.77745 218.17967
74.598938 178.51682 217.52214
75.911201 178.01025 215.95703
76.168541 178.24165 217.09964
77.467827 177.73528 215.52551
78.070503 177.72073 215.75858
79.354218 177.21466 214.17456
79.613342 177.44586 215.31015
80.212837 177.43134 215.53624
80.146042 177.90791 217.58109
80.750114 177.89328 217.80505
80.697952 178.36954 219.8515
81.306511 178.35483 220.0733
82.560638 177.84955 218.46492
83.483963 177.5898 217.76588
84.719826 177.08504 216.14719
85.31456 177.07085 216.35649
85.908981 177.0567 216.56383
86.503067 177.04266 216.76923
86.789032 177.27362 217.89201
86.774384 177.74945 219.9348
87.375015 177.73547 220.13689
88.275574 177.47679 219.41507
88.872993 177.46306 219.61241
88.879562 177.93875 221.65495
90.652283 176.94669 218.1525
91.243637 176.93336 218.34242
91.834641 176.92017 218.53044
92.425293 176.90707 218.71655
93.863785 176.16095 216.11813
94.166 176.39258 217.22647
95.02832 176.13568 216.47635
95.610077 176.12323 216.65266
96.191467 176.1109 216.82716
97.042786 175.85458 216.06847
97.353241 176.08661 217.17064
97.933624 176.07465 217.33965
98.25087 176.30679 218.44035
98.572769 176.53894 219.54066
98.641495 177.01501 221.57552
99.230453 177.00337 221.74011
100.07191 176.74811 220.96658
100.90807 176.49309 220.18991
101.73893 176.23828 219.41011
103.0553 175.49646 216.75053
103.62773 175.48579 216.90222
104.19985 175.47525 217.05215
104.53371 175.70833 218.14063
104.87221 175.94145 219.22867
105.44836 175.93121 219.37469
106.25475 175.67776 218.57686
107.05589 175.42453 217.77609
107.85181 175.17154 216.97244
108.6425 174.91875 216.16589
109.42798 174.66617 215.35649
109.99004 174.65695 215.48943
110.12036 175.13406 217.51208
110.68681 175.12502 217.64284
111.25299 175.11612 217.77197
111.4022 175.59332 219.79424
112.17867 175.34164 218.97324
112.74652 175.3331 219.09801
113.51509 175.08179 218.27213
114.07999 175.07352 218.3931
114.84071 174.82259 217.56244
115.01544 175.30016 219.5808
115.96439 174.80676 217.79533
116.14847 175.28445 219.81255
116.90089 175.03412 218.97395
117.64818 174.78398 218.13281
118.20899 174.77663 218.24214
118.9485 174.52682 217.39642
119.68291 174.27722 216.54823
120.06418 174.51282 217.60637
120.45013 174.74847 218.66391
121.00991 174.74171 218.76543
121.40279 174.97752 219.8212
121.80038 175.21338 220.87627
122.52626 174.96457 220.01744
123.0877 174.95827 220.11328
123.80588 174.70978 219.25014
124.36453 174.70374 219.34248
125.07503 174.45555 218.47511
125.48129 174.692 219.52266
125.89226 174.92851 220.56947
126.45265 174.9229 220.65617
127.01289 174.91739 220.74132
127.43312 175.15414 221.78511
127.85806 175.39096 222.82811
128.55768 175.14365 221.94865
129.11975 175.13857 222.02818
129.55154 175.37564 223.0677
130.11574 175.37076 223.14456
130.80507 175.12398 222.25777
131.61221 174.63535 220.40637
132.16873 174.63083 220.47781
132.84308 174.38449 219.58469
133.51244 174.13828 218.68951
133.72438 174.85985 221.647
134.17213 175.09763 222.67685
134.84114 174.85173 221.77728
135.39935 174.84781 221.84021
135.85406 175.08585 222.86647
136.51546 174.8403 221.96172
137.07335 174.8367 222.02029
137.53502 175.07498 223.04295
137.81403 175.79689 225.99625
138.56387 175.31 224.11935
139.12624 175.30675 224.17259
139.60208 175.54533 225.19083
140.08267 175.784 226.20808
140.7312 175.53932 225.2905
141.29562 175.53644 225.33812
141.78325 175.77536 226.35161
142.49858 175.28932 224.4615
143.06036 175.28674 224.50459
143.48314 175.76758 226.48198
144.04964 175.76517 226.52252
144.68069 175.52122 225.59341
145.18242 175.76065 226.59927
145.80852 175.51691 225.66695
146.31497 175.7565 226.67023
146.88115 175.75455 226.70352
147.39476 175.99429 227.70435
148.01338 175.75096 226.76582
148.57942 175.7493 226.79478
149.23596 175.26459 224.88368
149.79709 175.26312 224.90956
150.35817 175.26175 224.93401
150.84317 175.74356 226.89632
151.3378 176.22545 228.85756
151.87527 176.46587 229.84792
152.38678 176.94791 231.80685
152.99297 176.70541 230.85474
153.5943 176.46301 229.901
154.19078 176.22072 228.94569
154.78241 175.97852 227.98882
155.35049 175.97792 228.00058
155.8698 176.702 230.92172
156.43126 176.9431 231.90105
157.02042 176.70126 230.93831
157.58672 176.94254 231.91478
158.16443 176.94241 231.91948
158.74631 176.70084 230.95232
159.32161 176.70087 230.95404
159.89822 177.18404 232.89514
160.47528 176.94275 231.92358
161.05301 176.94305 231.92094
161.63866 177.18497 232.88721
162.22916 177.42699 233.85197
162.79901 177.18605 232.8746
163.40953 177.66977 234.80664
163.99458 177.67055 234.79657
164.57967 177.67142 234.78502
165.16478 177.67236 234.77199
165.74991 177.67342 234.75749
166.36232 177.91611 235.71152
166.94994 177.91734 235.69395
167.50551 177.67712 234.70506
168.12527 177.9201 235.65437
168.71301 177.92162 235.63235
169.22209 177.44008 233.66966
169.88861 177.92494 235.58383
170.52066 178.16833 236.52669
171.11099 178.17023 236.49857
171.79944 178.65546 238.40723
172.44617 178.89917 239.34483
172.93622 178.41815 237.37405
173.58551 178.66208 238.30849
174.23969 178.90613 239.24115
174.89879 179.15028 240.17195
175.49925 179.15291 240.13264
176.09979 179.15564 240.09183
176.70041 179.15846 240.04944
177.2303 178.91968 239.03773
177.75543 178.68098 238.02487
178.42711 178.92581 238.94562
179.10373 179.17075 239.86444
179.62428 178.93234 238.84735
180.30594 179.17752 239.76268
180.90718 179.18105 239.70946
181.5963 179.42648 240.62103
182.10999 179.18845 239.59836
182.71155 179.19229 239.54048
183.21817 178.95441 238.51538
183.91501 179.20032 239.42001
184.51691 179.20448 239.35739
185.0166 178.96686 238.32834
185.72108 179.21315 239.22754
186.43056 179.45956 240.12457
186.92578 179.22226 239.09134
187.52832 179.22697 239.02086
188.24548 179.47379 239.91231
188.96764 179.72075 240.80157
189.57547 179.72585 240.72575
190.54877 180.45718 243.53607
191.1642 180.46259 243.4561
191.77979 180.46808 243.37447
192.5246 180.71582 244.25281
192.87993 180.23732 242.24501
193.35963 180.00101 241.19785
193.83464 179.76477 240.14973
194.58258 180.013 241.02118
195.47682 180.50365 242.85017
196.381 180.99449 244.67599
197.00285 181.00102 244.58043
197.92206 181.49228 246.4007
198.54918 181.49911 246.30096
199.17651 181.50607 246.19952
199.64818 181.27078 245.13881
200.27348 181.27798 245.03436
201.0598 181.52774 245.88498
201.85121 181.77769 246.73302
202.31641 181.54285 245.66667
203.28128 182.03566 247.46585
204.0856 182.28618 248.30652
204.89507 182.5369 249.14452
205.88513 183.03043 250.93396
206.70735 183.28159 251.76613
207.53471 183.53293 252.59557
208.00162 183.29906 251.51678
208.27864 182.82249 249.48492
208.92154 182.83151 249.35669
209.37454 182.59785 248.27534
210.01553 182.60715 248.14401
210.8519 182.85948 248.96103
211.89101 183.35495 250.72491
212.14023 182.87885 248.68808
213.18976 183.37477 250.44617
213.8396 183.38492 250.30402
214.48975 183.3952 250.15999
215.35004 183.64876 250.96106
216.21559 183.90256 251.75917
216.87161 183.91338 251.60831
217.96246 184.41086 253.34619
218.84381 184.66536 254.13509
219.50826 184.67679 253.97672
220.62234 185.17511 255.70348
221.29243 185.18692 255.53995
221.96288 185.1989 255.37444
222.63367 185.21103 255.20691
223.5394 185.46689 255.97849
223.97638 185.23578 254.86583
224.64832 185.24841 254.69229
225.56259 185.50488 255.45586
225.99329 185.27411 254.33905
226.4194 185.04343 253.22151
227.33983 185.30046 253.97762
228.26563 185.55777 254.73033
229.19679 185.81534 255.47957
230.39026 186.31714 257.16049
231.3347 186.57529 257.90207
231.49884 186.10138 255.83888
232.71101 186.60403 257.50851
233.39978 186.61865 257.30847
234.35838 186.87769 258.03787
235.05052 186.89264 257.83276
236.29185 187.3965 259.48563
236.4361 186.92307 257.41602
237.12955 186.93848 257.20435
238.1053 187.19858 257.91818
239.37091 187.70352 259.55524
240.36011 187.9642 260.26074
241.64415 188.46982 261.88773
242.35483 188.4863 261.66003
243.06596 188.5029 261.43002
243.77756 188.51965 261.19775
244.19009 188.29158 260.04095
244.59805 188.06351 258.88354
245.61041 188.32556 259.56638
246.62823 188.58783 260.24515
247.03244 188.35995 259.0824
247.74408 188.37732 258.83691
248.45615 188.39478 258.58905
250.12 189.14839 261.08713
250.84045 189.16618 260.83182
252.20566 189.67503 262.40274
252.93195 189.6931 262.14081
254.64037 190.44806 264.61386
