ply
format ascii 1.0
comment PCL generated
element vertex 1596
property float x
property float y
property float z
element camera 0
property float view_px
property float view_py
property float view_pz
property float x_axisx
property float x_axisy
property float x_axisz
property float y_axisx
property float y_axisy
property float y_axisz
property float z_axisx
property float z_axisy
property float z_axisz
property float focal
property float scalex
property float scaley
property float centerx
property float centery
property int viewportx
property int viewporty
property float k1
property float k2
end_header
262.77692 154.98361 262.22195
263.86542 155.12094 262.85739
264.59164 155.13245 262.56702
264.94788 155.01794 261.35379
266.04556 155.15559 261.97858
267.1488 155.2934 262.59866
267.5014 155.17899 261.37985
267.84937 155.06451 260.16058
268.57584 155.07628 259.8559
268.53119 154.83548 257.72083
268.47665 154.59453 255.58752
269.58499 154.73257 256.19122
67.328857 149.59639 215.01968
67.54248 149.71539 216.19122
68.147392 149.70569 216.44957
67.984184 149.95319 218.53453
69.356323 149.68634 216.9599
69.960312 149.6767 217.21188
70.563965 149.66708 217.46175
70.793526 149.78595 218.62811
71.77018 149.64799 217.95515
72.004082 149.76686 219.11938
72.60878 149.75739 219.36185
74.303757 149.36316 216.83412
75.622078 149.09744 215.222
75.495888 149.34473 217.30263
75.735382 149.46375 218.45946
76.332947 149.45465 218.68954
76.930054 149.44563 218.91763
77.875099 149.30864 218.21506
79.160492 149.04379 216.57904
81.121964 148.52325 213.07634
81.699677 148.51477 213.28975
81.938667 148.63426 214.43358
82.518028 148.6259 214.64403
82.430496 148.87326 216.72084
83.014008 148.86499 216.92924
83.597084 148.85681 217.13573
84.505424 148.72099 216.40343
85.085114 148.71301 216.60519
86.305725 148.44983 214.92795
86.879532 148.44209 215.12422
87.452942 148.43442 215.31859
87.712746 148.55438 216.45224
88.287796 148.54686 216.64375
88.246101 148.79439 218.71895
88.825302 148.78697 218.90843
88.797752 149.03447 220.98483
89.080437 149.15456 222.11745
90.858635 148.63791 218.5199
91.433708 148.63089 218.70128
91.715187 148.75124 219.82838
93.454842 148.23531 216.21375
94.597763 147.97417 214.48935
94.587334 148.22203 216.55948
95.436287 148.08836 215.77917
96.279907 147.95482 214.99565
96.561562 148.07565 216.11304
97.123665 148.06943 216.27737
98.232132 147.80917 214.5331
98.517685 147.93021 215.64682
98.807846 148.05127 216.76028
99.36853 148.04538 216.91794
100.19238 147.91261 216.1176
100.74994 147.90692 216.27121
101.56572 147.77438 215.46555
101.86407 147.89575 216.57349
102.42067 147.89029 216.72218
102.97694 147.88492 216.86926
103.53292 147.87962 217.01472
104.33484 147.74762 216.19771
105.13153 147.61572 215.37781
105.92303 147.48395 214.55507
105.75384 147.85919 217.58052
106.30833 147.85429 217.71803
106.39462 148.10281 219.78183
106.95348 148.09801 219.91736
107.283 148.21991 221.01645
108.07039 148.08861 220.18369
108.62844 148.08403 220.3145
109.40796 147.95294 219.4769
109.96306 147.94852 219.60403
110.51791 147.94417 219.72963
111.07253 147.9399 219.8537
111.83885 147.80917 219.00716
112.39054 147.80507 219.12766
112.942 147.80101 219.24661
113.28862 147.92346 220.3347
114.04427 147.79311 219.48001
114.59508 147.78925 219.59448
114.75103 148.03825 221.65175
115.30629 148.0345 221.76422
116.43868 147.65172 218.9558
116.98624 147.64815 219.06381
117.34601 147.77097 220.14447
118.08075 147.64117 219.2755
118.62773 147.63779 219.37915
118.99423 147.76074 220.45682
119.36541 147.88373 221.53394
120.09214 147.75423 220.65776
120.81384 147.62482 219.77925
121.18936 147.74796 220.85291
121.56956 147.87112 221.92596
122.28592 147.74191 221.04228
122.83395 147.73898 221.13483
123.06009 147.98846 223.18367
123.77112 147.85945 222.29488
124.63318 147.60437 220.42422
125.17821 147.60168 220.51067
125.72307 147.59903 220.59575
126.26781 147.59645 220.6794
126.81242 147.5939 220.76163
127.06904 147.84361 222.80551
127.47672 147.96724 223.86752
127.8891 148.09091 224.92886
128.71622 147.83641 223.04175
128.99652 148.08621 225.0835
129.68188 147.9579 224.17548
130.3623 147.82967 223.2654
131.03777 147.70149 222.3533
131.58371 147.6994 222.42336
132.25172 147.57135 221.50755
132.91479 147.44337 220.58978
133.4556 147.44145 220.65512
133.99631 147.43958 220.71912
134.64944 147.31177 219.79608
135.07745 147.43594 220.84297
135.40253 147.68611 222.87521
135.94769 147.68442 222.93433
136.49278 147.68274 222.992
137.0378 147.68112 223.04837
137.77881 147.42769 221.12901
138.22321 147.55209 222.16959
138.67235 147.67653 223.20929
139.12625 147.80099 224.24808
139.67329 147.79958 224.29787
140.13428 147.92412 225.33463
140.76718 147.79691 224.3934
141.23286 147.92151 225.42784
141.78206 147.92026 225.47241
142.25484 148.04494 226.50475
142.80632 148.04378 226.54675
143.28621 148.16852 227.57692
143.84 148.16743 227.61642
144.39374 148.1664 227.65456
145.01173 148.03955 226.70137
145.43915 148.29028 228.71686
145.93565 148.41521 229.74132
146.5511 148.28848 228.78392
147.10703 148.28766 228.8154
147.61063 148.41269 229.83617
148.16887 148.41193 229.86505
148.72708 148.41119 229.89256
149.33032 148.2847 228.92767
149.88606 148.28406 228.95235
150.44177 148.28346 228.97568
151.07315 148.03128 227.01498
151.62399 148.03076 227.03539
152.17482 148.03029 227.05447
152.75626 147.90404 226.08064
153.30464 147.90364 226.09697
153.82718 148.02908 227.10365
154.40135 147.90297 226.1256
154.92868 148.02849 227.12975
155.44218 148.27985 229.12456
155.98152 148.40543 230.12622
156.53944 148.40526 230.13469
157.06319 148.78252 233.11777
157.62831 148.78242 233.12358
158.18027 149.03397 235.11209
158.7502 149.03395 235.11519
159.31836 149.15977 236.10896
159.88881 148.78244 233.13309
160.45393 148.78255 233.13203
161.01363 148.65689 232.13754
161.58421 148.78287 233.12579
162.13911 148.65729 232.12862
162.72719 148.90915 234.10602
163.26466 148.65784 232.11418
163.80998 148.53236 231.11301
164.39026 148.65854 232.09427
164.95309 148.65897 232.08224
165.54062 148.78522 233.06061
166.16008 149.03734 235.02916
166.73019 149.03787 235.01282
167.26843 148.91264 234.00356
167.87051 149.03908 234.97598
168.40401 148.91391 233.96411
168.93272 148.78879 232.95103
169.5397 148.91534 233.91911
170.1076 148.91612 233.89455
170.72189 149.04279 234.85954
171.24353 148.9178 233.8412
171.86272 149.04456 234.80318
172.4332 149.0455 234.77293
173.05969 149.17233 235.73172
173.69104 149.29922 236.68884
174.32727 149.42616 237.64426
175.09474 149.80487 240.57803
175.74553 149.93193 241.52971
176.33319 149.93317 241.4899
176.85049 149.80856 240.45909
177.50868 149.93578 241.40591
177.94608 149.68536 239.38338
178.52917 149.68677 239.33813
179.11234 149.68822 239.29144
179.69559 149.6897 239.24333
180.19403 149.56532 238.20534
180.77502 149.56691 238.15457
181.2664 149.44261 237.11433
181.84514 149.44427 237.06085
182.61299 149.69786 238.98102
183.19673 149.69963 238.92419
183.78055 149.70145 238.86592
184.36447 149.70332 238.80621
185.05266 149.83121 239.73157
185.53261 149.7072 238.68236
186.22581 149.83521 239.60429
187.03537 150.08928 241.50993
187.62704 150.09142 241.44206
188.33507 150.21962 242.35788
188.92937 150.22188 242.28673
189.40274 150.09816 241.22949
189.99487 150.10049 241.15562
190.71303 150.22896 242.06429
191.1795 150.10536 241.00342
191.90276 150.23395 241.90845
192.63098 150.36259 242.81128
193.22859 150.36523 242.72925
193.96436 150.49405 243.62807
194.70509 150.62292 244.52463
195.30798 150.62576 244.43729
196.05629 150.75479 245.32974
196.8096 150.8839 246.21989
197.41779 150.88693 246.12715
198.02615 150.89003 246.0329
198.94461 151.14555 247.89668
199.55815 151.1488 247.79843
200.17188 151.1521 247.69861
201.11026 151.40793 249.5545
201.56453 151.28514 248.47238
202.01413 151.1624 247.38953
202.45908 151.03969 246.30589
202.89937 150.91702 245.22147
203.68375 151.04698 246.08942
204.29637 151.05074 245.97874
204.90921 151.05453 245.86644
205.8856 151.31111 247.70293
206.68785 151.44145 248.56123
207.68173 151.69827 250.3912
208.68556 151.95522 252.21764
209.31656 151.95949 252.0938
209.56009 151.711 250.02258
209.99039 151.58896 248.92398
210.41606 151.46693 247.82468
211.03828 151.47145 247.69606
211.86436 151.60252 248.53656
212.69559 151.7337 249.37436
213.32347 151.73848 249.23955
213.95163 151.74333 249.10307
214.79344 151.87482 249.93355
215.64043 152.00644 250.76123
216.4926 152.13818 251.58604
217.34996 152.27003 252.40797
217.98935 152.27538 252.26051
218.62903 152.28079 252.11119
219.26906 152.2863 251.96016
219.90938 152.29189 251.80727
220.31705 152.17084 250.68839
220.95557 152.17657 250.53247
221.83232 152.30917 251.33771
222.47397 152.31512 251.17757
223.60162 152.5748 252.93906
224.73944 152.83466 254.69615
225.63976 152.96783 255.48837
226.54535 153.10115 256.2774
226.95093 152.98077 255.14488
227.86221 153.11433 255.92877
228.52121 153.12106 255.75156
229.4407 153.2549 256.5296
230.10297 153.26184 256.34781
231.2957 153.52299 258.07574
231.42876 153.27606 255.97835
231.82231 153.1562 254.8362
232.21133 153.03639 253.69344
232.87076 153.04379 253.50316
232.9758 152.79692 251.40627
233.91101 152.93167 252.16498
234.85164 153.06659 252.92023
235.7977 153.20166 253.67198
236.74921 153.33688 254.42018
237.99597 153.59961 256.11334
238.66852 153.60785 255.90578
239.93118 153.87097 257.59015
240.90701 154.0069 258.32303
241.5885 154.01553 258.10675
242.5728 154.15176 258.83295
242.953 154.03313 257.66769
243.3287 153.91454 256.50189
244.31955 154.05115 257.21994
245.00359 154.06032 256.99274
245.37334 153.94194 255.82285
246.69061 154.20667 257.47144
247.69858 154.34389 258.17551
248.71213 154.48131 258.87564
248.75662 154.23552 256.7605
250.10117 154.50101 258.39139
250.79648 154.511 258.14581
252.15723 154.7769 259.76672
252.8587 154.78719 259.51468
253.89822 154.92554 260.1929
254.94333 155.06406 260.86688
255.99405 155.20276 261.53659
256.70532 155.21353 261.27225
257.41714 155.2244 261.00549
258.12952 155.23537 260.7363
258.48975 155.11819 259.53766
259.20068 155.12929 259.26453
259.91217 155.14047 258.98895
260.62415 155.15172 258.71088
262.42517 155.54816 261.19919
262.78046 155.43126 259.99118
263.867 155.57126 260.62454
264.58868 155.58292 260.33344
265.68387 155.72314 260.95862
266.40906 155.73495 260.66141
267.1347 155.74681 260.3616
267.4801 155.63007 259.14355
267.8208 155.51324 257.92508
268.15677 155.39639 256.70621
268.48801 155.27946 255.48697
269.20541 155.29131 255.17874
67.711128 150.04228 214.02258
67.533081 150.29477 216.10471
68.138008 150.28491 216.3632
67.974731 150.53717 218.44762
69.728371 150.13429 215.95882
70.329834 150.12456 216.20993
70.930954 150.11485 216.45892
71.531746 150.10516 216.7058
72.132164 150.09554 216.95061
71.99485 150.34752 219.03392
72.965721 150.20715 218.35527
75.021919 149.6748 214.90544
75.613174 149.66548 215.13889
75.486969 149.91748 217.21898
76.082466 149.90822 217.45035
77.031006 149.76846 216.75333
76.92128 150.02039 218.83415
78.214828 149.75034 217.2039
79.497826 149.48051 215.56784
81.113647 149.08052 212.99586
81.691414 149.0719 213.20949
82.607056 148.93304 212.48917
83.181458 148.92462 212.69797
83.08889 149.17676 214.77243
83.667458 149.16843 214.97919
83.917343 149.29034 216.11964
84.497559 149.28214 216.32346
85.400543 149.14391 215.58806
86.939499 148.7457 212.97258
87.508385 148.73788 213.1673
88.076851 148.73016 213.36014
88.644897 148.72252 213.55115
88.901833 148.84489 214.68192
88.855171 149.09718 216.7549
89.735161 148.95984 215.99968
89.700142 149.21216 218.07314
89.373985 149.59424 221.09282
91.149902 149.06779 217.49597
91.426842 149.19041 218.62317
92.294838 149.05363 217.85568
94.029732 148.52795 214.241
95.167824 148.26192 212.51588
95.152458 148.51456 214.58395
95.996559 148.3784 213.80261
96.554504 148.37195 213.96906
96.555389 148.62465 216.03722
97.117577 148.61832 216.20168
97.952789 148.48257 215.41133
98.240868 148.6059 216.52557
98.533539 148.72923 217.63954
99.096786 148.72321 217.79799
100.18671 148.45853 216.04285
100.48331 148.58206 217.1532
101.56024 148.31766 215.39136
101.85865 148.44135 216.4991
102.41533 148.43579 216.6479
102.97168 148.43031 216.7951
103.77646 148.29568 215.98074
104.32974 148.29039 216.12407
105.37035 148.02681 214.34343
105.91814 148.02171 214.48235
105.74894 148.4041 217.5069
106.30352 148.39909 217.64449
106.38985 148.65234 219.70775
106.71722 148.7765 220.8076
107.04924 148.90071 221.90706
107.83917 148.76691 221.07529
108.39975 148.76221 221.20677
109.40356 148.49962 219.40361
109.95872 148.49512 219.53084
110.51365 148.49068 219.65652
111.06833 148.48633 219.78069
111.83473 148.35312 218.93457
112.59602 148.22003 218.08586
113.3522 148.08705 217.2346
113.69398 148.21188 218.32141
114.44484 148.07907 217.46609
114.79106 148.20399 218.55098
114.94461 148.45775 220.60718
115.3026 148.58272 221.69154
116.24265 148.32143 219.85698
116.98272 148.18901 218.99226
117.34254 148.31416 220.07268
118.26253 148.05319 218.22984
118.80713 148.04974 218.33311
119.35155 148.04636 218.43492
119.54004 148.3004 220.4865
120.26442 148.16844 219.61024
120.98376 148.03659 218.7317
121.18631 148.29071 220.78159
121.73473 148.2876 220.87704
122.28297 148.28456 220.97108
122.66776 148.41016 222.04185
123.05723 148.5358 223.112
123.76833 148.40433 222.22357
124.63048 148.14438 220.35358
125.17555 148.14163 220.44009
125.87167 148.01041 219.54509
126.41405 148.00778 219.62843
127.10263 147.87671 218.72951
127.35445 148.13118 220.77209
127.75733 148.25719 221.83315
128.02582 148.51169 223.87543
128.7139 148.38083 222.97092
128.99425 148.63538 225.01207
129.67967 148.50462 224.1044
130.36014 148.37395 223.19469
131.03568 148.24333 222.28293
131.45706 148.36961 223.3369
132.00537 148.36752 223.40594
132.67332 148.23709 222.48911
133.33636 148.10672 221.57033
133.87953 148.1048 221.63463
134.53513 147.97455 220.71223
135.0757 147.97273 220.77354
135.61618 147.97095 220.83348
136.0513 148.09756 221.87819
136.59402 148.09587 221.9357
136.93575 148.35089 223.96509
137.48312 148.34927 224.02036
137.83917 148.60434 226.04848
138.48445 148.47449 225.11414
138.94319 148.6013 226.15314
139.67192 148.34326 224.2278
140.13293 148.47017 225.26427
140.7659 148.34053 224.32336
141.2316 148.4675 225.35753
141.8596 148.33797 224.41354
142.25366 148.59329 226.43417
142.95309 148.33557 224.49828
143.42821 148.46271 225.52779
143.83894 148.71811 227.54562
144.39272 148.71706 227.58379
145.01077 148.5878 226.63095
145.43822 148.84329 228.64583
145.99426 148.84236 228.68005
146.66444 148.58501 226.73273
147.1609 148.71237 227.75417
147.66212 148.83978 228.77454
148.16812 148.96724 229.79381
148.72638 148.96651 229.82132
149.32967 148.83759 228.85677
149.9281 148.70874 227.89064
150.52171 148.57991 226.92291
151.11047 148.45114 225.95369
151.6944 148.32242 224.98293
152.20741 148.45013 225.99304
152.78648 148.32149 225.01944
153.30426 148.4493 226.02707
153.87849 148.32072 225.05064
154.42447 148.3204 225.06424
154.90739 148.7047 228.05107
155.44197 148.83264 229.05373
155.96513 149.08882 231.04677
156.5255 149.08864 231.05527
157.06306 149.34489 233.04576
157.62823 149.34479 233.05157
158.18024 149.60112 235.03947
158.75438 149.47292 234.05083
159.32018 149.60112 235.04427
159.88824 149.21661 232.06937
160.45406 149.34491 233.06003
161.01379 149.21686 232.06587
161.58441 149.34525 233.0538
162.14961 149.34546 233.0486
162.72748 149.47392 234.03371
163.28003 149.34602 233.0341
163.84528 149.34637 233.02477
164.41052 149.34676 233.01407
164.95352 149.21898 232.01051
165.54109 149.34764 232.98859
166.1606 149.60455 234.95648
166.70126 149.4769 233.94882
167.30093 149.6057 234.92242
167.87115 149.60632 234.90331
168.44139 149.60699 234.88277
168.93343 149.35127 232.87889
169.45741 149.2238 231.86494
170.02054 149.22459 231.84055
170.63005 149.35364 232.80544
171.24442 149.48274 233.76871
171.91479 149.74014 235.72079
172.43416 149.61287 234.70009
173.11667 149.87036 236.64873
173.69211 149.87143 236.61537
174.32837 150.00078 237.57047
175.0959 150.3867 240.50331
175.68114 150.38792 240.46507
176.19843 150.26089 239.43596
176.78137 150.26219 239.395
177.43719 150.39182 240.34171
177.87221 150.13663 238.31992
178.53059 150.26636 239.26353
179.03375 150.13953 238.22832
179.61464 150.14105 238.18037
180.11072 150.0143 237.14287
180.60205 149.88759 236.10435
181.08864 149.76091 235.06485
181.6626 149.76259 235.0118
182.42569 150.021 236.93175
183.10159 150.15112 237.86235
183.68304 150.15298 237.80428
184.2646 150.15488 237.74477
185.0546 150.41356 239.65628
185.53459 150.2872 238.60735
186.22786 150.41763 239.52892
186.92606 150.54816 240.44849
187.51537 150.55032 240.38083
188.22104 150.68097 241.29659
188.93164 150.81168 242.21027
189.28397 150.55716 240.16898
190.12073 150.81644 242.06337
190.71545 150.81888 241.98767
191.18198 150.69295 240.92708
191.9053 150.82397 241.83174
192.76675 151.08356 243.71693
193.23126 150.95778 242.65213
193.96709 151.08902 243.55055
194.84833 151.34888 245.42847
195.45369 151.35178 245.34073
195.91394 151.2262 244.27045
196.66489 151.35776 245.1606
197.42085 151.4894 246.04845
198.02927 151.49255 245.95407
198.94781 151.75296 247.8172
199.5614 151.75626 247.71887
200.33502 151.88824 248.59772
201.11366 152.02032 249.47417
201.73267 152.02383 249.37025
202.18475 151.89877 248.2872
202.63219 151.77376 247.2034
203.2469 151.77745 247.09543
203.68744 151.65251 246.00964
204.12331 151.52762 244.92314
204.91304 151.66022 245.78654
205.70784 151.79292 246.64745
206.69186 152.0545 248.48024
207.49927 152.18742 249.33551
208.68979 152.57803 252.13519
209.12941 152.45358 251.03825
209.75827 152.45801 250.91315
209.99477 152.2048 248.84224
210.4205 152.08047 247.74316
210.8416 151.95618 246.64339
211.66534 152.08974 247.48401
212.49422 152.2234 248.32191
213.32825 152.35719 249.15703
213.95648 152.36214 249.02043
214.58499 152.36716 248.88208
215.64548 152.63025 250.67773
216.49774 152.7645 251.50214
217.35522 152.89888 252.32365
218.21788 153.03337 253.14223
219.08575 153.168 253.9579
219.50266 153.04454 252.8405
220.14552 153.05026 252.68694
220.7887 153.05606 252.53152
221.43224 153.06197 252.37431
222.31401 153.19714 253.1779
223.20105 153.33246 253.97842
223.85052 153.33868 253.81442
224.74565 153.47424 254.60933
225.64607 153.60995 255.40111
226.30156 153.6165 255.23018
226.70471 153.4938 254.09846
227.86882 153.75925 255.84077
228.52792 153.7661 255.66342
229.70764 154.03189 257.39789
230.37247 154.039 257.21524
231.30276 154.17567 257.98618
231.7034 154.05353 256.84412
232.0995 153.93143 255.70145
232.49107 153.80936 254.55817
233.15306 153.81691 254.36699
233.53807 153.69498 253.22189
234.47839 153.83235 253.97867
234.85931 153.71056 252.83096
235.80548 153.84819 253.58218
236.75711 153.98599 254.32988
238.00403 154.25372 256.02222
238.6767 154.2621 255.81448
240.23438 154.66003 258.4447
241.51016 154.92842 260.12219
242.19675 154.93729 259.90411
242.88385 154.94626 259.6839
243.26662 154.82538 258.51801
243.33755 154.57458 256.40887
244.32852 154.71378 257.12637
245.01266 154.72311 256.89899
245.69736 154.73256 256.66946
247.01729 155.00233 258.31628
248.34781 155.27237 259.95749
248.72171 155.15207 258.78009
248.76624 154.9016 256.66547
249.78351 155.04184 257.35959
250.80637 155.18228 258.04965
251.83481 155.32291 258.73563
252.86885 155.46368 259.41745
254.246 155.73506 261.02731
254.95374 155.74579 260.76849
256.00458 155.8871 261.43765
256.71594 155.89807 261.17313
257.42786 155.90912 260.9061
258.14032 155.92026 260.63666
259.20602 156.06213 261.29135
259.92212 156.07349 261.01602
260.6387 156.08493 260.73822
261.35587 156.09644 260.45795
262.79932 156.36966 262.02042
263.15714 156.25055 260.81149
264.24634 156.39322 261.44327
264.97064 156.40509 261.15091
266.06845 156.548 261.77448
266.04498 156.298 259.64105
267.1463 156.44106 260.25851
267.49167 156.32202 259.04059
268.21564 156.33409 258.73651
267.78241 155.95262 255.69034
268.88794 156.09584 256.29651
269.60791 156.10788 255.98697
67.701691 150.61708 213.93495
67.52356 150.87431 216.01649
68.128479 150.86433 216.27521
67.965126 151.12134 218.35907
69.337463 150.84442 216.78625
69.562599 150.9679 217.95438
69.792496 151.09132 219.1225
70.400948 151.08138 219.3727
71.380295 150.9382 218.70189
71.616745 151.06161 219.86679
72.956413 150.78543 218.26874
74.649178 150.37631 215.74252
75.243019 150.36682 215.97716
75.47789 150.49043 217.13373
75.71743 150.61404 218.29021
76.315102 150.60464 218.52068
76.561386 150.72827 219.67599
77.509163 150.58607 218.97546
78.797363 150.31116 217.34219
80.418411 149.90364 214.77338
81.001305 149.89481 214.98901
82.260445 149.62053 213.33945
82.50161 149.74464 214.48187
82.414078 150.00143 216.55763
82.997742 149.99289 216.76637
83.252716 150.11702 217.90839
83.838028 150.10861 218.11417
84.746155 149.96773 217.381
86.290314 149.56203 214.76849
86.864296 149.554 214.96506
87.753578 149.41365 214.22021
88.324211 149.40584 214.41222
88.894424 149.39812 214.6024
89.155998 149.5228 215.7328
89.727882 149.51523 215.92014
89.692886 149.77225 217.99304
89.366722 150.16147 221.01184
90.844597 149.75742 218.36183
91.419846 149.75012 218.5435
92.287956 149.61079 217.77654
93.732277 149.20741 215.11098
95.161285 148.80431 212.43907
94.86013 149.19371 215.45575
95.706825 149.05498 214.67563
96.267334 149.04839 214.84294
96.270737 149.30577 216.91125
96.83548 149.29929 217.07661
97.946701 149.0291 215.33463
98.505775 149.02284 215.49515
98.527557 149.28036 217.56242
99.356888 149.14241 216.76607
100.18095 149.00459 215.96664
100.21653 149.26221 218.03307
100.77885 149.25633 218.18663
101.08471 149.38225 219.29614
101.64885 149.3765 219.44702
102.21268 149.37085 219.59628
103.02493 149.23363 218.7843
103.83196 149.09656 217.96945
104.63379 148.95959 217.15169
105.67177 148.69121 215.36961
105.50503 149.0807 218.39394
106.06214 149.07558 218.53223
106.38496 149.20203 219.63222
106.7124 149.32852 220.73184
107.04448 149.45505 221.83105
108.06116 149.18729 220.03465
108.39514 149.31395 221.13132
109.39906 149.04645 219.32892
109.9543 149.04187 219.45627
110.29242 149.1687 220.54935
110.84961 149.16423 220.67412
111.61855 149.02853 219.82898
112.59192 148.76164 218.01227
113.34818 148.62617 217.16142
113.69002 148.75333 218.24797
114.44095 148.61803 217.39308
114.78722 148.74529 218.47771
114.9408 149.00378 220.53336
115.49374 148.99991 220.64549
116.43147 148.73373 218.81113
117.16918 148.59886 217.94635
117.90184 148.4641 217.07915
118.44426 148.46054 217.18347
118.9865 148.45705 217.28633
119.34823 148.5847 218.36261
119.71465 148.7124 219.43829
120.2612 148.70906 219.53773
120.98061 148.57474 218.65958
121.35381 148.70258 219.73227
121.89984 148.69942 219.82741
122.61148 148.56532 218.94365
122.99146 148.6933 220.01335
123.21523 148.95227 222.06064
124.08244 148.68739 220.19357
124.62772 148.68454 220.28157
125.01921 148.81267 221.34755
125.71783 148.67899 220.45331
126.26267 148.67628 220.53705
126.95375 148.54276 219.63889
127.20801 148.80197 221.68126
127.75488 148.79942 221.76115
128.02341 149.05869 223.80283
128.84824 148.79451 221.91676
128.99191 149.18468 224.93927
129.54555 149.18233 225.01457
130.09906 149.18001 225.08844
130.77948 149.04695 224.17772
131.20575 149.17557 225.23201
131.75894 149.17342 225.30171
132.43179 149.04053 224.38583
133.21707 148.77692 222.48354
133.87764 148.64417 221.56346
134.42078 148.64226 221.6264
134.96379 148.6404 221.68803
135.50674 148.63858 221.74828
135.94431 148.76755 222.79297
136.38661 148.89655 223.83682
136.83365 149.02557 224.87979
137.28543 149.15463 225.92191
137.55069 149.54517 228.93671
138.20325 149.41287 228.00342
138.76009 149.41133 228.05553
139.49368 149.14847 226.13132
139.95956 149.27771 227.16791
140.76457 148.88429 224.25201
141.14914 149.14432 226.27399
141.70084 149.14301 226.3188
142.17609 149.27243 227.35075
142.80403 149.14055 226.40436
143.35555 149.13939 226.4451
143.83786 149.26892 227.47348
144.45842 149.13719 226.52248
144.94545 149.2668 227.54848
145.37534 149.52707 229.56291
145.93384 149.52611 229.59731
146.54938 149.39456 228.64055
147.05069 149.52431 229.66199
147.60905 149.52348 229.69226
148.16737 149.52269 229.72119
148.77315 149.39133 228.75842
149.37407 149.26001 227.79407
149.92747 149.25935 227.81868
150.56139 148.99753 225.8607
151.14778 148.86635 224.89168
151.72934 148.73523 223.92117
152.20695 148.99593 225.92177
152.75543 148.99547 225.93947
153.27565 149.12566 226.94684
153.85233 148.99469 225.97081
154.40074 148.99435 225.98448
154.90714 149.25523 227.97925
155.46034 149.25497 227.99031
155.99734 149.38535 228.99136
156.55293 149.38518 228.99979
157.08574 149.64621 230.98962
157.64613 149.64612 230.99538
158.18678 150.03781 233.97401
158.75439 150.0378 233.97711
159.32022 150.1684 234.97023
159.88898 149.90729 232.9877
160.45114 149.77682 231.99521
161.00307 149.51579 230.00993
161.56892 149.64656 230.99759
162.12935 149.64679 230.99242
162.70244 149.77765 231.97726
163.25023 149.64737 230.97804
163.84564 149.90889 232.95135
164.39105 149.77869 231.94942
164.97624 149.90971 232.92859
165.56627 150.04079 233.90625
166.16113 150.17191 234.8824
166.70183 150.04185 233.87508
167.30154 150.17307 234.84834
167.83749 150.04309 233.83833
168.40536 150.04378 233.81789
168.89503 149.78328 231.81474
169.49971 149.91466 232.78226
170.02135 149.78485 231.76732
170.67725 150.04694 233.72221
171.29407 150.17845 234.68507
171.91574 150.31003 235.64626
172.48871 150.311 235.61581
173.11771 150.44269 236.57387
173.69318 150.44376 236.54044
174.26871 150.44489 236.50566
174.9707 150.70737 238.44827
175.55115 150.70859 238.41029
176.19969 150.84052 239.36005
176.78268 150.84183 239.31903
177.36574 150.8432 239.27664
177.87361 150.71393 238.2442
178.53204 150.84607 239.18747
179.11531 150.84758 239.14075
179.69864 150.84914 239.09256
180.28206 150.85074 239.04292
180.77826 150.72166 238.00429
181.26971 150.59264 236.96463
181.75642 150.46364 235.92395
182.42746 150.59615 236.85609
183.00647 150.59798 236.7997
183.58556 150.59985 236.74182
184.16475 150.60178 236.68254
184.95241 150.86528 238.59361
185.43002 150.73656 237.54523
186.22995 151.00021 239.45209
186.81677 151.00237 239.38615
187.51756 151.13538 240.30359
188.10703 151.13765 240.23442
188.93396 151.40161 242.13231
189.40741 151.27318 241.07559
190.24667 151.53729 242.96901
190.96979 151.67065 243.87633
191.56953 151.67325 243.79842
192.03865 151.54501 242.73625
192.76942 151.67859 243.63803
193.36957 151.68135 243.55559
193.69382 151.42235 241.50807
194.5703 151.68703 243.38597
195.31375 151.82089 244.27992
195.77161 151.69296 243.21025
196.66792 151.95792 245.0807
197.42395 152.09201 245.96819
198.03244 152.09525 245.87378
198.95107 152.3605 247.73618
199.72214 152.49487 248.61661
200.17859 152.36731 247.53784
201.11714 152.63287 249.39229
201.57152 152.50542 248.3107
202.02122 152.37799 247.2283
202.63583 152.38171 247.12195
203.25061 152.38547 247.01392
203.5168 152.12711 244.9525
204.12712 152.13098 244.84209
204.73767 152.13493 244.7301
205.53012 152.2701 245.59103
206.32767 152.40536 246.44943
207.31688 152.67194 248.2789
208.31606 152.93863 250.10483
208.94232 152.94304 249.98177
209.56882 152.94753 249.85706
210.19556 152.95209 249.73062
210.82256 152.95673 249.60251
211.2486 152.83015 248.50197
211.87367 152.83495 248.37094
212.70508 152.97113 249.20789
213.33313 152.97607 249.07292
213.75044 152.84975 247.96756
214.59001 152.98624 248.79774
215.65062 153.25426 250.59264
216.28468 153.25958 250.44962
217.1398 153.39644 251.27122
218.22333 153.66489 253.0558
218.86565 153.67055 252.90573
219.28015 153.54477 251.78914
220.15125 153.68211 252.60019
220.79451 153.68803 252.44466
221.43811 153.69403 252.28731
222.55795 153.96335 254.05276
223.44757 154.10121 254.85223
224.09959 154.10757 254.68745
224.75197 154.11401 254.52083
225.9003 154.38397 256.27194
226.05783 154.12721 254.18192
226.45859 154.0022 253.05103
227.62038 154.27257 254.7932
228.2771 154.27953 254.61636
229.4545 154.55025 256.35068
229.85437 154.42561 255.21275
230.77985 154.56479 255.98454
231.44313 154.5722 255.79851
231.83682 154.44778 254.65672
231.95349 154.19145 252.56129
233.1606 154.46309 254.27612
233.54565 154.33887 253.13116
234.20616 154.34674 252.93657
234.8671 154.35474 252.73991
236.09834 154.62706 254.44006
236.76517 154.63531 254.23785
238.01227 154.90804 255.92934
238.68503 154.91656 255.72142
239.94801 155.18968 257.40408
241.22148 155.46304 259.08148
242.20557 155.60434 259.80884
242.59036 155.48112 258.64441
243.58047 155.62271 259.36581
243.34656 155.23483 256.31403
244.02779 155.2442 256.08948
245.02193 155.38614 256.80344
245.7067 155.39574 256.57367
246.392 155.40546 256.34167
247.71765 155.68044 257.98364
248.40904 155.69043 257.74542
248.45108 155.43523 255.63217
249.46597 155.57806 256.32663
250.81642 155.85379 257.95163
251.845 155.99701 258.63705
252.87917 156.14041 259.31827
253.58139 156.15115 259.06348
254.96432 156.42775 260.66821
255.67268 156.43875 260.40677
256.72675 156.58282 261.07202
257.43872 156.59406 260.80478
258.85172 156.87146 262.38947
259.92261 157.01605 263.04163
260.64386 157.02766 262.76413
261.36563 157.03937 262.48413
262.08795 157.05116 262.20166
262.81073 157.06302 261.91663
263.16861 156.94167 260.70789
264.25793 157.08694 261.33905
264.61169 156.96564 260.12726
266.08017 157.24454 261.66943
265.68097 156.85637 258.61945
266.40158 156.8685 258.32132
266.74182 156.74712 257.10568
267.84406 156.89285 257.71741
267.40817 156.50418 254.67322
268.89963 156.78365 256.19162
269.61963 156.79585 255.88187
66.908737 151.46414 215.66563
67.124763 151.59006 216.83772
67.732239 151.5799 217.09767
67.187325 151.97752 220.09532
68.56485 151.69551 218.5256
68.795067 151.8212 219.69565
69.406441 151.81104 219.94923
70.391296 151.66516 219.2832
71.74202 151.38368 217.69441
72.713432 151.2381 217.01895
74.045616 150.957 215.41875
75.730927 150.54054 212.89082
75.956062 150.66656 214.04524
75.827286 150.92807 216.12323
76.064301 151.05402 217.27855
76.305969 151.17993 218.43379
76.552269 151.30585 219.58894
77.848633 151.02571 217.96146
79.134445 150.74582 216.32816
80.409737 150.46616 214.68904
80.992699 150.45717 214.90485
81.913605 150.31308 214.18745
82.157333 150.43945 215.33061
82.072327 150.70093 217.40671
82.658592 150.6922 217.61655
83.572723 150.54851 216.88956
84.481415 150.40497 216.15881
85.061333 150.39658 216.3611
86.28241 150.11841 214.68643
87.174728 149.97536 213.94484
87.745865 149.96732 214.13885
88.316582 149.95937 214.33102
89.197647 149.81673 213.58046
89.456779 149.94374 214.70984
89.72049 150.07079 215.83904
89.685509 150.33253 217.91141
89.660103 150.59425 219.98515
90.539116 150.45206 219.22542
91.41272 150.31001 218.46234
92.280952 150.16814 217.69586
94.016251 149.62283 214.08423
95.154633 149.34686 212.36078
94.853477 149.74341 215.37654
95.700287 149.60214 214.59692
96.260872 149.59543 214.76437
95.985901 149.99191 217.78316
96.829124 149.85095 216.99763
97.667046 149.71011 216.20892
98.228676 149.70372 216.37029
98.25296 149.96593 218.4377
99.084869 149.82542 217.64252
99.911514 149.68504 216.84424
100.21068 149.81317 217.95485
100.77309 149.80719 218.10852
101.33517 149.80128 218.26053
101.64322 149.92957 219.36884
102.20713 149.9238 219.51819
102.77071 149.91814 219.66595
103.58031 149.7785 218.85216
104.38469 149.63902 218.03549
105.42525 149.36568 216.25482
105.26099 149.7623 219.27882
105.82063 149.75705 219.41785
106.14595 149.8858 220.51823
106.24432 150.14847 222.58177
106.58134 150.27727 223.68192
107.60304 150.00456 221.88747
108.16621 149.99968 222.01973
109.1727 149.72725 220.21866
109.73046 149.72255 220.34663
110.50486 149.58417 219.50609
110.84523 149.71338 220.59793
111.61426 149.5752 219.75322
112.37817 149.4371 218.90588
113.13696 149.29913 218.05597
113.68597 149.29492 218.17314
114.43699 149.15715 217.31868
114.98312 149.15311 217.43234
115.13429 149.41635 219.48692
115.68488 149.41241 219.59863
116.23524 149.40854 219.70886
116.97548 149.27118 218.84497
117.71066 149.13391 217.97867
118.25557 149.13028 218.08353
118.8003 149.12669 218.18692
119.52518 148.98969 217.31438
119.88921 149.11974 218.38937
120.25793 149.24982 219.46382
120.97742 149.11304 218.58606
121.18002 149.37665 220.63477
121.56036 149.50684 221.70706
122.27692 149.37024 220.82454
122.82513 149.36714 220.91727
123.21227 149.49747 221.98648
123.92108 149.36111 221.09845
124.62491 149.22482 220.20816
125.01644 149.35532 221.27391
125.71513 149.21916 220.38004
126.11122 149.34973 221.44368
126.65841 149.34705 221.52646
127.20546 149.34439 221.60782
127.75238 149.34181 221.68779
128.02094 149.60582 223.72887
128.70915 149.47005 222.82509
129.12383 149.60088 223.88313
129.67509 149.59848 223.95816
130.0968 149.72937 225.01436
130.90431 149.46063 223.12106
131.3282 149.59161 224.17479
132.00122 149.45624 223.26068
132.54951 149.45412 223.32838
133.33244 149.18568 221.4265
133.99066 149.05051 220.50647
134.41888 149.18173 221.55391
135.07208 149.04666 220.6306
135.72038 148.91168 219.7054
135.94255 149.3093 222.72026
136.3849 149.44067 223.76382
136.93246 149.43893 223.82053
137.28381 149.70349 225.84834
137.54907 150.10118 228.86221
138.38817 149.70026 225.95589
138.84941 149.8318 226.99449
139.49225 149.6972 226.05788
139.95816 149.82883 227.09419
140.59604 149.69434 226.15443
140.98546 149.95911 228.17618
141.62079 149.82471 227.23347
142.17487 149.82343 227.27715
142.80286 149.68913 226.3311
143.42596 149.5549 225.38332
143.90591 149.68681 226.41125
144.45737 149.6857 226.44928
144.94444 149.81769 227.47498
145.43628 149.94971 228.49965
145.93289 150.08176 229.52322
146.54849 149.9478 228.56682
147.15923 149.81389 227.60873
147.71283 149.81305 227.63879
148.31627 149.67923 226.67758
148.86739 149.67848 226.70479
149.46353 149.54477 225.74057
149.96951 149.67709 226.75516
150.52052 149.67647 226.77832
151.07152 149.67587 226.80013
151.65794 149.54234 225.83011
152.1404 149.80782 227.83025
152.69373 149.80734 227.84811
153.24702 149.80693 227.86462
153.82614 149.67357 226.88899
154.35359 149.8062 227.89354
154.88585 149.93889 228.89691
155.4229 150.07159 229.89897
155.98094 150.07138 229.90881
156.52518 150.20418 230.90829
157.08562 150.20404 230.91544
157.63707 150.33691 231.91229
158.19333 150.46983 232.90782
158.75858 150.46982 232.9109
159.32027 150.73581 234.89482
159.88905 150.46991 232.9129
160.45126 150.33705 231.92075
161.00867 150.20421 230.9272
161.57698 150.33739 231.91451
162.12959 150.20464 230.91824
162.71539 150.47087 232.89384
163.25056 150.20522 230.90387
163.84601 150.47154 232.87653
164.39146 150.33894 231.87491
164.9767 150.47238 232.85374
165.56677 150.60585 233.83109
166.18877 150.87236 235.79767
166.7319 150.73994 234.79056
167.33408 150.87355 235.7634
167.87247 150.74121 234.75366
168.40608 150.60892 233.74269
168.93491 150.47664 232.73048
169.50049 150.47742 232.70737
170.11005 150.61125 233.67296
170.67812 150.61212 233.64694
171.29498 150.74605 234.60944
171.9167 150.88004 235.57031
172.54329 151.01407 236.52953
173.11876 151.01514 236.49753
173.63589 150.88319 235.47473
174.26987 151.01738 236.42929
174.90869 151.15161 237.38214
175.5524 151.28592 238.33327
176.13297 151.2872 238.29384
176.78403 151.42162 239.24165
177.36713 151.423 239.1992
177.95029 151.42444 239.15529
178.61118 151.55902 240.09802
179.11684 151.42746 239.06319
179.70023 151.42905 239.015
180.28368 151.43068 238.96532
180.86722 151.43236 238.91422
181.27141 151.16786 236.88759
181.85028 151.16962 236.83403
182.42926 151.17143 236.77902
183.10526 151.30643 237.70889
183.68683 151.30836 237.65077
184.26848 151.31033 237.59119
185.05861 151.57867 239.50133
185.53868 151.4476 238.45294
186.12305 151.44974 238.38875
186.70752 151.45193 238.323
187.40594 151.58737 239.24036
188.10931 151.72289 240.15567
188.93633 151.99168 242.05287
189.53091 151.99413 241.98007
190.24915 152.12987 242.88914
191.09827 152.39893 244.77911
191.57214 152.26831 243.71812
192.17207 152.27101 243.63867
192.90533 152.40704 244.53972
193.50797 152.40987 244.45686
193.83466 152.14615 242.40964
194.71365 152.41568 244.2865
195.31671 152.41869 244.19899
195.77463 152.28841 243.12955
196.5233 152.42488 244.01932
197.42712 152.69479 245.88638
198.03568 152.69807 245.79192
198.95438 152.9682 247.65358
199.88297 153.23845 249.5121
200.34189 153.10855 248.4332
200.9584 153.11214 248.33116
201.5751 153.11578 248.22751
202.02487 152.98605 247.1454
202.63954 152.98982 247.03893
203.25439 152.99365 246.93082
203.86946 152.99757 246.82112
204.13101 152.73451 244.75952
204.92091 152.87207 245.62212
205.53416 152.87617 245.50793
206.7001 153.28108 248.31348
207.32111 153.28539 248.19464
208.3204 153.55699 250.01984
208.94675 153.56148 249.8967
209.37941 153.4324 248.8
210.00378 153.43704 248.67398
211.02599 153.70911 250.48802
211.65575 153.71393 250.35757
212.28578 153.71884 250.22543
213.12218 153.85756 251.0609
213.75519 153.86266 250.92477
213.96646 153.60028 248.85033
214.80858 153.73929 249.67953
215.87177 154.01224 251.47311
216.50835 154.0177 251.32941
216.92444 153.88937 250.21786
218.00566 154.16273 252.0022
218.87131 154.30237 252.81755
219.28587 154.17429 251.7012
220.15706 154.31415 252.51175
221.26654 154.58812 254.2825
222.15067 154.72827 255.08641
223.04004 154.86858 255.88724
223.69424 154.87498 255.72362
224.10593 154.74742 254.59737
224.75841 154.754 254.43063
225.41125 154.76067 254.26198
225.81418 154.63329 253.1326
226.4653 154.64012 252.96075
227.37201 154.78125 253.74457
228.02637 154.78833 253.56828
228.94128 154.92973 254.34622
229.33627 154.80275 253.20984
229.99184 154.81012 253.02773
230.91537 154.95192 253.79774
231.3042 154.82516 252.65758
231.961 154.83286 252.4695
233.16827 155.10947 254.18349
233.83089 155.11742 253.98997
234.49397 155.12546 253.79448
234.87505 154.99911 252.64714
235.8215 155.14189 253.39737
236.77338 155.28484 254.14403
238.02063 155.56256 255.83466
238.6935 155.57124 255.62656
239.95667 155.84937 257.30832
240.93288 155.99304 258.03964
241.9146 156.13689 258.76721
242.5994 156.14615 258.54742
243.28471 156.15552 258.32544
243.66315 156.03015 257.15933
244.65689 156.17459 257.87494
244.71892 155.91447 255.76573
245.71622 156.05914 256.47607
246.40161 156.06903 256.24387
248.04741 156.48407 258.82272
248.09647 156.22417 256.70963
249.11096 156.36949 257.40579
250.13103 156.515 258.09793
251.48669 156.79585 259.72021
252.18791 156.80656 259.46991
253.89487 157.2231 262.01453
254.60477 157.23413 261.75674
255.3152 157.24525 261.49658
255.68353 157.12112 260.30435
257.08292 157.40321 261.89771
257.4498 157.27924 260.70154
259.2132 157.69717 263.21204
260.28677 157.84444 263.86267
261.36597 157.99185 264.50885
261.37714 157.7326 262.37888
262.09952 157.74457 262.09616
262.82239 157.75662 261.81091
263.18027 157.633 260.60229
264.26968 157.78091 261.23285
264.62347 157.65733 260.02124
265.71893 157.80545 260.64465
265.69281 157.54597 258.51331
266.41342 157.55827 258.21494
266.75366 157.43463 256.99948
268.23935 157.71902 258.52411
267.80591 157.32321 255.47975
269.30002 157.60779 256.99609
270.41364 157.75638 257.59521
67.290688 151.90569 214.66432
67.50412 152.03395 215.83508
68.109039 152.02371 216.09415
67.177376 152.56696 220.00259
68.555 152.27991 218.43384
68.785179 152.4079 219.60371
69.396576 152.3976 219.85748
70.381516 152.24913 219.192
71.732353 151.96262 217.60416
72.335052 151.95256 217.84846
73.669899 151.6664 216.25023
75.721619 151.1044 212.80344
75.94677 151.23273 213.95767
76.176605 151.36102 215.11185
76.054993 151.6272 217.19022
77.00383 151.47969 216.49489
77.245094 151.60797 217.64792
77.839523 151.59845 217.87369
79.125488 151.31354 216.2413
80.400917 151.02885 214.60313
80.302078 151.29506 216.67903
81.228142 151.14832 215.96405
82.484627 150.86414 214.31345
82.730469 150.99283 215.45538
83.31179 150.98404 215.66357
84.877708 150.56291 213.06631
85.776443 150.41696 212.33263
86.346428 150.40855 212.53154
87.236794 150.26289 211.79146
87.485107 150.39203 212.92378
87.422226 150.65846 214.9948
87.995529 150.65034 215.18797
88.568413 150.64232 215.3793
88.5243 150.90875 217.45149
89.40715 150.76369 216.69862
89.678001 150.89301 217.82822
89.351814 151.29651 220.84518
90.531738 151.01468 219.14223
91.405472 150.8701 218.37962
91.980484 150.86264 218.55983
93.42765 150.44444 215.89745
94.571136 150.16344 214.17639
94.274948 150.56708 217.19275
95.126839 150.42319 216.41512
95.973389 150.27946 215.63423
95.700897 150.68307 218.65285
96.82267 150.40277 216.91713
97.66069 150.2594 216.12894
98.222412 150.25288 216.29042
98.515259 150.38315 217.40375
99.61087 150.10349 215.65411
100.16908 150.09726 215.80988
100.72697 150.09113 215.96396
101.28452 150.08508 216.11641
101.58557 150.21567 217.22415
101.6375 150.4828 219.28915
101.95023 150.61343 220.39691
102.26756 150.74409 221.50429
103.08218 150.60191 220.69225
103.89157 150.45985 219.8773
104.93718 150.18155 218.09869
105.0168 150.44888 220.16161
106.28851 150.03447 217.41528
106.60898 150.16559 218.51424
106.93408 150.29674 219.61278
107.26381 150.42792 220.71091
108.05157 150.28662 219.8799
108.83418 150.14545 219.04616
109.38982 150.14059 219.17522
109.94521 150.13583 219.30273
110.50034 150.13115 219.42871
110.84077 150.2627 220.52032
111.39786 150.25813 220.64377
112.16431 150.11754 219.79738
112.92563 149.97705 218.94843
113.47714 149.97276 219.06622
114.43295 149.69643 217.24286
114.77933 149.82834 218.32697
115.32774 149.82428 218.43976
115.68101 149.95628 219.52238
116.23145 149.95233 219.63271
117.16184 149.67653 217.79692
117.89466 149.5368 216.93054
118.43721 149.53311 217.035
118.97957 149.52948 217.13803
119.52174 149.52592 217.23961
119.7079 149.79419 219.28896
120.07909 149.92659 220.36359
120.62802 149.92319 220.46217
121.17679 149.91983 220.55927
121.89359 149.78072 219.6786
122.60537 149.64169 218.79565
122.98543 149.77435 219.86482
123.20927 150.04283 221.91092
123.75964 150.03976 222.00127
124.1538 150.17253 223.06851
124.399 150.44106 225.11386
125.25867 150.16669 223.24278
125.9597 150.02814 222.34825
126.65576 149.88966 221.45157
127.20287 149.88696 221.533
127.74984 149.88432 221.61302
128.01842 150.15309 223.6535
128.7067 150.01488 222.75011
128.98714 150.28369 224.78947
129.54086 150.28125 224.86488
129.96503 150.41449 225.92114
130.77504 150.1409 224.02885
131.326 150.13863 224.09973
132.12129 149.8652 222.20277
132.78702 149.72746 221.28677
133.56519 149.45421 219.38499
134.10367 149.45218 219.44884
134.52951 149.58577 220.49568
134.9601 149.71939 221.54173
135.50314 149.7175 221.60205
135.73016 150.12227 224.6165
136.28027 150.12045 224.67488
136.7298 150.25421 225.71753
137.18408 150.388 226.75931
137.6431 150.52182 227.80019
138.47986 150.11368 224.89462
138.93872 150.2476 225.93274
139.57919 150.1106 224.99628
140.04274 150.24458 226.03207
140.67825 150.10767 225.09242
141.06529 150.37721 227.11336
141.69827 150.2404 226.17081
142.24998 150.23911 226.21432
142.87561 150.1024 225.26842
143.49637 149.96576 224.32086
143.97395 150.10004 225.3483
144.52304 150.09892 225.3862
145.00774 150.23328 226.41144
145.43529 150.5031 228.42447
145.93195 150.63753 229.44775
146.49048 150.63657 229.48082
147.04897 150.63565 229.51251
147.65971 150.49939 228.55342
148.26561 150.36316 227.5927
148.86665 150.22699 226.63042
149.41777 150.22626 226.65628
149.96886 150.22557 226.68079
150.51993 150.22493 226.70396
151.07095 150.22433 226.7258
151.62196 150.22377 226.74625
152.13991 150.35864 227.75562
152.69328 150.35817 227.77348
153.2184 150.49312 228.78038
153.79996 150.35735 227.80513
154.32986 150.49237 228.80945
154.88556 150.49208 228.82199
155.42265 150.62718 229.82373
155.98074 150.62695 229.83357
156.52502 150.76215 230.83275
157.07411 150.89738 231.83063
157.62801 151.03265 232.82719
158.18671 151.16795 233.82239
158.75858 151.03256 232.8347
159.32208 151.16797 233.82719
159.88914 151.03267 232.8367
160.4514 150.8974 231.84483
161.01428 150.89755 231.84244
161.57719 150.89775 231.83862
162.14011 150.89798 231.83345
162.70302 150.89825 231.8269
163.25089 150.7632 230.82828
163.82892 150.89894 231.80966
164.37201 150.76396 230.80841
164.95488 150.8998 231.78697
165.51788 150.90028 231.77354
166.13512 151.17159 233.73959
166.67349 151.03677 232.73294
167.33472 151.44357 235.68616
167.87314 151.30885 234.6767
168.4068 151.17416 233.66605
168.89653 150.90411 231.66414
169.45975 150.90491 231.64108
169.97906 150.77032 230.62683
170.679 151.17744 233.57025
171.24716 151.17838 233.54283
171.91769 151.45018 235.4929
172.5979 151.72208 237.44113
173.17583 151.72314 237.40898
173.6954 151.58884 236.38637
174.33182 151.72545 237.34041
174.90991 151.72667 237.30399
175.55367 151.86337 238.25476
176.2023 152.00015 239.20378
176.78539 152.00153 239.16275
177.29568 151.86748 238.1322
177.8765 151.86894 238.08846
178.53503 152.00594 239.03102
179.03831 151.87201 237.99669
179.70183 152.00911 238.93599
180.28532 152.01077 238.88628
180.86893 152.01248 238.83514
181.27315 151.74323 236.80913
181.75993 151.6095 235.76903
182.33655 151.61134 235.71423
183.01019 151.74876 236.64401
183.58939 151.75072 236.58606
184.16869 151.75272 236.52666
184.95647 152.02589 238.43636
185.54079 152.02802 238.37357
186.1252 152.0302 238.3093
186.70973 152.03242 238.24353
187.29436 152.03471 238.17632
187.8791 152.03705 238.1076
188.82004 152.4463 240.9883
189.41226 152.44878 240.91576
190.12814 152.58696 241.82472
191.10089 152.99651 244.69705
191.83153 153.13486 245.60114
192.17477 152.86629 243.55681
192.90811 153.00478 244.45749
193.64642 153.14334 245.356
193.83754 152.73917 242.32793
194.7166 153.01358 244.20407
195.46262 153.15237 245.09689
196.06833 153.1555 245.00742
196.82191 153.29446 245.89603
197.88084 153.70503 248.74094
198.34415 153.57263 247.66635
199.11278 153.71187 248.54797
200.20132 154.1228 251.38354
200.34541 153.71896 248.34859
200.79971 153.58678 247.26913
201.57878 153.72633 248.14278
202.02859 153.59425 247.0609
202.64333 153.5981 246.95435
203.25826 153.60202 246.84618
203.87338 153.60599 246.73639
204.48872 153.61005 246.62497
205.28357 153.75014 247.48625
205.72003 153.61839 246.39722
206.70436 153.89462 248.22775
207.32542 153.89902 248.10883
208.13579 154.03951 248.96075
208.56827 153.90802 247.86597
209.19005 153.91264 247.74202
210.20479 154.18948 249.55847
211.22955 154.46648 251.37128
211.66058 154.33531 250.2702
212.49438 154.47644 251.10748
213.53944 154.75381 252.91098
213.96884 154.62288 251.80522
214.39365 154.49199 250.69875
215.45421 154.76976 252.49385
216.52487 155.0477 254.285
216.73215 154.78081 252.20688
216.92996 154.51393 250.12926
218.01129 154.79222 251.91281
218.42563 154.66174 250.79848
219.06352 154.66766 250.64752
220.16298 154.94638 252.42165
221.2726 155.22528 254.19157
222.15683 155.36798 254.99503
223.04633 155.5108 255.79539
223.70065 155.51733 255.63167
223.86948 155.25099 253.54521
224.76497 155.39417 254.33871
225.17006 155.26442 253.21078
225.57059 155.13474 252.08228
226.72488 155.41483 253.82663
227.63419 155.55853 254.60928
228.29114 155.56577 254.43219
228.94846 155.57309 254.25314
229.60617 155.58051 254.07211
229.99918 155.45131 252.93465
230.92285 155.59567 253.70419
231.31174 155.46664 252.56419
232.2412 155.61127 253.32834
233.17606 155.75606 254.08908
233.83881 155.76414 253.89543
234.22198 155.63544 252.74959
234.88312 155.64372 252.55261
235.82971 155.78906 253.30231
236.78172 155.93459 254.04843
238.02916 156.2173 255.73817
238.40967 156.08908 254.58347
239.96545 156.50928 257.21078
240.94182 156.65553 257.94156
241.92368 156.80197 258.66861
242.30615 156.67419 257.50537
243.59897 156.95815 259.16888
243.67249 156.6933 257.06046
244.6664 156.8403 257.77551
244.72845 156.5755 255.66682
245.41092 156.58542 255.43752
245.77644 156.45801 254.2677
247.73741 157.01788 257.78436
247.784 156.75327 255.67267
249.12112 157.03867 257.30481
250.14133 157.1868 257.99637
251.82724 157.61029 260.55161
252.53108 157.62122 260.30017
254.24078 158.04529 262.84256
254.61565 157.91881 261.65247
255.66634 158.06787 262.32227
256.03726 157.94153 261.12924
257.09412 158.09088 261.79236
257.46106 157.96463 260.59634
258.87436 158.25218 262.17911
