ply
format ascii 1.0
comment PCL generated
element vertex 1596
property float x
property float y
property float z
element camera 0
property float view_px
property float view_py
property float view_pz
property float x_axisx
property float x_axisy
property float x_axisz
property float y_axisx
property float y_axisy
property float y_axisz
property float z_axisx
property float z_axisy
property float z_axisz
property float focal
property float scalex
property float scaley
property float centerx
property float centery
property int viewportx
property int viewporty
property float k1
property float k2
end_header
210.342 49.73262 255.95105
210.62392 50.239021 253.92213
211.47325 49.973152 254.73425
211.93825 50.222 253.65057
212.59584 50.213287 253.51201
213.25372 50.204453 253.37155
214.31616 49.680389 255.11896
214.77496 49.928818 254.02928
215.22916 50.177177 252.93881
216.09775 49.910164 253.73402
217.18355 49.385269 255.46889
217.85065 49.375542 255.31532
218.51807 49.3657 255.15976
219.40518 49.097908 255.94328
219.63208 49.603432 253.90248
220.29803 49.593216 253.74168
221.19107 49.324966 254.51807
221.40173 49.830368 252.47554
222.52963 49.30381 254.18535
223.43361 49.035011 254.95331
224.34288 48.765999 255.718
225.01834 48.75489 255.54333
225.93579 48.485481 256.30209
226.37039 48.732277 255.18791
227.54005 48.204308 256.87531
228.22197 48.192596 256.69113
229.15576 47.922447 257.43759
230.34889 47.393715 259.11264
231.29587 47.123077 259.8515
231.98926 47.110718 259.6561
232.4216 47.35672 258.52863
233.37723 47.085594 259.25891
234.07181 47.072868 259.05707
234.22897 47.577293 256.9975
234.64798 47.823105 255.86577
235.88408 47.292717 257.51224
236.57776 47.279594 257.30243
237.27187 47.266373 257.09042
238.24777 46.994171 257.80023
239.51294 46.46286 259.42953
240.78851 45.931259 261.05344
241.20784 46.176445 259.90695
242.49675 45.644432 261.52237
242.91437 45.889503 260.37216
243.9202 45.616264 261.05972
244.3336 45.86129 259.90659
245.94807 45.06929 262.42303
246.36224 45.314209 261.26523
247.38467 45.040436 261.93854
248.10355 45.025948 261.69281
248.82278 45.011421 261.44473
248.9144 45.51593 259.36774
249.6293 45.501457 259.11673
250.34457 45.486992 258.8634
251.06015 45.472534 258.6077
252.42419 44.938629 260.16904
253.14543 44.924103 259.9068
254.85431 44.130127 262.36575
256.57861 43.335907 264.81671
257.64999 43.061287 265.44772
258.72665 42.786659 266.0744
260.14783 42.251984 267.6008
260.55408 42.497444 266.41168
260.26694 43.263382 263.41779
261.69876 42.728867 264.93307
262.44217 42.714775 264.64166
262.48199 43.22139 262.54959
263.22052 43.207726 262.25546
265.38678 42.152847 265.54739
266.1355 42.139458 265.24442
267.24612 41.865875 265.83411
268.72629 41.331985 267.31339
270.21646 40.798225 268.78613
270.97748 40.785789 268.46841
271.73828 40.773705 268.14838
272.12427 41.022667 266.93622
272.50488 41.272095 265.72394
272.88013 41.522049 264.51151
273.24991 41.77253 263.29907
273.6142 42.023575 262.08658
274.36017 42.014381 261.75848
275.4953 41.744881 262.31146
275.85034 41.997681 261.09598
59.983833 53.643333 224.19724
61.40139 54.166138 222.71396
62.421738 54.43119 222.10934
62.281914 53.922363 224.15874
63.300682 54.188278 223.54938
64.694969 54.712555 222.04782
65.701874 54.979095 221.42931
65.578598 54.472031 223.4778
65.838272 54.223366 224.63727
66.103188 53.975082 225.79692
66.373322 53.727165 226.95671
65.918503 52.963997 229.90578
66.566536 52.974609 230.17223
66.854614 52.72773 231.33327
68.220261 53.254189 229.80135
69.220856 53.523041 229.16194
70.56884 54.049576 227.61879
71.90667 54.57608 226.06961
72.88694 54.845055 225.41608
74.551834 55.628956 222.95328
74.147278 54.868263 225.90427
74.77726 54.880028 226.14528
75.407059 54.891876 226.38428
76.036674 54.903793 226.62125
76.333824 54.658569 227.76353
77.625122 55.18499 226.1806
78.578865 55.45414 225.50119
79.202599 55.466156 225.7281
80.470558 55.992233 224.13077
80.449303 55.490231 226.17583
81.389473 55.759205 225.48375
82.009636 55.771202 225.70166
82.317322 55.526348 226.8322
83.249092 55.795147 226.13142
84.482712 56.320538 224.51059
84.792015 56.075661 225.63597
85.408157 56.087467 225.84302
86.323669 56.355827 225.12915
87.233826 56.624031 224.41168
87.844025 56.635601 224.61113
88.45388 56.647106 224.80862
88.773758 56.402145 225.92633
89.385452 56.413559 226.12074
90.281487 56.681213 225.38947
90.890007 56.692429 225.57922
91.218536 56.447361 226.69231
92.383263 56.970802 225.02689
93.262993 57.237846 224.28336
93.865204 57.248642 224.46394
94.467072 57.259338 224.64267
95.335854 57.52594 223.89049
95.14032 56.768559 226.85391
95.221626 56.26725 228.88933
95.8321 56.277729 229.06342
96.184937 56.032291 230.16747
97.561707 56.80994 227.54086
97.913879 56.564285 228.64119
98.520554 56.574303 228.80711
99.126892 56.584206 228.97122
99.977859 56.849636 228.1982
100.33864 56.603699 229.29385
101.66399 57.37989 226.64282
102.26165 57.389236 226.7977
103.3291 57.909393 225.07515
103.68864 57.663013 226.16364
104.28294 57.671989 226.31252
104.42165 57.170155 228.33899
105.24547 57.434284 227.5453
105.61862 57.187672 228.63042
106.6572 57.706745 226.89058
107.03224 57.459946 227.97278
107.62727 57.468269 228.11179
108.22203 57.476479 228.24907
108.81651 57.484566 228.38463
109.20274 57.237476 229.46275
109.59363 56.990334 230.54027
110.19223 56.998158 230.67175
110.99117 57.260834 229.85564
111.5868 57.268383 229.98318
112.57359 57.785656 228.21513
113.55035 58.302696 226.44336
114.13544 58.309788 226.56383
115.09704 58.826424 224.78571
115.67677 58.833241 224.90192
116.25629 58.839951 225.01646
116.83557 58.846546 225.12941
117.41464 58.853031 225.24074
117.6412 58.350044 227.25215
118.05103 58.101707 228.31247
118.46552 57.853325 229.37207
119.05351 57.859486 229.47874
119.6413 57.865543 229.5838
120.22889 57.87149 229.68724
120.9778 58.131863 228.8356
121.24442 57.628559 230.84319
122.14714 58.143181 229.03362
122.57733 57.894222 230.08496
123.01222 57.645203 231.13548
123.60112 57.650543 231.22972
124.33675 57.910175 230.36647
124.77841 57.660912 231.41341
125.50885 57.9203 230.54625
126.09464 57.925205 230.63379
126.54311 57.675705 231.67706
126.99628 57.42614 232.7195
127.71878 57.685066 231.84497
128.1765 57.435333 232.88495
128.89386 57.694027 232.00659
129.73125 58.206806 230.16702
130.19096 57.956799 231.20268
130.77559 57.960922 231.27773
131.47784 58.219124 230.39128
131.94443 57.96888 231.42323
132.52867 57.972717 231.49365
133.33376 58.484707 229.64087
133.80482 58.234222 230.66882
134.38628 58.237766 230.73438
134.8644 57.987141 231.76009
135.34724 57.736446 232.78481
135.83484 57.485691 233.80852
136.32716 57.234867 234.83119
136.91776 57.238018 234.89012
137.32603 56.733036 236.87338
138.00996 56.990025 235.9666
138.43015 56.484924 237.94789
139.11148 56.741726 237.03781
139.78789 56.998402 236.12578
140.45937 57.254971 235.21179
141.04933 57.257484 235.26007
141.71339 57.51384 234.34248
142.37256 57.7701 233.42296
142.88811 57.518421 234.43106
143.47536 57.520576 234.47313
143.99803 57.268757 235.47873
144.52545 57.016861 236.48315
144.99797 56.511017 238.45178
145.4801 56.005108 240.41951
146.08153 56.006889 240.45486
146.73535 56.262444 239.5229
147.43431 56.771751 237.6232
148.02834 56.773254 237.65359
148.62231 56.774673 237.68251
149.21626 56.776012 237.70988
149.85052 57.031094 236.76936
150.47992 57.286079 235.82713
151.06892 57.287151 235.84982
151.69101 57.541962 234.90431
152.27754 57.54287 234.92392
152.86403 57.543701 234.94203
153.39874 57.036823 236.89247
153.99001 57.037498 236.90773
154.56021 56.784286 237.88852
155.11658 56.277191 239.83499
155.73126 56.531422 238.87877
156.31348 56.277966 239.85529
156.91193 56.278233 239.86317
157.51036 56.278423 239.86949
158.09563 55.770931 241.80882
158.69888 55.770943 241.81218
159.30388 56.024673 240.84677
159.90405 56.278328 239.87981
160.49942 56.531906 238.91132
161.07898 57.292988 236.0069
161.68358 56.785004 237.93716
162.27722 56.784531 237.93146
162.87088 56.783989 237.92422
163.49483 56.275738 239.84979
164.12845 55.767403 241.77367
164.71185 56.020401 240.79471
165.37999 55.258064 243.6823
165.98824 55.25708 243.66721
166.56931 55.509838 242.68369
167.17522 55.508686 242.66559
167.78116 55.507458 242.64595
168.35269 55.759979 241.65813
169.03003 55.250893 243.56857
169.6778 54.995544 244.51067
170.24704 55.247826 243.5183
170.94385 54.738434 245.42331
171.51079 54.990547 244.42795
172.02402 55.49646 242.46529
172.6817 55.240658 243.39915
173.34428 54.984749 244.33125
173.8994 55.236553 243.33029
174.50833 55.234367 243.29352
175.2394 54.724258 245.18578
175.78987 54.975815 244.18042
176.53316 54.465469 246.06877
177.28621 53.955002 247.95485
177.9783 53.698357 248.87404
178.45599 54.203529 246.89787
179.1507 53.946686 247.81367
179.61649 54.451721 245.8353
180.15306 54.702698 244.81998
180.85045 54.44558 245.73077
181.638 53.934303 247.60301
182.08482 54.439049 245.61992
182.70218 54.435646 245.56207
183.41209 54.178085 246.46538
184.03209 54.174477 246.4041
184.84682 53.662582 248.26575
185.57162 53.40464 249.16273
186.30141 53.146561 250.0576
186.93158 53.142509 249.98877
187.77589 52.630028 251.84076
188.19232 53.134102 249.84619
188.71104 53.383934 248.81177
189.22505 53.633698 247.77625
189.73434 53.883392 246.73967
190.23895 54.133026 245.70206
190.98196 53.874069 246.58232
191.73001 53.61496 247.46034
192.48305 53.355713 248.33603
193.24112 53.096313 249.20943
194.00423 52.836784 250.08046
194.63864 52.831459 249.99129
195.40938 52.57164 250.85791
196.18515 52.311676 251.72212
196.96599 52.051559 252.58389
197.89531 51.536835 254.3996
198.54282 51.530853 254.30005
199.33884 51.270248 255.1544
199.83844 51.518524 254.09572
200.48654 51.512207 253.99089
200.82364 52.014885 251.97542
201.30923 52.262955 250.91385
201.95068 52.256348 250.80496
202.59235 52.249626 250.69434
203.23422 52.242783 250.58194
204.21199 51.726433 252.37248
205.02948 51.464592 253.20753
205.50668 51.712051 252.13704
206.32956 51.449905 252.96765
207.33516 50.93277 254.74606
207.99071 50.925072 254.62064
208.82901 50.662369 255.44299
210.04234 49.889717 258.16077
210.5211 50.136436 257.07925
210.61557 50.89299 254.10057
211.46475 50.629677 254.91356
212.12437 50.621185 254.77652
212.5871 50.867607 253.69102
213.24486 50.858894 253.55078
214.5092 50.084717 256.24527
214.97037 50.330795 255.15462
215.42691 50.57679 254.06314
216.08832 50.567528 253.91476
217.59779 49.537132 257.53793
218.05528 49.782753 256.44064
218.50818 50.02832 255.34253
219.39511 49.763107 256.12692
219.84375 50.008469 255.02608
220.28778 50.253777 253.92447
221.18066 49.988098 254.70175
221.84964 49.977715 254.53664
222.51895 49.967209 254.36951
223.18863 49.956551 254.20041
224.09528 49.690155 254.96669
225.0072 49.423553 255.72966
225.92444 49.156746 256.48929
226.84702 48.889717 257.24561
227.77493 48.622482 257.99854
228.4592 48.610863 257.81393
229.39529 48.343239 258.5607
230.33675 48.075424 259.30396
231.02713 48.063347 259.11169
231.71791 48.051132 258.91733
232.14767 48.294861 257.79013
233.10065 48.026382 258.52209
234.05902 47.757675 259.25052
235.02274 47.488777 259.97525
235.44916 47.732124 258.84091
236.41867 47.462906 259.55981
236.84091 47.706139 258.42255
237.5374 47.692978 258.21008
238.51564 47.423309 258.92014
239.4993 47.153442 259.62643
241.06104 46.370361 262.1752
241.19395 46.869713 260.10516
242.48267 46.342735 261.72229
242.90027 46.585442 260.57169
243.6096 46.57148 260.34033
244.02048 46.814201 259.18759
245.33084 46.28653 260.78903
246.04388 46.272324 260.54996
247.3701 45.744247 262.14172
247.78001 45.986801 260.98056
248.4967 45.972397 260.73367
248.89981 46.215042 259.57043
248.98178 46.714874 257.4935
249.37302 46.957733 256.33005
250.72404 46.429047 257.89996
251.76144 46.15744 258.5535
252.8042 45.885742 259.20291
254.83951 44.841873 262.57379
256.56369 44.055077 265.02719
257.96918 43.525482 266.56589
258.71176 43.51078 266.2869
259.79376 43.238602 266.91025
260.53931 43.22403 266.6254
260.25244 43.982552 263.62964
261.68427 43.452942 265.14661
261.72928 43.954323 263.05371
262.4679 43.94043 262.76218
263.20663 43.926727 262.46823
265.01602 43.139511 264.86545
265.76242 43.126068 264.56372
267.2327 42.596893 266.05118
268.34857 42.325844 266.63733
269.83643 41.796898 268.11276
270.96475 41.526222 268.68893
272.09796 41.255814 269.26062
272.48685 41.502075 268.04678
273.24756 41.490585 267.7222
273.24866 41.99604 265.61862
273.62146 42.24379 264.40439
273.9888 42.492096 263.19009
274.35062 42.740952 261.97589
275.48627 42.473587 262.52963
276.62637 42.206749 263.07895
60.775963 54.777039 222.61449
62.188927 55.295147 221.12756
63.204674 55.557949 220.51999
63.060303 55.054192 222.5686
64.074409 55.317806 221.95628
65.083817 55.581734 221.33997
65.710892 55.590412 221.60957
65.588013 55.088432 223.65942
66.220619 55.097847 223.92735
66.113266 54.596687 225.97978
67.118797 54.862129 225.35165
67.024315 54.361702 227.40538
67.665016 54.372299 227.66855
67.94577 54.127838 228.82709
68.58905 54.138893 229.08722
69.232323 54.150131 229.34529
70.58036 54.671791 227.80054
71.918243 55.193413 226.24973
72.551224 55.204926 226.49763
74.563461 56.236519 223.13008
74.843781 55.993111 224.27437
75.468796 56.00478 224.51324
76.093628 56.016529 224.75011
76.718285 56.028355 224.98489
76.67823 55.530712 227.03395
77.966957 56.052143 225.44841
78.590942 56.064095 225.67712
79.539398 56.330681 224.99287
80.482567 56.597191 224.30478
80.461418 56.100063 226.35098
81.084351 56.112045 226.57158
81.707008 56.124031 226.79012
82.017242 55.881638 227.92195
82.951431 56.147942 227.22113
84.801689 57.176952 223.7653
85.413094 57.188633 223.97238
86.024193 57.200272 224.17747
86.934586 57.465996 223.461
87.542542 57.477486 223.66133
87.855553 57.234879 224.78094
88.465347 57.246292 224.9782
88.78521 57.003704 226.09631
89.39682 57.015015 226.29048
90.008118 57.026272 226.48265
90.619049 57.037437 226.67294
90.390762 56.287243 229.63914
91.83992 57.059525 227.04768
92.724487 57.324108 226.3047
93.603745 57.588505 225.55832
94.208015 57.599148 225.73752
94.811943 57.609684 225.91486
95.150826 57.366634 227.02072
94.969887 56.616661 229.98837
95.582733 56.627079 230.16292
95.937988 56.384018 231.2681
97.317009 57.154251 228.63991
97.923904 57.164265 228.80745
98.780304 57.427418 228.03856
99.384064 57.437172 228.20177
100.23239 57.699986 227.4272
100.59062 57.456352 228.52266
101.43338 57.718876 227.74315
102.0334 57.728142 227.89845
103.33815 58.496353 225.23648
103.69762 58.252308 226.32542
104.52188 58.514118 225.53436
104.88568 58.269928 226.62103
105.47928 58.278561 226.7662
105.84988 58.034248 227.8512
106.66559 58.29549 227.05136
107.04056 58.051029 228.134
107.85078 58.311977 227.32954
108.44296 58.320042 227.46608
108.82448 58.075336 228.54527
109.41858 58.08321 228.67892
110.01241 58.090977 228.81085
110.40295 57.846054 229.88713
111.1993 58.106155 229.06964
111.79236 58.113583 229.19647
112.77654 58.625835 227.42644
113.3642 58.632973 227.5489
114.14241 58.892414 226.72108
114.9155 59.151695 225.89059
115.68347 59.410805 225.0575
116.26287 59.417423 225.17189
117.02305 59.676228 224.33414
117.42101 59.430325 225.39586
117.82364 59.184361 226.45692
118.40462 59.190578 226.56532
118.81415 58.944473 227.62456
119.22836 58.69833 228.68303
119.97995 58.956421 227.83424
120.56256 58.962227 227.93669
121.30647 59.220039 227.0834
121.7272 58.973549 228.13678
122.46587 59.231102 227.27948
122.73692 58.732414 229.2859
123.01755 58.233715 231.2923
123.60635 58.238976 231.3864
124.19498 58.244129 231.47893
124.63899 57.997246 232.52675
125.37173 58.254147 231.65919
126.09945 58.510906 230.78932
126.54783 58.263756 231.83316
127.00092 58.016544 232.87613
127.591 58.02113 232.95952
128.18095 58.025608 233.04134
128.77074 58.029987 233.12161
129.48541 58.286064 232.24065
129.94991 58.038464 233.27745
130.65945 58.294312 232.39272
131.364 58.550034 231.50586
131.94827 58.553905 231.57773
132.64531 58.809399 230.68687
133.33737 59.064758 229.79393
133.70032 58.56496 231.78418
134.2841 58.568466 231.84991
134.76457 58.320232 232.87643
135.24976 58.071918 233.90199
135.7397 57.823547 234.9265
136.23436 57.575123 235.94997
136.92081 57.829819 235.04582
137.23792 57.07806 237.99377
137.92416 57.332588 237.0865
138.43297 57.08387 238.10524
139.19804 57.589748 236.23026
139.7905 57.592403 236.28172
140.6199 58.349564 233.43781
141.12836 58.100502 234.45044
141.71573 58.102879 234.49695
142.3748 58.356667 233.57678
142.95963 58.358868 233.62009
143.47745 58.109497 234.62746
144.00003 57.860062 235.63364
144.52739 57.610561 236.63864
145.05951 57.360985 237.64249
145.53915 56.859898 239.61124
146.08324 56.610191 240.61275
146.73695 56.863289 239.68013
147.3858 57.116299 238.74568
147.98216 57.117775 238.7762
148.57848 57.119179 238.80518
149.2603 57.623329 236.89874
149.89207 57.875961 235.95747
150.51897 58.128498 235.0145
151.10547 58.129555 235.03703
151.72507 58.381927 234.09077
152.3091 58.382813 234.11028
152.86479 58.132229 235.09578
153.42531 57.88158 236.07991
153.99063 57.630859 237.06268
154.53969 57.128662 239.01178
155.11703 56.877785 239.99184
155.73164 57.129589 239.03497
156.31378 56.878555 240.01208
156.92354 57.130192 239.05212
157.52846 57.381744 238.09062
158.10883 56.879093 240.03114
158.703 56.627739 241.00233
159.30377 56.62767 241.00417
159.90387 56.878899 240.03659
160.50221 56.878681 240.03537
161.07863 57.883888 236.16116
161.69104 57.129368 239.06056
162.2767 57.380287 238.08699
162.88301 57.128365 239.04759
163.50928 56.624962 240.9744
164.16278 55.870087 243.86723
164.75093 56.120682 242.88754
165.40141 55.617004 244.80934
166.01201 55.616024 244.79422
166.59541 55.866383 243.81003
167.20364 55.865242 243.79187
167.77989 56.115444 242.80481
168.35135 56.365559 241.81641
168.99173 56.11277 242.76096
169.55844 56.362736 241.76964
170.16206 56.361191 241.74399
170.85393 55.856693 243.6505
171.41595 56.106411 242.6548
172.02216 56.104618 242.62439
172.67975 55.851273 243.55894
173.28848 55.849293 243.52534
173.84108 56.098713 242.52393
174.50612 55.845074 243.45346
175.23706 55.339859 245.34702
175.85091 55.337505 245.30688
176.66235 54.580528 248.16199
177.48837 53.82341 251.01451
178.11694 53.82074 250.96857
178.52632 54.572617 248.0258
179.29884 54.066689 249.90697
179.69147 54.818459 246.9623
180.15001 55.318626 244.98172
180.84731 55.063988 245.89322
181.63474 54.55761 247.76682
182.0815 55.057556 245.7825
182.69875 55.054214 245.72475
183.40857 54.799126 246.62878
184.02846 54.795578 246.56757
184.74576 54.54026 247.46767
185.36832 54.536507 247.40298
186.29742 53.777557 250.22386
186.92749 53.773552 250.15517
187.66469 53.517723 251.04668
188.07863 54.017014 249.05121
188.70668 54.012741 248.9778
189.2206 54.260155 247.94174
189.72983 54.507492 246.90463
190.23433 54.754761 245.86649
191.09879 54.246468 247.70761
191.84912 53.989845 248.58607
192.47807 53.984955 248.50273
193.10718 53.979965 248.41772
193.86774 53.722954 249.28987
194.6333 53.465797 250.15964
195.4039 53.208496 251.02701
196.31812 52.699074 252.84976
197.10124 52.441437 253.71198
197.88942 52.183678 254.57169
198.5368 52.177773 254.47227
199.33269 51.919701 255.32741
199.8322 52.165634 254.26823
200.48019 52.159401 254.16356
200.81721 52.65731 252.14691
201.46075 52.650887 252.03954
202.265 52.392174 252.88469
202.5856 52.8899 250.86566
203.22737 52.883156 250.75343
204.03716 52.624054 251.59239
204.85207 52.364754 252.42877
205.32674 52.609917 251.3582
206.147 52.350342 252.19006
207.32755 51.585846 254.92165
207.98299 51.578247 254.79642
209.00359 51.065681 256.56985
209.84935 50.805328 257.38977
210.1382 51.302231 255.35896
210.41754 51.799133 253.32828
211.2641 51.538399 254.14262
211.72644 51.782631 253.0585
212.57849 51.521576 253.86813
213.23611 51.512985 253.72807
214.29816 50.998924 255.47856
214.75677 51.242706 254.38797
215.41774 51.233688 254.24171
216.07903 51.224541 254.09357
217.58821 50.204056 257.71957
218.04562 50.44735 256.62186
218.71524 50.437714 256.46622
219.16589 50.680847 255.36632
220.05547 50.418053 256.14905
220.27765 50.913994 254.10524
221.39705 50.397858 255.82401
222.06836 50.387558 255.65852
222.97163 50.124046 256.43033
223.64612 50.113457 256.26019
224.08441 50.355911 255.15002
224.99617 50.091888 255.91393
226.39627 49.321136 258.54803
226.59167 49.816505 256.49564
227.76338 49.298553 258.18561
228.69644 49.033691 258.93607
229.63486 48.768616 259.68307
230.07083 49.010254 258.55978
231.01498 48.744843 259.30124
231.1879 49.239868 257.24304
232.13535 48.974167 257.97955
233.08817 48.70826 258.71249
233.78 48.695847 258.51193
234.74109 48.429565 259.2384
235.43625 48.416847 259.03284
235.858 48.657867 257.89734
236.27518 48.898857 256.76117
237.24536 48.632004 257.47672
237.93967 48.618919 257.26309
239.20197 48.097725 258.89655
240.76096 47.322182 261.44849
241.18018 47.562675 260.30121
242.17743 47.294868 260.9978
242.59247 47.535294 259.84756
243.29922 47.521484 259.61737
243.70755 47.761894 258.46506
245.31659 46.984955 260.98801
246.33337 46.716446 261.66736
247.35562 46.447769 262.34274
248.07439 46.433456 262.0976
248.48218 46.673653 260.93457
248.88531 46.913902 259.77097
248.96735 47.408897 257.6929
249.67755 47.394653 257.44196
250.70952 47.125656 258.10065
251.74689 46.85656 258.75525
253.11609 46.332527 260.31583
254.82471 45.553421 262.7796
256.21725 45.028969 264.32715
257.62015 44.504387 265.86847
259.03345 43.97966 267.40363
259.77887 43.965004 267.12152
260.18289 44.205582 265.93243
259.89374 44.956749 262.93576
260.97638 44.687355 263.5528
261.36578 44.928566 262.36234
262.10205 44.914688 262.07199
262.83838 44.900978 261.7793
264.28848 44.376564 263.28137
265.03003 44.363144 262.98187
266.49536 43.838882 264.47302
267.97083 43.314697 265.95767
269.08939 43.046219 266.54132
270.5824 42.522293 268.01389
272.08536 41.99852 269.47983
272.84918 41.98642 269.15662
273.23572 42.230476 267.94089
273.61691 42.474998 266.72504
273.99274 42.720024 265.50906
274.3631 42.965584 264.29303
274.72794 43.211693 263.077
276.25632 42.690521 264.51501
277.79419 42.169785 265.94638
60.782875 55.394482 222.79538
62.196228 55.90794 221.30702
63.212379 56.168514 220.69873
63.068489 55.669884 222.74873
63.700294 55.678082 223.02422
65.472778 56.446026 220.62889
66.475243 56.707909 220.00665
66.347702 56.210915 222.05571
65.857918 55.461353 224.99997
66.493492 55.471222 225.26691
67.129204 55.481354 225.53186
67.035042 54.985947 227.58684
68.400856 55.502308 226.05579
69.396683 55.765911 225.41664
70.030037 55.776848 225.67255
70.663376 55.78796 225.92639
71.64901 56.051899 225.2771
72.97937 56.568508 223.72166
73.604889 56.579899 223.96643
75.264679 57.348995 221.49696
75.540092 57.10796 222.63977
76.499886 57.371975 221.97052
77.117241 57.383579 222.20425
77.399666 57.142895 223.34389
77.354721 56.650055 225.39223
77.978973 56.661934 225.62274
78.930153 56.926052 224.94051
79.551399 56.937935 225.16602
80.494507 57.201931 224.47699
80.473457 56.709663 226.52434
81.413513 56.973614 225.83034
81.719032 56.733524 226.96292
82.34137 56.745422 227.17917
83.582558 57.261021 225.5596
85.734634 58.531849 221.18127
86.033913 58.291534 222.30417
86.337883 58.051277 223.42679
86.946106 58.062737 223.6288
87.554001 58.074139 223.82889
87.572441 57.582325 225.87083
89.060852 58.348301 223.30045
89.375679 58.107967 224.41742
89.982231 58.119099 224.60974
90.303871 57.878754 225.72522
90.912239 57.889778 225.91444
90.401901 56.895485 229.80835
91.850845 57.660305 227.21457
92.460678 57.671108 227.39882
93.614403 58.184174 225.72336
93.948929 57.943573 226.83195
94.822403 58.205135 226.07939
94.896553 57.713383 228.11678
95.242493 57.472691 229.22334
95.593048 57.231987 230.32945
95.948227 56.991261 231.43507
97.327019 57.75404 228.80463
97.933807 57.763935 228.97194
99.039848 58.27533 227.26689
99.641037 58.284939 227.42917
100.48674 58.545155 226.65306
100.84242 58.30381 227.74832
101.92247 58.814384 226.0294
102.28001 58.572861 227.12172
103.58205 59.333588 224.45689
104.17149 59.342373 224.60591
104.76062 59.351059 224.75314
104.89432 58.8587 226.78065
105.71291 59.117653 225.98402
106.08098 58.875641 227.06886
106.67389 58.883945 227.21034
106.83104 58.391491 229.23683
107.64357 58.649921 228.4321
108.02528 58.407661 229.5135
108.20126 57.915131 231.53934
109.21843 58.423382 229.78323
109.81459 58.431065 229.91556
110.41051 58.438641 230.04614
111.20671 58.696201 229.22781
111.99776 58.95359 228.40674
112.58801 58.960773 228.5312
113.56442 59.467857 226.75647
114.1493 59.474762 226.87659
114.73393 59.481548 226.99509
115.50421 59.738159 226.16167
116.26936 59.994598 225.32565
117.02941 60.250881 224.48708
117.42729 60.007317 225.5493
117.82983 59.763699 226.61087
118.23705 59.520027 227.67174
118.64894 59.276299 228.7319
118.89674 58.78278 230.74483
119.81943 59.28812 228.94217
120.56827 59.543564 228.09055
121.15057 59.549187 228.19125
121.7327 59.55471 228.29037
122.62782 60.059368 226.47673
122.89639 59.565453 228.48387
123.32625 59.321087 229.53465
123.76079 59.076668 230.58464
124.49374 59.331257 229.71948
124.78839 58.837166 231.72461
125.51858 59.091545 230.85593
125.96461 58.846828 231.90149
126.41534 58.602062 232.94618
127.00549 58.606659 233.03107
127.4632 58.361752 234.07365
128.18533 58.615585 233.19604
128.77502 58.6199 233.27621
129.48958 58.87347 232.39453
129.95399 58.628235 233.43185
130.54327 58.632259 233.50734
131.13242 58.636196 233.58127
131.83675 58.889343 232.69209
132.53609 59.142361 231.80081
133.34093 59.644524 229.94531
133.59578 58.900265 232.89915
134.1819 58.903725 232.96509
134.6647 58.657875 233.99242
135.25302 58.66116 234.05559
135.64453 58.165974 236.04408
136.14154 57.919922 237.06837
136.92381 58.421333 235.1998
137.24086 57.6768 238.14958
137.83835 57.679707 238.20602
138.43573 57.682514 238.26093
139.28453 58.432632 235.41975
139.8745 58.43523 235.47095
140.62236 58.935959 233.59015
141.20732 58.938377 233.63789
141.71803 58.69162 234.64978
142.30525 58.693871 234.69475
142.89241 58.696049 234.73816
143.41257 58.449081 235.74626
144.002 58.451084 235.7869
144.52928 58.203968 236.7925
145.121 58.205826 236.83023
145.59816 57.709538 238.80008
146.13976 57.462223 239.80202
146.79097 57.712868 238.86858
147.3873 57.714409 238.90056
147.93599 57.466862 239.89835
148.53464 57.468243 239.9274
149.17601 57.718536 238.98738
149.81252 57.968742 238.04562
150.44415 58.218849 237.1022
151.0354 58.219891 237.12491
151.65974 58.469841 236.17816
152.24852 58.470711 236.19781
152.80898 58.222549 237.18404
153.40012 58.22327 237.20078
153.96776 57.974964 238.18422
154.54022 57.726566 239.16629
155.11748 57.4781 240.14699
155.71577 57.478512 240.15785
156.30025 57.229897 241.13564
156.90094 57.230148 241.14352
157.5106 57.479286 240.18141
158.10229 57.230427 241.15474
158.70714 57.479397 240.18958
159.3019 56.981426 242.1284
159.90367 57.479191 240.1917
160.50194 57.47897 240.19049
161.08377 58.225536 237.28227
161.69852 57.478287 240.18353
162.28651 57.726795 239.20932
162.89514 57.477295 240.17052
163.52374 56.978748 242.09854
164.16202 56.480103 244.0249
164.71017 57.226234 241.10799
165.33337 56.976398 242.06288
165.93663 56.975452 242.04796
166.53992 56.97443 242.03148
167.11363 57.222301 241.04547
167.71458 57.221115 241.02603
168.31558 57.219852 241.00507
168.99031 56.720505 242.9182
169.55695 56.968075 241.92628
170.20216 56.717533 242.86827
170.85226 56.466919 243.80847
171.46072 56.465225 243.77954
172.06924 56.463448 243.74905
172.72917 56.212543 244.68417
173.28647 56.459641 243.68346
173.89517 56.457611 243.64833
174.56253 56.206429 244.57837
175.29579 55.706074 246.4731
175.91196 55.703754 246.43288
176.65987 55.203171 248.3235
177.48576 54.453354 251.17796
178.11426 54.450729 251.1321
178.52356 55.195381 248.1875
179.22047 54.943474 249.10449
179.68854 55.438892 247.12349
180.22737 55.685101 246.10686
180.84421 55.682087 246.05394
181.71671 54.931427 248.89355
182.25342 55.177383 247.87231
182.87541 55.174057 247.81418
183.58997 54.921432 248.71844
184.11975 55.16713 247.69308
184.83937 54.914291 248.59363
185.46425 54.910576 248.52879
186.39563 54.158943 251.35141
186.92348 54.404289 250.31976
187.76753 53.901649 252.17448
188.18382 54.396126 250.17758
188.70238 54.641243 249.14206
189.33047 54.636932 249.06714
189.72536 55.131271 247.06784
190.34889 55.126801 246.99019
191.21562 54.623413 248.8324
191.84431 54.618706 248.75084
192.59955 54.364449 249.62772
193.23099 54.359505 249.54251
193.86259 54.354469 249.45564
194.7617 53.850319 251.28526
195.53462 53.595505 252.15308
196.4511 53.091003 253.97687
197.23653 52.835876 254.83946
198.17041 52.331001 256.65729
198.82256 52.325157 256.55725
199.32663 52.568817 255.49855
199.97676 52.562752 255.39543
200.47394 52.806259 254.33437
200.96646 53.049706 253.27232
201.45432 53.293083 252.20934
202.25842 53.036896 253.05528
202.74184 53.280083 251.98964
203.38593 53.273415 251.87712
204.03026 53.266632 251.76283
204.84502 53.00988 252.59999
205.3196 53.252708 251.52896
205.96463 53.245567 251.40935
207.32005 52.238594 255.09532
208.15535 51.98114 255.92165
208.99579 51.723511 256.74521
209.8414 51.465698 257.56595
210.3175 51.707809 256.48395
210.21968 52.700066 252.55278
211.25586 52.191811 254.3174
211.52344 52.683853 252.28439
212.17574 52.67556 252.14745
213.02791 52.416946 252.95601
214.08731 51.907906 254.70857
214.74786 51.899139 254.56441
215.61565 51.639954 255.36414
216.06985 51.881218 254.27042
217.36691 51.120972 256.95462
218.03607 51.111603 256.80112
218.70557 51.102089 256.64569
219.37538 51.092445 256.48831
220.04553 51.08268 256.32898
220.49185 51.323326 255.22588
221.1602 51.313324 255.0632
221.82892 51.303192 254.89856
222.96114 50.791634 256.61188
223.63548 50.781181 256.44199
224.3102 50.770592 256.27011
224.74628 51.010635 255.15814
226.14365 50.247414 257.79514
226.33652 50.738052 255.74229
227.25914 50.476059 256.49841
228.18709 50.21386 257.25116
229.37173 49.700478 258.93524
229.80515 49.93985 257.81223
230.74664 49.677055 258.5553
231.17586 49.916275 257.42941
232.12314 49.65316 258.16687
233.07578 49.389832 258.90079
233.76752 49.377533 258.70053
234.72842 49.113846 259.42795
235.69472 48.849945 260.15173
235.84515 49.339943 258.08679
236.26227 49.578606 256.95026
237.2323 49.314339 257.66672
237.92648 49.301376 257.4534
239.1886 48.78521 259.08853
240.46109 48.268761 260.71829
240.87778 48.506966 259.57144
241.87236 48.241791 260.26978
242.28488 48.479912 259.12003
243.28531 48.214478 259.81223
243.99237 48.200691 259.58005
245.30243 47.683075 261.18488
246.31912 47.417114 261.86526
247.34122 47.151016 262.5416
247.75114 47.388832 261.37967
248.1564 47.626701 260.2171
248.24319 48.116776 258.13855
248.32028 48.607018 256.06119
249.3443 48.340721 256.72592
250.05231 48.326591 256.47382
251.08455 48.060127 257.1312
252.77505 47.28878 259.6062
254.48102 46.517151 262.07333
255.87094 45.997734 263.62347
257.60529 45.225616 266.07556
259.35507 44.453239 268.51959
260.10309 44.438553 268.23682
260.50977 44.676628 267.04636
260.5675 45.167648 264.95105
261.30862 45.153374 264.66388
262.0499 45.139244 264.37421
262.43964 45.37812 263.18085
263.17868 45.364319 262.88736
264.63141 44.844734 264.39008
265.73499 44.578163 264.98807
266.84369 44.311737 265.58154
267.95743 44.045441 266.17059
268.70929 44.032478 265.85999
270.19998 43.51339 267.33521
271.32867 43.247688 267.91074
271.33881 43.742065 265.80591
272.09265 43.730316 265.48483
272.46671 43.972305 264.27161
273.21744 43.961388 263.94696
273.96783 43.950897 263.62009
275.10495 43.687416 264.17749
276.63629 43.170845 265.61588
278.17715 42.654709 267.04755
60.0047 55.510353 224.7442
61.423485 56.019203 223.25662
62.057404 56.026833 223.53688
61.921516 55.533394 225.59158
62.561256 55.541885 225.87029
65.101669 56.804062 221.69536
66.106941 57.06369 221.07338
65.9823 56.571777 223.12482
66.24044 56.330856 224.28503
66.503746 56.090275 225.44543
66.77224 55.850029 226.60591
66.680901 55.359661 228.66321
68.049362 55.871235 227.13161
69.047844 56.132488 226.49261
70.041267 56.393833 225.84952
70.319901 56.154724 227.00401
71.660469 56.666489 225.45302
72.990852 57.178211 223.89597
73.616486 57.189613 224.1405
74.931465 57.70126 222.57349
75.209526 57.462727 223.71776
76.17186 57.724323 223.04854
76.454582 57.486015 224.19069
77.07682 57.497753 224.42406
77.034523 57.009846 226.47449
77.661316 57.021732 226.70569
78.614975 57.283398 226.02344
79.563347 57.544983 225.3373
80.184334 57.55682 225.5605
80.165871 57.06945 227.60991
81.42543 57.580482 226.00087
81.730972 57.342773 227.1339
82.353279 57.354603 227.34988
83.594337 57.865219 225.72867
85.132088 58.624966 223.18355
84.522804 57.639179 227.06645
85.443321 57.900055 226.35342
86.058998 57.911568 226.55769
86.674324 57.923019 226.75998
86.700287 57.43615 228.80551
88.780022 58.692978 224.3884
89.097321 58.455048 225.50661
89.706284 58.466118 225.69946
90.03038 58.228176 226.81615
90.923187 58.488041 226.07936
90.412949 57.503441 229.97571
91.58461 58.011993 228.30772
92.471397 58.2715 227.56364
93.624947 58.779556 225.88658
93.959419 58.54129 226.99562
94.832741 58.800297 226.24214
95.436142 58.810528 226.41708
95.5149 58.323532 228.45517
96.122574 58.333637 228.62781
96.729919 58.343639 228.7986
97.591629 58.601967 228.03297
97.943596 58.363316 229.13461
99.049454 58.869713 227.42801
99.650513 58.879192 227.59009
100.74089 59.385136 225.87584
101.33638 59.394329 226.03299
102.41129 59.899822 224.31123
102.76382 59.660557 225.40271
103.59084 59.917511 224.61409
104.18016 59.926193 224.76286
104.53918 59.686707 225.85095
104.67529 59.199165 227.88017
105.27112 59.207611 228.02556
105.86666 59.215954 228.16917
106.46191 59.224178 228.31107
107.05688 59.2323 228.45122
108.29729 59.983849 225.75589
108.88432 59.991638 225.8909
109.05044 59.50375 227.91563
109.64185 59.511379 228.04837
110.23301 59.518906 228.17938
110.62093 59.278614 229.25609
111.41454 59.533611 228.43639
112.203 59.788433 227.61398
112.79069 59.795483 227.73776
113.57131 60.049992 226.91048
114.15607 60.056789 227.03046
114.7406 60.063488 227.14877
115.51074 60.317566 226.31454
116.27576 60.57148 225.47774
117.03568 60.825241 224.63834
117.25497 60.336601 226.65341
117.65988 60.095356 227.71593
118.24309 60.101418 227.82448
118.65489 59.860035 228.88515
119.07138 59.618603 229.94507
119.65886 59.62439 230.0497
120.57388 60.124607 228.24274
120.99465 59.882904 229.29872
121.5791 59.888367 229.39813
122.31995 60.140923 228.53972
122.74747 59.898987 229.59218
123.17967 59.656994 230.64386
123.61658 59.414951 231.69473
124.35184 59.667053 230.82924
124.79326 59.424858 231.8777
125.52333 59.676735 231.00826
125.96928 59.434372 232.05434
126.41994 59.191956 233.09956
126.8753 58.949471 234.14392
127.46762 58.953922 234.22745
128.0598 58.958286 234.30939
128.65182 58.962551 234.38977
129.36868 59.21365 233.50768
129.83545 58.970795 234.54585
130.42706 58.974777 234.62154
131.01854 58.978661 234.69568
131.84047 59.476208 232.84395
132.53972 59.726749 231.95193
133.34444 60.22401 230.09508
133.81529 59.980629 231.12463
134.18527 59.490372 233.11653
134.668 59.24688 234.14444
135.15547 59.003334 235.17133
135.54933 58.512947 237.16127
136.04869 58.269283 238.18636
136.73978 58.519073 237.28122
137.06161 57.781773 240.23331
137.57518 57.537926 241.25513
138.26598 57.787441 240.34538
139.11951 58.530262 237.50273
139.7142 58.532841 237.55429
140.54579 59.275398 234.70668
141.13309 59.277779 234.75458
141.64615 59.033413 235.76724
142.2357 59.035641 235.8123
142.75586 58.791142 236.82248
143.28078 58.546566 237.83153
143.93945 58.795193 236.90544
144.53116 58.797112 236.94463
145.18245 59.045544 236.01506
145.65712 58.554062 237.98595
146.19623 58.309128 238.98834
146.79253 58.310726 239.02179
147.33878 58.065647 240.02158
147.88979 57.820499 241.02008
148.49077 57.821861 241.04922
149.17725 58.316299 239.14046
149.81366 58.56406 238.19807
150.40727 58.56517 238.22235
151.00087 58.566196 238.24512
151.62753 58.813702 237.29785
152.18794 58.568027 238.28616
152.78143 58.568813 238.30444
153.40077 58.816074 237.35245
153.96835 58.570175 238.33647
154.56178 58.570728 238.35027
155.13655 58.324669 239.33151
155.69991 57.831993 241.28035
156.28671 57.585793 242.25874
156.88974 57.586044 242.26666
157.49277 57.586224 242.27303
158.08919 57.339783 243.24702
158.70294 57.832863 241.31215
159.30003 57.339725 243.25223
159.9048 57.586128 242.28339
160.50475 57.832443 241.31303
161.08891 58.571762 238.40295
161.71388 57.585232 242.27516
162.29631 58.077862 240.33124
162.90727 57.830784 241.29305
163.52309 57.583622 242.25328
164.17882 56.843292 245.14984
164.72931 57.582169 242.23105
165.35483 57.334763 243.18652
165.96043 57.333824 243.17155
166.53886 57.579369 242.18631
167.1125 57.824848 241.19968
167.74539 57.577106 242.14886
168.31427 57.822445 241.15932
168.91522 57.821121 241.13686
169.51622 57.819714 241.11288
170.20061 57.325035 243.02385
170.80652 57.323456 242.99661
171.459 57.075195 243.93582
172.11635 56.826828 244.87326
172.77859 56.578373 245.8089
173.33824 56.823067 244.80751
173.94928 56.82106 244.77228
174.61896 56.572327 245.70284
175.29353 56.32349 246.63155
175.90961 56.321213 246.59134
176.59158 56.072178 247.51642
177.41496 55.329685 250.37297
178.1116 55.080421 251.29384
178.52084 55.817844 248.34744
179.21765 55.568401 249.26512
179.76357 55.812305 248.2489
180.22441 56.302864 246.26575
180.92392 56.053143 247.17845
181.88388 55.063034 250.98512
182.42534 55.306591 249.96289
183.05209 55.303299 249.90437
183.67896 55.299911 249.84427
184.21107 55.54324 248.8181
184.83572 55.539688 248.75491
185.46051 55.536037 248.69017
186.28964 55.038589 250.5511
186.81499 55.281586 249.51917
187.54953 55.030754 250.41238
188.0703 55.273575 249.37775
188.69815 55.269436 249.30455
189.21191 55.512123 248.26744
189.83763 55.507805 248.19124
190.46349 55.503391 248.11339
191.211 55.251884 248.99529
191.96353 55.000244 249.87489
192.72107 54.748474 250.75221
193.35483 54.743591 250.66678
194.11998 54.491554 251.53976
194.7565 54.48645 251.45062
195.66537 53.987053 253.27856
196.44562 53.734581 254.14436
197.08998 53.729103 254.04906
197.8779 53.476357 254.91032
198.67088 53.223457 255.76912
199.32068 53.217606 255.66785
199.82001 53.458855 254.60768
200.46777 53.452812 254.50328
200.96021 53.693916 253.44077
201.44798 53.934952 252.37732
202.09152 53.928604 252.26848
202.73526 53.92215 252.15788
203.37924 53.915581 252.04553
204.02345 53.908882 251.93143
205.00824 53.407257 253.72321
205.48518 53.64772 252.65126
206.3076 53.393196 253.48428
207.31267 52.890991 255.26712
208.14781 52.636101 256.09424
208.80569 52.628563 255.96707
209.83354 52.125755 257.74017
210.12227 52.613136 255.70717
210.40147 53.10051 253.67427
210.86334 53.340225 252.59109
211.3206 53.579865 251.50708
212.16742 53.32399 252.3194
212.81989 53.315689 252.18079
213.87665 52.811684 253.93533
214.73906 52.555244 254.73891
215.39978 52.546463 254.59308
215.85144 52.785461 253.49942
217.1458 52.0327 256.18634
217.81238 52.023468 256.03366
218.47926 52.01413 255.879
219.14648 52.004646 255.72241
220.03574 51.746971 256.50696
220.48195 51.985291 255.40343
221.60339 51.479172 257.12466
221.81876 51.965439 255.07655
222.71922 51.707108 255.85078
223.62498 51.44857 256.6218
224.53604 51.189827 257.38953
224.97452 51.427521 256.27649
226.61554 50.423355 259.85321
226.81332 50.909164 257.79797
227.24794 51.146561 256.68011
228.17572 50.88694 257.43378
229.36017 50.378586 259.11945
229.79349 50.615646 257.99603
230.73482 50.355446 258.74005
231.42273 50.343674 258.54718
232.11105 50.331795 258.3522
233.06354 50.07106 259.08704
233.75514 50.058899 258.88705
234.98462 49.548965 260.54596
235.68204 49.536484 260.34018
235.83243 50.021713 258.27414
236.2495 50.258041 257.13724
236.94067 50.245361 256.92715
237.35106 50.481628 255.78813
238.89166 49.721489 258.35245
240.16147 49.210114 259.98465
240.86429 49.196846 259.7626
241.85873 48.93425 260.46191
242.56491 48.920746 260.23462
243.56772 48.657822 260.927
244.27722 48.644119 260.69427
245.28838 48.380882 261.37964
246.30493 48.117516 262.06097
247.32693 47.853966 262.73831
247.73685 48.089432 261.57599
247.83084 48.57457 259.49609
248.22896 48.810181 258.33344
247.98981 49.545326 255.3398
249.01123 49.281609 256.00641
250.03802 49.017784 256.66888
251.39409 48.503967 258.23975
252.76057 47.989944 259.80463
254.4664 47.225746 262.27417
256.18768 46.461273 264.73575
257.59048 45.946609 266.28049
259.00366 45.431793 267.819
260.08823 45.167007 268.4444
260.83655 45.15242 268.15942
260.55292 45.888748 265.15707
261.29413 45.874489 264.87012
262.03555 45.860336 264.58075
262.42548 46.096733 263.38693
263.16467 46.082893 263.09372
264.61743 45.568199 264.59805
265.36191 45.554611 264.29797
266.46823 45.290604 264.89346
267.94394 44.7761 266.38132
269.42978 44.261642 267.86264
270.5563 43.998016 268.44254
271.31589 43.985382 268.12418
271.70087 44.223885 266.91074
272.45758 44.211952 266.58868
272.45508 44.702171 264.48328
273.58826 44.440117 265.04819
274.7262 44.178406 265.60864
275.48166 44.168083 265.27737
276.62631 43.907196 265.82999
278.55978 43.144615 268.14807
59.226883 55.636097 226.69408
60.260956 55.891975 226.09396
61.290436 56.148224 225.48973
61.54509 55.908215 226.65918
62.187706 55.916908 226.9389
64.350761 56.918797 223.65251
65.738846 57.424351 222.13977
65.242081 56.689365 225.08681
65.133095 56.202995 227.144
65.774231 56.213154 227.41277
66.048027 55.975536 228.57591
65.962029 55.490238 230.63654
67.335648 55.997051 229.10542
68.69915 56.50388 227.56812
69.695206 56.762848 226.92517
70.331352 56.774078 227.17966
71.319687 57.033199 226.52956
72.302849 57.292339 225.87544
72.933617 57.303844 226.12173
74.598343 58.058285 223.64961
75.221214 58.069817 223.88889
76.183563 58.328938 223.21873
76.466393 58.093071 224.36131
77.423271 58.352188 223.68521
77.378578 57.86911 225.73586
78.002892 57.88092 225.96584
79.281059 58.387314 224.36967
80.224358 58.64629 223.68077
80.840294 58.657974 223.90195
80.816895 58.175365 225.95065
81.437286 58.187119 226.16956
81.742844 57.951797 227.30301
82.677109 58.210548 226.60133
83.606049 58.46917 225.89589
85.450577 59.468376 222.42937
84.534447 58.245411 227.23386
85.454872 58.50375 226.51987
86.07048 58.515167 226.72389
86.388779 58.279808 227.84837
86.711731 58.044468 228.97252
89.083122 59.535553 223.62775
89.397888 59.299927 224.74557
90.004288 59.310863 224.93736
90.325851 59.075222 226.05368
90.652046 58.839573 227.16968
90.423882 58.111122 230.14124
91.595367 58.614658 228.47166
92.207489 58.62529 228.65616
93.091301 58.882107 227.90851
93.700249 58.892502 228.08844
94.575912 59.148983 227.33481
94.917107 58.912994 228.44267
95.262909 58.676971 229.55011
96.132584 58.933075 228.7894
96.739822 58.942959 228.95995
97.601387 59.19873 228.19342
98.205475 59.208359 228.35959
99.308662 59.709705 226.65079
99.659897 59.473167 227.74921
100.50532 59.728271 226.97133
101.34546 59.983185 226.19035
102.18036 60.237923 225.4063
102.53528 60.001019 226.49886
103.36462 60.255463 225.70999
103.9563 60.264065 225.85919
104.54767 60.27256 226.00665
104.91125 60.035374 227.09465
105.5045 60.043678 227.23923
106.09746 60.051872 227.38208
106.69014 60.059956 227.52318
107.28253 60.067928 227.66257
108.30507 60.566605 225.90979
108.892 60.574295 226.0446
109.05807 60.091179 228.07042
109.85722 60.344025 227.25607
110.4458 60.351406 227.3864
110.83119 60.11343 228.46298
111.62221 60.365849 227.64198
112.40808 60.618111 226.81822
112.79762 60.37986 227.89088
113.57811 60.63184 227.06277
114.16276 60.638546 227.1826
114.93543 60.890228 226.34972
115.51718 60.89669 226.46574
116.28207 61.148083 225.62814
117.04185 61.399319 224.78796
117.26109 60.915451 226.80415
117.66592 60.676548 227.86714
118.07542 60.437588 228.92944
118.31844 59.953671 230.94536
118.90844 59.959511 231.05188
119.66454 60.210094 230.20161
120.41556 60.460526 229.34889
121.0001 60.466003 229.44975
121.58446 60.471382 229.54903
122.32517 60.72142 228.68985
122.5985 60.237095 230.70007
123.03307 59.997475 231.75266
123.47231 59.757797 232.80444
124.06308 59.762753 232.89696
124.50928 59.522934 233.94669
125.24409 59.772343 233.07727
125.69482 59.532383 234.12456
126.42447 59.781559 233.25125
126.87975 59.541431 234.29613
127.47197 59.545818 234.37955
128.06406 59.55011 234.46138
128.65599 59.554306 234.54166
129.24777 59.558414 234.62036
129.83943 59.56242 234.69753
130.55107 59.810825 233.81093
131.02234 59.570164 234.84717
131.84415 60.062801 232.99409
132.54327 60.310856 232.10138
133.34789 60.803204 230.24321
133.60265 60.073376 233.20061
134.08299 59.832336 234.23029
134.56808 59.591236 235.25897
135.05789 59.350067 236.28667
135.45412 58.864483 238.27802
135.95581 58.623207 239.30386
136.74271 59.114861 237.43314
137.06448 58.384781 240.38698
137.57799 58.143311 241.40935
138.18245 58.146057 241.46481
139.03827 58.88158 238.62044
139.63531 58.884125 238.67215
140.54819 59.863663 234.85632
141.13539 59.866001 234.90417
141.79666 60.112511 233.98363
142.30957 59.870445 234.99536
142.82726 59.628319 236.00592
143.28279 59.141907 237.98274
143.94136 59.388077 237.05602
144.53299 59.389957 237.09515
145.1842 59.635944 236.16492
145.71605 59.393463 237.16896
146.19783 58.906727 239.13997
146.74164 58.66412 240.14168
147.29022 58.421448 241.14215
147.79599 57.93454 243.10991
148.35655 57.691723 244.10796
149.09293 58.425468 241.22948
149.73409 58.670799 240.28665
150.33246 58.671894 240.3111
151.00183 59.161205 238.39584
151.62842 59.406277 237.44792
152.18875 59.162991 238.43686
152.81046 59.407898 237.48579
153.42731 59.652733 236.53307
153.9924 59.409225 237.51765
154.60439 59.653896 236.56184
155.17426 59.410244 237.54358
155.73271 58.922405 239.4935
156.30081 58.434483 241.44211
156.88994 58.190609 242.41968
157.49289 58.190784 242.42604
158.09581 58.190876 242.43091
158.70291 58.435013 241.46451
159.30168 58.190834 242.43607
159.90396 58.434811 241.46663
160.50449 58.434589 241.46544
161.09953 58.678421 240.49297
161.71346 58.189804 242.42819
162.30612 58.433479 241.45273
162.90671 58.432964 241.44543
163.52243 58.188225 242.40631
164.16054 57.699291 244.33513
164.7285 58.18679 242.38412
165.33157 58.185951 242.37073
165.95946 57.940895 243.32527
166.565 57.939892 243.30881
167.11137 58.427116 241.3522
167.80821 57.693516 244.24043
168.38185 57.936428 243.25017
168.95071 58.179276 242.25853
169.55403 58.177887 242.2345
170.19908 57.932255 243.17773
170.76083 58.174873 242.18182
171.45731 57.684872 244.09042
172.06566 57.683155 244.06001
172.67407 57.681351 244.02809
173.28255 57.679459 243.99461
173.89108 57.677505 243.95956
174.55826 57.431232 244.89093
175.35229 56.696396 247.75603
175.9707 56.694145 247.71571
176.65501 56.447556 248.64134
177.41245 55.956615 250.53227
178.10898 55.709812 251.45383
178.51817 56.440022 248.50565
179.21489 56.193043 249.42401
179.76073 56.434566 248.40724
180.30182 56.676014 247.38928
180.92091 56.67308 247.3363
181.71042 56.181381 249.21362
182.42212 55.933895 250.12274
183.04877 55.930653 250.06432
183.67554 55.927322 250.00426
184.20758 56.168289 248.97752
184.92941 55.920376 249.87929
185.35716 56.405602 247.8853
186.18376 55.913074 249.7478
186.81111 55.909279 249.67961
187.4386 55.905392 249.60979
187.95686 56.145882 248.57487
188.69398 55.897327 249.46524
189.32188 55.893154 249.3905
189.94992 55.888885 249.31412
190.57811 55.884514 249.23608
191.32794 55.63549 250.11839
192.08276 55.386337 250.99843
192.71628 55.38163 250.91478
193.4787 55.132217 251.7905
194.11496 55.127296 251.70317
194.61775 55.36692 250.65381
195.52405 54.872482 252.48344
196.44023 54.377853 254.31003
197.2254 54.127739 255.17415
197.87228 54.122215 255.07689
198.66513 53.871834 255.93645
199.1666 54.110847 254.87711
199.66339 54.349785 253.8168
200.15553 54.588661 252.75557
200.79852 54.582634 252.65038
201.28377 54.821358 251.58684
201.92474 54.81514 251.47855
202.56595 54.8088 251.36852
203.37265 54.557411 252.2121
204.18446 54.30587 253.05304
205.00137 54.054161 253.89136
205.47821 54.292305 252.81892
206.30049 54.040306 253.65277
