ply
format ascii 1.0
comment PCL generated
element vertex 1598
property float x
property float y
property float z
element camera 0
property float view_px
property float view_py
property float view_pz
property float x_axisx
property float x_axisy
property float x_axisz
property float y_axisx
property float y_axisy
property float y_axisz
property float z_axisx
property float z_axisy
property float z_axisz
property float focal
property float scalex
property float scaley
property float centerx
property float centery
property int viewportx
property int viewporty
property float k1
property float k2
end_header
112.98402 125.13768 224.09787
113.5406 125.13648 224.21332
114.29631 125.10947 223.34769
114.85007 125.10831 223.45966
115.79256 125.05553 221.60904
116.14905 125.08023 222.69821
116.88942 125.05332 221.82382
117.2504 125.07806 222.91103
117.80082 125.077 223.01526
117.98639 125.12755 225.08386
118.54131 125.12652 225.1861
118.91858 125.15129 226.27069
119.47559 125.15029 226.37051
119.85979 125.17509 227.45352
120.75934 125.12257 225.58073
121.48125 125.09585 224.69034
122.19818 125.06916 223.79767
122.74716 125.06826 223.88911
123.29601 125.06738 223.97911
123.68658 125.09226 225.05481
124.54898 125.0399 223.16748
124.94171 125.06482 224.24077
125.6409 125.03825 223.33694
126.33513 125.01171 222.43103
127.02441 124.98519 221.52301
127.13419 125.06164 224.57011
127.68201 125.06087 224.64899
128.22972 125.06013 224.72649
128.50452 125.11086 226.78323
128.78885 125.16158 228.83995
129.34587 125.16088 228.91463
129.77364 125.1859 229.97919
130.20612 125.21093 231.04297
130.76765 125.21027 231.11407
131.57297 125.1582 229.19937
132.24902 125.13187 228.27461
132.92017 125.10555 227.34787
133.5864 125.07925 226.4192
134.47234 125.00158 223.50195
135.01408 125.00102 223.56253
135.55573 125.00047 223.62178
135.99222 125.02563 224.67386
136.43346 125.0508 225.72507
136.67889 125.12734 228.76471
137.13443 125.15252 229.81471
137.5947 125.17771 230.86378
138.05971 125.20291 231.912
138.71075 125.17677 230.96815
139.18045 125.20199 232.01404
139.65488 125.22722 233.05899
140.30093 125.20112 232.11064
141.02313 125.14937 230.16411
141.57843 125.14897 230.20863
142.43854 125.04593 226.26469
143.05792 125.01991 225.30881
143.52963 125.04521 226.34552
144.0061 125.07053 227.38123
144.55394 125.07021 227.41844
144.97333 125.12121 229.44962
145.58768 125.09525 228.48676
146.1378 125.09496 228.52017
146.68788 125.09468 228.55225
147.07414 125.17137 231.57755
147.63135 125.17111 231.60736
148.08896 125.22217 233.63266
148.65091 125.22193 233.66003
149.16785 125.24736 234.68468
149.81731 125.19585 232.71191
150.33659 125.22131 233.73393
151.04958 125.11854 229.76007
151.63719 125.09273 228.78123
152.02208 125.22079 233.79568
152.76735 125.06678 227.81834
153.4838 124.91279 221.83879
154.0683 124.86139 219.85451
154.68996 124.75871 215.86992
155.43924 124.47656 204.88745
155.83846 124.6047 209.89471
156.26166 124.73283 214.90117
156.73642 124.8097 217.90762
157.2597 124.80966 217.91423
157.75606 124.88654 220.91844
158.29312 124.86088 219.92293
158.84209 124.73267 214.92744
159.3564 124.75831 215.92865
159.8755 124.78396 216.9286
160.39337 124.75834 215.92801
160.91187 124.75837 215.9258
161.43819 124.78406 216.92201
161.95911 124.78411 216.9173
162.49266 124.80982 217.91095
163.04604 124.86118 219.90282
163.57419 124.86127 219.89423
164.10236 124.86137 219.88441
164.67499 124.91277 221.87213
165.20799 124.9129 221.85962
165.76805 124.93868 222.84515
166.30348 124.93884 222.83002
166.83896 124.939 222.8136
167.37445 124.93917 222.79588
167.83669 124.88806 220.7789
168.28935 124.83696 218.76097
168.85677 124.86281 219.73859
169.47285 124.91433 221.71344
169.86736 124.83761 218.69357
170.53935 124.9148 221.66403
171.02162 124.8894 220.63904
171.81982 125.01794 225.60245
172.53038 125.0952 228.56703
173.31364 125.19813 232.52747
174.05553 125.27542 235.48756
174.87494 125.3784 239.44312
175.32083 125.32743 237.4109
175.82504 125.30213 236.37529
176.60558 125.3795 239.32742
177.18257 125.3799 239.28604
177.8347 125.40598 240.24013
178.33673 125.38073 239.1991
179.15356 125.45818 242.14294
179.57343 125.40729 240.1028
180.15314 125.40775 240.05418
180.73293 125.40823 240.00418
181.49181 125.46008 241.94403
181.8927 125.40923 239.89987
182.85001 125.51249 243.82645
183.43971 125.51304 243.76982
184.32693 125.59066 246.69597
184.82248 125.56555 245.6412
185.72913 125.64323 248.56248
186.01213 125.56676 245.5168
186.82465 125.61877 247.43983
187.09097 125.54231 244.39304
187.57013 125.51727 243.33273
187.92856 125.46651 241.27864
188.51428 125.46719 241.2095
188.85846 125.41646 239.15416
189.68604 125.46859 241.06677
190.39772 125.49503 241.98497
190.85823 125.47005 240.91823
191.57497 125.49652 241.83289
192.42953 125.54875 243.73622
193.29388 125.60101 245.63675
193.89259 125.60182 245.55421
194.77168 125.65413 247.44975
195.51802 125.68073 248.35297
195.97942 125.65587 247.27574
196.5835 125.65676 247.1864
197.18771 125.65767 247.09557
197.79208 125.6586 247.0032
198.24197 125.63379 245.92165
199.00127 125.66051 246.81383
199.28717 125.60996 244.74312
200.04921 125.63673 245.63182
200.98056 125.68929 247.50427
201.92175 125.74189 249.37355
202.53453 125.74296 249.2691
203.31903 125.76984 250.14789
203.93459 125.77095 250.03987
204.72675 125.79787 250.91417
204.9874 125.74744 248.83542
206.14491 125.82602 251.67229
206.76608 125.82722 251.55693
207.38747 125.82845 251.43997
207.8205 125.80387 250.3396
208.82184 125.85678 252.18233
208.86606 125.78059 249.11763
209.67928 125.80772 249.97534
210.49759 125.83488 250.83044
211.32098 125.86208 251.68291
211.74323 125.83761 250.57509
212.77754 125.89071 252.4015
213.40584 125.89214 252.26862
213.82394 125.86773 251.1568
214.66319 125.89507 251.9978
215.50758 125.92245 252.83601
216.13936 125.92398 252.6958
217.21181 125.97731 254.5041
218.07166 126.0048 255.33385
218.93668 126.03232 256.16077
219.35184 126.00806 255.03795
219.76241 125.98382 253.91449
220.4008 125.98551 253.7627
221.03949 125.98722 253.6091
221.91583 126.0149 254.42484
222.79738 126.04262 255.23758
223.68416 126.07037 256.0473
224.3315 126.07221 255.8847
224.97919 126.07408 255.72029
225.87682 126.10195 256.52206
226.77969 126.12986 257.32068
226.92439 126.07986 255.21602
227.83044 126.10783 256.01025
229.00122 126.16184 257.76675
229.65846 126.1639 257.58917
230.31612 126.16599 257.40973
231.50772 126.22016 259.15512
232.17111 126.22233 258.97046
232.29144 126.17245 256.8598
232.9507 126.17466 256.67261
233.61038 126.1769 256.48346
234.54964 126.20524 257.25229
235.21265 126.20755 257.05847
236.1602 126.23598 257.82114
236.82657 126.23837 257.62259
237.78247 126.26688 258.37903
239.03529 126.32156 260.0881
239.71051 126.32407 259.88123
240.68271 126.35275 260.62695
241.06239 126.32919 259.46121
242.04056 126.35796 260.20123
242.41626 126.33446 259.03287
243.70682 126.38947 260.71854
244.08105 126.36603 259.54675
245.0737 126.39497 260.27423
246.07187 126.42398 260.99792
246.75912 126.42683 260.7695
247.12799 126.4035 259.59149
248.13527 126.43264 260.30609
248.82416 126.4356 260.07104
249.84004 126.46485 260.77863
250.2036 126.44164 259.59424
251.55711 126.49725 261.23871
252.25328 126.50037 260.99292
253.62302 126.55613 262.62744
254.66437 126.58566 263.31561
255.36981 126.58894 263.06012
256.07587 126.59225 262.80231
257.12909 126.62194 263.47974
257.48975 126.59899 262.27951
257.49429 126.54968 260.14297
258.19766 126.55312 259.8775
258.18823 126.50381 257.74191
258.8877 126.5073 257.47354
259.94952 126.53724 258.13467
261.01703 126.56724 258.79138
262.45703 126.62374 260.3736
263.53839 126.65388 261.02039
264.25348 126.65761 260.73474
264.59467 126.6349 259.51978
265.30838 126.63869 259.23019
266.02264 126.6425 258.93805
267.11957 126.67288 259.56711
268.22217 126.70332 260.1915
269.33038 126.73382 260.81122
270.05444 126.73781 260.50565
67.58741 126.05639 217.15698
69.353081 125.96609 214.64784
69.946938 125.96274 214.89703
70.157539 125.98833 216.06752
70.753098 125.98502 216.3136
71.72599 125.95282 215.63208
71.567726 126.00734 217.72594
72.53717 125.97522 217.03926
72.390724 126.02972 219.13405
72.98912 126.02653 219.37175
73.587067 126.02335 219.60735
74.547058 125.9914 218.90936
75.141525 125.9883 219.13986
76.450439 125.92766 217.5014
77.393852 125.89587 216.79147
77.979324 125.89291 217.01303
78.914215 125.86123 216.2963
79.496216 125.85835 216.51299
79.73291 125.88421 217.66591
79.974152 125.91009 218.81877
80.899612 125.87857 218.0914
81.81958 125.84711 217.36029
81.729652 125.90173 219.45099
82.646179 125.87035 218.71515
83.887047 125.81036 217.032
84.462852 125.80774 217.23248
84.063835 125.89104 220.26717
85.613121 125.80259 217.62784
86.187599 125.80006 217.82272
87.078918 125.76896 217.06793
87.020424 125.82368 219.15576
88.533012 125.7355 216.49736
88.790955 125.76169 217.63373
89.053459 125.78788 218.76991
89.930206 125.75699 218.00198
89.59214 125.84029 221.04173
90.767952 125.78093 219.31668
91.63604 125.75016 218.54109
92.20385 125.74795 218.7173
91.601517 125.85975 222.71519
93.628281 125.71512 218.10788
93.329994 125.79843 221.15025
93.616211 125.82478 222.27914
94.472084 125.79423 221.49013
95.322647 125.76372 220.69795
95.890312 125.7617 220.8629
96.732765 125.73126 220.06519
97.842606 125.67245 218.30272
98.131615 125.69896 219.42296
98.960716 125.66866 218.61678
100.04987 125.60999 216.84384
100.86601 125.57978 216.03102
101.15619 125.60638 217.14546
101.96679 125.57623 216.32813
102.26126 125.60287 217.4407
102.30733 125.65788 219.52003
102.61348 125.68452 220.63264
103.17233 125.68283 220.77664
103.48524 125.70951 221.88802
104.04597 125.70786 222.02948
104.60642 125.70624 222.16934
105.40491 125.67632 221.3369
105.96237 125.67475 221.47301
106.28614 125.70152 222.57959
107.07649 125.67169 221.74069
107.63318 125.6702 221.87219
108.64182 125.61215 220.05478
108.96945 125.63899 221.15639
109.74419 125.6093 220.30794
110.51379 125.57964 219.45692
110.84563 125.60653 220.5551
110.96818 125.66169 222.62932
111.73468 125.6321 221.77324
112.07801 125.65903 222.86964
112.63261 125.65773 222.98756
113.187 125.65645 223.10399
113.74118 125.6552 223.21893
114.49447 125.62574 222.35291
114.84894 125.65275 223.44441
115.79144 125.59513 221.59396
116.14796 125.62217 222.68304
116.88835 125.59283 221.80876
117.24934 125.61989 222.8959
117.98454 125.59059 222.01778
118.35003 125.61769 223.10298
118.7202 125.64479 224.18764
119.09506 125.67191 225.27174
119.64966 125.67087 225.37114
120.2041 125.66984 225.46909
120.9286 125.64067 224.58061
121.64813 125.61153 223.68985
122.52805 125.55426 221.81105
122.90924 125.58147 222.88792
123.29513 125.6087 223.96417
123.68571 125.63593 225.03981
124.39243 125.6069 224.14005
124.94087 125.60602 224.22588
125.64008 125.57703 223.32217
126.4828 125.51994 221.4278
127.02364 125.51913 221.50836
127.4207 125.54645 222.57683
127.68126 125.6019 224.63419
128.3678 125.57301 223.72174
128.50378 125.65657 226.76833
128.92212 125.68393 227.83432
129.47675 125.68319 227.90868
129.90211 125.71056 228.97285
130.33218 125.73795 230.0363
130.89133 125.73726 230.1071
131.57231 125.70849 229.18439
132.36792 125.65166 227.26726
133.03667 125.62293 226.34033
133.70053 125.59423 225.41142
134.47177 125.53747 223.48738
135.01352 125.53688 223.54797
135.55518 125.53631 223.60725
136.09677 125.53575 223.66518
136.43294 125.59135 225.71042
136.67839 125.67501 228.74985
137.2318 125.67448 228.80496
137.59421 125.73009 230.84883
138.05923 125.75765 231.89697
138.71028 125.72911 230.95322
139.26823 125.72864 231.00336
139.5686 125.81234 234.03986
140.21707 125.78384 233.09177
141.02274 125.69926 230.14926
141.57803 125.69884 230.19374
142.36194 125.6143 227.24683
143.13138 125.52979 224.29745
143.67212 125.52943 224.33682
144.14378 125.55712 225.37213
144.62022 125.58482 226.40645
145.03722 125.64056 228.43732
145.58739 125.64025 228.47205
146.07811 125.66798 229.50333
146.6306 125.66769 229.53555
147.07387 125.72347 231.56267
147.68329 125.69518 230.59424
148.1385 125.75098 232.61932
148.69806 125.75074 232.64656
149.16762 125.80656 234.66965
149.81711 125.75029 232.69699
150.33641 125.77811 233.71898
151.01163 125.69385 230.74425
151.63702 125.63762 228.76659
152.02191 125.77757 233.78073
152.76721 125.60928 227.80376
153.48367 125.44101 221.8246
154.09398 125.35683 218.84119
154.68987 125.27265 215.85609
155.48112 124.90829 202.8756
155.81981 125.13237 210.88071
156.2616 125.24438 214.88745
156.75014 125.30037 216.89417
157.25966 125.32834 217.90028
157.76501 125.38435 219.90475
158.31284 125.30026 216.9101
158.85043 125.18817 212.91452
159.35817 125.24421 214.91525
159.87427 125.24422 214.91556
160.3934 125.27226 215.91422
160.90648 125.24428 214.91241
161.43042 125.27235 215.90858
161.94894 125.2724 215.90388
162.4801 125.30049 216.89748
163.04613 125.38464 219.88875
163.59172 125.41276 220.87964
164.1223 125.41286 220.86975
164.67511 125.44101 221.85793
165.1835 125.41312 220.84615
165.6871 125.38524 219.83318
166.21535 125.38539 219.81824
166.77545 125.41359 220.80115
167.47734 125.55389 225.7787
168.0567 125.58212 226.75836
168.75803 125.69444 230.73308
169.56148 125.86284 236.7032
170.26224 125.94718 239.67484
170.51501 125.75123 232.65907
171.02608 125.72346 231.63405
171.32819 125.58357 226.61469
171.98045 125.63993 228.58249
172.41896 125.58416 226.55626
173.13919 125.66859 229.51878
173.87389 125.75303 232.47916
174.6861 125.86554 236.43486
174.99387 125.75374 232.40833
175.55392 125.75411 232.3709
176.25459 125.81059 234.32634
176.89226 125.83904 235.28278
177.4597 125.83947 235.24071
178.02721 125.8399 235.19725
178.67467 125.8684 236.14885
179.327 125.89693 237.09866
179.8148 125.86935 236.05464
180.55919 125.92596 237.99704
180.95522 125.87035 235.95485
181.52553 125.87087 235.90285
182.19025 125.89948 236.8446
182.85986 125.9281 237.78452
183.53436 125.95674 238.72252
184.31532 126.01347 240.65308
185.00203 126.04216 241.58702
185.58728 126.04279 241.52507
186.06384 126.01535 240.46803
186.64688 126.01601 240.40347
187.23 126.01668 240.33746
187.69722 125.98927 239.27718
188.39655 126.01807 240.20114
189.1008 126.04688 241.12308
189.93323 126.10382 243.03494
190.64977 126.13268 243.95247
191.1151 126.10536 242.88513
191.83669 126.13426 243.79907
192.56322 126.16319 244.71091
193.29471 126.19214 245.62059
193.75571 126.16488 244.54796
194.6324 126.22199 246.44371
195.2338 126.22289 246.35774
195.69038 126.19568 245.2813
196.43701 126.22474 246.18135
197.18863 126.25382 247.07918
197.64081 126.22666 245.99884
198.24292 126.22765 245.9053
199.00224 126.25681 246.79739
199.44763 126.22968 245.71361
200.2121 126.25889 246.60182
201.1459 126.31628 248.47372
202.08955 126.3737 250.34245
202.70477 126.37483 250.23759
203.49171 126.40415 251.11586
204.28371 126.4335 251.9917
204.72789 126.40652 250.89728
204.98856 126.35136 248.81862
206.1461 126.43716 251.6553
206.5836 126.41022 250.55736
207.20258 126.41151 250.44081
208.0103 126.44102 251.30426
209.0141 126.49876 253.14636
209.25417 126.4437 251.06209
209.87643 126.44507 250.93852
210.6972 126.47469 251.79305
211.32236 126.47612 251.66566
211.54146 126.42108 249.57915
212.57338 126.47903 251.40593
212.99126 126.45229 250.29582
213.61496 126.4538 250.16229
214.23891 126.45534 250.02702
215.29376 126.51344 251.84238
215.92313 126.51504 251.70267
217.21338 126.60151 254.4864
218.07326 126.63146 255.3161
219.16341 126.68976 257.11682
219.58102 126.66319 255.99345
220.22403 126.66496 255.84225
220.86732 126.66675 255.68924
221.51096 126.66856 255.53447
221.68025 126.61375 253.43587
222.55939 126.64394 254.24911
223.44374 126.67418 255.05934
224.08868 126.67611 254.89737
224.73393 126.67806 254.73352
225.62912 126.70841 255.5358
226.52957 126.73882 256.33499
226.92633 126.71249 255.19768
228.08939 126.77135 256.95789
229.26263 126.83027 258.7135
229.92239 126.83244 258.53528
230.84686 126.86307 259.31909
231.77667 126.89373 260.09967
232.17326 126.86759 258.95163
232.56534 126.84146 257.80298
233.22708 126.8438 257.61505
233.61259 126.8177 256.46463
234.55188 126.84856 257.23331
235.21494 126.851 257.03949
236.16252 126.88194 257.80203
237.11551 126.91295 258.5611
238.07391 126.944 259.31668
239.32927 127.00362 261.02481
240.007 127.00627 260.81714
240.98172 127.03749 261.56198
241.06494 126.98314 259.44168
241.74164 126.98589 259.22852
242.11488 126.96011 258.06097
243.70949 127.04864 260.69876
244.08374 127.02293 259.52698
245.07643 127.05443 260.25433
245.76068 127.05738 260.0289
246.44548 127.06037 259.80127
246.49292 127.00615 257.67676
247.1738 127.00919 257.44644
247.85519 127.01227 257.2139
249.19006 127.0727 258.86871
250.20657 127.10455 259.57394
251.56013 127.16515 261.2182
252.25632 127.16844 260.97232
253.62611 127.22918 262.60666
254.66751 127.26129 263.29471
255.03146 127.23601 262.09976
255.73503 127.23948 261.8428
256.78577 127.27174 262.52103
257.14392 127.24654 261.32175
257.49759 127.22134 260.12195
258.20099 127.22496 259.85641
258.19156 127.17099 257.72092
258.89105 127.17465 257.45248
259.95294 127.20719 258.11349
261.02048 127.23979 258.77008
262.09366 127.27246 259.42221
262.80313 127.27631 259.14105
263.88513 127.3091 259.78525
264.59827 127.31303 259.49808
266.44312 127.40376 261.98563
267.16504 127.40782 261.69028
268.26971 127.44086 262.31607
268.6106 127.41603 261.09201
269.33417 127.42019 260.78894
269.66843 127.39539 259.5629
68.75563 126.53432 214.37663
69.349892 126.53078 214.62801
70.329155 126.49591 213.95506
70.537231 126.52378 215.12442
71.130272 126.52032 215.36949
71.345123 126.54821 216.53786
71.564621 126.5761 217.70621
72.534111 126.5414 217.01965
72.38765 126.60059 219.11435
73.353691 126.56598 218.42262
74.679253 126.50018 216.79637
75.631691 126.46571 216.09557
76.578606 126.43128 215.39075
77.519981 126.39692 214.68201
77.745956 126.425 215.83803
78.328918 126.42191 216.05872
78.561523 126.45001 217.21365
78.798683 126.47812 218.36855
79.385292 126.4751 218.58519
79.629059 126.50324 219.73894
80.896927 126.43805 218.07262
81.479607 126.43514 218.2825
81.727005 126.46336 219.43224
82.311272 126.4605 219.63916
83.554695 126.39555 217.95711
84.460327 126.36174 217.21411
84.386116 126.4211 219.30328
85.610649 126.35634 217.60956
86.185158 126.35368 217.80447
87.711136 126.25806 215.15414
87.647659 126.31749 217.24022
89.467651 126.19102 213.63098
89.718132 126.21952 214.76486
89.97319 126.24803 215.89857
90.232803 126.27655 217.03215
89.589874 126.3979 221.02361
90.465858 126.36456 220.25221
91.336456 126.33127 219.47751
91.906769 126.32893 219.65454
91.599358 126.41933 222.69714
93.916161 126.2317 217.13374
93.327904 126.353 221.13243
93.614143 126.38165 222.26129
94.470047 126.34859 221.47238
95.320648 126.31558 220.68033
95.610725 126.3443 221.8055
96.73082 126.28053 220.04771
97.568024 126.24766 219.24704
98.129745 126.24564 219.40558
98.958878 126.21284 218.59953
100.04806 126.1493 216.82678
100.33856 126.17818 217.94278
100.89405 126.17629 218.09348
101.44922 126.17443 218.24257
102.0041 126.1726 218.39006
102.55865 126.17079 218.53598
103.11292 126.16901 218.68031
103.41879 126.198 219.79132
103.97493 126.19626 219.93314
104.28757 126.22527 221.04288
104.8456 126.22358 221.18216
105.64166 126.19121 220.3492
106.43257 126.15887 219.51349
106.75148 126.18796 220.61882
107.07501 126.21706 221.72379
107.86026 126.18481 220.88228
108.64037 126.1526 220.0381
108.74437 126.21243 222.11383
109.30034 126.21094 222.24078
110.29364 126.14815 220.41565
110.62791 126.17736 221.51433
110.75291 126.23723 223.58897
111.52188 126.20518 222.73351
112.07671 126.2038 222.85295
112.42471 126.23307 223.94884
113.18574 126.2011 223.08734
113.53818 126.2304 224.18127
114.29393 126.19849 223.31583
114.84773 126.19723 223.42784
115.40134 126.19598 223.53841
115.95476 126.19475 223.64751
116.6976 126.16295 222.77377
117.06104 126.19235 223.86131
117.79868 126.16061 222.98373
118.34895 126.15946 223.08659
118.53922 126.21947 225.1544
119.094 126.21836 225.25525
119.82369 126.18671 224.37059
120.37573 126.18565 224.46812
120.92761 126.18459 224.56424
121.81496 126.12248 222.68825
122.5271 126.09094 221.79492
122.90831 126.12049 222.87173
123.2942 126.15005 223.94792
123.84294 126.14911 224.03656
124.39154 126.14818 224.12383
124.94001 126.14726 224.20967
125.63924 126.11585 223.30605
126.48198 126.05396 221.41185
127.02283 126.05311 221.49243
127.41991 126.08277 222.56081
127.68047 126.14295 224.61804
128.22821 126.14214 224.69557
128.50302 126.20232 226.75206
129.05536 126.20155 226.8275
129.47603 126.23126 227.89236
130.03056 126.23051 227.96536
130.58499 126.22977 228.03696
131.13934 126.22905 228.10716
131.81552 126.19788 227.18394
132.36726 126.19719 227.25107
133.15317 126.13559 225.33157
133.69991 126.13494 225.39542
134.47118 126.07339 223.47151
135.01294 126.07278 223.53212
135.66211 126.04173 222.59767
135.99113 126.10205 224.64331
136.53506 126.10149 224.7002
136.87839 126.16183 226.74469
137.427 126.16129 226.79936
137.78461 126.22164 228.84261
138.33789 126.22112 228.89503
138.8911 126.22062 228.94611
139.356 126.25056 229.99142
139.73982 126.31096 232.03169
140.30006 126.31049 232.07933
140.94127 126.27961 231.12933
141.49899 126.27917 231.17403
142.28532 126.18748 228.22749
142.98337 126.12624 226.27531
143.52892 126.12585 226.31506
144.07443 126.12548 226.3535
144.61989 126.12512 226.39058
145.0369 126.18562 228.42131
145.58707 126.18529 228.45609
146.13721 126.18497 228.48952
146.68732 126.18467 228.52161
147.18279 126.21479 229.5504
147.78741 126.1841 228.5818
148.28763 126.21426 229.60822
148.7926 126.24442 230.6335
149.25737 126.30499 232.65623
149.85948 126.27436 231.68214
150.37639 126.30455 232.70395
151.01143 126.24355 230.72813
151.63686 126.18255 228.75066
151.98877 126.3648 234.76343
152.79765 126.12142 226.78883
153.45537 125.99967 222.8083
154.0423 125.93874 220.82437
154.66638 125.81702 216.84035
155.39713 125.51292 206.85873
155.74541 125.75604 214.86351
156.26154 125.75597 214.87247
156.75009 125.8167 216.8791
157.25963 125.84706 217.88515
157.79192 125.81662 216.89096
158.32597 125.7558 214.89597
158.85043 125.69499 212.8997
159.35818 125.75579 214.9003
159.87491 125.7862 215.90015
160.39343 125.78622 215.89919
160.89568 125.69506 212.89841
161.41483 125.72551 213.89453
161.92856 125.72557 213.88989
162.45493 125.75604 214.88347
162.9861 125.78653 215.87576
163.53954 125.84743 217.86612
164.08275 125.87794 218.8557
164.58632 125.84767 217.84532
165.13437 125.8782 218.83229
165.68724 125.90876 219.81786
166.15665 125.84811 217.80472
166.80746 125.96991 221.78479
167.61447 126.21335 229.75874
168.31339 126.33518 233.7346
169.07057 126.48745 238.70718
170.10046 126.82219 249.66951
170.74478 126.85287 250.64244
170.9315 126.57946 241.62903
171.41554 126.51893 239.60469
171.63477 126.30634 232.58826
172.03421 126.2154 229.56462
172.47513 126.15488 227.53839
173.19778 126.24647 230.5006
173.99554 126.36849 234.45825
174.81259 126.49054 238.41341
175.2561 126.43008 236.38162
175.82581 126.43048 236.34351
176.5361 126.49174 238.29817
177.11072 126.49218 238.25694
177.76047 126.52306 239.21104
178.26012 126.49309 238.17033
178.91481 126.52399 239.12126
179.40977 126.49405 238.07809
180.06941 126.52499 239.02585
180.73393 126.55595 239.97176
181.31381 126.5565 239.92029
181.89377 126.55705 239.86743
182.4738 126.55762 239.81311
183.15065 126.58866 240.75224
183.63409 126.55882 239.70027
184.41748 126.62035 241.63043
185.10663 126.65144 242.56404
185.69429 126.6521 242.50185
186.17328 126.62231 241.4446
186.75874 126.623 241.37976
187.34428 126.62371 241.31346
187.81393 126.59396 240.25294
188.51569 126.62517 241.17653
189.3432 126.68688 243.0903
189.93399 126.68766 243.01761
190.65054 126.71894 243.93504
191.11589 126.68927 242.8678
191.83749 126.7206 243.78166
192.43115 126.72145 243.70271
193.16025 126.75282 244.61264
193.48114 126.69271 242.55038
194.35303 126.75463 244.44667
195.09216 126.78606 245.35074
195.54634 126.75651 244.27464
196.1432 126.75748 244.18639
197.18961 126.85003 247.06134
197.79401 126.85104 246.96892
198.24393 126.82156 245.8875
199.00327 126.85314 246.7795
199.60814 126.85423 246.6825
200.37506 126.88586 247.57025
201.14699 126.91753 248.45564
202.09067 126.97978 250.32419
202.87505 127.01152 251.20441
203.49289 127.01273 251.09752
204.2849 127.04453 251.97328
204.90552 127.04578 251.86273
205.34749 127.01648 250.76717
205.96608 127.01778 250.65385
206.40115 126.9885 249.55638
207.20386 127.02043 250.42232
208.01163 127.05239 251.28571
208.44247 127.02318 250.18431
209.0621 127.02459 250.06284
209.68196 127.02602 249.93973
210.30205 127.02748 249.81499
210.92236 127.02896 249.68858
211.54291 127.03046 249.56052
212.36926 127.06263 250.40895
212.99274 127.06419 250.27707
213.82692 127.09643 251.12062
214.45334 127.09805 250.98485
215.94135 127.22234 254.75159
216.57803 127.22403 254.61023
217.43524 127.25642 255.44212
218.07495 127.25819 255.29677
219.16512 127.32134 257.09732
219.35521 127.26178 255.00069
219.76581 127.23292 253.87733
220.40427 127.23478 253.72546
221.04301 127.23667 253.57184
221.68208 127.23859 253.41643
222.56125 127.27127 254.22955
223.44565 127.30399 255.03969
224.09059 127.30602 254.87766
224.73589 127.30807 254.71381
225.6311 127.34091 255.51598
226.27956 127.34303 255.34781
226.92838 127.34518 255.17778
227.8345 127.37815 255.97185
229.00537 127.44196 257.728
229.92455 127.47504 258.51495
230.84906 127.50816 259.29871
231.7789 127.54134 260.07913
232.44479 127.54374 259.89371
232.83936 127.51534 258.74438
233.2294 127.48695 257.59457
233.89162 127.48943 257.40463
234.27509 127.46108 256.25299
234.65408 127.43275 255.10083
235.88086 127.49709 256.823
236.83142 127.53061 257.5827
238.07645 127.59508 259.29568
239.62341 127.69055 261.95972
240.30365 127.69334 261.75122
241.2809 127.72711 262.49518
241.36661 127.66809 260.37421
241.44286 127.60908 258.25424
242.11761 127.61198 258.03973
243.71228 127.70787 260.67722
244.08655 127.6799 259.50546
245.07928 127.71394 260.2327
246.07755 127.74805 260.95615
246.76486 127.75121 260.72763
246.49585 127.66129 257.65512
247.17676 127.66448 257.42477
248.18216 127.69878 258.13776
249.19315 127.73312 258.8468
249.88071 127.73646 258.60806
251.56329 127.83311 261.19589
252.59354 127.86768 261.89206
253.62936 127.9023 262.58408
254.67084 127.937 263.272
255.03479 127.90946 262.07709
255.73839 127.9131 261.82004
256.44257 127.91679 261.56067
257.14734 127.92051 261.29889
257.50104 127.89307 260.09912
258.55869 127.92807 260.76816
258.90851 127.9007 259.56552
259.61313 127.90456 259.29507
260.68011 127.93972 259.95395
261.38843 127.94369 259.67767
262.09735 127.94769 259.39893
262.80682 127.95173 259.11771
263.51691 127.9558 258.83401
264.60205 127.99124 259.47452
266.44696 128.08943 261.96173
267.92816 128.15639 263.51559
269.03793 128.19208 264.1391
269.38397 128.16505 262.9129
269.7254 128.13803 261.68622
269.67239 128.07961 259.53876
68.361755 127.13305 215.27519
68.958603 127.12933 215.52768
69.940453 127.09187 214.85593
70.15107 127.12199 216.02635
70.746681 127.11836 216.27254
70.964096 127.1485 217.44188
70.435684 127.24608 220.46388
71.412834 127.20877 219.78055
72.014282 127.20522 220.02144
72.982895 127.16802 219.33089
74.31105 127.09722 217.70586
75.99115 126.99287 215.14348
76.575554 126.98952 215.37016
77.516983 126.95261 214.66154
77.742958 126.98296 215.81757
77.973526 127.01331 216.9735
77.858734 127.07726 219.06557
78.10096 127.10761 220.22227
78.692627 127.10442 220.44083
79.283821 127.10127 220.65741
80.554245 127.03111 218.99225
81.476822 126.99454 218.26228
82.059059 126.99154 218.47031
81.976196 127.05553 220.56155
83.222168 126.98563 218.88062
83.803047 126.98273 219.08292
84.383469 126.97985 219.28333
85.60807 126.91015 217.58977
86.502403 126.87395 216.83791
87.391319 126.83781 216.08249
87.959999 126.83513 216.27213
89.465225 126.73232 213.61186
89.715736 126.76311 214.74567
89.66346 126.82728 216.83037
90.230446 126.82472 217.01288
89.587502 126.95558 221.00406
90.463524 126.91972 220.23279
91.036736 126.91724 220.41238
91.90451 126.88147 219.63525
91.889549 126.94566 221.72197
93.913986 126.77682 217.11479
93.325714 126.90762 221.1132
93.897003 126.9053 221.28407
94.467918 126.903 221.4532
95.03846 126.90074 221.62067
95.60865 126.89851 221.78641
96.72879 126.82985 220.02881
97.56604 126.79448 219.22824
98.398003 126.75916 218.42462
99.224709 126.72388 217.61801
100.04617 126.68866 216.80838
100.3367 126.71985 217.92429
100.8922 126.71788 218.07503
101.4474 126.71593 218.22417
102.0023 126.71401 218.37167
102.55688 126.71212 218.51764
103.36175 126.67712 217.69447
103.41706 126.74156 219.77296
103.97322 126.73974 219.91481
104.28589 126.77107 221.02448
104.84393 126.7693 221.1638
105.64004 126.73445 220.33095
106.43098 126.69965 219.49532
106.98334 126.69798 219.62881
107.53543 126.69632 219.76074
108.31583 126.66162 218.91821
108.63887 126.6931 220.02003
108.74287 126.75764 222.09564
109.5201 126.72302 221.24797
110.29221 126.68845 220.39769
110.6265 126.71999 221.49631
110.96543 126.75153 222.59451
111.94348 126.68401 220.76181
112.28441 126.7156 221.85759
112.62999 126.7472 222.95288
112.98022 126.77882 224.04773
113.33511 126.81043 225.14211
114.09332 126.77608 224.27725
114.45268 126.80773 225.36964
115.20563 126.77343 224.50087
116.14559 126.70618 222.64879
117.07565 126.63898 220.79335
117.43426 126.67072 221.87993
117.98229 126.66951 221.98378
118.53017 126.66833 222.08618
118.89795 126.70011 223.17027
119.2704 126.7319 224.25383
119.9977 126.69783 223.36882
120.54733 126.69672 223.46596
121.09682 126.69563 223.56166
121.81396 126.66163 222.67068
122.36072 126.66058 222.76315
122.74435 126.69247 223.8403
123.4538 126.65855 222.94389
124.00014 126.65756 223.03218
124.39063 126.6895 224.10628
125.09241 126.65564 223.2045
125.78925 126.62181 222.3006
126.33264 126.6209 222.38293
126.87592 126.62001 222.46391
127.41908 126.61914 222.5435
127.53842 126.71693 225.59001
128.2274 126.6832 224.67812
128.63864 126.71525 225.74438
129.18858 126.71443 225.81949
129.73843 126.71364 225.89322
130.28816 126.71286 225.96558
130.71103 126.74496 227.02794
131.26299 126.74421 227.09789
131.81483 126.74348 227.16641
132.48611 126.70992 226.2413
133.26962 126.64352 224.32167
133.9287 126.61001 223.39241
134.69518 126.54367 221.46811
135.23213 126.54304 221.5282
135.76901 126.54243 221.58694
136.09564 126.60749 223.6322
136.53452 126.63973 224.68301
136.87784 126.70481 226.72737
137.32858 126.73708 227.77669
137.78409 126.76934 228.82513
138.33737 126.76881 228.87758
138.79996 126.8011 229.92398
139.35551 126.80059 229.97392
139.73935 126.86572 232.01404
140.38304 126.83243 231.06569
141.02185 126.79915 230.1156
141.65582 126.76589 229.16376
142.28491 126.73265 228.21016
142.98297 126.66663 226.25816
143.52855 126.66622 226.2979
144.07407 126.66584 226.33633
144.61954 126.66547 226.37344
145.10075 126.69791 227.40665
145.64854 126.69757 227.44122
146.25571 126.66445 226.47682
146.74402 126.69693 227.50648
147.23711 126.72942 228.53508
147.78714 126.72914 228.56454
148.28737 126.76166 229.59085
148.74496 126.82697 231.61441
149.25714 126.85951 232.63867
149.81668 126.85928 232.66321
150.37619 126.85905 232.68642
151.01125 126.79328 230.71075
151.67206 126.69474 227.73457
152.02159 126.89126 233.74683
152.82808 126.62884 225.77274
153.5116 126.46478 220.79338
154.06796 126.43187 219.80859
154.68965 126.30063 215.82484
155.37605 126.03828 207.84241
155.72675 126.30045 215.84662
156.24529 126.30037 215.85564
156.75003 126.33308 216.86278
157.23683 126.43137 219.86754
157.79189 126.33299 216.87465
158.33253 126.23463 213.88037
158.84207 126.2674 214.8826
159.35463 126.33296 216.88306
159.87556 126.33298 216.88335
160.39951 126.36578 217.88185
160.91199 126.30026 215.88074
161.43053 126.30032 215.87729
161.94908 126.30038 215.87262
162.46764 126.30045 215.8667
163.01625 126.3661 217.8582
163.57449 126.43177 219.84831
164.14236 126.49745 221.83702
164.65315 126.4648 220.82657
165.20842 126.49773 221.81326
165.71445 126.4651 220.80038
166.15681 126.36692 217.7883
166.83949 126.53103 222.76701
167.71739 126.85909 232.73807
168.42352 126.99046 236.71336
169.30505 127.253 244.68138
170.43227 127.67952 257.6395
171.09583 127.7126 258.61154
171.25551 127.38499 248.59953
171.65909 127.25414 244.57797
171.78822 126.95932 235.56516
172.14143 126.82847 231.54332
172.4196 126.66482 226.5233
173.13986 126.76355 229.48538
174.05658 126.96071 235.43814
174.81299 127.0595 238.39537
175.19102 126.96149 235.36636
175.89409 127.02752 237.32274
176.53653 127.06076 238.28011
177.03848 127.0284 237.24207
177.76094 127.09448 239.19287
178.26059 127.06216 238.15225
178.9153 127.09547 239.10309
179.41028 127.06316 238.06001
179.98523 127.06369 238.0118
180.64735 127.09706 238.95781
181.13531 127.0648 237.91113
181.8024 127.0982 238.8539
182.38005 127.09879 238.79984
183.0545 127.13223 239.73909
183.53557 127.10003 238.68741
184.41812 127.19918 241.61194
185.21124 127.26553 243.53947
185.80135 127.26622 243.47704
186.28275 127.23409 242.41959
186.98183 127.26765 243.34772
187.4586 127.23555 242.2879
187.81467 127.1706 240.2345
188.51643 127.20422 241.15797
189.22314 127.23787 242.07944
189.93478 127.27155 242.99886
190.5257 127.27238 242.92468
190.98866 127.24036 241.8578
191.70787 127.2741 242.77188
192.43202 127.30787 243.68382
193.02583 127.30878 243.60341
193.61975 127.30971 243.52147
194.49409 127.37643 245.41725
195.23566 127.41031 246.32088
195.83723 127.41131 246.23338
196.58633 127.44523 247.13295
197.34042 127.47918 248.03024
198.09949 127.51315 248.92523
198.39961 127.44843 246.85568
199.16141 127.48245 247.74724
199.60924 127.45066 246.66313
200.37617 127.48473 247.5508
200.98383 127.48591 247.45026
202.09184 127.58592 250.30449
202.87625 127.62009 251.1846
203.83728 127.68725 253.04692
204.63416 127.72149 253.92171
205.25964 127.72282 253.81027
205.70648 127.6912 252.7139
206.32994 127.69257 252.59967
206.7699 127.66098 251.50137
207.2052 127.62941 250.40237
207.82443 127.63083 250.28415
208.44388 127.63228 250.16429
209.06352 127.63375 250.04279
209.87927 127.66825 250.89977
210.3035 127.63677 249.79489
211.12457 127.67134 250.64757
211.74757 127.67292 250.519
212.16522 127.64149 249.41063
212.99431 127.67616 250.25681
213.61806 127.67782 250.12321
214.66786 127.74559 251.94095
215.94301 127.84647 254.73085
216.57974 127.84825 254.58948
217.21675 127.85005 254.44635
218.07669 127.88496 255.27582
218.71671 127.88683 255.12866
219.12949 127.85564 254.00652
219.76764 127.85755 253.8564
220.17368 127.8264 252.73248
221.04489 127.86148 253.55084
221.20934 127.79726 251.4537
222.08363 127.8324 252.26791
222.96317 127.86759 253.07916
223.35855 127.83656 251.9493
223.99652 127.83868 251.78726
224.8844 127.87399 252.5912
225.77757 127.90935 253.39206
226.42149 127.91158 253.2233
227.57973 127.98022 254.98441
228.74815 128.04892 256.741
229.92682 128.11769 258.49304
230.58701 128.12012 258.31277
231.78123 128.18901 260.05695
232.44717 128.19153 259.87146
232.84177 128.16083 258.72223
233.23184 128.13016 257.57245
233.89407 128.13275 257.38248
234.27759 128.10213 256.23087
234.65659 128.07152 255.07872
235.5993 128.10748 255.8425
236.54742 128.14352 256.60278
237.79002 128.21292 258.31631
239.043 128.28239 260.02481
239.71832 128.28531 259.81778
240.69064 128.32158 260.56314
240.4724 128.22452 257.4902
240.84271 128.19415 256.32562
241.51251 128.19719 256.11261
242.79578 128.26701 257.80011
243.47157 128.27014 257.5813
244.45935 128.30672 258.31
245.45265 128.34335 259.03494
246.45148 128.38007 259.75607
246.49896 128.3165 257.63181
247.50134 128.3533 258.34769
248.50931 128.39017 259.05969
249.52284 128.42709 259.76773
250.21295 128.4306 259.52805
251.23514 128.46765 260.229
251.92888 128.47125 259.98389
253.63281 128.5755 262.55975
254.33527 128.57922 262.30734
254.35515 128.51587 260.17407
255.39786 128.55322 260.85721
256.09955 128.55707 260.59866
256.45267 128.52734 259.40128
257.5047 128.56488 260.07449
258.56238 128.60248 260.74338
258.91223 128.57285 259.54074
259.97614 128.61055 260.20288
261.04572 128.64833 260.86063
261.02789 128.58511 258.72195
261.73431 128.58929 258.44415
262.44131 128.59349 258.16388
263.52081 128.63148 258.80875
264.60602 128.66953 259.4491
266.82809 128.80894 262.86154
268.31189 128.88095 264.41409
269.04208 128.88548 264.11292
269.00339 128.82242 261.96432
269.34229 128.79315 260.73877
269.28674 128.73006 258.5925
69.529793 127.59172 212.49243
69.731041 127.62412 213.6627
70.322388 127.62032 213.91104
70.147606 127.68892 216.00343
70.74324 127.68513 216.24966
70.205086 127.78986 219.26938
70.432243 127.82223 220.44075
71.409416 127.78235 219.7576
71.640739 127.81475 220.92679
72.611931 127.77496 220.2374
73.942665 127.69916 218.61363
75.987946 127.55132 215.12131
76.212341 127.58389 216.2803
77.156334 127.5444 215.57283
77.38485 127.577 216.72977
77.61795 127.60962 217.88663
77.505699 127.67823 219.97949
78.097878 127.67487 220.20009
79.03447 127.63557 219.48074
79.623184 127.6323 219.69643
80.891151 127.55719 218.03061
82.14859 127.48216 216.35922
82.725861 127.47905 216.56548
82.305656 127.58366 219.59729
83.549171 127.50881 217.91571
83.800255 127.54166 219.0614
84.055885 127.57452 220.20697
85.283028 127.49986 218.51453
86.819565 127.38946 215.87003
87.388695 127.38662 216.06155
88.272224 127.34801 215.30281
89.4627 127.27367 213.59129
89.713226 127.30676 214.72507
89.353584 127.41138 217.76056
90.227982 127.37296 216.99217
89.282631 127.54906 221.93553
90.161171 127.51067 221.16521
90.736908 127.50806 221.3456
91.90213 127.43407 219.61458
92.179657 127.46725 220.74551
93.911713 127.32199 217.09442
93.610947 127.42661 220.13541
94.179794 127.42419 220.30557
94.74826 127.42181 220.47404
95.31636 127.41946 220.64081
95.606476 127.45279 221.7659
97.001831 127.3436 219.04779
97.563942 127.34137 219.20808
98.666199 127.26794 217.44244
99.490471 127.23019 216.63525
100.3095 127.19248 215.82507
100.59759 127.22599 216.94028
101.15067 127.22394 217.09036
101.4455 127.25748 218.20436
102.00042 127.25548 218.35193
102.55504 127.2535 218.49792
103.35993 127.21602 217.67488
103.66338 127.24964 218.78513
103.97145 127.28327 219.89508
104.28413 127.31692 221.00471
105.08298 127.27957 220.17415
105.63834 127.27776 220.31133
106.42931 127.24048 219.47583
106.98169 127.23873 219.60933
107.76481 127.20154 218.769
108.31423 127.19984 218.89886
108.86341 127.19819 219.02722
108.965 127.26746 221.10208
109.73981 127.23038 220.25398
110.29071 127.22879 220.37837
110.62502 127.26265 221.47694
110.96396 127.29653 222.57509
111.73056 127.25958 221.71931
112.07393 127.29349 222.81554
112.42197 127.32742 223.9113
112.97884 127.32595 224.02831
113.33375 127.3599 225.12265
114.09198 127.3231 224.25789
114.45135 127.35708 225.35022
115.20434 127.32034 224.48152
116.14433 127.24826 222.62965
116.8848 127.21159 221.75566
117.43304 127.2103 221.86093
118.16588 127.17369 220.98264
118.89369 127.13712 220.10202
119.25664 127.17125 221.18515
119.80177 127.17006 221.28429
120.34674 127.16889 221.38199
120.71889 127.20306 222.46263
121.09573 127.23725 223.54272
121.8129 127.20082 222.65184
122.19427 127.23505 223.72993
122.74333 127.23397 223.8214
123.4528 127.19762 222.92509
124.1573 127.16129 222.0266
124.54538 127.19557 223.10028
125.24478 127.1593 222.19821
125.63743 127.19361 223.26988
126.18326 127.19267 223.3526
126.72897 127.19173 223.43394
127.27457 127.19082 223.5139
127.39632 127.29572 226.56052
127.94892 127.29483 226.63875
128.5014 127.29396 226.71559
129.05377 127.29311 226.79105
129.73764 127.25703 225.87444
130.2874 127.25621 225.94681
130.83704 127.25542 226.01782
131.26224 127.28989 227.07907
131.8141 127.28912 227.14758
132.36588 127.28838 227.21478
133.0347 127.25243 226.2881
133.69859 127.21649 225.3595
134.46991 127.14536 223.43593
135.23151 127.07426 221.5099
135.8759 127.0384 220.57513
136.20013 127.10821 222.61998
136.84196 127.07238 221.68224
137.37863 127.07179 221.73705
137.62163 127.17683 224.77425
137.97446 127.24668 226.81673
138.4299 127.28133 227.86375
138.79944 127.35118 229.90515
139.26677 127.38585 230.95059
139.73885 127.42052 231.99506
140.38255 127.38483 231.04678
141.02139 127.34915 230.09679
141.65538 127.3135 229.14503
142.28448 127.27786 228.19154
142.98257 127.20705 226.2397
143.52815 127.20664 226.27946
144.07368 127.20625 226.31789
144.55255 127.24104 227.35217
145.03619 127.27585 228.38541
145.5246 127.31067 229.41766
146.13658 127.27515 228.45364
146.6297 127.31 229.48349
147.18221 127.30968 229.5144
147.73466 127.30938 229.54398
148.3369 127.27393 228.57408
148.83951 127.30882 229.59911
149.34688 127.34373 230.62306
149.94421 127.30833 229.6489
150.49654 127.30811 229.6718
151.1244 127.23756 227.69604
151.70726 127.2022 226.71735
152.08739 127.37784 231.73019
152.82793 127.16669 225.75446
153.48328 127.02589 221.77449
154.04205 126.9906 220.78983
154.66617 126.84984 216.80647
155.31302 126.63877 210.82304
155.70808 126.84964 216.82835
156.21286 126.88472 217.83665
156.72243 126.91982 218.84381
157.2254 126.99008 220.84904
157.80083 126.81425 215.85774
158.3325 126.7439 213.86307
158.84624 126.7439 213.86583
159.35641 126.81421 215.8661
159.87433 126.77907 214.86703
160.39651 126.84941 216.86485
160.90662 126.77914 214.86392
161.43059 126.81435 215.85983
161.93892 126.77926 214.85583
162.46771 126.8145 215.84921
162.9863 126.8146 215.84204
163.55717 126.92018 218.8313
164.10283 126.95547 219.82068
164.65329 126.99077 220.8087
165.20857 127.02608 221.79532
165.7146 126.99108 220.7825
166.12755 126.85061 216.77173
166.83969 127.06178 222.74896
167.78609 127.48399 234.71678
168.6436 127.76555 242.68642
169.53957 128.04715 250.65324
170.88844 128.68048 268.60236
171.70998 128.82147 272.56839
171.76456 128.36459 259.56079
171.99997 128.08354 251.5455
172.14592 127.76733 242.53255
172.40904 127.55663 236.51427
172.36407 127.17003 225.50705
173.19847 127.34628 230.46437
174.11763 127.55774 236.41653
174.81339 127.6285 238.37595
175.12598 127.48819 234.34998
175.82664 127.55899 236.30634
176.53697 127.62981 238.26065
177.03894 127.59509 237.2227
177.68633 127.63077 238.1768
178.18359 127.59608 237.13641
178.83592 127.63179 238.08737
179.2462 127.56193 236.04855
179.81635 127.56247 236.00073
180.56079 127.63344 237.94267
181.13589 127.63403 237.89163
181.80299 127.66983 238.8343
182.47499 127.70566 239.77512
183.15187 127.74152 240.71407
183.73451 127.74217 240.65669
184.41878 127.77807 241.59206
185.21193 127.84921 243.51944
185.80205 127.84993 243.45697
186.28346 127.81544 242.39958
186.98256 127.85143 243.32764
187.45937 127.81696 242.2679
187.81543 127.74728 240.21461
188.51723 127.78333 241.13802
189.10312 127.78415 241.06735
189.81236 127.82024 241.98695
190.27522 127.78585 240.92162
190.98952 127.82198 241.83768
191.70876 127.85815 242.75169
192.43294 127.89433 243.66354
193.02676 127.89528 243.58311
193.6207 127.89626 243.50119
194.49506 127.96779 245.39674
195.23666 128.00409 246.30026
195.83826 128.00513 246.21278
196.58737 128.04147 247.11223
197.34148 128.07787 248.0094
198.10057 128.11427 248.90431
198.40071 128.04482 246.8349
199.00546 128.04596 246.73938
199.4509 128.01184 245.65575
200.21544 128.04834 246.5437
200.82068 128.04956 246.44354
201.75958 128.12146 248.31256
202.70834 128.19339 250.17834
203.49538 128.23003 251.05634
204.28745 128.26671 251.9319
205.08455 128.30342 252.80499
205.70784 128.30482 252.69235
206.15002 128.27089 251.59531
206.7713 128.27234 251.47987
207.5789 128.30916 252.34467
208.01443 128.27528 251.24405
208.63632 128.27681 251.1237
209.25844 128.27835 251.00172
209.88077 128.27992 250.8781
210.30504 128.24612 249.7733
210.9254 128.24774 249.64688
211.54599 128.24939 249.51875
212.16684 128.25105 249.38898
212.78793 128.25276 249.25757
213.61972 128.28992 250.10139
214.45665 128.3271 250.9425
215.72942 128.43523 253.73267
216.14595 128.40163 252.61644
216.77811 128.4035 252.4744
217.41054 128.4054 252.33063
218.26836 128.44279 253.15877
218.4487 128.37379 251.06471
219.30957 128.41127 251.88882
220.17563 128.44878 252.71005
220.81198 128.45084 252.55695
220.97398 128.38191 250.46049
221.84587 128.41953 251.27522
222.72298 128.4572 252.08691
223.36064 128.4594 251.92668
223.75148 128.42606 250.7963
225.13617 128.53496 253.53613
226.03183 128.57283 254.33623
226.67822 128.57518 254.16676
227.83896 128.64871 255.927
229.26935 128.75792 258.64783
229.92918 128.76041 258.46945
230.58942 128.76294 258.28918
232.05054 128.87236 260.99622
232.44968 128.83937 259.8476
232.84427 128.8064 258.69839
233.50861 128.80908 258.50964
234.17336 128.81181 258.31894
234.00101 128.70758 255.24751
234.65921 128.71034 255.05499
235.60196 128.74884 255.81859
236.55014 128.7874 256.5788
237.50372 128.82602 257.33545
239.04584 128.93614 260.00034
240.01523 128.97491 260.74838
240.69356 128.978 260.53848
240.47531 128.87386 257.46576
241.14716 128.87698 257.254
241.21149 128.80861 255.13615
242.18582 128.8476 255.873
243.16565 128.88664 256.60614
244.46248 128.96156 258.28513
245.14185 128.96494 258.06116
246.45471 129.04002 259.7309
247.14015 129.04349 259.50092
248.14761 129.08289 260.21497
248.83664 129.08646 259.97971
249.85272 129.12596 260.68674
250.54538 129.12964 260.44611
251.57013 129.16928 261.14603
252.26643 129.17305 260.89999
253.63641 129.24876 262.5336
254.3389 129.25266 262.28113
254.70038 129.22063 261.08716
255.40152 129.22459 260.83093
255.75665 129.1926 259.63504
256.10727 129.16063 258.43863
256.80511 129.16469 258.17719
258.21201 129.24091 259.78232
258.55936 129.20901 258.58066
259.26151 129.21324 258.31107
259.96423 129.21748 258.03903
261.03192 129.2579 258.69519
261.73834 129.26225 258.4173
262.81482 129.30278 259.06549
264.26892 129.37955 260.63669
265.35925 129.42024 261.27481
267.20941 129.53339 263.75928
267.55692 129.50185 262.53723
267.89984 129.47031 261.3147
268.23822 129.43878 260.09174
268.18469 129.371 257.94708
268.12149 129.30319 255.8042
70.697769 128.03592 209.70876
70.115395 128.14793 212.71745
71.089653 128.10536 212.04285
70.14399 128.25592 215.97894
70.739639 128.25197 216.22527
70.201477 128.36382 219.24471
70.428635 128.39845 220.41605
71.778572 128.31744 218.80591
72.377548 128.3136 219.0459
73.711349 128.23276 217.42549
74.669441 128.19051 216.72916
76.34716 128.07137 214.16649
76.208984 128.14468 216.25662
76.437996 128.17953 217.41551
77.026573 128.17595 217.64026
77.614693 128.17239 217.86301
77.852379 128.20729 219.01974
78.09465 128.24219 220.17636
79.37619 128.16197 218.51935
79.96241 128.15857 218.73419
81.227936 128.07851 217.06769
81.808197 128.07521 217.27682
82.722862 128.03363 216.54254
83.29969 128.03043 216.74699
83.876076 128.02725 216.94952
84.451996 128.02411 217.15019
85.027481 128.02101 217.349
85.92485 127.97971 216.60008
86.816788 127.93845 215.84763
87.068604 127.97372 216.98672
88.269531 127.89436 215.28058
89.147697 127.85329 214.51852
89.710602 127.85046 214.70303
89.35096 127.9622 217.7383
89.920502 127.9594 217.92169
89.280022 128.10925 221.91298
90.158607 128.06834 221.14278
91.031815 128.02751 220.36926
92.194618 127.9486 218.63766
92.762161 127.94599 218.8123
94.489326 127.79104 215.16014
93.896088 127.94086 219.15639
94.462486 127.93836 219.32587
94.745934 127.97395 220.45213
95.314079 127.9715 220.61893
95.604202 128.00711 221.74397
96.999626 127.89063 219.02617
97.561768 127.88831 219.18651
98.664063 127.80999 217.42113
99.488388 127.76974 216.61404
100.30745 127.72955 215.80399
100.85841 127.72739 215.95505
101.40907 127.72527 216.10452
101.70146 127.76112 217.21782
102.50945 127.72109 216.39868
102.80614 127.757 217.51013
103.35804 127.75497 217.65392
103.41337 127.82884 219.7321
103.96959 127.82686 219.87401
104.28229 127.86282 220.98357
105.08118 127.823 220.15312
105.63656 127.82111 220.29034
106.19167 127.81925 220.42601
106.74652 127.81742 220.56015
107.30111 127.81561 220.69272
107.85544 127.81384 220.82378
108.40953 127.8121 220.95331
108.96337 127.81037 221.08128
109.95946 127.73301 219.2588
110.72676 127.69353 218.40765
111.05621 127.72974 219.50505
111.60425 127.72813 219.62595
112.15206 127.72656 219.74535
