ply
format ascii 1.0
comment PCL generated
element vertex 1597
property float x
property float y
property float z
element camera 0
property float view_px
property float view_py
property float view_pz
property float x_axisx
property float x_axisy
property float x_axisz
property float y_axisx
property float y_axisy
property float y_axisz
property float z_axisx
property float z_axisy
property float z_axisz
property float focal
property float scalex
property float scaley
property float centerx
property float centery
property int viewportx
property int viewporty
property float k1
property float k2
end_header
91.527054 139.70006 219.74658
92.393364 139.60643 218.9722
94.415642 139.15845 214.38329
94.10994 139.41949 217.41359
94.674835 139.41475 217.58377
95.522263 139.32153 216.79716
95.523102 139.494 218.87474
96.367317 139.40094 218.08401
96.655281 139.48495 219.20459
97.22084 139.4805 219.36696
97.786049 139.47614 219.52765
98.61898 139.38339 218.72737
99.446655 139.29074 217.92403
100.26906 139.19818 217.11768
100.82553 139.19411 217.2697
101.63991 139.10173 216.45807
102.19329 139.09778 216.60619
102.49304 139.18224 217.71611
103.04828 139.17839 217.86168
103.35481 139.26291 218.97031
104.15784 139.17088 218.14807
104.46869 139.25548 219.25478
104.78416 139.34009 220.36116
105.82001 139.16003 218.56583
106.13737 139.24475 219.66968
106.69305 139.24129 219.80486
107.71094 139.06151 218.00069
108.49 138.97 217.16208
108.8112 139.0549 218.26094
109.58486 138.96353 217.41815
110.35339 138.87225 216.57274
110.67876 138.95728 217.66817
110.79218 139.13042 219.7355
111.55755 139.03931 218.88503
111.68272 139.21248 220.95201
112.02666 139.29759 222.04578
112.37526 139.38274 223.13908
113.13731 139.29182 222.28206
113.49036 139.37703 223.37337
114.04758 139.37427 223.48828
114.99879 139.19553 221.64882
115.94008 139.01691 219.80595
116.67921 138.92635 218.93704
117.2235 138.92381 219.04362
117.95497 138.83337 218.17039
118.3115 138.91888 219.25244
118.67271 139.00441 220.33397
119.57889 138.8262 218.4758
119.94218 138.9118 219.55493
120.4854 138.90955 219.65291
120.85564 138.99521 220.73048
121.40096 138.99301 220.82603
121.4422 139.25446 223.8658
121.99448 139.25232 223.95978
122.5466 139.25021 224.05231
123.41998 139.07248 222.17726
123.96697 139.07047 222.26617
124.82556 138.89285 220.38594
125.36743 138.89095 220.47127
125.90916 138.88908 220.55522
126.30215 138.97505 221.62276
126.84605 138.97325 221.7043
127.10227 139.14706 223.75587
127.65076 139.14531 223.83534
128.06017 139.23138 224.89984
128.33777 139.40523 226.95032
128.89314 139.40358 227.02663
129.58011 139.31421 226.11412
130.00357 139.40038 227.17503
130.68549 139.3111 226.25912
131.36247 139.22186 225.34116
131.79044 139.30814 226.39853
132.58205 139.13127 224.48828
133.12946 139.12988 224.55396
133.67677 139.12852 224.61826
134.33641 139.03952 223.69141
135.10114 138.86285 221.77261
135.42578 139.03699 223.81268
136.07553 138.94809 222.88066
136.6176 138.94691 222.93767
137.05925 139.03343 223.98439
137.50563 139.11998 225.03026
138.14784 139.03123 224.09215
138.59889 139.11783 225.13582
138.96397 139.29211 227.17058
139.51524 139.29111 227.2204
140.06647 139.29012 227.26886
140.5341 139.37682 228.30865
141.0876 139.3759 228.35463
141.79843 139.19975 226.41315
142.27071 139.28653 227.44925
142.89551 139.19807 226.49754
143.51544 139.10966 225.54416
143.99239 139.19653 226.5766
144.54076 139.1958 226.61411
145.08908 139.19508 226.65027
145.51364 139.36963 228.67358
146.12614 139.28137 227.71298
146.61969 139.36835 228.73981
147.11803 139.45537 229.76558
147.67336 139.45479 229.79544
148.22865 139.45425 229.82397
148.64163 139.71652 232.83624
149.24911 139.62845 231.86728
149.85175 139.54041 230.89674
150.44954 139.45238 229.92462
151.04251 139.36441 228.95099
151.63066 139.27646 227.97585
152.11494 139.45128 229.98601
152.67003 139.45096 230.00374
153.25331 139.3631 229.0244
153.83176 139.27527 228.04358
154.38199 139.27504 228.05721
154.9532 139.18726 227.07355
155.48242 139.27466 228.08043
155.98405 139.53723 231.07813
156.51389 139.71227 233.07867
157.0761 139.71216 233.08578
157.63829 139.7121 233.09152
158.19389 139.79962 234.09204
158.7585 139.79962 234.09511
159.32664 139.62448 232.10446
159.8858 139.53696 231.10864
160.44926 139.71217 233.09993
161.00604 139.62469 232.10138
161.55801 139.53725 231.1015
162.12569 139.62497 232.09253
162.68552 139.62515 232.08611
163.24536 139.62535 232.07829
163.82268 139.71317 233.06514
164.42465 139.8886 235.04652
165.03627 140.06404 237.02631
165.63286 140.15195 238.00868
166.20721 140.1523 237.99371
166.7816 140.15268 237.97737
167.32414 140.06552 236.96402
167.86191 139.97836 235.94942
168.43158 139.97882 235.92906
169.00127 139.97932 235.90733
169.65396 140.15503 237.87483
170.22852 140.15559 237.85016
170.80313 140.15617 237.82407
171.37778 140.1568 237.79657
172.00356 140.24504 238.76254
172.6342 140.33333 239.72687
173.2697 140.42165 240.68951
173.91005 140.51001 241.65045
174.43382 140.42316 240.62112
175.07909 140.5116 241.57893
175.66368 140.51242 241.54103
176.24834 140.51331 241.50169
176.9034 140.60182 242.45459
177.56332 140.6904 243.40573
178.00267 140.5161 241.37512
178.51001 140.42944 240.33693
178.93263 140.25519 238.30478
179.42807 140.16858 237.26468
179.91878 140.082 236.22362
180.57912 140.17076 237.16617
181.06514 140.08423 236.1227
181.63844 140.0854 236.0701
182.30623 140.17427 237.00777
183.07576 140.35088 238.93498
183.75577 140.43985 239.86865
184.44069 140.52885 240.80034
185.13052 140.61792 241.73013
185.71881 140.61932 241.66748
186.30717 140.62076 241.60338
186.78436 140.53452 240.5479
187.37051 140.53603 240.48116
187.84067 140.44983 239.42358
188.42464 140.4514 239.35417
189.0087 140.453 239.28333
189.8396 140.63014 241.18793
190.42873 140.63184 241.11354
191.40254 140.89685 244.00122
191.99916 140.89864 243.9229
192.5959 140.90048 243.84309
193.46364 141.07791 245.73553
194.20334 141.16763 246.63857
194.66745 141.0818 245.56697
195.26956 141.0838 245.48038
195.87183 141.08586 245.39229
196.32671 141.00012 244.3175
197.0768 141.09009 245.21149
197.6795 141.09225 245.11874
198.28236 141.09447 245.02448
198.88541 141.09674 244.92867
199.48859 141.09903 244.83128
200.09195 141.10138 244.73235
200.69548 141.10378 244.63185
201.29919 141.10622 244.52982
202.07242 141.19661 245.40784
202.85066 141.28706 246.28342
203.63396 141.37759 247.15654
204.4223 141.46819 248.02721
205.39474 141.6468 249.87534
206.19562 141.73755 250.74057
206.44989 141.56445 248.66628
207.06729 141.56732 248.54924
207.68494 141.57025 248.43059
207.92038 141.39722 246.35506
208.72723 141.48824 247.21121
209.7352 141.66736 249.04134
210.55469 141.75854 249.89174
211.17833 141.76176 249.76382
211.80222 141.76503 249.63422
212.63219 141.85643 250.47758
213.25902 141.85982 250.34407
214.3075 142.03947 252.15604
214.93974 142.043 252.01807
215.78783 142.13472 252.85085
216.20506 142.05023 251.73692
217.27907 142.23027 253.53658
217.69443 142.14587 252.41968
218.55589 142.23792 253.24269
219.19476 142.24182 253.09312
220.29443 142.42224 254.88
220.70613 142.33807 253.75716
221.34837 142.34219 253.60158
221.75336 142.2581 252.4769
222.39383 142.26234 252.31834
223.03464 142.26663 252.15797
223.67577 142.271 251.99576
224.56468 142.36375 252.79662
225.70874 142.54497 254.55859
226.86301 142.72632 256.31613
227.77269 142.81943 257.10623
228.94495 143.00104 258.85544
229.60797 143.00595 258.67679
230.27142 143.01094 258.49625
230.93524 143.01599 258.31372
231.33235 142.93265 257.16968
231.72493 142.84932 256.02505
232.11298 142.76604 254.87984
232.49651 142.6828 253.7341
233.15253 142.68814 253.54456
234.36801 142.87071 255.26517
234.74788 142.78764 254.1149
235.69218 142.88187 254.87328
236.64188 142.9762 255.62813
237.88646 143.1593 257.33255
238.84952 143.25389 258.07956
239.81802 143.3486 258.82294
240.79199 143.44345 259.56268
242.07085 143.62717 261.24878
242.75638 143.6335 261.03113
243.13809 143.55112 259.86298
243.82216 143.5576 259.64182
244.50677 143.56416 259.41852
244.56815 143.39305 257.30109
245.56317 143.48862 258.0202
246.24683 143.49539 257.79114
247.56981 143.68015 259.44678
248.58148 143.77609 260.15417
249.27429 143.78319 259.91586
249.96768 143.79037 259.67529
251.32047 143.97572 261.31241
252.6839 144.16127 262.94366
253.05455 144.0797 261.75443
254.09473 144.17641 262.43927
254.80101 144.18408 262.1835
254.82382 144.01349 260.0545
255.18164 143.93207 258.86136
256.22919 144.02914 259.53488
256.93271 144.03708 259.27148
257.63681 144.0451 259.00565
258.69617 144.14252 259.66815
259.04672 144.06136 258.4668
259.39279 143.98019 257.26495
259.73431 143.89905 256.06265
260.80103 143.99681 256.71344
261.50595 144.00522 256.43399
262.95129 144.1927 258.00156
264.03491 144.29083 258.63882
265.49915 144.47864 260.19415
266.97415 144.66663 261.74283
267.69958 144.67554 261.44357
268.80823 144.77417 262.06128
268.38147 144.51411 259.00046
269.87888 144.70255 260.53033
270.21588 144.62187 259.3045
68.625763 140.68344 213.36942
69.220566 140.67604 213.6232
69.429092 140.76071 214.79277
69.258957 140.93739 216.88139
70.241188 140.83801 216.21201
71.217941 140.73871 215.53838
71.813454 140.73145 215.7827
72.781761 140.63234 215.10179
73.744583 140.53333 214.41672
73.965645 140.6181 215.578
74.556946 140.61107 215.81302
75.510849 140.51231 215.11879
76.09874 140.5054 215.34872
76.328209 140.59027 216.50583
77.628647 140.40009 214.87238
77.859749 140.48503 216.02643
77.39463 140.75325 219.04463
78.335732 140.65495 218.33435
78.925964 140.64835 218.55415
79.858582 140.55026 217.83704
81.126015 140.36078 216.18028
82.045135 140.26295 215.45462
82.288177 140.34819 216.60059
83.201363 140.25055 215.86928
83.44854 140.33586 217.0132
83.700279 140.42119 218.15698
84.932343 140.23245 216.47701
85.831207 140.13521 215.73372
86.724609 140.03809 214.98688
86.977097 140.12366 216.12404
87.549408 140.11798 216.31641
88.121277 140.11238 216.50697
88.692719 140.10684 216.69572
88.955994 140.19255 217.8297
89.529099 140.18713 218.01563
88.285149 140.72859 223.89189
89.773224 140.44981 221.2305
90.352554 140.44453 221.41341
90.931488 140.4393 221.5945
91.802841 140.34311 220.82199
94.41095 139.70087 214.33072
94.105247 139.96902 217.36041
94.670212 139.96417 217.53069
95.234795 139.9594 217.69923
95.238136 140.13657 219.77718
95.806938 140.13187 219.94376
96.099884 140.21814 221.06563
96.670441 140.21356 221.22952
97.781761 140.02731 219.47491
98.614784 139.93207 218.6749
99.442528 139.8369 217.87189
100.26501 139.74185 217.06583
101.08224 139.64688 216.25681
101.37775 139.73357 217.36844
101.93365 139.72951 217.51732
102.23592 139.81625 218.6277
102.29192 139.99373 220.70154
102.85426 139.98981 220.84753
103.41632 139.98593 220.99188
103.97807 139.98213 221.13466
104.78058 139.88774 220.30959
105.81651 139.70279 218.51479
106.13391 139.78983 219.61847
106.68964 139.78629 219.75371
107.70762 139.60162 217.95006
108.48674 139.50763 217.11176
108.80798 139.59485 218.21045
109.58171 139.50101 217.36794
110.3503 139.40726 216.52283
110.6757 139.4946 217.61809
110.78915 139.67247 219.68501
111.55459 139.57889 218.83482
111.89149 139.66632 219.92831
112.23304 139.75377 221.02138
112.57924 139.84125 222.11398
112.93009 139.92874 223.20613
113.2856 140.01628 224.29779
114.04486 139.92302 223.43753
114.79903 139.82983 222.5748
115.74281 139.64633 220.73289
116.67668 139.46292 218.88759
117.22101 139.46033 218.9942
117.95253 139.36745 218.12126
118.12413 139.54562 220.18173
118.67034 139.54315 220.28447
119.57657 139.36011 218.42683
119.9399 139.44806 219.50577
120.48316 139.44572 219.60378
120.6806 139.62401 221.66199
121.22838 139.62175 221.75804
121.44005 139.80006 223.81595
121.99236 139.79787 223.90994
122.54453 139.79572 224.00253
123.57869 139.5229 221.1451
123.965 139.61108 222.21692
124.66776 139.51886 221.3208
125.36555 139.4267 220.42252
125.75629 139.51498 221.49091
126.30035 139.51309 221.57385
126.99049 139.42107 220.6703
127.10052 139.68979 223.70662
127.79041 139.59784 222.80028
128.19745 139.68626 223.86423
128.60918 139.77472 224.92749
129.15976 139.77304 225.00314
129.84195 139.68126 224.09027
130.1313 139.85992 226.13782
130.81085 139.76822 225.22185
131.36101 139.76669 225.29196
131.789 139.8553 226.34912
132.46101 139.76373 225.42805
133.24533 139.58211 223.51602
133.67545 139.67082 224.56937
134.33513 139.57939 223.64275
135.09988 139.39792 221.72443
135.42456 139.57681 223.76407
136.17952 139.39542 221.84195
136.71922 139.39423 221.89873
137.25883 139.39305 221.95413
137.79839 139.39192 222.00824
138.33786 139.39082 222.061
138.59785 139.65988 225.08713
138.96295 139.8389 227.12148
139.42593 139.9279 228.16338
139.97958 139.92691 228.21207
140.53317 139.92593 228.25941
141.1678 139.83496 227.31277
141.79756 139.74405 226.36438
142.34616 139.74318 226.40727
143.04247 139.56232 224.46243
143.58615 139.56151 224.50227
144.19885 139.47073 223.54726
144.67337 139.56 224.57802
145.15265 139.64928 225.60776
145.57484 139.82858 227.63046
146.1255 139.82791 227.66412
146.56204 140.00726 229.68507
147.11745 140.00665 229.71631
147.62056 140.09605 230.74078
148.22813 140.00552 229.77477
148.73599 140.09497 230.79677
149.33868 140.0045 229.82779
149.97917 139.8241 227.86223
150.48935 139.91364 228.88033
151.11777 139.73328 226.91159
151.63031 139.82288 227.92706
152.14763 139.91251 228.94142
152.66972 140.00215 229.95459
153.30945 139.73196 226.98438
153.83151 139.82166 227.99489
154.40518 139.73146 227.0128
154.95302 139.73126 227.02504
155.48227 139.82104 228.03172
155.96773 140.18073 232.02461
156.51378 140.27057 233.02888
157.076 140.27048 233.03601
157.63823 140.2704 233.04176
158.20045 140.27036 233.04616
158.76268 140.27034 233.04919
159.32668 140.1804 232.05495
159.88649 140.18045 232.05525
160.45238 140.36044 234.04611
161.0116 140.27058 233.04776
161.56599 140.18074 232.04808
162.12585 140.18091 232.04298
162.68571 140.18109 232.03654
163.26064 140.27126 233.02455
163.84038 140.36147 234.01115
164.40509 140.36174 234.00058
165.01433 140.54198 235.98
165.63321 140.72223 237.95779
166.2076 140.7226 237.94287
166.782 140.72299 237.92651
167.35645 140.72342 237.90878
167.86237 140.54391 235.89897
168.39539 140.45442 234.88335
168.96269 140.45493 234.86169
169.57153 140.54544 235.83376
170.14133 140.54599 235.80927
170.75745 140.63658 236.77826
171.3784 140.7272 237.74564
172.05533 140.90784 239.70599
172.6349 140.90854 239.67549
173.27042 140.99927 240.63789
173.91081 141.09003 241.5986
174.43462 141.00081 240.56946
175.01678 141.00163 240.53311
175.66454 141.0925 241.48914
176.18129 141.00337 240.45615
176.83397 141.09431 241.40903
177.49153 141.18529 242.36009
177.9285 141.00623 240.33006
178.43346 140.91722 239.29227
178.93367 140.82823 238.25342
179.42914 140.73926 237.21353
179.91986 140.65033 236.17264
180.49304 140.65146 236.12286
180.97668 140.56256 235.07976
181.4556 140.47369 234.03571
182.11861 140.56497 234.9736
182.78653 140.65631 235.90962
183.45935 140.74768 236.84375
184.23872 140.92917 238.76666
184.92378 141.02065 239.6967
185.61375 141.11215 240.6248
186.30862 141.20372 241.55086
186.89714 141.20523 241.48529
187.25833 141.02655 239.43936
187.84222 141.02812 239.37141
188.42621 141.02972 239.30197
189.13127 141.12151 240.21964
189.84128 141.21333 241.13524
190.55621 141.30521 242.04877
191.40431 141.48729 243.94781
192.00096 141.48914 243.86948
192.73077 141.58118 244.77661
193.46555 141.67326 245.68158
194.20529 141.76543 246.58437
194.80972 141.76744 246.49896
195.27159 141.67931 245.42633
195.8739 141.6814 245.33818
196.3288 141.59334 244.26358
196.92899 141.5955 244.17271
197.6817 141.68796 245.06453
198.43941 141.78047 245.95406
199.04489 141.78279 245.85779
199.65054 141.78516 245.75995
200.25638 141.78758 245.6606
200.86238 141.79004 245.55963
201.63547 141.88284 246.43896
202.24426 141.88541 246.33446
203.02499 141.97833 247.20935
203.81078 142.07132 248.08182
204.60161 142.16438 248.9518
205.39749 142.25752 249.81927
206.19843 142.35072 250.68422
206.45273 142.17291 248.61031
207.07019 142.17586 248.49324
207.68787 142.17885 248.3745
208.30576 142.1819 248.25414
209.11752 142.27541 249.10904
210.13046 142.45943 250.9377
210.75635 142.46268 250.81091
211.38249 142.46597 250.68242
212.00888 142.46933 250.55228
212.63551 142.47275 250.42039
213.05415 142.38573 249.31296
214.10027 142.57025 251.12492
214.94327 142.66437 251.96022
215.79144 142.75858 252.79272
215.99069 142.58124 250.70724
217.06233 142.76613 252.50688
217.69821 142.77 252.36133
218.55975 142.86453 253.18407
219.19868 142.86853 253.03442
220.29843 143.05385 254.82079
220.71017 142.96738 253.69804
221.35249 142.9716 253.54243
221.75752 142.88521 252.41786
222.63812 142.98022 253.22572
223.03893 142.89394 252.09879
223.92511 142.98912 252.90175
224.56912 142.99368 252.73703
225.46338 143.08905 253.53442
226.6153 143.27531 255.29207
228.03224 143.55251 258.00797
228.94978 143.64825 258.79388
229.61288 143.65327 258.61514
230.5386 143.74924 259.39523
230.94029 143.66356 258.25189
231.07028 143.48703 256.14859
231.46045 143.40141 255.00479
231.84607 143.31583 253.8604
232.50174 143.32121 253.67273
233.15784 143.32669 253.48309
234.0939 143.42323 254.2473
234.18936 143.24686 252.14281
235.41327 143.4346 253.85667
236.64755 143.62251 255.56555
237.89224 143.81058 257.26938
238.85541 143.90773 258.01602
240.11844 144.09612 259.71042
241.095 144.19354 260.44901
242.07704 144.29108 261.18393
242.76266 144.29758 260.96619
243.44881 144.30414 260.74628
244.13547 144.31079 260.5242
244.20386 144.13501 258.40686
244.26277 143.9592 256.29062
245.25539 144.05731 257.01016
245.93663 144.06421 256.7818
247.25723 144.25394 258.43768
247.94458 144.26106 258.20322
248.95688 144.35968 258.90799
249.97476 144.45845 259.60876
251.65714 144.74028 262.18497
252.69122 144.83937 262.87585
253.39645 144.84708 262.62469
254.77623 145.03795 264.24521
255.14812 144.95428 263.05139
255.51553 144.87065 261.85703
255.53387 144.6954 259.72784
256.58401 144.79512 260.39999
257.29016 144.80327 260.13547
257.99686 144.81149 259.86856
258.34943 144.72804 258.66876
259.41199 144.82817 259.32745
259.76062 144.74481 258.12469
259.38007 144.47775 255.06648
260.44431 144.57809 255.71783
261.51416 144.67856 256.36475
262.58966 144.77914 257.00714
263.67078 144.87987 257.64502
265.50769 145.1647 260.12317
266.98279 145.35776 261.67117
268.08844 145.45892 262.29208
268.81699 145.46811 261.98901
269.16074 145.38521 260.7652
270.27554 145.4866 261.37515
270.61508 145.40372 260.14828
68.227524 141.34541 214.22403
68.824905 141.33783 214.47902
69.807922 141.23579 213.81424
69.635208 141.41721 215.9014
70.614952 141.31526 215.23132
70.83255 141.40221 216.39876
71.054863 141.48912 217.56616
71.65509 141.48169 217.81062
72.62561 141.38 217.12903
73.222458 141.37271 217.36829
73.818878 141.36545 217.60547
75.504112 141.07564 215.05965
75.731506 141.16277 216.21768
76.321541 141.15573 216.44672
77.266617 141.05466 215.74379
78.206169 140.95369 215.03694
77.738503 141.22906 218.05356
79.025078 141.03419 216.40988
79.610329 141.02751 216.62794
80.537979 140.92691 215.90936
81.460159 140.82643 215.18695
81.701172 140.91391 216.3338
82.282089 140.9075 216.54312
82.862549 140.90117 216.75052
82.781982 141.08255 218.8344
83.038788 141.1701 219.9798
84.60125 140.88257 217.36124
85.502708 140.78275 216.61919
86.718979 140.58934 214.93088
87.289268 140.5835 215.12437
87.859146 140.57771 215.31601
88.428581 140.57201 215.50584
88.997597 140.56636 215.69386
88.64286 140.84158 218.72061
89.523804 140.74243 217.95979
88.27977 141.29826 223.83475
89.767982 141.01213 221.17418
90.347382 141.00671 221.35719
91.221718 140.90788 220.58759
92.090683 140.80917 219.81464
94.696526 140.14995 213.32436
94.388329 140.42526 216.35274
94.950882 140.42032 216.52232
95.230125 140.50882 217.64481
95.23349 140.6907 219.72235
95.802353 140.6859 219.88904
96.095345 140.77448 221.01076
96.939003 140.6765 220.21729
98.047958 140.48535 218.46254
99.146698 140.29436 216.70331
99.969589 140.19673 215.89923
100.52405 140.19243 216.05238
101.3389 140.09497 215.24298
101.63198 140.18398 216.35381
101.92967 140.27301 217.46434
101.97864 140.4552 219.53746
102.53889 140.45114 219.68449
103.09884 140.44714 219.82991
103.65849 140.44321 219.97375
103.97433 140.53238 221.08136
104.77692 140.4355 220.25658
105.57432 140.3387 219.429
105.89422 140.42802 220.5331
106.68616 140.33139 219.70117
107.93549 140.04884 216.92961
108.48341 140.04538 217.06007
109.25745 139.94901 216.21938
110.02635 139.85272 215.37605
110.56863 139.84944 215.50082
110.89163 139.93912 216.59535
111.00266 140.12173 218.66136
111.55155 140.11856 218.78328
111.46502 140.39406 221.82242
112.02078 140.39096 221.94292
112.36945 140.48076 223.03589
112.9272 140.47775 223.1539
113.48473 140.47479 223.27042
114.04205 140.47188 223.38544
114.7963 140.37622 222.52299
115.74015 140.18787 220.68158
116.48183 140.09238 219.81374
117.21846 139.99696 218.94345
117.95004 139.90161 218.07077
118.12167 140.08453 220.13084
118.48537 140.17473 221.21248
119.21398 140.07953 220.33504
119.58219 140.16978 221.41466
120.13035 140.16739 221.51361
120.50549 140.25771 222.59171
121.05575 140.25539 222.6882
121.26985 140.43842 224.74615
121.82463 140.43616 224.84061
122.54241 140.34131 223.95139
123.41591 140.1539 222.07732
123.96298 140.15179 222.16629
124.97757 139.87192 219.3036
125.51709 139.86992 219.38864
126.05649 139.86798 219.47229
126.74438 139.77348 218.56999
127.42731 139.67905 217.66562
127.6739 139.86237 219.71494
128.2128 139.86057 219.79308
128.61261 139.95137 220.85583
128.74405 140.22726 223.89047
129.15811 140.3181 224.95247
129.70862 140.31642 225.02679
130.00041 140.49982 227.07426
130.80931 140.31317 225.17126
131.3595 140.31161 225.24142
131.90958 140.31007 225.31017
132.57922 140.21608 224.38905
133.36118 140.02966 222.47723
133.67409 140.21323 224.51918
134.3338 140.11935 223.59279
134.9886 140.02554 222.66454
135.3157 140.20918 224.70406
135.96794 140.11545 223.77281
136.51248 140.1142 223.83012
137.05696 140.11299 223.88605
137.50339 140.20427 224.93152
138.05013 140.20313 224.98502
138.41051 140.38687 227.01985
138.78044 140.57065 229.05424
139.33659 140.56958 229.10457
139.89268 140.56854 229.1535
140.53223 140.47513 228.20885
141.08578 140.47417 228.25485
141.79668 140.28842 226.31429
142.34531 140.28754 226.35719
142.96777 140.19427 225.40579
143.58537 140.10106 224.45268
144.1981 140.00787 223.49789
144.67264 140.09952 224.52844
145.21622 140.09879 224.56432
145.57416 140.37523 227.58028
146.12486 140.37454 227.61395
146.56142 140.55865 229.63448
147.06219 140.65039 230.65994
147.62 140.6498 230.68999
148.2276 140.55685 229.72418
148.68805 140.74106 231.74057
149.29318 140.64819 230.77196
149.89348 140.55536 229.80177
150.44872 140.5549 229.82492
151.07956 140.36978 227.85672
151.62994 140.36938 227.87698
152.14729 140.4614 228.89113
152.70003 140.46106 228.90883
153.30917 140.27606 226.93452
153.83127 140.36815 227.94481
154.40495 140.27556 226.963
154.93184 140.36769 227.97072
155.4635 140.45985 228.97723
155.96759 140.73674 231.97369
156.51367 140.82896 232.97778
157.06454 140.9212 233.98055
157.63818 140.8288 232.99065
158.207 140.7364 231.99936
158.77103 140.64404 231.00665
159.33025 140.55171 230.01259
159.88466 140.45941 229.01717
160.44337 140.64418 231.0076
161.00084 140.64429 231.00522
161.5583 140.64441 231.0015
162.11578 140.64458 230.99641
162.68591 140.73711 231.98564
163.24582 140.73732 231.97783
163.82318 140.82993 232.96423
164.38553 140.8302 232.9537
164.99239 141.01521 234.93272
165.60889 141.20026 236.91017
166.23503 141.38533 238.88599
166.81187 141.38574 238.86955
167.38875 141.38617 238.85176
167.93138 141.29428 237.8374
168.43254 141.11005 235.82677
168.96321 141.0182 234.81009
169.57208 141.11111 235.78191
170.09801 141.01932 234.76266
170.71176 141.1123 235.73151
171.33035 141.20532 236.69878
172.0049 141.39075 238.65883
172.47508 141.2067 236.63982
173.15935 141.3922 238.59657
173.79495 141.48535 239.55734
174.43542 141.57855 240.5164
175.08075 141.6718 241.47377
175.73096 141.76508 242.42941
176.25014 141.67358 241.39647
176.83492 141.67453 241.35565
177.347 141.5831 240.32037
177.77917 141.39928 238.29115
178.27934 141.30789 237.25391
178.85475 141.30894 237.20815
179.43022 141.31004 237.16098
179.92097 141.21873 236.12027
180.58139 141.31233 237.06238
180.97786 141.12865 235.02757
181.54881 141.12987 234.97517
182.02542 141.03867 233.93011
182.78781 141.22485 235.85713
183.55992 141.41112 237.78178
184.34175 141.59743 239.70401
185.02927 141.69133 240.63354
185.72168 141.78528 241.5611
186.31012 141.78677 241.49695
186.78735 141.69583 240.44183
187.25989 141.6049 239.38583
187.84381 141.60651 239.31783
188.42784 141.60815 239.24835
189.13293 141.70236 240.16577
189.84299 141.79662 241.08112
190.55798 141.89093 241.99438
191.40613 142.07784 243.89297
192.00282 142.07971 243.81458
192.73267 142.17419 244.72144
193.33203 142.17616 244.63971
194.06941 142.27074 245.54257
194.53119 142.18022 244.47168
195.13095 142.18231 244.38539
195.87601 142.27705 245.28261
196.47849 142.27925 245.19289
197.23111 142.3741 246.08597
197.83632 142.37639 245.9928
198.5965 142.47136 246.88165
199.04724 142.3811 245.80177
199.49329 142.29088 244.72107
200.09674 142.29333 244.62206
200.70036 142.29585 244.52148
201.47108 142.39108 245.40094
202.24684 142.4864 246.278
203.02763 142.58179 247.1526
203.81348 142.67723 248.02478
204.60437 142.77275 248.89449
205.4003 142.86835 249.76166
206.20131 142.96402 250.62636
206.63956 142.87424 249.53137
207.07315 142.7845 248.43568
207.69087 142.78757 248.31689
208.1176 142.69788 247.21931
208.73335 142.70105 247.09775
209.74149 142.88991 248.92686
210.16405 142.80037 247.82532
210.98389 142.89656 248.67346
211.60545 142.89996 248.54424
212.22726 142.90344 248.41331
212.84933 142.90697 248.28075
214.10382 143.18925 251.06581
214.73373 143.19295 250.92824
215.57953 143.28963 251.76102
216.21245 143.29344 251.61942
217.06615 143.39029 252.44707
217.70209 143.39426 252.30142
218.78908 143.58426 254.09364
219.2027 143.49538 252.97412
220.07227 143.59256 253.79123
220.71432 143.59682 253.63734
221.3567 143.60114 253.48163
221.7618 143.51244 252.35724
222.64246 143.60997 253.16478
223.28586 143.61449 253.00365
223.92957 143.61908 252.84061
224.57367 143.62373 252.6758
225.46802 143.72162 253.47289
226.62003 143.9128 255.22995
227.78226 144.10413 256.98254
228.69742 144.20238 257.76883
229.09836 144.11426 256.62949
230.01923 144.21271 257.41055
230.15134 144.03143 255.30891
230.54114 143.94345 254.16718
230.65675 143.76219 252.06647
231.85138 143.95427 253.7975
232.23251 143.86642 252.65271
233.1633 143.96539 253.41998
233.81989 143.97107 253.22824
234.19492 143.88339 252.07973
235.13443 143.98265 252.83884
236.36636 144.17551 254.54787
237.31921 144.27502 255.29926
238.56946 144.46819 256.9989
240.41904 144.8486 260.59561
241.10124 144.85504 260.38275
242.0834 144.95515 261.11734
242.7691 144.96179 260.89944
243.45532 144.96852 260.67944
244.14206 144.97533 260.45721
244.5199 144.88853 259.28653
244.89326 144.80177 258.1153
245.89098 144.90251 258.83279
246.57732 144.90964 258.60263
247.26419 144.91684 258.37027
248.27356 145.01793 259.07773
248.96404 145.02533 258.84003
249.98203 145.12668 259.54041
251.66455 145.41595 262.11572
252.69875 145.51764 262.80621
253.40405 145.52551 262.5549
254.44693 145.62744 263.23798
254.81635 145.5415 262.0452
255.18127 145.4556 260.85181
255.54172 145.36971 259.6579
256.93909 145.5661 261.26273
257.64783 145.57448 260.99713
258.00494 145.48875 259.79791
258.71228 145.49724 259.52838
259.4202 145.5058 259.25647
259.40906 145.32594 257.12558
259.75067 145.24031 255.92346
260.8175 145.34329 256.57339
261.89001 145.44641 257.21887
263.33817 145.64403 258.78409
264.797 145.84183 260.34265
265.89148 145.94537 260.97244
267.36923 146.14352 262.51868
268.09735 146.15285 262.21805
268.82593 146.16222 261.91483
268.78436 145.98251 259.77316
269.89667 146.0865 260.38376
270.23367 146.00133 259.15811
69.002419 141.72144 212.33083
69.594711 141.71376 212.58376
70.57267 141.60921 211.91724
70.011368 141.89229 214.92032
70.607719 141.88466 215.16913
70.825333 141.97388 216.33641
70.671822 142.15987 218.42532
71.274635 142.15225 218.67096
72.247765 142.04796 217.99081
73.215385 141.94377 217.30652
73.811852 141.93637 217.54384
75.497238 141.63911 214.99892
75.724648 141.72852 216.15683
76.314728 141.72134 216.38602
77.25988 141.61768 215.6835
78.199539 141.51414 214.97702
78.082291 141.70016 217.06142
79.366463 141.50034 215.41743
79.949242 141.49353 215.6347
80.53157 141.48679 215.84998
81.453827 141.38374 215.12798
82.032738 141.37717 215.33844
82.611206 141.37064 215.54697
83.189217 141.3642 215.7536
83.43647 141.45407 216.89725
83.688293 141.54396 218.04077
84.595284 141.44147 217.30273
85.496826 141.3391 216.56107
86.392914 141.23686 215.81583
87.283577 141.13474 215.06699
87.538208 141.22491 216.2029
88.110222 141.21906 216.39366
88.371498 141.30931 217.5284
88.329544 141.49559 219.60953
88.907768 141.48987 219.79729
88.274292 141.86807 223.77605
89.762627 141.57457 221.11636
90.639938 141.47311 220.34969
91.21653 141.46767 220.5302
92.085579 141.36642 219.75763
94.401237 140.78606 214.22127
94.095528 141.06847 217.24974
94.660622 141.06339 217.4202
94.942383 141.15417 218.54327
94.948242 141.34073 220.62117
95.519638 141.3358 220.78868
96.090683 141.33093 220.95445
96.934441 141.23044 220.1613
98.043488 141.03438 218.40714
99.142342 140.83847 216.64847
100.23097 140.6427 214.88542
100.78302 140.63831 215.03796
101.33474 140.63397 215.18893
101.88615 140.6297 215.33824
101.92561 140.81662 217.40996
101.97459 141.00352 219.48267
102.28401 141.09489 220.59306
102.84648 141.09079 220.7392
103.40865 141.08673 220.88371
104.21405 140.98727 220.06148
104.53209 141.07883 221.16798
105.33202 140.97952 220.34129
105.6544 141.07115 221.44586
106.6826 140.8766 219.64723
107.70074 140.68217 217.84465
108.70885 140.48785 216.03819
109.02772 140.57974 217.13597
110.02309 140.38562 215.32358
110.34391 140.47758 216.4189
110.88844 140.47427 216.5428
110.78288 140.7569 219.57996
111.76263 140.56308 217.75822
111.88542 140.75044 219.8235
112.22704 140.84256 220.91624
112.15957 141.12517 223.95595
112.92424 141.02686 223.10033
113.48183 141.02382 223.21687
114.23875 140.92564 222.35672
115.18776 140.73236 220.51828
116.12682 140.53917 218.67645
116.67143 140.53641 218.78461
117.40569 140.43854 217.91414
117.76007 140.53102 218.99663
117.93416 140.71866 221.05673
118.66542 140.62094 220.18147
119.39167 140.52332 219.30385
119.57978 140.71101 221.36237
120.30326 140.61348 220.48143
120.84886 140.61108 220.57857
121.22388 140.70378 221.65506
121.43559 140.89156 223.71213
121.98799 140.88927 223.80624
122.54024 140.88701 223.89891
123.4138 140.69476 222.02533
123.96092 140.69261 222.11433
124.97557 140.4055 219.25238
125.66861 140.30847 218.35387
126.20563 140.30649 218.43719
126.74251 140.30453 218.51913
127.42549 140.20767 217.61499
127.6721 140.39572 219.66391
128.21103 140.39389 219.7421
128.47189 140.58199 221.79037
128.74231 140.77008 223.83865
129.15643 140.86325 224.90044
129.70697 140.86154 224.97481
129.99878 141.04968 227.02187
130.80774 140.85822 225.11932
131.23347 140.95151 226.17717
132.03015 140.76016 224.27034
132.57776 140.75864 224.33746
133.35976 140.5674 222.42612
133.78752 140.66083 223.47878
134.44487 140.56456 222.55238
134.76726 140.7529 224.59229
135.31442 140.75156 224.65257
135.8615 140.75026 224.71153
136.40848 140.74898 224.76909
136.9554 140.74774 224.8253
137.6002 140.6517 223.88951
138.14456 140.65054 223.94278
138.50255 140.83905 225.97697
138.8701 141.02759 228.01071
139.42387 141.02649 228.06081
139.9776 141.02545 228.10956
140.53125 141.02443 228.15695
141.16594 140.92865 227.21077
141.79578 140.8329 226.26288
142.34444 140.83199 226.30579
142.89304 140.83112 226.3474
143.51308 140.73547 225.3947
144.12825 140.63989 224.44032
144.67191 140.63911 224.47755
145.15123 140.73314 225.50687
145.51161 141.01672 228.52234
146.06474 141.01602 228.55615
146.50372 141.20488 230.57639
147.00694 141.29901 231.60179
147.61942 141.20363 230.63783
148.27689 141.01355 228.67802
148.78241 141.10776 229.69948
149.38275 141.01248 228.7309
149.97827 140.91725 227.76071
150.48851 141.01155 228.77835
151.11699 140.82164 226.81052
151.70041 140.7265 225.83586
152.21298 140.82089 226.84961
152.73033 140.9153 227.86218
153.3371 140.72551 225.88828
153.83101 140.91472 227.89343
154.38133 140.91447 227.90706
154.91064 141.00899 228.91464
155.46333 141.0088 228.92564
155.95126 141.38757 232.91682
156.51355 141.38745 232.92529
157.06445 141.48207 233.92786
157.63812 141.38727 232.93819
158.20041 141.38722 232.94255
158.77103 141.19775 230.95461
159.32851 141.19777 230.95628
159.88599 141.19781 230.95662
160.44347 141.19789 230.95558
161.00095 141.198 230.95319
161.55844 141.19812 230.94946
162.10571 141.10356 229.94894
162.67346 141.19849 230.93794
163.231 141.1987 230.93019
163.806 141.2937 231.91643
164.38582 141.38872 232.90118
164.99271 141.57851 234.87976
165.58459 141.6736 235.86157
166.20836 141.86345 237.83698
166.75336 141.76912 236.82559
167.35733 141.8643 237.80287
167.93185 141.86478 237.78374
168.43304 141.67578 235.77356
168.96375 141.58156 234.75706
169.61414 141.77164 236.72331
170.1425 141.67747 235.70416
170.71239 141.67809 235.67824
171.23361 141.58398 234.65668
171.85228 141.67943 235.62228
172.36877 141.58539 234.59816
172.99234 141.68091 235.56079
173.67909 141.87123 237.51552
174.37552 142.06161 239.46829
175.01848 142.15726 240.42557
175.73186 142.34772 242.37444
176.31902 142.34866 242.3349
176.90622 142.34962 242.2939
177.49352 142.35063 242.25153
177.93051 142.16206 240.22232
178.43553 142.06833 239.18495
179.01579 142.06943 239.13876
179.43134 141.88092 237.10701
180.00691 141.88206 237.0584
180.66977 141.97809 238.00005
181.15829 141.88449 236.95692
181.64207 141.79091 235.9128
182.31 141.88704 236.84975
182.9828 141.98322 237.78481
183.66052 142.07944 238.71794
184.44482 142.27057 240.63945
185.13478 142.36688 241.56848
185.72316 142.36839 241.50574
186.31165 142.36993 241.44156
186.67761 142.18175 239.39742
187.26147 142.18336 239.33087
187.84543 142.185 239.2628
188.31094 142.09178 238.2049
188.89272 142.09349 238.13425
189.72136 142.2851 240.03775
190.55978 142.47675 241.93855
191.40797 142.66849 243.83664
192.00471 142.67039 243.75819
192.73462 142.76732 244.66484
193.33403 142.76933 244.58305
194.07144 142.86636 245.48564
194.39294 142.67851 243.42937
194.99036 142.68065 243.34341
195.73303 142.77782 244.24071
196.33315 142.78006 244.15131
196.93341 142.78233 244.06038
197.68623 142.87968 244.95164
198.44405 142.97708 245.84059
198.73515 142.78944 243.77831
199.17639 142.69685 242.69858
199.93713 142.79442 243.5825
200.53838 142.79698 243.48227
201.30673 142.89467 244.36186
202.08011 142.99242 245.23903
203.03033 143.18535 247.09435
203.81622 143.28325 247.96622
204.60718 143.38124 248.83565
205.22412 143.38416 248.72331
205.84125 143.38715 248.60939
206.4586 143.39017 248.4938
207.07617 143.39325 248.37662
207.50516 143.30121 247.28036
208.12073 143.30438 247.16035
208.73653 143.30763 247.03873
209.74475 143.50136 248.86732
210.16734 143.4095 247.76593
210.98724 143.50816 248.61377
211.60887 143.51166 248.48448
212.23074 143.5152 248.3535
212.85287 143.51881 248.22084
213.89671 143.71309 250.03227
214.73743 143.81216 250.86751
215.58328 143.91133 251.69994
216.43433 144.01059 252.52957
217.07004 144.01457 252.38562
217.92899 144.11401 253.21004
218.56773 144.11813 253.06201
218.97894 144.02693 251.94318
219.61586 144.03117 251.79213
220.2531 144.03549 251.63936
220.89063 144.03987 251.48474
221.29086 143.94885 250.36169
222.4068 144.14435 252.13617
223.29036 144.24446 252.94095
224.42419 144.44022 254.70747
224.82578 144.34947 253.57713
225.72269 144.44989 254.37325
226.62486 144.55043 255.1662
227.53235 144.65108 255.95598
228.18781 144.6562 255.78098
229.10345 144.75705 256.56494
229.76216 144.76236 256.38544
230.42126 144.76773 256.20395
230.8136 144.67749 255.06169
230.93172 144.49155 252.96063
231.58466 144.4971 252.77542
232.5126 144.5985 253.54503
233.16885 144.60423 253.35518
233.54597 144.51422 252.20799
234.48267 144.61592 252.96953
235.42477 144.71774 253.7276
236.37228 144.8197 254.48213
237.32523 144.92178 255.23312
238.57559 145.1199 256.93216
240.42535 145.51012 260.52774
241.10765 145.51671 260.31479
242.0899 145.61938 261.04898
242.7757 145.62617 260.83096
243.15755 145.537 259.66312
243.84187 145.54393 259.44159
244.5267 145.55095 259.21786
244.90012 145.46193 258.04672
245.89795 145.56526 258.76389
246.26741 145.47635 257.59
246.95187 145.48369 257.35834
247.63684 145.49112 257.12442
248.64687 145.59488 257.82928
249.66245 145.69879 258.53012
252.00163 146.1881 262.98389
253.03845 146.2924 263.67307
253.4118 146.2041 262.48325
254.4548 146.30864 263.16592
254.48468 146.12402 261.0376
254.505 145.93938 258.91052
255.20509 145.94768 258.65237
255.90575 145.95605 258.39185
256.60696 145.96451 258.12891
257.66098 146.06961 258.79449
258.01108 145.98163 257.59583
259.07129 146.08696 258.25464
259.77731 146.09575 257.98108
260.12149 146.00789 256.77805
261.19098 146.11353 257.42657
262.63361 146.31607 258.99557
263.71692 146.422 259.63406
265.17844 146.62488 261.19095
266.27557 146.73109 261.81924
267.75598 146.93433 263.36377
267.7262 146.75 261.22229
268.45227 146.75954 260.91998
268.02277 146.4781 257.86206
268.74213 146.48761 257.5578
269.07141 146.40009 256.33551
69.777298 142.08783 210.43709
70.364494 142.08009 210.688
71.33741 141.97301 210.01973
70.770935 142.26334 213.01997
70.98127 142.35489 214.18607
71.196342 142.44643 215.35216
71.040276 142.63716 217.43962
71.267265 142.72862 218.60678
71.869698 142.7209 218.85046
72.839951 142.61411 218.16759
73.438988 142.60652 218.40608
75.12706 142.30179 215.8631
75.717636 142.2944 216.09444
76.665833 142.18808 215.39536
77.608551 142.08188 214.69225
78.545761 141.9758 213.9852
78.425995 142.16656 216.06824
79.359772 142.06064 215.35628
80.288055 141.95483 214.64046
80.867943 141.94798 214.85492
81.447365 141.94119 215.06746
82.026344 141.93446 215.27805
82.604866 141.92781 215.48672
83.182953 141.92122 215.69345
83.099899 142.11206 217.77567
83.354271 142.20419 218.91994
84.589188 142.0005 217.24272
85.813644 141.797 215.56012
86.707321 141.69223 214.81439
88.231201 141.3905 212.17906
88.793694 141.38455 212.36844
89.042961 141.47714 213.5007
88.986473 141.66821 215.57831
88.939552 141.85925 217.65742
88.902184 142.05026 219.73798
88.268677 142.43802 223.71584
89.757156 142.13715 221.05702
90.932426 141.93481 219.3412
91.801971 141.83096 218.57074
92.373245 141.82553 218.74806
94.396225 141.32884 214.1644
94.666382 141.42191 215.287
94.65567 141.61319 217.36276
95.220451 141.60808 217.5316
95.784866 141.60303 217.69873
96.348923 141.59805 217.86415
96.912598 141.59314 218.02789
97.749031 141.4902 217.23294
98.850784 141.28928 215.47726
99.674171 141.18657 214.67551
100.49229 141.08395 213.87068
101.04194 141.0795 214.02267
101.59126 141.07509 214.17302
101.88197 141.16873 215.28284
101.92146 141.36035 217.35414
101.97047 141.55197 219.42642
102.27992 141.64566 220.5367
102.84245 141.64146 220.68292
103.40468 141.63731 220.82751
104.21015 141.53537 220.0056
104.52824 141.62923 221.11192
105.56689 141.4296 219.31941
105.88686 141.52356 220.4232
106.9127 141.32413 218.62454
107.69719 141.22263 217.78989
108.70538 141.02342 215.98398
109.02429 141.11761 217.08157
109.57181 141.11411 217.20911
109.89756 141.20837 218.30539
110.22795 141.30266 219.40126
110.34634 141.49467 221.46806
111.11687 141.39363 220.61984
111.45876 141.48802 221.71391
112.01462 141.48477 221.83453
112.15648 141.67685 223.90065
112.92121 141.57607 223.0453
113.68086 141.47536 222.18741
114.43542 141.37473 221.32704
115.38206 141.17659 219.48869
116.12407 141.07613 218.62286
116.66872 141.0733 218.73109
117.40303 140.97298 217.86093
117.75745 141.06779 218.94322
117.93156 141.26016 221.0029
118.66288 141.16 220.12794
119.38918 141.05991 219.25063
119.57732 141.25235 221.30869
120.30085 141.15236 220.42805
121.01936 141.05243 219.54512
121.392 141.14749 220.62096
121.76931 141.24257 221.69626
122.31691 141.24025 221.78958
122.70119 141.33539 222.86327
123.5724 141.13831 220.98981
124.27545 141.03871 220.09592
125.12943 140.8418 218.21689
125.8201 140.74232 217.31827
126.35474 140.74031 217.40125
126.88924 140.73833 217.48283
127.56985 140.63904 216.57866
127.81407 140.83183 218.62674
128.492 140.73264 217.71947
128.74808 140.92548 219.76662
129.01367 141.11833 221.8138
129.28883 141.31119 223.86092
129.96873 141.21214 222.94849
130.12643 141.50235 225.98126
130.93301 141.30606 224.07893
131.35637 141.40172 225.13626
132.02861 141.30284 224.21736
132.57625 141.30128 224.28453
133.24106 141.20248 223.362
133.67126 141.29828 224.41473
134.33105 141.19957 223.48889
134.87593 141.19817 223.55029
135.3131 141.29405 224.59979
135.8602 141.29271 224.65874
136.40723 141.29141 224.71635
136.85381 141.38736 225.76277
137.50105 141.28891 224.82747
138.04785 141.28772 224.881
138.40826 141.48097 226.91499
138.869 141.57703 227.95737
139.42282 141.57593 228.00749
139.97656 141.57484 228.05627
140.6973 141.37943 226.12016
141.24609 141.37843 226.16582
141.79485 141.37747 226.21013
142.34354 141.37654 226.2531
142.89218 141.37564 226.29469
143.44077 141.37477 226.33493
144.05838 141.27676 225.38097
144.67114 141.1788 224.42534
145.1505 141.27521 225.45445
145.57275 141.46878 227.47591
146.06406 141.56522 228.50307
146.44601 141.85599 231.51646
146.95166 141.95248 232.54182
147.56657 141.85471 231.57826
148.17665 141.75697 230.61304
148.73444 141.75641 230.64041
149.38226 141.5616 228.67787
149.97781 141.46397 227.70796
150.48807 141.56064 228.72539
151.11658 141.36595 226.75801
151.70004 141.26842 225.78357
152.21263 141.36517 226.79709
152.73001 141.46196 227.80946
153.30859 141.36453 226.83087
153.80495 141.5585 228.83569
154.3577 141.55824 228.84937
154.91043 141.55803 228.86172
155.44456 141.65495 229.86784
155.9673 141.84903 231.86783
156.49965 142.04314 233.86662
157.05298 142.14015 234.86899
157.61111 142.2372 235.87006
158.18721 142.14005 234.87926
158.76686 141.84866 231.89653
159.32854 141.75157 230.90294
159.88605 141.75162 230.90324
160.44052 141.65457 229.90692
160.99564 141.65468 229.90456
161.55859 141.75194 230.89609
162.1059 141.65498 229.8958
162.67368 141.7523 230.88458
163.21619 141.6554 229.88164
163.80626 141.8499 231.86278
164.36626 141.85019 231.85226
164.94853 141.94765 232.83542
165.56029 142.14224 234.81203
166.18169 142.3369 236.78708
166.72432 142.24017 235.77592
167.32591 142.33775 236.75307
167.89807 142.33824 236.73401
168.43356 142.24162 235.71896
168.96429 142.14502 234.70271
169.61472 142.33987 236.66846
170.187 142.34048 236.64383
170.75932 142.34113 236.61783
171.23428 142.14751 234.60225
171.85298 142.24536 235.56764
172.36951 142.14893 234.54375
172.99312 142.24686 235.5061
173.6799 142.44199 237.46036
174.43709 142.73431 240.40607
175.01936 142.7352 240.36966
175.66724 142.8333 241.32498
176.31996 142.93143 242.2785
176.90723 142.93242 242.23753
177.349 142.73907 240.20987
177.8564 142.64294 239.17392
178.43661 142.64401 239.12915
178.85693 142.45074 237.09888
179.35007 142.35468 236.0598
180.09288 142.55028 237.99466
180.67099 142.5515 237.9444
181.15953 142.45554 236.90147
181.73538 142.45682 236.84859
182.31129 142.45815 236.79425
182.8873 142.4595 236.73853
183.56265 142.55814 237.67166
184.34459 142.75407 239.59291
185.03218 142.85281 240.52193
185.72469 142.95161 241.44896
186.42212 143.05046 242.37404
186.90182 142.95482 241.31908
187.37682 142.85919 240.26317
187.84709 142.7636 239.20639
188.4312 142.76532 239.13684
189.01543 142.76707 239.06587
189.59976 142.76888 238.99339
190.31001 142.86804 239.90675
191.15344 143.06458 241.80493
191.74539 143.06653 241.72713
192.7366 143.36055 244.60675
193.33606 143.36261 244.52493
194.07352 143.46207 245.42722
194.53537 143.36687 244.35674
195.27795 143.46643 245.25529
195.73524 143.37131 244.18245
196.3354 143.37358 244.093
196.78574 143.27852 243.01813
197.53618 143.3783 243.90947
198.1368 143.38072 243.8154
198.58034 143.28575 242.73705
199.33853 143.38571 243.6226
200.10175 143.48573 244.50586
201.0345 143.68329 246.36824
201.64325 143.68597 246.26517
202.25218 143.68872 246.16052
203.03308 143.78903 247.03455
203.81905 143.88939 247.90614
204.61006 143.98984 248.77527
205.40613 144.09036 249.64189
206.02576 144.09341 249.52742
206.46164 143.99898 248.43326
207.07925 144.00214 248.31602
207.50829 143.90776 247.21996
208.1239 143.91101 247.09987
208.73976 143.91432 246.97815
209.55196 144.01532 247.83051
209.77362 143.82349 245.75458
210.58871 143.92461 246.6031
211.20554 143.92815 246.47478
212.02844 144.02942 247.31844
212.85649 144.13078 248.15942
213.90042 144.32994 249.97028
214.74121 144.4315 250.80521
215.58714 144.53316 251.63733
216.43826 144.6349 252.4666
217.29456 144.73676 253.29306
217.93306 144.74092 253.14671
218.57187 144.74515 252.99858
218.98312 144.65163 251.8799
219.3898 144.55814 250.76059
219.79187 144.46469 249.64067
220.65981 144.567 250.45421
221.05762 144.47366 249.33191
221.93111 144.57614 250.14064
222.56725 144.58083 249.98112
223.44878 144.6835 250.78436
224.08807 144.68834 250.62061
225.22763 144.88919 252.38158
226.3774 145.09021 254.13814
227.53738 145.29137 255.8902
227.93558 145.19858 254.75374
228.84885 145.30194 255.53804
229.24289 145.20927 254.39911
230.1619 145.31282 255.17822
230.55179 145.22028 254.03676
230.93716 145.12775 252.89476
232.13449 145.32974 254.62386
232.79286 145.33554 254.43517
233.45168 145.34142 254.24449
233.83133 145.24916 253.09674
234.7706 145.35342 253.85716
235.43073 145.35954 253.66046
236.37836 145.46405 254.41467
237.04187 145.47037 254.21317
238.58189 145.77179 256.86371
240.13731 146.07343 259.50754
241.11418 146.17853 260.24503
241.79706 146.18536 260.02982
242.78242 146.29071 260.76071
243.16434 146.19928 259.59296
243.84874 146.20638 259.37131
244.22418 146.11502 258.2016
244.59515 146.02373 257.03146
245.59061 146.12959 257.74902
245.95761 146.03841 256.57611
246.63963 146.04587 256.34512
247.32219 146.05344 256.11191
248.3298 146.15976 256.81726
249.67 146.36493 258.4584
251.67987 146.76779 261.97171
252.71429 146.87466 262.66138
253.41974 146.88289 262.40973
254.46286 146.99002 263.09201
254.49274 146.80074 260.96402
254.85522 146.7103 259.77176
255.90259 146.81772 260.44598
256.60837 146.82632 260.18341
257.66446 146.93401 260.85004
258.3739 146.94281 260.58163
259.08392 146.95169 260.31085
259.79453 146.96066 260.0376
260.86557 147.06879 260.68961
261.21738 146.97879 259.48367
261.5647 146.88879 258.27731
263.00998 147.09642 259.8446
263.72586 147.10576 259.55795
265.1875 147.31371 261.11407
266.28473 147.42255 261.74194
267.76526 147.63084 263.28571
267.73544 147.44183 261.14462
269.2272 147.65038 262.67905
268.41739 147.26244 258.70224
269.13928 147.27217 258.39673
269.47113 147.18243 257.17343
69.769806 142.64836 210.37222
69.968391 142.74231 211.53905
71.329994 142.53081 209.95541
70.379921 142.93005 213.87289
71.354759 142.8204 213.20192
71.188843 143.01596 215.2869
71.408615 143.10976 216.45288
71.63308 143.20352 217.61885
72.233025 143.19568 217.86163
72.83255 143.18788 218.10234
74.163078 142.9771 216.49062
75.483032 142.76648 214.87279
75.349823 142.96191 216.95766
76.300659 142.85297 216.25993
76.890404 142.84557 216.48735
78.185806 142.63548 214.85257
78.769608 142.62825 215.07407
79.700951 142.51978 214.36156
80.281334 142.51271 214.57813
80.861275 142.50571 214.79274
81.100334 142.59999 215.94022
82.019798 142.49191 215.21616
82.598396 142.48512 215.42494
83.50943 142.37727 214.69429
83.423859 142.57285 216.77522
84.003632 142.56622 216.97914
84.582947 142.55969 217.18121
85.807526 142.3512 215.49927
86.701294 142.24388 214.75394
88.225327 141.93477 212.11951
88.787888 141.92868 212.30901
89.037186 142.02357 213.44112
89.291069 142.11848 214.57309
89.241676 142.31425 216.65096
88.896469 142.61081 219.67719
