ply
format ascii 1.0
comment PCL generated
element vertex 1597
property float x
property float y
property float z
element camera 0
property float view_px
property float view_py
property float view_pz
property float x_axisx
property float x_axisy
property float x_axisz
property float y_axisx
property float y_axisy
property float y_axisz
property float z_axisx
property float z_axisy
property float z_axisz
property float focal
property float scalex
property float scaley
property float centerx
property float centery
property int viewportx
property int viewporty
property float k1
property float k2
end_header
162.69566 130.78963 233.69513
163.25755 130.78976 233.68733
163.81946 130.7899 233.67818
164.44089 130.9384 236.66342
165.01004 130.9386 236.65144
165.57921 130.9388 236.63808
166.17543 130.98846 237.62172
166.74704 130.98871 237.60555
167.28683 130.93951 236.58972
167.85609 130.93979 236.57086
168.42538 130.94009 236.55064
168.99471 130.9404 236.52902
169.56406 130.94073 236.50604
170.22116 131.04001 238.47733
170.84164 131.08983 239.4491
171.36964 131.04077 238.42403
171.94395 131.04117 238.39531
172.57176 131.09106 239.36255
173.14856 131.09152 239.3309
173.78366 131.14145 240.29492
174.42363 131.19142 241.25728
175.00539 131.19193 241.22115
175.5217 131.14299 240.18698
176.23691 131.24249 242.1411
176.82123 131.24307 242.10056
177.26019 131.1447 240.06633
177.91492 131.19479 241.01924
178.41949 131.14594 239.97884
178.83942 131.04762 237.94185
179.49673 131.09778 238.89032
180.0742 131.09846 238.84184
180.65175 131.09917 238.79192
181.22937 131.0999 238.7406
181.899 131.15016 239.68239
182.47919 131.15094 239.62801
183.1562 131.20123 240.56625
183.83812 131.25157 241.50264
184.72809 131.40097 244.42427
185.32065 131.40186 244.3629
185.9133 131.40276 244.30011
186.50603 131.40367 244.23582
186.98766 131.3551 243.17752
187.35092 131.25699 241.12601
187.82069 131.20844 240.06613
188.40419 131.20944 239.99715
188.98779 131.21046 239.92665
189.81804 131.31061 241.83701
190.53236 131.36125 242.75381
191.25163 131.41191 243.66855
191.97586 131.46262 244.58122
192.70502 131.51337 245.49171
193.16846 131.46498 244.42094
193.90271 131.51578 245.32779
194.92226 131.66577 248.21021
195.38611 131.61748 247.1349
195.99025 131.61879 247.04694
196.88937 131.71933 248.93311
197.34882 131.6711 247.85388
197.49905 131.52365 244.79965
198.40829 131.6243 246.67973
198.85609 131.57611 245.59775
199.29922 131.52795 244.51501
200.06152 131.57909 245.40257
200.82886 131.63025 246.28784
201.26762 131.58215 245.2012
202.04013 131.63339 246.0825
202.81766 131.68466 246.96143
203.60023 131.73598 247.83791
204.38783 131.78735 248.71196
205.35938 131.88843 250.56613
206.1595 131.9399 251.43475
206.78093 131.9417 251.31915
207.58875 131.99324 252.18317
208.0244 131.9454 251.08301
208.64645 131.94731 250.96248
209.07526 131.89954 249.86047
209.69534 131.90149 249.73715
209.91898 131.80402 247.65443
211.13695 131.95526 250.46391
211.76015 131.95734 250.3351
212.38361 131.95944 250.20464
212.79922 131.91182 249.09563
213.21024 131.86421 247.98601
213.82957 131.86641 247.85156
214.44916 131.86864 247.71539
215.5047 131.97052 249.52702
216.34998 132.02266 250.36055
218.09129 132.27414 255.08569
218.50638 132.22676 253.96524
219.14447 132.22925 253.8166
219.78287 132.23177 253.6662
220.65407 132.28419 254.48537
220.82565 132.18706 252.3894
221.22513 132.1398 251.26413
222.09973 132.19235 252.07733
222.49496 132.14516 250.94971
223.13037 132.1479 250.78984
223.51892 132.10077 249.66043
224.65187 132.20345 251.43166
225.79501 132.30623 253.19853
226.94833 132.40909 254.96094
228.36891 132.56201 257.68405
229.54514 132.66505 259.43686
230.99355 132.81819 262.14886
231.66385 132.82144 261.96555
232.33459 132.82472 261.78033
232.19763 132.67796 258.70789
232.04631 132.53119 255.63768
232.15486 132.43443 253.53001
232.25395 132.33768 251.42328
232.90207 132.34106 251.23526
234.39575 132.4948 253.91986
235.62054 132.59854 255.64066
237.42905 132.80263 259.26996
238.10126 132.80634 259.06744
239.6488 132.96054 261.72845
240.6235 133.01456 262.47394
241.60367 133.06866 263.21579
241.3929 132.92207 260.14236
242.67563 133.02649 261.83212
243.36069 133.03056 261.61392
243.73967 132.98445 260.44305
244.42328 132.98863 260.22141
245.10736 132.99284 259.99753
245.47794 132.94684 258.82343
245.5275 132.85056 256.70163
246.20569 132.85489 256.47372
246.88441 132.85928 256.24365
247.23962 132.81339 255.06673
248.5701 132.91858 256.72076
249.58209 132.97353 257.42621
251.26283 133.12935 260.01172
252.62515 133.23492 261.6485
253.99808 133.34061 263.27936
255.04251 133.39598 263.96494
256.09259 133.45145 264.64627
256.4599 133.40602 263.44833
256.47601 133.31012 261.31326
257.87961 133.41628 262.92221
258.23859 133.37096 261.72083
258.2388 133.27509 259.58514
258.94312 133.28033 259.3165
260.00745 133.33624 259.97726
260.35358 133.29102 258.77194
261.42413 133.34706 259.42584
263.23434 133.5045 261.93298
263.95175 133.51009 261.64804
265.04184 133.56642 262.28745
265.76294 133.57211 261.99646
266.86182 133.6286 262.62772
266.82712 133.5329 260.48318
268.31195 133.64027 262.03091
267.88324 133.49377 258.9639
269.37677 133.60129 260.5033
270.10114 133.60724 260.19693
69.110504 131.56787 213.20839
70.090492 131.50975 212.53925
71.450562 131.39851 210.94467
70.119064 131.65952 215.79932
70.714882 131.65465 216.04607
71.688171 131.59669 215.36642
71.529869 131.6981 217.45865
71.381287 131.79947 219.55296
72.723557 131.68857 217.93959
73.319717 131.68387 218.17697
73.915428 131.6792 218.41226
74.87336 131.62157 217.71507
76.185905 131.51105 216.08249
76.057396 131.61249 218.17343
76.64872 131.608 218.39957
76.886993 131.65649 219.55801
78.179977 131.54628 217.91061
78.419853 131.59483 219.06595
80.389297 131.37907 215.53568
81.310684 131.32205 214.81009
82.906517 131.15944 212.20288
83.474434 131.15543 212.4079
84.376854 131.09865 211.67026
83.944061 131.25307 214.69554
84.845589 131.19638 213.95418
84.759377 131.298 216.0394
84.682724 131.39961 218.12627
85.582909 131.34306 217.37929
85.517891 131.44469 219.46669
85.779831 131.49359 220.60883
85.731407 131.59518 222.69843
86.317398 131.59148 222.89249
86.283051 131.69307 224.98334
87.795525 131.53157 222.32501
88.987656 131.42282 220.61096
89.261993 131.47192 221.74702
91.040863 131.25819 218.12041
92.204437 131.14973 216.3923
93.06266 131.09392 215.61342
93.330429 131.14322 216.74088
94.473007 131.035 215.00143
94.454895 131.13689 217.08257
94.731438 131.18626 218.20792
95.01255 131.23566 219.33305
95.298248 131.28506 220.45793
96.143951 131.2296 219.66409
96.709122 131.22664 219.82709
98.09227 131.06647 217.10648
98.919655 131.01122 216.30269
100.00963 130.90364 214.53384
100.55865 130.90092 214.6861
101.63321 130.7935 212.90996
101.91621 130.84323 214.02176
101.94582 130.94533 216.09801
102.24049 130.99507 217.20993
102.28667 131.09717 219.2876
102.84367 131.09464 219.43291
103.15218 131.14442 220.54393
103.95677 131.08966 219.7188
104.51289 131.08723 219.85936
105.55043 130.98032 218.06004
106.1011 130.97798 218.19629
106.41555 131.02794 219.30135
106.96814 131.02567 219.43507
107.52046 131.02342 219.56731
108.07253 131.02122 219.698
108.85053 130.96686 218.85446
109.39967 130.96474 218.98152
110.16985 130.91046 218.1333
110.27837 131.01277 220.20554
111.26207 130.9064 218.37885
111.37987 131.00874 220.45029
112.14183 130.95462 219.59444
112.06225 131.10913 222.64206
112.82378 131.05508 221.78323
113.17174 131.10533 222.87697
113.52435 131.15559 223.9702
114.28039 131.10165 223.10591
115.03136 131.04776 222.23917
115.77729 130.99391 221.36996
116.32608 130.99219 221.47832
116.87466 130.99051 221.58524
117.42308 130.98885 221.69072
118.15613 130.93515 220.81335
118.51938 130.98563 221.89734
119.06727 130.98405 221.99849
119.43745 131.03456 223.08096
120.16255 130.981 222.19652
120.19185 131.1356 225.24422
120.40579 131.23819 227.30899
120.96499 131.23672 227.40512
122.02034 131.07925 224.54529
122.24593 131.18187 226.60783
122.96285 131.12849 225.71362
123.6748 131.07515 224.81717
124.22601 131.07385 224.90497
124.62373 131.12454 225.97818
125.32803 131.0713 225.07634
126.02736 131.0181 224.17239
126.72173 130.96492 223.26633
127.41115 130.91177 222.35815
128.09563 130.85867 221.44791
128.77515 130.8056 220.53561
129.31331 130.80452 220.61057
129.44926 130.95929 223.65298
129.7312 131.06212 225.70609
130.2811 131.06108 225.77858
130.83089 131.06006 225.84969
131.38058 131.05907 225.91942
132.05215 131.00618 224.9966
132.59924 131.00523 225.06331
133.2634 130.95239 224.13687
133.69315 131.0034 225.1926
134.12764 131.05444 226.24754
134.89664 130.94977 224.32393
135.44089 130.94894 224.38354
136.09016 130.89624 223.44876
136.52914 130.94736 224.49884
137.17346 130.8947 223.56085
137.42134 131.04961 226.59641
137.97003 131.04887 226.64983
138.23943 131.2038 229.68483
138.70453 131.25497 230.73071
139.26263 131.2543 230.78098
139.73483 131.30551 231.8248
140.46213 131.20113 229.88219
141.09871 131.14865 228.93277
141.80907 131.04434 226.98605
142.43352 130.99191 226.03299
143.0531 130.9395 225.0782
143.52496 130.99083 226.11394
144.00159 131.04218 227.14871
144.48297 131.09354 228.18246
144.84067 131.24861 231.20839
145.3364 131.29999 232.2404
145.83687 131.35139 233.27136
146.45615 131.29913 232.30721
146.90675 131.4024 234.33287
147.57576 131.29834 232.36855
148.18532 131.24614 231.39978
148.79004 131.19395 230.42944
149.29993 131.24547 231.45279
149.9424 131.14149 229.48175
150.49483 131.14122 229.50471
151.04724 131.14095 229.52631
151.52884 131.24435 231.54263
152.11899 131.19229 230.56364
152.64316 131.24391 231.5795
153.1721 131.29555 232.59416
153.68004 131.39902 234.60594
154.26773 131.34703 233.62146
154.8716 131.24324 231.63707
155.42868 131.24312 231.64813
155.95338 131.34666 233.65489
156.51526 131.34657 233.66331
157.05435 131.45015 235.66759
157.59409 131.60558 238.66922
158.16794 131.60555 238.67368
158.7585 131.39824 234.68219
159.32277 131.39824 234.68385
159.8864 131.34645 233.68555
160.44524 131.29466 232.68587
161.0047 131.29472 232.68349
161.57201 131.34663 233.67841
162.1339 131.34673 233.67331
162.68315 131.29503 232.6683
163.25771 131.34698 233.65907
163.83705 131.39896 234.64842
164.42123 131.45096 235.63635
164.98799 131.45114 235.6244
165.57942 131.50319 236.60944
166.17566 131.55524 237.59296
166.7473 131.5555 237.5768
167.31895 131.55577 237.55925
167.85638 131.50423 236.54224
168.42569 131.50453 236.52199
168.99503 131.50485 236.50037
169.56441 131.50519 236.47739
170.17766 131.55739 237.45071
170.74951 131.55779 237.42488
171.3214 131.55818 237.39766
171.84224 131.50676 236.37169
172.46527 131.55905 237.33905
173.09315 131.61136 238.30473
173.72588 131.6637 239.26878
174.30278 131.6642 239.23431
174.94283 131.71657 240.19514
175.45676 131.66527 239.16125
176.1017 131.7177 240.11894
176.68121 131.71828 240.0787
177.2608 131.71889 240.03706
177.84044 131.71953 239.99403
178.42014 131.72017 239.94957
178.92 131.66898 238.90825
179.49742 131.66966 238.86118
180.15964 131.72226 239.80771
180.56534 131.61923 237.76788
181.23012 131.67188 238.7114
181.80783 131.67264 238.65863
182.38562 131.67345 238.60446
183.15701 131.77805 240.53679
183.93813 131.88269 242.46672
184.72896 131.98737 244.39426
185.42554 132.04019 245.3261
186.0206 132.04112 245.26303
186.50697 131.99017 244.20576
186.87738 131.88733 242.15509
187.3519 131.8364 241.09628
187.82169 131.78549 240.03651
188.40521 131.78653 239.96747
188.98883 131.78758 239.89699
189.81912 131.89255 241.80705
190.53348 131.9456 242.72375
191.25278 131.99869 243.63838
191.97702 132.05182 244.55084
192.83914 132.15694 246.45096
193.44037 132.15817 246.36943
193.90396 132.10748 245.29726
194.92354 132.26468 248.17928
195.24481 132.16206 246.11566
195.99158 132.21539 247.01608
196.74332 132.26877 247.91426
197.20035 132.21819 246.83551
197.50044 132.11563 244.76898
198.40973 132.22108 246.64879
198.70045 132.11856 244.5807
199.14117 132.06805 243.49841
200.06303 132.17363 245.37167
200.83038 132.22723 246.25677
201.1024 132.12479 244.18562
202.04173 132.2305 246.05141
202.81931 132.28421 246.93016
203.42784 132.28592 246.82312
204.21306 132.33972 247.69745
205.54004 132.54977 251.51674
206.16129 132.55162 251.40273
206.59898 132.5014 250.30551
207.4044 132.55539 251.16982
208.02628 132.55733 251.0509
208.64838 132.5593 250.93034
209.27068 132.56131 250.80812
210.08913 132.61546 251.66351
210.51599 132.56541 250.55878
211.54054 132.6718 252.38811
211.76224 132.56967 250.30276
212.38571 132.57185 250.17226
212.59329 132.46974 248.08662
213.2124 132.47197 247.9538
213.83177 132.47424 247.81929
214.66681 132.52875 248.65825
215.72482 132.6355 250.46902
216.79288 132.74232 252.27588
218.09372 132.90146 255.05228
218.73399 132.90399 254.9048
218.91934 132.80209 252.81088
219.7854 132.85695 253.6328
220.42413 132.85959 253.48058
220.35832 132.70547 250.41478
221.22775 132.76045 251.23079
222.10239 132.81549 252.04382
222.49765 132.76601 250.91629
223.37787 132.82115 251.7245
224.26334 132.87637 252.52971
225.15405 132.93166 253.33179
226.30215 133.03934 255.09706
227.46048 133.14713 256.85791
228.37195 133.20264 257.64929
229.54822 133.31059 259.40173
230.73474 133.41866 261.14966
231.40265 133.422 260.96698
232.07095 133.42538 260.78235
232.20093 133.32396 258.67258
232.04959 133.17009 255.60265
232.15816 133.06863 253.49521
232.53406 133.01967 252.34814
233.18469 133.02319 252.15938
234.96268 133.23676 255.80087
236.76093 133.45049 259.43451
238.57944 133.66438 263.06024
239.83994 133.77335 264.7663
241.11084 133.88245 266.46725
241.21561 133.78137 264.34579
241.90417 133.78546 264.13235
241.3968 133.57921 260.10571
242.37802 133.63596 260.84314
243.36472 133.69279 261.57684
244.05032 133.69707 261.35641
245.04553 133.75406 262.08344
245.73468 133.75845 261.85788
245.79622 133.65753 259.73425
245.8483 133.55659 257.61179
246.20996 133.50838 256.43671
246.88873 133.51291 256.20657
247.24397 133.46475 255.02966
248.57454 133.57494 256.68338
249.9157 133.68524 258.33142
251.59906 133.8485 260.91556
252.96396 133.95908 262.55106
254.33951 134.06978 264.18069
255.38652 134.12775 264.86505
256.09747 134.13293 264.60696
256.46481 134.08527 263.40906
256.48096 133.98471 261.27417
257.88464 134.09589 262.88275
258.24365 134.04831 261.6814
258.59821 134.00076 260.47955
259.30511 134.00623 260.20984
260.01263 134.01173 259.93768
260.3588 133.96425 258.73242
261.79388 134.07596 260.31577
263.23972 134.18781 261.89267
263.95718 134.19357 261.60764
265.41943 134.30565 263.17346
265.76849 134.25842 261.95572
266.8674 134.31752 262.5867
267.21246 134.27034 261.36594
268.3176 134.32957 261.98972
268.27374 134.22922 259.84448
269.7699 134.3418 261.38235
270.10684 134.29471 260.15558
68.324448 132.24236 215.01073
69.309586 132.18159 214.34398
70.67482 132.06532 212.75194
69.731361 132.28267 216.68596
70.710213 132.22205 216.01074
71.683556 132.16151 215.33133
71.525238 132.26762 217.42337
71.376663 132.37369 219.51741
72.719002 132.25778 217.90446
73.315208 132.25293 218.14191
73.545715 132.30354 219.30656
74.506233 132.24333 218.61061
75.821373 132.12781 216.9794
76.053047 132.17853 218.13887
76.644402 132.1739 218.3651
77.587868 132.11398 217.65518
78.875893 131.99884 216.00624
79.458275 131.9944 216.22363
81.075256 131.82417 213.62816
81.649162 131.81989 213.83887
82.902588 131.70517 212.17006
83.808029 131.64578 211.43541
84.373032 131.64169 211.63771
83.940224 131.80322 214.66266
84.841797 131.74399 213.92152
85.083046 131.79517 215.06325
85.32885 131.84634 216.20488
86.224083 131.78729 215.45642
86.793961 131.78343 215.65024
87.045944 131.83469 216.78893
86.987549 131.94104 218.87497
86.93869 132.04738 220.96249
86.589432 132.20872 224.00063
87.48455 132.14995 223.24193
88.984222 131.98125 220.57828
89.258583 132.03262 221.71425
90.737556 131.86414 219.04059
91.903679 131.75073 217.31363
93.059494 131.63745 215.58179
93.034714 131.74399 217.66386
94.179832 131.63084 215.92554
93.876595 131.7923 218.96335
94.443253 131.78906 219.13318
95.009537 131.78587 219.30132
95.295273 131.83759 220.4261
95.863297 131.83446 220.59157
96.706223 131.77655 219.79553
97.543869 131.71872 218.9964
98.376236 131.66095 218.19421
99.471207 131.54846 216.42708
100.2906 131.49083 215.61815
101.36768 131.37851 213.84302
101.65315 131.43054 214.95538
101.94326 131.48259 216.06747
102.23796 131.53465 217.17934
102.28415 131.64146 219.25679
102.84119 131.63884 219.40215
103.39792 131.63625 219.54593
104.20012 131.57901 218.72031
104.51052 131.6312 219.82872
105.5481 131.51939 218.02974
105.86041 131.57164 219.13562
106.17733 131.6239 220.24121
106.7324 131.62155 220.37558
107.51827 131.56461 219.53702
108.07037 131.56233 219.66772
108.84841 131.50549 218.8244
109.17384 131.55789 219.92462
109.9465 131.50114 219.07712
110.27634 131.55359 220.17545
111.04366 131.49693 219.32382
111.16391 131.60399 221.39557
111.92834 131.54739 220.54042
112.06033 131.65448 222.61185
112.8219 131.59796 221.7532
113.16988 131.65054 222.84682
113.72433 131.64864 222.96208
114.27859 131.64674 223.07585
115.02961 131.59041 222.20926
115.77557 131.5341 221.34023
116.13228 131.58681 222.42848
116.68333 131.58507 222.53589
117.2342 131.58334 222.64186
117.96971 131.52719 221.76514
118.5178 131.52554 221.86775
119.2457 131.46948 220.98677
119.61346 131.52234 222.0687
120.33618 131.46634 221.18401
120.36307 131.62808 224.23091
120.74489 131.68097 225.31114
120.96355 131.7883 227.37508
122.01894 131.6236 224.51563
122.24455 131.73096 226.57794
123.12211 131.62076 224.69836
123.67348 131.61938 224.7876
124.22472 131.61803 224.87543
124.62247 131.67107 225.94852
125.32678 131.6154 225.04684
126.02614 131.55977 224.14305
126.72055 131.50417 223.23712
127.41 131.44861 222.32912
128.0945 131.39308 221.41899
128.77406 131.33759 220.50687
129.03934 131.44513 222.56013
129.31416 131.55269 224.6134
129.73015 131.60593 225.67676
130.28006 131.60484 225.74927
130.82988 131.60379 225.82037
131.37961 131.60277 225.89012
132.05119 131.54745 224.96747
132.47873 131.60078 226.02554
133.14532 131.54553 225.09953
133.69226 131.54462 225.16356
134.12677 131.59799 226.21837
134.8958 131.48854 224.295
135.33255 131.54196 225.34738
135.98425 131.48685 224.41298
136.52837 131.48604 224.46996
137.07242 131.48524 224.5256
137.42059 131.59302 226.56734
137.9693 131.59225 226.62074
138.14563 131.80856 230.64954
138.61316 131.86211 231.69556
139.17371 131.86139 231.74602
139.73418 131.86072 231.79514
140.37805 131.8058 230.84779
141.01706 131.75092 229.89874
141.72984 131.64182 227.9525
142.43295 131.53275 226.00412
143.05257 131.47794 225.04948
143.59587 131.4774 225.08914
144.00108 131.58534 227.11977
144.41586 131.69331 229.1497
144.77599 131.8555 232.1754
145.27412 131.90926 233.20746
145.77702 131.96303 234.23845
146.34171 131.96259 234.27147
146.85175 132.01639 235.30013
147.57538 131.85333 232.339
148.18497 131.79874 231.37039
148.7897 131.74416 230.40016
149.34462 131.74382 230.4259
149.94209 131.6893 229.45264
150.53474 131.6348 228.47786
151.04698 131.68872 229.49718
151.52859 131.79689 231.51328
152.15176 131.68823 229.53641
152.70413 131.68802 229.554
153.17191 131.85043 232.56468
153.70566 131.90446 233.57802
154.31436 131.79588 231.59534
154.85048 131.84995 232.60606
155.35423 132.01244 235.61223
155.88857 132.12074 237.6189
156.4325 132.22906 239.62433
156.98602 132.3374 241.62854
157.54915 132.44576 243.63144
158.1416 132.39153 242.63748
158.73763 132.2289 239.64508
159.31923 132.06628 236.65121
159.88831 132.06631 236.65154
160.45134 131.95795 234.65346
161.00478 131.84961 232.65401
161.55644 131.79549 231.65181
162.12376 131.84979 232.64523
162.67065 131.7957 231.64038
163.25784 131.90425 233.62947
163.81979 131.90442 233.62035
164.42142 132.01302 235.60651
165.01044 132.06741 236.59282
165.57964 132.06763 236.57945
166.1759 132.12209 237.56287
166.77699 132.17654 238.54478
167.35107 132.17683 238.52713
167.85669 132.0687 236.51221
168.46266 132.12323 237.48984
168.99536 132.06935 236.47038
169.60622 132.12393 237.44504
170.17804 132.1243 237.42056
170.79616 132.17892 238.39218
171.32181 132.12512 237.36749
171.89375 132.12555 237.33888
172.41226 132.07178 236.31177
173.09363 132.18071 238.2744
173.72638 132.23544 239.23834
174.36398 132.29021 240.20056
174.94336 132.29074 240.16455
175.5228 132.29132 240.12712
176.10228 132.2919 240.08832
176.68182 132.29251 240.0481
177.26143 132.29314 240.00642
177.84108 132.29379 239.96338
178.42081 132.29446 239.91893
178.92068 132.24091 238.87772
179.49812 132.24162 238.83058
180.16037 132.29662 239.77702
180.74036 132.29738 239.72687
181.23088 132.2439 238.68082
181.80862 132.24469 238.62801
182.48079 132.29979 239.5679
183.0611 132.30064 239.51204
183.74065 132.3558 240.44838
184.72986 132.57384 244.36282
185.32246 132.57478 244.30142
185.80875 132.52145 243.24576
186.50793 132.57672 244.17427
186.98959 132.52344 243.1162
187.35291 132.41586 241.06512
187.93875 132.41692 240.99724
188.5247 132.41798 240.9279
189.11078 132.41908 240.8571
189.82022 132.47453 241.7757
190.53461 132.53001 242.69228
191.25394 132.58553 243.60672
192.10873 132.69542 245.50903
192.84036 132.75101 246.4189
193.57697 132.80664 247.32663
194.18076 132.80795 247.24321
195.20522 132.97237 250.12415
195.53134 132.86504 248.06007
196.13795 132.86644 247.97169
196.89215 132.92224 248.8694
197.35162 132.86932 247.79036
197.50189 132.70767 244.73685
198.25653 132.76357 245.62991
198.70195 132.71069 244.54849
199.1427 132.65785 243.46634
200.06461 132.76826 245.33929
200.83199 132.82431 246.22423
201.10402 132.71712 244.15332
202.0434 132.82767 246.01881
202.99263 132.93826 247.88107
203.77769 132.99448 248.75679
204.56779 133.05075 249.6301
205.72076 133.21597 252.46561
206.34448 133.21788 252.3511
206.60086 133.11087 250.27205
207.22012 133.11284 250.15521
207.8396 133.11484 250.03674
208.45929 133.11685 249.91658
209.27269 133.17343 250.77441
210.09119 133.23004 251.62965
210.51807 133.17767 250.52499
211.34189 133.23439 251.37592
211.76437 133.18207 250.26891
211.97659 133.07523 248.18416
212.80359 133.13206 249.02954
213.21463 133.0798 247.92007
214.25998 133.19131 249.73662
214.88454 133.19371 249.59932
215.94504 133.30534 251.40923
217.01559 133.41705 253.21521
218.31894 133.58347 255.9906
218.9617 133.58609 255.84253
219.37715 133.53413 254.72047
220.01807 133.53685 254.56941
220.42677 133.48494 253.4455
220.8309 133.43306 252.32101
221.46786 133.43587 252.16577
222.34503 133.49341 252.97804
222.74277 133.44162 251.84995
223.38071 133.44456 251.68933
224.26622 133.50227 252.49431
224.90732 133.50533 252.32944
225.80089 133.56316 253.12888
227.20895 133.73059 255.85619
228.11801 133.78859 256.64801
229.55142 133.95622 259.36502
230.73801 134.06918 261.11258
231.93486 134.18225 262.85553
232.34125 134.13097 261.70734
232.47369 134.02487 259.59708
232.59669 133.91876 257.48758
232.43591 133.7578 254.41885
232.53751 133.65169 252.31181
233.1882 133.65533 252.12296
234.96628 133.87863 255.76381
236.76463 134.10211 259.39685
238.58328 134.32574 263.022
239.55464 134.38472 263.77197
240.82314 134.49873 265.4733
241.2196 134.44795 264.30701
241.61159 134.39719 263.14008
241.69998 134.29144 261.01996
242.38211 134.29573 260.8045
243.673 134.41016 262.48907
244.05455 134.35953 261.31754
244.74072 134.36401 261.09488
245.73904 134.42363 261.8187
246.42877 134.42824 261.59085
245.85266 134.21243 257.57297
246.85257 134.27222 258.29022
247.53641 134.27695 258.05829
247.8967 134.22656 256.87973
248.90573 134.28658 257.58777
250.57861 134.45709 260.17722
252.26712 134.62778 262.75906
253.63715 134.74339 264.39243
255.01779 134.85915 266.01984
255.73074 134.86446 265.76312
256.10257 134.81453 264.5658
256.81415 134.81995 264.30521
256.83286 134.71475 262.16962
258.23914 134.83095 263.77682
258.60071 134.78116 262.57455
258.95782 134.73138 261.37183
259.31042 134.68163 260.16852
260.37744 134.74277 260.82782
260.72614 134.69307 259.62161
261.79938 134.75435 260.27402
263.2453 134.87122 261.85052
264.3324 134.93271 262.49292
265.05301 134.93875 262.20428
265.7742 134.94482 261.91312
266.8732 135.00655 262.54385
267.21826 134.95714 261.32312
268.32346 135.019 261.94662
268.66449 134.96964 260.72287
269.77582 135.03162 261.33908
270.89279 135.09367 261.95053
67.928841 132.86856 215.89217
68.916588 132.80521 215.22673
69.898842 132.74191 214.55704
68.577385 133.02678 219.41457
69.563927 132.96353 218.74275
70.922897 132.84238 217.14272
70.769669 132.95314 219.23659
70.999016 133.00592 220.40642
72.343971 132.88499 218.79488
73.678307 132.76421 217.17722
73.906311 132.81711 218.34077
75.227066 132.69652 216.71397
76.177048 132.63385 216.01228
76.763863 132.62907 216.23865
77.350197 132.62434 216.46304
77.936073 132.61966 216.68542
79.571739 132.4418 214.10097
80.149117 132.43727 214.31657
81.761162 132.25969 211.71976
82.33007 132.25531 211.92871
83.578545 132.13565 210.25844
83.804031 132.18904 211.40134
84.369072 132.18483 211.60373
83.603775 132.41106 215.56964
84.507927 132.34927 214.82961
84.751701 132.40271 215.97215
85.000031 132.45615 217.11459
85.897827 132.39455 216.36722
86.790192 132.33302 215.61629
87.359673 132.32909 215.80833
87.613754 132.38268 216.94597
88.49733 132.32135 216.18704
88.755547 132.375 217.32271
89.325821 132.37123 217.50836
90.810661 132.19528 214.84038
90.16259 132.42123 218.82578
90.734116 132.4176 219.00688
91.305237 132.414 219.18623
92.466072 132.29576 217.45631
92.738861 132.34964 218.58513
94.17662 132.17424 215.89265
94.161018 132.28551 217.97406
94.72525 132.28218 218.1432
95.289101 132.2789 218.31067
95.8526 132.27565 218.47641
96.415726 132.27246 218.6405
97.253769 132.21208 217.84325
98.086548 132.15178 217.04289
98.914032 132.09154 216.2395
99.736252 132.03137 215.43311
100.55322 131.97127 214.62372
101.36496 131.91122 213.81136
101.65048 131.96558 214.9236
101.94061 132.01993 216.03561
102.23532 132.07431 217.14738
102.02843 132.24294 220.19032
102.33728 132.29732 221.30276
103.14717 132.23753 220.48082
103.7061 132.23489 220.62369
104.02144 132.28937 221.73325
105.30484 132.11562 218.96695
106.09645 132.05606 218.13438
106.17498 132.16769 220.20934
106.73009 132.16527 220.34375
107.74709 132.04883 218.53412
108.06815 132.1035 219.63614
108.62003 132.1012 219.76538
109.17168 132.09892 219.89311
109.94439 132.0397 219.04578
110.05536 132.15144 221.1181
111.0416 132.03535 219.29259
111.16187 132.14713 221.36407
111.92635 132.08809 220.50912
112.05835 132.19989 222.58029
112.81996 132.14091 221.7218
113.16796 132.19583 222.81532
113.92429 132.13695 221.95287
114.47614 132.13501 222.06616
115.42174 132.01935 220.2205
115.96834 132.01749 220.32988
116.32263 132.07254 221.41759
117.06097 132.01389 220.54437
117.60703 132.01212 220.64943
118.33772 131.95355 219.77194
118.88098 131.95186 219.87369
119.78404 131.83653 218.00996
119.96701 131.94858 220.07292
120.68491 131.89015 219.18752
120.70697 132.05902 222.23317
121.25426 132.05746 222.32869
121.46566 132.16954 224.39114
122.34839 132.05444 222.5155
122.89523 132.05298 222.6068
123.44194 132.05154 222.69666
124.1467 131.99336 221.79938
124.53493 132.04875 222.87224
125.08122 132.04739 222.95792
125.62738 132.04605 223.04219
126.47046 131.93126 221.15054
127.01154 131.92999 221.23132
127.5525 131.92876 221.31076
128.09334 131.92755 221.38882
128.63406 131.92636 221.4655
128.90176 132.03864 223.51888
129.04498 132.20763 226.56157
129.59744 132.2065 226.63576
130.1498 132.20538 226.70862
130.70204 132.20428 226.78008
131.25418 132.20323 226.85017
131.92822 132.14551 225.92793
132.3582 132.20117 226.98618
133.02722 132.14351 226.06064
133.46184 132.19922 227.1167
134.01352 132.19829 227.1799
134.67505 132.1407 226.24945
135.22417 132.1398 226.30963
135.87831 132.08228 225.37563
136.32214 132.13809 226.42598
136.87103 132.13727 226.48213
137.22404 132.24977 228.52406
137.87308 132.19234 227.58415
138.23798 132.30487 229.62456
138.70313 132.36076 230.67024
139.173 132.41669 231.715
139.73351 132.41599 231.76413
140.29395 132.4153 231.81184
141.01643 132.30138 229.86801
141.72925 132.1875 227.92204
142.43237 132.07364 225.97395
143.12585 131.95981 224.0238
143.59534 132.01588 225.05913
144.0696 132.07196 226.09349
144.54861 132.12805 227.12683
144.96817 132.24078 229.1555
145.39729 132.35352 231.18349
145.95483 132.35304 231.21744
146.45531 132.40921 232.24678
146.96056 132.46538 233.27507
147.52278 132.46497 233.30519
148.1348 132.40799 232.33682
148.74196 132.35101 231.36685
149.25429 132.40727 232.39006
149.89919 132.29375 230.41971
150.49426 132.23685 229.44516
151.0845 132.17998 228.46909
151.56374 132.29289 230.4848
152.18452 132.17947 228.50813
152.70392 132.23584 229.52361
153.2281 132.29222 230.53789
153.75706 132.34862 231.55095
154.31421 132.34845 231.56467
154.87134 132.34831 231.57707
155.40987 132.40477 232.58635
155.90465 132.631 236.58917
156.45998 132.6875 237.59601
157.0201 132.744 238.60156
157.56706 132.91371 241.60248
158.14816 132.91368 241.60703
158.74179 132.74391 238.61497
159.31747 132.68733 237.6183
159.88898 132.68736 237.61861
160.4514 132.51765 234.62238
161.00485 132.40454 232.62325
161.57219 132.46121 233.61787
162.14435 132.51791 234.61113
162.70868 132.51804 234.60466
163.28806 132.57477 235.59512
163.87227 132.63152 236.58415
164.46129 132.68829 237.5717
165.03288 132.68851 237.55965
165.57986 132.63214 236.54811
166.17616 132.68898 237.5314
166.71838 132.63264 236.51721
167.31952 132.68953 237.49763
167.85699 132.63324 236.48087
168.49963 132.74677 238.45607
169.03477 132.69051 237.43661
169.6895 132.80408 239.4086
170.22229 132.74786 238.38649
170.79657 132.74828 238.36052
171.3709 132.74872 238.33316
171.94527 132.74916 238.30443
172.4662 132.69302 237.2773
173.14999 132.80675 239.23955
173.78517 132.86388 240.20322
174.36452 132.86441 240.16859
175.007 132.9216 241.12897
175.58887 132.92218 241.0914
176.17078 132.92279 241.05241
176.75275 132.92343 241.01201
177.26207 132.86745 239.97443
177.76665 132.81149 238.93581
178.26646 132.75555 237.89612
178.76154 132.69962 236.85539
179.3342 132.70035 236.80867
179.90692 132.70111 236.76053
180.56685 132.75853 237.70558
181.23167 132.81598 238.6488
181.80943 132.8168 238.59604
182.57599 132.93097 240.52968
183.25549 132.98851 241.46729
183.9399 133.0461 242.40298
184.83238 133.21703 245.32317
185.42741 133.218 245.26151
185.91614 133.16232 244.20567
186.50894 133.16335 244.14137
186.99062 133.10771 243.08339
187.35394 132.99539 241.03258
187.93982 132.99648 240.96468
188.5258 132.99759 240.89534
189.11188 132.99872 240.82449
189.69807 132.99988 240.75223
190.53578 133.11449 242.65935
191.12703 133.11571 242.5835
192.10997 133.28712 245.47566
192.84164 133.34514 246.38538
193.44292 133.34647 246.3038
194.18208 133.40456 247.20952
195.06641 133.51944 249.10153
195.67532 133.52086 249.01433
196.28439 133.52232 248.9256
197.04103 133.58057 249.82274
197.50294 133.52531 248.74347
197.80791 133.41331 246.67667
198.25804 133.35809 245.59616
198.70349 133.3029 244.51486
199.14426 133.24773 243.43282
199.90425 133.30615 244.32031
200.83362 133.42143 246.19022
201.27248 133.36635 245.10393
202.21432 133.48172 246.9687
203.16603 133.59717 248.83023
203.95355 133.65584 249.70537
204.74611 133.71455 250.57803
206.08049 133.94388 254.3949
206.52774 133.88901 253.2977
206.78656 133.77728 251.21844
207.40829 133.77931 251.1011
207.84161 133.7245 250.00174
208.27026 133.66971 248.90163
209.08128 133.72873 249.75975
209.89738 133.7878 250.61526
210.52022 133.79001 250.48969
211.34409 133.84918 251.34042
211.7666 133.79456 250.23354
212.18451 133.73994 249.12598
213.01398 133.79924 249.97066
213.42749 133.74469 248.86078
214.47533 133.86105 250.67645
215.5332 133.97751 252.4883
216.38322 134.03705 253.32191
217.23842 134.09665 254.15273
218.32153 134.21333 255.9539
219.18954 134.27307 256.77844
219.37982 134.16179 254.68381
220.25085 134.22162 255.50417
220.89456 134.22447 255.35071
221.06865 134.11324 253.25479
221.7081 134.11615 253.09889
222.58775 134.17621 253.91035
222.98798 134.12213 252.78175
223.62843 134.12518 252.62047
224.51645 134.18539 253.42464
225.16003 134.18855 253.25908
226.05615 134.2489 254.05769
227.21213 134.36649 255.8185
228.12125 134.42699 256.61011
229.2952 134.54475 258.36258
230.4794 134.66263 260.11047
231.67386 134.78059 261.85376
232.34473 134.78423 261.6683
232.74661 134.73067 260.51956
232.8721 134.6199 258.40964
232.71381 134.45186 255.34058
233.09471 134.39835 254.19226
233.4711 134.34485 253.04343
234.97 134.5206 255.72513
236.48422 134.6965 258.40045
238.30048 134.92987 262.02567
239.26947 134.99136 262.77621
239.95218 134.99559 262.56836
240.63541 134.99986 262.35843
241.02246 134.94679 261.19308
241.10588 134.83635 259.07474
241.78311 134.84074 258.86081
243.67731 135.07498 262.44836
244.05891 135.02211 261.27689
244.74515 135.02673 261.05417
245.74352 135.08891 261.77771
246.43332 135.09367 261.5498
245.85721 134.86836 257.53244
246.53807 134.87317 257.3035
246.89783 134.82047 256.1272
247.25314 134.76779 254.95041
248.25725 134.83034 255.65996
250.25433 135.06584 259.19308
251.94044 135.24393 261.7753
253.30804 135.36452 263.40915
254.68626 135.48524 265.03705
255.39674 135.49072 264.78113
256.10782 135.49625 264.52283
256.81949 135.50183 264.26215
257.18494 135.44972 263.06287
258.24457 135.5132 263.73355
258.60617 135.46117 262.53134
258.96329 135.40915 261.32861
259.31595 135.35715 260.1254
260.74243 135.47874 261.71579
261.45572 135.48473 261.43906
262.16956 135.49074 261.15979
263.6181 135.61267 262.73489
264.70782 135.6768 263.37604
264.68674 135.56711 261.23355
265.78009 135.63136 261.86859
266.87915 135.69569 262.49902
267.60406 135.70209 262.20163
268.71185 135.76659 262.82379
269.05545 135.71501 261.599
270.55688 135.83775 263.13394
271.67902 135.90248 263.74298
69.095871 133.25769 213.0976
69.687843 133.25229 213.34879
70.279442 133.24693 213.59787
68.955353 133.54381 218.45363
69.939407 133.47798 217.78099
70.539978 133.47264 218.02803
71.140121 133.46733 218.27293
71.739822 133.46207 218.51576
72.709435 133.3965 217.82953
73.673515 133.33104 217.13921
73.901527 133.38622 218.30272
74.859627 133.32088 217.60626
76.172409 133.19539 215.97487
76.759254 133.19046 216.20132
77.345627 133.18559 216.42581
78.28418 133.12059 215.71445
79.917397 132.93536 213.12965
80.14473 132.99084 214.28009
81.756874 132.80586 211.68387
82.325821 132.80135 211.89288
83.23436 132.7368 211.16148
83.462387 132.79245 212.30522
83.694984 132.84811 213.44888
83.267159 133.02382 216.47487
83.84391 133.01947 216.67801
84.092712 133.07515 217.82224
84.346085 133.13084 218.96631
85.571434 133.00671 217.2762
86.466354 132.94264 216.52634
87.038368 132.93855 216.71935
87.294975 132.99442 217.85773
88.181114 132.93054 217.09984
88.441849 132.98647 218.23627
88.707153 133.04239 219.37245
90.197067 132.85907 216.70662
89.553955 133.09451 220.69304
90.430534 133.03094 219.92375
91.301743 132.96744 219.15111
92.462654 132.84428 217.42155
92.442863 132.96017 219.50468
94.173325 132.71773 215.85832
94.157722 132.83369 217.93953
94.722 132.83026 218.10873
95.003212 132.88655 219.2336
95.849434 132.82353 218.44206
96.134857 132.87988 219.56499
97.526001 132.69772 216.84964
98.356346 132.63492 216.04881
99.181427 132.5722 215.24493
100.00125 132.50955 214.43802
100.81581 132.44698 213.62816
101.36217 132.44403 213.77829
101.64772 132.50069 214.89046
102.19592 132.4978 215.03807
102.48821 132.5545 216.14906
102.53199 132.67075 218.22539
102.58528 132.78697 220.30267
103.14455 132.78421 220.44717
103.45773 132.84096 221.55763
104.01888 132.83827 221.69955
105.06148 132.71671 219.90248
105.61716 132.71411 220.04005
106.17256 132.71156 220.17609
106.72769 132.70905 220.31056
107.74475 132.58775 218.50127
108.06584 132.64474 219.60318
108.84396 132.58298 218.76021
109.3932 132.58064 218.88737
109.9422 132.57834 219.01308
110.49096 132.57608 219.13728
111.25594 132.51451 218.28549
111.37378 132.63101 220.35619
111.92429 132.62885 220.47646
111.84717 132.80469 223.52345
112.40454 132.80257 223.64229
112.75744 132.85979 224.73672
113.51866 132.79845 223.87544
113.87601 132.85571 224.96793
115.2229 132.61662 221.16682
115.96651 132.55544 220.29764
116.51295 132.55356 220.40562
117.2489 132.49246 219.53212
117.79256 132.49065 219.63675
118.33602 132.48888 219.73996
118.69691 132.54636 220.82317
119.78242 132.36699 217.97832
119.96541 132.48375 220.04102
120.68334 132.4229 219.15581
120.87812 132.53967 221.21786
121.25273 132.59727 222.2966
121.46414 132.71407 224.3588
122.18146 132.65334 223.4679
122.73076 132.65181 223.55962
123.27991 132.65033 223.64992
124.14531 132.53055 221.76755
124.68935 132.52913 221.85428
125.23325 132.52774 221.93961
125.77702 132.52637 222.02354
126.61772 132.40677 220.13184
127.01029 132.4646 221.19978
127.55127 132.46332 221.27924
128.09213 132.46207 221.35732
128.49402 132.51996 222.42258
128.6277 132.69606 225.46487
128.77574 132.87218 228.50784
129.46468 132.8119 227.59322
129.89026 132.86984 228.65623
130.44736 132.86871 228.72835
131.12875 132.80852 227.80858
131.80522 132.74837 226.88681
132.47678 132.68826 225.96309
133.02625 132.68724 226.02878
133.6904 132.6272 225.10146
134.34964 132.56717 224.17223
135.00397 132.50719 223.24107
135.54588 132.50627 223.30049
136.19283 132.44635 222.36591
136.73216 132.4455 222.42242
137.27144 132.44466 222.47757
137.81064 132.44385 222.53142
138.34976 132.44307 222.58394
138.70265 132.56036 224.62294
139.06509 132.67766 226.66151
139.52539 132.73595 227.70525
139.99042 132.79425 228.74811
140.46019 132.85257 229.78999
141.1779 132.73387 227.84605
141.88593 132.6152 225.89996
142.58429 132.49658 223.95181
143.27296 132.37798 222.0016
143.80911 132.37741 222.04073
144.20714 132.49486 224.07031
144.68137 132.55333 225.10323
145.16035 132.61182 226.13512
145.52046 132.7883 229.15869
146.01379 132.84682 230.18886
146.51189 132.90533 231.21791
147.06937 132.90491 231.24918
147.5746 132.96347 232.27596
148.18422 132.90408 231.30762
148.83641 132.78575 229.34055
149.38896 132.7854 229.36618
149.94148 132.78506 229.39044
150.57437 132.66679 227.4185
151.15984 132.60753 226.44238
151.63428 132.72522 228.45767
152.21729 132.66599 227.47884
152.7343 132.72473 228.49406
153.25609 132.78349 229.50816
153.78267 132.84227 230.52101
154.36082 132.78314 229.53671
154.89218 132.84195 230.54706
155.42833 132.90079 231.55614
155.92073 133.13655 235.55838
156.50124 133.0775 234.56871
157.06555 133.07742 234.57582
157.6209 133.13634 235.57979
158.19418 133.07733 234.58598
158.76685 132.95938 232.59251
159.32104 133.13629 235.58896
159.88838 133.1953 236.58755
160.44843 133.01843 233.59174
161.00491 132.95953 232.59111
161.57228 133.0186 233.58563
162.12399 132.95973 232.58234
162.68355 132.95987 232.5759
163.27318 133.07796 234.56444
163.85501 133.1371 235.55336
164.4218 133.13728 235.54276
165.01086 133.19647 236.52881
165.60475 133.25568 237.51337
166.2305 133.37387 239.49435
166.80699 133.37416 239.47801
167.41536 133.43343 240.45804
167.92581 133.3158 238.4435
168.53664 133.37511 239.42067
169.07419 133.3165 238.40126
169.64842 133.31688 238.37807
170.17883 133.25829 237.35617
170.797 133.3177 238.32748
171.32268 133.25916 237.30307
171.89465 133.25963 237.27441
172.46667 133.26012 237.2444
173.1505 133.3786 239.20638
173.78571 133.43814 240.16986
174.36508 133.43869 240.13525
175.00758 133.49828 241.09549
175.65497 133.55789 242.05402
176.2393 133.55852 242.01485
176.8237 133.55917 241.97424
177.33545 133.50084 240.93663
177.91756 133.50153 240.89337
178.42221 133.44324 239.85344
178.9221 133.38495 238.81248
179.4996 133.38571 238.76535
180.07716 133.38649 238.7168
180.65479 133.3873 238.66684
181.32205 133.44716 239.6097
181.9942 133.50706 240.55069
182.67123 133.56699 241.48979
183.35318 133.62694 242.42703
184.04001 133.68694 243.36234
184.83334 133.80602 245.28874
185.2204 133.6889 243.24144
185.81073 133.68993 243.17882
186.50998 133.75003 244.10703
186.99168 133.69205 243.04919
187.35501 133.575 240.99864
187.94092 133.57611 240.93073
188.40846 133.51817 239.87015
189.11304 133.57841 240.79051
189.69925 133.57962 240.71819
190.41129 133.63994 241.63472
191.25638 133.7594 243.53915
192.11124 133.87891 245.44084
192.84296 133.93935 246.35043
193.44424 133.94072 246.26881
194.18346 134.00124 247.17435
194.92763 134.0618 248.07773
195.53416 134.06326 247.99083
196.14084 134.06476 247.90242
197.04254 134.18459 249.78708
197.50449 134.127 248.70792
197.80946 134.01027 246.64136
198.25961 133.95271 245.56096
198.54797 133.836 243.49397
199.30542 133.89684 244.38326
200.06787 133.95772 245.2702
200.99971 134.07784 247.13939
201.44101 134.02042 246.05278
202.55453 134.19984 248.90062
203.33949 134.26093 249.77762
204.12949 134.32205 250.65215
204.74802 134.32401 250.54172
206.08246 134.56293 254.35794
206.34837 134.44649 252.27925
206.6048 134.33005 250.20068
207.22412 134.33212 250.08374
207.84367 134.33426 249.96518
208.0813 134.21786 247.88545
209.08342 134.33861 249.72314
209.70363 134.34085 249.59966
210.52245 134.40244 250.45288
210.94475 134.34544 249.34776
211.56567 134.34779 249.2193
211.98114 134.29085 248.11234
213.01634 134.41196 249.93365
213.64044 134.41443 249.79968
214.69078 134.53568 251.61447
215.75113 134.65701 253.42543
216.60367 134.71904 254.25833
217.46136 134.78113 255.08842
218.32422 134.84328 255.9156
219.19226 134.9055 256.73993
219.38257 134.78952 254.64555
220.25366 134.85184 255.46574
220.66489 134.79533 254.34145
221.3065 134.79831 254.18669
221.94846 134.80133 254.03018
222.59073 134.8044 253.87184
223.23334 134.80751 253.71172
223.63147 134.75116 252.58199
224.51956 134.81389 253.38596
225.16319 134.81714 253.22034
226.31152 134.93953 254.98457
227.21539 135.00247 255.77917
228.63876 135.18463 258.49969
229.81772 135.30733 260.25046
230.7449 135.37054 261.03342
231.41296 135.37422 260.85059
232.34833 135.43758 261.62762
232.75026 135.38174 260.47897
232.6039 135.20663 257.40878
232.44313 135.03149 254.34081
233.09842 135.03535 254.15234
233.75415 135.03928 253.9619
234.97386 135.16266 255.68475
236.77243 135.40562 259.31647
238.59128 135.64877 262.94028
239.27359 135.65306 262.73441
239.95636 135.65742 262.52646
240.34546 135.60205 261.36258
240.73007 135.54669 260.19812
241.40933 135.55119 259.98541
241.78746 135.49591 258.81906
243.37766 135.68007 261.45517
243.75681 135.62491 260.28458
244.4406 135.62967 260.06256
244.81329 135.57457 258.89008
245.80975 135.63936 259.612
245.54526 135.46446 256.54352
245.90454 135.40944 255.36949
246.58099 135.41443 255.13994
246.93381 135.35947 253.96408
248.26213 135.48459 255.61748
249.93021 135.66988 258.20755
251.61391 135.85535 260.79007
252.97906 135.98093 262.42438
254.35487 136.10663 264.05276
255.40211 136.17236 264.73642
256.11325 136.17807 264.47803
256.82495 136.18384 264.21722
257.53726 136.18967 263.95404
258.25015 136.19556 263.68842
258.61179 136.14128 262.48627
258.61456 136.02678 260.35043
258.96472 135.97253 259.14825
260.0293 136.03885 259.80795
261.09955 136.10526 260.46332
262.17542 136.17178 261.11417
263.62408 136.29875 262.68881
264.71387 136.36548 263.32971
264.69275 136.25113 261.18741
266.16092 136.37842 262.74734
266.88531 136.38496 262.45236
267.23041 136.33109 261.23172
268.71811 136.45866 262.7767
269.06174 136.40486 261.552
269.78824 136.41159 261.2467
270.51526 136.41833 260.93881
69.872154 133.69527 211.22081
70.459045 133.68977 211.46994
70.659935 133.74721 212.6375
68.950142 134.11894 218.41296
69.934242 134.05054 217.74063
70.156868 134.10785 218.91141
71.135025 134.03957 218.23276
71.734772 134.03415 218.47565
72.704422 133.96602 217.78972
74.036392 133.83524 216.17188
74.627182 133.83002 216.40552
75.580269 133.76215 215.70735
76.52784 133.69437 215.00519
76.754501 133.75195 216.16251
77.340927 133.74693 216.38705
78.279526 133.67937 215.67596
79.562737 133.54932 214.02637
80.487808 133.48195 213.30656
81.752449 133.35214 211.64647
82.321449 133.34747 211.85558
83.230049 133.28038 211.12445
83.12056 133.40079 213.20734
83.355705 133.45871 214.35181
82.597885 133.70393 218.31929
83.17968 133.69942 218.52431
83.433533 133.75734 219.67018
84.016937 133.7529 219.87225
85.244858 133.62381 218.18343
86.782326 133.4325 215.54391
87.034393 133.49063 216.68237
87.606033 133.48647 216.87358
88.177238 133.48236 217.06302
88.748016 133.4783 217.25064
89.010857 133.53654 218.38596
90.498375 133.34589 215.71986
89.852768 133.59087 219.70493
90.726913 133.5248 218.93509
91.298126 133.52097 219.11458
92.459122 133.39288 217.38539
92.146736 133.57562 220.42249
93.879776 133.32343 216.77759
93.579025 133.5062 219.81499
94.148285 133.50262 219.98576
94.717178 133.4991 220.15479
95.565933 133.43356 219.36423
96.131622 133.43015 219.52913
97.52285 133.24068 216.81432
98.353256 133.17538 216.0137
99.448761 133.04814 214.24927
99.998276 133.04501 214.40335
100.8129 132.97993 213.59369
101.3593 132.9769 213.74387
101.38435 133.09782 215.81943
101.93504 133.09485 215.96776
101.97423 133.21577 218.04413
102.02293 133.3367 220.12148
102.33183 133.39571 221.2337
102.64536 133.45473 222.34561
103.20927 133.4519 222.48984
103.7729 133.44911 222.63246
104.81801 133.32266 220.83635
105.61461 133.25813 220.0054
106.40604 133.19368 219.17169
106.95878 133.1911 219.3056
107.74234 133.12675 218.46704
108.29211 133.12427 218.59732
108.84164 133.12183 218.72606
109.61469 133.05765 217.88065
110.16127 133.0553 218.00581
110.70763 133.05296 218.12949
111.25375 133.05069 218.25169
111.37161 133.17191 220.32214
111.92216 133.16968 220.4424
111.84505 133.35263 223.489
112.40246 133.35045 223.60789
112.75539 133.41 224.70222
113.51665 133.34619 223.84114
113.87402 133.40579 224.93349
115.22098 133.15707 221.13303
115.77007 133.15511 221.24298
116.31898 133.15315 221.35149
117.2471 133.02795 219.49872
117.97804 132.96446 218.62303
118.51912 132.96265 218.72583
119.06003 132.96086 218.82718
119.96075 132.83589 216.96362
119.96375 133.01898 220.00781
120.68173 132.95569 219.12276
120.87652 133.07721 221.18456
121.42145 133.07556 221.27972
121.46258 133.25867 224.32512
122.01447 133.25706 224.41867
122.56621 133.25549 224.51083
123.11781 133.25395 224.60156
123.98568 133.12935 222.71989
124.53215 133.12788 222.80704
125.38524 133.00337 220.92027
126.07758 132.94044 220.01723
126.61641 132.93909 220.09911
127.15513 132.93774 220.17958
127.69372 132.93643 220.2587
128.0909 132.99666 221.32451
128.35393 133.11839 223.37804
128.6265 133.24013 225.43153
128.9086 133.36188 227.48502
129.46353 133.36066 227.5596
129.88911 133.42096 228.62253
130.44623 133.41978 228.69466
131.12766 133.35718 227.77505
131.80417 133.29462 226.85345
132.35617 133.29355 226.92084
133.14243 133.16959 225.00439
133.68942 133.16858 225.06844
134.34869 133.10614 224.13937
134.89311 133.10518 224.20042
135.43745 133.10425 224.26013
135.9817 133.10333 224.31851
136.62862 133.04102 223.38272
137.1703 133.04016 223.43816
137.71193 133.03932 223.49225
138.25349 133.0385 223.54503
138.70189 133.09912 224.59023
139.06436 133.22118 226.62852
139.52466 133.28183 227.67213
139.9897 133.3425 228.71484
140.54297 133.34178 228.76201
141.2583 133.21829 226.81816
141.96396 133.09485 224.87218
142.65993 132.97144 222.92413
143.19855 132.97083 222.96478
143.73711 132.97025 223.00414
144.13756 133.09244 225.03358
144.54758 133.21466 227.06242
145.09563 133.21413 227.09846
145.5818 133.27499 228.12935
146.07274 133.33588 229.15921
146.62547 133.3354 229.19154
147.17818 133.33496 229.22253
147.67862 133.3959 230.24892
148.28346 133.33412 229.28049
148.93086 133.21101 227.31348
149.43362 133.27202 228.33597
150.02637 133.21031 227.36295
150.61427 133.14864 226.38841
151.15955 133.14835 226.40976
151.63402 133.27078 228.42476
152.21706 133.20917 227.44603
152.70349 133.33163 229.4588
153.22771 133.39278 230.47282
153.7825 133.39258 230.48785
154.33728 133.39241 230.50153
154.91302 133.3309 229.51596
155.44679 133.39212 230.52489
155.93681 133.63741 234.52647
156.47359 133.76001 236.53101
157.03136 133.82129 237.53624
157.58493 133.94392 239.53824
158.16785 133.88254 238.54462
158.7585 133.63713 234.5553
159.32106 133.69849 235.55507
159.8878 133.69852 235.5554
160.44545 133.51453 232.56003
