ply
format ascii 1.0
comment PCL generated
element vertex 1288
property float x
property float y
property float z
element camera 0
property float view_px
property float view_py
property float view_pz
property float x_axisx
property float x_axisy
property float x_axisz
property float y_axisx
property float y_axisy
property float y_axisz
property float z_axisx
property float z_axisy
property float z_axisz
property float focal
property float scalex
property float scaley
property float centerx
property float centery
property int viewportx
property int viewporty
property float k1
property float k2
end_header
0.035017561 -0.030499166 0.021520793
0.036392402 -0.030706089 0.018363088
0.037616163 -0.030776862 0.017219543
0.03874803 -0.030770494 0.016246051
-0.039739314 -0.029520635 0.019373029
-0.038531739 -0.029465448 0.020323008
-0.037536275 -0.029574035 0.018944591
-0.03661963 -0.02975345 0.016619235
-0.035497222 -0.029771864 0.017932892
-0.034511544 -0.029910006 0.01742655
-0.033409491 -0.029953336 0.017696798
-0.032263134 -0.029958624 0.015806109
-0.031288292 -0.030129464 0.01515311
-0.027639873 -0.029943196 0.01710394
-0.026241977 -0.029664842 0.018734455
-0.025104525 -0.029668985 0.018737078
-0.023984473 -0.029695062 0.019736111
-0.022813661 -0.029657759 0.020370632
-0.021639802 -0.029612361 0.021199733
-0.020464927 -0.02956045 0.020910382
-0.019306319 -0.02952731 0.021471918
-0.018134575 -0.029468685 0.020768881
-0.017056616 -0.0295648 0.019579113
-0.016026508 -0.029763516 0.017707914
-0.014931234 -0.029862467 0.0168823
-0.011367589 -0.029555732 0.021289885
-0.010148216 -0.029317068 0.024113744
-0.0090181939 -0.029309131 0.022484601
-0.0079223756 -0.029425967 0.020976931
-0.0067689796 -0.029332245 0.02243793
-0.0055978112 -0.029108617 0.028352618
-0.0044630417 -0.029009772 0.029570282
-0.003346259 -0.029000912 0.02884075
-0.0022316042 -0.029010857 0.027989388
-0.0011122226 -0.028917786 0.029425651
0 -0.028781824 0.031567514
0.0011003574 -0.028609293 0.03553465
0.002195705 -0.028544165 0.036532193
0.0032953313 -0.028559538 0.03818664
0.0043936796 -0.028558917 0.038453519
0.0055181077 -0.02869416 0.036359459
0.006631359 -0.028735889 0.03426528
0.0077379765 -0.028741054 0.034166574
0.0088410424 -0.028733388 0.033021301
0.0099615231 -0.028777732 0.029710293
0.011003228 -0.028608393 0.032287657
0.012173682 -0.028774155 0.030168861
0.013323219 -0.028866975 0.031018198
0.014466362 -0.028932724 0.029337257
0.015577852 -0.028930295 0.028872609
0.016769314 -0.02906681 0.026729703
0.017979903 -0.029217344 0.023784518
0.019101691 -0.029214349 0.024852037
0.02017279 -0.029138474 0.027013272
0.021291053 -0.029135125 0.029587179
0.022374891 -0.029087357 0.02768755
0.023411529 -0.028985703 0.028097212
0.024523092 -0.028981837 0.028093487
0.025634199 -0.028977791 0.028624147
0.026835211 -0.029071478 0.027113646
0.027797276 -0.028909167 0.029538691
0.028787773 -0.028787773 0.031331331
0.029908117 -0.028800409 0.031253338
0.031010542 -0.028795503 0.031369388
0.032416869 -0.0290634 0.026314586
0.033803437 -0.029296312 0.022644848
0.034996971 -0.029352298 0.021864027
0.036229502 -0.029436469 0.020476878
0.037528273 -0.02956773 0.018362403
0.038737882 -0.029623086 0.016442716
0.03989419 -0.029635685 0.016148269
-0.038838826 -0.02855796 0.017318517
-0.035561137 -0.028678335 0.018712372
-0.034420501 -0.02868375 0.019711167
-0.033372521 -0.028769415 0.019180596
-0.032463711 -0.028985456 0.016415685
-0.031309631 -0.028990397 0.016005605
-0.030154966 -0.028995158 0.015425235
-0.026496263 -0.028800286 0.01966095
-0.025128553 -0.028555173 0.023649901
-0.024001032 -0.028572658 0.023434281
-0.022861036 -0.028576296 0.021200508
-0.021679034 -0.028525045 0.020570874
-0.020443 -0.028393056 0.022056639
-0.019309377 -0.028396143 0.021475345
-0.018219179 -0.028467467 0.018972218
-0.017143242 -0.028572071 0.018487543
-0.016116751 -0.028779913 0.015861779
-0.010149826 -0.028193962 0.025139719
-0.0090196244 -0.028186327 0.024264872
-0.0078950953 -0.028196771 0.025069207
-0.0067627523 -0.028178133 0.025849074
-0.005607828 -0.028039141 0.028089345
-0.0044708094 -0.027942559 0.032666326
-0.0033495286 -0.02791274 0.030817062
-0.0022322019 -0.027902525 0.030987918
-0.0011123992 -0.027809978 0.032473117
0 -0.027705086 0.032619298
0.0011071655 -0.027679138 0.035199493
0.0022012871 -0.027516088 0.037389964
0.0033115554 -0.027596295 0.037657142
0.0044153109 -0.027595691 0.036804378
0.005549714 -0.02774857 0.034344941
0.0066594286 -0.02774762 0.0324696
0.0077681672 -0.027743455 0.032979399
0.0088774906 -0.027742159 0.035022259
0.0099992435 -0.027775677 0.034460634
0.011144292 -0.027860729 0.032244116
0.012243867 -0.02782697 0.030003309
0.013355991 -0.027824981 0.030001163
0.014467864 -0.027822817 0.029487908
0.015655251 -0.027955806 0.027344584
0.016842213 -0.028070353 0.025809586
0.017986646 -0.028104136 0.025223345
0.019293871 -0.02837334 0.021451026
0.020426584 -0.028370256 0.021448702
0.021473447 -0.028254535 0.02577436
0.022493917 -0.028117398 0.027910739
0.023564557 -0.028053045 0.029438674
0.024632586 -0.027991574 0.027271509
0.025638254 -0.027867669 0.028871685
0.026839456 -0.027957767 0.027676791
0.027871521 -0.027871521 0.028620124
0.028981799 -0.027867114 0.029222906
0.03001285 -0.027789675 0.029898137
0.031294215 -0.027941264 0.02787751
0.032418467 -0.027946955 0.027217031
0.03353386 -0.027944885 0.026313931
0.034780543 -0.028048826 0.024561495
0.035945974 -0.028082792 0.025308937
0.037061833 -0.028077146 0.025910348
0.038612034 -0.028391203 0.02078706
0.040176325 -0.028697373 0.018842608
-0.034764409 -0.027811527 0.01519835
-0.033553638 -0.027768528 0.016755223
-0.032402337 -0.027773432 0.017365366
-0.031183213 -0.027718412 0.017951339
-0.03003321 -0.027722964 0.017371178
-0.028882656 -0.027727351 0.017957121
-0.027820513 -0.027820513 0.016477376
-0.026500294 -0.02765248 0.019347936
-0.025246022 -0.027541116 0.018475473
-0.023846405 -0.027253035 0.022513926
-0.022801293 -0.027361551 0.024413437
-0.021719299 -0.027434904 0.02324909
-0.020578545 -0.027438059 0.020576358
-0.01944878 -0.027457099 0.020310998
-0.018376673 -0.027565008 0.018561572
-0.01726811 -0.027628977 0.01980412
-0.016147312 -0.027681105 0.015231609
-0.010212711 -0.027233897 0.022417486
-0.009021 -0.027063001 0.025290936
-0.0078856498 -0.027036512 0.025973737
-0.0067301895 -0.026920758 0.028117001
-0.0055892076 -0.026828198 0.031745285
-0.0044851247 -0.026910748 0.032744348
-0.003354422 -0.026835376 0.033694535
-0.0022363162 -0.026835794 0.033695072
-0.0011181076 -0.026834583 0.032794595
0 -0.026790844 0.033525079
0.0011088561 -0.026612544 0.035789192
0.0022167175 -0.026600609 0.035983652
0.0033264852 -0.026611881 0.035788327
0.0044627269 -0.026776362 0.034375489
0.0055782525 -0.026775613 0.032986879
0.0066954996 -0.026781999 0.032864034
0.0078238808 -0.026824733 0.033033073
0.0089445673 -0.026833702 0.032861173
0.010058273 -0.02682206 0.032007486
0.011173981 -0.026817555 0.03112942
0.012280536 -0.026793897 0.030932695
0.01339307 -0.026786139 0.031587541
0.014534128 -0.026832236 0.028129727
0.01568489 -0.026888382 0.031582445
0.016844779 -0.026951646 0.026397407
0.017989386 -0.026984079 0.026930064
0.019284407 -0.027225044 0.022865117
0.020429693 -0.027239593 0.023981452
0.021602629 -0.02728753 0.024392068
0.022604331 -0.027125197 0.026261479
0.023653664 -0.027032759 0.027741224
0.024721902 -0.026969349 0.028734237
0.025795894 -0.026917454 0.029532313
0.026913529 -0.026913529 0.027996927
0.028004847 -0.026884653 0.028405756
0.029071478 -0.026835211 0.02915442
0.030035444 -0.026698172 0.031603128
0.031310868 -0.026837887 0.029193282
0.032423388 -0.026833149 0.027706832
0.033522561 -0.026818048 0.027871758
0.03457512 -0.026767833 0.028667539
0.035900943 -0.026925705 0.026696116
0.037015401 -0.026920293 0.026690751
0.038490035 -0.027169436 0.024962813
0.039745227 -0.02725387 0.023841798
0.041135907 -0.027423939 0.020296216
0.042329591 -0.02745703 0.019637078
0.043463573 -0.027450677 0.019511342
-0.035942357 -0.026666909 0.015658975
-0.034789499 -0.026671948 0.015224874
-0.033630714 -0.026672635 0.015300483
-0.032407057 -0.026620083 0.015206009
-0.031254992 -0.026624622 0.015208632
-0.029915972 -0.026464129 0.017689615
-0.028984077 -0.02666535 0.015262157
-0.027662689 -0.026510077 0.016382545
-0.026513947 -0.026513947 0.016384929
-0.025285812 -0.026435167 0.017821729
-0.024105212 -0.026400948 0.01901561
-0.022869069 -0.02629943 0.020842016
-0.021722473 -0.026295627 0.020382434
-0.020581551 -0.026298648 0.019119829
-0.01945162 -0.026316898 0.020119339
-0.018396875 -0.026445508 0.016642183
-0.017301658 -0.026529208 0.015938103
-0.010297462 -0.026315738 0.021617383
-0.0091016851 -0.026167346 0.0215455
-0.0079081059 -0.025983777 0.024760216
-0.0067603909 -0.025914833 0.026782036
-0.0056095044 -0.025803721 0.03019166
-0.0044877292 -0.025804443 0.032554328
-0.0033644091 -0.025793802 0.030387968
-0.002240296 -0.025763404 0.032652974
-0.001118941 -0.025735643 0.031362742
0 -0.025734322 0.031630665
0.0011123664 -0.02558443 0.032945484
0.0022247122 -0.025584189 0.033334762
0.00333939 -0.025601991 0.033017695
0.0044645979 -0.025671437 0.032870889
0.005580591 -0.025670718 0.032869965
0.006721314 -0.025765037 0.031213224
0.0078863772 -0.025912382 0.029532075
0.0090101473 -0.025904175 0.029652387
0.01013588 -0.025902804 0.028628409
0.011261422 -0.025901271 0.028480679
0.012415539 -0.025959762 0.02665323
0.013539602 -0.025950905 0.027551889
0.014567892 -0.025773963 0.027160317
0.01572551 -0.025834765 0.027425706
0.016917501 -0.025940169 0.02554962
0.018073766 -0.025981039 0.02479288
0.019287223 -0.026094478 0.02437678
0.020470992 -0.026157377 0.023133546
0.021613874 -0.026164163 0.024225384
0.022740174 -0.026151201 0.023614466
0.023685204 -0.025940938 0.027210295
0.024809755 -0.025937472 0.027206659
0.025931053 -0.025931053 0.027251512
0.027007872 -0.025882544 0.028681606
0.02810614 -0.02585765 0.026781648
0.029225761 -0.025853559 0.026777416
0.030238248 -0.025758509 0.028668016
0.031315431 -0.025723388 0.029197514
0.032412261 -0.025706276 0.030698121
0.033470985 -0.025661087 0.03110531
0.034580149 -0.02565624 0.031099439
0.035552751 -0.025553541 0.030972004
0.036934692 -0.025742361 0.02759251
0.038046043 -0.025737029 0.030255735
0.039513275 -0.025965866 0.026174009
0.040768635 -0.026046628 0.024325073
0.041891649 -0.026040755 0.024319589
0.043407697 -0.026273079 0.020168692
0.044603217 -0.026304463 0.020454735
0.046135534 -0.026527932 0.015894592
-0.02992015 -0.025317049 0.0186885
-0.028988127 -0.025509551 0.015361488
-0.027614046 -0.025312874 0.017259985
-0.026451943 -0.025301859 0.016873509
-0.025289346 -0.025289346 0.016729951
-0.024114966 -0.025263298 0.017267227
-0.022969561 -0.025266517 0.018072098
-0.021769419 -0.025206696 0.019460857
-0.020675298 -0.025269808 0.018368334
-0.01954741 -0.025296647 0.017664731
-0.018452013 -0.025371518 0.015184432
-0.0091331527 -0.025116172 0.020258039
-0.0079654623 -0.025034312 0.021768659
-0.0067814277 -0.024865234 0.025446504
-0.0056513832 -0.024866087 0.026372731
-0.0045195292 -0.024857411 0.026543915
-0.0033897208 -0.024857953 0.02449888
-0.0022432888 -0.024676178 0.027811289
-0.0011203155 -0.024646942 0.029491901
0 -0.024647018 0.029492021
0.0011207417 -0.024656318 0.027933329
0.0022414625 -0.024656087 0.027933061
0.0033583057 -0.024627576 0.029612958
0.0044776434 -0.024627037 0.029612303
0.0056020715 -0.024649115 0.029197484
0.006760973 -0.024790235 0.027151048
0.0079104938 -0.02486155 0.025835037
0.0090610813 -0.024917973 0.026052982
0.010197559 -0.024927367 0.023689926
0.011329951 -0.024925891 0.024467587
0.012446734 -0.024893468 0.022810608
0.013545151 -0.024832776 0.027434021
0.014668816 -0.02482415 0.024121553
0.015793305 -0.02481805 0.025555491
0.01691987 -0.024815809 0.025553197
0.018076297 -0.024854908 0.024796367
0.019289922 -0.024963429 0.024380207
0.020470571 -0.025019586 0.022771865
0.021608807 -0.025020724 0.024885595
0.022743355 -0.025017692 0.023617774
0.023954088 -0.025094759 0.022155553
0.025011161 -0.025011161 0.023611605
0.026144378 -0.025007667 0.024264783
0.027034985 -0.024782069 0.028296649
0.028131334 -0.024755575 0.025570065
0.02924248 -0.024743637 0.025711834
0.030242469 -0.024642011 0.030761629
0.03135721 -0.024637809 0.030756384
0.032464329 -0.024628112 0.030046552
0.033528473 -0.024587546 0.030405372
0.034639541 -0.0245829 0.030690968
0.035961658 -0.024723642 0.02920416
0.036939841 -0.024626559 0.030266196
0.03781826 -0.024470638 0.030623943
0.039230067 -0.0246589 0.029234529
0.040359534 -0.02466416 0.02541998
0.041758399 -0.024829319 0.025826514
0.043056726 -0.024927579 0.021504939
0.044562142 -0.02513762 0.017573148
0.045865681 -0.025226124 0.017690033
0.047045279 -0.025243809 0.017249525
0.048424542 -0.025365237 0.015065253
0.049645219 -0.02539988 0.015351892
0.05090598 -0.02545299 0.015129924
-0.027617732 -0.024165515 0.01592508
-0.023099128 -0.024254085 0.015544564
-0.021946833 -0.024257025 0.01503551
-0.020785369 -0.024249597 0.01501292
-0.0080134086 -0.024040228 0.019044042
-0.006849553 -0.023973437 0.020335555
-0.0056901951 -0.023898819 0.022406429
-0.0045520402 -0.023898212 0.021311045
-0.003410086 -0.023870602 0.021749914
-0.0022734262 -0.023870973 0.021750271
-0.0011292949 -0.023715192 0.021774799
0 -0.023692248 0.023358077
0.0011259458 -0.023644863 0.02425921
0.0022491913 -0.02361651 0.025963932
0.0033777533 -0.023644274 0.025427669
0.0044872547 -0.023558086 0.027546078
0.0056542717 -0.023747941 0.023916423
0.0067848936 -0.023747128 0.024451375
0.0079528922 -0.023858676 0.021187067
0.0090944394 -0.023872903 0.020893872
0.010233442 -0.023878032 0.02072233
0.011369818 -0.023876619 0.020721108
0.012505982 -0.023875058 0.020086706
0.013546965 -0.023707189 0.023250192
0.014635969 -0.023642719 0.024076104
0.015714481 -0.023571722 0.025851011
0.016922135 -0.023690987 0.025556594
0.018078713 -0.023728311 0.024726689
0.019222176 -0.023745039 0.024359137
0.020421846 -0.023825487 0.022774905
0.021601293 -0.023875114 0.022747934
0.022754909 -0.023892656 0.022355944
0.024079878 -0.024079878 0.01911813
0.025136225 -0.023993669 0.020696372
0.026153464 -0.023879251 0.022638798
0.027061934 -0.023679191 0.024677813
0.028160919 -0.023655171 0.025062978
0.02925586 -0.023629734 0.024645835
0.030376092 -0.023625849 0.025565237
0.031446435 -0.023584826 0.028160691
0.032468658 -0.023511788 0.029467553
0.03365317 -0.023557218 0.028514922
0.03477025 -0.02355404 0.028023839
0.035966448 -0.023602981 0.026221693
0.036886677 -0.023473339 0.027624339
0.037924375 -0.023423878 0.02803117
0.039037835 -0.023422699 0.029286951
0.040144388 -0.023417559 0.027873486
0.041680939 -0.02365675 0.026824325
0.042815965 -0.023661453 0.02410233
0.044185158 -0.023792008 0.021502703
0.045837834 -0.024064863 0.01793474
0.04697204 -0.02405885 0.01858449
0.048430961 -0.02421548 0.015890867
0.049607534 -0.024226936 0.015765637
0.050912715 -0.024299251 0.01513195
-0.0080276458 -0.022936132 0.018291444
-0.006876369 -0.022921231 0.018608838
-0.005719543 -0.022878172 0.019486308
-0.0045874547 -0.022937274 0.017733067
-0.0034406662 -0.022937775 0.017197549
-0.0022850437 -0.022850437 0.019487619
-0.0011402183 -0.022804368 0.018610865
0 -0.022755718 0.018562168
0.0011337021 -0.022674043 0.019853175
0.0022755435 -0.022755435 0.019146591
0.0034191082 -0.022794055 0.018366784
0.0045306995 -0.022653496 0.023847073
0.0056632152 -0.022652861 0.023797661
0.0067956257 -0.022652086 0.023845583
0.0079568923 -0.022733977 0.02101931
0.0090931654 -0.022732915 0.021018326
0.010229269 -0.02273171 0.020116121
0.011368227 -0.022736454 0.020212352
0.01248615 -0.022702092 0.02086848
0.013610053 -0.022683421 0.021305263
0.014659202 -0.022552617 0.023884386
0.015733527 -0.022476468 0.025367439
0.01685583 -0.02247444 0.026217163
0.017988527 -0.02248566 0.025995553
0.019224627 -0.022617208 0.024362236
0.02042445 -0.022693833 0.023580879
0.021604048 -0.022741104 0.022580534
0.022874592 -0.022874592 0.019852877
0.024043357 -0.022898436 0.01848802
0.024950802 -0.022682548 0.022742152
0.026116243 -0.022709776 0.022203922
0.027247751 -0.02270646 0.022200674
0.028451694 -0.022761354 0.022172987
0.029414428 -0.022626484 0.024673283
0.030540729 -0.022622762 0.025592834
0.031589918 -0.022564227 0.02668193
0.03254148 -0.0224424 0.029033959
0.033695705 -0.022463802 0.028518528
0.034812313 -0.022459557 0.027541667
0.036017638 -0.022511022 0.026419282
0.03689136 -0.022358399 0.028598964
0.037935372 -0.022314925 0.029296905
0.039042786 -0.022310162 0.029290676
0.040149473 -0.022305263 0.029284239
0.041464094 -0.022413023 0.029180586
0.042802952 -0.02252787 0.026773006
0.044082012 -0.02260616 0.025263429
0.045528524 -0.022764262 0.021984965
0.046910919 -0.022883374 0.019483447
0.048042789 -0.022877518 0.020835161
0.049311776 -0.022935709 0.019449174
0.050919149 -0.023145067 0.015424401
-0.0069250721 -0.021929394 0.0154199
-0.0034725117 -0.021992574 0.015128851
-0.0023150439 -0.021992916 0.015153438
-0.0011444377 -0.021744316 0.018320739
0 -0.021666851 0.019953132
0.001140357 -0.021666782 0.01724878
0.0022797182 -0.021657323 0.020659387
0.0034195241 -0.021656986 0.020464182
0.0045592659 -0.021656513 0.021535635
0.0056949635 -0.021640861 0.021851718
0.0068534538 -0.021702603 0.021144509
0.0079723522 -0.021639243 0.021314144
0.0091001159 -0.021612776 0.020728588
0.010237088 -0.021611633 0.020703137
0.011390919 -0.021642746 0.020019948
0.012519144 -0.021623977 0.023355097
0.013619011 -0.021563435 0.023937851
0.014732204 -0.021531684 0.025226563
0.015816396 -0.021465108 0.024420947
0.016944608 -0.021463169 0.024418741
0.018097822 -0.021491162 0.023320943
0.019226961 -0.021488955 0.023269862
0.020453213 -0.021589503 0.02239114
0.021664467 -0.021664467 0.020758092
0.022842081 -0.021699978 0.019952625
0.02398113 -0.021697212 0.019731104
0.024953827 -0.021551032 0.022744894
0.026119409 -0.021576904 0.022206604
0.027293367 -0.02160725 0.022641093
0.028455138 -0.021625904 0.023513019
0.029588658 -0.021622481 0.022974461
0.030667484 -0.021580821 0.024307579
0.031597141 -0.021440918 0.027122617
0.032608841 -0.021364411 0.02874589
0.033727109 -0.021360504 0.028643459
0.034833465 -0.021349542 0.027326375
0.035952047 -0.021346528 0.027296752
0.036895815 -0.021243045 0.031273246
0.037958525 -0.021212118 0.031825095
0.039066609 -0.021207588 0.030265033
0.0402111 -0.021222524 0.029724538
0.04138606 -0.021252302 0.030081719
0.042798899 -0.02139945 0.026873261
0.0439502 -0.021411635 0.028248936
0.045313403 -0.021523865 0.024193645
0.046660691 -0.021623246 0.021982133
0.048007857 -0.021717841 0.021225363
0.049291659 -0.021780035 0.019984424
0.050546993 -0.021827111 0.019034594
0.0034663337 -0.020798003 0.015349895
0.0046121753 -0.020754788 0.017006367
0.0057486119 -0.020695003 0.019125462
0.0068915198 -0.020674558 0.019563347
0.0080227274 -0.02062987 0.020537049
0.0091878911 -0.020672755 0.01861158
0.010301848 -0.020603696 0.019779831
0.011445819 -0.020602474 0.019778669
0.012567475 -0.020564958 0.021238744
0.013622044 -0.020433066 0.024549484
0.014740235 -0.020409556 0.025180757
0.015865093 -0.020397976 0.024594218
0.01694656 -0.020335872 0.024421543
0.018128147 -0.020394165 0.02308017
0.019321254 -0.020457799 0.023735076
0.020528957 -0.020528957 0.022101611
0.021710889 -0.020568211 0.019835651
0.022844711 -0.02056024 0.01995492
0.02398389 -0.02055762 0.019733369
0.024990151 -0.020446487 0.022139281
0.026122412 -0.020443626 0.022938937
0.027324233 -0.020493174 0.022400498
0.028458409 -0.020490056 0.023369819
0.02959206 -0.020486809 0.023268849
0.030725159 -0.02048344 0.023508132
0.031728376 -0.020396814 0.026177824
0.032855723 -0.020393208 0.029065132
0.033720046 -0.020232027 0.031659603
0.034837458 -0.020228202 0.031653643
0.03595617 -0.020225346 0.029923022
0.036978174 -0.020169914 0.031203985
0.037995894 -0.020115472 0.032168627
0.039105065 -0.020111175 0.031991839
0.040213518 -0.020106759 0.030067682
0.041310009 -0.02009676 0.030182213
0.042416658 -0.0200921 0.030175209
0.043955222 -0.020287026 0.027888417
0.0452119 -0.020345354 0.02526322
0.046372846 -0.02035881 0.025281101
0.047791973 -0.020482274 0.023336023
0.049297281 -0.020636071 0.019986689
0.050430208 -0.020630538 0.019981325
0.0092580849 -0.019673431 0.015446395
0.010384098 -0.019614408 0.016834229
0.011456812 -0.019476581 0.020024478
0.012573534 -0.019431824 0.02107057
0.013627184 -0.019305177 0.023772746
0.014741843 -0.019277794 0.025037378
0.015866823 -0.019266857 0.02459693
0.016998632 -0.019265117 0.024107665
0.018187586 -0.01932431 0.022668749
0.019368887 -0.019368887 0.022666395
0.020544341 -0.019402988 0.021811903
0.021713255 -0.01942765 0.021176547
0.0228472 -0.019420119 0.022293508
0.023986502 -0.019417644 0.022607028
0.02511465 -0.019406775 0.022482336
0.026044119 -0.019250002 0.024984986
0.027172502 -0.019247189 0.02498132
0.028411342 -0.019319713 0.024077654
0.029598439 -0.019352825 0.023320019
0.030735061 -0.019351706 0.024240077
0.031867955 -0.019348402 0.025159687
0.03298616 -0.019336715 0.027318358
0.033723708 -0.0191101 0.030593842
0.034831826 -0.019101324 0.030223638
0.035958126 -0.019102754 0.030096292
0.03707635 -0.01909994 0.030065924
0.038002074 -0.019001037 0.032002151
0.039111428 -0.01899698 0.031971067
0.040217873 -0.018991774 0.031988293
0.041314479 -0.018982328 0.032102376
0.042421252 -0.018977927 0.030178457
0.043959975 -0.019162042 0.027891457
0.045204662 -0.019211981 0.023083657
0.04637786 -0.019229844 0.024362683
0.047652084 -0.019287748 0.022878051
0.048852008 -0.019313585 0.023065925
0.050435644 -0.019486498 0.017149478
0.051736675 -0.019544967 0.015691817
0.0046860185 -0.018744074 0.015011638
0.0092838919 -0.018567784 0.01505813
0.010440535 -0.018560952 0.016567916
0.011486618 -0.018378589 0.020123959
0.012594257 -0.018318919 0.022558779
0.01369801 -0.018264014 0.024530351
0.014847062 -0.018273307 0.024260491
0.015986094 -0.018269822 0.023746967
0.017126409 -0.01826817 0.021455586
0.01826738 -0.01826738 0.021429121
0.019408131 -0.018266477 0.021792173
0.020574935 -0.018288832 0.022155017
0.021759426 -0.018323729 0.021568209
0.022855632 -0.018284507 0.02251485
0.023972351 -0.018264649 0.022950083
0.02496733 -0.018158058 0.025550723
0.02604679 -0.018119507 0.024987549
0.027175289 -0.01811686 0.025956988
0.02828352 -0.018101454 0.026171923
0.029601471 -0.01821629 0.023322403
0.030892493 -0.018306661 0.021713734
0.03203119 -0.018303538 0.022876978
0.032989539 -0.018201126 0.02732113
0.033800069 -0.018026704 0.029746354
0.034788311 -0.017955257 0.033166796
0.035893783 -0.017946891 0.033281803
0.036985967 -0.01793259 0.032109201
0.038003895 -0.017884186 0.033219606
0.039113298 -0.017880365 0.033212483
0.040221978 -0.017876435 0.034030437
0.041368078 -0.0178889 0.031814486
0.042476282 -0.01788475 0.031807095
0.044089798 -0.018088123 0.026608735
0.045209274 -0.01808371 0.025268525
0.046506833 -0.018149007 0.024074227
0.047715474 -0.018177323 0.023243964
0.049083602 -0.018263666 0.020960122
0.050374161 -0.018317876 0.01775682
0.051711962 -0.018386476 0.015959799
0.0093539944 -0.017538739 0.016326725
0.010444834 -0.017408056 0.016983777
0.011540115 -0.017310172 0.019565493
0.012690615 -0.017305383 0.019661665
0.013753417 -0.017191771 0.022242635
0.014907875 -0.017201394 0.022606343
0.016043052 -0.017188985 0.022165984
0.017129891 -0.017129891 0.023698419
0.018270118 -0.017128237 0.021406889
0.019435879 -0.017149305 0.023401469
0.02061856 -0.017182132 0.023252815
0.021789279 -0.017202063 0.022860587
0.022885831 -0.017164374 0.021957159
0.023929942 -0.017092817 0.023804158
0.024969736 -0.017024819 0.02618593
0.026049303 -0.016988676 0.027082592
0.027177909 -0.016986193 0.027078629
0.028229991 -0.016937995 0.027755648
0.029689692 -0.017128669 0.025221795
0.03089547 -0.01716415 0.024196267
0.032034274 -0.017161218 0.024192125
0.032996241 -0.017067021 0.025306076
0.033865295 -0.016932648 0.028801352
0.034791656 -0.016834673 0.031444669
0.035897233 -0.016826829 0.033284992
0.037011564 -0.016823437 0.033278286
0.038125206 -0.016819945 0.03288275
0.039289143 -0.016838204 0.032293022
0.040402804 -0.016834501 0.032285929
0.041782875 -0.016939003 0.029414803
0.042902183 -0.016935073 0.02807346
0.044108219 -0.0169647 0.027169228
0.045213599 -0.0169551 0.027259618
0.046511285 -0.017016323 0.025507063
0.047720037 -0.017042872 0.024676353
0.048861653 -0.017044762 0.022052646
0.050184429 -0.017108329 0.019527137
0.051716905 -0.017238967 0.016130894
0.010450713 -0.016256666 0.019544065
0.011602078 -0.016242908 0.019908398
0.012715886 -0.016183855 0.020418793
0.013844566 -0.016151994 0.021294445
0.014997111 -0.016150735 0.021292806
0.016113564 -0.016113564 0.020925581
0.017386286 -0.016227201 0.017635345
0.018524097 -0.016208585 0.017657995
0.019675691 -0.01620351 0.018581599
0.020760681 -0.016147196 0.019310087
0.021911528 -0.016145336 0.020330489
0.022906156 -0.016034311 0.021593958
0.023976829 -0.015984554 0.024950385
0.025115222 -0.015982414 0.026212662
0.026320312 -0.01602106 0.026257664
0.027485481 -0.016033197 0.025596857
0.028678039 -0.016059702 0.023549408
0.029840987 -0.016068224 0.022937566
0.030983616 -0.016065579 0.023225665
0.032072898 -0.016036449 0.023683697
0.033175468 -0.016015744 0.021710247
0.034232952 -0.015975377 0.022386879
0.035081074 -0.015843065 0.029478967
0.036123998 -0.01580425 0.032729149
0.037155185 -0.015762806 0.031580746
0.038128633 -0.015700025 0.03288573
0.039390411 -0.015756164 0.031178892
0.040537529 -0.015764594 0.030832142
0.041836016 -0.015829844 0.028883487
0.042901423 -0.015805786 0.028124541
0.044019923 -0.015802024 0.028117836
0.045110937 -0.015788829 0.028329253
0.046351414 -0.015827313 0.027109712
0.04765049 -0.015883496 0.026278555
0.048860814 -0.015908172 0.026174724
0.049874421 -0.015869135 0.02551353
0.050944887 -0.01584952 0.024246961
0.052644424 -0.016022217 0.019953907
0.05447891 -0.016227761 0.016292632
0.01165606 -0.015152877 0.015011787
0.012770565 -0.015092487 0.019786924
0.013918832 -0.015078735 0.020175397
0.015094186 -0.015094186 0.019662172
0.016253909 -0.015092916 0.018369317
0.017413329 -0.015091551 0.018611252
0.018559756 -0.015079801 0.017635107
0.019717714 -0.015078251 0.017633349
0.020836947 -0.015048907 0.01765573
0.021972358 -0.015033718 0.019236445
0.023063904 -0.014991538 0.020475805
0.024275353 -0.0150276 0.019304693
0.025330191 -0.01496784 0.022344708
0.026393892 -0.014918286 0.024361551
0.027537426 -0.014916105 0.02148661
0.028691093 -0.014919369 0.021313041
0.029843492 -0.014921746 0.022525936
0.030986216 -0.014919289 0.023714036
0.032075591 -0.014892238 0.024463832
0.033188827 -0.014877751 0.023730099
0.034326978 -0.014875025 0.021173269
0.035163123 -0.014745825 0.026054502
0.036290321 -0.014742943 0.030131757
0.037394799 -0.014731285 0.030392975
0.038305257 -0.014646127 0.03140679
0.03959132 -0.014705347 0.02948159
0.040713545 -0.014702113 0.028091192
0.04183951 -0.014700368 0.030415148
0.042845059 -0.014657521 0.029243231
0.04391478 -0.01463826 0.029575944
0.0450298 -0.014634686 0.029180586
0.046161395 -0.01463654 0.029003531
0.04748391 -0.0146974 0.029214293
0.048601724 -0.014693544 0.028309822
0.049641345 -0.014666761 0.028835326
0.050755627 -0.014662737 0.027519315
0.052297883 -0.014779837 0.023782015
0.054412324 -0.015050217 0.016899288
0.055844232 -0.015124479 0.015006423
0.056990642 -0.015119966 0.015848786
0.012895545 -0.014067867 0.015280008
0.014055892 -0.014055892 0.015717536
0.015207816 -0.014037984 0.016739696
0.016356654 -0.014019989 0.016835779
0.017442092 -0.013953674 0.018685758
0.018593358 -0.013945018 0.016004413
0.019753411 -0.013943586 0.016002744
0.022042314 -0.013921462 0.016973227
0.023199618 -0.013919771 0.016971171
0.02435649 -0.013917994 0.016968995
0.025534328 -0.013927815 0.018451631
0.026582077 -0.01386891 0.020347506
0.027656378 -0.013828189 0.02163431
0.028734384 -0.013792505 0.022555619
0.029879019 -0.013790317 0.022016823
0.030988622 -0.013772721 0.02305913
0.032183632 -0.013792984 0.02186352
0.033230186 -0.013750422 0.023196995
0.034329645 -0.013731858 0.022730827
0.035446528 -0.013721237 0.024598122
0.036582813 -0.013718555 0.026513129
0.037439797 -0.013614472 0.029885083
0.038522959 -0.013596339 0.028882891
0.039598633 -0.013576674 0.029435307
0.040721063 -0.013573688 0.030618638
0.041730475 -0.013534208 0.031825483
0.042753845 -0.013501214 0.030677408
0.043797523 -0.01347616 0.030815691
0.04503328 -0.013509984 0.029570997
0.046299193 -0.013550984 0.029903114
0.047487576 -0.013567878 0.03062284
0.048605476 -0.013564318 0.029208869
0.049645174 -0.013539594 0.02888602
0.050759539 -0.013535877 0.027666777
0.052301913 -0.013643977 0.023783833
0.05412063 -0.013818033 0.018014342
0.055848528 -0.013962132 0.01612106
0.016400469 -0.012886083 0.015618682
0.017524658 -0.012851416 0.016518742
0.025639253 -0.012819626 0.016578466
0.026800919 -0.012817831 0.016576141
0.027966466 -0.012817964 0.017279476
0.02886419 -0.012700244 0.020513207
0.0299286 -0.0126621 0.021118224
0.030964566 -0.012615194 0.023012102
0.032092292 -0.012607686 0.023762137
0.033193775 -0.012590742 0.024487466
0.03431204 -0.012581081 0.024604559
0.035449062 -0.012578699 0.02518329
0.036585424 -0.012576239 0.024595082
0.037628897 -0.012542965 0.027627438
0.038558748 -0.012474889 0.028496236
0.039616335 -0.012450848 0.030554682
0.040739268 -0.012448109 0.030547947
0.041733444 -0.01240724 0.033357263
0.042756889 -0.012376994 0.032621324
0.043800641 -0.012354027 0.033341527
0.045232989 -0.012439072 0.032120377
0.046369612 -0.012440627 0.03155452
0.047490947 -0.012438105 0.030625015
0.048509896 -0.012409508 0.030132145
0.049614042 -0.012403511 0.029833257
0.050727706 -0.012400107 0.029825062
0.052472748 -0.012547831 0.022501796
0.054124463 -0.012667428 0.02089715
0.055593945 -0.012740279 0.018107206
0.056999054 -0.012795706 0.015947938
0.024550298 -0.011690618 0.017263502
0.025706543 -0.011684792 0.016847342
0.026802672 -0.011653336 0.018037766
0.027963914 -0.011651631 0.018035114
0.028945167 -0.011578066 0.020587534
0.030022284 -0.011547033 0.020413965
0.031084819 -0.011512896 0.022016227
0.032108009 -0.011467147 0.023763686
0.03323473 -0.011460252 0.024172902
0.034314279 -0.011438092 0.025165379
0.035502236 -0.011452335 0.025306493
0.036640305 -0.011450095 0.026370972
0.037647385 -0.011408298 0.027945131
0.038683102 -0.011377382 0.02835232
0.039812319 -0.011374949 0.0287835
0.04074629 -0.011318414 0.030938506
0.041864172 -0.011314641 0.031514227
0.042990264 -0.011313227 0.031458378
0.044257775 -0.011348148 0.030358821
0.045483395 -0.011370849 0.029647768
0.046469584 -0.011334045 0.030683368
0.047473658 -0.011303252 0.030820996
0.048502613 -0.011279678 0.030570447
0.049617257 -0.011276649 0.030562252
0.050921801 -0.011315957 0.02946353
0.052476142 -0.011407857 0.024465322
0.054332837 -0.011560178 0.019154936
0.055597536 -0.01158282 0.018108368
0.056993846 -0.011631397 0.016021609
0.058263276 -0.011652655 0.015629619
0.059431676 -0.01165327 0.016640633
0.019900175 -0.010535386 0.015494287
0.021059705 -0.010529852 0.016028523
0.022208614 -0.01051987 0.016538143
0.023394128 -0.010527357 0.016901463
0.024542801 -0.010518343 0.017434984
0.025733506 -0.010527343 0.016970038
0.026899442 -0.010525868 0.017332882
0.028064875 -0.010524329 0.016916543
0.029210016 -0.010515606 0.017230302
0.030031964 -0.01039568 0.021631807
0.031086655 -0.010362218 0.023039311
0.032171201 -0.010340744 0.023984045
0.033314269 -0.010338912 0.024101406
0.034361891 -0.010308567 0.026504248
0.035506215 -0.010308256 0.026426256
0.036642466 -0.010305693 0.027053088
0.037779924 -0.010303616 0.026367217
0.038782444 -0.010265941 0.030322015
0.039884806 -0.010256093 0.030655622
0.040851418 -0.010212854 0.032348901
0.041976687 -0.010210546 0.030326307
0.043135773 -0.010216367 0.029955149
0.044312432 -0.010225946 0.029826671
0.04548607 -0.010234365 0.030425966
0.046604089 -0.010230166 0.029884666
0.047593571 -0.010198623 0.030483276
0.048581045 -0.010168126 0.029869139
0.049697489 -0.010165395 0.029861122
0.051012021 -0.010202404 0.02839905
0.052479215 -0.010267673 0.02565375
0.054108366 -0.010361177 0.021359891
0.055475868 -0.010401725 0.019150466
0.056638427 -0.010402977 0.018515468
0.058142673 -0.010465682 0.015582114
0.059435148 -0.010488556 0.017318875
0.023456257 -0.0093825022 0.015684634
0.024544101 -0.0093501331 0.017435908
0.025734868 -0.0093581341 0.01733622
0.026874268 -0.009347572 0.017796338
0.028047375 -0.0093491254 0.017233819
0.029168967 -0.0093340697 0.017766684
0.030033555 -0.0092410939 0.022338659
0.031088298 -0.0092113474 0.025254577
0.032234203 -0.0092097716 0.025250256
0.03337951 -0.0092081409 0.022424489
0.034504138 -0.0092011038 0.024633199
0.035647523 -0.0091993613 0.02462855
0.036706626 -0.0091766566 0.026276648
0.037992436 -0.0092102876 0.026757389
0.03898482 -0.0091728987 0.028622776
0.039886907 -0.0091170073 0.027985036
0.041017506 -0.0091150012 0.027978927
0.042012587 -0.0090838028 0.029429466
0.043138042 -0.0090816924 0.029956728
0.044255603 -0.0090780724 0.030022413
0.045364711 -0.0090729427 0.030233443
0.046487186 -0.0090706702 0.0305655
0.047608804 -0.0090683438 0.032546312
0.048724346 -0.0090649948 0.029870719
0.049844075 -0.0090625593 0.029765755
0.051050138 -0.0090755802 0.02808553
0.052228443 -0.0090832077 0.027568936
0.054111201 -0.009210417 0.021966487
0.055246338 -0.0092077227 0.021693736
0.056555398 -0.0092335343 0.020259202
0.058145713 -0.0093033146 0.016623437
0.059740502 -0.009371059 0.015723258
0.023457352 -0.0082100732 0.015076429
0.024627073 -0.0082090246 0.015683353
0.025796335 -0.0082079247 0.016241282
0.026902121 -0.0081876013 0.01733461
0.028048687 -0.0081808669 0.017234653
0.029170331 -0.0081676925 0.01791355
0.030000156 -0.0080769649 0.024237841
0.031148873 -0.008075634 0.025645047
0.032397483 -0.0080993706 0.022794396
0.033557408 -0.0081000645 0.022571445
0.03462977 -0.0080802795 0.023515731
0.035683103 -0.0080574742 0.026866525
0.036826964 -0.0080558984 0.027007163
0.038102478 -0.0080823442 0.025908023
0.039013483 -0.0080321878 0.028672725
0.0400078 -0.0080015594 0.02856943
0.041141827 -0.0079997992 0.028563142
0.041911215 -0.0079291491 0.030693561
0.043133125 -0.0079455758 0.030103803
0.043973684 -0.007892712 0.03254801
0.045327991 -0.0079323985 0.030623138
0.046489339 -0.0079372041 0.030494124
0.047733251 -0.0079555418 0.031383693
0.049086299 -0.0079907924 0.027180731
0.049897045 -0.0079381661 0.029306531
0.051109746 -0.0079504047 0.028474569
0.052230861 -0.0079481741 0.028781563
0.053430703 -0.007957764 0.028095156
0.055004824 -0.0080215372 0.023994923
0.056383066 -0.008054724 0.021954507
0.057879187 -0.0081030866 0.021415472
0.059743259 -0.008200055 0.017272204
0.024810908 -0.0070888312 0.015683949
0.025938004 -0.0070740012 0.015219182
0.026845813 -0.0070032552 0.01986739
0.02798117 -0.0069952924 0.020327002
0.028970705 -0.0069529694 0.024267018
0.030001368 -0.0069233929 0.025650322
0.031247035 -0.0069437856 0.023480505
0.032407302 -0.0069444221 0.022673696
0.033721004 -0.0069767591 0.020334572
0.034669466 -0.0069338935 0.022762775
0.035818335 -0.0069325804 0.023001611
0.036828451 -0.0069053345 0.027008265
0.038120061 -0.0069309198 0.025714636
0.039015058 -0.0068850107 0.028673887
0.040060434 -0.0068675033 0.02798748
0.040878974 -0.006813162 0.03150329
0.041912902 -0.0067966869 0.030694753
0.043130249 -0.0068100393 0.030153543
0.044091411 -0.006783294 0.031359941
0.045383204 -0.0068074805 0.030090481
0.046695121 -0.0068334322 0.031562835
0.047821753 -0.006831679 0.031554729
0.049088273 -0.0068495264 0.030115783
0.049989708 -0.0068167783 0.031295568
0.050991837 -0.0067989118 0.031626225
0.052110367 -0.006797004 0.030090988
0.053313315 -0.006805955 0.029355735
0.054684494 -0.0068355617 0.027918547
0.056560274 -0.0069257477 0.025537968
0.057881508 -0.0069457809 0.025288194
0.05937551 -0.0069853542 0.021337062
0.060897846 -0.0070266747 0.015743822
0.02481176 -0.0059075616 0.016439468
0.025952287 -0.005898247 0.015122324
0.026919534 -0.0058520725 0.019429803
0.027982129 -0.0058296099 0.021155447
0.029143605 -0.005828721 0.02178508
0.030125782 -0.0057934197 0.024263978
0.031464908 -0.0058268351 0.020269364
0.03265024 -0.0058304002 0.019900978
0.033757426 -0.0058202455 0.022135317
0.034816574 -0.0058027627 0.023444533
0.03595712 -0.0057995357 0.024339736
0.036967792 -0.0057762172 0.025793642
0.038051177 -0.00576533 0.031038493
0.039016392 -0.0057377047 0.029598296
0.040155336 -0.0057364767 0.029033184
0.041197356 -0.005721855 0.028905302
0.042046867 -0.0056820088 0.0310601
0.043173239 -0.0056806891 0.031975508
0.044298813 -0.005679335 0.030729949
0.045513362 -0.0056891702 0.032251269
0.046661891 -0.0056904745 0.031903535
0.047780082 -0.0056881052 0.031968147
0.048738029 -0.0056672129 0.032565922
0.049858075 -0.0056656902 0.031781435
0.050849065 -0.0056498959 0.033687323
0.051964454 -0.0056483103 0.032539099
0.053078897 -0.0056466912 0.032529771
0.054889753 -0.0057176827 0.027556241
0.05652364 -0.0057677184 0.025853515
0.057659611 -0.005765961 0.025845677
0.059325084 -0.0058161849 0.021071702
0.024899404 -0.0047427439 0.016415596
0.025953015 -0.0047187302 0.015804589
0.026935687 -0.0046844673 0.019795597
0.028086623 -0.0046811039 0.02006048
0.029212883 -0.0046740612 0.021031082
0.030305387 -0.0046623675 0.021514505
0.031539705 -0.0046725487 0.019953609
0.033008799 -0.0047155428 0.016300768
0.033858892 -0.004670192 0.020992637
0.034990836 -0.0046654446 0.021353602
0.036012776 -0.0046468098 0.023635238
0.037167206 -0.0046459008 0.02380082
0.038184587 -0.0046284348 0.026178032
0.039197188 -0.0046114339 0.027047455
0.040341411 -0.0046104472 0.026920229
0.041198503 -0.0045776116 0.029561967
0.042737678 -0.0046202894 0.025718212
0.043822587 -0.004612904 0.026343465
0.044965092 -0.0046118042 0.027259588
0.046026684 -0.0046026683 0.02805382
0.046732821 -0.0045592994 0.03345722
0.047781412 -0.0045506107 0.031969011
0.048739385 -0.0045338962 0.032566845
0.049856793 -0.0045324359 0.031806588
0.050850477 -0.0045200423 0.033688247
0.0519659 -0.0045187739 0.033121526
0.053177133 -0.0045257136 0.033862919
0.054894179 -0.0045745149 0.028791994
0.056344312 -0.0045995358 0.026725709
0.057476681 -0.0045981347 0.026717573
0.059326727 -0.0046530766 0.021749675
0.061021063 -0.0046939282 0.017510355
0.026043324 -0.0035513623 0.016145885
0.028379386 -0.0035474233 0.015191764
0.029555829 -0.0035466994 0.015213817
0.030661995 -0.0035379224 0.016476959
0.03184098 -0.0035378865 0.016401231
0.033098079 -0.003546223 0.015279263
0.034275841 -0.0035457769 0.016784757
0.03528345 -0.0035283449 0.019019216
0.036375392 -0.0035201991 0.019866675
0.037309997 -0.003497812 0.022026569
0.038185418 -0.0034714015 0.025449425
0.039334375 -0.0034706802 0.02544412
0.040495358 -0.0034710309 0.025171429
0.041643202 -0.0034702667 0.02463147
0.042790275 -0.0034694816 0.025160193
0.043823536 -0.003459753 0.026344061
0.044966068 -0.0034589281 0.027260214
0.046027683 -0.0034520761 0.028054446
0.046825849 -0.0034262815 0.033142507
0.047861401 -0.0034186714 0.033449322
0.048988093 -0.0034177739 0.033198059
0.04994854 -0.0034055822 0.034692228
0.051345099 -0.0034230065 0.033301175
0.052189931 -0.0034036911 0.035739064
0.053596679 -0.0034210645 0.033839405
0.054895367 -0.0034309605 0.02879265
0.056526423 -0.0034608014 0.025249571
0.057735056 -0.0034641032 0.024443269
0.059867822 -0.0035216366 0.016838819
0.062412899 -0.0035328057 0.015353173
0.035493772 -0.0023662513 0.016222537
0.036453225 -0.0023518209 0.018869996
0.037542026 -0.0023463767 0.019133747
0.038625184 -0.0023409203 0.020126492
0.03955188 -0.0023265812 0.0253959
0.040591653 -0.0023195231 0.026386678
0.041420847 -0.0023011582 0.027498275
0.042548321 -0.0022999092 0.02763772
0.043505892 -0.0022897839 0.029962301
0.044888657 -0.0023019824 0.029833764
0.04591433 -0.0022957164 0.031234056
0.047050398 -0.0022951413 0.032026917
0.048002221 -0.00228582 0.033765197
0.049160905 -0.0022865536 0.033489555
0.050341334 -0.0022882426 0.032195628
0.051498581 -0.0022888258 0.032647312
0.05247217 -0.0022813987 0.033849657
0.053554807 -0.0022789279 0.034203291
0.054678265 -0.0022782609 0.031820118
0.056230731 -0.002295132 0.028300315
0.057990063 -0.0023196025 0.022410691
0.059850235 -0.0023470682 0.017298758
0.061252844 -0.0023558787 0.015382588
0.03540837 -0.001180279 0.017365813
0.03653837 -0.0011786571 0.017921835
0.037622124 -0.0011756914 0.019279808
0.038717791 -0.0011732664 0.020150989
0.039686523 -0.0011672507 0.025226057
0.040817391 -0.0011662112 0.025536507
0.041421235 -0.0011505898 0.027911484
0.042472333 -0.0011479008 0.028463751
0.043506298 -0.0011449025 0.029962569
0.044747062 -0.0011473607 0.031047791
0.045773994 -0.0011443499 0.032641977
0.046899132 -0.0011438812 0.032706559
0.048030686 -0.0011435878 0.034590214
0.049210891 -0.0011444393 0.033029109
0.050477806 -0.0011472229 0.032874763
0.051499058 -0.0011444235 0.03296268
0.052628703 -0.0011441023 0.034528434
0.053541072 -0.0011391717 0.034784973
0.054678768 -0.001139141 0.033321828
0.056355808 -0.0011501185 0.028784722
0.058471609 -0.0011694322 0.019409865
0.060094483 -0.0011783232 0.015387595
0.06125341 -0.0011779502 0.015382737
0.03789454 0 0.015876085
0.038762029 0 0.019835055
0.039895281 0 0.022771567
0.040845156 0 0.025220722
0.041847687 0 0.024267763
0.042548846 0 0.027638078
0.043610234 0 0.032075107
0.044747204 0 0.032067448
0.045764428 0 0.034826308
0.047050979 0 0.030717105
0.048275344 0 0.032043368
0.049445666 0 0.031695455
0.050547302 0 0.03202635
0.051654637 0 0.033156723
0.05269574 0 0.034891993
0.053555466 0 0.036238521
0.054955006 0 0.031142414
0.05677117 0 0.02551657
0.058320526 0 0.0233064
0.06011318 0 0.018484503
0.037894424 0.0011842008 0.015876025
0.038802017 0.0011758186 0.01934886
0.039907556 0.0011737517 0.019952357
0.040896058 0.0011684587 0.025560766
0.041974362 0.0011659545 0.026453972
0.042721692 0.0011546403 0.030868143
0.043799248 0.0011526118 0.031662226
0.044941142 0.0011523369 0.029057235
0.046138033 0.0011534508 0.03108874
0.047279634 0.0011531619 0.028460562
0.04842037 0.0011528659 0.032091796
0.049588893 0.0011532301 0.030385792
0.050728492 0.0011529203 0.030741304
0.051779907 0.0011506646 0.031508446
0.052840479 0.0011487061 0.032153845
0.054050554 0.0011500118 0.032023489
0.055341329 0.0011529444 0.029059738
0.057097215 0.0011652493 0.028373212
0.058320347 0.0011664069 0.02330637
0.060473911 0.0011857629 0.0156537
0.03698279 0.0023859863 0.015319705
0.038057446 0.0023785904 0.016702533
0.038801655 0.0023516153 0.022435695
0.039907183 0.0023474812 0.023378789
0.040936068 0.0023392038 0.02509889
0.042078912 0.0023377172 0.025287718
0.043237988 0.0023371885 0.025913447
0.044190969 0.0023258405 0.028165519
0.045059066 0.0023107214 0.031071782
0.046263803 0.0023131901 0.030457467
0.047408521 0.0023126106 0.030838042
0.048447937 0.0023070446 0.030393511
0.049783953 0.0023155326 0.028566778
0.05092803 0.0023149105 0.028559089
0.052245688 0.0023220305 0.027363628
0.053344339 0.0023193189 0.02665329
0.05453676 0.0023207131 0.03061825
0.055820301 0.0023258459 0.026879966
0.057132274 0.0023319295 0.02808243
0.059172917 0.0023669167 0.018368989
0.036982216 0.0035789239 0.015052021
0.038056854 0.0035678302 0.016702265
0.039025649 0.0035477863 0.019761562
0.040199891 0.0035470491 0.020024806
0.041352123 0.0035444677 0.02096805
0.042511132 0.0035425944 0.021109223
0.043650661 0.0035392428 0.020812988
0.044395577 0.0035049142 0.024304539
0.045418113 0.0034937011 0.02568239
0.046452381 0.0034839287 0.02895236
0.047601763 0.0034830559 0.029915601
0.048729897 0.0034807068 0.030101955
0.050195068 0.0035019815 0.027814537
0.051215254 0.0034919493 0.026304007
0.052364856 0.0034909903 0.026296794
0.053496771 0.0034889197 0.025877535
0.054797769 0.00349773 0.028389305
0.056665059 0.0035415662 0.01983276
0.058124855 0.0035586646 0.019972146
0.042779107 0.0047532339 0.017683744
0.043665443 0.0047205882 0.019671142
0.044574529 0.0046920558 0.023575604
0.045672737 0.004684383 0.025123507
0.046711043 0.0046711043 0.027325779
0.047884233 0.0046716323 0.027658582
0.049039558 0.0046704342 0.027142107
0.050665811 0.0047130985 0.023861349
0.051830158 0.0047118324 0.023854911
0.05318987 0.0047279885 0.022612333
0.054448556 0.0047346572 0.021661073
0.055969194 0.0047633355 0.018796593
0.057143297 0.0047619417 0.016466409
0.043956246 0.0059400336 0.017630696
0.045246787 0.0059535247 0.016485453
0.046426423 0.0059521054 0.02031672
0.047605205 0.0059506507 0.020311743
0.049148668 0.0059937402 0.016740263
0.049751289 0.0059227725 0.02088356
0.051180538 0.0059512253 0.01905942
0.052356713 0.0059496262 0.019054294
0.053651899 0.0059613218 0.01834625
0.054890066 0.0059663113 0.015675932
0.060731638 0.0059540821 0.020031422
0.062148087 0.0059757773 0.018138647
0.06332282 0.0059738508 0.016053557
0.044134449 0.0071569378 0.015735954
0.045316745 0.0071552754 0.018160105
0.046777461 0.0071965321 0.016699433
0.048020974 0.0072031459 0.016137213
0.049236517 0.0072053443 0.015866339
0.050424471 0.0072034956 0.015377164
0.051431641 0.0071765082 0.017603934
0.052472264 0.0071553085 0.018883973
0.053710055 0.0071613407 0.018345654
0.060686398 0.0071395761 0.017490596
0.05047847 0.0084130783 0.015619099
0.051609423 0.0084015336 0.015930206
0.052352834 0.0083288597 0.019949794
0.053268969 0.0082862843 0.02224654
0.055030886 0.0083742654 0.017564476
0.058971677 0.0084245251 0.016290367
0.060156852 0.0084219594 0.016358018
0.050603453 0.0096387528 0.017364472
0.051458474 0.0095736692 0.018741935
0.052097112 0.0094722016 0.02368173
0.053266507 0.0094696013 0.023675233
0.055028338 0.009570146 0.020688772
0.056709334 0.0096526528 0.015330523
0.060554728 0.0094987806 0.018771142
0.062514737 0.0096176518 0.02004686
0.063696399 0.0096145514 0.021563351
0.065287977 0.0096722934 0.016988814
0.066474788 0.0096690608 0.016330898
0.050417457 0.01080374 0.016878575
0.05145577 0.010769812 0.019419819
0.052342329 0.010706386 0.022105038
0.05351723 0.010703445 0.022098958
0.056845795 0.010885365 0.015232831
0.058038302 0.010882181 0.017673641
0.059053045 0.010629548 0.024365246
0.060088959 0.010603935 0.025349408
0.06156214 0.010654986 0.027348399
0.063126162 0.010719537 0.025840819
0.064873531 0.010812255 0.020032793
0.066557691 0.010891258 0.01570195
0.049318768 0.012028968 0.015960217
0.050483249 0.012019821 0.018575042
0.051624753 0.012005757 0.021479368
0.05298977 0.01204313 0.019534618
0.058034904 0.012090605 0.018205196
0.058683738 0.011976273 0.021781623
0.058925599 0.01178512 0.025355786
0.060085449 0.011781461 0.025347918
0.061715711 0.011868406 0.027661115
0.063689366 0.012016861 0.022431135
0.065026328 0.012041913 0.021263957
0.066553809 0.012100693 0.015701056
0.048374675 0.013303035 0.016108751
0.04957163 0.013299705 0.016104698
0.056838796 0.013302697 0.017361879
0.057403699 0.013155014 0.023432791
0.058359772 0.013101174 0.025240868
0.05911836 0.013006039 0.028547645
0.060704466 0.01309312 0.026144415
0.062362354 0.013192036 0.023863405
0.064172044 0.013318726 0.019601792
0.065361373 0.013314353 0.01908797
0.05548827 0.0144752 0.018407047
0.056464918 0.014416575 0.02050826
0.057399631 0.014349908 0.025440246
0.058675792 0.014369582 0.024634093
0.059997156 0.014399318 0.023634762
0.061178107 0.014394849 0.02362746
0.063162528 0.014575968 0.017672628
0.052858543 0.015617297 0.021541655
0.054045044 0.015613012 0.022771239
0.055119149 0.015577151 0.023733556
0.056153335 0.015531773 0.02421096
0.05739522 0.015544538 0.023671418
0.059062541 0.015669653 0.021051109
0.060388647 0.015701048 0.019932002
0.061962709 0.015794415 0.016903073
0.064863838 0.015909998 0.017158121
0.051181007 0.017060336 0.015660435
0.052034136 0.016941346 0.01892823
0.052747536 0.016783306 0.021467209
0.053931542 0.016778702 0.023738265
0.055114567 0.016773999 0.021455288
0.056635082 0.016870024 0.020843923
0.058017761 0.016921846 0.020208597
0.059487399 0.016996399 0.01807341
0.060822032 0.017030168 0.016955316
0.062077798 0.017040964 0.016490638
0.05276414 0.017987775 0.023136944
0.054250978 0.01808366 0.021604687
0.055441003 0.018078588 0.020848066
0.057178982 0.018248612 0.016170114
0.058494646 0.018279577 0.016600996
