ply
format ascii 1.0
comment PCL generated
element vertex 1264
property float x
property float y
property float z
element camera 0
property float view_px
property float view_py
property float view_pz
property float x_axisx
property float x_axisy
property float x_axisz
property float y_axisx
property float y_axisy
property float y_axisz
property float z_axisx
property float z_axisy
property float z_axisz
property float focal
property float scalex
property float scaley
property float centerx
property float centery
property int viewportx
property int viewporty
property float k1
property float k2
end_header
-0.030040113 -0.047841661 0.018268049
-0.028826842 -0.047675163 0.018367797
-0.027492533 -0.047287155 0.022049695
-0.026424408 -0.047343731 0.021593034
-0.025327055 -0.047350582 0.022225678
-0.024383724 -0.047659099 0.019395709
-0.023335669 -0.047782563 0.018308491
-0.022227257 -0.047788601 0.017535716
-0.021068953 -0.047682367 0.017416716
-0.019930722 -0.047612283 0.017176449
-0.018825494 -0.047617424 0.017178297
-0.034563012 -0.046827309 0.018138856
-0.033427138 -0.046797991 0.017803609
-0.03227666 -0.046745509 0.019089133
-0.031155584 -0.046733376 0.020108819
-0.02997282 -0.046624389 0.019386142
-0.028867424 -0.046631992 0.017864287
-0.027534528 -0.046258006 0.022128105
-0.026466191 -0.046315834 0.021719813
-0.025367105 -0.046322543 0.022764266
-0.024320841 -0.046430696 0.020999342
-0.023318892 -0.046637785 0.018918842
-0.02223308 -0.046689469 0.017879486
-0.021123966 -0.046695083 0.018487394
-0.020007921 -0.046685148 0.018125981
-0.018898409 -0.046690188 0.018830776
-0.01788841 -0.046957076 0.015633345
-0.034682445 -0.04587033 0.01577276
-0.033520959 -0.045811977 0.017372608
-0.032251563 -0.045597039 0.020376652
-0.031144904 -0.045605037 0.020549595
-0.030037671 -0.04561276 0.020383656
-0.028881099 -0.045543272 0.019515306
-0.027774651 -0.045550425 0.019518375
-0.026510745 -0.045289189 0.022791028
-0.02540981 -0.045295749 0.023908585
-0.024327064 -0.045336802 0.020326346
-0.023347758 -0.045583718 0.017954499
-0.022266639 -0.045646612 0.0173994
-0.021155855 -0.045652106 0.017401516
-0.020022862 -0.045607626 0.017912507
-0.018903252 -0.045590196 0.018884122
-0.017827049 -0.045681812 0.017407179
-0.016798107 -0.045914829 0.015178144
-0.033471227 -0.044628303 0.017473757
-0.032259606 -0.044496007 0.019558668
-0.031081494 -0.044402134 0.021402121
-0.029968346 -0.044397548 0.021526814
-0.028842654 -0.044373315 0.020585775
-0.027778555 -0.044445686 0.020758599
-0.026632195 -0.04438699 0.02175501
-0.02554851 -0.044432189 0.021612763
-0.024441097 -0.044438358 0.021373481
-0.023394309 -0.044560589 0.017716616
-0.022313412 -0.044626825 0.017112881
-0.021200294 -0.044632196 0.017357409
-0.020046415 -0.044547588 0.018256426
-0.018907979 -0.044489361 0.018137157
-0.01782278 -0.044556949 0.017629772
-0.033486627 -0.043532617 0.017381191
-0.032369267 -0.043531083 0.019127607
-0.031160254 -0.043401781 0.020535529
-0.029897166 -0.043184794 0.023615032
-0.028700091 -0.043050136 0.022892147
-0.027752008 -0.043293133 0.02129668
-0.026645953 -0.043299675 0.021299899
-0.025592363 -0.043395743 0.020721346
-0.024483049 -0.04340177 0.020045549
-0.02341274 -0.043480806 0.01856941
-0.022318855 -0.043521769 0.017892897
-0.021246931 -0.043612119 0.016876638
-0.020141885 -0.043640751 0.016636044
-0.018939395 -0.043449197 0.016589344
-0.017827129 -0.043453626 0.019089431
-0.0357139 -0.042410258 0.01684615
-0.034604553 -0.042418484 0.017382026
-0.033485487 -0.042414952 0.017506361
-0.032376945 -0.042424962 0.018163443
-0.031069303 -0.042165484 0.021533519
-0.029904261 -0.042087477 0.023039192
-0.028801402 -0.042094357 0.022437215
-0.027754055 -0.042186163 0.022077233
-0.026647922 -0.042192545 0.021717012
-0.025641656 -0.042364474 0.019974768
-0.024530208 -0.04237036 0.019298732
-0.023418309 -0.042375986 0.019131511
-0.022324162 -0.042415909 0.018212438
-0.021263508 -0.042527016 0.017098933
-0.019100618 -0.0426955 0.015404612
-0.038192376 -0.041562293 0.015463799
-0.037076715 -0.041570865 0.017185569
-0.035766695 -0.041355241 0.019610018
-0.034404241 -0.041063126 0.024287224
-0.033284333 -0.04105068 0.020973772
-0.032180708 -0.041058142 0.023448378
-0.030967949 -0.040921934 0.025003076
-0.029858839 -0.040917668 0.025128484
-0.028713549 -0.040861588 0.024502456
-0.027734725 -0.041047391 0.022494406
-0.026635179 -0.041062567 0.020388633
-0.025551394 -0.041104414 0.019955188
-0.024494544 -0.04119537 0.019036442
-0.023356251 -0.04115149 0.019572526
-0.022246867 -0.041156702 0.020593762
-0.021238474 -0.041359134 0.018170327
-0.020263806 -0.041653376 0.015357971
-0.019151455 -0.041682579 0.016524345
-0.018071391 -0.041790091 0.015409738
-0.039316166 -0.040439487 0.016165793
-0.038137179 -0.040380541 0.017524779
-0.03705309 -0.040421553 0.017576814
-0.035774738 -0.04024658 0.017338187
-0.034372561 -0.039916523 0.021095634
-0.033268206 -0.039921846 0.021123856
-0.032166876 -0.039931294 0.026530743
-0.030974921 -0.039824899 0.024475574
-0.029865563 -0.039820749 0.024600923
-0.028764136 -0.039827265 0.024435222
-0.027740978 -0.039947007 0.022572219
-0.026635367 -0.039953053 0.022502869
-0.025529267 -0.039958853 0.021463305
-0.024416026 -0.039953496 0.020568818
-0.023341144 -0.040013388 0.019965082
-0.022232477 -0.040018458 0.021010906
-0.021141844 -0.040058229 0.021086186
-0.02013406 -0.040268119 0.019778162
-0.019143403 -0.040538967 0.016867876
-0.018075472 -0.040669814 0.015461773
-0.039324757 -0.039324757 0.017113388
-0.038145512 -0.039267439 0.017940193
-0.037093163 -0.03934123 0.017459571
-0.035916261 -0.039283413 0.017947495
-0.034380082 -0.038816221 0.024806708
-0.033182811 -0.038713276 0.024132967
-0.032082554 -0.038720325 0.028184503
-0.030973224 -0.038716529 0.024602145
-0.029872108 -0.038723104 0.026545703
-0.028770441 -0.03872944 0.025361985
-0.027598526 -0.038637936 0.026481509
-0.026498597 -0.038643785 0.025054514
-0.025387019 -0.038632419 0.024039358
-0.024421385 -0.038852204 0.021592289
-0.023333529 -0.038889214 0.023172319
-0.02223736 -0.038915381 0.022932589
-0.02113957 -0.038941313 0.021916032
-0.020033622 -0.038954265 0.022112727
-0.01914761 -0.039421551 0.016871542
-0.039242018 -0.038120817 0.01849705
-0.038042471 -0.038042471 0.019953907
-0.036931198 -0.038050324 0.020539343
-0.035910334 -0.038154729 0.019404829
-0.034541383 -0.037884101 0.023406625
-0.033282571 -0.037720248 0.022902131
-0.032208886 -0.037762143 0.024966627
-0.031103708 -0.037768789 0.022837579
-0.030019235 -0.037802 0.024587303
-0.028997269 -0.037919503 0.02197212
-0.02760441 -0.037541997 0.026487142
-0.026504248 -0.037547685 0.025908947
-0.025403596 -0.037553143 0.025912702
-0.024426596 -0.037750196 0.023659527
-0.02335125 -0.037806787 0.024900407
-0.022288226 -0.037889984 0.022427797
-0.021176372 -0.037894558 0.022430509
-0.020142784 -0.038047481 0.020685017
-0.019053666 -0.038107332 0.019983143
-0.01797452 -0.038195856 0.018989593
-0.040700458 -0.037308753 0.016826272
-0.039434459 -0.037181064 0.017580658
-0.038050324 -0.036931198 0.020708889
-0.036938824 -0.036938824 0.020834297
-0.036003046 -0.037128143 0.019699603
-0.034802087 -0.037047382 0.020769805
-0.033396717 -0.036736388 0.023949176
-0.032215551 -0.036659073 0.024971783
-0.030731622 -0.036219411 0.030383676
-0.02969476 -0.036293596 0.030000746
-0.028719466 -0.03645163 0.0276528
-0.027540378 -0.036353301 0.027899742
-0.026467521 -0.036392841 0.027273059
-0.025397696 -0.036440171 0.029412657
-0.024390278 -0.036585417 0.026261449
-0.02340452 -0.036778532 0.022963643
-0.02233655 -0.036855306 0.022092581
-0.021271879 -0.036945894 0.021172553
-0.020222364 -0.037074335 0.020155072
-0.019102003 -0.037080359 0.020132959
-0.018060831 -0.037250467 0.018143415
-0.01701837 -0.037440415 0.015133113
-0.040630147 -0.036115687 0.01760456
-0.03944236 -0.036061585 0.01811704
-0.038078539 -0.035838626 0.021003783
-0.036918242 -0.035799507 0.021638095
-0.035862911 -0.035862911 0.02154547
-0.034748953 -0.035869885 0.021549642
-0.03362526 -0.035866942 0.021044582
-0.032338053 -0.035683367 0.023424834
-0.031116392 -0.035561591 0.025417775
-0.029834993 -0.035359994 0.028696865
-0.028734701 -0.035365786 0.028701574
-0.027624778 -0.035359714 0.026643544
-0.026523808 -0.035365075 0.026429176
-0.025432115 -0.035383813 0.028908789
-0.02447129 -0.035594605 0.024883002
-0.023432175 -0.03570617 0.023550957
-0.022341045 -0.035745673 0.022097021
-0.021322303 -0.035911247 0.020205408
-0.020227533 -0.035960056 0.020134866
-0.019107915 -0.035967842 0.020088434
-0.018064473 -0.036128946 0.018147051
-0.017021801 -0.036313172 0.015792131
-0.041813474 -0.035032913 0.017943025
-0.040624958 -0.034982603 0.017753273
-0.039418221 -0.034913279 0.017950952
-0.038085938 -0.034725413 0.021056294
-0.036845438 -0.034612384 0.022684425
-0.035869885 -0.034748953 0.021549642
-0.034821477 -0.034821477 0.021820575
-0.033704553 -0.034828037 0.020709157
-0.03253074 -0.034774236 0.021295041
-0.031236224 -0.034582961 0.023845941
-0.029989837 -0.034432776 0.026494563
-0.028756073 -0.034286086 0.028464496
-0.027654434 -0.034291498 0.026260376
-0.026552282 -0.034296699 0.026045918
-0.025657637 -0.034582034 0.025078595
-0.024549514 -0.034592498 0.025009274
-0.023459697 -0.034630984 0.02574113
-0.022397626 -0.034716319 0.021178395
-0.021362234 -0.03485417 0.020330817
-0.020245692 -0.034867581 0.020211667
-0.019195287 -0.03500317 0.018901944
-0.018158387 -0.035181876 0.018247813
-0.017097116 -0.035334039 0.016329855
-0.041821331 -0.033909187 0.021094859
-0.040543206 -0.033786006 0.019888371
-0.039205145 -0.03360441 0.023551434
-0.038002469 -0.033531588 0.023483723
-0.036810383 -0.033463985 0.024846047
-0.035781603 -0.033545252 0.023856997
-0.03476226 -0.033640895 0.022988647
-0.033652697 -0.033652697 0.022920221
-0.032536875 -0.033658836 0.023918986
-0.031420447 -0.033664767 0.023923188
-0.030146195 -0.033495773 0.027203351
-0.028974479 -0.033432093 0.027183503
-0.02780682 -0.033368185 0.026556671
-0.026774349 -0.033467937 0.025298208
-0.025754634 -0.033592999 0.023699284
-0.024638303 -0.033597685 0.024042577
-0.023636278 -0.033766113 0.022029817
-0.0225136 -0.033770401 0.022591323
-0.021420512 -0.033821862 0.021889508
-0.020298723 -0.033831205 0.020118326
-0.019287735 -0.03403718 0.017423183
-0.042091098 -0.032990318 0.018264502
-0.040587656 -0.03269561 0.022242188
-0.039428573 -0.032669388 0.022707492
-0.038009387 -0.032419771 0.026251286
-0.036791086 -0.03233156 0.027178049
-0.035784245 -0.032429472 0.026019543
-0.034672733 -0.032435782 0.02602458
-0.033520561 -0.032403208 0.026563197
-0.032395046 -0.032395046 0.027295887
-0.03128349 -0.032400761 0.026548445
-0.03021723 -0.032455545 0.025873393
-0.029057087 -0.032409828 0.026581615
-0.027943918 -0.032414947 0.02396363
-0.026830234 -0.032419864 0.024452955
-0.025806824 -0.032539036 0.022877842
-0.02473098 -0.032599926 0.022443801
-0.023663558 -0.032678246 0.021596581
-0.022549305 -0.032696493 0.021963745
-0.021427894 -0.032705732 0.021990746
-0.020450074 -0.032947343 0.018542379
-0.042098496 -0.031858321 0.018946111
-0.04070602 -0.031660236 0.021204054
-0.039475802 -0.031580642 0.02225095
-0.038030501 -0.031319235 0.026086241
-0.036901589 -0.031310439 0.02652809
-0.035790544 -0.031316727 0.02612114
-0.034678843 -0.031322826 0.026126206
-0.033511911 -0.031277783 0.026859015
-0.032400761 -0.03128349 0.029557586
-0.031465705 -0.031465705 0.02492696
-0.030389702 -0.031515244 0.023401827
-0.029164799 -0.031408247 0.025008112
-0.027948853 -0.031302713 0.023967862
-0.026976325 -0.031472381 0.02370435
-0.025914738 -0.031548377 0.022541881
-0.024812846 -0.031579986 0.022156298
-0.023709835 -0.031613115 0.020628482
-0.022671148 -0.031739607 0.019051582
-0.021587528 -0.031813201 0.018349111
-0.020461347 -0.031828761 0.018181086
-0.042105637 -0.030725734 0.019894391
-0.040802363 -0.030601773 0.021256149
-0.039556745 -0.030515203 0.021406263
-0.038053449 -0.030218916 0.025896668
-0.036907859 -0.030197339 0.02653262
-0.035796631 -0.030203406 0.026756257
-0.03468474 -0.03020929 0.026761472
-0.033555832 -0.030200249 0.026936412
-0.032443225 -0.030205762 0.029052943
-0.031336818 -0.030217648 0.028208405
-0.030255569 -0.030255569 0.029184401
-0.029169768 -0.030291682 0.027270764
-0.028052287 -0.030296469 0.02873233
-0.026996957 -0.030371577 0.025020123
-0.025919158 -0.030426838 0.024270624
-0.024909291 -0.030570494 0.021746993
-0.023805741 -0.030607382 0.021263868
-0.022733349 -0.03069002 0.018179893
-0.021737849 -0.030890627 0.015629768
-0.020608151 -0.030912228 0.01536417
-0.042110279 -0.029591007 0.019970357
-0.040809039 -0.029473195 0.021259606
-0.039315 -0.029205427 0.024222374
-0.038059678 -0.02910446 0.025876671
-0.036889892 -0.029064763 0.026779562
-0.035779204 -0.029070603 0.027124584
-0.034673501 -0.029081 0.028561592
-0.033584997 -0.029106999 0.029780507
-0.032448549 -0.029091801 0.030951202
-0.031341963 -0.029103249 0.028965712
-0.030227754 -0.029108208 0.030864775
-0.029226655 -0.029226655 0.02892682
-0.028106995 -0.029231275 0.028931379
-0.026986813 -0.029235715 0.027988255
-0.025923418 -0.029304733 0.024274617
-0.024896013 -0.029422559 0.022528231
-0.023979368 -0.029688742 0.019833326
-0.02286957 -0.029730441 0.019252449
-0.021933122 -0.030013746 0.015024573
-0.042116906 -0.028457368 0.020821899
-0.0406169 -0.028206181 0.024948239
-0.039321192 -0.028086565 0.024638444
-0.038042996 -0.027972791 0.026681185
-0.036851674 -0.027917935 0.027657121
-0.035744082 -0.027925065 0.03033191
-0.034678973 -0.027966913 0.0300951
-0.033590302 -0.027991917 0.030780494
-0.032453671 -0.027977303 0.031854391
-0.03134691 -0.027988313 0.032369971
-0.03023253 -0.027993085 0.031962603
-0.029231275 -0.028106995 0.029635876
-0.028111441 -0.028111441 0.028935969
-0.026991082 -0.028115712 0.02894035
-0.026070055 -0.028337015 0.027073294
-0.025093794 -0.028515674 0.024281859
-0.02402911 -0.028606083 0.022899449
-0.023111455 -0.028889319 0.016192138
-0.043442849 -0.027437588 0.018396407
-0.042123277 -0.027323207 0.020825028
-0.040623046 -0.02708203 0.025049031
-0.039456602 -0.027055956 0.027237386
-0.038182795 -0.026952559 0.029062659
-0.036859263 -0.026806736 0.03033039
-0.035613596 -0.026710195 0.032035321
-0.034639083 -0.026817353 0.030949265
-0.033562623 -0.026850097 0.031222165
-0.032449793 -0.026855003 0.031980664
-0.031366974 -0.026885977 0.032156318
-0.030302711 -0.026935743 0.030995816
-0.029235715 -0.026986813 0.029640347
-0.028156716 -0.027030447 0.029572129
-0.02734369 -0.02734369 0.024424434
-0.026170455 -0.0273083 0.025084257
-0.025036106 -0.027312117 0.022292137
-0.024002131 -0.027431007 0.019547731
-0.023180624 -0.02781675 0.016826808
-0.046220332 -0.026576692 0.015216172
-0.044898588 -0.026478654 0.017037541
-0.043442238 -0.026293987 0.020338386
-0.042113692 -0.026178781 0.021094739
-0.040742442 -0.026029894 0.025149673
-0.039509032 -0.025963077 0.027192801
-0.038371891 -0.025957456 0.027392745
-0.037072837 -0.025838643 0.029072881
-0.035729457 -0.025680548 0.031263292
-0.034679867 -0.025730226 0.031949133
-0.033567503 -0.025735088 0.031518102
-0.03245452 -0.025739791 0.031523854
-0.031340934 -0.025744339 0.030436337
-0.030307123 -0.02581718 0.029251099
-0.029331584 -0.02594717 0.026680201
-0.028305119 -0.026040711 0.026125461
-0.027359344 -0.026219372 0.021438301
-0.026223199 -0.026223199 0.02144143
-0.025099935 -0.026240842 0.021201283
-0.024106489 -0.026402345 0.018991292
-0.023145098 -0.026616864 0.015321434
-0.046134666 -0.025374066 0.015775651
-0.044895366 -0.025325593 0.017136872
-0.043448277 -0.025154265 0.020365447
-0.042119548 -0.025044056 0.022455692
-0.040826697 -0.024949649 0.025056124
-0.039497543 -0.024827028 0.027390689
-0.038377233 -0.024832327 0.02739656
-0.037078004 -0.024718668 0.028348774
-0.035734434 -0.024567423 0.031194806
-0.034684703 -0.024614951 0.030496746
-0.033572186 -0.024619602 0.030502498
-0.032459047 -0.024624104 0.030435205
-0.031345304 -0.024628455 0.030392021
-0.030311354 -0.02469814 0.029255182
-0.029199829 -0.024707548 0.029770344
-0.028344015 -0.024942731 0.02566728
-0.027351499 -0.025072206 0.021635771
-0.026183523 -0.025045108 0.021541685
-0.02504861 -0.02504861 0.021106988
-0.024026867 -0.025171004 0.018945307
-0.02302064 -0.025322704 0.017050534
-0.047282487 -0.024217859 0.015216529
-0.046140786 -0.024223913 0.015389949
-0.044998236 -0.024229819 0.017236114
-0.043490902 -0.024034446 0.021071345
-0.042140845 -0.023917777 0.023283333
-0.041011158 -0.023923175 0.023288578
-0.039755449 -0.023853268 0.025647283
-0.038615443 -0.023850715 0.02579838
-0.037163038 -0.023649206 0.027381599
-0.035890695 -0.023553269 0.02930516
-0.034819186 -0.02358719 0.030573666
-0.033660457 -0.023562318 0.030409425
-0.032463375 -0.023507962 0.030439287
-0.031349488 -0.023512116 0.030444652
-0.030321959 -0.023583747 0.029769391
-0.029203726 -0.023587624 0.029774308
-0.028215615 -0.023701116 0.025889486
-0.027101321 -0.023713656 0.024531931
-0.026187021 -0.023909889 0.020863712
-0.025051955 -0.023913231 0.020866632
-0.024035186 -0.024035186 0.019142419
-0.023079667 -0.02423365 0.015933812
-0.046958111 -0.022906397 0.018441439
-0.045824245 -0.022912122 0.018446028
-0.044689536 -0.02291771 0.019008189
-0.04346646 -0.022877084 0.021389246
-0.042184331 -0.02280234 0.022995174
-0.041020721 -0.02278929 0.024213463
-0.039890017 -0.022794297 0.024218768
-0.038620342 -0.022717848 0.025850207
-0.037249878 -0.022575682 0.026705295
-0.036110882 -0.022569301 0.0269292
-0.034961011 -0.022555491 0.028610289
-0.033828702 -0.022552468 0.027085304
-0.03265598 -0.022521365 0.027794868
-0.031443629 -0.022459734 0.029112011
-0.030338939 -0.022473289 0.030696779
-0.029207442 -0.022467263 0.030264229
-0.028264791 -0.022611834 0.027059793
-0.027138328 -0.022615273 0.025434762
-0.026155397 -0.022743823 0.021036565
-0.025029732 -0.0227543 0.020893604
-0.02403314 -0.022888705 0.018269122
-0.023082608 -0.023082608 0.015935808
-0.046963762 -0.021763695 0.017062187
-0.045660067 -0.021688532 0.01975733
-0.044354472 -0.021608589 0.022017241
-0.043227464 -0.021613732 0.024884403
-0.042151265 -0.021645244 0.024841666
-0.041021302 -0.021650132 0.024337709
-0.039890584 -0.021654889 0.024270266
-0.03856517 -0.021551125 0.026557326
-0.037236352 -0.021439111 0.028238207
-0.036115244 -0.021443427 0.02824387
-0.034982178 -0.02144069 0.028395146
-0.033659693 -0.021317806 0.02968812
-0.032527801 -0.021311319 0.029912233
-0.031411707 -0.021315087 0.030792445
-0.030418089 -0.021405321 0.029387861
-0.029484361 -0.021546265 0.02589184
-0.028354838 -0.021549677 0.023391455
-0.027224788 -0.021552958 0.023395002
-0.026284438 -0.021713233 0.018874377
-0.025145153 -0.021716267 0.018852741
-0.024042439 -0.021752683 0.018149704
-0.047274712 -0.020754753 0.015391678
-0.045696799 -0.02056356 0.019759595
-0.044359542 -0.020473635 0.02155897
-0.043084923 -0.020408649 0.023577452
-0.041924935 -0.020395914 0.026833981
-0.040820695 -0.020410348 0.02662164
-0.039695505 -0.020414831 0.026700318
-0.038394175 -0.020326329 0.028624028
-0.037214573 -0.020298857 0.028557092
-0.036064979 -0.020286551 0.028927207
-0.03498619 -0.020314563 0.027693897
-0.033663556 -0.020198133 0.029351354
-0.032531537 -0.020191988 0.029575437
-0.031415313 -0.020195559 0.030795991
-0.030582396 -0.020388264 0.026911587
-0.029538326 -0.02044961 0.02553007
-0.028406734 -0.02045285 0.025120705
-0.027426386 -0.02056979 0.020746619
-0.026328022 -0.020604538 0.018268436
-0.025363477 -0.020751934 0.015716463
-0.045949064 -0.019528352 0.017846167
-0.044539332 -0.019414581 0.020639658
-0.043237086 -0.019342907 0.024889946
-0.041972116 -0.019284487 0.027710438
-0.040805455 -0.019269243 0.026770175
-0.039680693 -0.019273479 0.026217699
-0.038338486 -0.019169243 0.028602839
-0.037218608 -0.019173222 0.027855873
-0.03606889 -0.019161599 0.028225899
-0.03498999 -0.019188058 0.02701664
-0.033727352 -0.019112166 0.028892845
-0.032609075 -0.019115664 0.02889812
-0.0314936 -0.019121114 0.029948503
-0.030607054 -0.019271107 0.026598454
-0.029649017 -0.019385897 0.023879319
-0.028549667 -0.019413775 0.02359125
-0.02765267 -0.019587308 0.018900216
-0.02654911 -0.019623255 0.016883731
-0.046344176 -0.01853767 0.017872244
-0.044898614 -0.018419944 0.020932883
-0.043677114 -0.018390365 0.021786988
-0.042337801 -0.018308239 0.023806274
-0.041097984 -0.018265771 0.022840679
-0.039780341 -0.018185299 0.025127858
-0.038418777 -0.018079424 0.027707249
-0.037296552 -0.018083178 0.026960075
-0.036140602 -0.018070301 0.0273785
-0.035067011 -0.018099101 0.026752084
-0.033894848 -0.018077252 0.028312564
-0.032843273 -0.018120425 0.026907921
-0.031624459 -0.018071121 0.02863881
-0.030610189 -0.018139372 0.027695358
-0.029656796 -0.018250337 0.025000483
-0.028583001 -0.018293122 0.024007201
-0.027655505 -0.018437004 0.018902153
-0.026596602 -0.018501984 0.016106874
-0.02545316 -0.018511388 0.015938759
-0.02436972 -0.018567406 0.01533249
-0.04771414 -0.017456394 0.016948134
-0.046562027 -0.017460762 0.015861034
-0.045118149 -0.017353134 0.019940287
-0.043828826 -0.017300852 0.02035749
-0.042620234 -0.017278474 0.020071
-0.041219905 -0.017174961 0.022575855
-0.040000863 -0.017143227 0.022653699
-0.038744491 -0.017093157 0.023921371
-0.037536606 -0.017062094 0.022978991
-0.036406472 -0.017065533 0.022983611
-0.03527566 -0.017068869 0.025539637
-0.033945505 -0.016972752 0.028193712
-0.032849956 -0.016991356 0.030192286
-0.031722814 -0.016994365 0.030538023
-0.030783851 -0.017102139 0.025995761
-0.029692855 -0.017130492 0.024492115
-0.028594878 -0.017156927 0.023863524
-0.027569126 -0.017230704 0.019317567
-0.026615957 -0.017358232 0.015792072
-0.025455613 -0.0173561 0.016670406
-0.04767368 -0.016278816 0.017386138
-0.046522547 -0.016282892 0.016299039
-0.045122195 -0.016197711 0.018850356
-0.043844286 -0.016153157 0.020189494
-0.042704888 -0.016158605 0.020000011
-0.041418064 -0.016107026 0.021509707
-0.040276423 -0.016110569 0.021514446
-0.039076224 -0.016090211 0.021737605
-0.037934802 -0.016093552 0.021742105
-0.036668271 -0.016042368 0.02271843
-0.035452109 -0.016010631 0.024132401
-0.034307696 -0.016010258 0.023820966
-0.033055611 -0.015957881 0.027180314
-0.031921413 -0.015960706 0.027185172
-0.030786624 -0.015963435 0.025560349
-0.029662328 -0.015972022 0.02539432
-0.028597455 -0.016014574 0.02386567
-0.027486939 -0.016034048 0.0229204
-0.026345499 -0.016036391 0.022923738
-0.025298616 -0.01609912 0.019568205
-0.024485454 -0.016323635 0.015335351
-0.047722396 -0.015131491 0.016951084
-0.045864224 -0.014905874 0.024013937
-0.044728544 -0.014909515 0.024019808
-0.043702699 -0.014950924 0.022860676
-0.042703964 -0.015004096 0.020074487
-0.041559193 -0.015007487 0.019981891
-0.040390283 -0.015002105 0.02025345
-0.039172404 -0.014977683 0.021520823
-0.03809832 -0.01500843 0.020675004
-0.036883235 -0.014983815 0.020484746
-0.035603885 -0.014930661 0.022214383
-0.034461893 -0.014933487 0.022218585
-0.033275202 -0.01491647 0.024192035
-0.032048356 -0.014879594 0.025971562
-0.030828608 -0.014843404 0.027167767
-0.029769177 -0.014884588 0.025201827
-0.028590731 -0.01486718 0.024402946
-0.027460046 -0.014874191 0.023408979
-0.026311327 -0.01487162 0.023558438
-0.025205689 -0.014894271 0.023415685
-0.024253629 -0.015014151 0.02183646
-0.023147902 -0.015046136 0.020086259
-0.022094959 -0.015117603 0.016436219
-0.047850374 -0.014004987 0.016443074
-0.045867771 -0.013760331 0.024015784
-0.044578224 -0.013716377 0.025598884
-0.043445542 -0.013719645 0.026041836
-0.042547837 -0.013799299 0.023498923
-0.041424733 -0.013808245 0.023722768
-0.040319033 -0.013823669 0.021202147
-0.03917544 -0.013826625 0.021522492
-0.038077224 -0.013846263 0.020700872
-0.036977474 -0.013866552 0.020121813
-0.035958905 -0.013919577 0.01767081
-0.034679722 -0.01387189 0.019351602
-0.033554554 -0.013884643 0.020376414
-0.032318119 -0.013850622 0.023395658
-0.031169228 -0.01385299 0.023448348
-0.029806279 -0.013756745 0.026736438
-0.02846217 -0.013661842 0.026497364
-0.027453419 -0.013726709 0.024870962
-0.026179023 -0.01365862 0.026383579
-0.02520765 -0.013749627 0.023417473
-0.024162211 -0.013806977 0.021570355
-0.023080308 -0.013848186 0.019016474
-0.022015709 -0.013904659 0.018409997
-0.020921862 -0.013947908 0.016756058
-0.019773081 -0.013957469 0.016757816
-0.046698298 -0.012842032 0.020329982
-0.044967048 -0.012683013 0.023416758
-0.04369536 -0.012648657 0.024441749
-0.042550866 -0.012650257 0.023913324
-0.041414578 -0.012654454 0.02387017
-0.040298529 -0.012665252 0.022078097
-0.039250504 -0.012698692 0.021426857
-0.038112011 -0.012704004 0.020872474
-0.036964554 -0.012706566 0.021994621
-0.035961475 -0.012760524 0.01968962
-0.034569148 -0.012675354 0.023388922
-0.033479381 -0.012699076 0.023247272
-0.032330643 -0.012701325 0.023300022
-0.031204296 -0.012712861 0.022963494
-0.030053535 -0.012714957 0.022918582
-0.028783584 -0.012664777 0.024187624
-0.027613088 -0.012656 0.023388147
-0.026466416 -0.012657851 0.022198856
-0.025350044 -0.012675022 0.020789981
-0.024232967 -0.012693459 0.02018407
-0.023105096 -0.012707802 0.018555194
-0.022083225 -0.012785024 0.017144918
-0.020935418 -0.012793867 0.01675719
-0.051803391 -0.011773498 0.017377585
-0.050608367 -0.011769388 0.017673165
-0.049660832 -0.011824007 0.015956134
-0.045693994 -0.011716409 0.019171447
-0.044309281 -0.011660337 0.021481961
-0.042699616 -0.011540436 0.024400413
-0.041443497 -0.011512083 0.024357438
-0.040373415 -0.011535262 0.023536891
-0.039228283 -0.01153773 0.022740185
-0.038114496 -0.011549847 0.022356123
-0.036861971 -0.011519365 0.023673058
-0.035717018 -0.011521618 0.027202606
-0.03438722 -0.011462406 0.026210904
-0.033247072 -0.011464507 0.028404444
-0.032332756 -0.011547413 0.023301542
-0.031403385 -0.011630883 0.01999703
-0.030188346 -0.011610902 0.020876259
-0.028907141 -0.011562857 0.022242337
-0.027755087 -0.01156462 0.021101803
-0.026703294 -0.011610128 0.01930356
-0.02554586 -0.011611754 0.019306272
-0.02438795 -0.011613309 0.017896563
-0.051806431 -0.01059677 0.017378628
-0.050421078 -0.010553249 0.019444048
-0.04947786 -0.010602399 0.017727375
-0.045831554 -0.010576513 0.017789215
-0.044535581 -0.010547901 0.019128561
-0.043304037 -0.010533415 0.016753554
-0.04173664 -0.01043416 0.020934492
-0.040618099 -0.010444654 0.018947214
-0.039393742 -0.010427755 0.020457685
-0.038243052 -0.010429922 0.021604061
-0.036969144 -0.010397571 0.023139745
-0.035785064 -0.010389213 0.026450604
-0.03439654 -0.010318962 0.026115209
-0.033256084 -0.010320853 0.027627856
-0.032334667 -0.010393285 0.024494857
-0.031416733 -0.010472245 0.019827902
-0.030329309 -0.010498608 0.018736213
-0.029167425 -0.010500273 0.018106461
-0.051729161 -0.0094053019 0.017282546
-0.050048403 -0.0093113305 0.022936463
-0.048897319 -0.0093137752 0.023839802
-0.047839828 -0.0093346005 0.020304203
-0.046997707 -0.0093995417 0.017179191
-0.045625724 -0.0093591232 0.017717361
-0.044466428 -0.0093613537 0.017770141
-0.043306317 -0.0093635283 0.017774224
-0.041738842 -0.0092752976 0.022295654
-0.040620241 -0.0092846267 0.022276282
-0.039395817 -0.0092696035 0.02313149
-0.038245063 -0.0092715304 0.02471596
-0.037023596 -0.0092558991 0.025328666
-0.035873629 -0.0092577105 0.025333643
-0.034542438 -0.0092113167 0.024195492
-0.033397146 -0.0092130052 0.024199933
-0.032516871 -0.0092905341 0.020409405
-0.031452883 -0.0093193734 0.020558894
-0.030330915 -0.0093325898 0.0193699
-0.029168967 -0.0093340697 0.018740177
-0.051747553 -0.0082325647 0.017137915
-0.050029863 -0.0081443964 0.021919161
-0.048823189 -0.0081371982 0.021949172
-0.047663014 -0.0081375875 0.020814598
-0.046512153 -0.0081396261 0.020601392
-0.04511432 -0.0080974419 0.023033619
-0.044025678 -0.0081099933 0.022432178
-0.042890545 -0.0081144273 0.021757424
-0.041740779 -0.008116263 0.021762341
-0.040622126 -0.008124426 0.020916909
-0.039511248 -0.0081346687 0.020969987
-0.038357124 -0.00813636 0.021824956
-0.037219796 -0.0081418306 0.021610588
-0.036063731 -0.0081434231 0.02161482
-0.034815803 -0.0081236875 0.022397101
-0.033661447 -0.0081251776 0.022085011
-0.032518387 -0.0081295967 0.021918625
-0.031454351 -0.0081548318 0.020608485
-0.030545872 -0.0082238885 0.016499251
-0.02816261 -0.0082140947 0.015701056
-0.051749628 -0.0070567676 0.017890096
-0.050031874 -0.0069811917 0.023059696
-0.048517 -0.0069309999 0.02626729
-0.047311816 -0.0069236807 0.026880562
-0.04626165 -0.0069392477 0.025382727
-0.045116134 -0.0069409437 0.023932606
-0.043969791 -0.0069425986 0.023938328
-0.042822637 -0.0069442112 0.023943871
-0.041663762 -0.0069439602 0.023172021
-0.040515352 -0.006945489 0.022642612
-0.039508715 -0.0069721257 0.021651179
-0.038354665 -0.0069735753 0.021874458
-0.037199907 -0.0069749821 0.021441251
-0.036065187 -0.0069803591 0.021178007
-0.034908403 -0.0069816811 0.020087689
-0.033770379 -0.0069869752 0.022475034
-0.03258441 -0.006982374 0.018659592
-0.031452339 -0.0069894083 0.020657957
-0.030286102 -0.0069891005 0.020515352
-0.029135 -0.0069924002 0.020615995
-0.028014764 -0.007003691 0.01969409
-0.051788718 -0.0058850818 0.018593729
-0.049911059 -0.0058036116 0.024200171
-0.04851865 -0.0057760295 0.026268184
-0.047266178 -0.0057641682 0.027342439
-0.046107914 -0.0057634893 0.02693671
-0.044982772 -0.0057670218 0.026190847
-0.043812141 -0.0057647554 0.026585549
-0.042781416 -0.0057812724 0.025377482
-0.041525271 -0.005767399 0.027253568
-0.040482722 -0.0057832459 0.024830043
-0.039334487 -0.0057844836 0.023717493
-0.038185529 -0.005785686 0.02372244
-0.037222568 -0.0058160261 0.021028727
-0.036085259 -0.0058202031 0.021373272
-0.034927838 -0.0058213067 0.021693498
-0.033808567 -0.0058290632 0.021575838
-0.032556575 -0.0058136741 0.022479832
-0.031487904 -0.0058310935 0.019880056
-0.030383633 -0.0058430065 0.019007206
-0.02822022 -0.0058792122 0.016724706
-0.026995135 -0.0058685075 0.017652363
-0.0256871 -0.0058379774 0.017289609
-0.02480153 -0.0059051262 0.015635759
-0.049912445 -0.0046430184 0.024200827
-0.048252579 -0.0045954837 0.028815776
-0.047103364 -0.0045954501 0.028944463
-0.04577915 -0.0045779152 0.03057766
-0.044967458 -0.0046120468 0.026944041
-0.043813363 -0.0046119327 0.027071863
-0.042670291 -0.0046130042 0.027369589
-0.041412748 -0.0046014162 0.02970773
-0.040118191 -0.004584936 0.031463593
-0.03898856 -0.0045868894 0.029064506
-0.037937939 -0.0045985379 0.02800104
-0.036920205 -0.0046150256 0.026450753
-0.035722561 -0.0046093627 0.025920957
-0.034854028 -0.0046472042 0.022229165
-0.033698406 -0.0046480559 0.022695422
-0.032542158 -0.0046488801 0.02192086
-0.031400088 -0.004651865 0.021194637
-0.03024211 -0.0046526324 0.021198124
-0.029237224 -0.004677956 0.020008713
-0.02812168 -0.004686947 0.018380672
-0.026862886 -0.004671806 0.020769507
-0.025663713 -0.0046661296 0.020601988
-0.024533708 -0.004673087 0.021505892
-0.023415919 -0.004683184 0.019803554
-0.022295274 -0.0046937419 0.018807143
-0.021124274 -0.004694283 0.01681143
-0.052129954 -0.0035543151 0.015515745
-0.050182037 -0.0035010723 0.022746384
-0.048638206 -0.0034741575 0.026827365
-0.047104381 -0.0034466621 0.030619204
-0.045780145 -0.0034335107 0.031864554
-0.044646554 -0.0034343502 0.031483978
-0.043512143 -0.0034351691 0.031491488
-0.042558894 -0.003450721 0.029531628
-0.041418023 -0.003451502 0.029659778
-0.040276386 -0.0034522617 0.029666305
-0.039212503 -0.0034599267 0.027363986
-0.038067102 -0.0034606457 0.026446015
-0.036921006 -0.0034613442 0.02778849
-0.03572334 -0.0034570976 0.028450459
-0.034577526 -0.0034577525 0.027628928
-0.033402856 -0.0034554678 0.027196139
-0.032282297 -0.0034588173 0.026836008
-0.031292364 -0.0034769296 0.023312122
-0.030138357 -0.0034775028 0.023315996
-0.029195262 -0.0035034313 0.020690769
-0.027758567 -0.0034698208 0.02524659
-0.026827067 -0.0034991826 0.021865726
-0.025664272 -0.0034996734 0.021868765
-0.024524013 -0.0035034304 0.021701217
-0.023388417 -0.0035082628 0.020339906
-0.022221699 -0.0035086893 0.02034235
-0.021078685 -0.0035131143 0.016811788
-0.019953316 -0.0035211733 0.015790194
-0.052269436 -0.0023758833 0.015855402
-0.050370503 -0.0023428141 0.022601247
-0.048740834 -0.0023209921 0.026294142
-0.047224484 -0.0023036334 0.029455096
-0.045785703 -0.0022892852 0.031816512
-0.044647247 -0.0022896023 0.031872869
-0.043478213 -0.0022883271 0.032244653
-0.042343888 -0.0022888589 0.033442169
-0.041392427 -0.0022995791 0.031409234
-0.040251497 -0.0023000855 0.031440437
-0.039109822 -0.0023005777 0.030329257
-0.038029592 -0.0023048238 0.029266059
-0.036921579 -0.0023075987 0.027788907
-0.035774779 -0.0023080502 0.02742964
-0.034627315 -0.0023084877 0.027264565
-0.03343159 -0.0023056269 0.027926356
-0.032257251 -0.0023040893 0.028028607
-0.031135164 -0.0023063084 0.027327716
-0.030029669 -0.0023099745 0.026675075
-0.029035969 -0.0023228775 0.026825398
-0.027758999 -0.00231325 0.028217196
-0.026721077 -0.0023235718 0.023716629
-0.025588326 -0.0023262114 0.025522083
-0.024534624 -0.0023366308 0.021506697
-0.023416795 -0.0023416795 0.02055943
-0.022222046 -0.0023391626 0.020342678
-0.021106426 -0.0023451585 0.018688172
-0.052219249 -0.0011868011 0.016049504
-0.050960135 -0.0011851194 0.016854078
-0.049029097 -0.0011673594 0.024087012
-0.047592994 -0.0011608048 0.026009977
-0.046273939 -0.0011568485 0.027569741
-0.044751801 -0.0011474821 0.030805051
-0.043478619 -0.0011441743 0.031856477
-0.042344283 -0.00114444 0.031863868
-0.041316289 -0.0011476747 0.031190932
-0.040251873 -0.0011500535 0.030347347
-0.038847841 -0.0011425836 0.033415973
-0.037713099 -0.0011428212 0.033422947
-0.036591273 -0.0011434773 0.033259481
-0.035739303 -0.0011528807 0.029010475
-0.034627639 -0.0011542545 0.027799904
-0.033356067 -0.0011502092 0.030261934
-0.032203048 -0.0011501089 0.02936703
-0.031135455 -0.001153165 0.030442804
-0.030029949 -0.001154998 0.029328257
-0.028879536 -0.0011551814 0.029332906
-0.027693525 -0.0011538969 0.029313058
-0.026613519 -0.0011571095 0.025129139
-0.025473373 -0.0011578806 0.025644094
-0.024428722 -0.0011632724 0.021458179
-0.023419451 -0.0011709726 0.019219816
-0.022251183 -0.0011711149 0.017273128
-0.02114171 -0.0011745394 0.015959382
-0.052219409 0 0.016437441
-0.050983757 0 0.017023891
-0.049253382 0 0.023238093
-0.047792096 0 0.025500536
-0.046329901 0 0.027157247
-0.04512826 0 0.02772221
-0.043762479 0 0.030035496
-0.042620733 0 0.029386699
-0.041392941 0 0.031409621
-0.040243492 0 0.030614763
-0.038847961 0 0.033610523
-0.037665084 0 0.034006387
-0.036536928 0 0.035010099
-0.035739418 0 0.03190434
-0.034635041 0 0.029624104
-0.033532538 0 0.028778106
-0.03236495 0 0.026812434
-0.031232465 0 0.028763801
-0.030063266 0 0.029863834
-0.028893318 0 0.030160666
-0.027693611 0 0.027073264
-0.026613601 0 0.025811017
-0.025659634 0 0.022259057
-0.024556668 0 0.023090154
-0.023459718 0 0.021704614
-0.022313744 0 0.017906636
-0.052219249 0.0011868011 0.016437411
-0.050689012 0.0011788142 0.019764096
-0.049523208 0.001179124 0.020666808
-0.047911324 0.0011685689 0.025015205
-0.046652541 0.0011663134 0.024099231
-0.045274865 0.0011608939 0.026217073
-0.044124492 0.0011611708 0.026247591
-0.042928372 0.0011602263 0.02559793
-0.041508686 0.001153019 0.029223263
-0.040356047 0.00115303 0.028330684
-0.039143242 0.0011512717 0.030135125
-0.037959758 0.0011502957 0.031454027
-0.036855794 0.0011517436 0.031241536
-0.035695959 0.0011514826 0.035332978
-0.034551024 0.0011517009 0.033685774
-0.033405449 0.001151912 0.030529529
-0.032383583 0.0011565565 0.028345197
-0.031234011 0.0011568152 0.028325737
-0.030080574 0.0011569451 0.026870042
-0.028893229 0.0011557292 0.02743417
-0.027693525 0.0011538969 0.027073175
-0.02662752 0.0011577182 0.025616139
-0.025699738 0.0011681699 0.021528393
-0.024597513 0.0011713101 0.021604329
-0.023459645 0.0011729823 0.019731402
-0.022428237 0.0011804336 0.018734902
-0.050688546 0.0023576068 0.021218956
-0.049522746 0.0023582259 0.021224499
-0.048032742 0.0023430604 0.023437858
-0.046720058 0.0023360029 0.024511576
-0.045513492 0.0023340252 0.02393502
-0.044363972 0.0023349458 0.023867846
-0.043058269 0.0023274741 0.025330573
-0.04190401 0.0023280005 0.02759546
-0.040659688 0.0023234107 0.027334273
-0.039473385 0.0023219639 0.027728915
-0.038352452 0.0023243912 0.027345777
-0.037223049 0.0023264405 0.02888298
-0.036095154 0.0023287197 0.028523862
-0.034910053 0.0023273369 0.028407633
-0.033644993 0.0023203443 0.027220875
-0.032384984 0.0023132132 0.028320611
-0.031233719 0.0023136088 0.028325438
-0.030080294 0.0023138688 0.026869774
-0.028969029 0.0023175222 0.026216805
-0.027814509 0.0023178759 0.026099086
-0.026973099 0.0023454868 0.020892054
-0.025995508 0.002363228 0.017485559
-0.024939975 0.0023752358 0.017366141
-0.023638466 0.0023638466 0.020364553
-0.022661788 0.0023854515 0.015470147
-0.04819613 0.0035265461 0.021836221
-0.047032397 0.0035274299 0.021841675
-0.045562487 0.0035048069 0.024978399
-0.044476312 0.0035112877 0.022532046
-0.043205868 0.0035031785 0.023703039
-0.042047653 0.0035039713 0.022469521
-0.040663313 0.0034854268 0.026289046
-0.03950996 0.0034861728 0.027291059
-0.038510282 0.0035009347 0.026883483
-0.037533663 0.0035187809 0.024603635
-0.036094595 0.0034930252 0.027939856
-0.034902215 0.0034902215 0.02777487
-0.033713251 0.0034875777 0.028217852
-0.032490075 0.0034810794 0.028271496
-0.031335074 0.0034816747 0.028276324
-0.030195309 0.003484074 0.028037608
-0.029064424 0.0034877311 0.025559157
-0.028114991 0.0035143739 0.021205157
-0.02703568 0.0035263931 0.02179265
-0.026033947 0.0035500838 0.018702924
-0.024961324 0.0035659035 0.016951799
-0.023851242 0.0035776864 0.01610139
-0.022661436 0.0035781215 0.015469909
-0.047113892 0.0047113891 0.020555019
-0.045897573 0.0047074435 0.019758999
-0.044717539 0.0047071092 0.019520879
-0.043315005 0.0046827034 0.022512525
-0.042046741 0.00467186 0.023707867
-0.040747464 0.0046568527 0.026312798
-0.03966815 0.0046668411 0.026877344
-0.038587648 0.004677291 0.026299596
-0.037425879 0.0046782349 0.02594021
-0.036058001 0.0046526454 0.027015209
-0.034888688 0.0046518254 0.027190536
-0.033731915 0.004652678 0.027998269
-0.03257452 0.0046535027 0.028003246
-0.031398445 0.0046516219 0.028275698
-0.030318044 0.0046643144 0.027623236
-0.029291991 0.0046867188 0.024122477
-0.02814067 0.0046901116 0.023152322
-0.026972089 0.004690798 0.023155749
-0.025875334 0.0047046063 0.021576047
-0.024800949 0.0047239903 0.019995838
-0.023622969 0.0047245938 0.020656109
-0.02244455 0.0047251685 0.017905742
-0.045882098 0.00588232 0.019442886
-0.044520237 0.0058579259 0.021511257
-0.043313798 0.0058532162 0.02520749
-0.042014964 0.0058354116 0.028055131
-0.040767588 0.005823941 0.029081732
-0.039611276 0.0058251875 0.027532697
-0.038586576 0.0058464506 0.026298851
-0.037492905 0.0058582663 0.023654282
-0.0362624 0.0058487742 0.024364054
-0.035081055 0.0058468427 0.02461189
-0.033893216 0.005843658 0.026343435
-0.032730285 0.0058446936 0.026469737
-0.031566743 0.0058456934 0.026474267
-0.030454818 0.0058566961 0.025894552
-0.02928813 0.005857626 0.025509208
-0.028113591 0.0058569978 0.025074899
-0.026919534 0.0058520725 0.023836821
-0.025728619 0.0058474136 0.024278492
-0.024562426 0.0058481968 0.024086893
-0.023521218 0.0058803046 0.021581113
-0.022364076 0.0058852835 0.019586146
-0.021438338 0.0059550935 0.015568435
-0.045894731 0.007060728 0.019757777
-0.04451872 0.0070292717 0.022238851
-0.043352753 0.0070301765 0.024769485
-0.04201353 0.0070022549 0.028054178
-0.040766194 0.0069884909 0.029080719
-0.039609924 0.0069899866 0.027628988
-0.038585257 0.0070155011 0.026297957
-0.037474122 0.0070263976 0.023872256
-0.036327116 0.0070310552 0.023512214
-0.035161935 0.0070323865 0.023516685
-0.034003157 0.0070351358 0.027583033
-0.032821123 0.007033098 0.025374085
-0.031654354 0.0070343013 0.025378436
-0.030486997 0.0070354608 0.026185691
-0.029287126 0.0070289103 0.02575174
-0.028095098 0.0070237746 0.025366187
-0.026918611 0.0070222463 0.024809867
-0.025714345 0.0070130033 0.024521142
-0.024548799 0.0070139426 0.024329603
-0.023382798 0.0070148394 0.024332732
-0.022380665 0.0070675788 0.021948397
-0.021398135 0.0071327114 0.016444951
-0.020248834 0.0071466477 0.016398013
-0.047657482 0.0083400598 0.015869647
-0.046231292 0.008297924 0.017888069
-0.044516928 0.0082004871 0.02357319
-0.043351009 0.0082015423 0.024768502
-0.042184524 0.0082025463 0.024822682
-0.040853828 0.0081707658 0.028059214
-0.039798342 0.008193776 0.025392354
-0.038635831 0.0081954794 0.025397629
-0.037494 0.0082018124 0.023603916
-0.03633884 0.0082055442 0.023316771
-0.035173282 0.0082070986 0.026020497
-0.03403176 0.0082145631 0.025684744
-0.0328198 0.00820495 0.023499906
-0.031618588 0.008197411 0.023698539
-0.030337077 0.0081676748 0.026695698
-0.029174894 0.0081689702 0.026724249
-0.028032618 0.0081761805 0.026387542
-0.026917521 0.0081922887 0.025539279
-0.025760176 0.00819642 0.025981158
-0.024606617 0.0082022063 0.027543217
-0.02351946 0.0082318112 0.024380445
-0.022615798 0.0083321361 0.018464148
-0.021436734 0.0083365077 0.016785353
-0.020362953 0.0083847456 0.015568912
-0.01927432 0.008432515 0.015131891
-0.04765527 0.0095310537 0.01669389
-0.046229146 0.0094829015 0.019222111
-0.044733953 0.0094176745 0.022843808
-0.043348994 0.0093727559 0.023626119
-0.042182565 0.0093739033 0.022514284
-0.041019853 0.0093759662 0.022519231
-0.039920405 0.0093930364 0.024224907
-0.038754329 0.0093949893 0.024229914
-0.037501976 0.009375494 0.025012672
-0.036329608 0.0093753831 0.023534507
-0.035164349 0.0093771592 0.024098247
-0.033998434 0.0093788784 0.024102658
-0.032818269 0.0093766479 0.026320577
-0.031651601 0.0093782516 0.023429811
-0.030484343 0.0093797976 0.024747699
-0.029194828 0.0093423445 0.026698679
-0.028172977 0.0093909921 0.026702732
-0.026965259 0.0093792202 0.027899563
-0.02582995 0.0093927085 0.027294755
-0.024728201 0.0094202673 0.026251256
-0.023802098 0.009520839 0.020238936
-0.022642508 0.0095336875 0.018171012
-0.02145985 0.0095377108 0.017978221
-0.020360965 0.009581631 0.016104221
-0.019166211 0.0095831053 0.017811447
-0.052995544 0.010839998 0.015900075
-0.046240915 0.01067098 0.018031895
-0.045026783 0.010664238 0.018982947
-0.04385205 0.010666715 0.018987328
-0.042278703 0.010569676 0.023411661
-0.041174974 0.010587851 0.023926973
-0.040025692 0.010595037 0.025511354
-0.038882606 0.010604347 0.025200725
-0.037606943 0.010576953 0.026518375
-0.036429431 0.010576287 0.022779614
-0.03516249 0.010548746 0.026115209
-0.033996634 0.010550681 0.024101406
-0.032860804 0.010562401 0.025686771
-0.031692624 0.010564207 0.022796065
-0.030644054 0.010607557 0.022264481
-0.029298235 0.010547364 0.025261402
-0.028205076 0.010576904 0.026263207
-0.027001625 0.010565854 0.027265161
-0.025900895 0.010595821 0.026002914
-0.024981294 0.010706268 0.022816479
-0.02383006 0.010723527 0.01965338
-0.022692215 0.010748944 0.018900752
-0.021538733 0.010769366 0.018050373
-0.020359887 0.010778763 0.017833054
-0.019165194 0.010780421 0.018541455
-0.018006569 0.010803942 0.01754421
-0.045289319 0.011918242 0.01619038
-0.043932565 0.011873666 0.018573463
-0.042612799 0.011836889 0.020156145
-0.041438222 0.011839492 0.021447957
-0.040120397 0.011800117 0.022570133
-0.038948476 0.011802568 0.02405709
-0.037775837 0.011804949 0.024061948
-0.036436707 0.011753776 0.026205957
-0.035446718 0.011815573 0.023949653
-0.034227364 0.011802539 0.023540646
-0.033095531 0.011819832 0.02332589
-0.031919003 0.011821853 0.023329854
-0.030741883 0.011823801 0.024647623
-0.029644802 0.011857921 0.023361742
-0.028353825 0.011814093 0.024801344
-0.027285565 0.011863289 0.023952991
-0.026108248 0.011867385 0.023858935
-0.02501433 0.011911586 0.022376835
-0.023866396 0.011933198 0.020528942
-0.022733675 0.011965092 0.017998457
-0.021547321 0.011970733 0.017830044
-0.020357644 0.011975085 0.018075585
-0.019162107 0.011976318 0.018077463
-0.017967127 0.011978084 0.018054843
-0.046372414 0.013079398 0.016452372
-0.045286376 0.013109215 0.016189337
-0.043992583 0.013078876 0.019179225
-0.042791419 0.013075155 0.01886788
-0.041448276 0.013026602 0.021300852
-0.040272653 0.013029388 0.020746678
-0.038945939 0.012981979 0.02405557
-0.037773374 0.012984598 0.024060398
-0.036618952 0.012993822 0.025985479
-0.035444409 0.012996283 0.025844485
-0.034225129 0.012981946 0.024706304
-0.033093367 0.013000966 0.024102658
-0.031916916 0.013003189 0.024228424
-0.030739876 0.013005332 0.025156945
-0.029539447 0.012997357 0.025014877
-0.028389936 0.013012054 0.024556309
-0.027314574 0.013063491 0.022758693
-0.026130643 0.013065321 0.022761881
-0.025012694 0.013101888 0.021498859
-0.023859965 0.01312298 0.020624965
-0.022689385 0.01313596 0.020164758
-0.021536047 0.013160918 0.019314617
-0.020341817 0.013162353 0.019316733
-0.019097514 0.013129541 0.02039063
-0.017905649 0.013130809 0.019661695
-0.016732214 0.013146739 0.017665416
-0.047970973 0.014391292 0.015137225
-0.046369113 0.014267419 0.019387215
-0.045167871 0.014263539 0.0187608
-0.043989453 0.014266849 0.019420594
-0.04281022 0.014270074 0.018769413
-0.041543078 0.01424334 0.019332111
-0.040364761 0.014246386 0.019214779
-0.039091494 0.014215089 0.020482212
-0.037790123 0.014171296 0.023815662
-0.036623873 0.014176982 0.02622667
-0.035441875 0.014176751 0.025842637
-0.034273807 0.014182265 0.025677204
-0.033157393 0.014210312 0.02483058
-0.032070614 0.014253606 0.023472637
-0.030821485 0.014225301 0.024668574
-0.029649869 0.014231937 0.023723543
-0.028468212 0.014234106 0.023727149
-0.027312618 0.014250061 0.022757053
-0.026128771 0.014252057 0.022760272
-0.025047971 0.014313126 0.021667719
-0.023790078 0.014274047 0.02215749
-0.022603318 0.014275781 0.022160202
-0.021406278 0.014270851 0.022381902
-0.020219246 0.014272409 0.022920191
-0.019031834 0.014273876 0.022094369
-0.017904365 0.014323492 0.019660264
-0.016731013 0.014340868 0.017664164
-0.049308252 0.015634324 0.015423298
-0.047887221 0.015563346 0.017731488
-0.046372626 0.015457543 0.020234883
-0.045178209 0.015455703 0.020409584
-0.043986049 0.015454557 0.019540459
-0.042806908 0.01545805 0.019107878
-0.041510113 0.015418041 0.019670606
-0.040361635 0.015432389 0.020112038
-0.039182663 0.015435595 0.022497118
-0.038037963 0.015452922 0.022064269
-0.036783021 0.015425138 0.024134427
-0.035561278 0.015409888 0.024211913
-0.034382202 0.015412712 0.024216354
-0.033294406 0.015458116 0.022907495
-0.032069765 0.015440998 0.023300558
-0.030887082 0.015443541 0.024009854
-0.029703826 0.01544599 0.022821486
-0.02857404 0.015477604 0.021924645
-0.027310492 0.015436365 0.021781802
-0.026089255 0.015416377 0.023440003
-0.024927162 0.0154311 0.023077995
-0.023723707 0.01542041 0.024687827
-0.022496309 0.015392211 0.025616139
-0.021311462 0.015391611 0.025692135
-0.020188686 0.015438407 0.023600399
-0.019030351 0.01546216 0.022920787
-0.01790297 0.015515908 0.021315247
-0.047963265 0.016787143 0.017293423
-0.046406604 0.016658781 0.021082282
-0.045190573 0.016649159 0.021087348
-0.044011559 0.016653024 0.019223303
-0.042816442 0.016650839 0.018960565
-0.041750986 0.016700394 0.018697649
-0.04039542 0.016633408 0.020717531
-0.039463978 0.016742293 0.019045681
-0.038283587 0.016749069 0.01895228
-0.037109543 0.016759148 0.019296199
-0.03591926 0.01676232 0.019883245
-0.034492124 0.01665137 0.023728102
-0.033305228 0.016652614 0.023780972
-0.032113038 0.016651206 0.023930937
-0.030936664 0.016658204 0.025613248
-0.029757591 0.016664252 0.023719728
-0.028571643 0.016666792 0.022287756
-0.027324991 0.016632603 0.021487921
-0.026123205 0.016623858 0.022805244
-0.024925066 0.016616711 0.023076057
-0.023721712 0.016605198 0.02468577
-0.022474755 0.016560346 0.026027888
-0.021294326 0.016562253 0.026030898
-0.020113504 0.016564062 0.027105302
-0.019216778 0.016814681 0.020117939
-0.018135302 0.016926281 0.017416149
-0.016938895 0.016938895 0.01710102
-0.015745344 0.016956523 0.015445799
-0.014535296 0.016957846 0.015032828
-0.047796473 0.017923677 0.018916816
-0.046480495 0.017877113 0.020279884
-0.0452234 0.017851342 0.021061152
-0.044119857 0.017886428 0.018639117
-0.042945866 0.017894112 0.017478079
-0.041834343 0.017929003 0.017724782
-0.040647756 0.017932834 0.019039989
-0.039522555 0.017964797 0.018825293
