ply
format ascii 1.0
comment PCL generated
element vertex 1299
property float x
property float y
property float z
element camera 0
property float view_px
property float view_py
property float view_pz
property float x_axisx
property float x_axisy
property float x_axisz
property float y_axisx
property float y_axisy
property float y_axisz
property float z_axisx
property float z_axisy
property float z_axisz
property float focal
property float scalex
property float scaley
property float centerx
property float centery
property int viewportx
property int viewporty
property float k1
property float k2
end_header
-0.056889098 -0.0023220039 0.025516242
-0.05568663 -0.0023202763 0.026008159
-0.054232214 -0.0023077538 0.029964209
-0.052915223 -0.0023006618 0.031281233
-0.05177943 -0.0023013079 0.030635595
-0.05052001 -0.0022963639 0.031759262
-0.049385093 -0.0022969812 0.031767815
-0.048254367 -0.002297827 0.030927151
-0.047117546 -0.002298417 0.030498385
-0.046072077 -0.0023036038 0.028952777
-0.04476795 -0.0022957923 0.03063485
-0.043293681 -0.0022786148 0.034187108
-0.042447228 -0.0022944447 0.032325029
-0.041374933 -0.0022986075 0.031603575
-0.040245116 -0.0022997209 0.031513333
-0.039266817 -0.0023098127 0.028482288
-0.038218096 -0.0023162481 0.026981205
-0.03714136 -0.002321335 0.02504164
-0.035987735 -0.0023217895 0.024681807
-0.034773245 -0.0023182163 0.025318801
-0.033620302 -0.0023186414 0.025323451
-0.032478657 -0.002319904 0.024865657
-0.031437397 -0.0023286962 0.022850156
-0.030314431 -0.0023318792 0.022294134
-0.029250486 -0.002340039 0.023393095
-0.027975194 -0.0023312662 0.024613947
-0.026813485 -0.0023316075 0.022109538
-0.025700836 -0.0023364397 0.023476452
-0.024630528 -0.0023457645 0.019679993
-0.061844535 -0.001189318 0.015116632
-0.060082145 -0.0011780813 0.019766778
-0.058332447 -0.0011666489 0.023112714
-0.057183221 -0.0011670045 0.024499714
-0.055687144 -0.0011601489 0.028357446
-0.054232713 -0.0011538876 0.031805485
-0.052915715 -0.0011503416 0.032565743
-0.051602669 -0.001146726 0.03233254
-0.050419137 -0.0011458895 0.032414138
-0.049286488 -0.0011461974 0.03242287
-0.048152938 -0.0011464986 0.032431394
-0.047030937 -0.001147096 0.031493425
-0.045810401 -0.0011452601 0.032205135
-0.044337604 -0.0011368616 0.035053194
-0.043211043 -0.0011371328 0.034673065
-0.042265654 -0.001142315 0.03271392
-0.041467145 -0.0011518651 0.02951479
-0.04041345 -0.00115467 0.028500736
-0.039267182 -0.0011549172 0.028482556
-0.038120192 -0.0011551572 0.028488487
-0.036991943 -0.0011559982 0.028251112
-0.03598053 -0.0011606623 0.025897861
-0.034810051 -0.001160335 0.025367707
-0.03363296 -0.0011597573 0.026442707
-0.032478958 -0.0011599627 0.025425494
-0.031432766 -0.0011641765 0.0260382
-0.030314712 -0.0011659504 0.024947286
-0.029062105 -0.0011624842 0.026411802
-0.027903877 -0.0011626616 0.025807202
-0.026745129 -0.0011628318 0.022840232
-0.025701078 -0.0011682308 0.021504045
-0.060656101 0 0.015508622
-0.059034482 0 0.018877476
-0.057720173 0 0.020384222
-0.055739619 0 0.026347548
-0.05423288 0 0.031006217
-0.052915879 0 0.03128162
-0.051540114 0 0.033423334
-0.050419293 0 0.032802135
-0.049276218 0 0.032907993
-0.048035927 0 0.034832895
-0.046687882 0 0.03627336
-0.045560569 0 0.034850568
-0.04438271 0 0.03536889
-0.043278072 0 0.035134494
-0.042265784 0 0.033223987
-0.041349214 0 0.031895459
-0.040215854 0 0.030930638
-0.039124768 0 0.030353963
-0.037981935 0 0.030165792
-0.036992058 0 0.029320955
-0.035980646 0 0.028791726
-0.034810159 0 0.027289212
-0.033583682 0 0.028072655
-0.03232237 0 0.02742067
-0.031278457 0 0.02808243
-0.030022133 0 0.030496627
-0.028998295 0 0.028481007
-0.02787913 0 0.023981273
-0.026745213 0 0.023522109
-0.025748037 0 0.020651698
-0.024790676 0 0.018632889
-0.057719994 0.0011779591 0.01883474
-0.056282867 0.0011725598 0.021140933
-0.054497417 0.0011595194 0.027178794
-0.0533114 0.0011589434 0.028470814
-0.051758092 0.0011501799 0.032114387
-0.050621819 0.0011504958 0.030959517
-0.049286488 0.0011461974 0.032810837
-0.047814194 0.0011384332 0.036943108
-0.046635512 0.0011374515 0.037462145
-0.045494899 0.0011373726 0.035675615
-0.044318669 0.0011363762 0.036024183
-0.04323642 0.0011378005 0.035595715
-0.042196013 0.0011404328 0.033515334
-0.041338157 0.0011482821 0.031118035
-0.040209353 0.0011488387 0.030007184
-0.039068874 0.0011490845 0.031010032
-0.037933689 0.0011495057 0.031770021
-0.036991943 0.0011559982 0.029539675
-0.03598053 0.0011606623 0.031661063
-0.034826469 0.0011608823 0.030013174
-0.033583578 0.0011580545 0.028072566
-0.032204751 0.0011501698 0.030899912
-0.031059897 0.0011503665 0.030905217
-0.029982487 0.0011531726 0.028379053
-0.028865842 0.0011546337 0.027872324
-0.027800163 0.0011583401 0.025295883
-0.026763331 0.0011636231 0.023254216
-0.025826985 0.0011739539 0.019214809
-0.024790598 0.0011805047 0.017926484
-0.057719462 0.0023558964 0.017890453
-0.056282349 0.0023450979 0.021140724
-0.054966539 0.0023390017 0.023181707
-0.053447437 0.0023238016 0.026604801
-0.052054822 0.0023135475 0.029472232
-0.050869361 0.0023122437 0.030110717
-0.049541511 0.0023042564 0.031889021
-0.047813747 0.002276845 0.037500679
-0.046637569 0.0022750034 0.037049294
-0.045543011 0.0022771508 0.036282003
-0.044415299 0.0022777074 0.035198539
-0.043325976 0.0022803145 0.034794152
-0.042224824 0.002282423 0.034340769
-0.041224085 0.0022902268 0.0351502
-0.040164329 0.0022951046 0.032995492
-0.039068509 0.0022981477 0.032492161
-0.038061678 0.0023067682 0.030870348
-0.037129689 0.0023206056 0.03004998
-0.035976429 0.0023210598 0.030055851
-0.034760475 0.002317365 0.030402005
-0.033348702 0.0022999104 0.031307667
-0.032124404 0.0022946002 0.032043159
-0.03101854 0.0022976696 0.031513274
-0.029980628 0.0023062022 0.028403103
-0.028865572 0.0023092458 0.027872086
-0.027799902 0.0023166586 0.026342541
-0.026950695 0.0023435387 0.02128166
-0.025881659 0.002352878 0.019555539
-0.024790367 0.0023609872 0.020215809
-0.023834562 0.0023834561 0.016442657
-0.022645587 0.002383746 0.015811235
-0.015479073 0.0023813958 0.015089393
0.067154244 0.0023562892 0.016757369
0.068304829 0.002355339 0.017910033
0.0696605 0.0023613728 0.017421037
-0.059350491 0.0035610294 0.015851796
-0.058041822 0.0035535807 0.016195565
-0.056447119 0.0035279449 0.019760132
-0.05502262 0.0035120822 0.022018611
-0.053616587 0.003496734 0.025126338
-0.052135818 0.0034757212 0.028744727
-0.050868575 0.0034683119 0.030813277
-0.049545959 0.003456695 0.031912804
-0.048123732 0.0034374096 0.034613639
-0.046878073 0.003430103 0.034695297
-0.045542311 0.0034156733 0.036742568
-0.04441461 0.0034165084 0.036751539
-0.043352988 0.0034226042 0.034356534
-0.042253375 0.0034259493 0.034000248
-0.041195024 0.0034329188 0.031943172
-0.040070165 0.0034345856 0.033067852
-0.038950164 0.0034367789 0.033876896
-0.038061086 0.0034600988 0.032328278
-0.037010472 0.0034697319 0.031143516
-0.035736535 0.0034583742 0.032559991
-0.034482673 0.0034482672 0.033368766
-0.033312909 0.0034461629 0.033739775
-0.032146048 0.0034442192 0.033186197
-0.031003274 0.0034448083 0.03319183
-0.029980158 0.0034592492 0.031347603
-0.028953364 0.0034744036 0.02733615
-0.028020043 0.0035025054 0.022787631
-0.026950274 0.0035152531 0.023277968
-0.025881257 0.0035292623 0.02147913
-0.024795096 0.0035421567 0.020118058
-0.023830537 0.0035745804 0.016515493
-0.022641763 0.0035750151 0.015884072
-0.021409804 0.0035683007 0.016836137
-0.020222576 0.00356869 0.016838014
-0.018986234 0.0035599188 0.018180072
-0.017851586 0.0035703171 0.016841322
-0.016626304 0.0035627794 0.017208487
-0.015478832 0.0035720381 0.01601547
-0.014289266 0.0035723166 0.015090346
0.061175734 0.0035985727 0.015217841
0.065386318 0.0035665263 0.016140372
0.066011459 0.003536328 0.018284589
0.066908926 0.0035215223 0.020089149
0.067890801 0.0035115932 0.021288991
0.069207452 0.0035190228 0.022946179
0.070814341 0.0035407171 0.019874632
0.07215181 0.0035484498 0.018661797
0.073635846 0.0035630248 0.015159994
-0.058182918 0.0047496259 0.015444756
-0.056873053 0.004739421 0.016635925
-0.055422734 0.0047168285 0.019038796
-0.053866208 0.004684018 0.022945166
-0.052134689 0.0046341945 0.029398471
-0.050803475 0.004618498 0.031394422
-0.049544889 0.0046088267 0.031912118
-0.048122693 0.0045831134 0.034612864
-0.046979021 0.0045833192 0.033699811
-0.045745175 0.0045745177 0.034242153
-0.044482283 0.0045622853 0.034274787
-0.043354351 0.0045636161 0.03387019
-0.042438909 0.0045879902 0.031983823
-0.04130125 0.0045890282 0.031991065
-0.040162835 0.0045900382 0.032994241
-0.038961709 0.0045837304 0.035188437
-0.037847701 0.0045876 0.035268664
-0.03670821 0.0045885262 0.034911096
-0.035568032 0.0045894235 0.033337384
-0.034454562 0.0045939418 0.032978892
-0.033312183 0.0045947838 0.033787668
-0.032169189 0.0045955982 0.033793688
-0.031027239 0.0045966278 0.033775091
-0.029979507 0.0046122321 0.03283149
-0.029185498 0.0046696798 0.025826365
-0.028023813 0.0046706353 0.025099963
-0.026949689 0.0046869023 0.023545325
-0.025934266 0.0047153211 0.020504564
-0.024794554 0.0047227722 0.020117611
-0.023755724 0.0047511449 0.01800102
-0.022570681 0.0047517223 0.015250325
-0.021275578 0.0047279061 0.017688513
-0.020095794 0.004728422 0.017617345
-0.01894293 0.0047357325 0.019251943
-0.017826518 0.0047537382 0.017499
-0.016625941 0.0047502685 0.017208129
-0.015458686 0.0047565186 0.018208981
-0.014270671 0.0047568902 0.016625851
0.042857811 0.004761979 0.016809255
0.043952979 0.0047516734 0.016562611
0.045218062 0.004759796 0.016801566
0.053966943 0.0047970614 0.015705019
0.055145152 0.0047952305 0.015603721
0.056356266 0.0047962782 0.015502334
0.061174419 0.0047979937 0.015217513
0.062046051 0.004772773 0.016857326
0.063049063 0.0047584199 0.016150743
0.064217567 0.0047568572 0.016145438
0.06485004 0.0047163665 0.020030051
0.06576319 0.0046973708 0.024395049
0.066866197 0.0046923649 0.02361393
0.068015337 0.0046907128 0.023605645
0.069163263 0.0046890345 0.023235232
0.070602991 0.0047068656 0.021634966
0.071951725 0.0047181458 0.021361709
0.073144898 0.0047190255 0.021618813
0.074459478 0.0047275862 0.020044625
-0.059719641 0.005971964 0.015125036
-0.057010956 0.0059386413 0.015473157
-0.055614728 0.0059164604 0.017391205
-0.054023527 0.0058721225 0.022896141
-0.052419521 0.0058243913 0.026852936
-0.050988726 0.0057941736 0.028387517
-0.049572181 0.0057642073 0.030917048
-0.048432056 0.0057657212 0.031652808
-0.047291044 0.0057672006 0.031660914
-0.045853108 0.0057316385 0.033949971
-0.044615943 0.0057199923 0.032429099
-0.043482307 0.0057213563 0.032436848
-0.042628668 0.0057606306 0.032614321
-0.041485921 0.0057619335 0.033933371
-0.040474217 0.005782031 0.032434523
-0.038960621 0.005729503 0.035187453
-0.037846647 0.0057343403 0.035267681
-0.036683843 0.0057318504 0.033767551
-0.035478469 0.0057223341 0.03447926
-0.034340512 0.0057234187 0.034485817
-0.03328656 0.0057390626 0.034711063
-0.032187022 0.0057476824 0.034230649
-0.031042794 0.0057486654 0.034236491
-0.03022228 0.0058119767 0.029472083
-0.029135998 0.0058271997 0.027943283
-0.028023027 0.0058381306 0.026584268
-0.027042735 0.0058788555 0.021694183
-0.025938895 0.0058952034 0.020455301
-0.024793858 0.0059032994 0.019678652
-0.023586985 0.0058967462 0.020265788
-0.022346718 0.0058807153 0.019951582
-0.021136837 0.0058713439 0.022268414
-0.019964747 0.0058719846 0.02300182
-0.018792287 0.0058725895 0.023101658
-0.017826017 0.0059420057 0.017595977
-0.016639123 0.005942544 0.018426299
-0.015458252 0.0059454818 0.01913479
-0.014270269 0.0059459456 0.015211493
-0.013091407 0.0059506395 0.016553432
-0.011902669 0.0059513343 0.016530097
-0.010725656 0.0059586973 0.01597029
-0.0095432 0.0059644999 0.015166491
-0.0083506908 0.0059647793 0.015167207
0.0337555 0.0060277679 0.015010864
0.034893133 0.0060160575 0.017659605
0.040772121 0.0059958999 0.016087055
0.041624308 0.0059463293 0.018731862
0.042804148 0.0059450208 0.017391771
0.043947265 0.0059388196 0.017727792
0.045083027 0.0059319772 0.018209249
0.046483222 0.0059593874 0.019734174
0.047872145 0.0059840181 0.017642349
0.053965442 0.0059961602 0.015559167
0.056354705 0.0059951814 0.01535657
0.058572739 0.0059768101 0.0166789
0.05974989 0.0059749889 0.016673833
0.060925964 0.0059731337 0.018507302
0.061921716 0.0059540109 0.019879967
0.06304732 0.0059478604 0.018132806
0.06367743 0.0058960584 0.021413833
0.064333312 0.0058484832 0.023774475
0.065480731 0.0058464939 0.026761353
0.066688888 0.0058499025 0.026317447
0.068013474 0.0058632302 0.025559992
0.069161355 0.0058611319 0.023741305
0.070394829 0.0058662356 0.026265115
0.071571045 0.0058664791 0.02659294
0.072862722 0.0058760257 0.026799858
0.074252546 0.0058930591 0.025247782
0.076438457 0.0059717549 0.018398702
0.077938735 0.0059952876 0.015695333
-0.055806372 0.0071242177 0.017560184
-0.054269671 0.0070786527 0.020739049
-0.053091165 0.0070788218 0.019872427
-0.051266983 0.006990952 0.025841236
-0.050097041 0.0069902851 0.026017904
-0.048944846 0.0069921208 0.026291549
-0.047729582 0.0069848169 0.026904821
-0.046577115 0.0069865673 0.026693165
-0.044877112 0.0069041708 0.030194908
-0.043748375 0.0069076377 0.030347764
-0.042703584 0.0069249053 0.031787544
-0.041558832 0.0069264718 0.033106357
-0.040504724 0.0069436673 0.032068968
-0.039103877 0.0069006844 0.033582449
-0.037821289 0.0068765981 0.035558164
-0.036614526 0.0068652234 0.034617215
-0.035454649 0.0068621901 0.034769893
-0.034339335 0.0068678674 0.034484655
-0.033311877 0.0068921125 0.037117898
-0.032189324 0.0068977126 0.034399778
-0.031253606 0.0069452454 0.031315506
-0.030221246 0.0069741337 0.030274153
-0.029135 0.0069924002 0.028185725
-0.02814476 0.00703619 0.024538487
-0.027055807 0.0070580365 0.022423863
-0.026007649 0.0070929951 0.019188344
-0.024841594 0.0070975982 0.018752545
-0.023514325 0.0070542977 0.02170217
-0.022252226 0.0070270188 0.024652392
-0.021058273 0.0070194243 0.023997426
-0.019820124 0.0069953375 0.026485324
-0.018734131 0.0070252991 0.024538577
-0.017608816 0.007043526 0.024199784
-0.01641079 0.0070331953 0.023787647
-0.015239874 0.0070337881 0.023789644
-0.014068673 0.0070343367 0.022645801
-0.013090956 0.0071405214 0.016821027
-0.01190226 0.0071413554 0.016797751
-0.010725287 0.0071501909 0.016237944
-0.0095428722 0.0071571544 0.015165955
-0.0012024218 0.0072145313 0.016095698
0.033604484 0.007200961 0.015691519
0.034777317 0.0071953069 0.01544553
0.035937108 0.0071874214 0.015880436
0.037127979 0.0071860608 0.017044544
0.03838817 0.0071977819 0.016166061
0.039579816 0.00719633 0.016964853
0.040605489 0.0071656741 0.0174959
0.041588876 0.0071295216 0.019119918
0.042737108 0.007122851 0.018119842
0.043945767 0.0071263402 0.017775774
0.045037664 0.0071112104 0.021097779
0.046365678 0.0071331812 0.02092281
0.047683667 0.0071525499 0.019510269
0.049054991 0.0071787788 0.017637342
0.050314963 0.0071878522 0.016420096
0.051499415 0.0071859648 0.016973466
0.052682918 0.0071840342 0.016968936
0.053791847 0.0071722465 0.017618597
0.054971796 0.0071702339 0.015287787
0.056173503 0.0071710856 0.016373307
0.05742453 0.0071780663 0.015763193
0.058529239 0.0071668457 0.016363651
0.059285063 0.0071142074 0.01933521
0.060451977 0.0071119973 0.01932919
0.061536066 0.0071003153 0.020749897
0.063090034 0.0071422681 0.022290498
0.063593715 0.0070659681 0.022718221
0.064331144 0.0070179431 0.025054157
0.065478519 0.0070155556 0.026760399
0.066624716 0.0070131277 0.026751161
0.06801118 0.0070356391 0.026427984
0.0691875 0.0070360173 0.027190596
0.070370756 0.0070370757 0.027156591
0.071539223 0.007036645 0.029364556
0.072699651 0.0070354496 0.02952224
0.073882014 0.0070363819 0.027728289
0.075965829 0.0071217967 0.021360099
0.077799216 0.0071814661 0.017187297
-0.057300203 0.0083562797 0.016125739
-0.055977732 0.0083371093 0.016614854
-0.05463247 0.0083136372 0.016571224
-0.053168096 0.0082705924 0.019144595
-0.051451579 0.0081854779 0.024143338
-0.050113272 0.0081579741 0.025847137
-0.04922555 0.008204258 0.023598403
-0.047727663 0.0081486255 0.026903719
-0.046378691 0.0081162713 0.028657556
-0.04501256 0.0080791777 0.030387878
-0.04376737 0.0080624102 0.031463295
-0.042625494 0.0080642831 0.032611877
-0.041463163 0.0080622816 0.032837838
-0.040218245 0.0080436487 0.035323054
-0.038775962 0.0079832869 0.037420332
-0.037703469 0.0079977056 0.036698967
-0.036616936 0.0080099553 0.034567207
-0.035479594 0.0080115218 0.034403771
-0.034456503 0.0080398507 0.035577565
-0.03352214 0.0080915513 0.032714009
-0.032404292 0.0081010731 0.029435694
-0.031355809 0.0081292838 0.027591527
-0.030220024 0.0081361607 0.028496474
-0.029133823 0.0081574703 0.02738142
-0.028143622 0.0082085561 0.024537474
-0.027040713 0.0082297819 0.02339682
-0.026019989 0.008279087 0.021257311
-0.024685886 0.0082286289 0.026033342
-0.023435432 0.008202401 0.026060998
-0.022238597 0.0081931669 0.026405215
-0.020982873 0.0081600063 0.026871175
-0.019819319 0.0081608966 0.028360307
-0.018667093 0.0081668533 0.030312568
-0.017583426 0.0082055992 0.028609663
-0.016410124 0.0082050618 0.023786664
-0.015239256 0.0082057528 0.023788661
-0.014068102 0.0082063936 0.023790509
-0.013091096 0.0083306972 0.018087953
-0.011901777 0.0083312439 0.016797066
-0.010712234 0.0083317375 0.016798049
-0.0094542224 0.0082724448 0.021260768
-0.008318916 0.008318916 0.019481808
-0.0071307891 0.008319254 0.019482642
-0.0059611211 0.0083455695 0.016264528
-0.0048034145 0.0084059751 0.015411496
-0.0035962386 0.0083912229 0.018045515
-0.0023926524 0.0083742831 0.018679857
-0.0011963374 0.0083743623 0.018509328
0.0072240569 0.008428066 0.016020149
0.008437111 0.008437111 0.015483081
0.019296737 0.0084423227 0.016130954
0.020500673 0.0084414538 0.01710391
0.021649415 0.0084192166 0.018320113
0.022910846 0.0084408382 0.016320556
0.02411375 0.0084398128 0.015904516
0.030110426 0.0084309196 0.015333593
0.033582695 0.0083956737 0.01556927
0.034775916 0.0083941864 0.017098844
0.035935659 0.0083849868 0.017533422
0.037126478 0.0083833989 0.018697202
0.038316615 0.0083817588 0.019131094
0.039498013 0.0083783669 0.019224435
0.04060385 0.0083596157 0.019147545
0.041542556 0.0083085112 0.020309538
0.042621717 0.0082875565 0.021398038
0.043795746 0.0082856817 0.023408711
0.044904392 0.0082718618 0.024083018
0.046070371 0.0082690408 0.023931682
0.047240116 0.0082670199 0.023925841
0.04876706 0.0083260834 0.020426452
0.050297666 0.0083829444 0.017341048
0.051408719 0.0083688609 0.017797202
0.05260881 0.0083695836 0.017622739
0.053770605 0.0083643161 0.017787546
0.054933369 0.0083594257 0.018412441
0.056111485 0.0083570294 0.018407166
0.057349596 0.0083634825 0.019927144
0.0585269 0.0083609857 0.019921213
0.059086077 0.0082720509 0.024924189
0.060249086 0.0082694823 0.02491647
0.061410997 0.0082668653 0.026190281
0.063087516 0.008332313 0.023498386
0.063591175 0.008243301 0.02411902
0.064574398 0.0082185594 0.023772717
0.065384619 0.0081730774 0.026203901
0.066336513 0.0081465896 0.029236794
0.067462556 0.0081420327 0.029347181
0.068832457 0.0081665628 0.030760109
0.070331782 0.0082053747 0.030242443
0.071477562 0.0082023432 0.030231267
0.072681822 0.0082060127 0.030822426
0.07384114 0.008204571 0.029726624
0.075153723 0.0082199387 0.03221947
0.07711944 0.0083051706 0.023517221
0.078961529 0.0083747068 0.019345254
-0.054799888 0.0095304158 0.015092671
-0.053211987 0.0094599081 0.018756002
-0.052043784 0.0094625065 0.02086997
-0.050441969 0.0093845529 0.024900377
-0.049281836 0.0093870163 0.025513202
-0.047807507 0.0093282945 0.026101947
-0.046505138 0.0093010273 0.028195232
-0.04522818 0.0092775747 0.029488444
-0.043744579 0.0092093851 0.033258259
-0.042495489 0.0091882143 0.032853216
-0.041428447 0.0092063211 0.030893385
-0.040216375 0.009192314 0.031701833
-0.0390695 0.0091928234 0.034235567
-0.037751839 0.0091519607 0.036381334
-0.03673774 0.009184435 0.034565598
-0.03559665 0.0091862325 0.032992065
-0.034730289 0.0092614098 0.029885709
-0.03360169 0.0092694312 0.02957502
-0.032510057 0.0092885885 0.030723572
-0.031354349 0.0092901774 0.027833551
-0.030242341 0.0093053356 0.028470814
-0.02921156 0.0093476996 0.026430935
-0.028165674 0.0093885576 0.026824445
-0.027064648 0.0094137909 0.026171058
-0.025891552 0.0094151096 0.026174724
-0.024602911 0.009372537 0.028637767
-0.023411199 0.0093644802 0.02805692
-0.022112601 0.0093105687 0.029326946
-0.020872271 0.0092765642 0.031035542
-0.019727275 0.0092834234 0.031014591
-0.018573631 0.0092868153 0.032625943
-0.017441876 0.0093023339 0.032361031
-0.016380355 0.0093602035 0.02705121
-0.015221907 0.0093673272 0.02566427
-0.014055745 0.0093704965 0.025544405
-0.012953732 0.0094208959 0.024400532
-0.011764703 0.0094117625 0.024889708
-0.010588861 0.0094123213 0.026305169
-0.0094498787 0.0094498787 0.02445361
-0.0082724448 0.0094542224 0.022626162
-0.0071044876 0.0094726505 0.01945734
-0.0059236572 0.0094778519 0.019214183
-0.0047927042 0.0095854085 0.017312735
-0.0035946069 0.009585619 0.017313093
-0.0023908333 0.0095633334 0.018410712
-0.001192014 0.0095361117 0.017216027
0 0.0095361415 0.0160456
0.0036050314 0.0096134171 0.017605782
0.004816113 0.0096322261 0.016654372
0.0060086949 0.0096139116 0.016922146
0.0071717836 0.0095623778 0.019481719
0.0084115416 0.0096131908 0.017798603
0.0096224928 0.0096224928 0.015676647
0.016833279 0.0096190171 0.015158445
0.018058697 0.009631305 0.016862839
0.019247105 0.0096235527 0.018323153
0.020447943 0.0096225617 0.018321246
0.021551933 0.0095786368 0.02046299
0.022746637 0.0095775323 0.020363212
0.023940921 0.0095763681 0.020068467
0.0253815 0.0096691428 0.015365988
0.03010902 0.0096348859 0.01562494
0.031145498 0.0095832301 0.018128872
0.032180414 0.0095349373 0.019050419
0.03343809 0.0095537398 0.017611891
0.034675546 0.0095656682 0.016806185
0.035864681 0.0095639145 0.018456668
0.037124749 0.0095805805 0.01962015
0.038307048 0.0095767621 0.019835114
0.039415974 0.0095553873 0.020803213
0.040298358 0.0094819665 0.023010015
0.041438594 0.0094716791 0.023418069
0.042558532 0.0094574522 0.026108772
0.043730825 0.009455313 0.026102871
0.044860795 0.0094443783 0.0242033
0.045957014 0.0094270799 0.024949908
0.0471991 0.0094398204 0.024191618
0.048289884 0.0094224159 0.025349975
0.049648527 0.0094568627 0.026459008
0.051343791 0.0095523335 0.019808769
0.052523721 0.0095497677 0.019803464
0.05338373 0.0094904415 0.022633255
0.054705165 0.0095139416 0.023498982
0.055980835 0.0095286528 0.021530509
0.057285935 0.0095476555 0.020434678
0.058458962 0.0095443204 0.016894758
0.059071254 0.0094514005 0.021293491
0.060153782 0.0094358874 0.021915823
0.061395597 0.0094454763 0.028655648
0.062697046 0.0094637042 0.029105663
0.063859031 0.0094605973 0.027573645
0.064578071 0.0093931742 0.030125201
0.065381616 0.0093402304 0.027796596
0.06644699 0.0093258936 0.028462917
0.067459464 0.0093047535 0.033979386
0.068598002 0.009301424 0.034208477
0.069970444 0.0093293926 0.034268379
0.071261063 0.009345714 0.032616466
0.072473064 0.0093513634 0.035303175
0.073625304 0.0093492446 0.034639329
0.075150289 0.0093937861 0.032218009
0.076411881 0.0094045391 0.030087203
0.078271128 0.0094874091 0.027091771
-0.053713504 0.010742701 0.01638037
-0.052326337 0.010703114 0.021983802
-0.050540969 0.010578342 0.025335461
-0.049312349 0.010566932 0.025196612
-0.047804996 0.01049378 0.026706994
-0.046502694 0.010463106 0.027150452
-0.045337014 0.010462387 0.027302682
-0.044185054 0.010464881 0.027843237
-0.042567369 0.010354225 0.032875776
-0.041426264 0.010356566 0.032883197
-0.040333282 0.010371415 0.033546329
-0.039189287 0.010373634 0.035351425
-0.037926283 0.010343531 0.036792547
-0.036784418 0.010345617 0.036799967
-0.035879269 0.010416563 0.029878467
-0.034932707 0.010479812 0.029178977
-0.033663388 0.010447258 0.028697938
-0.03262753 0.010487421 0.029019237
-0.031387176 0.010462392 0.02732116
-0.030470075 0.010547333 0.024941057
-0.029316487 0.010553936 0.024969339
-0.028164184 0.010561569 0.026944727
-0.027026821 0.010575713 0.026826978
-0.025768323 0.010541586 0.028413296
-0.024542801 0.010518343 0.031168699
-0.023234613 0.010455576 0.031562328
-0.0220397 0.010439858 0.032637894
-0.020871162 0.010435581 0.032885224
-0.01972623 0.010443298 0.032742649
-0.018572645 0.010447114 0.033355147
-0.01744095 0.01046457 0.032627374
-0.016306136 0.010482516 0.03180173
-0.015216348 0.010534395 0.026881456
-0.014054999 0.010541249 0.026615441
-0.01292087 0.010571621 0.02556926
-0.011746407 0.010571766 0.025595307
-0.010572393 0.010572393 0.025596797
-0.0094103711 0.010586668 0.024915516
-0.0082370201 0.010590455 0.024624169
-0.0070876526 0.010631479 0.022308916
-0.0058919513 0.010605512 0.021724492
-0.0047363695 0.010656832 0.022919893
-0.0035858208 0.010757463 0.018458217
-0.0023838789 0.010727455 0.019775242
-0.0011867081 0.010680373 0.020287484
0 0.010680406 0.020287573
0.0011873787 0.010686408 0.021116555
0.0023888776 0.010749949 0.018287838
0.0035892955 0.010767886 0.019677401
0.0047814781 0.010758325 0.020091474
0.0059763743 0.010757473 0.019652009
0.0071607968 0.010741195 0.020334035
0.0083539234 0.010740759 0.021064639
0.0095688356 0.010764941 0.020868599
0.010793989 0.010793989 0.019551069
0.011992609 0.010793348 0.017697275
0.013195027 0.010795931 0.017549902
0.0144418 0.01083135 0.015940011
0.016846035 0.010829593 0.015328199
0.018057739 0.010834644 0.016861945
0.019154472 0.010774391 0.020612448
0.020367136 0.010782601 0.02019617
0.021528866 0.010764433 0.020949125
0.022745434 0.010774153 0.020362109
0.023939652 0.010772843 0.022161812
0.025313681 0.01084872 0.018116832
0.026585175 0.010875753 0.016848356
0.028907537 0.010840327 0.01562649
0.029959887 0.010785559 0.017984748
0.030992012 0.010728004 0.020463854
0.032144226 0.010714742 0.020679414
0.033329055 0.01071291 0.020675868
0.034550287 0.010722503 0.020915419
0.035735127 0.010720538 0.020911604
0.037034236 0.010751875 0.019837946
0.038091131 0.01071313 0.022386253
0.03927356 0.01071097 0.023329496
0.040310696 0.010670478 0.027139187
0.041436411 0.010655077 0.0257245
0.042429518 0.010607379 0.027734578
0.043517403 0.010585315 0.028602421
0.04468317 0.010582856 0.026046932
0.045945134 0.010602723 0.025336862
0.047111697 0.010600132 0.025330693
0.048269942 0.01059584 0.025518417
0.049597539 0.010628045 0.02468732
0.050947547 0.01066344 0.024147511
0.052118372 0.010660577 0.024141014
0.053288244 0.010657649 0.024134368
0.054551862 0.01067319 0.024805874
0.055775866 0.010680486 0.024338633
0.057047606 0.010696426 0.025929391
0.058194999 0.010688878 0.022581577
0.058959283 0.010612671 0.025115311
0.0601198 0.010609376 0.025107533
0.061310656 0.01061146 0.029282868
0.062693767 0.010646111 0.029104143
0.0638557 0.010642617 0.027572244
0.06470757 0.010588511 0.02915737
0.065378211 0.010507212 0.031175941
0.06644354 0.010491085 0.032710135
0.067455955 0.010467304 0.033422589
0.068594441 0.010463559 0.034761518
0.069966808 0.010495021 0.0336155
0.071257368 0.010513382 0.032614768
0.072413288 0.010511606 0.034650773
0.073538028 0.010505432 0.034733862
0.075146399 0.010567462 0.033492416
0.076407924 0.010579559 0.030085683
0.077838346 0.01061432 0.029688746
0.080476224 0.010810239 0.01943177
-0.052531213 0.011938912 0.016383916
-0.051147833 0.011894844 0.018279254
-0.049434222 0.011770053 0.023546159
-0.048212409 0.011759125 0.02326113
-0.046985198 0.011746299 0.023582369
-0.045518905 0.011671513 0.025408208
-0.044468392 0.011702209 0.024831712
-0.043308228 0.011704926 0.025323033
-0.042160377 0.011711216 0.025183082
-0.040998273 0.011713792 0.026475966
-0.039575215 0.011639769 0.02898404
-0.038324993 0.011613634 0.031614453
-0.037171125 0.011615977 0.03162083
-0.035920486 0.011587254 0.032866806
-0.035091121 0.01169704 0.028690964
-0.033961132 0.011710735 0.027212799
-0.032800976 0.011714634 0.027533799
-0.031634919 0.011716637 0.027538478
-0.030468278 0.011718568 0.028856933
-0.029316276 0.011726511 0.028618157
-0.028196108 0.011748378 0.027429938
-0.027025223 0.011750096 0.028480679
-0.025766797 0.01171218 0.030067146
-0.024519617 0.011676008 0.031799942
-0.023195494 0.011597747 0.033947021
-0.022023356 0.01159124 0.032952547
-0.020866636 0.011592576 0.032956332
-0.019712636 0.011595668 0.033252269
-0.018571544 0.011607216 0.032841533
-0.017439919 0.011626612 0.032113731
-0.016305169 0.011646549 0.02989915
-0.015143373 0.011648748 0.032509267
-0.014054165 0.011711804 0.029319137
-0.01291072 0.011737019 0.028126955
-0.011720116 0.011720116 0.026617527
-0.010571766 0.011746407 0.025595307
-0.0094020115 0.011752515 0.025304109
-0.0082339719 0.011762817 0.024915218
-0.0070883292 0.011813882 0.022892684
-0.0059077535 0.011815507 0.02316168
-0.0047360882 0.011840221 0.024040043
-0.0035486696 0.011828898 0.024552613
-0.0023658166 0.011829083 0.024553001
-0.0011823707 0.011823707 0.023577899
0 0.011821916 0.022066265
0.0011873082 0.011873082 0.021115273
0.0023842251 0.011921125 0.019188881
0.0035808536 0.011936178 0.021895021
0.0047709532 0.011927383 0.02223587
0.0059498106 0.011899621 0.021747559
0.0071395272 0.011899212 0.021722466
0.0083534289 0.011933469 0.022087276
0.0095546171 0.01194327 0.02154994
0.010763731 0.011959701 0.020866245
0.011974835 0.011974835 0.018378735
0.013178158 0.011980143 0.019303739
0.014392688 0.011993906 0.017913163
0.015643137 0.012033181 0.01630336
0.016799832 0.011999881 0.017349809
0.017957989 0.011971993 0.020832539
0.019015929 0.011884956 0.024265736
0.020230299 0.011900176 0.023605496
0.021367559 0.011870866 0.02567336
0.022611046 0.011900551 0.023161799
0.023798211 0.011899105 0.024425298
0.025291728 0.01204368 0.016216516
0.026583601 0.012083455 0.018575877
0.027788054 0.012081763 0.018865407
0.028764179 0.011985075 0.019714504
0.029901842 0.011960736 0.019419461
0.030949065 0.011903486 0.021095216
0.032050367 0.011870507 0.02286768
0.033231739 0.011868478 0.023496151
0.034412488 0.011866376 0.023492008
0.035488661 0.011829554 0.024873585
0.036689162 0.011835214 0.0251849
0.037865281 0.0118329 0.025301516
0.039130911 0.011857851 0.025029123
0.040291797 0.011850529 0.027331978
0.041433971 0.011838278 0.027714759
0.042427022 0.011785284 0.02972427
0.043514844 0.011760768 0.030130327
0.044678237 0.011757431 0.030147612
0.045935337 0.011778291 0.027252525
0.047101654 0.011775414 0.026226878
0.048267107 0.011772465 0.026220292
0.04962264 0.011814914 0.026771337
0.050944556 0.011847571 0.027806789
0.052120645 0.011845602 0.02743575
0.053249687 0.011833264 0.025950193
0.054295179 0.011803299 0.027008712
0.055459615 0.011799918 0.029132009
0.056646273 0.011801306 0.02977711
0.057794318 0.011794759 0.029042184
0.058955841 0.011791168 0.025113851
0.060116287 0.011787508 0.025106072
0.060989603 0.01172877 0.033246547
0.062264152 0.011747953 0.033187419
0.063418128 0.011744097 0.033176571
0.064511165 0.011729303 0.030556679
0.065496109 0.011695733 0.031294852
0.066439673 0.011656082 0.033142745
0.067452028 0.011629661 0.034771919
0.068590462 0.011625501 0.036062092
0.069904886 0.011650814 0.034867406
0.071267933 0.011683268 0.03466174
0.072409086 0.011678885 0.034648716
0.074045897 0.011753317 0.031070799
0.075742997 0.011834844 0.026267558
0.076927572 0.011835012 0.026064694
0.078179196 0.011845333 0.025958091
0.079931833 0.011930124 0.021763265
-0.051436387 0.013158146 0.017187178
-0.049695801 0.013015567 0.021022856
-0.048525009 0.013018905 0.020737201
-0.047168948 0.01297146 0.022028178
-0.046372414 0.013079398 0.016452372
-0.045339413 0.013124567 0.01563108
-0.044262063 0.013158992 0.016265899
-0.043093011 0.01316731 0.015516818
-0.041726682 0.0131141 0.018119097
-0.039832819 0.012887089 0.025921196
-0.038653262 0.012884421 0.027603149
-0.037328135 0.012831546 0.029625893
-0.036251593 0.012863469 0.030725598
-0.035123479 0.012878609 0.030123532
-0.033958916 0.012880968 0.028378218
-0.032793727 0.01288325 0.028383255
-0.031683758 0.012908197 0.027682662
-0.030482102 0.012896274 0.02912268
-0.029314362 0.012898318 0.028616279
-0.028150458 0.012902292 0.028547615
-0.02697587 0.012901504 0.028649151
-0.025588375 0.012794187 0.032621294
-0.024390191 0.012775814 0.033356071
-0.023010127 0.01265557 0.037621707
-0.021969859 0.012719392 0.035312712
-0.020865273 0.012751 0.034220725
-0.019711345 0.0127544 0.034151375
-0.018553765 0.012755713 0.033984393
-0.017468926 0.012810546 0.031307638
-0.016249521 0.012767482 0.031456649
-0.015140797 0.012811444 0.032872647
-0.01397721 0.012812443 0.031851709
-0.012875023 0.012875023 0.029173076
-0.011682788 0.012851067 0.030076802
-0.010522263 0.012860543 0.027787328
-0.0093701938 0.012884016 0.026862532
-0.0082266061 0.012927524 0.025303632
-0.0070597078 0.012942798 0.02508527
-0.005906757 0.012994866 0.023379564
-0.0047306577 0.013009309 0.024550468
-0.0035480708 0.013009593 0.024599761
-0.00236237 0.012993035 0.025209665
-0.0011807694 0.012988463 0.025380582
0 0.012960344 0.024015278
0.0011807694 0.012988463 0.0236983
0.0023668804 0.013017843 0.022625327
0.0035502652 0.013017639 0.025672495
0.0047299266 0.013007298 0.025842577
0.0059122425 0.013006933 0.02472043
0.0071065142 0.013028609 0.023890734
0.0083285645 0.013087744 0.021744549
0.0095184008 0.013087801 0.023327976
0.010735604 0.013121293 0.02208361
0.011927741 0.013120514 0.021399856
0.0131344 0.0131344 0.020862281
0.014348609 0.013152893 0.019983441
0.015543115 0.013151866 0.019738227
0.016737331 0.01315076 0.019346684
0.017852658 0.013091949 0.023608655
0.018963039 0.013037089 0.025555283
0.020146154 0.013035747 0.026673168
0.021317936 0.013027628 0.026913822
0.022499671 0.013026126 0.026740223
0.023739429 0.013056686 0.025568157
0.025079165 0.013136705 0.020232767
0.026647473 0.013323736 0.017430484
0.027567901 0.013184648 0.019935161
0.028692205 0.013150593 0.019153446
0.02981472 0.013118477 0.020245552
0.03085532 0.013054173 0.02206707
0.032048278 0.013056705 0.025469035
0.033202328 0.013043772 0.026072681
0.034239233 0.012987295 0.02628693
0.035369646 0.01296887 0.026427984
0.036541712 0.012966414 0.026131332
0.037862811 0.013015342 0.026903898
0.039128359 0.013042786 0.027943313
0.040289175 0.013034733 0.025994033
0.041203879 0.01294979 0.030311793
0.042343397 0.01293826 0.030620843
0.043509763 0.012935336 0.030686736
0.044601548 0.012910974 0.031456292
0.045764368 0.012907899 0.030599505
0.046865698 0.012888066 0.031198531
0.048050176 0.012891511 0.030948162
0.049290985 0.012909544 0.031691909
0.050907377 0.013022818 0.027610987
0.052111942 0.013027986 0.02748245
0.053265322 0.013020412 0.027620286
0.054191384 0.01295881 0.0297198
0.055353597 0.012955097 0.030001849
0.056543846 0.012957965 0.030598223
0.057704613 0.012954096 0.030589104
0.058791757 0.012934186 0.031160444
0.059948977 0.012930172 0.032069802
0.06103282 0.012910789 0.034090608
0.062138446 0.012896658 0.03494972
0.062898658 0.01281269 0.0373303
0.064042047 0.01280841 0.037825048
0.065491892 0.01286448 0.033465952
0.066638336 0.01286003 0.034419924
0.0674477 0.012791805 0.03672415
0.068703458 0.012809119 0.035915047
0.070121013 0.01285552 0.033394396
0.071744882 0.012937602 0.030224621
0.072957151 0.012944011 0.03067112
0.074249789 0.01296425 0.029744148
0.075768977 0.013022793 0.026578844
0.077204227 0.013065331 0.024835676
0.078360759 0.013060127 0.024055988
-0.051450975 0.014358412 0.017016292
-0.050267629 0.01436218 0.016075164
-0.04908336 0.014365862 0.015861034
-0.04769928 0.014309783 0.017854184
-0.046629351 0.014347493 0.016718119
-0.045462996 0.014356735 0.015654236
-0.044276878 0.014360068 0.016313314
-0.043089941 0.014363313 0.015661418
-0.041897964 0.014365016 0.015276253
-0.040342052 0.014238371 0.019481987
-0.038758747 0.01409409 0.02451548
-0.037496556 0.014061209 0.027485222
-0.036303632 0.014053019 0.030358791
-0.035120968 0.014048387 0.030121386
-0.03395649 0.014050961 0.030054003
-0.032791384 0.014053449 0.030059338
-0.031676564 0.014078474 0.029310405
-0.03047834 0.014066925 0.029947758
-0.029310744 0.014069158 0.029149562
-0.028142603 0.014071302 0.029153973
-0.026730426 0.01394631 0.032882124
-0.02549818 0.013908098 0.034225583
-0.024201833 0.013829619 0.037784636
-0.022982912 0.013789748 0.038300782
-0.021902351 0.013833064 0.036917418
-0.020842955 0.013895303 0.034900218
-0.019706829 0.013910702 0.034977078
-0.018530997 0.013898248 0.034615308
-0.017362611 0.013890089 0.034107029
-0.016244091 0.013923506 0.031576216
-0.015089029 0.013928335 0.033113956
-0.01395062 0.01395062 0.032409847
-0.012842601 0.01401011 0.030267626
-0.011675857 0.014011028 0.030269593
-0.010540153 0.014053537 0.028882146
-0.0093695214 0.014054283 0.030004889
-0.0081987148 0.01405494 0.028909385
-0.0069897277 0.013979455 0.02988565
-0.0058700712 0.014088171 0.026741952
-0.0047042337 0.014112701 0.027157158
-0.0035478161 0.014191264 0.024598002
-0.0023522051 0.014113231 0.026109874
-0.0011737365 0.014084838 0.028157979
0 0.014070986 0.026232094
0.0011737365 0.014084838 0.026939005
0.0023562275 0.014137365 0.025183469
0.0035472678 0.014189071 0.026036322
0.0047271494 0.014181447 0.026084483
0.0059118173 0.014188362 0.025840014
0.0071056383 0.014211277 0.027009189
0.0083062109 0.014239219 0.026057452
0.0095006553 0.014250983 0.024325639
0.010687671 0.014250227 0.023032606
0.011863518 0.014236221 0.023811132
0.013049015 0.014235289 0.023809582
0.014305179 0.014305179 0.021395385
0.01549607 0.014304064 0.021150053
0.016513562 0.014154481 0.025704384
0.0176915 0.0141532 0.027870297
0.018869111 0.014151833 0.027867615
0.020065002 0.014163531 0.028181434
0.02124298 0.014161986 0.028373182
0.022450635 0.014179348 0.027541906
0.023737729 0.014242637 0.025128067
0.024984064 0.014276607 0.022008568
0.026213119 0.014298065 0.023149729
0.02749875 0.014347174 0.021686167
0.028624445 0.014312223 0.022194028
0.029759362 0.014284494 0.021631002
0.030838879 0.014233329 0.022941291
0.032019716 0.014230985 0.026732057
0.033019502 0.014151216 0.029305369
0.034093991 0.014107859 0.028522104
0.035246778 0.014098711 0.028419644
0.036414772 0.014096041 0.028414249
0.03786011 0.014197541 0.02690196
0.039191719 0.014251534 0.029107571
0.040286299 0.014218695 0.025992185
0.04120094 0.014126036 0.03113535
0.042246412 0.014082137 0.031565607
0.043434814 0.014086966 0.031291425
0.044540733 0.014065495 0.03038615
0.045701969 0.014062145 0.031203896
0.046779886 0.014033966 0.034107298
0.047937378 0.014030453 0.034098744
0.049356222 0.014101777 0.031592697
0.050903764 0.014205702 0.028748393
0.05211357 0.014212792 0.028352886
0.05324246 0.014197989 0.028708488
0.053931296 0.014069034 0.031945914
0.054740842 0.013976386 0.035181254
0.056153521 0.01403838 0.035824537
0.05732999 0.014039997 0.035620242
0.058787603 0.014109024 0.033311218
0.059944741 0.014104645 0.033300906
0.061028507 0.014083502 0.034088194
0.062134054 0.014068088 0.034947276
0.062930107 0.013984468 0.037569255
0.064372949 0.014045007 0.037919015
0.065652914 0.014068482 0.036964506
0.066812493 0.014065787 0.037241369
0.067393981 0.013943582 0.039665073
0.069107741 0.014055812 0.034899592
0.070550062 0.014110013 0.03290984
0.07190524 0.014145293 0.029137939
0.073093936 0.014147214 0.029753417
0.074585952 0.014206848 0.02586481
0.076160401 0.014280075 0.023230791
0.077539027 0.014314897 0.0218741
0.079315774 0.01442105 0.017631829
-0.045480225 0.015559024 0.017230451
-0.044255488 0.015549226 0.01662758
-0.042929277 0.01550224 0.017748207
-0.041437868 0.015391207 0.020496279
-0.040250145 0.015389761 0.021423697
-0.038755741 0.015267413 0.027671933
-0.037493646 0.015231795 0.028868198
-0.036300819 0.015222924 0.030356437
-0.035136472 0.015225805 0.029875964
-0.033971481 0.015228596 0.029881448
-0.032841604 0.015247889 0.02937606
-0.031674106 0.015250495 0.029162198
-0.03043486 0.01521743 0.030967146
-0.02924612 0.015207982 0.030144811
-0.02796375 0.015147031 0.032096118
-0.026651381 0.015063824 0.03324461
-0.025182931 0.014880823 0.039918631
-0.02404147 0.014882815 0.039948314
-0.023050511 0.014982833 0.038151741
-0.021912213 0.014992568 0.037912846
-0.020772291 0.015002211 0.037673712
-0.01966596 0.015038675 0.035899848
-0.018507143 0.015037054 0.036000997
-0.017352125 0.015038508 0.036004484
-0.01619678 0.015039868 0.034545988
-0.015070431 0.015070431 0.033647388
-0.013949534 0.015111995 0.032407343
-0.012825516 0.015157428 0.030850112
-0.011667635 0.015167926 0.030608445
-0.010508074 0.015178329 0.030269027
-0.0093497792 0.015193392 0.03314659
-0.0081814406 0.015194103 0.03095454
-0.0070129475 0.01519472 0.029858917
-0.0058464566 0.015200787 0.028543651
-0.0046821716 0.015217057 0.028276354
-0.0035160936 0.015236406 0.028788865
-0.0023440989 0.015236643 0.027692318
-0.0011720604 0.015236786 0.029569656
0 0.015242378 0.026230037
0.001172487 0.015242331 0.027400106
0.002344952 0.015242188 0.027399838
0.003535473 0.015320383 0.028935105
0.004715811 0.015326385 0.028422594
0.005903739 0.015349721 0.02769053
0.0070842435 0.015349194 0.028396457
0.0082889283 0.015393724 0.024519891
0.0094584804 0.015370031 0.02639541
0.010631453 0.015356543 0.025614142
0.011833349 0.015383354 0.025929421
0.013031915 0.015401354 0.024392575
0.014215615 0.01540025 0.024390817
0.015399047 0.015399047 0.02514416
0.016497778 0.015319365 0.027553946
0.017687382 0.015329064 0.028915644
0.01886764 0.015329958 0.02988714
0.020061368 0.015341046 0.029177755
0.02118434 0.015299801 0.029442459
0.022418814 0.015339189 0.02817288
0.023677448 0.015390341 0.026294738
0.024982119 0.015465121 0.025536746
0.026211079 0.015488365 0.025289923
0.027496612 0.015541563 0.021684498
0.0286412 0.015513984 0.021875978
0.029731197 0.015460223 0.021726638
0.030755844 0.015377922 0.027975023
0.031890813 0.015354836 0.028845966
0.032839905 0.015247098 0.032075346
0.034006737 0.0152444 0.03097558
0.035203934 0.015255038 0.029000819
0.036411949 0.015269527 0.030332118
0.037767749 0.015343148 0.028260678
0.039188679 0.015437964 0.028910965
0.040132459 0.015344764 0.027763337
0.041093629 0.015263349 0.032322884
0.042096738 0.0152016 0.033189833
0.043256316 0.015198165 0.033182353
0.044583395 0.015252214 0.029898435
0.045618005 0.015206002 0.031492651
0.046776269 0.015202288 0.034104705
0.047933679 0.015198483 0.034096122
0.049301498 0.015259987 0.033602566
0.050889414 0.015385171 0.028818816
0.052088231 0.015389704 0.028544515
0.053254709 0.015384694 0.029796422
0.053868659 0.015223752 0.03460741
0.054725248 0.015136771 0.036364853
0.055873275 0.015132345 0.036354274
0.057020281 0.01512783 0.037722647
0.05849281 0.01520813 0.035098732
0.059708901 0.015219916 0.034579992
0.061033253 0.015258313 0.033819705
0.062686443 0.015375921 0.03359127
0.063218802 0.015219342 0.037808001
0.064597145 0.015268415 0.036612004
0.06574928 0.015263225 0.036237389
0.066986211 0.015277557 0.035983533
0.068137437 0.015272184 0.034499228
0.069394149 0.015290236 0.033184588
0.070729107 0.015324639 0.031677872
0.071899749 0.015322898 0.031208247
0.073215328 0.0153516 0.030136615
0.075501911 0.015579759 0.02208215
0.076967254 0.015633974 0.020220041
-0.044265263 0.016749019 0.016480565
-0.042999975 0.016722213 0.016921282
-0.0414344 0.016573761 0.022315741
-0.03998046 0.016462542 0.02559939
-0.038620226 0.016384339 0.029272974
-0.037445799 0.016382538 0.029424608
-0.036275178 0.016382338 0.030062199
-0.035111655 0.016385438 0.030651301
-0.033947483 0.016388441 0.031240374
-0.032763958 0.016381979 0.031513423
-0.03143834 0.016301362 0.033926457
-0.030278943 0.016304046 0.035732031
-0.029055124 0.016270868 0.034959197
-0.027865052 0.016254615 0.034064263
-0.026428057 0.016086644 0.037086785
-0.025180815 0.016024156 0.039939612
-0.024197914 0.016131943 0.036926538
-0.023060748 0.016142523 0.037905067
-0.021912683 0.016146189 0.03786099
-0.020761777 0.016148048 0.037865341
-0.019610483 0.01614981 0.038941026
-0.018466616 0.01615829 0.038871974
-0.017324172 0.016169228 0.039046228
-0.016195416 0.016195416 0.03834331
-0.015069163 0.016228329 0.036251336
-0.013968093 0.016296109 0.03393957
-0.012786913 0.016274253 0.033040464
-0.011625227 0.016275318 0.03304261
-0.010468259 0.016283959 0.032191664
-0.0093114628 0.016295059 0.035166562
-0.0081479102 0.01629582 0.032755435
-0.0069955396 0.016322926 0.030977547
-0.005845964 0.016368698 0.02966246
-0.0046769027 0.016369158 0.029858291
-0.0035114097 0.016386578 0.02951771
-0.0023369545 0.016358681 0.030615032
-0.0011728148 0.016419407 0.029225916
0 0.0162949 0.029615998
0.0011704991 0.016386988 0.028153419
0.0023409761 0.016386833 0.028153151
0.0035192706 0.016423263 0.032856971
0.0047134636 0.016497124 0.029175818
0.0058941017 0.016503485 0.028979987
0.0070836465 0.01652851 0.028394043
0.0082801264 0.016560253 0.025955707
0.0094576841 0.016550947 0.026198238
0.010614108 0.016510835 0.026343107
0.011792755 0.016509857 0.026658267
0.012976542 0.0165156 0.029361218
0.014132553 0.016487978 0.030114383
0.015299572 0.016476462 0.030404389
0.016475074 0.016475074 0.029865861
0.017667623 0.016489783 0.029400378
0.01886313 0.016505238 0.029762834
0.020007931 0.016477119 0.02966243
0.021094894 0.01640714 0.031388074
0.022264268 0.016405249 0.031384408
0.023446614 0.016412631 0.030869395
0.024980018 0.016653346 0.02553457
0.026257068 0.016709043 0.024508953
0.027541878 0.016764622 0.022850752
0.028697195 0.01674003 0.022506773
0.029728701 0.016648073 0.02403596
0.030720059 0.01654157 0.02848345
0.031888139 0.016534591 0.028600395
0.032837149 0.016418574 0.031829476
0.034003884 0.016415669 0.031288981
0.035173636 0.016414363 0.032693118
0.036367465 0.016424017 0.03227374
0.037646011 0.016470131 0.031441331
0.038856719 0.016484668 0.032868296
0.040058911 0.016494846 0.032472849
0.040928714 0.016371485 0.037031084
0.042088848 0.016367884 0.034231007
0.043183103 0.016339552 0.038106769
0.044282291 0.016314529 0.039456815
0.045221541 0.016233373 0.041655153
0.046403702 0.016241295 0.041305393
0.047653798 0.016272029 0.038312554
0.049246475 0.016415492 0.034084529
0.050590768 0.016471412 0.032354891
0.052081227 0.0165713 0.027524561
0.053116754 0.016525213 0.030980855
0.053922661 0.016411245 0.031819701
0.054871459 0.016344689 0.035853475
0.05585992 0.016292477 0.038190603
0.057006657 0.016287616 0.038324356
0.05825213 0.016310595 0.037514538
0.059703946 0.016389318 0.035109103
0.061028194 0.016430667 0.033816844
0.06268125 0.016557312 0.035569996
0.063670136 0.016507072 0.03485775
0.064704694 0.016470285 0.03581202
0.065828338 0.016457085 0.035510182
0.066980682 0.016451396 0.035497934
0.068131812 0.016445611 0.034496397
0.069527149 0.016497968 0.032410175
0.070741355 0.016506318 0.03181988
0.072261311 0.016584564 0.029567093
0.074366726 0.016792487 0.023823053
0.07617075 0.016926832 0.018805563
-0.041430682 0.017756006 0.022338033
-0.04011311 0.01769696 0.025329947
-0.038745008 0.017611368 0.028250068
-0.037454095 0.017556608 0.029276192
-0.036290746 0.017560039 0.029816508
-0.035108496 0.017554248 0.03123188
-0.033910941 0.017540142 0.031699449
-0.032641873 0.017486718 0.03270191
-0.031366568 0.017425871 0.033631593
-0.030146578 0.017392257 0.035923392
-0.028933918 0.01736035 0.036853433
-0.027742838 0.017339274 0.036056191
-0.026418677 0.017229572 0.039005756
-0.025273575 0.017231984 0.039059877
-0.024217453 0.017298181 0.037483037
-0.023067186 0.01730039 0.03773126
-0.021916486 0.017302489 0.038003653
-0.020757711 0.017298093 0.03791061
-0.019575594 0.017272582 0.040666461
-0.018425982 0.017274357 0.040280938
-0.017322607 0.017322607 0.040236115
-0.0161769 0.017332394 0.040020525
-0.015067801 0.017385924 0.038635373
-0.013920785 0.017400982 0.038321644
-0.012761636 0.01740223 0.035888046
-0.011602246 0.01740337 0.037157416
-0.010437706 0.017396176 0.034357429
-0.0093047712 0.017446445 0.033823133
-0.0081471736 0.01745823 0.033532262
-0.0069949068 0.017487267 0.034362257
-0.0058448254 0.017534478 0.029708475
-0.0046759918 0.017534969 0.029709309
-0.003507436 0.01753718 0.030002475
-0.0023367431 0.017525572 0.030855983
-0.0011683824 0.017525736 0.031855553
0 0.017444447 0.029954523
0.0011638125 0.017457187 0.029613197
0.0023276033 0.017457025 0.029417992
0.0035141993 0.017570997 0.033487737
0.0046967077 0.017612655 0.031122893
0.0058707199 0.017612159 0.03080523
0.0070610726 0.017652681 0.03002435
0.0082375836 0.017651966 0.028999537
0.0094236871 0.017669413 0.028510839
