ply
format ascii 1.0
comment PCL generated
element vertex 1289
property float x
property float y
property float z
element camera 0
property float view_px
property float view_py
property float view_pz
property float x_axisx
property float x_axisy
property float x_axisz
property float y_axisx
property float y_axisy
property float y_axisz
property float z_axisx
property float z_axisy
property float z_axisz
property float focal
property float scalex
property float scaley
property float centerx
property float centery
property int viewportx
property int viewporty
property float k1
property float k2
end_header
0.035691477 -0.034576118 0.022519261
0.03667549 -0.034452733 0.023023695
0.037643127 -0.034321673 0.026992738
0.038742032 -0.034314372 0.026769012
0.039875109 -0.034336898 0.026593566
0.040973533 -0.034329176 0.027071863
0.041960813 -0.03423119 0.028227687
0.042988766 -0.034170561 0.03054449
0.044080328 -0.034162253 0.03000474
0.045374408 -0.03430748 0.028013557
0.046814613 -0.034553643 0.022613108
0.047916733 -0.034544621 0.022752255
0.049017981 -0.034535393 0.022746205
0.05005309 -0.034481015 0.026195735
0.051656749 -0.034812156 0.023482621
0.053337932 -0.035180338 0.018597156
0.054567032 -0.035241205 0.017674237
0.055882461 -0.035354212 0.017113805
0.057262037 -0.035502464 0.015395343
0.058389243 -0.0354915 0.015390605
0.031770319 -0.034039628 0.015625328
0.032670539 -0.033797111 0.018290997
0.03368362 -0.03368362 0.020567566
0.034600634 -0.033484485 0.023134172
0.035721473 -0.033488885 0.023275077
0.036720391 -0.033382174 0.026591301
0.037825309 -0.033375274 0.026585788
0.038868047 -0.033315469 0.025417179
0.040087543 -0.033406284 0.025581151
0.041034997 -0.033271618 0.027270734
0.041789275 -0.032991532 0.030896455
0.042878825 -0.032983713 0.031760603
0.043970011 -0.032977507 0.031728715
0.045169637 -0.033050954 0.031986952
0.046477962 -0.033198543 0.02960822
0.047774926 -0.033331346 0.027714163
0.048864935 -0.033317 0.024225265
0.049961846 -0.033307899 0.027336657
0.051160671 -0.033365656 0.026434988
0.052581534 -0.033562683 0.02512297
0.054255556 -0.033909723 0.020575494
0.055487722 -0.033972077 0.019724399
0.05660297 -0.03396178 0.020418346
0.057754111 -0.033973008 0.020460308
0.059197243 -0.034152258 0.018283069
0.060332276 -0.034150347 0.016613454
0.031872943 -0.033011265 0.015336931
0.032676499 -0.032676499 0.019871414
0.033607893 -0.032487631 0.021832734
0.034574993 -0.032344345 0.023720443
0.035683367 -0.032338053 0.026722759
0.036727082 -0.032275315 0.027493209
0.037832197 -0.032268636 0.027632952
0.03895358 -0.032275822 0.026875854
0.040094838 -0.032298621 0.026458055
0.04107831 -0.032196514 0.027760178
0.041743957 -0.03185723 0.03233093
0.042832319 -0.031849675 0.032323271
0.044053033 -0.031938449 0.032242775
0.045391157 -0.032105941 0.029887319
0.046684541 -0.032234564 0.027992576
0.048119012 -0.03245236 0.025469691
0.049264804 -0.032469984 0.025100172
0.050340768 -0.032441828 0.025359243
0.051186606 -0.032269817 0.026294738
0.052548461 -0.032423519 0.024475157
0.053578425 -0.032370299 0.026424468
0.055379435 -0.032775585 0.021394074
0.056613192 -0.032835651 0.019722015
0.057875305 -0.032909486 0.019474566
0.059085611 -0.03295159 0.016549379
0.06034315 -0.033017948 0.016616434
0.031878565 -0.031878565 0.016286224
0.032548547 -0.031426184 0.022447288
0.033613816 -0.031372894 0.023122549
0.034598004 -0.03124981 0.026853949
0.035707112 -0.031243725 0.026848733
0.036733545 -0.031167857 0.027643532
0.037838854 -0.031161409 0.026595324
0.038960431 -0.031168343 0.026395768
0.04011279 -0.031198837 0.025832623
0.041175175 -0.031159591 0.026795954
0.042321958 -0.031184601 0.026668608
0.043446641 -0.031192461 0.027461439
0.044668451 -0.031267915 0.026946336
0.045952372 -0.03138211 0.024640143
0.047061145 -0.031374097 0.024633884
0.048223667 -0.031401455 0.024579078
0.049331956 -0.031393062 0.024572521
0.050365899 -0.031338781 0.024348199
0.051454082 -0.031319875 0.024051338
0.052600238 -0.031336315 0.023923635
0.054045826 -0.031526729 0.022612125
0.055389106 -0.031650916 0.022388011
0.056767941 -0.031790044 0.018566519
0.058097735 -0.031896796 0.018560797
0.059218239 -0.031886745 0.015225202
0.031945169 -0.030804271 0.017939746
0.032568164 -0.030322084 0.022426814
0.033670496 -0.030303445 0.022616863
0.034761835 -0.030276436 0.024820507
0.035713185 -0.030133 0.026853293
0.036755793 -0.030072922 0.02764827
0.037861768 -0.030066699 0.026672632
0.03897341 -0.030065201 0.026594192
0.040078152 -0.030058613 0.02658838
0.041182157 -0.030051846 0.027091265
0.042342946 -0.030085778 0.028223604
0.043494154 -0.030111337 0.027732521
0.044850364 -0.030273994 0.024505198
0.046632607 -0.030709278 0.017938584
0.047971256 -0.030838663 0.015949368
0.049100585 -0.030830601 0.016332358
0.049915042 -0.030629685 0.019182354
0.050504997 -0.030303 0.023191512
0.051585104 -0.030278213 0.023233354
0.052895948 -0.030387035 0.021679908
0.054370981 -0.030583678 0.015608847
0.055865958 -0.030783283 0.018575281
0.030988324 -0.029840609 0.015250266
0.03195041 -0.02966824 0.017942697
0.032573506 -0.029203834 0.024154037
0.033676013 -0.02918588 0.024343818
0.034767531 -0.029159866 0.02482456
0.035719037 -0.029021718 0.026857704
0.036929917 -0.029096298 0.025615215
0.037948363 -0.029019337 0.025731176
0.039085869 -0.029035216 0.025386244
0.040163249 -0.029006792 0.02572006
0.041251663 -0.028987655 0.028525621
0.042250883 -0.028908499 0.027525574
0.043461103 -0.028974069 0.028512239
0.04460581 -0.028993778 0.026931077
0.046640221 -0.029576724 0.017941535
0.047979079 -0.029701335 0.015806735
0.049145009 -0.029715588 0.015560627
0.051043827 -0.029491989 0.018285334
0.051793713 -0.029274708 0.020794958
0.052904554 -0.029266348 0.021490067
0.055972707 -0.029699802 0.018070966
0.029875489 -0.028726432 0.015473813
0.030876823 -0.028589651 0.017098546
0.031955458 -0.028531659 0.018431187
0.03271595 -0.028203405 0.023113847
0.033695895 -0.028079914 0.024153471
0.034767378 -0.028038207 0.024731398
0.03559849 -0.027811319 0.029652476
0.03699578 -0.028027106 0.026710957
0.037954345 -0.027907606 0.028524607
0.039111122 -0.027936516 0.03101635
0.040169578 -0.02789554 0.026233256
0.041327663 -0.027924096 0.030396551
0.042257532 -0.027801009 0.027529925
0.043359276 -0.027794408 0.027159929
0.044460218 -0.027787637 0.027322888
0.046061754 -0.028086435 0.02242437
0.047404479 -0.028216952 0.021353364
0.048809275 -0.028377486 0.018757969
0.050154589 -0.028496925 0.017155945
0.051280431 -0.028489128 0.015554637
0.051801827 -0.028153166 0.02055636
0.053532131 -0.028474538 0.016247004
0.026536632 -0.027690399 0.016649902
0.027590122 -0.027590122 0.016720414
0.028721672 -0.027572805 0.016936541
0.029703159 -0.027418301 0.01943627
0.030722465 -0.027308857 0.021425039
0.031824302 -0.027277973 0.021858543
0.032720916 -0.027079377 0.023603022
0.033668235 -0.026934586 0.025929451
0.034772649 -0.02692076 0.026118785
0.035887349 -0.026915511 0.026865989
0.037001386 -0.0269101 0.026860625
0.037813686 -0.026692014 0.032919884
0.039117046 -0.026823116 0.031021029
0.040225849 -0.026817232 0.030407995
0.041506588 -0.026923191 0.028534412
0.042618524 -0.026916962 0.02840662
0.043762747 -0.026930921 0.029005677
0.044786721 -0.026872033 0.028344512
0.045738529 -0.026773773 0.028918713
0.046842121 -0.026766926 0.028039575
0.048290968 -0.026953099 0.025369465
0.04945403 -0.026974926 0.024878651
0.050811831 -0.027099643 0.02267015
0.051959831 -0.027109478 0.0216721
0.053540189 -0.027339671 0.017700285
0.026540507 -0.026540507 0.016652346
0.027585395 -0.026436003 0.019056261
0.028569411 -0.026283858 0.019369304
0.029707488 -0.026279701 0.019366235
0.030595746 -0.026063044 0.023371756
0.031633396 -0.025984574 0.024655133
0.032725677 -0.025954848 0.026375115
0.033673134 -0.025816068 0.028409988
0.034777705 -0.025802813 0.028550327
0.035892569 -0.025797784 0.026724279
0.037006766 -0.025792595 0.026718915
0.037777938 -0.025555665 0.033409894
0.039262816 -0.025801281 0.029036373
0.040174939 -0.025667321 0.030921698
0.041593354 -0.025855327 0.027544409
0.042707607 -0.025849342 0.027538031
0.043821078 -0.025843199 0.028476685
0.04495313 -0.02584805 0.027718604
0.045784879 -0.025684202 0.02948004
0.046848904 -0.025655352 0.02985999
0.047951799 -0.025648637 0.028907925
0.049280129 -0.025760068 0.027931988
0.050536059 -0.025829541 0.027633995
0.051967338 -0.025983669 0.023441195
0.053547915 -0.026204299 0.019468307
0.026544213 -0.025390116 0.017311156
0.027611127 -0.0253102 0.018694282
0.028573403 -0.025144594 0.01849699
0.029362531 -0.024845218 0.023864865
0.030486848 -0.024841135 0.027141184
0.031596992 -0.02482621 0.027330905
0.03260345 -0.024733651 0.02812767
0.033677828 -0.024697073 0.028413981
0.034831483 -0.024719115 0.028214335
0.035909224 -0.02468759 0.029859632
0.036845725 -0.024563817 0.031406969
0.037783194 -0.02444795 0.031036466
0.038898904 -0.02445074 0.033019245
0.040001519 -0.024445374 0.029397905
0.04159914 -0.024734622 0.027548254
0.042771123 -0.024762228 0.024511307
0.043846071 -0.024733679 0.024917513
0.04495937 -0.024727654 0.026753157
0.046071842 -0.024721477 0.026746482
0.047239423 -0.024744458 0.026352108
0.04838014 -0.02475263 0.027120084
0.049444068 -0.024722034 0.028420031
0.050578453 -0.024727242 0.027565211
0.051974528 -0.024857383 0.025065482
0.053879321 -0.025220107 0.017560124
0.028577216 -0.024004862 0.018402189
0.02936645 -0.023719056 0.02294445
0.030481074 -0.023707502 0.024009943
0.031556986 -0.02366774 0.026581377
0.03255672 -0.023575557 0.0282529
0.033718746 -0.023603123 0.027640522
0.034836121 -0.023598664 0.027173907
0.035943139 -0.023587685 0.02651307
0.036882672 -0.023470791 0.027672857
0.037959442 -0.023445537 0.027618617
0.039207686 -0.02352461 0.027345777
0.040185869 -0.023441756 0.027412564
0.041604664 -0.023613458 0.027648926
0.042838998 -0.023674184 0.023859859
0.043955889 -0.023668556 0.023854196
0.045076821 -0.023665331 0.025544912
0.046443038 -0.023787897 0.023745507
0.047563624 -0.023781812 0.024151236
0.048683334 -0.023775581 0.024362862
0.049682312 -0.023712013 0.026317447
0.051009927 -0.023804633 0.02301842
0.052755002 -0.024083806 0.017567486
0.028661389 -0.022929111 0.018817872
0.029556636 -0.022735873 0.022485495
0.03048495 -0.022581445 0.026419163
0.031605229 -0.022575162 0.02646324
0.032560859 -0.022455765 0.028766692
0.03372303 -0.022482021 0.028154165
0.034840547 -0.022477772 0.027177364
0.035957415 -0.022473386 0.027172029
0.03706361 -0.022462793 0.026511103
0.037997268 -0.022351334 0.028568715
0.039212659 -0.022407232 0.027349263
0.040324163 -0.022402313 0.027343273
0.041726608 -0.022554923 0.026342601
0.04284903 -0.022552121 0.026287973
0.043966185 -0.022546761 0.026451439
0.045465503 -0.022732751 0.022615194
0.046915885 -0.022885798 0.019434988
0.04833024 -0.0230144 0.01809752
0.049467999 -0.023008373 0.017995894
0.050604854 -0.023002205 0.018281639
0.051781628 -0.023014057 0.015105486
0.029805152 -0.021780688 0.019643784
0.030798743 -0.021673189 0.022362977
0.031612452 -0.021451307 0.026903898
0.032564797 -0.021335557 0.02935335
0.033612318 -0.021287801 0.030174017
0.034835346 -0.021350695 0.027302086
0.035959817 -0.021351142 0.027199626
0.037076097 -0.021346845 0.029087991
0.038259782 -0.021380467 0.028280884
0.039920315 -0.021671029 0.020508379
0.040754877 -0.021509519 0.023682564
0.042081703 -0.021609524 0.022561282
0.042999357 -0.021499678 0.024763167
0.044224445 -0.021545243 0.025436193
0.04534734 -0.021539986 0.023854256
0.046921529 -0.021744125 0.019437343
0.048336051 -0.021866309 0.018099695
0.049513001 -0.021877838 0.017925411
0.050890636 -0.021975502 0.015910566
0.029938174 -0.020726427 0.017944008
0.030863 -0.020575333 0.021466047
0.031893417 -0.020502912 0.023820102
0.032783486 -0.02034837 0.030061513
0.033616174 -0.020169703 0.033044577
0.034846872 -0.020233668 0.031532198
0.035963941 -0.020229718 0.029825866
0.037214573 -0.020298857 0.028338552
0.038334332 -0.020294646 0.028187007
0.039924882 -0.020532798 0.022622466
0.040759541 -0.020379771 0.024000764
0.042010214 -0.020437403 0.022612393
0.043004274 -0.020370444 0.023989767
0.044229496 -0.020413615 0.025075346
0.045352519 -0.020408634 0.023856997
0.046882164 -0.020582413 0.02031216
0.048234701 -0.020672016 0.019119561
0.04953688 -0.020736368 0.017757863
0.050749905 -0.020761326 0.017074943
0.028832398 -0.019606031 0.017340779
0.02996988 -0.01959569 0.017605543
0.031110879 -0.019588331 0.018672407
0.031993877 -0.019424854 0.023360819
0.033030216 -0.019362539 0.026710719
0.033911426 -0.019216474 0.028090924
0.034865718 -0.019119909 0.029786319
0.035864849 -0.0190532 0.031262249
0.037084367 -0.019104067 0.029968798
0.038338486 -0.019169243 0.028044373
0.03945766 -0.019165149 0.028014123
0.040613234 -0.019178472 0.027595371
0.042014763 -0.01930408 0.024531752
0.043140292 -0.019299604 0.022609591
0.044265024 -0.019295011 0.02476275
0.045449566 -0.019316064 0.020634621
0.046887234 -0.019441048 0.019393176
0.048161022 -0.019493748 0.018031031
0.04954223 -0.019586463 0.016645253
0.02779563 -0.018530419 0.015617996
0.028835358 -0.018454628 0.017342538
0.030075699 -0.018508123 0.016026586
0.031114066 -0.018437965 0.018431157
0.032160524 -0.018377442 0.021029323
0.033033598 -0.018225433 0.026713461
0.034027904 -0.018148215 0.026708543
0.035044413 -0.018087437 0.029862255
0.036167812 -0.018083906 0.029856443
0.037068121 -0.017972423 0.031113386
0.038183469 -0.017968692 0.031106949
0.039319359 -0.017974565 0.030857533
0.0407703 -0.018120134 0.027937979
0.042019051 -0.0181704 0.024776936
0.043151606 -0.018169098 0.024698406
0.044534411 -0.018270528 0.022048622
0.045771874 -0.018308749 0.019642502
0.047244877 -0.018437026 0.016873807
0.048384797 -0.018432304 0.016869485
0.04960718 -0.018458486 0.016089618
0.050432783 -0.018339194 0.017223924
0.019780509 -0.017453391 0.015292495
0.020941786 -0.017451487 0.016069978
0.022102671 -0.017449476 0.016262889
0.023102483 -0.017326862 0.01762414
0.024254512 -0.017324651 0.017621875
0.025406087 -0.017322332 0.018252254
0.028952161 -0.017371297 0.01620093
0.030124446 -0.017379489 0.01853326
0.031277929 -0.017376626 0.01853019
0.032381471 -0.017347217 0.019232154
0.033419222 -0.017285805 0.019471854
0.034352005 -0.017176002 0.022311926
0.035490353 -0.017172752 0.022429198
0.036299571 -0.017015424 0.028255761
0.037294123 -0.016951874 0.029853284
0.038552515 -0.017008463 0.027855605
0.039682183 -0.017006649 0.027801126
0.040903114 -0.017042965 0.026726902
0.042177983 -0.017099181 0.025143385
0.043307874 -0.017095214 0.023803025
0.044706609 -0.01719485 0.021031916
0.045841735 -0.01719065 0.020978272
0.047249403 -0.017286366 0.018305928
0.048170537 -0.017203763 0.020385891
0.049304523 -0.017199252 0.017932951
0.050437599 -0.017194636 0.017225564
0.019732615 -0.016250389 0.017242163
0.020808896 -0.016184697 0.018238664
0.021962415 -0.016182832 0.019259185
0.023008404 -0.016105883 0.019548982
0.024256701 -0.016171133 0.019619495
0.025290582 -0.016094007 0.023024291
0.026489625 -0.01612412 0.023313075
0.027910311 -0.016281014 0.018516362
0.029068807 -0.016278533 0.017297119
0.03016985 -0.016245304 0.017878175
0.031280745 -0.016219646 0.018823743
0.032275449 -0.016137725 0.0207901
0.033422228 -0.016134869 0.018306643
0.034477238 -0.016089378 0.019129723
0.035563234 -0.016060816 0.023257524
0.036631338 -0.01602621 0.026387393
0.037501905 -0.015909899 0.027378082
0.038787197 -0.015971199 0.025137931
0.039972585 -0.015989034 0.024525464
0.041088138 -0.01597872 0.024714291
0.042278312 -0.015997199 0.024101913
0.04341089 -0.015993487 0.022761673
0.044710618 -0.016049964 0.021033823
0.04591376 -0.016069816 0.020301014
0.047129363 -0.016092952 0.019519985
0.048393756 -0.016131252 0.019199848
0.049738821 -0.016194034 0.018007249
0.050756611 -0.01614983 0.017493635
-0.07445132 -0.015362971 0.015243173
0.019734276 -0.015090916 0.017243624
0.02082599 -0.015040993 0.017899245
0.021980455 -0.015039259 0.019066006
0.02301034 -0.014956721 0.021547079
0.02414627 -0.014947691 0.021763414
0.025253884 -0.014922749 0.023732096
0.026476456 -0.014964953 0.022925675
0.027639627 -0.014971465 0.019783229
0.028786892 -0.014969184 0.019780248
0.030058535 -0.015029267 0.019217581
0.031209493 -0.015026793 0.020406246
0.032278158 -0.014986288 0.021570027
0.033336896 -0.014944126 0.021687776
0.034447309 -0.014927167 0.01956889
0.035588816 -0.014924342 0.020561695
0.036972661 -0.015020143 0.021602511
0.038218584 -0.015055805 0.020407736
0.039368544 -0.015052679 0.018897504
0.040454034 -0.015025783 0.019622028
0.041498009 -0.014985393 0.019374907
0.042760096 -0.015023817 0.020462871
0.043905582 -0.01502033 0.018079847
0.044943813 -0.014981271 0.019021749
0.045995209 -0.014948443 0.019526511
0.047225263 -0.014973864 0.018624336
0.019791715 -0.013970622 0.015101522
0.02082761 -0.013885074 0.01673162
0.021751979 -0.013738092 0.023085564
0.02289404 -0.013736423 0.023082733
0.02399605 -0.013712028 0.023834497
0.025208989 -0.013750358 0.024366885
0.026351161 -0.013748432 0.024363458
0.027492844 -0.013746422 0.024359882
0.028710052 -0.013780825 0.022944927
0.029853716 -0.013778639 0.022406071
0.031024743 -0.013788775 0.022523999
0.032195546 -0.013798092 0.021693289
0.033339482 -0.013795648 0.021689445
0.034482803 -0.013793121 0.020688713
0.035734739 -0.013832803 0.020879269
0.037154388 -0.013932896 0.01936847
0.038484134 -0.013994231 0.017226458
0.03966273 -0.013998611 0.015473813
0.040820554 -0.013995618 0.015470505
0.041975431 -0.01399181 0.016681194
0.043131668 -0.013988649 0.016677439
0.044086516 -0.013922058 0.016649276
0.045179132 -0.013901272 0.016645342
0.046326254 -0.013897876 0.016641259
-0.069646262 -0.012984896 0.015461087
0.021983741 -0.012727429 0.018240809
0.023060046 -0.012683026 0.019797057
0.023997769 -0.01257026 0.023836225
0.025169287 -0.012584643 0.025123298
0.02630966 -0.012582881 0.025119781
0.027462684 -0.012587064 0.025675833
0.028602604 -0.012585145 0.024698585
0.029727759 -0.012577129 0.024208099
0.030948145 -0.012608504 0.023255378
0.032088887 -0.012606349 0.023810804
0.033229034 -0.012604116 0.024001151
0.034452446 -0.012632563 0.022732496
0.035872933 -0.012729106 0.019713968
0.037022885 -0.012726617 0.019126803
0.038310468 -0.012770156 0.019365937
0.039665561 -0.012832975 0.015474916
0.040910598 -0.012857616 0.015763104
0.042070217 -0.012854788 0.015759617
0.043238036 -0.012854552 0.017091364
0.044329461 -0.012832212 0.016067922
0.0455538 -0.012848508 0.015360415
0.046802618 -0.012870721 0.01642409
0.01408926 -0.011741051 0.015768468
0.015200398 -0.011692614 0.017668068
0.016329048 -0.011663606 0.019250482
0.017514842 -0.011676561 0.017908633
0.022033768 -0.01159672 0.017219096
0.023061557 -0.011530778 0.019798338
0.024105439 -0.011478781 0.025737017
0.025170933 -0.011441333 0.026585668
0.026311381 -0.01143973 0.026581943
0.027460102 -0.011441709 0.026432008
0.02859991 -0.011439964 0.026111633
0.029728118 -0.011433892 0.024939597
0.03086642 -0.011432008 0.025251746
0.032004148 -0.011430053 0.025247425
0.033201233 -0.011448701 0.024634957
0.034339808 -0.011446603 0.024824977
0.035739623 -0.011528911 0.02224347
0.036885299 -0.011526656 0.023308516
0.038174637 -0.011568072 0.021554202
0.03934186 -0.011571135 0.020602196
0.04433234 -0.011666405 0.017331243
0.045634843 -0.011701242 0.016235054
0.014002354 -0.010501765 0.017085552
0.015162488 -0.010497106 0.018546492
0.016209755 -0.010420557 0.021469235
0.017458312 -0.010474987 0.019006222
0.018640868 -0.010485488 0.017761797
0.019847371 -0.010507431 0.016736746
0.020985164 -0.010492582 0.017684966
0.022035073 -0.010437666 0.02019164
0.023092143 -0.010391464 0.022941142
0.024200188 -0.01037151 0.023960948
0.025211258 -0.010313696 0.026465476
0.026321337 -0.010299654 0.027386874
0.027452961 -0.01029486 0.027115136
0.028460143 -0.010245651 0.02922827
0.029517936 -0.010217747 0.029539943
0.030758217 -0.010252738 0.027905047
0.031857904 -0.01024004 0.028459758
0.032989837 -0.010238226 0.028576314
0.033951562 -0.010185469 0.031975299
0.03547984 -0.010300598 0.026766598
0.036728024 -0.010329757 0.025983602
0.03788418 -0.010332049 0.025103509
0.039300807 -0.010403155 0.024223596
0.040677611 -0.010459958 0.021594942
0.042020783 -0.010505196 0.019355923
0.043178268 -0.010502822 0.017336279
0.044325724 -0.010498198 0.017429322
0.045131151 -0.010414881 0.021429598
0.046327997 -0.0104238 0.022006661
0.047782619 -0.010488867 0.018386811
0.012868598 -0.0093589807 0.01677081
0.014003096 -0.0093353977 0.017086476
0.015042892 -0.0092571639 0.022568911
0.016187586 -0.0092500485 0.022128344
0.017339529 -0.0092477491 0.022199452
0.018507356 -0.0092536779 0.021417618
0.019662041 -0.0092527252 0.021415412
0.020788956 -0.0092395358 0.022168279
0.021941366 -0.0092384694 0.022190064
0.023093367 -0.0092373472 0.022942394
0.024201469 -0.0092196073 0.0239622
0.025282228 -0.0091935378 0.025566012
0.026354926 -0.0091669308 0.026828378
0.027463177 -0.0091543924 0.026970476
0.028461648 -0.0091077276 0.029083818
0.02959542 -0.0091062831 0.029079199
0.030825535 -0.0091334917 0.029147387
0.031893641 -0.0091124689 0.030115426
0.032965135 -0.0090938294 0.028140038
0.033938766 -0.0090503376 0.032171518
0.035063416 -0.009048623 0.032165438
0.036202971 -0.0090507427 0.032572359
0.037781913 -0.0091592511 0.029309243
0.038991015 -0.0091743562 0.02854988
0.040518209 -0.0092613054 0.020770162
0.041714795 -0.0092699546 0.020231277
0.04298513 -0.0092940824 0.018915474
0.043786094 -0.0092181247 0.023135155
0.044927649 -0.0092159286 0.023129642
0.046068382 -0.0092136757 0.023196757
0.047379833 -0.0092448452 0.021856755
0.048622299 -0.0092613902 0.022893995
0.050053615 -0.0093123009 0.017505378
0.051283885 -0.0093243429 0.016676605
0.011726248 -0.0082083736 0.016041309
0.012837694 -0.0081694415 0.018234193
0.013891136 -0.008103163 0.021986753
0.015033298 -0.0080948528 0.024008036
0.016185783 -0.0080928914 0.022202522
0.017287338 -0.0080674253 0.02361393
0.018468257 -0.0080798632 0.0217354
0.01960808 -0.0080739148 0.022707731
0.020772386 -0.0080781505 0.022559106
0.021909993 -0.0080721034 0.023628294
0.023053041 -0.0080685643 0.023162663
0.0242026 -0.0080675334 0.023768544
0.025283409 -0.0080447216 0.025567234
0.026552143 -0.0080810869 0.023421198
0.027541868 -0.0080330446 0.025681615
0.028720059 -0.0080416165 0.025117904
0.029690126 -0.0079934951 0.029007524
0.030826971 -0.0079921773 0.030413955
0.031861071 -0.0079652676 0.030457407
0.032966673 -0.0079574725 0.030719548
0.033940349 -0.0079194149 0.032708019
0.035065047 -0.0079179145 0.034841388
0.036191046 -0.0079167914 0.034956157
0.037699457 -0.0079968553 0.03079313
0.038550835 -0.0079369359 0.034115672
0.039542273 -0.0079084542 0.033889741
0.040663101 -0.0079067145 0.03388232
0.041870784 -0.0079214992 0.031130642
0.043144654 -0.0079477001 0.029982418
0.044269491 -0.0079458058 0.029514074
0.045519691 -0.0079659456 0.028706133
0.046959303 -0.0080174422 0.025909096
0.0480312 -0.0080052 0.028546065
0.049623244 -0.0080782026 0.022185892
0.050616983 -0.0080527021 0.022761673
0.0520694 -0.0080996845 0.01994431
0.053211562 -0.0080974121 0.020253688
0.011738914 -0.0070433482 0.016627103
0.012793298 -0.0069781626 0.022306144
0.0138917 -0.0069458499 0.024425298
0.015033909 -0.0069387271 0.023692131
0.016182175 -0.0069352174 0.023738891
0.01722681 -0.0068907239 0.026661187
0.018371535 -0.0068893256 0.024855375
0.019526033 -0.0068915407 0.026363492
0.020678943 -0.006892981 0.025264293
0.021886583 -0.0069115525 0.025846004
0.023035709 -0.0069107125 0.023967355
0.024218924 -0.0069196927 0.026959836
0.025273718 -0.006892832 0.027297139
0.026649818 -0.0069521265 0.023275971
0.027801514 -0.0069503784 0.023321301
0.028958537 -0.0069500487 0.024461716
0.029828947 -0.0068836031 0.028302968
0.030954685 -0.0068788189 0.027811646
0.031964533 -0.0068495432 0.028998971
0.032989163 -0.0068253437 0.030428916
0.033943541 -0.0067887078 0.032441825
0.035068348 -0.0067874226 0.032678813
0.036192503 -0.0067860945 0.034957588
0.037426274 -0.0068047773 0.034124136
0.038389217 -0.006774568 0.03603673
0.039490726 -0.0067698383 0.034498483
0.040511716 -0.0067519532 0.035583884
0.041769143 -0.0067733745 0.032248944
0.043035686 -0.0067951083 0.03114897
0.04423577 -0.0068055033 0.029879361
0.045521524 -0.0068282285 0.028707266
0.046707552 -0.0068352516 0.03144154
0.047834486 -0.0068334979 0.031433463
0.049330689 -0.0068833516 0.027860731
0.050557684 -0.0068942294 0.026132137
0.052071489 -0.006942865 0.02202931
0.053213697 -0.0069409171 0.020496786
0.011777108 -0.0058885538 0.0164814
0.012793737 -0.0058153355 0.024232864
0.013868043 -0.0057783513 0.025230587
0.015022541 -0.0057779006 0.024375468
0.016108513 -0.0057530403 0.02586019
0.017216431 -0.0057388106 0.0274176
0.018318554 -0.0057245484 0.027902365
0.01946146 -0.0057239588 0.028825402
0.020637991 -0.0057327752 0.028066963
0.021826005 -0.0057436852 0.027430385
0.022982908 -0.0057457271 0.0283283
0.024219755 -0.0057666083 0.027715772
0.025274584 -0.0057442235 0.027444214
0.026530329 -0.0057674628 0.026198566
0.027679769 -0.005766619 0.026194751
0.028970176 -0.0057940353 0.024559915
0.030060925 -0.0057809469 0.02526179
0.031210326 -0.0057796901 0.024040997
0.032311343 -0.0057698828 0.024742395
0.033459388 -0.0057688602 0.02624616
0.034221951 -0.0057036583 0.031372905
0.035306986 -0.0056946753 0.032728583
0.036397949 -0.0056871795 0.032916665
0.037527815 -0.0056860326 0.037382305
0.038390528 -0.0056456658 0.036961406
0.039511204 -0.0056444579 0.036394715
0.040611476 -0.0056404825 0.035415083
0.041770566 -0.0056446712 0.034047127
0.042995635 -0.0056573204 0.033845007
0.044171013 -0.0056629502 0.032040715
0.045392025 -0.0056740032 0.03346464
0.046709139 -0.0056962366 0.031442583
0.048111167 -0.0057275197 0.028814971
0.049616497 -0.0057693603 0.024394125
0.051479392 -0.0058499309 0.01704219
0.052844856 -0.0058716508 0.015946925
0.0071000657 -0.0047333771 0.015192628
0.0094659263 -0.0047329632 0.017142028
0.010610199 -0.0047156438 0.016165853
0.011744523 -0.0046978095 0.019724548
0.012828289 -0.0046648323 0.022990167
0.013887447 -0.0046291491 0.026377082
0.01504356 -0.0046287877 0.025619328
0.01609361 -0.0045981742 0.026494652
0.017227884 -0.0045941025 0.029002547
0.018289827 -0.0045724567 0.028975397
0.019430939 -0.0045719855 0.029557198
0.020634186 -0.0045853746 0.028165221
0.021782646 -0.0045858203 0.030719936
0.02295067 -0.0045901341 0.031787992
0.024220435 -0.0046134163 0.029348373
0.025280651 -0.004596482 0.028029412
0.026531072 -0.0046140994 0.026832402
0.027680546 -0.0046134242 0.026828468
0.028910134 -0.0046256213 0.025875062
0.030060187 -0.0046246438 0.025286824
0.031196417 -0.0046216915 0.025039345
0.032361634 -0.0046230908 0.025545985
0.033544976 -0.004626893 0.025322527
0.034695338 -0.004626045 0.025293559
0.035547305 -0.0045867488 0.02964133
0.036686815 -0.0045858519 0.02980572
0.03804823 -0.0046119066 0.027830869
0.039193057 -0.0046109478 0.027096063
0.039654743 -0.0045319707 0.034767866
0.040778756 -0.0045309728 0.034225792
0.041915499 -0.0045314054 0.034606636
0.043363579 -0.004564587 0.031175137
0.044541448 -0.0045683538 0.031604648
0.045844674 -0.0045844675 0.029873908
0.046996426 -0.004585017 0.030885458
0.048476703 -0.0046168286 0.025347203
0.050478123 -0.0046956395 0.016392529
0.0035399836 -0.0035399836 0.015121102
0.0047198748 -0.0035399063 0.016584069
0.005899678 -0.0035398067 0.016583592
0.0070640068 -0.0035320034 0.017607272
0.0082397265 -0.0035313112 0.016948164
0.0094319945 -0.0035369981 0.018849373
0.010610431 -0.0035368102 0.01884836
0.011777696 -0.0035333089 0.019359291
0.01291573 -0.0035224718 0.020698905
0.013887751 -0.0034719377 0.026523918
0.014982888 -0.0034575893 0.028252602
0.016091401 -0.0034481576 0.029078931
0.01719627 -0.0034392541 0.029953718
0.018319469 -0.0034349004 0.028244913
0.019431364 -0.0034290641 0.031214863
0.020572141 -0.0034286901 0.032112926
0.021778492 -0.0034387093 0.030818045
0.022951171 -0.0034426758 0.031788677
0.024247816 -0.0034639738 0.028837532
0.025332103 -0.0034543774 0.029077172
0.02653165 -0.0034606499 0.026832968
0.027627101 -0.0034533876 0.027729839
0.028830132 -0.0034596159 0.026824951
0.030046601 -0.0034669156 0.025944531
0.031197097 -0.003466344 0.025940239
0.032350421 -0.0034661165 0.025960118
0.033528071 -0.0034684211 0.027098835
0.034677852 -0.003467785 0.027093887
0.035874106 -0.0034716877 0.026334882
0.037024088 -0.0034710083 0.025600433
0.038173385 -0.0034703079 0.025595248
0.039324049 -0.0034697689 0.025565624
0.040892914 -0.003505107 0.020627916
0.042082634 -0.0035068861 0.019748896
0.04338783 -0.0035179323 0.018700153
0.044718508 -0.0035304085 0.016923338
0.045884367 -0.0035295668 0.017841727
0.047049388 -0.0035287042 0.017837375
0.048683565 -0.003562212 0.015018463
0.0023545751 -0.0023545751 0.016999573
0.0035100402 -0.0023400269 0.021023512
0.0046770247 -0.0023385123 0.021169394
0.0058869664 -0.0023547865 0.017900795
0.0070505817 -0.0023501939 0.018802524
0.0082125422 -0.0023464405 0.018728614
0.0093853222 -0.0023463306 0.021190643
0.0105689 -0.0023486444 0.018239051
0.011744354 -0.0023488707 0.020627469
0.012915932 -0.0023483513 0.020699233
0.013951597 -0.0023252661 0.025354147
0.014976783 -0.0023041205 0.029593766
0.016091652 -0.0022988075 0.030615032
0.017183743 -0.0022911658 0.034926265
0.018320732 -0.0022900915 0.031535387
0.019379886 -0.0022799864 0.033335328
0.020534085 -0.002281565 0.03306368
0.021672366 -0.0022813019 0.033059865
0.022951528 -0.0022951527 0.031545609
0.024149733 -0.0022999744 0.030275017
0.025477152 -0.0023161047 0.026983291
0.026659474 -0.0023182151 0.026979506
0.02770349 -0.0023086241 0.028825849
0.028781896 -0.0023025516 0.027945131
0.029928422 -0.0023021863 0.027307868
0.031102311 -0.0023038748 0.026670694
0.032272577 -0.0023051843 0.026325464
0.033394553 -0.0023030727 0.027537167
0.034481384 -0.0022987588 0.029721051
0.035624012 -0.0022983234 0.029569507
0.037024662 -0.0023140414 0.025600791
0.038175981 -0.0023136958 0.025571346
0.039572537 -0.0023277963 0.025152892
0.041010477 -0.0023434558 0.021600157
0.042328145 -0.0023515637 0.017417192
0.043494087 -0.0023510316 0.017413229
0.0011794438 -0.0011794438 0.016609669
0.0023400853 -0.0011700427 0.01990214
0.0035100731 -0.0011700244 0.021023721
0.0046770684 -0.0011692671 0.021315902
0.0058519631 -0.0011703926 0.021827489
0.0070221149 -0.0011703525 0.023533881
0.0082126185 -0.0011732313 0.022508681
0.0093434677 -0.0011679335 0.024239004
0.010538275 -0.0011709194 0.022067517
0.0117085 -0.00117085 0.02187115
0.012878506 -0.0011707732 0.022064775
0.01395758 -0.0011631316 0.025208116
0.014977716 -0.0011521319 0.030276597
0.016081566 -0.0011486833 0.033735365
0.017183904 -0.0011455936 0.035609007
0.018320903 -0.0011450564 0.032096207
0.019463954 -0.0011449385 0.031849176
0.020534277 -0.0011407932 0.033453822
0.021672569 -0.0011406615 0.034375757
0.022903025 -0.0011451512 0.032520264
0.024149958 -0.001149998 0.030275285
0.025477391 -0.0011580632 0.026983529
0.026791334 -0.0011648405 0.024690866
0.027953545 -0.001164731 0.024662882
0.028833892 -0.0011533557 0.026484847
0.029977743 -0.00115299 0.026553631
0.0311256 -0.0011528 0.026330233
0.032218378 -0.0011506564 0.02671504
0.03330845 -0.0011485672 0.02746442
0.03444887 -0.0011482957 0.030159146
0.035624344 -0.0011491723 0.029715717
0.037007503 -0.0011564845 0.026962519
0.038216446 -0.0011580741 0.026227891
0.039572909 -0.0011639091 0.026562691
0.041161805 -0.0011760517 0.021600336
0.04233947 -0.0011760964 0.017708868
0.043613553 -0.0011787447 0.016126215
-0.06403473 0 0.015396923
0 0 0.016097575
0.0011794475 0 0.017487735
0.0023546047 0 0.017463207
0.003510084 0 0.021072567
0.0046785465 0 0.021218449
0.0058367392 0 0.022754312
0.0070078704 0 0.024485052
0.0081755156 0 0.024630368
0.0093430094 0 0.024629235
0.010494965 0 0.023798853
0.011626855 0 0.021871239
0.01285642 0 0.019846171
0.013951771 0 0.027499855
0.015059365 0 0.029155344
0.01620532 0 0.030201018
0.017279014 0 0.032391876
0.018316085 0 0.032218188
0.019271383 0 0.036625475
0.020402767 0 0.036718905
0.021672636 0 0.034546405
0.022903096 0 0.032520354
0.024120623 0 0.030835599
0.025293967 0 0.030320048
0.026668206 0 0.026833743
0.027671698 0 0.029361844
0.028833982 0 0.027312547
0.029982582 0 0.026480705
0.031130623 0 0.026476353
0.03227298 0 0.026325822
0.033308551 0 0.028729469
0.034587614 0 0.026900053
0.035756379 0 0.028499901
0.037007619 0 0.026962608
0.038224585 0 0.026349515
0.039492469 0 0.027510554
0.0408324 0 0.025366485
0.042337414 0 0.018826336
0.043613691 0 0.016126245
-0.064753346 0.0011773335 0.020127624
-0.063597277 0.0011777274 0.018635809
-0.062738001 0.0011837359 0.016320705
-0.061709329 0.0011867179 0.015165031
-0.059306569 0.0011861314 0.015319765
0 0.0011812157 0.016780436
0.0011794438 0.0011794438 0.019146204
0.0023389878 0.0011694939 0.021463066
0.0035089757 0.0011696586 0.023730934
0.0046636546 0.0011659137 0.025218159
0.0058208681 0.0011641736 0.02402246
0.006984802 0.0011641337 0.026167721
0.0081635416 0.0011662202 0.025142401
0.0093293246 0.0011661656 0.025141239
0.010466952 0.0011629947 0.025042355
0.011619504 0.0011619503 0.024626374
0.012792684 0.0011629714 0.026233912
0.013954653 0.0011628878 0.027402222
0.015116361 0.001162797 0.027400076
0.016222334 0.001158738 0.03120032
0.017361218 0.0011574145 0.026615351
0.018479798 0.0011549874 0.027880043
0.019507451 0.0011474971 0.030825734
0.020402703 0.0011334835 0.036718786
0.021595033 0.0011365807 0.036178619
0.022728851 0.0011364426 0.036174208
0.024092415 0.0011472579 0.034440279
0.025293889 0.0011497221 0.033388466
0.02652251 0.0011531527 0.030948788
0.027589809 0.0011495753 0.028899133
0.028833892 0.0011533557 0.027312487
0.030123288 0.001158588 0.028403401
0.031276718 0.0011583969 0.028569013
0.032323971 0.0011544275 0.030072629
0.033461887 0.0011538581 0.030213296
0.034609396 0.0011536465 0.028529525
0.035814688 0.0011553125 0.027770281
0.037007503 0.0011564845 0.026962519
0.038268588 0.0011596541 0.025814652
0.039531596 0.001162694 0.024375439
0.040832274 0.0011666365 0.026289701
0.042337283 0.0011760357 0.022421479
-0.067980036 0.0023852645 0.015622467
-0.066184931 0.0023637477 0.020048112
-0.06473282 0.0023539206 0.020272404
-0.063596688 0.0023554331 0.021270186
-0.062737428 0.0023674502 0.017843843
-0.061639585 0.0023707533 0.01581794
-0.060408577 0.0023689638 0.015943885
-0.058988377 0.0023595351 0.017013758
-0.01308422 0.002378949 0.015116036
-0.011895524 0.002379105 0.015117049
-0.0059311697 0.0023724679 0.018120319
-0.004738484 0.002369242 0.017291635
-0.0035486363 0.0023657577 0.015877366
-0.001183762 0.002367524 0.015536338
0 0.0023675314 0.018268049
0.001176262 0.0023525241 0.021267951
0.0023445752 0.0023445752 0.022682369
0.0035027235 0.0023351489 0.024559975
0.0046575135 0.0023287567 0.025827646
0.0058217286 0.0023286913 0.026241511
0.0069847363 0.0023282454 0.02675277
0.0081523685 0.0023292482 0.026532203
0.0093282619 0.0023320655 0.026238322
0.01045643 0.0023236512 0.026846498
0.011558439 0.0023116877 0.027235061
0.012713449 0.0023115361 0.028647363
0.013906984 0.0023178307 0.027816385
0.015116219 0.0023255723 0.026229739
0.016250333 0.0023214763 0.031053782
0.017371111 0.002316148 0.031416565
0.018487424 0.002310928 0.029293299
0.019633617 0.0023098371 0.028997838
0.020586714 0.0022874128 0.033429176
0.021727914 0.002287149 0.033425301
0.022947876 0.0022947874 0.032373786
0.024120321 0.0022971735 0.033733606
0.025352586 0.0023047805 0.034362286
0.026501261 0.0023044574 0.034357458
0.027649442 0.0023041202 0.032380402
0.028836666 0.0023069333 0.030671448
0.030151485 0.002319345 0.029181957
0.031332273 0.0023209092 0.028958112
0.032487173 0.0023205122 0.027906984
0.033516247 0.0023114653 0.029629171
0.034665622 0.0023110413 0.028991371
0.03586147 0.0023136432 0.029788345
0.037137471 0.0023210919 0.028202236
0.038470771 0.0023315619 0.026446402
0.039651036 0.0023324138 0.026392281
0.040831894 0.0023332511 0.026289463
0.042708553 0.0023726975 0.018291682
0.044203974 0.002389404 0.015470356
-0.070389025 0.0035791029 0.015007913
-0.069136761 0.0035760393 0.015689135
-0.067683093 0.0035622681 0.017698765
-0.065906629 0.0035307123 0.022028476
-0.064748436 0.0035317328 0.020610392
-0.063595712 0.0035330954 0.021269858
-0.06263715 0.0035454992 0.018593103
-0.061572611 0.0035522662 0.01707536
-0.060392223 0.0035524839 0.016451716
-0.058987468 0.0035392481 0.018755943
-0.052527305 0.003581407 0.015733898
-0.013084015 0.0035683676 0.015115798
-0.011895339 0.0035686018 0.015116811
-0.0071130241 0.0035565121 0.015924603
-0.005922846 0.0035537076 0.019315004
-0.0047376784 0.003553259 0.016730428
-0.0035412642 0.0035412642 0.018340439
-0.0023608797 0.0035413196 0.018974841
-0.0011856947 0.0035570841 0.019682318
0 0.0035570951 0.018194586
0.0011762438 0.0035287312 0.021974891
0.0023318566 0.0034977847 0.025291622
0.00349773 0.00349773 0.026852131
0.0046574408 0.0034930806 0.026827157
0.0058234665 0.0034940797 0.028631091
0.0069842618 0.0034921309 0.02887401
0.0081479745 0.0034919891 0.027068287
0.0093047069 0.003489265 0.027408391
0.010456267 0.0034854223 0.027894586
0.01159788 0.0034793639 0.031306416
0.01271325 0.0034672499 0.031499416
0.013884826 0.0034712064 0.028986126
0.015115984 0.0034883041 0.026668102
0.016276527 0.0034878273 0.028323323
0.017409224 0.0034818449 0.029076308
0.018480312 0.0034650585 0.031193644
0.01963331 0.0034647016 0.029387265
0.020785943 0.0034643237 0.029384077
0.021978687 0.0034703191 0.028186947
0.023132646 0.0034698972 0.033469468
0.024286177 0.0034694537 0.034390688
0.025399072 0.0034635097 0.033509374
0.026500847 0.0034566321 0.033455998
0.027695756 0.0034619696 0.032672048
0.028865123 0.003463815 0.031279534
0.030157343 0.0034796933 0.029084116
0.031331785 0.0034813096 0.027716637
0.032524135 0.0034847287 0.026738703
0.033790849 0.0034956052 0.026344746
0.034865733 0.0034865732 0.0263156
0.036049366 0.0034886482 0.027088761
0.037204966 0.0034879658 0.027350873
0.038470171 0.0034972883 0.026494592
0.039842531 0.0035155173 0.02422902
0.041530706 0.0035597747 0.018927127
0.042889349 0.0035741124 0.016906798
-0.070277192 0.0047645555 0.015755594
-0.068844795 0.0047479169 0.017692178
-0.067041673 0.0047046789 0.022189379
-0.065851107 0.0047036507 0.021714002
-0.064733759 0.0047079097 0.020706564
-0.06354215 0.0047068256 0.021656096
-0.06243398 0.0047119986 0.021300584
-0.06147382 0.0047287554 0.019783765
-0.060310725 0.004730253 0.018386841
-0.058986198 0.004718896 0.018755525
-0.053661566 0.0047699171 0.015826225
-0.052494168 0.0047721975 0.0160245
-0.040659647 0.0047834879 0.015212685
-0.023903092 0.0047806185 0.01505363
-0.014310895 0.004770298 0.015285045
-0.013081047 0.0047567445 0.015212983
-0.01189264 0.004757056 0.015213996
-0.0083044106 0.0047453777 0.019166827
-0.0071128681 0.0047419122 0.019533426
-0.005914791 0.0047318325 0.020558357
-0.0047046514 0.0047046514 0.020022362
-0.0035241758 0.004698901 0.020608157
-0.002349487 0.0046989741 0.022510797
-0.0011804251 0.0047217002 0.022145152
0 0.0047090328 0.021511137
0.0011762179 0.0047048717 0.021974415
0.0023293665 0.004658733 0.026583701
0.0034939952 0.0046586604 0.028753877
0.0046573393 0.0046573393 0.028875172
0.0058233389 0.0046586711 0.030264437
0.0069852062 0.0046568043 0.02921477
0.0081418213 0.0046524694 0.029628158
0.0092996256 0.0046498128 0.02987057
0.010458781 0.0046483474 0.029015601
0.011623226 0.0046492903 0.030281723
0.012712972 0.004622899 0.03149873
0.013829672 0.0046098907 0.033983022
0.015040391 0.0046278127 0.030616462
0.016276171 0.0046503348 0.028883308
0.017369546 0.0046318788 0.030684203
0.018479908 0.004619977 0.03324005
0.019632882 0.0046195015 0.032919824
0.020785488 0.0046189977 0.032916248
0.022151783 0.0046635335 0.028405577
0.023300216 0.0046600434 0.029668778
0.024462102 0.0046594478 0.029664993
0.025441376 0.0046257051 0.031828344
0.026545072 0.0046165343 0.033577025
0.027714141 0.0046190238 0.032695651
0.028888835 0.0046222135 0.03276372
0.030177251 0.0046426537 0.030641139
0.031367239 0.0046469984 0.030125082
0.032673296 0.0046676137 0.026275843
0.034521997 0.0047616549 0.016249239
0.035705864 0.0047607818 0.01605168
0.036410403 0.0046981168 0.022419482
0.037513401 0.0046891752 0.023922384
0.038677886 0.0046882289 0.023966134
0.040343605 0.0047463067 0.018736392
0.041529801 0.0047462629 0.01892674
0.042894974 0.0047661085 0.016396314
-0.069997676 0.0059320061 0.018481553
-0.068100959 0.0058707725 0.023942918
-0.066940047 0.0058719344 0.024023741
-0.065643035 0.0058609853 0.023186713
-0.064695425 0.0058814026 0.021672457
-0.063220635 0.0058537624 0.024048299
-0.062409833 0.0058877203 0.021493405
-0.061377797 0.0059017111 0.020436227
-0.060216516 0.0059035802 0.01911211
-0.059054136 0.0059054135 0.020449042
-0.057724632 0.0058902684 0.019172281
-0.056903444 0.0059274421 0.016369075
-0.054767471 0.005952986 0.01642707
-0.053578284 0.0059531424 0.016552806
-0.043031506 0.0059765982 0.0167602
-0.041730601 0.0059615141 0.018075883
-0.040518057 0.0059585376 0.016864687
-0.039470881 0.0059804362 0.015579998
-0.025038075 0.0059614466 0.015026927
-0.023808643 0.0059521608 0.015832633
-0.015501823 0.00596224 0.017794132
-0.01426442 0.0059435079 0.015406489
-0.013076657 0.0059439354 0.017089754
-0.011861831 0.0059309155 0.018163621
-0.010625262 0.0059029232 0.020432234
-0.0094890678 0.0059306677 0.017873079
-0.0082977759 0.0059269825 0.01819092
-0.0071108397 0.0059256996 0.01965481
-0.0058856653 0.0058856653 0.022874504
-0.0047045192 0.0058806492 0.020021796
-0.0035195041 0.0058658402 0.024729043
-0.0023482018 0.0058705043 0.024363637
-0.0011745996 0.0058729979 0.02553454
0 0.0058705779 0.021998256
0.0011735022 0.0058675106 0.022242099
0.0023293011 0.0058232527 0.028753519
0.0034913362 0.0058188937 0.030484557
0.0046430635 0.0058038295 0.031995922
0.0058186031 0.0058186031 0.030800045
0.0069839125 0.0058199274 0.03067705
0.0081351921 0.0058108512 0.029993087
0.0092969267 0.0058105793 0.028967559
0.010458488 0.005810271 0.02896601
0.011639967 0.0058199833 0.029525071
0.012831951 0.0058327052 0.028596729
0.01396604 0.0058191833 0.031422436
0.014964711 0.0057556583 0.034466922
0.016114485 0.005755173 0.032928467
0.017369056 0.0057896855 0.030122817
0.018346824 0.0057333824 0.035139859
0.019491494 0.005732792 0.03742671
0.020755302 0.0057653617 0.034766972
0.021956762 0.0057780952 0.033471853
0.023249628 0.005812407 0.030666649
0.024612293 0.0058600698 0.026790291
0.025780853 0.0058592847 0.025642186
0.026905535 0.0058490289 0.027123809
0.027985051 0.005830219 0.028556168
0.029094923 0.0058189849 0.031204969
0.030307703 0.0058284043 0.029034019
0.031545389 0.005841739 0.027885616
0.033350185 0.0059553897 0.020801127
0.034568645 0.0059601115 0.022135288
0.038222224 0.0059722224 0.015096903
0.039408717 0.0059710178 0.015774459
0.040528383 0.0059600566 0.018954545
0.041787997 0.0059697139 0.016861111
-0.071741849 0.007174185 0.016713589
-0.070116311 0.0071304725 0.019807875
-0.068088166 0.0070436038 0.026283175
-0.066762336 0.0070276139 0.027523756
-0.065285787 0.0069949054 0.025721908
-0.063842811 0.00696467 0.027856767
-0.063091256 0.0070101391 0.024990022
-0.061972067 0.0070157056 0.024780661
-0.061023604 0.0070411852 0.023144126
-0.059915286 0.0070488569 0.02145806
-0.058882751 0.0070659299 0.020254761
-0.057722673 0.0070680827 0.019171625
-0.056828871 0.0071036089 0.017337084
-0.055675458 0.0071075051 0.018674344
-0.054506496 0.0071095433 0.018679708
-0.053470131 0.0071293511 0.016503841
-0.052400265 0.007145491 0.015538663
-0.044215314 0.0071700513 0.015444517
-0.042992875 0.007165479 0.017172545
-0.041699417 0.0071484712 0.018415362
-0.040396873 0.0071288599 0.018370748
-0.039228912 0.0071325297 0.018496066
-0.034786135 0.0071971314 0.016783327
-0.033507414 0.0071801604 0.015569925
-0.032316249 0.0071813888 0.015572608
-0.031124482 0.007182573 0.016378224
-0.025037216 0.0071534906 0.015026391
-0.023715273 0.0071145818 0.017683238
-0.022532247 0.007115446 0.018757224
-0.021391558 0.007130519 0.016591132
-0.020301647 0.0071652876 0.015155345
-0.015460099 0.0071354304 0.01701349
-0.014214202 0.0071071009 0.017794847
-0.012984363 0.0070823799 0.020697147
-0.01180474 0.0070828442 0.020698518
-0.010624897 0.0070832642 0.020699739
-0.0094887428 0.0071165571 0.017872453
-0.008279142 0.0070964079 0.018604785
-0.0070966957 0.0070966957 0.020580739
-0.0058854637 0.0070625562 0.0228737
-0.0047055767 0.0070583648 0.023557127
-0.0035212121 0.0070424243 0.024776995
-0.0023433657 0.0070300968 0.025606543
-0.0011700477 0.0070202858 0.029045403
0 0.0069972617 0.024070442
0.0011662066 0.0069972398 0.026167691
0.0023309281 0.0069927843 0.02841109
0.0034912163 0.0069824327 0.030483514
0.0046429038 0.0069643557 0.03199482
0.0057644499 0.0069173402 0.035115242
0.0069171023 0.0069171023 0.036040694
0.0080922404 0.0069362065 0.034746855
0.0092478422 0.0069358819 0.032453299
0.010458128 0.0069720852 0.030013412
0.011639566 0.0069837393 0.029524058
0.012834863 0.0070008342 0.02840066
0.014012364 0.0070061819 0.029324979
0.015162241 0.0069979574 0.028445214
0.016242741 0.0069611748 0.03078258
0.017368462 0.0069473851 0.030682296
0.018524567 0.0069467127 0.032969922
0.019603698 0.0069189523 0.035354346
0.020754591 0.006918197 0.037007153
0.021956008 0.0069334763 0.035931081
0.023248833 0.0069746496 0.030665576
0.024712458 0.007060702 0.024865389
0.026008988 0.0070933602 0.022207826
0.027293803 0.0071201227 0.021303892
0.028604858 0.0071512144 0.020302653
0.029653747 0.0071168994 0.022660553
0.030773312 0.0071015335 0.022486627
0.032163505 0.0071474458 0.019344032
0.033485275 0.0071754162 0.017394513
0.034625661 0.0071639293 0.017537385
0.035813078 0.0071626161 0.017534137
0.037033759 0.0071678245 0.01826027
0.03832788 0.007186478 0.016919672
0.039521668 0.0071857576 0.017669678
0.040601358 0.0071649454 0.017544508
0.041809954 0.0071674208 0.016593307
-0.071836673 0.0083809448 0.016061753
-0.070113525 0.0083185537 0.0198071
-0.068085462 0.0082172109 0.026282132
-0.066749357 0.008197289 0.027595103
-0.06521894 0.0081523675 0.029126167
-0.063840263 0.0081251236 0.029860854
-0.062876664 0.0081506791 0.027574956
-0.061969593 0.008184663 0.024779648
-0.060882837 0.0081957662 0.025295496
-0.059801862 0.0082080988 0.022715122
-0.058868293 0.0082415612 0.02245599
-0.057794496 0.0082563572 0.021688193
-0.056791734 0.0082821278 0.020362973
-0.05562485 0.008284552 0.019618124
-0.05449038 0.0082920147 0.017806768
-0.053334396 0.0082964618 0.01766637
-0.052398164 0.0083360719 0.015538037
-0.044164117 0.0083553735 0.015978098
-0.042910263 0.0083436621 0.016758949
-0.041502167 0.0083004339 0.020649642
-0.04032502 0.0083022099 0.019196123
-0.039147127 0.0083039356 0.019200116
-0.038094915 0.008333263 0.016092479
-0.035809811 0.0083556231 0.017533422
-0.034537856 0.0083367238 0.018704146
-0.033352803 0.0083382009 0.015885562
-0.032167133 0.0083396267 0.015571952
-0.031020408 0.0083516482 0.016182899
-0.024996569 0.0083321901 0.020115554
-0.023700913 0.00829532 0.020751387
-0.022531332 0.0083010169 0.020242333
-0.021372054 0.0083113546 0.01822269
-0.020287363 0.0083536198 0.017347515
-0.019227535 0.0084120464 0.016301543
-0.015419864 0.0083030043 0.018231481
-0.014144885 0.0082511837 0.021231085
-0.012967076 0.008251776 0.02259776
-0.011789025 0.0082523171 0.02130717
-0.010586614 0.0082340334 0.022381186
-0.0094444705 0.0082639111 0.021748394
-0.0082348557 0.0082348557 0.024285257
-0.0070620263 0.0082390308 0.024066806
-0.0058754701 0.008225658 0.023116589
-0.004694656 0.0082156481 0.026287347
-0.0035099129 0.0081897965 0.029555619
-0.0023320527 0.0081621846 0.030799806
-0.0011654886 0.0081584202 0.030848861
0 0.0081580188 0.026459336
0.0011654276 0.0081579937 0.026459277
0.002312056 0.0080921957 0.03338474
0.003466384 0.0080882292 0.034188956
0.0046217437 0.0080880513 0.034602761
0.0057584243 0.0080617936 0.035577118
0.0069098719 0.008061517 0.036965817
0.0080611901 0.0080611901 0.036964297
0.009247466 0.0080915326 0.032598227
0.010430824 0.0081128627 0.031353116
0.011639094 0.0081473663 0.029522866
0.012834342 0.0081673088 0.028399527
0.014025689 0.0081816521 0.028860658
0.015193311 0.0081810141 0.027469128
0.016354678 0.0081773391 0.027637392
