ply
format ascii 1.0
comment PCL generated
element vertex 1276
property float x
property float y
property float z
element camera 0
property float view_px
property float view_py
property float view_pz
property float x_axisx
property float x_axisy
property float x_axisz
property float y_axisx
property float y_axisy
property float y_axisz
property float z_axisx
property float z_axisy
property float z_axisz
property float focal
property float scalex
property float scaley
property float centerx
property float centery
property int viewportx
property int viewporty
property float k1
property float k2
end_header
0.032930315 -0.043907084 0.024564922
0.034004726 -0.043877065 0.024366736
0.035083242 -0.043854054 0.024579763
0.036172368 -0.043845292 0.024574846
0.037260827 -0.04383627 0.023916841
0.038718831 -0.04425009 0.019680649
0.039820749 -0.044245277 0.02093333
0.0409736 -0.044295784 0.021146208
0.042064428 -0.044278346 0.022711813
0.043262471 -0.044371765 0.021860987
0.04489474 -0.04489474 0.017629445
0.046067562 -0.044943962 0.017021507
0.04701696 -0.04477806 0.018561959
-0.033366799 -0.043376837 0.018978894
-0.032300808 -0.043439016 0.020071894
-0.031260267 -0.043541085 0.019106776
-0.030291174 -0.043753918 0.01777786
-0.029174043 -0.043761063 0.015600562
-0.028077574 -0.043801017 0.016087592
-0.026958546 -0.043807637 0.016090035
-0.023569284 -0.043771528 0.015587628
-0.022340676 -0.04356432 0.017456502
-0.021047672 -0.043203115 0.021071553
-0.01987561 -0.043063823 0.022553265
-0.018755917 -0.04302828 0.020906448
-0.017654426 -0.043032665 0.023406982
-0.016543515 -0.043013141 0.021444291
-0.015468322 -0.043090325 0.023290008
-0.014294461 -0.042883385 0.025790989
-0.013195908 -0.0428867 0.026375324
-0.012043725 -0.042700477 0.028973669
-0.011038129 -0.043048702 0.025141239
-0.0099348994 -0.043051232 0.022521675
-0.0088479901 -0.043133952 0.021843314
-0.0077674109 -0.043275576 0.022936523
-0.0066580484 -0.043277312 0.022937477
-0.0055346056 -0.043169923 0.023180962
-0.0044472269 -0.043360464 0.021239698
-0.0033354925 -0.043361403 0.021240145
-0.0022014847 -0.042928953 0.02585268
-0.0010994781 -0.042879645 0.026362717
0 -0.042879779 0.027358055
0.0010989319 -0.042858344 0.027382284
0.0021978435 -0.042857945 0.025949806
0.0032963499 -0.042852547 0.025997967
0.0043945527 -0.042846885 0.026652783
0.0054930379 -0.042845692 0.026652038
0.006600887 -0.042905763 0.02602005
0.0077007255 -0.042904042 0.025582105
0.0087945955 -0.042873651 0.025872171
0.0098284194 -0.042589817 0.02861321
0.01090041 -0.042511597 0.027762145
0.011989672 -0.042508837 0.027032405
0.013028484 -0.042342573 0.029796571
0.014076039 -0.042228118 0.030934602
0.015130374 -0.042148896 0.032581747
0.016209662 -0.042145118 0.030419856
0.017408958 -0.042434335 0.029567927
0.018527087 -0.042503316 0.028788835
0.019614793 -0.042498719 0.031235039
0.020679101 -0.042446576 0.031231493
0.021733336 -0.042380005 0.032367259
0.022764932 -0.042277731 0.032848001
0.023896471 -0.042361923 0.032989055
0.025068391 -0.042507272 0.031433433
0.026196692 -0.042569626 0.030726135
0.027296213 -0.042582091 0.03055191
0.02843241 -0.042648617 0.029796124
0.029550571 -0.04268416 0.029355288
0.030639844 -0.042676926 0.029640913
0.031728555 -0.042669434 0.028812498
0.032798521 -0.042638078 0.028226286
0.033943594 -0.04270323 0.027470678
0.035031755 -0.042694949 0.02761054
0.036119275 -0.042686418 0.027605057
0.037193801 -0.042663477 0.026559234
0.038379069 -0.042765249 0.02367577
0.039739016 -0.043050602 0.020285606
0.040976826 -0.043191791 0.024124563
0.042074624 -0.043181852 0.024288177
0.0434779 -0.0434779 0.02114144
0.04458192 -0.043467373 0.019759446
0.046009399 -0.043765038 0.017315388
0.046820458 -0.043476138 0.02015993
0.048112176 -0.043636627 0.018392652
0.052889679 -0.043887179 0.015430927
-0.034672096 -0.042501278 0.016510516
-0.033351101 -0.042244729 0.019298196
-0.03224526 -0.04225241 0.019979805
-0.031138821 -0.042259827 0.020540416
-0.030156093 -0.042441908 0.019308329
-0.029135296 -0.042582355 0.017300367
-0.028084245 -0.042688049 0.016794205
-0.027043482 -0.042818848 0.015124351
-0.023518875 -0.042557966 0.017215967
-0.02225141 -0.042277679 0.019667476
-0.021056136 -0.042112272 0.021464616
-0.019946923 -0.042110171 0.021515608
-0.018777911 -0.04197415 0.022997767
-0.017665425 -0.041955385 0.023242682
-0.016647544 -0.042173777 0.022978008
-0.015475403 -0.042004663 0.024120599
-0.014357808 -0.041968979 0.024535179
-0.013140804 -0.041612547 0.028323203
-0.012039252 -0.041590143 0.029247552
-0.010945485 -0.041592844 0.029346585
-0.0098952111 -0.041779779 0.027673304
-0.0088282498 -0.041934188 0.025999725
-0.0077420715 -0.04202839 0.024665684
-0.0066356007 -0.042025469 0.024545282
-0.0055304626 -0.042031515 0.024497569
-0.0044587278 -0.04235791 0.021414727
-0.0033528591 -0.04246955 0.020249724
-0.0022397658 -0.042555552 0.020468563
-0.0011263278 -0.042800456 0.017822117
0 -0.042413063 0.021974236
0.0011154622 -0.04238756 0.022168398
0.002226897 -0.042311046 0.020250022
0.0032971357 -0.041763719 0.026004165
0.0043956004 -0.041758202 0.026659131
0.0054943473 -0.04175704 0.026658386
0.006638878 -0.042046227 0.023598433
0.0077450457 -0.042044535 0.023403257
0.0088403886 -0.041991845 0.023936242
0.0098280301 -0.041496128 0.028887033
0.010919391 -0.041493688 0.027113408
0.01203191 -0.041564777 0.027985424
0.013116777 -0.041536458 0.029488146
0.014208741 -0.041533243 0.029485881
0.015161156 -0.04115171 0.031812966
0.016282672 -0.041249439 0.030427068
0.01748783 -0.041533593 0.027706832
0.018634599 -0.041653808 0.02636981
0.019619461 -0.041418862 0.032455295
0.020607987 -0.041215975 0.032330334
0.021690002 -0.041211005 0.033393472
0.022771619 -0.04120579 0.03338927
0.023906151 -0.041292444 0.033506066
0.025047867 -0.04138343 0.032265097
0.026133114 -0.041377433 0.031775624
0.027245142 -0.041412614 0.031334609
0.028330488 -0.041406099 0.031135887
0.029557584 -0.041599561 0.029652953
0.030586073 -0.041509669 0.030519933
0.031643022 -0.041463267 0.029085755
0.03263741 -0.041340716 0.03029111
0.033893473 -0.041546836 0.028445572
0.034980025 -0.041538779 0.028440058
0.035974104 -0.041424725 0.028289169
0.037023686 -0.041379414 0.028622061
0.038288675 -0.041570563 0.026559889
0.039748415 -0.041956659 0.024643511
0.041071501 -0.042181544 0.024106085
0.042171832 -0.042171832 0.023375332
0.043488171 -0.042373091 0.020348907
0.044592444 -0.042362824 0.018845975
0.045728095 -0.042382136 0.020169824
0.046757966 -0.042304825 0.020865023
0.047934055 -0.042360328 0.020859599
0.049272042 -0.042553127 0.020226508
0.05037814 -0.042541541 0.019907296
0.051735777 -0.042738248 0.016862214
0.052845445 -0.042726107 0.016857415
0.053977303 -0.04273203 0.016876668
0.055120949 -0.042746857 0.0165824
-0.034826484 -0.041567091 0.018838912
-0.033598576 -0.041438244 0.016783863
-0.032161389 -0.041033499 0.023714811
-0.031123975 -0.04112811 0.02277413
-0.03016307 -0.041334577 0.02062133
-0.029187722 -0.041536376 0.017207474
-0.028090743 -0.041574299 0.016798109
-0.025768887 -0.041454297 0.016172677
-0.024609249 -0.041388281 0.016950905
-0.023477213 -0.041364614 0.017268449
-0.022209268 -0.041087147 0.021345735
-0.021061016 -0.041013557 0.021906286
-0.019954827 -0.041018255 0.022224188
-0.018848265 -0.041022692 0.023658216
-0.017706409 -0.04094607 0.024534255
-0.016651407 -0.041073471 0.023250312
-0.015478995 -0.040908772 0.023640752
-0.014344574 -0.040826865 0.02456516
-0.013240715 -0.040825538 0.02546525
-0.012022685 -0.040439941 0.030055523
-0.010930425 -0.040442575 0.03005746
-0.0098538045 -0.040510084 0.028966606
-0.0087982491 -0.040691901 0.027244121
-0.0077268719 -0.040842038 0.024889946
-0.0066232998 -0.040843684 0.024551004
-0.0055311401 -0.040930439 0.023677558
-0.0044597634 -0.041252811 0.021662563
-0.0033543666 -0.041370522 0.020400137
-0.0022486651 -0.041600306 0.018797576
-0.0011274394 -0.041715261 0.017486274
0 -0.041785032 0.016806304
0.0011274394 -0.041715261 0.017486274
0.0022315432 -0.041283552 0.019429028
0.0033410701 -0.041206531 0.020254433
0.0044546635 -0.041205641 0.02307108
0.0055654426 -0.041184276 0.022099048
0.0066783032 -0.041182872 0.022098273
0.0077634179 -0.041035209 0.022461653
0.0088638104 -0.040995121 0.022873372
0.0099335657 -0.040837992 0.024183363
0.011009333 -0.040734529 0.025274485
0.012121494 -0.040772296 0.027967662
0.013168615 -0.040603232 0.029446483
0.014241229 -0.040532731 0.030148089
0.015303995 -0.040446274 0.029878616
0.016395666 -0.040442642 0.027521759
0.017491886 -0.040449988 0.030309886
0.01863892 -0.040567059 0.029772997
0.019632746 -0.040356196 0.032559901
0.020615067 -0.040145133 0.033356726
0.021695031 -0.040135808 0.033401221
0.022776896 -0.040130723 0.033396989
0.023871679 -0.040147822 0.034265548
0.025053667 -0.040303726 0.032709002
0.026165346 -0.040338241 0.031346619
0.027251447 -0.040332139 0.031147957
0.02832129 -0.040303376 0.030828059
0.029405762 -0.040296786 0.032010317
0.030489692 -0.040289953 0.032004893
0.031451881 -0.040128265 0.032847106
0.032530513 -0.040120967 0.034730226
0.033664849 -0.040180627 0.034457326
0.034744073 -0.040172834 0.032271743
0.035822656 -0.040164795 0.030232072
0.036929376 -0.040187851 0.02988705
0.038242463 -0.040427744 0.028235435
0.039581235 -0.040680714 0.029341996
0.041080967 -0.041080967 0.024909705
0.042489339 -0.041371197 0.020140767
0.043644309 -0.041406136 0.019652575
0.044382785 -0.041054077 0.022547871
0.045481052 -0.041043878 0.024040252
0.046322331 -0.040807769 0.025121063
0.047397319 -0.040783741 0.025331885
0.048550393 -0.040826466 0.024745703
0.050262082 -0.041326601 0.020201504
0.051747642 -0.041623101 0.016866088
0.052857559 -0.041611269 0.01686129
0.053989671 -0.041617036 0.018158644
0.055133563 -0.041631468 0.017863929
0.057287473 -0.041561503 0.016792953
-0.033606138 -0.040327366 0.016618073
-0.032168631 -0.039933473 0.026506513
-0.031130983 -0.040025551 0.022246122
-0.030066794 -0.04008906 0.021619707
-0.029120242 -0.040320333 0.018956661
-0.028031919 -0.040365964 0.017917156
-0.026888525 -0.040332787 0.018283606
-0.025745416 -0.040297173 0.017704189
-0.024518747 -0.040121585 0.018701166
-0.023271095 -0.039893307 0.021299332
-0.022165757 -0.039898362 0.022345304
-0.021065773 -0.039914094 0.022687674
-0.019959332 -0.039918665 0.023661017
-0.018801978 -0.039815955 0.02490136
-0.017697787 -0.039820019 0.024903893
-0.016593266 -0.039823841 0.024906278
-0.015420464 -0.03965262 0.025831044
-0.014320199 -0.039655935 0.026804388
-0.013193444 -0.039580334 0.027534902
-0.011990011 -0.039240036 0.032417744
-0.01086915 -0.039128941 0.032954097
-0.0098265251 -0.0393061 0.031741768
-0.0087691518 -0.039461181 0.029314697
-0.0076733641 -0.039463013 0.028805971
-0.0066040307 -0.039624184 0.025625259
-0.0055138702 -0.039699864 0.025650442
-0.0044355099 -0.039919589 0.024193704
-0.0033429193 -0.040115032 0.023003936
-0.0022491738 -0.040485129 0.018898994
-0.0011268444 -0.0405664 0.017903209
0 -0.040608063 0.01744172
0.001121318 -0.040367447 0.020380974
0.0022354489 -0.040238082 0.021813989
0.0033531217 -0.04023746 0.021813661
0.0044653877 -0.040188488 0.022420496
0.0055815787 -0.040187366 0.02241984
0.0066976664 -0.040185995 0.022419065
0.0078289304 -0.040263072 0.021908104
0.0088896155 -0.04000327 0.02436009
0.0099751549 -0.03990062 0.024431676
0.011039142 -0.039740909 0.026178747
0.012142265 -0.039738324 0.027682602
0.013212384 -0.039637152 0.028093338
0.014331247 -0.039686527 0.026318789
0.015338892 -0.039442863 0.028331637
0.016476747 -0.039544191 0.027163893
0.017493894 -0.039361265 0.031142026
0.018585365 -0.039357245 0.031138837
0.019615339 -0.039230678 0.033052593
0.020619722 -0.039068948 0.033073068
0.021697501 -0.0390555 0.03316614
0.022748923 -0.038998153 0.033744127
0.023829037 -0.038992967 0.034515828
0.025050949 -0.039210182 0.032910407
0.026145058 -0.039217588 0.031790167
0.027221221 -0.039198559 0.03173691
0.028237857 -0.039098572 0.03122282
0.029319134 -0.039092176 0.031241953
0.030364243 -0.039039742 0.032060593
0.031458963 -0.039052505 0.032854497
0.032514215 -0.039017059 0.033163458
0.033627372 -0.039051142 0.034077555
0.034645334 -0.038976002 0.030656576
0.035772782 -0.039024852 0.030021012
0.036849201 -0.039016802 0.030014813
0.038155757 -0.039245922 0.031823456
0.039335344 -0.039335344 0.030727714
0.040946983 -0.039840307 0.023149461
0.042043965 -0.039831124 0.023144126
0.043173186 -0.039852172 0.023791462
0.04426945 -0.039842505 0.02378571
0.045317844 -0.039791279 0.026486456
0.04624645 -0.039639812 0.027301133
0.047407921 -0.039690353 0.026738495
0.048547968 -0.039721064 0.024872005
0.050034314 -0.040027451 0.022330433
0.051376183 -0.040207449 0.019693583
0.052534834 -0.040239446 0.01971209
0.053668849 -0.040251635 0.021177709
0.05492432 -0.040352561 0.019917518
0.056444112 -0.040639758 0.016874194
0.057555255 -0.040627237 0.016483396
0.058856394 -0.040746734 0.015008658
0.059969053 -0.040733699 0.01500389
-0.033724349 -0.039345074 0.01691246
-0.032465577 -0.039182592 0.022901416
-0.031270146 -0.039087683 0.02036038
-0.030181384 -0.039124016 0.021963835
-0.029096682 -0.039168611 0.020342916
-0.027981987 -0.03917478 0.020346135
-0.026866775 -0.039180715 0.018918186
-0.025628321 -0.038999621 0.019842774
-0.024493439 -0.038966835 0.020282209
-0.023295313 -0.038825519 0.02390027
-0.022242215 -0.038923874 0.022835523
-0.021040427 -0.03875868 0.024003267
-0.019871965 -0.038639933 0.025705129
-0.018770002 -0.038644124 0.025756449
-0.017670602 -0.038654439 0.025686264
-0.016519522 -0.038545553 0.026975602
-0.015419606 -0.038549017 0.026929438
-0.014294936 -0.038486365 0.028558791
-0.013190518 -0.038472343 0.028755307
-0.011992649 -0.038158428 0.032424867
-0.010871541 -0.038050395 0.03403011
-0.0098133832 -0.038163159 0.03242889
-0.0087676803 -0.038358599 0.030827314
-0.0077086384 -0.038543191 0.026140034
-0.0066076713 -0.038544748 0.026335448
-0.005519032 -0.038633224 0.025340229
-0.0044219084 -0.0386917 0.027794838
-0.0033274372 -0.038820099 0.026337653
-0.0022211198 -0.038869597 0.025779247
-0.0011193781 -0.039178234 0.022110581
0 -0.039467495 0.019389331
0.0011223545 -0.039282408 0.021503121
0.0022473608 -0.039328814 0.020968407
0.0033669802 -0.039281435 0.021405399
0.0044763321 -0.039167907 0.022692651
0.0055952594 -0.039166816 0.022813499
0.0067457864 -0.03935042 0.021452218
0.0078731673 -0.039365839 0.021451384
0.0088915722 -0.038900629 0.024365455
0.010002491 -0.038898576 0.023854047
0.011084077 -0.038794272 0.025018573
0.012252473 -0.038985144 0.023243874
0.01325682 -0.038665727 0.026715189
0.014409378 -0.03879448 0.024017543
0.015516493 -0.038791236 0.024015546
0.016480369 -0.038454197 0.029160857
0.017520078 -0.038325168 0.031488746
0.018589452 -0.038272399 0.031704038
0.019619647 -0.038149312 0.034516245
0.020699186 -0.038130082 0.033225983
0.021702265 -0.037978966 0.033173412
0.022753917 -0.037923194 0.034164041
0.023834268 -0.037918154 0.035396814
0.025056448 -0.038129378 0.033257246
0.026185719 -0.038187508 0.032524765
0.027227189 -0.038118064 0.032253087
0.028236169 -0.038010228 0.033048123
0.029317375 -0.038004007 0.034303337
0.030370897 -0.037963621 0.034685344
0.031529102 -0.038052365 0.033370614
0.032555863 -0.037981842 0.034091413
0.03363473 -0.037974697 0.034085006
0.034585096 -0.037827451 0.034029931
0.03565874 -0.037819877 0.034023136
0.036931343 -0.03801756 0.032563508
0.038047608 -0.038047608 0.033306956
0.039341755 -0.03824893 0.030758649
0.040425509 -0.038240347 0.028888732
0.041499324 -0.038223062 0.028978795
0.043149587 -0.03872399 0.02781114
0.043880168 -0.038395148 0.031455249
0.045166679 -0.038556919 0.029489517
0.046012934 -0.038344111 0.029626995
0.047345519 -0.038537052 0.027420759
0.048508056 -0.038585953 0.025336295
0.049662177 -0.038626138 0.025087953
0.050995927 -0.038801249 0.02269116
0.052194625 -0.038868338 0.022057205
0.053648654 -0.039118811 0.022774577
0.054782599 -0.039130427 0.022502542
0.056049474 -0.039234631 0.021169633
0.057152834 -0.039222535 0.020994365
0.058255166 -0.039210208 0.02115643
0.059982032 -0.039610777 0.016163379
-0.032472491 -0.038071197 0.021330714
-0.031276811 -0.037978984 0.020364702
-0.030079793 -0.037878256 0.023690164
-0.028970469 -0.037884459 0.022384405
-0.027854547 -0.037882183 0.022484958
-0.026872505 -0.038069382 0.019771338
-0.02563379 -0.037893429 0.021909356
-0.024498666 -0.037861574 0.022349179
-0.023388201 -0.037866611 0.024196595
-0.022267595 -0.03785491 0.02284041
-0.021137167 -0.037824403 0.023255885
-0.019876212 -0.037543952 0.026608884
-0.018728606 -0.037457213 0.027631611
-0.017644266 -0.037494067 0.027245909
-0.016461125 -0.037311882 0.027879924
-0.015387198 -0.037368909 0.029266864
-0.014291677 -0.037378229 0.028759211
-0.0131518 -0.037263434 0.030146062
-0.012042647 -0.037222728 0.030658364
-0.010916991 -0.037117768 0.032118082
-0.0098542972 -0.037227344 0.03085655
-0.0088113481 -0.037448227 0.02874428
-0.0077336757 -0.03756357 0.027409196
-0.0066338712 -0.037591938 0.027094394
-0.0055284146 -0.037593219 0.027143896
-0.0044410811 -0.03774919 0.025978178
-0.0033308836 -0.037750013 0.025978744
-0.0022284 -0.037882801 0.024423778
-0.0011196177 -0.038067002 0.02211529
0 -0.038162142 0.02250424
0.0011224125 -0.038162023 0.022504181
0.0022451684 -0.038167864 0.022431046
0.0033677008 -0.038167275 0.020923942
0.0044955164 -0.03821189 0.020388871
0.0056228838 -0.038235608 0.02070421
0.0067607169 -0.038310729 0.021068007
0.0078871846 -0.038309183 0.022452146
0.0089177722 -0.03790053 0.023252964
0.010028139 -0.037884079 0.023324639
0.011121676 -0.037813701 0.02412501
0.01227714 -0.037947524 0.023370326
0.013392288 -0.037944816 0.023368657
0.014516662 -0.037966654 0.022152364
0.015594617 -0.037872642 0.023340613
0.016707016 -0.037869237 0.023338526
0.017740428 -0.03769841 0.02608031
0.018632637 -0.037265275 0.03226921
0.019726535 -0.037261236 0.032265723
0.020703606 -0.03704856 0.034689605
0.021786999 -0.037037898 0.031578511
0.022877268 -0.037039388 0.031914294
0.024130305 -0.03729229 0.029823184
0.025223628 -0.037287101 0.030449837
0.026147636 -0.037042484 0.033259481
0.027195098 -0.036985334 0.032866359
0.02815864 -0.036822837 0.034340531
0.029390732 -0.03701055 0.034650117
0.030550469 -0.037096996 0.033286601
0.031690463 -0.037154339 0.03172946
0.032722745 -0.037085775 0.032450706
0.033698224 -0.036959343 0.033874214
0.034757189 -0.036929514 0.03413409
0.035836171 -0.036922116 0.034127235
0.036939193 -0.036939193 0.033611715
0.038055692 -0.036968384 0.033314019
0.039350111 -0.037163995 0.030765146
0.040425133 -0.037147418 0.02899164
0.041450668 -0.03708744 0.029589802
0.042531408 -0.037078664 0.029800504
0.043766137 -0.037201218 0.030010909
0.044938345 -0.037265945 0.031816721
0.04597953 -0.037221521 0.030165017
0.047106165 -0.037246734 0.030978709
0.048544884 -0.037511956 0.026742816
0.049659092 -0.037520204 0.027508378
0.050748479 -0.037509743 0.025206983
0.052205648 -0.03776579 0.022061884
0.053379092 -0.037810192 0.023744613
0.054794155 -0.038020432 0.024051219
0.056061286 -0.038121674 0.021174103
0.057718176 -0.038478784 0.018129826
0.058728009 -0.038399082 0.017618001
0.059994653 -0.038487136 0.016166776
-0.032774508 -0.037295129 0.017262042
-0.031364758 -0.036965605 0.02133888
-0.030223534 -0.036939874 0.022167087
-0.028949663 -0.036743805 0.024111301
-0.027840603 -0.036749598 0.023096144
-0.026749955 -0.036781188 0.022565812
-0.025768874 -0.036972731 0.022957385
-0.024651922 -0.036977883 0.021504283
-0.023454223 -0.036856636 0.022016913
-0.022340192 -0.036861315 0.022019744
-0.021170385 -0.036769617 0.023309261
-0.019849738 -0.036391187 0.028435677
-0.018721141 -0.036341038 0.029094458
-0.017605182 -0.036310688 0.029534638
-0.016464543 -0.036221996 0.029901832
-0.015383593 -0.036261328 0.030123174
-0.01428596 -0.03626436 0.029469728
-0.013154534 -0.036174968 0.03204748
-0.012053168 -0.036159504 0.03195256
-0.010960569 -0.036169875 0.031857461
-0.009865094 -0.03617201 0.031859338
-0.0088535221 -0.036520779 0.026927561
-0.0077493195 -0.036532506 0.026807278
-0.0066432711 -0.03653799 0.026613921
-0.0055660224 -0.036735751 0.024232864
-0.0044561019 -0.036762841 0.024549514
-0.0033421491 -0.036763638 0.02455008
-0.0022288633 -0.036776245 0.024404556
-0.0011146852 -0.036784612 0.02389434
0 -0.036901034 0.022484601
0.0011182097 -0.036900919 0.022484511
0.0022363984 -0.036900576 0.025206715
0.0033505349 -0.036855884 0.0257411
0.0044672829 -0.036855087 0.025181502
0.005603089 -0.036980387 0.023649514
0.006748633 -0.037117481 0.021971703
0.0078377854 -0.03694956 0.020901412
0.0089405263 -0.036879674 0.021726727
0.010057563 -0.036877729 0.022211611
0.01114525 -0.036779325 0.024931908
0.01228771 -0.03686313 0.023885459
0.013395072 -0.036836449 0.023956656
0.014525994 -0.036873676 0.022885829
0.015642069 -0.036870591 0.022859633
0.016757851 -0.036867276 0.022857547
0.017753826 -0.036617268 0.025842845
0.018833643 -0.036559425 0.027637362
0.019939343 -0.036555462 0.027634352
0.020962788 -0.036409054 0.028650939
0.022063429 -0.036404654 0.028647482
0.023050236 -0.036221799 0.030804306
0.024186036 -0.036279052 0.029125482
0.025228854 -0.036197919 0.030043602
0.02631611 -0.036184654 0.030524522
0.027200731 -0.035904963 0.033843577
0.028248036 -0.035853278 0.03742826
0.029567068 -0.036137529 0.033177882
0.030656938 -0.036131389 0.032129556
0.031746238 -0.03612503 0.031857193
0.032784048 -0.036062453 0.032530159
0.033814128 -0.035995685 0.032790601
0.034787629 -0.035874743 0.033511162
0.035815589 -0.035815589 0.033213735
0.036946818 -0.035860147 0.034999222
0.038387734 -0.036194149 0.030850887
0.039358232 -0.036078379 0.031207293
0.040377498 -0.036012363 0.031902224
0.04134886 -0.035908222 0.033056438
0.04242694 -0.035899717 0.034161508
0.043862224 -0.036186337 0.029146314
0.044947594 -0.03617733 0.030855983
0.045988984 -0.036134202 0.029929459
0.04706648 -0.036120787 0.031299353
0.04816946 -0.036127094 0.031242609
0.049601354 -0.036374327 0.028117925
0.050733898 -0.036396056 0.0277237
0.051861763 -0.036413576 0.026532799
0.053019315 -0.036450777 0.026790619
0.055121645 -0.037122741 0.02246365
0.056229554 -0.037111506 0.023880005
0.057729986 -0.037354697 0.019363344
0.058881041 -0.037366815 0.016536862
-0.031656276 -0.036178604 0.017705113
-0.030231243 -0.035829622 0.022826493
-0.028955482 -0.035637517 0.025304943
-0.027794637 -0.035577137 0.023925781
-0.026697092 -0.035596121 0.023541093
-0.025774058 -0.035859559 0.022961974
-0.024656881 -0.035864554 0.021508604
-0.023397759 -0.035653729 0.024206489
-0.022326477 -0.035722364 0.022388399
-0.021174647 -0.035662565 0.02331394
-0.019940082 -0.035449035 0.026522636
-0.018732138 -0.035260495 0.028930306
-0.01760873 -0.03521746 0.029540598
-0.016465127 -0.035125606 0.030636758
-0.015386692 -0.035169583 0.030129224
-0.01428884 -0.03517253 0.030131787
-0.013190722 -0.03517526 0.031908125
-0.012055599 -0.035070833 0.03492403
-0.01096278 -0.035080895 0.031863898
-0.0099447425 -0.035359085 0.029386491
-0.0088611422 -0.035444569 0.028707415
-0.0077538611 -0.035446223 0.028708786
-0.0067062369 -0.035766598 0.023483306
-0.0055710962 -0.035655014 0.024894118
-0.0044711023 -0.035768818 0.023484766
-0.0033439179 -0.035668459 0.025916457
-0.0022293131 -0.03566901 0.024409503
-0.0011121142 -0.035587654 0.02501756
0 -0.035764758 0.021662503
0.0011184354 -0.035789933 0.022489071
0.0022368499 -0.035789598 0.023461342
0.0033512113 -0.035746254 0.023995847
0.0044681849 -0.035745479 0.023314625
0.0056042196 -0.035867006 0.021782398
0.0067321272 -0.035904676 0.020784914
0.0078321351 -0.035804048 0.021318913
0.0089505939 -0.035802376 0.021804035
0.010068888 -0.035800487 0.023941875
0.011147498 -0.035671994 0.026857048
0.012261448 -0.03566967 0.02685532
0.013343094 -0.035581585 0.025784075
0.014528922 -0.035763498 0.022890449
0.015645221 -0.035760503 0.022669822
0.016762141 -0.035759237 0.023761064
0.017877899 -0.035755798 0.023758769
0.01913166 -0.036012538 0.020768613
0.020098561 -0.035730775 0.02423957
0.021212716 -0.035726681 0.023483932
0.022265771 -0.035625234 0.024695218
0.02337609 -0.035620712 0.024692088
0.024261666 -0.035289697 0.028354496
0.025360936 -0.03528478 0.028229177
0.026459739 -0.03527965 0.031258702
0.027447337 -0.035132591 0.033025354
0.028318372 -0.03485338 0.036441058
0.029633593 -0.035121296 0.028793901
0.030615555 -0.034989204 0.032548338
0.031703386 -0.034983046 0.032542616
0.032754261 -0.034937877 0.033021569
0.033815276 -0.034906089 0.032336593
0.034899302 -0.034899302 0.032330334
0.035822771 -0.034737233 0.033268839
0.037197206 -0.035009135 0.032147616
0.038348798 -0.035061758 0.031171948
0.039346494 -0.034974661 0.032375872
0.040257931 -0.03481767 0.034402221
0.041145582 -0.034648914 0.036403239
0.042400032 -0.034789767 0.034531325
0.043948408 -0.035158724 0.029127955
0.045035902 -0.035149973 0.031152397
0.046122577 -0.03514101 0.029113293
0.047081072 -0.035037078 0.030435294
0.048304014 -0.035130192 0.029146254
0.049260594 -0.035029758 0.030273885
0.050782893 -0.03532723 0.027439386
0.05194018 -0.035363529 0.026803732
0.053038552 -0.035359036 0.026771754
0.055132605 -0.036004964 0.023481667
0.056569446 -0.036204446 0.021592766
0.057938259 -0.036353417 0.018836588
0.059055716 -0.03634198 0.017601013
-0.030420555 -0.034927305 0.020113558
-0.029092042 -0.034686666 0.02329576
-0.027800055 -0.034472071 0.02393043
-0.0266921 -0.034477297 0.023715615
-0.025583651 -0.034482311 0.02636531
-0.024436003 -0.034432549 0.027073115
-0.023319457 -0.034423962 0.028412372
-0.022287119 -0.034545034 0.023388505
-0.021216858 -0.034616977 0.023391336
-0.019997541 -0.034440212 0.02572614
-0.01879775 -0.034278251 0.028255731
-0.01769381 -0.034281757 0.029862255
-0.016525755 -0.034153227 0.031566143
-0.01541777 -0.034139346 0.029381752
-0.014303482 -0.034108303 0.029821694
-0.013204238 -0.034110948 0.032254636
-0.01212213 -0.034162369 0.031624943
-0.011023268 -0.034172129 0.029536366
-0.0099587217 -0.034302261 0.02788496
-0.0089455377 -0.03466396 0.025406569
-0.0078298375 -0.034674998 0.024459511
-0.0067257849 -0.034749888 0.023512214
-0.0056050117 -0.034751073 0.023440093
-0.0044809738 -0.034727547 0.024486333
-0.0033453018 -0.03456812 0.026480824
-0.0022302358 -0.034568656 0.026481241
-0.0011151283 -0.034568977 0.025119692
0 -0.034653891 0.022809654
0.0011186542 -0.03467828 0.023709327
0.0022372876 -0.03467796 0.023465931
0.0033615332 -0.03473584 0.022711724
0.0044843778 -0.03475393 0.022346526
0.005611395 -0.034790646 0.021859556
0.0067334445 -0.034789462 0.020788968
0.0078370711 -0.034707032 0.024021864
0.0089552635 -0.034701645 0.024069369
0.01007414 -0.034699813 0.024311185
0.011122938 -0.034481108 0.027081072
0.012234434 -0.034478858 0.027930111
0.013336223 -0.034451909 0.026105136
0.014533343 -0.034656432 0.024839252
0.015661038 -0.034678016 0.024521232
0.016792756 -0.034705028 0.024130255
0.017988302 -0.034852337 0.02267006
0.019207677 -0.035025764 0.019655108
0.020102486 -0.034620948 0.024827302
0.021246856 -0.03466592 0.021958262
0.022330835 -0.034612797 0.023485661
0.023477547 -0.034657329 0.023822725
0.024490755 -0.0345097 0.025664866
0.025378445 -0.034205731 0.029521376
0.026478004 -0.034200754 0.030536592
0.027586173 -0.034206856 0.030896008
0.028685093 -0.034201458 0.03089115
0.029709786 -0.034111235 0.029333323
0.03077095 -0.034067836 0.029328316
0.031764068 -0.033954691 0.030705631
0.032760635 -0.033852655 0.032033741
0.033714753 -0.033714753 0.033724844
0.034906089 -0.033815276 0.032336593
0.036105651 -0.033917431 0.02993083
0.037192076 -0.033910424 0.032299221
0.038184546 -0.033820596 0.033140272
0.039214626 -0.033768151 0.033932239
0.040261261 -0.033732407 0.034772098
0.041153565 -0.033572644 0.036725044
0.042363416 -0.033673484 0.036958367
0.04387949 -0.034006603 0.032013088
0.045027263 -0.034045003 0.031400353
0.046113726 -0.03403632 0.029288232
0.047199346 -0.034027435 0.029425651
0.048265494 -0.034005232 0.029587001
0.049348962 -0.033995952 0.03245464
0.050792702 -0.034229863 0.030996054
0.051950209 -0.03426503 0.030407578
0.053048786 -0.034260672 0.030326277
0.055143237 -0.034886539 0.023148298
0.0568307 -0.035235036 0.018846005
0.05813396 -0.035336327 0.017392814
0.059292808 -0.035347637 0.0168809
-0.03946168 -0.033824295 0.020619631
-0.038342364 -0.033831496 0.019484937
-0.037568308 -0.034153007 0.015659094
-0.036483735 -0.0342035 0.015080333
-0.030794853 -0.034216505 0.017593592
-0.029304199 -0.033812538 0.022110879
-0.028078398 -0.033694077 0.022211462
-0.026762694 -0.033453368 0.02549243
-0.025651313 -0.033458237 0.025496125
-0.024514083 -0.033428296 0.026301116
-0.023323864 -0.033319805 0.027980566
-0.022291331 -0.033436999 0.027036697
-0.021193173 -0.033462904 0.026675582
-0.020096447 -0.033494081 0.024613351
-0.018892189 -0.033339158 0.02673012
-0.017756458 -0.033293359 0.028385431
-0.016630962 -0.033261925 0.028849989
-0.015523628 -0.03326492 0.028852582
-0.014344903 -0.033103622 0.029875934
-0.013225702 -0.033064254 0.031628668
-0.012124427 -0.033066615 0.031630933
-0.011025356 -0.033076067 0.031705946
-0.0099720974 -0.033240326 0.027014852
-0.0088917902 -0.033344213 0.027356744
-0.0078313211 -0.033562806 0.02446416
-0.0067270589 -0.033635296 0.02378422
-0.0056060744 -0.033636447 0.023785025
-0.0044818232 -0.033613674 0.024490982
-0.0033563329 -0.033563331 0.025172472
-0.0022374685 -0.033562027 0.025197208
-0.0011185623 -0.033556867 0.025197446
0 -0.033595279 0.025902867
0.0011207513 -0.033622537 0.025537968
0.0022429409 -0.033644114 0.024127036
0.0033758509 -0.03375851 0.020891964
0.0045010368 -0.033757776 0.020769894
0.0056182342 -0.033709407 0.020672023
0.0067416504 -0.033708252 0.020671308
0.0078385565 -0.033593811 0.024050742
0.0089579327 -0.033592246 0.024268478
0.010072765 -0.033575881 0.025288463
0.011139026 -0.033417076 0.027450919
0.01225213 -0.033414897 0.027449101
0.013365004 -0.033412512 0.027811825
0.014575597 -0.033635993 0.024795353
0.015729511 -0.033706095 0.023286223
0.016866114 -0.033732228 0.022749454
0.017991707 -0.033734452 0.021945268
0.019114232 -0.033730999 0.021943003
0.02010629 -0.03351048 0.02483201
0.021305112 -0.033639651 0.024051756
0.022423722 -0.033635583 0.022979975
0.023580171 -0.033685956 0.022248417
0.024567509 -0.033501148 0.024649709
0.025680633 -0.03349648 0.026807398
0.026619935 -0.033274919 0.029401273
0.027724894 -0.033269871 0.029396832
0.028829338 -0.033264622 0.026115596
0.029787468 -0.033097185 0.028271079
0.030783549 -0.032982372 0.029722065
0.03179644 -0.032892872 0.030347526
0.032766812 -0.032766812 0.032791704
0.033828225 -0.032736991 0.033100754
0.035025161 -0.032836087 0.031978995
0.03611245 -0.032829501 0.033960283
0.037058998 -0.032699116 0.035601228
0.038140848 -0.032692157 0.033728004
0.039221998 -0.032685 0.035198301
0.040273305 -0.032654032 0.035505235
0.04135222 -0.032646488 0.03549704
0.04272541 -0.032865699 0.033334106
0.043810278 -0.032857709 0.03332603
0.044934027 -0.032878555 0.034285545
0.046122372 -0.032944553 0.032994777
0.047236789 -0.0329559 0.032720089
0.048322406 -0.032947093 0.029157341
0.04956213 -0.033041421 0.03088966
0.050696611 -0.033063006 0.030470282
0.05196844 -0.033171345 0.030340791
0.053136945 -0.03321059 0.029897243
0.055292532 -0.03385257 0.02131781
0.056862421 -0.034117453 0.018342704
0.058181718 -0.03422454 0.017106533
0.061281331 -0.034045182 0.017234713
0.062660478 -0.03417844 0.015301287
-0.042254668 -0.033118524 0.016496181
-0.041017234 -0.03304166 0.017469078
-0.039468862 -0.03270277 0.022247046
-0.038349345 -0.032709736 0.022251785
-0.037421137 -0.032885242 0.019541055
-0.036490384 -0.033069409 0.017192781
-0.035486639 -0.033197179 0.015522599
-0.029396338 -0.032788225 0.021362364
-0.028195817 -0.032707147 0.019933254
-0.027028382 -0.032659296 0.02115047
-0.025905972 -0.032664049 0.021153539
-0.024721628 -0.032587599 0.022613853
-0.023473525 -0.032415822 0.025216252
-0.022328209 -0.032375906 0.026385665
-0.021214366 -0.032379821 0.026486069
-0.020176679 -0.032506868 0.024617851
-0.01897002 -0.032360621 0.025422603
-0.017817074 -0.032293446 0.027150989
-0.016673207 -0.03223487 0.028004438
-0.015563061 -0.032237768 0.028006941
-0.014368867 -0.032053623 0.029224962
-0.013264597 -0.032056112 0.030418694
-0.012142028 -0.032010801 0.031077445
-0.011126475 -0.032266777 0.028453052
-0.010014419 -0.032268681 0.025220126
-0.0089337938 -0.032385003 0.024370193
-0.0078429738 -0.032492317 0.022911996
-0.0067396034 -0.03257475 0.023034543
-0.005616528 -0.032575861 0.023035318
-0.0044933478 -0.032576773 0.023425162
-0.0033598677 -0.03247872 0.024787873
-0.0022380005 -0.032451008 0.025177509
-0.0011199837 -0.032479528 0.02386412
0 -0.032481395 0.025907606
0.0011216867 -0.032528911 0.025250733
0.0022474877 -0.032588571 0.02442342
0.0033803012 -0.032676246 0.022087723
0.0045188894 -0.03276195 0.021430492
0.0056484537 -0.03276103 0.019070417
0.00674763 -0.032613546 0.022207499
0.0078714918 -0.032610465 0.022255272
0.0089595746 -0.032478459 0.0242486
0.010078989 -0.032476742 0.024247289
0.011195176 -0.032466009 0.024367452
0.01231924 -0.032477997 0.026189685
0.013487085 -0.032593787 0.024801791
0.014622518 -0.032619461 0.023997545
0.015746007 -0.032616727 0.023509294
0.016929369 -0.032730114 0.02190274
0.018047506 -0.032711104 0.021365911
0.01910327 -0.032587931 0.021436602
0.020090286 -0.03236768 0.02442342
0.021309011 -0.03252428 0.024056137
0.022464268 -0.03257319 0.022959918
0.023588311 -0.032574333 0.022179574
0.024593377 -0.032418542 0.024265587
0.025686726 -0.032387611 0.025355101
0.026700564 -0.032263182 0.027002633
0.027860459 -0.032318134 0.026173085
0.028874051 -0.032205671 0.027018547
0.029979674 -0.032200389 0.027548105
0.03094035 -0.032045364 0.028659701
0.031978149 -0.031978149 0.029503822
0.032969285 -0.031870309 0.030347526
0.033982892 -0.031790446 0.031360477
0.035037365 -0.031752612 0.034797788
0.036119029 -0.031740963 0.034863532
0.037065744 -0.0316149 0.036650032
0.038147788 -0.031608168 0.036084861
0.039229136 -0.03160125 0.036076963
0.04024478 -0.031543206 0.036771297
0.041391946 -0.031588592 0.036036283
0.04273317 -0.031775948 0.033340156
0.043774661 -0.031736631 0.035026491
0.044857845 -0.031728718 0.035090387
0.045803029 -0.0316259 0.036387891
0.047216751 -0.031843856 0.033862859
0.048482779 -0.031954557 0.032209486
0.049796835 -0.032091293 0.030194193
0.051019847 -0.032164685 0.0277448
0.052182239 -0.032197554 0.027591914
0.053691462 -0.032438591 0.025482476
0.055482961 -0.032836854 0.02054897
0.056872692 -0.03298616 0.017646015
0.058210682 -0.033100192 0.016844153
0.05918283 -0.033005808 0.015801519
0.060301606 -0.03299522 0.016929954
0.061292369 -0.032916274 0.017093152
0.062671751 -0.033045106 0.015930682
0.063948169 -0.033116017 0.015009701
-0.040976461 -0.031870581 0.018199146
-0.039679408 -0.031743526 0.019924045
-0.038347851 -0.031580582 0.022352695
-0.037227675 -0.031587116 0.022575527
-0.036364868 -0.031819262 0.018942088
-0.035428971 -0.032000363 0.016447127
-0.034354437 -0.032064144 0.015625328
-0.033215351 -0.032069996 0.018321842
-0.028320694 -0.031719178 0.018018395
-0.027191995 -0.031723995 0.020109862
-0.026069773 -0.031737115 0.019845605
-0.02489569 -0.031685423 0.020650059
-0.023623094 -0.031497456 0.022280723
-0.022352811 -0.031293936 0.025418341
-0.021218117 -0.031268805 0.026126206
-0.020180246 -0.031391494 0.024427772
-0.01907669 -0.031420428 0.022996187
-0.017941784 -0.031398121 0.024116874
-0.01670807 -0.0311884 0.027158409
-0.015595604 -0.031191207 0.027695805
-0.014482846 -0.031193824 0.0276981
-0.013383682 -0.031228591 0.029426962
-0.012269252 -0.031230824 0.029647976
-0.011141216 -0.031195406 0.029966086
-0.010049031 -0.031263653 0.02624622
-0.008935377 -0.03127382 0.024374515
-0.0078473426 -0.031389371 0.024497271
-0.0067407973 -0.031457055 0.023038626
-0.0056175236 -0.031458132 0.023039401
-0.0044941446 -0.031459011 0.023040026
-0.0033668499 -0.03142393 0.024305731
-0.0022446015 -0.031424418 0.024306118
-0.0011223111 -0.031424712 0.024598271
0 -0.031435031 0.024938971
0.0011239534 -0.031470697 0.025936455
0.0022523871 -0.03153342 0.025036007
0.0033814479 -0.031560179 0.024767965
0.0045196903 -0.031637833 0.025059372
0.0056552328 -0.031669304 0.020971417
0.006786047 -0.03166822 0.021749198
0.0079167355 -0.031666942 0.019875169
0.0090287877 -0.031600758 0.020798594
0.01015685 -0.03159909 0.020116419
0.011254319 -0.031512093 0.020674646
0.01239165 -0.031542383 0.020867884
0.013540545 -0.031594604 0.023736149
0.014747608 -0.031764079 0.020354122
0.015888367 -0.031776734 0.020011991
0.016878571 -0.031506665 0.023341119
0.018002076 -0.031503633 0.020397246
0.019138677 -0.031522527 0.020686835
0.02030275 -0.031582057 0.021656841
0.021507874 -0.031695813 0.022018939
0.022468239 -0.031455535 0.023765892
0.023588652 -0.031451534 0.023762882
0.024597723 -0.031306192 0.025776118
0.025712214 -0.031301826 0.026574105
0.026716938 -0.031169761 0.027614564
0.027825918 -0.031165028 0.026347667
0.028883884 -0.03110572 0.027120441
0.029984964 -0.031095518 0.027552962
0.030983185 -0.030983185 0.029077381
0.032045364 -0.03094035 0.029387742
0.033184361 -0.030972071 0.028848588
0.034473922 -0.031137735 0.028455019
0.035386965 -0.030963594 0.030850589
0.036451474 -0.030928522 0.031062603
0.037377253 -0.030781269 0.032025933
0.038277511 -0.030622009 0.034200579
0.039238211 -0.03051861 0.035550147
0.040319085 -0.030511741 0.036050946
0.041399214 -0.030504685 0.036381721
0.042480949 -0.030499144 0.037365973
0.043491818 -0.030444272 0.03871268
0.044567995 -0.03043668 0.038146287
0.045953345 -0.030635564 0.035184354
0.047401864 -0.03086633 0.032223731
0.048491266 -0.030858079 0.032215118
0.049805555 -0.030990122 0.029329062
0.051095486 -0.031101601 0.027169526
0.052387286 -0.031209446 0.025736034
0.054283541 -0.0316654 0.020631135
0.05539798 -0.031655986 0.022315592
0.05661704 -0.031705543 0.019773722
0.058008492 -0.031847801 0.019260734
0.059127275 -0.031837765 0.015924901
0.06018747 -0.031797156 0.016739905
0.061208636 -0.031737812 0.017433733
0.062417503 -0.031776182 0.01709044
0.06380073 -0.031900365 0.015156895
0.065078989 -0.031968627 0.015272111
-0.042540476 -0.031043051 0.015193403
-0.040983416 -0.030737562 0.019244432
-0.039686143 -0.030615024 0.019927442
-0.038354363 -0.030457878 0.02235651
-0.037234001 -0.030464182 0.022579402
-0.036256555 -0.030591469 0.02100718
-0.035241321 -0.030694054 0.019579798
-0.034211043 -0.030789938 0.018200278
-0.033103105 -0.030820133 0.019951165
-0.032261238 -0.031109052 0.0150024
-0.028858334 -0.031167001 0.015835583
-0.02740651 -0.030832322 0.018194258
-0.026237665 -0.030800736 0.018731385
-0.024958741 -0.030631181 0.020847946
-0.023627125 -0.030377731 0.024666071
-0.02239673 -0.030235587 0.024912238
-0.021279469 -0.030239245 0.02527988
-0.020237297 -0.030355945 0.023605376
-0.019115079 -0.030359244 0.024483204
-0.017959436 -0.030306548 0.025069326
-0.016825827 -0.030286487 0.025655359
-0.015669769 -0.03022027 0.027822137
-0.01456595 -0.030252358 0.027751476
-0.01338597 -0.030118432 0.030064434
-0.012326873 -0.030256871 0.027755618
-0.011156501 -0.030122554 0.02965495
-0.010075931 -0.030227792 0.025885761
-0.0089568561 -0.03022939 0.025473505
-0.0078708259 -0.030358901 0.023576885
-0.0067466954 -0.030360129 0.023577839
-0.0056528547 -0.030525414 0.023554295
-0.0045197331 -0.0305082 0.021705627
-0.0033898738 -0.030508865 0.021706104
-0.0022565443 -0.030463347 0.022120148
-0.0011250583 -0.030376574 0.023580432
0 -0.030412804 0.023726493
0.0011273702 -0.030438993 0.02465114
0.002264088 -0.030565187 0.02277714
0.0033971742 -0.030574568 0.023482502
0.0045370101 -0.03062482 0.023773968
0.005671104 -0.030623963 0.023408294
0.0068138521 -0.030662334 0.020779669
0.0079632234 -0.03071529 0.01997593
0.0091004027 -0.03071386 0.019974977
0.010205115 -0.030615347 0.016811192
0.011338348 -0.030613538 0.016810179
0.01248274 -0.030639453 0.016979337
0.01364575 -0.030702937 0.021015942
0.014793605 -0.030725179 0.019019902
0.015930237 -0.030722599 0.018726438
0.017047424 -0.030685363 0.018651783
0.018017793 -0.030405026 0.020692497
0.019180177 -0.030462634 0.021662891
0.020358726 -0.030538091 0.021101415
0.021648943 -0.030764289 0.021974057
0.022650713 -0.030578462 0.021825612
0.023596505 -0.030338364 0.024495959
0.024667403 -0.030273631 0.024614185
0.025785049 -0.030269407 0.024610728
0.026740439 -0.030082993 0.027303547
0.027850393 -0.030078424 0.026036441
0.028939314 -0.030052364 0.028922051
0.029994987 -0.029994987 0.029888511
0.031095518 -0.029984964 0.030077636
0.032200389 -0.029979674 0.027499557
0.033426613 -0.030083951 0.025868654
0.034534313 -0.030078273 0.027756244
0.0355133 -0.029964346 0.02935186
0.036491681 -0.029856829 0.030849665
0.037587646 -0.029849013 0.029897571
0.038684919 -0.029842652 0.029891223
0.039369211 -0.029526908 0.034465492
0.040453687 -0.029520258 0.034966618
0.041337192 -0.029371163 0.038810492
0.04242203 -0.029369097 0.038728654
0.043499183 -0.029361948 0.038017005
0.044930384 -0.029588301 0.03454569
0.046050064 -0.029603614 0.034246385
0.047339655 -0.0297249 0.032713115
0.048565987 -0.029801857 0.031446487
0.049914628 -0.029948778 0.028439254
0.051295955 -0.030108495 0.025747687
0.053177096 -0.030548545 0.019287139
0.055407312 -0.030530561 0.022319347
0.05625229 -0.030376235 0.02110517
0.05791977 -0.030663406 0.018491477
0.059036832 -0.030653741 0.016699851
0.060322255 -0.030730205 0.015801877
0.061440315 -0.030720158 0.015796691
0.062679924 -0.030770147 0.018539846
0.063858673 -0.030789003 0.016701937
0.064976603 -0.030778391 0.016382962
0.066257507 -0.030844014 0.015052557
-0.042547435 -0.029898196 0.015244365
-0.041068662 -0.029660702 0.01837489
-0.039671425 -0.029470202 0.020148933
-0.038403936 -0.029367715 0.021826595
-0.037172057 -0.029287076 0.023359358
-0.036227562 -0.029434893 0.021520108
-0.035169989 -0.029497411 0.022155255
-0.03421665 -0.02965443 0.02135846
-0.033087417 -0.029664582 0.022139192
-0.031972505 -0.029688753 0.01995796
-0.027677774 -0.029984256 0.01647225
-0.026272714 -0.02969959 0.018199891
-0.024962842 -0.029501542 0.021313131
-0.023642493 -0.029271659 0.026250005
-0.022396768 -0.029115798 0.028708488
-0.021285279 -0.029127223 0.028663367
-0.020240627 -0.029236462 0.025894821
-0.019118227 -0.02923964 0.025897622
-0.017995469 -0.029242637 0.024246573
-0.016841367 -0.029191703 0.02531907
-0.015717471 -0.02918959 0.026537538
-0.014624482 -0.029248964 0.026320815
-0.013522465 -0.029298674 0.025884986
-0.012396481 -0.029300772 0.025886863
-0.011254448 -0.029261565 0.025815517
-0.010091824 -0.029154159 0.02662003
-0.0089962939 -0.029237954 0.023579657
-0.0079023596 -0.029351624 0.022120684
-0.0067894226 -0.02942083 0.0210751
-0.0056909001 -0.02959268 0.020905495
-0.0045304573 -0.029447973 0.022828758
-0.0033951788 -0.029424883 0.022318125
-0.002259837 -0.029377881 0.022342831
-0.001129929 -0.029378153 0.02234304
0 -0.029438365 0.021466881
0.0011334581 -0.029469913 0.022294343
0.0022668953 -0.029469639 0.022294134
0.0034033929 -0.029496072 0.023778409
0.0045435997 -0.029533397 0.023461521
0.0056793401 -0.029532569 0.023460865
0.0068244664 -0.029572688 0.021391481
0.0079645365 -0.029582564 0.021220297
0.0091617648 -0.029775735 0.016985178
0.010274137 -0.029680843 0.015816301
0.011415035 -0.029679092 0.015815377
0.012514236 -0.029579105 0.017785013
0.013650917 -0.029576987 0.020094901
0.014796041 -0.029592082 0.019193292
0.015981387 -0.029679719 0.017343014
0.017069384 -0.029586932 0.018727809
0.018097611 -0.029408617 0.020841837
0.019232942 -0.029415086 0.021763772
0.020515257 -0.029633151 0.019402862
0.021710245 -0.029708758 0.020762086
0.022745596 -0.029569276 0.020273417
0.023873458 -0.029557614 0.019298583
0.024928091 -0.029460471 0.02072987
0.02590665 -0.029285779 0.023885846
0.027023256 -0.029275194 0.023979545
0.028026529 -0.02914759 0.025870651
0.029051417 -0.029051417 0.027275264
0.030163826 -0.029046647 0.027465075
0.031149907 -0.028924914 0.029378474
0.032205671 -0.028874051 0.029227614
0.033432093 -0.028974479 0.027596116
0.034539975 -0.02896901 0.027760774
0.035590935 -0.028917633 0.028458983
0.036695775 -0.028911823 0.028453261
0.037595861 -0.028749777 0.029878229
0.038841885 -0.028853972 0.028174579
0.039787993 -0.028735774 0.029889554
0.040877283 -0.028724577 0.032572985
0.041875679 -0.02865178 0.031475127
0.042872995 -0.028581997 0.03454411
0.043852612 -0.028504198 0.034463048
0.045168523 -0.028643452 0.032299548
0.046337161 -0.028684909 0.031444073
0.047482651 -0.02871044 0.031024426
0.048752207 -0.028808123 0.028475821
0.05009963 -0.028946454 0.026678205
0.051868793 -0.029317144 0.020142078
0.05352091 -0.029607311 0.016244471
0.05541632 -0.029404579 0.0226129
0.05626142 -0.02925594 0.022895843
0.057676736 -0.029403826 0.020812333
0.058999345 -0.029499672 0.018850714
0.060434338 -0.029647034 0.017517567
0.061570756 -0.029645178 0.017391235
0.062690072 -0.029635306 0.017650664
0.063457295 -0.029462315 0.019645423
0.064791389 -0.029553967 0.018072367
0.066104047 -0.02963285 0.016379893
0.070229284 -0.029933793 0.015736461
-0.050386157 -0.028628498 0.015994459
-0.044575837 -0.028574254 0.017395943
-0.043443184 -0.028581042 0.017400056
-0.042309731 -0.028587656 0.018737257
-0.041075133 -0.028524397 0.019856751
-0.039677676 -0.028341196 0.020564377
-0.038453281 -0.028274473 0.021854311
-0.037330031 -0.028280327 0.021858841
-0.036079917 -0.028187435 0.026133955
-0.035175543 -0.028367372 0.02368775
-0.034222052 -0.028518377 0.022357106
-0.033090882 -0.028526623 0.023065299
-0.031969056 -0.028543798 0.023482203
-0.031304713 -0.028985845 0.016078442
-0.026276872 -0.028561817 0.023476481
-0.02501893 -0.028430603 0.025643021
-0.023748336 -0.02827183 0.028247535
-0.022602107 -0.028252635 0.026379079
-0.021357948 -0.028102564 0.027330548
-0.020207722 -0.028066279 0.027285069
-0.019114019 -0.028108852 0.026071995
-0.018053779 -0.028209029 0.023107201
-0.016927049 -0.028211746 0.024252743
-0.015805963 -0.028224934 0.024741471
-0.014661592 -0.02819537 0.025254488
-0.013579357 -0.028290328 0.024064183
-0.012448635 -0.028292352 0.024357885
-0.01131768 -0.0282942 0.024067491
-0.010161873 -0.028227424 0.024604291
-0.0090322802 -0.028225875 0.023632109
-0.0079692081 -0.028461456 0.020834237
-0.0068653454 -0.028605606 0.019009531
-0.0057213171 -0.028606586 0.019010216
-0.0045771818 -0.028607387 0.022029072
-0.0034152523 -0.028460436 0.022053897
-0.0022677418 -0.028346773 0.023879915
-0.0011338816 -0.02834704 0.023880154
0 -0.028395813 0.021567672
0.0011363768 -0.028409418 0.023515016
0.002277479 -0.028468488 0.022151589
0.0034293099 -0.028577583 0.021956533
0.0045723133 -0.028576959 0.021104127
0.0057134065 -0.028567031 0.021249563
0.0068281051 -0.028450437 0.021224499
0.0079981713 -0.028564898 0.019836307
0.0091690589 -0.028653309 0.020443827
0.010314646 -0.028651794 0.020442754
0.01145274 -0.028631849 0.019906193
0.012576447 -0.028582834 0.017909497
0.013718779 -0.02858079 0.017908216
0.014841877 -0.028542072 0.017979831
0.015983921 -0.028542716 0.017953992
0.017124087 -0.028540144 0.018292934
0.018242529 -0.028503951 0.018826276
0.019422043 -0.028561829 0.01843521
0.020562282 -0.028558724 0.018433213
0.021713683 -0.028570637 0.020716757
0.022811195 -0.028513994 0.021565169
0.023883618 -0.02843288 0.023361325
0.024992196 -0.028400222 0.020733148
0.026061671 -0.028327903 0.021507949
0.027027531 -0.028153678 0.024542212
0.028149402 -0.028149402 0.024174064
0.029210748 -0.028087258 0.025700599
0.030348931 -0.028100861 0.024919152
0.031467602 -0.028096072 0.025400579
0.032585692 -0.028091114 0.02491051
0.033597585 -0.027997985 0.025464296
0.034584925 -0.02789107 0.027085602
0.035693612 -0.027885633 0.028463483
0.036825653 -0.027898224 0.028773099
0.037836824 -0.027821194 0.029907197
0.038941368 -0.027815264 0.032956392
0.039794262 -0.027634904 0.030403435
0.040883712 -0.02762413 0.035195976
0.041930616 -0.027585931 0.03097114
0.043023836 -0.02757938 0.030600339
0.044159863 -0.027599914 0.030326456
0.045252565 -0.027593028 0.030318886
0.046499502 -0.027678275 0.029972196
0.047664434 -0.027711879 0.02940768
0.049026024 -0.027855694 0.027415603
0.050434057 -0.028018922 0.023077965
0.051901948 -0.028207581 0.019685745
