ply
format ascii 1.0
comment PCL generated
element vertex 1258
property float x
property float y
property float z
element camera 0
property float view_px
property float view_py
property float view_pz
property float x_axisx
property float x_axisy
property float x_axisz
property float y_axisx
property float y_axisy
property float y_axisz
property float z_axisx
property float z_axisy
property float z_axisz
property float focal
property float scalex
property float scaley
property float centerx
property float centery
property int viewportx
property int viewporty
property float k1
property float k2
end_header
0.052759588 -0.01796071 0.027714193
0.054124817 -0.018041605 0.027681857
0.055360399 -0.018076865 0.026657611
0.056802507 -0.018176803 0.023675025
0.057951413 -0.018180836 0.022652298
0.058905665 -0.018124821 0.023152649
0.060019135 -0.018118985 0.023870021
0.061131518 -0.018113043 0.023137629
0.062432028 -0.018162044 0.024989009
0.063153595 -0.018043885 0.028262943
0.064118162 -0.017998081 0.029242426
0.065087207 -0.017955091 0.029473335
0.066025704 -0.017905276 0.028667152
0.067283086 -0.017942157 0.028729051
0.068456389 -0.017955774 0.028212517
0.069698125 -0.017986614 0.026540101
0.071405798 -0.018134806 0.022485524
0.072950147 -0.018237537 0.019492775
0.074545652 -0.0183497 0.018306404
-0.068059318 -0.017601546 0.015316993
-0.066782176 -0.017574256 0.016215175
-0.065173663 -0.017457232 0.017451763
-0.063822441 -0.017406119 0.016612589
-0.062617742 -0.017393818 0.019468367
-0.061222199 -0.017327037 0.020586222
-0.059558548 -0.01718035 0.024653435
-0.058117229 -0.017093303 0.027078986
-0.056943964 -0.017083189 0.027498513
-0.055822067 -0.017088389 0.027506888
-0.05446684 -0.017020887 0.027708739
-0.053293668 -0.017008618 0.028176755
-0.052174691 -0.017013486 0.028184801
-0.050894011 -0.01696467 0.031680465
-0.049776684 -0.016969325 0.030429333
-0.048562065 -0.016940255 0.031334162
-0.047455337 -0.016948335 0.028869897
-0.046337321 -0.016952679 0.030380547
-0.045414895 -0.017030586 0.027332366
-0.044290338 -0.017034747 0.028430641
-0.04323642 -0.017067008 0.026593357
-0.042200431 -0.017108282 0.024609417
-0.041206796 -0.017169498 0.022721529
-0.040075224 -0.017175095 0.021803856
-0.038938534 -0.017178765 0.021638513
-0.037865259 -0.017211482 0.018995315
-0.036725231 -0.01721495 0.01899913
-0.035676796 -0.017262965 0.020363688
-0.03462908 -0.01731454 0.019079357
-0.033486195 -0.017320447 0.021416575
-0.032407001 -0.017360894 0.020763904
-0.031425659 -0.0174587 0.016487479
-0.03026673 -0.017461576 0.015663266
-0.029107237 -0.017464343 0.01566574
-0.027824584 -0.017390365 0.015059918
-0.026579577 -0.017334508 0.016424745
-0.02544892 -0.017351536 0.016792089
-0.024347793 -0.017391281 0.017329812
0.025566706 -0.017431846 0.015331894
0.0326657 -0.017499482 0.015171766
0.033676539 -0.017418899 0.015922666
0.034654599 -0.017327299 0.018277317
0.035710696 -0.01727937 0.019586086
0.036649425 -0.017179418 0.023882598
0.037787102 -0.017175956 0.02387777
0.038924083 -0.017172391 0.0234842
0.040104967 -0.017187843 0.022969306
0.041222088 -0.01717587 0.02318275
0.042243086 -0.017125577 0.024439543
0.043374725 -0.017121602 0.023099363
0.04450557 -0.017117526 0.023093849
0.045334861 -0.017000573 0.026046991
0.046307497 -0.016941767 0.027495235
0.047272082 -0.016882885 0.028942615
0.048296344 -0.016847562 0.027311355
0.049363613 -0.016828503 0.026989102
0.05007112 -0.016690373 0.03076008
0.051314257 -0.016732911 0.029613405
0.052414775 -0.01672812 0.032824457
0.053717617 -0.016786756 0.032113045
0.055241205 -0.016910573 0.028740704
0.056584209 -0.016975263 0.026869684
0.057956934 -0.017046157 0.022968799
0.059043244 -0.017031705 0.022864848
0.060191315 -0.017035278 0.02264002
0.061293844 -0.017026069 0.022173673
0.062750041 -0.017113648 0.023204535
0.063717172 -0.017067101 0.025200099
0.064426817 -0.016954426 0.027459592
0.065226279 -0.016868865 0.028559506
0.066344939 -0.016867358 0.026547939
0.067455769 -0.016863942 0.027767628
0.068903796 -0.016943555 0.025637001
0.07027591 -0.017002236 0.023724586
0.071412541 -0.017002987 0.023691505
0.072957024 -0.017099302 0.019494623
0.074552678 -0.017204463 0.018308133
-0.069349304 -0.016455768 0.016060382
-0.067935929 -0.016398327 0.017489463
-0.066788107 -0.016404096 0.017495632
-0.064844869 -0.016211217 0.019843221
-0.063685328 -0.016210811 0.018256187
-0.062362425 -0.016168036 0.020194769
-0.061160408 -0.01615558 0.020829678
-0.059397295 -0.01599158 0.025936753
-0.0581594 -0.015965326 0.026839614
-0.056949038 -0.015945731 0.028299183
-0.055912994 -0.015975142 0.026710898
-0.054564632 -0.015914684 0.02737236
-0.053443491 -0.015919339 0.027380347
-0.05231303 -0.015921358 0.027460843
-0.050898559 -0.015835108 0.031319946
-0.049781136 -0.015839454 0.032128125
-0.048566408 -0.015812319 0.031724721
-0.047459584 -0.015819861 0.031636059
-0.046341471 -0.015823917 0.030383289
-0.045423821 -0.015898338 0.027286321
-0.044367634 -0.015926844 0.026589423
-0.043263353 -0.01593913 0.026304573
-0.042251367 -0.015987005 0.02490291
-0.041005109 -0.015946431 0.026098132
-0.03982598 -0.015930392 0.02666235
-0.038772751 -0.015965249 0.025307924
-0.03772236 -0.016003426 0.024317145
-0.03668965 -0.016051723 0.022451162
-0.035557583 -0.016058262 0.022771478
-0.034482706 -0.01609193 0.021487504
-0.033483922 -0.016164651 0.021272629
-0.032335024 -0.016167512 0.021276414
-0.03128567 -0.016222199 0.018167078
-0.030136647 -0.016227424 0.018097103
-0.028977577 -0.016227443 0.017783731
-0.027570153 -0.016082589 0.021533519
-0.026425257 -0.016084939 0.021536648
-0.02532137 -0.0161136 0.019154459
-0.024329543 -0.016219696 0.018305063
0.022081535 -0.016270606 0.016751379
0.024398552 -0.016265702 0.016917557
0.025565 -0.016268637 0.018034905
0.026723303 -0.016266359 0.019249141
0.027881112 -0.016263982 0.019003004
0.032602258 -0.016301129 0.016121417
0.034568388 -0.016131915 0.017914355
0.035623506 -0.016088033 0.022479862
0.036691595 -0.016052574 0.02563417
0.037790503 -0.016032334 0.023879915
0.038789261 -0.01597205 0.025113642
0.039866351 -0.015946539 0.02573958
0.040996369 -0.015943034 0.025733918
0.042125642 -0.015939431 0.025752395
0.043378618 -0.015981596 0.023101419
0.04450956 -0.015977791 0.023095936
0.045338929 -0.015868625 0.026049346
0.046433434 -0.01585532 0.02630952
0.047276311 -0.015758771 0.029842168
0.048300665 -0.015725797 0.031385422
0.048976239 -0.015583349 0.0336788
0.050015643 -0.015560422 0.032506883
0.051174033 -0.015574706 0.032739908
0.052396696 -0.015607527 0.034013629
0.053501688 -0.015604658 0.034487724
0.05524613 -0.015784608 0.02961427
0.056489479 -0.015817054 0.028589427
0.058131654 -0.015957709 0.024421602
0.059237037 -0.015948433 0.021102309
0.060497642 -0.015980508 0.020032287
0.061860211 -0.016037833 0.018238127
0.063110895 -0.016064592 0.020574421
0.063993201 -0.0159983 0.022353828
0.065041207 -0.015975032 0.022852868
0.065539874 -0.015819971 0.024557561
0.066699401 -0.015826976 0.024187058
0.06810537 -0.015891254 0.023238122
0.069560334 -0.015964666 0.021663249
0.070879504 -0.016005049 0.02033028
0.071995288 -0.015998954 0.020081758
-0.069088228 -0.01522283 0.015434712
-0.067850582 -0.015207889 0.016067475
-0.066439398 -0.015152846 0.016845375
-0.064826563 -0.015049024 0.020013839
-0.063484713 -0.015005479 0.019948214
-0.062351275 -0.015010493 0.021525174
-0.060989361 -0.014959655 0.022426426
-0.059647348 -0.014911837 0.026035607
-0.058336884 -0.014870185 0.026648372
-0.057210773 -0.014874801 0.026245415
-0.056083627 -0.014879329 0.025358111
-0.054795716 -0.014840506 0.02669692
-0.053590175 -0.014822815 0.027382642
-0.052325733 -0.014787707 0.028649837
-0.051082663 -0.014757214 0.029723734
-0.049961202 -0.014761264 0.031282693
-0.048666861 -0.014713237 0.030830562
-0.047463544 -0.014691097 0.031638712
-0.046345335 -0.014694862 0.030385792
-0.045422759 -0.014762396 0.028428614
-0.044298008 -0.014766002 0.028435558
-0.04317705 -0.014771096 0.028393835
-0.041987702 -0.014752436 0.027817845
-0.040921133 -0.014777075 0.027071476
-0.03982931 -0.014793744 0.026664585
-0.038728505 -0.014807958 0.026743144
-0.037649352 -0.014831563 0.026117057
-0.036589693 -0.014864564 0.024154007
-0.035553027 -0.014909334 0.0228706
-0.034485597 -0.014943759 0.021902561
-0.033370391 -0.014959141 0.022879094
-0.032225389 -0.014961788 0.023442477
-0.031278446 -0.015059992 0.020503521
-0.030112294 -0.015056147 0.019923061
-0.028873567 -0.015014254 0.019877583
-0.027557865 -0.014927177 0.021778643
-0.026413484 -0.01492936 0.021781832
-0.025323497 -0.014963885 0.021273732
-0.024331588 -0.015062412 0.020351499
0.014062838 -0.01523474 0.015375197
0.015222466 -0.015222466 0.015715092
0.022083394 -0.01510969 0.01689887
0.023241637 -0.015107064 0.016921133
0.024303472 -0.015045006 0.018769115
0.025457371 -0.015042992 0.020032346
0.026676569 -0.015078061 0.019445419
0.02783527 -0.015077438 0.016522557
0.033601306 -0.015062655 0.018040717
0.034520239 -0.014958769 0.0185965
0.035594467 -0.014926712 0.020488769
0.036692724 -0.014906419 0.025101721
0.037739545 -0.014867094 0.026214242
0.038592238 -0.014755856 0.028030515
0.039718814 -0.014752702 0.028024524
0.040881801 -0.014762872 0.026221693
0.042023625 -0.014765058 0.02842468
0.043149386 -0.014761631 0.026039809
0.044224672 -0.014741558 0.026397556
0.045316029 -0.014727709 0.026318312
0.046243422 -0.014662549 0.028203249
0.047046058 -0.014561875 0.033384293
0.048051946 -0.014527332 0.03342405
0.049092263 -0.014504532 0.033826977
0.049995277 -0.01444308 0.034278005
0.051094737 -0.014439818 0.03424415
0.05231002 -0.014468729 0.034791231
0.053506132 -0.014491244 0.034490556
0.055034339 -0.014600947 0.031818628
0.056569759 -0.014708137 0.028374076
0.058136478 -0.014819102 0.024810553
0.059615921 -0.01490398 0.02166006
0.060742803 -0.014899178 0.020299792
0.061989259 -0.014923341 0.019399285
0.063116118 -0.014918355 0.019827455
0.064241841 -0.014913284 0.020231158
0.06511879 -0.014851655 0.021816999
0.06623093 -0.014844864 0.019734561
0.067334525 -0.01483642 0.019823968
0.068450905 -0.014831029 0.020973921
0.069863744 -0.014888994 0.020990252
-0.067855775 -0.014039126 0.016068697
-0.066444479 -0.013988312 0.016846687
-0.065051243 -0.013939553 0.017745852
-0.06316413 -0.013781264 0.022316664
-0.06212448 -0.01380544 0.022541583
-0.06099404 -0.013809972 0.023467332
-0.059787072 -0.013797016 0.024176002
-0.058547951 -0.013775988 0.025030106
-0.057393581 -0.013774459 0.024602473
-0.056224294 -0.013769215 0.024488956
-0.055096209 -0.013774052 0.024907738
-0.05367396 -0.013703991 0.028789073
-0.05246903 -0.013687572 0.02947548
-0.051162913 -0.013643444 0.032075971
-0.050005041 -0.013637738 0.032399833
-0.048764426 -0.013608676 0.032553971
-0.047642868 -0.013612248 0.032562524
-0.046341456 -0.013563353 0.031164229
-0.045431118 -0.013629336 0.028382331
-0.044275407 -0.013623202 0.028704703
-0.043150421 -0.013626448 0.0291484
-0.041937064 -0.01360121 0.030101895
-0.0409243 -0.013641433 0.029283166
-0.039862145 -0.013667021 0.026423752
-0.03875009 -0.013676503 0.0265266
-0.037652273 -0.013691735 0.025851816
-0.036592536 -0.0137222 0.024933517
-0.035555784 -0.013763529 0.022872388
-0.034488272 -0.01379531 0.02190426
-0.03337298 -0.013809509 0.022880882
-0.032227892 -0.013811954 0.024684578
-0.031162661 -0.013850071 0.023545623
-0.030013431 -0.013852352 0.023549497
-0.028717656 -0.013784475 0.022409618
-0.02757315 -0.013786575 0.022875428
-0.026428133 -0.013788591 0.022051215
-0.025294675 -0.013797095 0.021835238
-0.024260629 -0.013863216 0.019695729
-0.017553549 -0.014042839 0.01605463
-0.016429991 -0.014082849 0.01515466
-0.015181682 -0.01401386 0.017105222
-0.013997407 -0.013997407 0.017033458
-0.012799709 -0.013963318 0.016474187
-0.011641736 -0.013970083 0.016743332
0.0046832687 -0.014049806 0.015285045
0.0081927432 -0.014044702 0.015137196
0.0093544088 -0.014031614 0.016696483
0.010523153 -0.014030869 0.016403109
0.011663671 -0.013996405 0.015792817
0.012896215 -0.014068598 0.01525566
0.013994483 -0.013994483 0.017764509
0.015155549 -0.013989738 0.018347919
0.016319986 -0.01398856 0.01788345
0.017556289 -0.014045032 0.015640527
0.022083957 -0.013947762 0.016096562
0.023243446 -0.013946068 0.016094595
0.024200555 -0.013828889 0.019939184
0.025325468 -0.013813891 0.022249073
0.026472917 -0.013811957 0.022245944
0.027798012 -0.013899006 0.019273758
0.029108487 -0.013972074 0.016569972
0.03354574 -0.013880995 0.018844515
0.034522917 -0.013809167 0.02015385
0.035597228 -0.013779571 0.022653639
0.036695573 -0.01376084 0.025103658
0.037389688 -0.01359625 0.030492485
0.03849199 -0.013585408 0.029247254
0.039615635 -0.013582503 0.029240996
0.040703584 -0.013567861 0.03081286
0.041862961 -0.013577176 0.030393213
0.042984411 -0.013574025 0.028250396
0.044220995 -0.01360646 0.02647239
0.045319531 -0.01359586 0.026708484
0.046246994 -0.013535705 0.030412406
0.047021683 -0.013434767 0.035059899
0.048055653 -0.01341088 0.034323484
0.049160026 -0.01340728 0.033296466
0.050217167 -0.013391245 0.032487839
0.051318713 -0.01338749 0.032333404
0.052447766 -0.013390918 0.032251507
0.053826861 -0.013456715 0.032968283
0.055174928 -0.013512228 0.03097415
0.056574106 -0.013577785 0.028376251
0.058076188 -0.013664986 0.025320292
0.059384782 -0.013704181 0.023474902
0.060894769 -0.013787495 0.020373821
0.062117957 -0.013803991 0.019328207
0.063416518 -0.013836332 0.01809001
0.064669289 -0.013857704 0.017214686
0.06580133 -0.013852911 0.017063916
0.066932186 -0.013848038 0.017661095
0.068143666 -0.013859728 0.017100066
-0.065322876 -0.012831279 0.018060982
-0.063955694 -0.012791139 0.018526107
-0.062719256 -0.012776145 0.019232959
-0.0614467 -0.012753089 0.020157754
-0.059979882 -0.012688052 0.023549139
-0.058798783 -0.012682091 0.023266345
-0.057421833 -0.012632803 0.025039643
-0.056228273 -0.012622673 0.024926305
-0.055100113 -0.012627109 0.024909496
-0.05387124 -0.012608162 0.027144521
-0.052559096 -0.012568479 0.028726697
-0.051166546 -0.012507377 0.032320559
-0.050040577 -0.012510144 0.032353699
-0.048835643 -0.012492839 0.032289624
-0.047712449 -0.012496118 0.032298088
-0.046387013 -0.012445296 0.034270942
-0.04540281 -0.012485772 0.033284873
-0.044105843 -0.01244011 0.0322496
-0.042945966 -0.012431727 0.032330096
-0.041868184 -0.012447298 0.03129366
-0.040992778 -0.012525572 0.028556794
-0.039884113 -0.012535007 0.026814282
-0.038752854 -0.012537688 0.027281582
-0.037654955 -0.012551652 0.026412547
-0.03657959 -0.012574234 0.026806712
-0.035631798 -0.01264354 0.023943543
-0.034488916 -0.012645936 0.024458677
-0.03331013 -0.012634877 0.025581747
-0.032167204 -0.012637115 0.025634944
-0.031023677 -0.012639276 0.025639325
-0.029803667 -0.012609244 0.026762694
-0.028610207 -0.012588492 0.026961654
-0.027519634 -0.012613166 0.024945736
-0.026430026 -0.012640447 0.022831738
-0.025296487 -0.012648243 0.021763742
-0.024322443 -0.012740328 0.018479764
-0.01872332 -0.012872283 0.015737593
-0.017508214 -0.012839356 0.016981632
-0.016328832 -0.012829797 0.017762899
-0.015157428 -0.012825516 0.016887128
-0.013896788 -0.012738722 0.018691868
-0.012713498 -0.012713498 0.019034386
-0.011637697 -0.012801467 0.016476452
0.0023261646 -0.012793906 0.016944557
0.0034891926 -0.012793706 0.018431544
0.0046521551 -0.012793426 0.018504262
0.0058314865 -0.01282927 0.017114133
0.0069975434 -0.01282883 0.017186671
0.0081805326 -0.012855123 0.015869617
0.0093233911 -0.012819663 0.020475984
0.010461386 -0.012786139 0.019499898
0.011632822 -0.012796105 0.019108772
0.012830118 -0.012830118 0.017693937
0.013991832 -0.012825846 0.017814487
0.015151092 -0.012820154 0.01805684
0.016315188 -0.012819076 0.01805529
0.017478976 -0.012817916 0.017736942
0.018555714 -0.012757053 0.017589033
0.019713417 -0.01275574 0.016637236
0.020870753 -0.012754349 0.016002148
0.021942096 -0.012703319 0.019117534
0.023094138 -0.012701776 0.019115239
0.024202287 -0.012677389 0.019940615
0.025327282 -0.012663641 0.022250682
0.026474813 -0.012661867 0.022247553
0.027799999 -0.012741666 0.020053923
0.029029962 -0.012773183 0.01786083
0.030262284 -0.012803274 0.015984625
0.032597937 -0.012806333 0.01653865
0.033659205 -0.012767285 0.018067718
0.034674909 -0.012714133 0.019766331
0.035801347 -0.012703704 0.020637661
0.036622364 -0.012588938 0.024133325
0.037468527 -0.012489509 0.029571295
0.038465824 -0.012444826 0.029589444
0.039584458 -0.01244083 0.030918986
0.04052072 -0.012381331 0.03297624
0.04163688 -0.012378532 0.034401178
0.042807616 -0.012391679 0.032087356
0.044089284 -0.012435439 0.030381083
0.045133524 -0.012411719 0.033115029
0.046250284 -0.012408612 0.032718718
0.047106493 -0.012337415 0.034286469
0.047996525 -0.012278181 0.034907728
0.049323466 -0.012330866 0.032474846
0.050517827 -0.012348803 0.031690627
0.051542401 -0.012325357 0.030591756
0.052514076 -0.012290528 0.034602582
0.053615712 -0.012286934 0.034592479
0.055042464 -0.012356471 0.031920105
0.056463193 -0.012421902 0.029563725
0.057691757 -0.01244332 0.029699624
0.058860935 -0.012451352 0.029013276
0.060751755 -0.012608855 0.022381365
0.062556162 -0.012742922 0.016889244
0.063789636 -0.012757927 0.015410185
0.065015256 -0.012770855 0.015718877
0.066153355 -0.012766437 0.015713423
-0.064105958 -0.011655628 0.017464399
-0.062801592 -0.011629924 0.018654287
-0.061498702 -0.011603529 0.019796491
-0.060357802 -0.011607269 0.021181077
-0.059049282 -0.011578291 0.022324562
-0.05751022 -0.011502044 0.025525153
-0.055807956 -0.011389378 0.029187411
-0.055150151 -0.011489615 0.027162582
-0.054002769 -0.011489951 0.027291596
-0.052743565 -0.011465993 0.029745966
-0.051401552 -0.011422567 0.030263126
-0.050273098 -0.011425704 0.031289369
-0.048919596 -0.01137665 0.033382684
-0.047840305 -0.011390549 0.033294439
-0.046591409 -0.011363758 0.033181667
-0.045269895 -0.011317474 0.035155207
-0.044068485 -0.011299612 0.035843313
-0.042948756 -0.011302304 0.035803288
-0.042158373 -0.011394155 0.030251682
-0.041052274 -0.01140341 0.028704345
-0.039965346 -0.01141867 0.028200567
-0.038846239 -0.011425365 0.027234763
-0.037609294 -0.011396756 0.028479725
-0.036581974 -0.011431867 0.027173012
-0.035634119 -0.011494877 0.028272271
-0.034465633 -0.011488545 0.025165379
-0.033312306 -0.011487002 0.027504653
-0.032167602 -0.011488429 0.025660932
-0.030891052 -0.01144113 0.027587175
-0.029751841 -0.011443016 0.027591735
-0.028543636 -0.011417454 0.028058439
-0.02759007 -0.011495862 0.02385208
-0.026549328 -0.011543186 0.02198121
-0.025398567 -0.011544803 0.021984309
-0.024324033 -0.011582873 0.019114047
-0.02326368 -0.01163184 0.016949147
-0.022223495 -0.011696576 0.015319407
-0.021056265 -0.011697925 0.015321165
-0.019878289 -0.011693111 0.016321659
-0.018662177 -0.01166386 0.0176633
-0.017492915 -0.011661942 0.017786801
-0.016323078 -0.011659342 0.016886801
-0.014996057 -0.011535428 0.020836145
-0.013843594 -0.011536328 0.019887269
-0.012710311 -0.011554828 0.019181848
-0.011643334 -0.011643334 0.016745657
-0.0081678443 -0.01166835 0.01516366
-0.0069837393 -0.011639566 0.01638329
-0.0058199833 -0.011639967 0.016627669
-0.0046812301 -0.011703075 0.015213996
-0.0035109995 -0.011703332 0.015263081
-0.0023266829 -0.011633414 0.016726285
-0.0011633523 -0.011633523 0.016726434
0 -0.011644532 0.015726805
0.0011644495 -0.011644496 0.016433865
0.002321197 -0.011605985 0.023285091
0.0034817413 -0.011605804 0.025284052
0.0046422197 -0.01160555 0.025283515
0.0057995641 -0.011599128 0.020284772
0.0069548492 -0.011591416 0.020576626
0.0081187813 -0.011598259 0.019429982
0.0092723221 -0.011590403 0.023061335
0.010430809 -0.011589788 0.020890623
0.011589101 -0.011589101 0.020889372
0.012738462 -0.01158042 0.021204889
0.013942299 -0.011618583 0.020667166
0.01509902 -0.011614631 0.020787388
0.016259113 -0.011613652 0.021248609
0.017379614 -0.011586409 0.021514744
0.018523792 -0.011577371 0.01841855
0.019596679 -0.011527458 0.019415438
0.020791005 -0.011550559 0.017805666
0.021904198 -0.011528526 0.019946903
0.02305425 -0.011527125 0.019944489
0.024173191 -0.011511043 0.024446487
0.025316887 -0.011507676 0.02393198
0.026463946 -0.011506064 0.023928612
0.0277215 -0.011550625 0.022075355
0.028884327 -0.011553731 0.021560937
0.030140899 -0.011592654 0.018589109
0.031423092 -0.011638182 0.017004758
0.032589853 -0.011639233 0.016880244
0.033738982 -0.011634132 0.017217726
0.034795702 -0.011598567 0.018746376
0.035803679 -0.011549574 0.021416903
0.036624752 -0.011445235 0.026565373
0.037470967 -0.011354838 0.030083537
0.038497243 -0.011322718 0.030538887
0.039587032 -0.01131058 0.031358212
0.040492762 -0.011247989 0.033755481
0.041480135 -0.011210848 0.035665959
0.042559046 -0.011199749 0.03599748
0.043898132 -0.011255931 0.034047484
0.045085505 -0.011271376 0.033626705
0.046201073 -0.011268554 0.033302963
0.047109552 -0.011216559 0.034288675
0.047944903 -0.011149977 0.035758466
0.049331993 -0.011211817 0.03315556
0.050575618 -0.011239027 0.032540739
0.05168502 -0.011235873 0.031344652
0.052793477 -0.011232655 0.032255888
0.054072369 -0.011265077 0.030818105
0.055182397 -0.011261714 0.030808926
0.056466836 -0.011293367 0.030001104
0.057282243 -0.011231813 0.033498913
0.058757856 -0.011299588 0.030635148
0.059977408 -0.011316492 0.029005796
0.06246886 -0.011568307 0.018775046
0.063793741 -0.011598863 0.016908854
0.06506677 -0.011619066 0.016106218
0.06628488 -0.011628926 0.015545458
-0.063562095 -0.010593683 0.015393108
-0.061854605 -0.010503612 0.019580066
-0.060562506 -0.010481972 0.020698667
-0.059098992 -0.010429234 0.023148268
-0.05751358 -0.010352445 0.025696009
-0.056336008 -0.01034743 0.025486022
-0.055237636 -0.010357057 0.025953591
-0.054005925 -0.01034156 0.026784629
-0.052763373 -0.010323268 0.027737051
-0.051630825 -0.010326166 0.02805984
-0.050497342 -0.010329002 0.029279441
-0.049211763 -0.010300137 0.030693471
-0.048039179 -0.01029411 0.031429082
-0.046594143 -0.010227983 0.032431632
-0.045272555 -0.010186325 0.035011679
-0.043907806 -0.010132571 0.037519962
-0.042951282 -0.010172672 0.035805374
-0.042160854 -0.010255343 0.029112279
-0.041041575 -0.010260394 0.028657436
-0.039874177 -0.01025336 0.027449161
-0.038739074 -0.010254461 0.028159648
-0.037607506 -0.010256592 0.029307634
-0.036578294 -0.010287645 0.028025359
-0.03563622 -0.010345999 0.028371155
-0.034467667 -0.010340299 0.025166869
-0.033312507 -0.010338364 0.026849598
-0.03200604 -0.010287656 0.029189527
-0.030850179 -0.010283394 0.028221309
-0.029729873 -0.01029111 0.027958304
-0.028613767 -0.010300956 0.026964962
-0.027546426 -0.01032991 0.025752068
-0.0265509 -0.010389483 0.020789653
-0.025417479 -0.01039806 0.020256937
-0.024393229 -0.010454241 0.01782459
-0.023265054 -0.010469275 0.01617083
-0.022156551 -0.010495208 0.016757339
-0.020986261 -0.01049313 0.015127212
-0.01969724 -0.01042795 0.019855112
-0.018511247 -0.010412577 0.02134341
-0.017279215 -0.010367529 0.022247016
-0.016149197 -0.010381627 0.020884365
-0.014977937 -0.010369341 0.021422297
-0.013844416 -0.010383312 0.020839006
-0.012711065 -0.010399962 0.020133615
-0.011665354 -0.010498819 0.015869081
-0.010534546 -0.010534546 0.016820729
-0.0093396716 -0.01050713 0.015553921
-0.008155955 -0.010486228 0.015871614
-0.0069552623 -0.010432893 0.018310368
-0.0057962514 -0.010433252 0.018554807
-0.0046371315 -0.010433545 0.018847942
-0.0034804847 -0.010441454 0.019360393
-0.0023203592 -0.010441617 0.018019587
-0.001162446 -0.010462014 0.01711756
0 -0.010463144 0.017068863
0.001162446 -0.010462014 0.022140652
0.002314873 -0.010416929 0.026578277
0.0034667689 -0.010400307 0.027309418
0.0046222578 -0.01040008 0.026260376
0.0057962514 -0.010433252 0.022651017
0.0069548963 -0.010432344 0.023113519
0.0081090229 -0.010425887 0.019431114
0.009267021 -0.010425399 0.01943022
0.010409487 -0.010409487 0.020111769
0.011581865 -0.010423679 0.021207511
0.012736536 -0.010420802 0.021303624
0.013893405 -0.010420054 0.020717174
0.015023083 -0.010400596 0.022835821
0.016175639 -0.010398624 0.02244401
0.017329473 -0.010397684 0.022441953
0.018470315 -0.010389552 0.022025615
0.019577134 -0.010364365 0.02309525
0.020726468 -0.010363234 0.023433775
0.021908967 -0.010377931 0.02284652
0.023026388 -0.010361874 0.024256259
0.024170786 -0.010358908 0.024520993
0.025260804 -0.010333966 0.025564641
0.026465513 -0.01035607 0.024879485
0.027580015 -0.010342506 0.024997532
0.028724803 -0.010340929 0.024993718
0.029869055 -0.010339288 0.024138093
0.031211462 -0.01040382 0.021190315
0.032583263 -0.010473192 0.01809746
0.033740971 -0.010471336 0.018215865
0.034797754 -0.010439326 0.020692736
0.035749268 -0.010378819 0.023290128
0.036708578 -0.010324288 0.02622667
0.037717775 -0.010286666 0.027120531
0.038600706 -0.010217834 0.032460093
0.039593615 -0.010181215 0.033983529
0.040370554 -0.010092638 0.037691832
0.041426431 -0.0100767 0.036275029
0.042513125 -0.010068898 0.036509335
0.043616761 -0.010065407 0.036961794
0.045015365 -0.010128457 0.035132974
0.046129197 -0.010125921 0.034517735
0.046844948 -0.010038203 0.037613034
0.047947716 -0.010035569 0.035760581
0.049518853 -0.010128857 0.031485081
0.050853908 -0.010170782 0.029804498
0.051969413 -0.010167928 0.030086815
0.053223398 -0.010191714 0.028891534
0.054307953 -0.010182741 0.0288831
0.055366486 -0.010169354 0.028898656
0.056470137 -0.010164625 0.028962433
0.057538476 -0.010153849 0.032194734
0.058692131 -0.010158254 0.031845987
0.059980903 -0.010185436 0.029877722
0.061353538 -0.010225589 0.0279347
0.063883819 -0.010453716 0.017320484
0.065148316 -0.010470265 0.015551746
-0.063575201 -0.0094185481 0.015563041
-0.062238999 -0.0093945665 0.017260373
-0.060861178 -0.0093632583 0.018982857
-0.059419747 -0.0093207452 0.020706326
-0.057952136 -0.0092723416 0.023229241
-0.056383424 -0.0092054568 0.027593136
-0.055249244 -0.009208207 0.02600342
-0.054071363 -0.0092036361 0.026737571
-0.053055875 -0.0092271091 0.025703549
-0.051696237 -0.009190442 0.027673572
-0.050505321 -0.0091827856 0.028408349
-0.049188286 -0.0091513088 0.030937552
-0.048041705 -0.0091508003 0.031988531
-0.046651293 -0.009102691 0.031899691
-0.045255523 -0.0090511041 0.034601033
-0.043763403 -0.0089771086 0.036818087
-0.043013506 -0.0090554748 0.033064067
-0.041974403 -0.0090755466 0.032173306
-0.040975977 -0.0091057727 0.030771911
-0.039846521 -0.009107776 0.03111881
-0.038668826 -0.0090985475 0.031684309
-0.037539311 -0.009100439 0.033270568
-0.036436323 -0.0091090808 0.032669604
-0.035566501 -0.0091784522 0.029296547
-0.034425717 -0.009180191 0.025751799
-0.033116776 -0.0091356626 0.028067082
-0.031980485 -0.0091372812 0.028072029
-0.030731926 -0.0091057559 0.031239778
-0.029598584 -0.0091072563 0.030636519
-0.028539224 -0.009132552 0.028816074
-0.027572714 -0.009190904 0.026605368
-0.026471112 -0.0092073437 0.021983683
-0.025412127 -0.0092407735 0.023082465
-0.02439452 -0.0092931502 0.020528585
-0.023265071 -0.0093060285 0.019946694
-0.022150783 -0.0093266452 0.016246706
-0.020870076 -0.0092755891 0.017734617
-0.019698281 -0.0092697795 0.019466341
-0.018470321 -0.0092351604 0.022197306
-0.017210683 -0.0091790305 0.024100184
-0.016064757 -0.0091798613 0.023322523
-0.014930413 -0.0091879461 0.022958875
-0.013818095 -0.0092120627 0.021815121
-0.012667495 -0.0092127239 0.023059845
-0.011598935 -0.0092791477 0.021306157
-0.010509324 -0.0093416218 0.018211275
-0.0092801908 -0.0092801908 0.021308541
-0.0081026265 -0.009260145 0.019797862
-0.0069282013 -0.0092376014 0.020676464
-0.0057761376 -0.0092418203 0.020189494
-0.0046276236 -0.0092552472 0.019531697
-0.0034711594 -0.0092564253 0.019556522
-0.0023141422 -0.0092565687 0.020264
-0.0011551921 -0.0092415372 0.021385908
0 -0.009241567 0.021020174
0.0011573258 -0.0092586065 0.022532016
0.002311338 -0.0092453519 0.02570188
0.0034594547 -0.009225213 0.029310375
0.0045961682 -0.0091923364 0.028895199
0.0057450486 -0.0091920784 0.027602077
0.006893822 -0.0091917627 0.027601123
0.0080774529 -0.0092313746 0.025600702
0.0092309425 -0.0092309425 0.024648696
0.01038426 -0.0092304526 0.023257762
0.011578213 -0.0092625711 0.021623075
0.012735199 -0.009261963 0.021621674
0.013891948 -0.0092612989 0.020791382
0.015022296 -0.0092444904 0.023202628
0.016150907 -0.0092290901 0.023176312
0.017302977 -0.0092282547 0.023174196
0.018400146 -0.0092000728 0.02409789
0.019353479 -0.0091075199 0.028675675
0.020537918 -0.0091279643 0.027746856
0.021792112 -0.0091756266 0.025332212
0.022936279 -0.0091745118 0.026084155
0.024080016 -0.0091733392 0.026275605
0.025157686 -0.0091482494 0.027830422
0.026297532 -0.0091469679 0.027826518
0.027536202 -0.0091787335 0.025753409
0.028726323 -0.009192423 0.024849027
0.029870637 -0.0091909654 0.024845093
0.031213112 -0.0092483293 0.023405492
0.032409593 -0.0092598833 0.022744685
0.033682801 -0.0092918072 0.018241167
0.034699284 -0.0092531424 0.022031277
0.035751157 -0.0092261042 0.023291379
0.036836915 -0.0092092287 0.02464807
0.037892189 -0.0091859847 0.027972549
0.038763832 -0.009120902 0.031222641
0.039680723 -0.0090698795 0.030341417
0.040497277 -0.0089993943 0.033759266
0.041428611 -0.0089575378 0.03574273
0.04251536 -0.0089506023 0.036511272
0.043609589 -0.0089455564 0.036648214
0.04470472 -0.0089409435 0.036833376
0.045810863 -0.0089387055 0.037163764
0.046844862 -0.0089228312 0.039821953
0.047950238 -0.0089209741 0.037071735
0.04952145 -0.0090039 0.032698721
0.050859306 -0.0090416539 0.029781818
0.05192199 -0.0090299109 0.030233771
0.053328633 -0.0090772137 0.028626651
0.054720458 -0.009120076 0.026076049
0.055959422 -0.0091362325 0.025124282
0.056975178 -0.0091160284 0.025987744
0.058145981 -0.0091209384 0.028229296
0.059063002 -0.0090866163 0.029018372
0.060179424 -0.0090836864 0.028404653
0.061356734 -0.0090898871 0.027936161
0.063933656 -0.0092994403 0.016983151
0.065604761 -0.0093721086 0.015673339
-0.061087184 -0.0082232747 0.017387658
-0.059422489 -0.0081560276 0.02070725
-0.057982031 -0.0081174849 0.022286564
-0.056821916 -0.0081174169 0.022438586
-0.055260509 -0.0080588246 0.025810897
-0.054125089 -0.0080611836 0.026302844
-0.05305833 -0.0080740936 0.025704741
-0.051698625 -0.0080420086 0.027674854
-0.050409 -0.008019614 0.029306561
-0.049146246 -0.0080005517 0.03013882
-0.047873314 -0.0079788854 0.030995578
-0.046499286 -0.0079389028 0.032168031
-0.045274612 -0.0079230564 0.032976836
-0.044153534 -0.0079249935 0.032887816
-0.043031648 -0.0079268822 0.032895654
-0.041780937 -0.0079045016 0.033753186
-0.040809561 -0.0079351924 0.032109201
-0.039756969 -0.0079513937 0.030804425
-0.038670629 -0.0079616001 0.030859619
-0.037551083 -0.0079653813 0.031595141
-0.036581933 -0.008002298 0.029583871
-0.035598308 -0.0080383271 0.027620286
-0.034254052 -0.0079926122 0.02988711
-0.0330231 -0.0079710931 0.030889839
-0.03189002 -0.0079725049 0.030895293
-0.030756351 -0.0079738684 0.030949235
-0.029639509 -0.007979868 0.030443311
-0.028662253 -0.0080254311 0.027503103
-0.027549172 -0.0080351746 0.02592504
-0.026472347 -0.0080568017 0.021789938
-0.025420012 -0.0080881855 0.020064145
-0.024399495 -0.0081331646 0.017558515
-0.023322176 -0.008162762 0.018437564
-0.022146031 -0.0081590647 0.016369283
-0.020871053 -0.00811652 0.018856078
-0.019669173 -0.0080990717 0.020173788
-0.018405879 -0.0080525717 0.02383098
-0.017211489 -0.0080320276 0.024101317
-0.016032243 -0.0080161216 0.025346428
-0.014884376 -0.0080146641 0.025470436
-0.013740496 -0.008015289 0.025667459
-0.012635911 -0.0080410345 0.0260593
-0.01156352 -0.0080944635 0.023574382
-0.010414367 -0.0081000635 0.023283243
-0.0092577059 -0.0081004929 0.023577064
-0.0080808178 -0.0080808178 0.024309635
-0.0069197472 -0.0080730384 0.021408975
-0.0057724454 -0.0080814231 0.020800084
-0.0046212561 -0.0080871982 0.019971579
-0.0034660182 -0.0080873761 0.020264626
-0.0023053498 -0.0080687245 0.021337926
-0.0011525638 -0.0080679469 0.021386892
0 -0.0080504743 0.022264868
0.0011552463 -0.0080867242 0.022484273
0.0023001069 -0.0080503738 0.02797097
0.0034596168 -0.0080724396 0.026702493
0.0045963833 -0.008043671 0.026823789
0.0057453178 -0.0080434447 0.026823044
0.0068941447 -0.008043169 0.027602404
0.0080748443 -0.0080748443 0.025772601
0.0092279613 -0.0080744661 0.024820507
0.010380905 -0.0080740377 0.023429513
0.011557425 -0.008090198 0.022794247
0.012747863 -0.0081122769 0.021500766
0.013871392 -0.0080916453 0.022644877
0.014977849 -0.0080649955 0.025714159
0.01603736 -0.0080186799 0.026443183
0.017181331 -0.0080179544 0.026440769
0.018295739 -0.008004386 0.026048362
0.019337816 -0.0079626301 0.02906689
0.020490643 -0.0079685831 0.028820097
0.021677425 -0.0079864198 0.028524458
0.02281557 -0.0079854494 0.02791205
0.024018493 -0.0080061648 0.027275354
0.025086543 -0.0079820817 0.029146612
0.026228763 -0.0079826666 0.029045165
0.027365141 -0.0079814997 0.028627068
0.028727664 -0.0080437455 0.024996221
0.029963775 -0.0080671702 0.024797529
0.031111099 -0.0080658402 0.026204675
0.032165889 -0.0080414722 0.026102871
0.033550356 -0.0080983611 0.022668749
0.03462977 -0.0080802795 0.023515731
0.035777315 -0.0080787493 0.025650859
0.036858082 -0.0080627054 0.026618212
0.037893955 -0.008038111 0.028435618
0.038856514 -0.0079998709 0.030519426
0.039818615 -0.0079637226 0.030731559
0.040612824 -0.0078969384 0.034440935
0.041430537 -0.0078382092 0.035890102
0.042540397 -0.0078363884 0.036343038
0.043649476 -0.0078345211 0.035873175
0.044706795 -0.0078236889 0.036835104
0.045812987 -0.0078217294 0.037092686
0.046847038 -0.0078078397 0.03982383
0.048181828 -0.007843554 0.035594374
0.049694397 -0.0079059266 0.031148821
0.050937988 -0.0079236869 0.030001283
0.052211359 -0.0079452069 0.028951138
0.053447779 -0.0079603074 0.02794981
0.054722983 -0.0079804352 0.026343584
0.055962007 -0.0079945726 0.025391698
0.057649307 -0.0080709029 0.023254514
0.058784038 -0.0080683976 0.024795502
0.059631608 -0.0080273319 0.025440603
0.060758773 -0.0080247438 0.024054378
0.062299192 -0.0080758212 0.020977259
-0.061576933 -0.0071050306 0.015332729
-0.059915286 -0.0070488569 0.017418027
-0.058253571 -0.0069904285 0.020133764
-0.056975417 -0.0069765816 0.021204978
-0.055829324 -0.0069786655 0.021211296
-0.054204099 -0.0069196722 0.025867939
-0.05306603 -0.0069216564 0.02587536
-0.05179885 -0.0069065136 0.027021617
-0.050411023 -0.0068742302 0.030059218
-0.049064811 -0.0068462528 0.032055616
-0.047875237 -0.0068393191 0.032379329
-0.046645388 -0.006826154 0.033382326
-0.045276433 -0.006791465 0.035234928
-0.044223938 -0.006803683 0.03308332
-0.04303338 -0.0067947442 0.033795267
-0.041805081 -0.0067792023 0.034944475
-0.040684413 -0.0067807357 0.034053683
-0.039563 -0.0067822286 0.033526659
-0.03863088 -0.0068172142 0.031978637
-0.037542574 -0.0068259225 0.031717956
-0.036412265 -0.0068272999 0.031286746
-0.035407539 -0.0068530724 0.029663801
-0.034098577 -0.0068197153 0.030885398
-0.032968003 -0.006820966 0.033542305
-0.031830002 -0.0068207146 0.029436857
-0.030695181 -0.0068211514 0.031875104
-0.029574269 -0.0068248315 0.031466633
-0.028541712 -0.0068500107 0.030108631
-0.027556129 -0.0068890322 0.027338028
-0.026473422 -0.0069061099 0.021352559
-0.025470594 -0.0069465255 0.018823087
-0.024472082 -0.0069920234 0.019093543
-0.023309724 -0.0069929175 0.019095987
-0.022090234 -0.0069758631 0.01990214
-0.020871898 -0.0069572991 0.02119568
-0.019506358 -0.0068845968 0.024974644
-0.018319875 -0.0068699531 0.027414024
-0.017176546 -0.0068706186 0.027392298
-0.016032893 -0.0068712397 0.027882218
-0.014882603 -0.0068688937 0.027592063
-0.013727889 -0.0068639447 0.029373705
-0.01259687 -0.00687102 0.028035015
-0.011531685 -0.006919011 0.025574476
-0.01037968 -0.0069197873 0.025137156
-0.0092263855 -0.0069197891 0.025162876
-0.0080632241 -0.006911335 0.025334746
-0.0068966188 -0.0068966188 0.025335759
-0.0057473802 -0.0068968562 0.025336623
-0.0046136403 -0.0069204606 0.02294752
-0.0034581113 -0.0069162226 0.022021323
-0.0023051996 -0.0069155986 0.022094816
-0.0011526106 -0.0069156638 0.022095025
0 -0.0069006872 0.023314446
0.0011501109 -0.0069006654 0.024558157
0.0022969078 -0.0068907239 0.025606543
0.0034248233 -0.0068496466 0.029556811
0.0045663309 -0.0068494962 0.029848814
0.0057266522 -0.0068719829 0.028043419
0.0068860119 -0.0068860119 0.027384073
0.0080333538 -0.0068857321 0.028163224
0.0091878613 -0.0068908958 0.027576745
0.01033744 -0.0068916264 0.026770741
0.011510352 -0.0069062114 0.025769591
0.012716872 -0.0069364756 0.02508527
0.013827346 -0.0069136731 0.026570439
0.014978457 -0.0069131339 0.025398344
0.016017538 -0.006864659 0.0284428
0.017160095 -0.0068640383 0.028440237
0.018256517 -0.0068461942 0.027730823
0.019318925 -0.006818444 0.031236589
0.020453099 -0.0068176999 0.030283034
0.021627393 -0.0068297028 0.031302631
0.022812841 -0.0068438523 0.02842471
0.023974715 -0.0068499185 0.031611472
0.024956306 -0.0068062656 0.033068269
0.026087029 -0.0068053119 0.03306362
0.027217263 -0.0068043158 0.033058792
0.028502161 -0.0068405187 0.031763732
0.029964985 -0.0069149965 0.02621007
0.031112356 -0.0069138571 0.02547574
0.03212291 -0.0068834811 0.026736468
0.033569343 -0.0069453814 0.022426397
0.03472054 -0.0069441078 0.022081822
0.035871096 -0.0069427933 0.022320777
0.036925688 -0.006923567 0.025792778
0.038003761 -0.0069097746 0.027124345
0.03893657 -0.0068711597 0.029597253
0.03982022 -0.0068263235 0.030732781
0.04062102 -0.0067701698 0.034369439
0.041733202 -0.0067675463 0.032637477
0.042715091 -0.0067444881 0.034523636
0.043726962 -0.0067272247 0.035097927
0.044941552 -0.0067412327 0.034506977
0.045966521 -0.0067268074 0.038671136
0.047307324 -0.0067581888 0.036454082
0.048447039 -0.0067600519 0.036080748
0.049821716 -0.0067938701 0.032822758
0.051378984 -0.0068505313 0.028184891
0.052408487 -0.0068358895 0.027498633
0.053731669 -0.0068593621 0.025795281
0.054876268 -0.0068595335 0.026320428
0.056755982 -0.0069497121 0.023940355
0.058271721 -0.0069926064 0.022166461
0.059532817 -0.0070038605 0.020103306
0.060680915 -0.007001644 0.017412513
0.061225686 -0.0069312099 0.020308048
0.062866122 -0.0069851251 0.016555279
-0.058824241 -0.0058824238 0.016431808
-0.057508156 -0.0058681793 0.017719835
-0.055959072 -0.0058290698 0.020727724
-0.054550305 -0.0058032242 0.022937983
-0.053173706 -0.0057797506 0.024955511
-0.051800609 -0.0057556233 0.027773857
-0.050548732 -0.0057441741 0.029866308
-0.049162928 -0.0057166195 0.03115952
-0.047876861 -0.0056996266 0.032380432
-0.046646971 -0.0056886552 0.033383459
-0.045348346 -0.0056685433 0.034532398
-0.044343777 -0.0056850999 0.032744616
-0.043060217 -0.0056658182 0.034500539
-0.041806508 -0.005649528 0.035917073
-0.040812597 -0.0056684162 0.035172164
-0.03975993 -0.0056799902 0.033090502
-0.038683835 -0.0056887995 0.031372219
-0.037593987 -0.0056960583 0.03089264
-0.036462128 -0.0056972075 0.030534208
-0.035337135 -0.0056995382 0.031026512
-0.034085151 -0.0056808586 0.032929331
-0.032962073 -0.0056831161 0.033251584
-0.031827684 -0.0056835152 0.032892555
-0.030699516 -0.0056850957 0.031559855
-0.02964172 -0.0057003307 0.030421257
-0.028664395 -0.005732879 0.029160351
-0.027587747 -0.0057474473 0.027265906
-0.026611529 -0.0057851151 0.024323791
-0.025531737 -0.0058026677 0.020114362
-0.024462694 -0.0058244509 0.022089779
-0.02330078 -0.005825195 0.018901706
-0.022052804 -0.0058033695 0.020706743
-0.020652244 -0.0057367343 0.026385903
-0.01944075 -0.0057178675 0.027948201
-0.01829906 -0.0057184566 0.029437572
-0.017161597 -0.005720532 0.029489189
-0.016024059 -0.005722878 0.029467493
-0.014883114 -0.0057242746 0.029396832
-0.013739331 -0.0057247211 0.02949664
-0.012597303 -0.0057260469 0.028937995
-0.011515015 -0.0057575074 0.026258022
-0.010364128 -0.0057578492 0.02584511
-0.009136484 -0.0057103024 0.029674649
-0.0079947971 -0.0057105697 0.0292615
-0.006844915 -0.0057040961 0.029213935
-0.0057244101 -0.0057244101 0.027190894
-0.0045981915 -0.0057477392 0.024411529
-0.0034441461 -0.0057402435 0.024265736
-0.0023014988 -0.0057537467 0.02307108
-0.0011505162 -0.0057525807 0.023168862
0 -0.0057525993 0.023217708
0.0011485042 -0.005742521 0.025607675
0.0022833296 -0.0057083243 0.028338879
0.0034242091 -0.0057070153 0.029655367
0.0045655123 -0.0057068905 0.029654741
0.0057268492 -0.0057268492 0.028044373
0.0068727145 -0.0057272618 0.029433429
0.0080169877 -0.0057264194 0.029480964
0.0091828117 -0.0057392572 0.028431118
0.010330115 -0.0057389527 0.028600276
0.011510748 -0.0057553742 0.02713576
0.012684458 -0.005765663 0.028206646
0.013811 -0.005754583 0.027132034
0.014913217 -0.0057358528 0.027739286
0.016018087 -0.0057207458 0.028443754
0.017155198 -0.0057183998 0.029050499
0.018113857 -0.0056605805 0.033019811
0.019243991 -0.0056599975 0.033942342
0.020373767 -0.0056593795 0.033938617
0.021628134 -0.005691614 0.031596065
0.022783173 -0.0056957933 0.032322973
0.023975536 -0.0057084612 0.032367527
0.025053594 -0.0056939987 0.031462193
0.026087923 -0.0056712874 0.033892602
0.027218197 -0.0056704576 0.033887655
0.028503137 -0.0057006273 0.032032549
0.02974138 -0.0057194959 0.030177861
0.031001732 -0.0057410612 0.027131289
0.032124013 -0.0057364306 0.027418554
0.033429407 -0.0057636909 0.026659667
0.034805633 -0.0058009387 0.023590446
0.035872322 -0.0057858583 0.025433928
0.03699502 -0.005780472 0.025453269
0.038103316 -0.0057732295 0.030406535
0.0389379 -0.0057261619 0.030521721
0.039910864 -0.0057015521 0.031827152
0.040950324 -0.0056875451 0.031650126
0.042017665 -0.0056780628 0.031375825
0.042716548 -0.0056205983 0.036782771
0.043830216 -0.0056192586 0.035536081
0.045091111 -0.0056363889 0.036473781
0.04621676 -0.0056361901 0.0362463
0.047334399 -0.0056350473 0.036212772
0.048597265 -0.0056508449 0.033875376
0.050252739 -0.0057105385 0.028193593
0.051476154 -0.0057195728 0.028113157
0.05262202 -0.0057197851 0.026821136
0.053750567 -0.0057181455 0.026813447
0.055101875 -0.0057397787 0.025788575
0.057176031 -0.0058342889 0.020527899
0.058551989 -0.0058551989 0.01870665
0.059932739 -0.0058757588 0.016305774
-0.057895266 -0.004726144 0.015904695
-0.056483671 -0.0047069727 0.017967761
-0.055118199 -0.0046909102 0.017997235
-0.053406455 -0.0046440396 0.022824049
-0.052227393 -0.0046424349 0.02399379
-0.051080815 -0.0046437103 0.025042832
-0.049432795 -0.0045983996 0.028662711
-0.048094675 -0.0045804451 0.030319631
-0.0469069 -0.004576283 0.030861169
-0.045754883 -0.0045754886 0.03082034
-0.044470448 -0.0045610717 0.03204155
-0.043324366 -0.0045604594 0.032219201
-0.041893035 -0.004528977 0.035772324
-0.041062959 -0.0045625512 0.033594251
-0.039973628 -0.0045684148 0.033115745
-0.038870823 -0.0045730378 0.030449659
-0.037741419 -0.0045747175 0.03038308
-0.036470927 -0.0045588659 0.032066673
-0.035330586 -0.0045587854 0.030978739
-0.034086104 -0.0045448137 0.03246817
-0.032962997 -0.00454662 0.032839
-0.031828575 -0.0045469394 0.032114923
-0.030700376 -0.0045482037 0.031560749
-0.029777018 -0.0045810798 0.028353393
-0.028733658 -0.0045973854 0.028065771
-0.027589981 -0.0045983302 0.027242333
-0.026612274 -0.0046282215 0.025127977
-0.025532454 -0.0046422645 0.022988498
-0.024400726 -0.0046477574 0.024038881
-0.023217399 -0.0046434798 0.023773968
-0.02192845 -0.0046165157 0.026529729
-0.020535508 -0.0045634466 0.029895097
-0.019291133 -0.0045390902 0.031067967
-0.018183574 -0.0045458935 0.030437559
-0.01704875 -0.0045463336 0.029660583
-0.016019391 -0.004576969 0.029614538
-0.014881154 -0.0045788167 0.029470801
-0.013720701 -0.0045735673 0.03013131
-0.012575531 -0.0045729205 0.026817799
-0.011403793 -0.0045615174 0.028916359
-0.0102536 -0.0045571555 0.029381335
-0.0091240602 -0.0045620301 0.02930975
-0.0079856338 -0.0045632194 0.029725641
-0.0068513253 -0.00456755 0.028800219
-0.0057401182 -0.0045920946 0.025947928
-0.0045922236 -0.0045922236 0.027314335
-0.003444243 -0.0045923241 0.027314961
-0.0023010755 -0.004602151 0.026339799
-0.0011505486 -0.0046021943 0.023169518
0 -0.0046022087 0.024803609
0.0011435368 -0.0045741471 0.028535068
0.0022829059 -0.0045658117 0.029461592
0.0034243055 -0.0045657405 0.030192763
0.0045656408 -0.0045656408 0.030411601
0.0057135969 -0.0045708776 0.029996157
0.0068721757 -0.0045814505 0.030385286
0.0080056908 -0.0045746802 0.030310929
0.0091533214 -0.0045766607 0.032772273
0.010326566 -0.0045895847 0.028771788
0.011511071 -0.0046044285 0.029062659
0.012661348 -0.0046041263 0.029060751
0.013767508 -0.0045891693 0.030375063
0.014896207 -0.0045834482 0.030153304
0.015924698 -0.0045499136 0.031320721
0.017035956 -0.0045429212 0.034120649
0.018114364 -0.0045285909 0.033361912
0.01920207 -0.0045181345 0.034942329
0.02030417 -0.0045120376 0.035498887
0.021627584 -0.0045531755 0.033984363
0.022763111 -0.0045526219 0.03553918
0.023976211 -0.0045668972 0.034000278
0.024957864 -0.0045377933 0.033898294
0.026088653 -0.0045371572 0.034526646
0.027218958 -0.0045364932 0.03452158
0.028470466 -0.0045552743 0.032909751
0.029669445 -0.0045645302 0.03129822
0.031002598 -0.0045929775 0.027910709
0.032218579 -0.0046026539 0.027589649
0.03357143 -0.0046305419 0.024957627
0.034806605 -0.004640881 0.023809999
0.035980739 -0.0046426761 0.024048626
0.037015505 -0.0046269381 0.025697112
0.038144484 -0.0046235737 0.026664138
0.039250895 -0.004617752 0.026415616
0.040075675 -0.0045800768 0.029957235
0.040951464 -0.0045501627 0.03230682
0.042079486 -0.0045491336 0.032833815
0.043206733 -0.004548077 0.032826185
0.044408914 -0.0045547606 0.032963991
0.045390863 -0.0045390865 0.034412026
0.046379689 -0.004524848 0.036902398
0.047498714 -0.0045236871 0.034661382
0.049125195 -0.0045697857 0.028977931
0.050310135 -0.0045736488 0.027685314
0.051502123 -0.0045779669 0.027895838
0.05263184 -0.0045766816 0.027330726
0.053882979 -0.0045857853 0.027855754
0.055890881 -0.0046575735 0.020486176
0.0571272 -0.0046634451 0.02033478
0.058275305 -0.0046620243 0.020328581
-0.055381238 -0.0035349727 0.015672237
-0.053872939 -0.0035134526 0.018681228
-0.052277602 -0.0034851735 0.024139702
-0.051129919 -0.0034861309 0.024606973
-0.04986139 -0.0034787017 0.02572912
-0.048523597 -0.0034659712 0.027918905
-0.047062106 -0.0034435687 0.031031668
-0.045882072 -0.0034411554 0.030845284
-0.04475069 -0.0034423608 0.030415893
-0.043602098 -0.0034422709 0.030544579
-0.042215183 -0.0034228528 0.033247381
-0.04108353 -0.0034236275 0.033376366
-0.039974499 -0.0034263856 0.03311646
-0.038877863 -0.0034303996 0.031300902
-0.037758283 -0.0034325712 0.030189306
-0.036605921 -0.0034318052 0.031727016
-0.035314396 -0.0034175219 0.033727199
-0.034106907 -0.0034106909 0.033903807
-0.032976057 -0.0034113163 0.033082962
-0.031844597 -0.0034119212 0.033088833
-0.030917862 -0.0034353181 0.028860331
-0.029820379 -0.0034408129 0.028207958
-0.028784489 -0.0034541388 0.027263105
-0.02774542 -0.0034681775 0.025465697
-0.026612852 -0.0034712416 0.025591165
-0.025533011 -0.0034817744 0.024255335
-0.024375686 -0.0034822407 0.024526507
-0.023211814 -0.003481772 0.023871988
-0.021862967 -0.0034520475 0.027894616
-0.020419737 -0.0034032895 0.0314551
-0.019270841 -0.0034007367 0.031848401
-0.018158626 -0.0034047426 0.033923149
-0.017049123 -0.0034098246 0.033341467
-0.015960023 -0.0034200051 0.03215012
-0.014838699 -0.0034243152 0.030885279
-0.013698329 -0.0034245823 0.030887693
-0.012524852 -0.0034158686 0.028671265
-0.011386976 -0.0034160928 0.029599637
-0.010248886 -0.0034162954 0.029601425
-0.0091193831 -0.0034197688 0.029554218
-0.0079798345 -0.0034199292 0.030067712
-0.0068533048 -0.0034266524 0.028678894
-0.0057112835 -0.00342677 0.027704358
-0.0045679356 -0.0034259516 0.029095292
-0.0034174295 -0.0034174295 0.030900717
-0.002285151 -0.0034277264 0.029535383
-0.0011425862 -0.0034277586 0.028925925
0 -0.0034211844 0.029218674
0.001138379 -0.0034151371 0.030608803
0.0022769808 -0.0034154709 0.030657291
0.0034154176 -0.0034154176 0.031729907
0.0045537907 -0.0034153429 0.033192515
0.0057137217 -0.0034282331 0.031460047
0.0068624495 -0.0034312247 0.031044424
0.0079806875 -0.0034202947 0.031750351
0.0091491323 -0.0034309246 0.032992452
0.010301006 -0.0034336688 0.032600582
0.011477798 -0.0034433394 0.031355202
0.012630113 -0.0034445764 0.031084955
0.013768541 -0.0034421352 0.030497611
0.014913962 -0.0034416835 0.030373365
0.015919073 -0.0034112299 0.034002602
0.017009821 -0.0034019642 0.034925699
0.018121585 -0.003397797 0.033192039
