ply
format ascii 1.0
comment PCL generated
element vertex 1273
property float x
property float y
property float z
element camera 0
property float view_px
property float view_py
property float view_pz
property float x_axisx
property float x_axisy
property float x_axisz
property float y_axisx
property float y_axisy
property float y_axisz
property float z_axisx
property float z_axisy
property float z_axisz
property float focal
property float scalex
property float scaley
property float centerx
property float centery
property int viewportx
property int viewporty
property float k1
property float k2
end_header
0.010502862 -0.072565228 0.0085797608
0.011456123 -0.072555445 0.0089947581
0.013019797 -0.076115742 0.0080596209
0.016216638 -0.088033177 0.0067667365
0.017205 -0.087172002 0.005169183
0.016269574 -0.077280477 0.0050013959
0.0067818337 -0.072662503 0.0061058998
0.0078557367 -0.073647529 0.0075665712
0.0084448121 -0.070373431 0.0091595054
0.009646724 -0.072350428 0.00973019
0.010299452 -0.070223533 0.010788888
0.011507459 -0.071921624 0.010818928
0.012222359 -0.070513614 0.010328948
0.012886075 -0.069032542 0.0091668367
0.014560089 -0.072800443 0.0079244375
0.017261758 -0.08091449 0.0060675442
0.018814366 -0.083004557 0.0053275526
0.0060776467 -0.074957639 0.0060190558
0.0067896633 -0.071776442 0.0077910721
0.0077407877 -0.071602285 0.0094780028
0.0085308058 -0.07014218 0.010783941
0.009384579 -0.069445886 0.011262834
0.010259566 -0.0690189 0.013260275
0.011443604 -0.070568889 0.014010757
0.011998408 -0.06829863 0.012682289
0.01300869 -0.068760216 0.012188226
0.014134254 -0.069728985 0.010251403
0.014257228 -0.06593968 0.0084173381
0.016254025 -0.070752814 0.0067695677
0.018380551 -0.075564489 0.0051618814
0.0059345388 -0.072203554 0.0065605044
0.0066979299 -0.069849841 0.0093601346
0.0077176075 -0.070423171 0.011086255
0.0084576691 -0.068601094 0.013331294
0.0095426571 -0.069661394 0.014464021
0.010603152 -0.070366375 0.014954209
0.011443795 -0.069616422 0.014909744
0.012187243 -0.068436056 0.014233798
0.013433116 -0.070044108 0.013826638
0.013948632 -0.067883343 0.011880845
0.015311389 -0.069858208 0.010164976
0.016043743 -0.068893716 0.0088568926
0.016892767 -0.068509549 0.0060366392
0.0050693848 -0.072999135 0.0058256984
0.0056972564 -0.068367079 0.007917732
0.0067562857 -0.069493227 0.010195941
0.0076423525 -0.068781175 0.011647195
0.0083182761 -0.066546209 0.01363939
0.0096946657 -0.069801591 0.015031576
0.010426175 -0.068244047 0.01554504
0.011303938 -0.067823626 0.015448868
0.012218921 -0.067674018 0.014737725
0.013156034 -0.067659609 0.014421403
0.014063507 -0.067504838 0.012511045
0.015181347 -0.068316057 0.010774493
0.015858052 -0.06716352 0.0089689195
0.017292917 -0.069171667 0.0068490207
0.018839853 -0.071393132 0.005379647
0.0040068096 -0.071120866 0.0051120818
0.0048621753 -0.069042891 0.0073188543
0.0057552676 -0.068103999 0.010333717
0.0065725199 -0.066664129 0.012145072
0.0076136999 -0.067571588 0.015297562
0.008596139 -0.067813985 0.0156039
0.0094929673 -0.067400068 0.016388208
0.010160155 -0.065579183 0.016528875
0.011152287 -0.065984361 0.01680702
0.012402196 -0.067735076 0.016003728
0.012826026 -0.065046273 0.015001088
0.014002468 -0.066278346 0.013801575
0.014794571 -0.06565091 0.012299269
0.016436286 -0.068645664 0.010195404
0.018449599 -0.072773419 0.0071724355
0.018429324 -0.068867475 0.0056717992
0.0038382967 -0.067170195 0.0063233376
0.0051208897 -0.071692452 0.0098481774
0.0057833516 -0.067472436 0.011826932
0.0066690925 -0.066690929 0.014209986
0.0076039564 -0.066534624 0.015849143
0.0085408688 -0.066428982 0.016487181
0.0091841491 -0.064289048 0.017326623
0.010370015 -0.065991007 0.017343849
0.011300995 -0.065922469 0.017123133
0.012375312 -0.066636294 0.016631722
0.013564353 -0.067821763 0.015413195
0.014341437 -0.06692671 0.013905346
0.015693653 -0.06865973 0.012560695
0.016754385 -0.068988651 0.01054129
0.017347673 -0.067463174 0.00835675
0.018485894 -0.068105929 0.0059219897
0.0028658123 -0.065913685 0.0052529275
0.0038793804 -0.066919312 0.0087499619
0.0049542934 -0.068369247 0.011869699
0.0056373761 -0.064829826 0.014315933
0.0068550464 -0.067571171 0.015780747
0.0078081926 -0.067345656 0.016863823
0.0085977018 -0.065915711 0.017491072
0.009447868 -0.065190285 0.01771602
0.010385289 -0.065144084 0.017638326
0.011254921 -0.064715795 0.017410696
0.012466081 -0.066166125 0.017003715
0.013136279 -0.064743087 0.015699863
0.014243788 -0.065521426 0.014147967
0.015380533 -0.066328548 0.012560695
0.016111864 -0.065395214 0.010683179
0.01815901 -0.069609538 0.0087614357
0.01833923 -0.06660036 0.0061476827
0.0034128337 -0.07735756 0.0072586834
0.0041832132 -0.07111463 0.011869699
0.0047362121 -0.064412482 0.015123069
0.0058295927 -0.066068716 0.016500324
0.0065748584 -0.06387005 0.017020553
0.0076704319 -0.065198667 0.017774194
0.0084640421 -0.063950539 0.01783675
0.0092701577 -0.063037075 0.018289149
0.010665366 -0.065931357 0.017638326
0.011583772 -0.065641373 0.017183661
0.01235448 -0.064623438 0.016634881
0.013263709 -0.064423732 0.015024275
0.014291896 -0.064789936 0.013801575
0.015454245 -0.065680541 0.011419147
0.016311008 -0.065244034 0.010270655
0.017956592 -0.067836009 0.0071658194
0.018311303 -0.065535195 0.005464673
0.001957959 -0.065591626 0.0062656999
0.0032155805 -0.071814626 0.010106802
0.0038568845 -0.064602815 0.014465332
0.004780517 -0.06405893 0.017204076
0.005808326 -0.064859636 0.018562049
0.0066015301 -0.063186072 0.019704849
0.0075583663 -0.063301317 0.019453704
0.0083324714 -0.062030621 0.01964438
0.0090947626 -0.060934909 0.019499362
0.010200258 -0.062128846 0.019030452
0.011636103 -0.064968243 0.018022597
0.012280707 -0.063292876 0.017033696
0.013627737 -0.065218456 0.015227526
0.014091892 -0.062943786 0.013814896
0.015274031 -0.063960008 0.011082441
0.017066037 -0.067260265 0.0088241398
0.017585522 -0.065457217 0.0065756738
0.001862388 -0.061458804 0.0086635649
0.0027789357 -0.061136585 0.014113486
0.00383513 -0.063279644 0.016831607
0.0051612663 -0.06812872 0.019832671
0.0058957986 -0.06485378 0.020043701
0.0066618142 -0.06281139 0.02027601
0.0075605852 -0.062374827 0.020195693
0.0083108498 -0.060946234 0.020210981
0.0093347086 -0.061609074 0.020161629
0.010475588 -0.06285353 0.019561887
0.011192817 -0.061560497 0.018509865
0.012342026 -0.062659517 0.017159075
0.013181325 -0.062140532 0.015665323
0.014051346 -0.06182592 0.014027655
0.015313513 -0.063168243 0.010727227
0.017032677 -0.066126861 0.0089007616
0.017631086 -0.064647317 0.0065319836
0.0009348194 -0.060763262 0.0062105358
0.0018301866 -0.059481062 0.012365818
0.002807857 -0.060836904 0.017247498
0.0037381293 -0.060744599 0.019268602
0.004595553 -0.059742186 0.020242929
0.0056181629 -0.060863432 0.02027601
0.0067523173 -0.062700085 0.020566016
0.0078241462 -0.063571192 0.020434856
0.008733253 -0.063073494 0.020465344
0.0091226473 -0.059297208 0.020400852
0.010100504 -0.059684798 0.01982975
0.011066851 -0.059945446 0.019096017
0.012031646 -0.06015823 0.01810655
0.01339458 -0.062189121 0.017078102
0.014471367 -0.062709257 0.014430076
0.01533248 -0.062288199 0.011662781
0.016247744 -0.062123727 0.0092062354
0.017621841 -0.063634425 0.0067891479
0.01858137 -0.063567847 0.0050525069
0 -0.063144974 0.0052502155
0.00092078024 -0.058929935 0.009981662
0.0018756278 -0.060020089 0.017717034
0.0027860089 -0.059434857 0.020076931
0.0037386995 -0.059819192 0.02037102
0.0047106734 -0.060296617 0.021008074
0.0056544398 -0.060314026 0.0213193
0.0065620737 -0.059996102 0.0213193
0.0075643985 -0.060515188 0.02084583
0.0084284442 -0.059935603 0.020871431
0.0099223545 -0.063503064 0.020840168
0.011215049 -0.065251194 0.020193785
0.011722677 -0.062520951 0.01947841
0.012318184 -0.060643364 0.019031852
0.013187978 -0.0602879 0.017904937
0.014083997 -0.060091723 0.0156717
0.015685124 -0.062740497 0.012864262
0.016255388 -0.061196756 0.010296613
0.017323541 -0.061594807 0.007168293
0.01866968 -0.062887341 0.0052025914
0 -0.05857392 0.006128639
0.00094404747 -0.05947499 0.016370147
0.0018875902 -0.05945909 0.02004239
0.0027946346 -0.058687326 0.020442009
0.0037321856 -0.058781926 0.021172464
0.0046787974 -0.058952846 0.021600336
0.0056370068 -0.059188575 0.021802992
0.0065127583 -0.058614824 0.021885127
0.0075275269 -0.059279274 0.021496087
0.008418723 -0.058931064 0.021284014
0.009227003 -0.058130115 0.021153241
0.01024409 -0.0586707 0.020367146
0.011303811 -0.059345011 0.019723952
0.01308247 -0.063399665 0.019048095
0.014095296 -0.063428834 0.018506646
0.014892694 -0.062549315 0.016651094
0.017039226 -0.067091957 0.013891518
0.018642042 -0.069085211 0.010526985
0.018717367 -0.06551078 0.0071082115
0.018737106 -0.062128302 0.0051202178
-0.001020893 -0.063295364 0.0050884485
0 -0.058263771 0.01532945
0.00095343415 -0.059112918 0.020129472
0.0018650847 -0.057817627 0.020818472
0.0028026977 -0.057922415 0.0212484
0.0037762993 -0.05853264 0.021605819
0.004621922 -0.057311837 0.022371471
0.0056575211 -0.058461051 0.022751868
0.0065797199 -0.058277521 0.022615671
0.0074307006 -0.057587929 0.021889836
0.008584247 -0.059135925 0.021689653
0.0094364518 -0.058506005 0.021689653
0.010281676 -0.057951268 0.02079019
0.011349943 -0.05864137 0.020116627
0.011805933 -0.056305218 0.01941967
0.012964309 -0.057413369 0.019379288
0.014204842 -0.058713347 0.018047422
0.015809337 -0.061261181 0.013992399
0.017529899 -0.063932575 0.010112435
0.019391099 -0.066791564 0.0068075061
-0.00099113188 -0.060459048 0.0078364909
0 -0.057428289 0.019970149
0.00092098484 -0.056180075 0.02084133
0.0018934662 -0.057750721 0.021322638
0.0027913821 -0.056758106 0.021688312
0.003735401 -0.056964863 0.022085637
0.0047026076 -0.057371814 0.022471249
0.00560056 -0.056939024 0.022752732
0.0065290341 -0.056895871 0.022579789
0.0075495588 -0.057565384 0.022052675
0.0085196495 -0.057744294 0.021889836
0.0092861429 -0.056645475 0.021889836
0.010306489 -0.057154164 0.021359533
0.011176903 -0.056815922 0.020491689
0.012189652 -0.057197597 0.019928515
0.013127065 -0.057196498 0.01984027
0.014299843 -0.058152691 0.019172251
0.0150862 -0.057516135 0.015518069
0.015926087 -0.057146549 0.011830837
0.016993569 -0.057589319 0.0084621012
0.019016119 -0.061051749 0.0050973594
-0.00094808091 -0.056884855 0.016290486
0 -0.055470943 0.020049512
0.00093681458 -0.056208875 0.021067083
0.0018738551 -0.056215655 0.021525174
0.002832297 -0.056645937 0.021961629
0.0037707109 -0.056560665 0.022129864
0.0047525335 -0.057030398 0.022338033
0.0056275814 -0.056275815 0.022362977
0.0066496399 -0.056996912 0.022040993
0.0075568557 -0.056676418 0.021791726
0.008421558 -0.05614372 0.021669537
0.0094851907 -0.056911148 0.021572411
0.010374769 -0.056589644 0.021359533
0.011166642 -0.055833213 0.020714551
0.012178548 -0.056208681 0.019928515
0.013081024 -0.056061536 0.019853324
0.01392831 -0.05571324 0.019147784
0.014628579 -0.054857172 0.017638534
0.015877435 -0.056038007 0.013564318
0.016778909 -0.055929694 0.010207564
0.017475562 -0.055185985 0.0065106153
-0.0021075974 -0.062174123 0.0071601868
-0.00093053328 -0.054901462 0.018769652
0 -0.055056155 0.020430237
0.00093181222 -0.054976922 0.020934522
0.0018492333 -0.054552384 0.021438867
0.0028328239 -0.055712204 0.021844029
0.0037324347 -0.055053409 0.022144347
0.0046236943 -0.054559592 0.022208601
0.0056220535 -0.055283528 0.022176176
0.0065421718 -0.055141162 0.021946967
0.0073682689 -0.054340981 0.021669537
0.0085064294 -0.05576437 0.021859109
0.0093048979 -0.054898895 0.021850705
0.010225342 -0.054845013 0.021764338
0.011541313 -0.056744788 0.021494389
0.012215638 -0.055440202 0.020783633
0.012943708 -0.054548487 0.020714551
0.014146373 -0.0556424 0.01963076
0.014970188 -0.055202566 0.018577993
0.016915917 -0.058708183 0.015057594
0.01810397 -0.05934079 0.011152774
0.017121656 -0.053167246 0.0080811083
-0.0019721258 -0.057191648 0.0075891018
-0.00092205184 -0.053479005 0.019635648
0 -0.054581467 0.020530432
0.00094087422 -0.054570705 0.021107823
0.0018761266 -0.054407671 0.021632582
0.0028015373 -0.054163054 0.021946967
0.0037599099 -0.054518692 0.022170424
0.0047009732 -0.054531287 0.022356421
0.0056172204 -0.054299798 0.022234708
0.0065126568 -0.053962015 0.022156984
0.0075927507 -0.055047445 0.021987885
0.0084937084 -0.054737233 0.022002995
0.0092761312 -0.053801563 0.021996468
0.010288142 -0.054246567 0.021846086
0.011215317 -0.054207366 0.021642685
0.012209131 -0.054471511 0.021299571
0.013255428 -0.054915342 0.021058589
0.014340661 -0.055450559 0.020541996
0.015674055 -0.056818448 0.019253701
0.015842911 -0.054052286 0.017660528
0.017290022 -0.055712294 0.013470083
0.017775647 -0.0542625 0.0086199641
0.018795328 -0.054506451 0.0054002404
-0.0018824234 -0.053649068 0.016328067
-0.00094225619 -0.053708602 0.019838601
0 -0.052521184 0.020785421
0.00093616417 -0.053361356 0.021264583
0.0018643913 -0.053135149 0.021904409
0.0027662055 -0.052557904 0.022163749
0.0037676299 -0.053688727 0.022319108
0.004676206 -0.053308751 0.022356302
0.0056361076 -0.053543024 0.022392571
0.0066357381 -0.054033868 0.022255063
0.0074586058 -0.053142566 0.021987885
0.008472709 -0.053660493 0.022002995
0.0094050374 -0.053608712 0.021996468
0.010039401 -0.052022349 0.021849811
0.011611129 -0.055152863 0.021837503
0.012250832 -0.053715184 0.021565855
0.013130724 -0.053460807 0.021541208
0.014073754 -0.053480264 0.020992875
0.017505821 -0.062364485 0.020296305
0.017788872 -0.059645042 0.018384278
0.020191601 -0.063940071 0.016251713
0.017498942 -0.052496824 0.01073125
0.018465161 -0.052625712 0.0065463781
-0.0031004213 -0.057874531 0.0070554316
-0.0018519106 -0.051853497 0.019085646
-0.00094479031 -0.052908257 0.020527661
0 -0.052481934 0.020966768
0.00094235322 -0.052771781 0.021582961
0.0018365572 -0.051423598 0.022251695
0.0028489223 -0.053179882 0.02228111
0.0038611095 -0.054055534 0.022146791
0.0046699862 -0.052303847 0.022191137
0.0056326673 -0.052571561 0.022206634
0.0065895147 -0.052716117 0.022134632
0.0075100549 -0.052570384 0.021850765
0.0083628446 -0.052035473 0.021898955
0.0094041768 -0.052663393 0.021898955
0.010395504 -0.052922565 0.021797001
0.011272503 -0.052605014 0.021850765
0.011982936 -0.051618803 0.021660447
0.013109057 -0.052436229 0.021771163
0.013812181 -0.051565472 0.020814717
0.014727673 -0.051546857 0.020505548
0.01736125 -0.057189997 0.018777221
0.017055942 -0.053062931 0.017263144
0.017449863 -0.051431175 0.012261689
0.019266641 -0.053946596 0.0084909797
0.020190338 -0.053840902 0.0054730475
-0.0029692929 -0.054437038 0.0094397962
-0.0018524553 -0.050942522 0.019808084
-0.00093884929 -0.051636711 0.020881414
0 -0.051727362 0.021062881
0.0009169745 -0.050433595 0.021611512
0.0019061974 -0.05242043 0.022126555
0.0028252518 -0.051796284 0.02228111
0.0037130581 -0.051054548 0.022190183
0.0046750074 -0.051425081 0.022190183
0.00569097 -0.052167226 0.022167891
0.0065624323 -0.051561967 0.022111773
0.007572189 -0.052058797 0.021743238
0.0083488496 -0.051020745 0.021752477
0.0095232595 -0.052377928 0.021863848
0.010322807 -0.051614039 0.0216254
0.01133864 -0.051968765 0.021737456
0.012265152 -0.051891029 0.021615922
0.013391661 -0.052610096 0.021539807
0.014084781 -0.051644195 0.020730197
0.015149927 -0.052077875 0.020500481
0.015847797 -0.051272281 0.018454045
0.01665657 -0.050895073 0.01714617
0.017673578 -0.051160358 0.012261689
0.0191407 -0.052636925 0.0085268319
0.020263845 -0.053071976 0.0058386922
0.021681039 -0.054202598 0.005143702
-0.0027702989 -0.04986538 0.018410325
-0.0018900385 -0.051031038 0.020614296
-0.00093076861 -0.050261505 0.021054566
0 -0.050172813 0.021555901
0.00094137184 -0.050834078 0.021794379
0.0018583511 -0.050175477 0.022319108
0.0027993657 -0.050388582 0.02257511
0.003787979 -0.051137716 0.022283345
0.004714733 -0.050919116 0.02251631
0.0055708406 -0.050137565 0.022462189
0.0065681436 -0.050668538 0.02226764
0.0073910705 -0.049889728 0.022179604
0.0083123203 -0.049873922 0.022083014
0.0096118441 -0.051903959 0.022069871
0.010201789 -0.05008151 0.021739751
0.011433955 -0.051452801 0.021886617
0.012103153 -0.050274637 0.021751791
0.013032215 -0.050267115 0.021488845
0.013961826 -0.05026257 0.020813465
0.014881433 -0.050224837 0.02012524
0.015770568 -0.050094746 0.018493891
0.016965989 -0.050897967 0.01732403
0.017946959 -0.051007144 0.012367249
0.019321363 -0.05216768 0.0087158382
0.020449698 -0.052584939 0.0066342652
0.021602679 -0.053024758 0.0054124296
-0.0041332208 -0.054765172 0.0073878765
-0.0027804049 -0.04912049 0.019526869
-0.0018589952 -0.049263373 0.020732671
-0.00094358419 -0.050009962 0.02111885
0 -0.050578594 0.021555901
0.00093322381 -0.049460862 0.02161622
0.0018574107 -0.049221382 0.021949828
0.0028041725 -0.049540378 0.022213697
0.0037685535 -0.049933333 0.022081077
0.0046514492 -0.049305361 0.022133946
0.0055815475 -0.049303669 0.02206105
0.0065388395 -0.049508356 0.022133946
0.0074721221 -0.049502809 0.02204603
0.0087204454 -0.051353734 0.021715909
0.0092495447 -0.049022589 0.021707207
0.010175843 -0.04902906 0.021637678
0.011287989 -0.049855284 0.021786839
0.012287089 -0.050093517 0.021558046
0.01309897 -0.049588956 0.021288335
0.014253498 -0.05036236 0.020746499
0.01464008 -0.048495267 0.019900799
0.01592716 -0.049655262 0.018453389
0.016819473 -0.049524006 0.017234713
0.017691698 -0.049350526 0.012451679
0.019461766 -0.051573679 0.0099521875
0.02050893 -0.051760636 0.0068940222
0.021597799 -0.052031063 0.0056986809
-0.0037771361 -0.049102768 0.014852464
-0.0027848273 -0.048270337 0.019836396
-0.0018783998 -0.048838396 0.020732671
-0.0009368317 -0.048715249 0.021176189
0 -0.048905555 0.021581918
0.0009301274 -0.048366625 0.021942765
0.0018653569 -0.048499282 0.022385091
0.0027919579 -0.048393939 0.02217117
0.0037398378 -0.048617892 0.022402853
0.0046813693 -0.04868624 0.022335202
0.0056346362 -0.048833515 0.021930516
0.0064403848 -0.047842856 0.021817237
0.0077988352 -0.050692428 0.021950275
0.0082478607 -0.047654308 0.021900266
0.0095390705 -0.049603168 0.021956116
0.01030062 -0.048693836 0.021935821
0.011391215 -0.049361929 0.021964908
0.011968909 -0.047875635 0.021952838
0.013152862 -0.048853487 0.021900266
0.014096558 -0.048868068 0.02114892
0.01528432 -0.049674042 0.020367324
0.016128192 -0.049333293 0.018624425
0.016575288 -0.047884166 0.017845511
0.01832811 -0.050161142 0.014236987
0.019255098 -0.050063256 0.010735005
0.020642176 -0.051113959 0.0076700151
0.021500407 -0.050819144 0.0058386922
0.022613101 -0.051125269 0.005384922
-0.0051040747 -0.052061561 0.0059475005
-0.0037086564 -0.047285367 0.01806733
-0.0028378717 -0.048243817 0.020133883
-0.0018820699 -0.047992781 0.021015137
-0.00093043805 -0.047452338 0.02123633
0 -0.047496006 0.021670222
0.00094726082 -0.048310302 0.022213697
0.001870489 -0.04769747 0.022333384
0.002761622 -0.046947576 0.022007048
0.0037554654 -0.047882184 0.022422731
0.0046777446 -0.047712997 0.022229016
0.0056024957 -0.047621213 0.02194494
0.0068111387 -0.049624011 0.021866739
0.0075010299 -0.047819063 0.021866739
0.0084299855 -0.047769915 0.021840572
0.0094172787 -0.048028123 0.021910846
0.010361008 -0.048037402 0.022209406
0.011221685 -0.047692165 0.022070527
0.012376045 -0.048552178 0.021892905
0.013018209 -0.047423474 0.021887839
0.014029047 -0.047698759 0.021264791
0.01474459 -0.046998382 0.02041328
0.01550612 -0.046518359 0.01878649
0.016994067 -0.048149858 0.018098533
0.019220157 -0.051590946 0.01672402
0.019068979 -0.048625894 0.012042373
0.020157922 -0.048954953 0.0088186264
0.021477846 -0.049789552 0.0070025623
0.022415977 -0.049704995 0.0057953
0.023584293 -0.050116625 0.0050852597
-0.005183951 -0.051839512 0.0072953403
-0.0037198709 -0.046498388 0.018450052
-0.0028179428 -0.046965715 0.019993871
-0.0018814617 -0.047036543 0.020885766
-0.00094104448 -0.047052223 0.021504253
0 -0.047110282 0.021712244
0.00092574442 -0.04628722 0.022015333
0.0018819494 -0.047048736 0.022179604
0.0028009363 -0.046682272 0.022333384
0.0037622945 -0.047028683 0.02234301
0.0046347752 -0.046347752 0.022303641
0.0056299246 -0.046916038 0.02209872
0.0065069711 -0.046478365 0.02201578
0.0073143011 -0.045714382 0.022136271
0.0086943517 -0.048301958 0.021910846
0.0092667704 -0.046333853 0.021973729
0.010181385 -0.046279024 0.022373766
0.011373769 -0.047390707 0.022232324
0.012151131 -0.046735119 0.022098809
0.013025884 -0.046521012 0.022018433
0.014209965 -0.047366552 0.021264791
0.014465866 -0.045205832 0.020372123
0.016068283 -0.047259659 0.019323021
0.017059848 -0.047388464 0.01869905
0.018453252 -0.048561189 0.017679363
0.021596769 -0.053991921 0.013786197
0.022709506 -0.054070249 0.010629445
0.021441758 -0.048731267 0.0081691742
0.022102511 -0.048048936 0.0065018833
0.023454409 -0.048863351 0.0055318177
0.024523769 -0.049047537 0.0050756931
-0.0047892672 -0.046934821 0.01522094
-0.0037691016 -0.046171494 0.019683003
-0.0028438955 -0.046450295 0.020629019
-0.0018788911 -0.046032835 0.021456927
-0.00093878381 -0.046000406 0.021636486
0 -0.045343399 0.022397429
0.00093250495 -0.045692742 0.022644699
0.0018786473 -0.046026859 0.022637397
0.0028195728 -0.046053022 0.022447377
0.0037456942 -0.045884751 0.022678822
0.0046131066 -0.045208443 0.02258718
0.0056276987 -0.04595954 0.022391111
0.0064809038 -0.045366328 0.022343993
0.0074380939 -0.045558326 0.022488892
0.0081474623 -0.044358406 0.022255898
0.0091625014 -0.044896256 0.022497058
0.010293261 -0.045851797 0.022708505
0.011202614 -0.045744006 0.022660255
0.012184326 -0.045925535 0.022507459
0.013214299 -0.046250045 0.022072643
0.013896473 -0.045395143 0.021844655
0.015051474 -0.04609514 0.020967335
0.015849734 -0.045684524 0.020062119
0.016712276 -0.04549453 0.018709183
0.018896295 -0.048732549 0.018109053
0.019348985 -0.047405016 0.01510483
0.019816542 -0.046238597 0.011837125
0.023765028 -0.052931201 0.0091836751
0.026200956 -0.055819429 0.007361412
0.023720128 -0.048428595 0.0063648224
0.024242306 -0.047514919 0.0056571066
0.025310803 -0.047701128 0.0052392781
-0.0062190327 -0.049752261 0.0060877502
-0.0046072551 -0.044229649 0.017918676
-0.00376223 -0.04514676 0.01982531
-0.0028017999 -0.044828799 0.020823985
-0.0018955728 -0.045493748 0.021536291
-0.00093371276 -0.044818211 0.021786004
0 -0.044891514 0.022398263
0.00094517379 -0.045368344 0.022455841
0.0018736261 -0.044967029 0.022344261
0.0028270381 -0.045232609 0.021896452
0.0037066343 -0.044479612 0.022168845
0.0047114943 -0.045230348 0.022391111
0.0056912708 -0.045530166 0.022215903
0.0066143717 -0.045355693 0.022129774
0.0074696955 -0.044818174 0.022255898
0.0085071828 -0.04537164 0.022161245
0.0093628848 -0.04494185 0.022088856
0.010377599 -0.045284066 0.022312313
0.011030637 -0.044122547 0.022057384
0.01206378 -0.044543184 0.022029519
0.013224381 -0.045340735 0.022039443
0.013970315 -0.044705007 0.021687895
0.014808614 -0.044425841 0.020902485
0.015945833 -0.045023527 0.020258904
0.017652635 -0.047073692 0.019199461
0.018248217 -0.046100762 0.018078506
0.018708257 -0.044899818 0.016711861
0.020470889 -0.046790607 0.013736635
0.021689229 -0.047321953 0.0115785
0.022111988 -0.046146758 0.0085766613
0.024428265 -0.04885653 0.00766626
0.026289491 -0.050475825 0.0069049001
0.027042536 -0.049924683 0.006218493
0.02767729 -0.04920407 0.0053164661
-0.0060507096 -0.047397226 0.0086062253
-0.0047126296 -0.04429872 0.018556595
-0.0037984964 -0.044632334 0.020020247
-0.0027792526 -0.043541621 0.02062726
-0.0018940765 -0.044510797 0.021435022
-0.00092991564 -0.043706037 0.021699756
0 -0.043803595 0.02233842
0.00094351108 -0.044345021 0.022386253
0.0018668859 -0.04387182 0.02205804
0.0027558422 -0.043174859 0.021772832
0.0038877469 -0.045681026 0.021889538
0.0046611172 -0.043814503 0.022017449
0.0055481605 -0.043460593 0.021763295
0.0065685981 -0.044103444 0.021685094
0.0073076636 -0.042932525 0.022017449
0.0083693443 -0.043706574 0.021894008
0.0092651993 -0.043546438 0.021932721
0.010234625 -0.04372976 0.022088856
0.011233713 -0.043998715 0.022019088
0.012015233 -0.043439686 0.021982044
0.012957156 -0.043499023 0.021800786
0.014028543 -0.043956101 0.021545589
0.014821001 -0.043536693 0.020757973
0.015779864 -0.043626685 0.02028361
0.017360751 -0.045330849 0.019171029
0.017484257 -0.043250531 0.018008441
0.019392321 -0.045571957 0.017035007
0.01993742 -0.044621844 0.015855789
0.020807689 -0.04445279 0.014432222
0.022895571 -0.046786603 0.011225551
0.022608081 -0.044274159 0.0099181831
0.02429644 -0.045677308 0.0087934136
0.02565657 -0.046379182 0.00800547
0.026369624 -0.045902677 0.0063082576
0.02785928 -0.046763793 0.0062204599
0.032832652 -0.05321154 0.005669564
-0.0070250244 -0.046164446 0.0058417618
-0.0057173721 -0.043833185 0.014853239
-0.0046381406 -0.042670891 0.018844664
-0.0037159813 -0.042733785 0.020632803
-0.0028689867 -0.04399113 0.021012366
-0.0018774482 -0.043181308 0.021483809
-0.00093080697 -0.04281712 0.021786004
0 -0.04316783 0.022269964
0.00092940469 -0.042752616 0.022170573
0.0018758631 -0.043144848 0.021672726
0.0029348312 -0.045000743 0.021753281
0.0037196393 -0.042775851 0.021790594
0.0046704509 -0.04296815 0.021854907
0.0056065433 -0.042983498 0.021624297
0.0065040044 -0.042740598 0.021656305
0.0075566638 -0.043450817 0.022014827
0.0084223477 -0.043047555 0.02183494
0.0092533845 -0.042565569 0.021853864
0.01033426 -0.043215998 0.022121102
0.011082792 -0.042484038 0.021971017
0.012042654 -0.042612467 0.021945924
0.013134262 -0.043155432 0.021784931
0.014209148 -0.043574721 0.02159369
0.014937595 -0.042945582 0.020846337
0.016269278 -0.04402275 0.020807654
0.016925115 -0.043253075 0.019785434
0.018266011 -0.044222973 0.018890828
0.018712327 -0.043038353 0.017864227
0.01955593 -0.0428368 0.017035007
0.021333531 -0.044606473 0.016523272
0.021944519 -0.043889038 0.014546931
0.02257102 -0.043261122 0.01320222
0.024222881 -0.0445701 0.012636274
0.024789173 -0.043857768 0.010935932
0.025491996 -0.043430809 0.0094590485
0.027753117 -0.045594405 0.0083094239
0.027908616 -0.044268839 0.0066480935
0.0292779 -0.04489278 0.005964309
0.034614213 -0.051363025 0.0050607324
-0.0073734773 -0.047400925 0.0068936348
-0.0056363647 -0.042272735 0.016758859
-0.0046751844 -0.042076658 0.019003987
-0.0037792719 -0.042516809 0.020693332
-0.0028491484 -0.042737227 0.021093488
-0.0018543442 -0.041722745 0.02154994
-0.00094516703 -0.042532519 0.021786004
0 -0.041841242 0.02185294
0.00094766682 -0.042645007 0.021723211
0.0019090953 -0.042954646 0.02134791
0.0027262347 -0.040893521 0.021493852
0.0037204989 -0.041855615 0.021736711
0.0047120685 -0.042408615 0.021854907
0.0055935681 -0.041951761 0.02143544
0.0066151773 -0.042526141 0.02139464
0.0074252519 -0.041767042 0.021998674
0.008382041 -0.041910205 0.021717787
0.0092817415 -0.041767836 0.022029072
0.010387579 -0.04249464 0.02214554
0.01131939 -0.042447709 0.022034734
0.012268845 -0.042469081 0.021932721
0.01315092 -0.042270817 0.021771908
0.013851377 -0.041554131 0.021638781
0.014925436 -0.041977789 0.021068871
0.015751015 -0.041693863 0.020821065
0.016829217 -0.042073041 0.020265907
0.018484179 -0.043778319 0.019343674
0.018910266 -0.042548098 0.018697828
0.019780362 -0.042386487 0.017958403
0.020702096 -0.042345196 0.017529398
0.021203263 -0.041484646 0.016597271
0.02339123 -0.043858558 0.016115755
0.023901194 -0.043022152 0.015605301
0.024372397 -0.042182997 0.014603585
0.025077322 -0.041795537 0.012914479
0.026790161 -0.043055616 0.0107373
0.028242875 -0.043825153 0.0084337294
0.029858934 -0.044788402 0.0074352324
0.029900508 -0.043403964 0.0056404769
-0.0069866297 -0.043915957 0.0089497864
-0.0055417824 -0.040639736 0.018064767
-0.004635077 -0.040788677 0.019005895
-0.0037203599 -0.040923957 0.020658493
-0.0028197796 -0.041356768 0.020813376
-0.0018721999 -0.041188397 0.021546185
-0.00094354741 -0.041516084 0.021832198
0 -0.04108429 0.022048026
0.00094171817 -0.041435599 0.022048026
0.0018217153 -0.040077735 0.021672726
0.0027985619 -0.041045576 0.021623284
0.0037847436 -0.041632179 0.021684706
0.0046219686 -0.040673323 0.021624297
0.0055981143 -0.041052837 0.021413445
0.0066708396 -0.041930992 0.02139464
0.0074303369 -0.040866852 0.021717787
0.0086412234 -0.04224598 0.021813184
0.0092216572 -0.040575292 0.022019088
0.010201487 -0.040805947 0.022001028
0.01125023 -0.041250844 0.021798342
0.01209173 -0.040925853 0.021826208
0.013002 -0.040863428 0.021787018
0.013921227 -0.0408356 0.021652192
0.014862494 -0.040871859 0.021380663
0.01597411 -0.041344754 0.020999998
0.016655363 -0.040713109 0.020576209
0.01735414 -0.040188536 0.019961387
0.019164126 -0.042161081 0.019316912
0.020349922 -0.042637933 0.019309074
0.020371852 -0.040743705 0.018397242
0.021818481 -0.041739702 0.017577529
0.02276524 -0.041736271 0.017423958
0.023316145 -0.041036416 0.016572088
0.025048574 -0.042389896 0.016121984
0.02552643 -0.041598629 0.014360428
0.025888287 -0.040681593 0.013015777
0.027942095 -0.042394903 0.0099790394
0.02856834 -0.041900232 0.0082626641
0.029556483 -0.041951135 0.0066041648
-0.0081171729 -0.043629806 0.0057026744
-0.0066441009 -0.040813763 0.015455157
-0.0056831031 -0.040728904 0.01861313
-0.004672369 -0.040182374 0.019438177
-0.0037406834 -0.040212344 0.020676911
-0.002827158 -0.040522598 0.021287948
-0.0018683387 -0.040169284 0.021770984
-0.00093558052 -0.040229961 0.022030771
0 -0.039944302 0.022411197
0.00091728836 -0.0394434 0.022411197
0.0019135808 -0.041141987 0.02203998
0.002815817 -0.040360045 0.021907926
0.0036906872 -0.039674889 0.021813571
0.0047373013 -0.040740792 0.021758586
0.0056955409 -0.040818043 0.02138713
0.0064789481 -0.039799251 0.02139464
0.0075212112 -0.040426508 0.021687388
0.0084142806 -0.040201563 0.021453917
0.0092108874 -0.039606817 0.02170065
0.010370665 -0.040539872 0.021866739
0.011327268 -0.040589377 0.021620393
0.011979496 -0.03962449 0.021657437
0.013137927 -0.040352207 0.02161938
0.014035776 -0.040235892 0.021615148
0.015297581 -0.041112248 0.021380663
0.016151551 -0.040853921 0.021056563
0.016752211 -0.040019169 0.02075097
0.01796552 -0.040658809 0.020271003
0.018420374 -0.039603803 0.019972026
0.019469347 -0.039865807 0.019930422
0.020732597 -0.040522803 0.019117445
0.021817556 -0.040789343 0.018790573
0.022286611 -0.03993018 0.018162161
0.023709171 -0.040779773 0.01771301
0.024395758 -0.040346831 0.016943008
0.025651822 -0.040852901 0.0159688
0.027040146 -0.041525941 0.014826655
0.027276058 -0.040443812 0.012860954
0.028488699 -0.040833801 0.0096482038
0.030687852 -0.042567018 0.0075300634
0.030537676 -0.041035004 0.0056021512
-0.0084274774 -0.044244256 0.0065640509
-0.0065447693 -0.039268617 0.016681582
-0.0056630722 -0.039641507 0.01884973
-0.0047087199 -0.039553247 0.020231903
-0.0037678129 -0.039562035 0.020704418
-0.0028273852 -0.039583392 0.02097854
-0.0018562949 -0.038982194 0.021824896
-0.00092687574 -0.038928781 0.021770984
0 -0.040291328 0.022003382
0.00092687574 -0.038928781 0.021940947
0.0018994646 -0.039888754 0.021633446
0.002745803 -0.038441241 0.022049308
0.0037868361 -0.039761778 0.021948248
0.0046547614 -0.039099995 0.022001028
0.0055463794 -0.038824659 0.021629572
0.0065678144 -0.039406884 0.021549851
0.0075174267 -0.039466493 0.021770716
0.0085032899 -0.03968202 0.021671206
0.0094536347 -0.039705265 0.021843225
0.010370157 -0.039595146 0.021904528
0.011161424 -0.039064985 0.021537453
0.012093768 -0.039072175 0.021749377
0.013261835 -0.039785504 0.021549851
0.013969275 -0.039113972 0.021398097
0.015087258 -0.039604053 0.021116585
0.015635019 -0.038627695 0.021312475
0.016911454 -0.039460063 0.020584166
0.018089622 -0.039987583 0.020271003
0.018737335 -0.039348401 0.019981116
0.019873723 -0.039747447 0.019981116
0.020841412 -0.039788153 0.019791484
0.021880902 -0.039956432 0.019735157
0.022817217 -0.039930131 0.018997192
0.023221167 -0.03901156 0.018962502
0.024427779 -0.03946026 0.018040359
0.025492892 -0.039655607 0.016602486
0.026139613 -0.039209418 0.015865564
0.026881427 -0.03893172 0.014468759
0.028733576 -0.040227007 0.011780441
0.029267361 -0.039652552 0.0085476935
0.030839624 -0.040477004 0.0059590638
-0.007913514 -0.040556762 0.009775728
-0.00652648 -0.038226526 0.018199235
-0.0056302026 -0.038473051 0.019778222
-0.0047648563 -0.039071824 0.020410985
-0.0037544344 -0.038482953 0.021453053
-0.0027829618 -0.038033813 0.02161026
-0.0018752144 -0.038441896 0.021867245
-0.00096206705 -0.039444748 0.021856517
0 -0.037742384 0.022003382
0.000962372 -0.039457254 0.021795481
0.001874239 -0.038421899 0.021411508
0.0027884494 -0.038108807 0.021632165
0.0037573611 -0.038512953 0.02158007
0.004588651 -0.037626941 0.021735638
0.0057044621 -0.038980491 0.021140486
0.0066677388 -0.039053898 0.021283507
0.0074838451 -0.038354706 0.021735638
0.008405163 -0.038290188 0.021305442
0.0094287312 -0.038657799 0.021297246
0.010326004 -0.038487829 0.021401286
0.011359732 -0.038812418 0.020963579
0.012108934 -0.038189717 0.021101415
0.01300346 -0.038081564 0.020957798
0.014233547 -0.038905028 0.020929933
0.014959699 -0.038334228 0.020867795
0.016014213 -0.038622513 0.020761549
0.01688201 -0.038453463 0.020391852
0.017493818 -0.037749816 0.020224273
0.018721676 -0.038379434 0.019955754
0.020029914 -0.039106019 0.020130187
0.020350033 -0.037925065 0.019842148
0.02170749 -0.038695961 0.019788414
0.022624608 -0.038650371 0.019540757
0.023712803 -0.038888998 0.019501716
0.024255568 -0.038249165 0.01863578
0.024786811 -0.03763923 0.017644972
0.025719179 -0.037660226 0.016127348
0.027428413 -0.0387781 0.014954984
0.027914803 -0.038150232 0.012142956
0.02904525 -0.038414687 0.0094155967
0.030752387 -0.039401494 0.0069020987
-0.0094591305 -0.042040579 0.0055984259
-0.0075731198 -0.037865601 0.014843941
-0.0065969164 -0.037696663 0.019352883
-0.0057432563 -0.038288374 0.020577639
-0.0046688425 -0.03735074 0.020835847
-0.0037268866 -0.037268866 0.021358013
-0.0028431518 -0.037908688 0.021585256
-0.0018703425 -0.037406851 0.02187112
-0.00091274106 -0.036509644 0.021775097
0 -0.038331706 0.022134811
0.00093249709 -0.037299883 0.02145353
0.0019065615 -0.03813123 0.021306366
0.0028173598 -0.037564795 0.02131933
0.0037715188 -0.037715189 0.021125317
0.004698718 -0.037589744 0.021124184
0.0056338785 -0.037559193 0.021037668
0.0063728653 -0.036416374 0.021191776
0.0075770211 -0.037885107 0.021560609
0.0084276833 -0.037456371 0.021207094
0.0092337001 -0.0369348 0.021263927
0.010303909 -0.037468761 0.021290094
0.011079649 -0.036932163 0.021185756
0.012176314 -0.037465584 0.021346748
0.01316645 -0.037618428 0.020908296
0.013781168 -0.03674978 0.020722538
0.015220998 -0.038052496 0.020641088
0.016369492 -0.038516451 0.020356238
0.016844781 -0.037432846 0.020230383
0.017654728 -0.037167851 0.020000905
0.018778978 -0.037557956 0.01991719
0.019734589 -0.037589695 0.020091623
0.020997046 -0.038176447 0.019847423
0.021451335 -0.03730667 0.019873381
0.022312069 -0.037186783 0.019612342
0.023505963 -0.03760954 0.019670218
0.024366386 -0.037486747 0.019184768
0.025077628 -0.037152041 0.017847419
0.025753323 -0.03679046 0.016569763
0.026858833 -0.037046667 0.015207112
0.028183039 -0.037577387 0.013520807
0.029352533 -0.037874237 0.010094523
0.030631891 -0.038289864 0.0071972907
0.032066058 -0.03886795 0.0054621696
-0.0092341583 -0.040014688 0.0067304075
-0.0074579972 -0.036357738 0.016476542
-0.0065968959 -0.036754135 0.019506186
-0.0056777578 -0.036905427 0.020680368
-0.0047294935 -0.036890049 0.020712525
-0.0037573611 -0.03663427 0.021671772
-0.0028634469 -0.037224811 0.021825671
-0.0018147277 -0.035387192 0.021923095
-0.00094828673 -0.036983181 0.021967709
0 -0.035787143 0.022222877
0.00095243304 -0.037144888 0.021723509
0.0018909459 -0.036873449 0.021512389
0.0028078391 -0.036501911 0.021444976
0.003739801 -0.036463059 0.021325946
0.0046328548 -0.03613627 0.021342456
0.0055219224 -0.035892498 0.021252632
0.0066621909 -0.037117921 0.021325946
0.0076096733 -0.03709716 0.021532685
0.0085143428 -0.036895487 0.021355778
0.0094305603 -0.036779184 0.021272779
0.01008262 -0.035747472 0.021257639
0.011187859 -0.036360539 0.021064103
0.0122864 -0.036859203 0.020820767
0.013072564 -0.03641643 0.020674229
0.014239945 -0.037023857 0.020371646
0.0150874 -0.036775537 0.020322323
0.015513995 -0.035590928 0.020215094
0.017074984 -0.036995798 0.019863755
0.017831728 -0.036601968 0.019476444
0.018540194 -0.03615338 0.019887894
0.019578524 -0.036360119 0.019847423
0.020972872 -0.037179179 0.019675493
0.02146107 -0.036390509 0.019805431
0.022244804 -0.036147807 0.01968956
0.022898845 -0.0357222 0.019546032
0.024296699 -0.036445048 0.019177228
0.026138671 -0.037755858 0.017737359
0.0262182 -0.036518205 0.016383111
0.026924005 -0.036208145 0.014874905
0.028409148 -0.036931891 0.013533443
0.029514514 -0.037131164 0.0098701715
0.0311161 -0.037922747 0.0074897707
0.032027859 -0.037851106 0.0053200722
-0.0086163087 -0.036379971 0.0096318126
-0.0074671935 -0.035469171 0.018618524
-0.0065584257 -0.035602883 0.019708782
-0.0056520985 -0.035796624 0.020743012
-0.00468738 -0.035624087 0.020755261
-0.0037487899 -0.035613503 0.021203935
-0.0026997074 -0.034196295 0.021335363
-0.001907757 -0.036247384 0.021547884
-0.00095248508 -0.036194433 0.021598697
0 -0.036266375 0.021565318
0.00093370484 -0.035480782 0.02150923
0.001865807 -0.035450332 0.021202564
0.0027944595 -0.035396487 0.021100044
0.0037065973 -0.035212673 0.021003962
0.0046114726 -0.035047192 0.021003962
0.0057278206 -0.036276195 0.021100044
0.0065311133 -0.035454612 0.021046966
0.0073442929 -0.034885392 0.021250248
0.0084972549 -0.035877299 0.021108747
0.0093134372 -0.035391059 0.020950794
0.010333281 -0.03569679 0.020696819
0.011253578 -0.035636328 0.02056247
0.012169825 -0.035573334 0.02056247
0.013313022 -0.036135346 0.019679338
0.014669384 -0.037162438 0.019271523
0.014616421 -0.034714002 0.01956436
0.015893929 -0.035527606 0.019119442
0.017071534 -0.036039907 0.018919379
0.017612848 -0.035225697 0.018905193
0.019096637 -0.036283612 0.018932611
0.019652506 -0.035561681 0.019218266
0.020663269 -0.035691101 0.019183844
0.021802494 -0.036021512 0.019612342
0.022091215 -0.034977756 0.019515127
0.023014259 -0.034981672 0.019546032
0.024484731 -0.035785377 0.019177228
0.025616083 -0.036052264 0.017737359
0.025700204 -0.03487885 0.016427428
0.027276482 -0.035741597 0.015003979
0.028047705 -0.035527091 0.01366505
0.028922485 -0.035453368 0.0098701715
0.030763768 -0.036531974 0.0069020987
0.032119803 -0.03698644 0.0050976276
-0.010294665 -0.038090259 0.0052730739
-0.0083522853 -0.034337174 0.014506847
-0.0075426698 -0.034884848 0.018927783
-0.0065668589 -0.034710538 0.019670904
-0.0056479862 -0.034829248 0.020673573
-0.0046309102 -0.034268737 0.020772725
-0.0037882407 -0.035041224 0.02141729
-0.0028946542 -0.035700735 0.02141729
-0.0018802895 -0.034785356 0.021492034
-0.00093954377 -0.03476312 0.021557748
0 -0.034289461 0.021565318
0.00094509235 -0.034968417 0.021554768
0.0018832162 -0.0348395 0.021408379
0.0028529493 -0.035186373 0.021178961
0.0036970284 -0.034197513 0.021100044
0.0046784664 -0.03462065 0.021100044
0.0057167574 -0.035253339 0.021108747
0.0065847822 -0.034805279 0.021046966
0.0077075101 -0.035647232 0.02110064
0.0085585685 -0.035185225 0.021012545
0.0091767525 -0.033953987 0.020725548
0.010447768 -0.035142493 0.0199489
0.011250475 -0.034688968 0.019737899
0.01201594 -0.034199212 0.019531488
0.01352524 -0.035745278 0.01903072
0.01410341 -0.034788411 0.018954515
0.015576375 -0.036020365 0.01889196
0.016277896 -0.03542836 0.017984033
0.016609674 -0.03414211 0.017074794
0.018220104 -0.035481256 0.017009228
0.019302174 -0.035709023 0.018700272
0.019378562 -0.03414318 0.018808484
0.020936185 -0.035210855 0.018723875
0.021307925 -0.034277964 0.018695295
0.022492576 -0.034676056 0.018956304
0.024465296 -0.036208637 0.019084781
0.023944894 -0.034075428 0.018133789
0.025106493 -0.034405194 0.017309517
0.02659223 -0.035139732 0.016064644
0.026956843 -0.034393214 0.014646381
0.028297169 -0.034899842 0.012252092
0.02945536 -0.035156399 0.0097876191
0.030885823 -0.035711732 0.0065523088
-0.010349906 -0.037259664 0.0066294968
-0.0084382351 -0.033752941 0.015007049
-0.0075342134 -0.03390396 0.019066572
-0.006600854 -0.033947248 0.020344853
-0.0055783619 -0.033470172 0.020739943
-0.0046713529 -0.033633739 0.02119711
-0.0037569415 -0.033812474 0.021597624
-0.0027894164 -0.033472996 0.021597624
-0.0019080514 -0.034344926 0.021578461
-0.00093446247 -0.033640649 0.021620423
0 -0.033735141 0.021967888
0.00093531609 -0.033671379 0.021555424
0.0018704927 -0.033668868 0.021490216
0.0028316688 -0.033980027 0.021220267
0.0038315682 -0.034484114 0.021140128
0.0047493912 -0.034195617 0.021108747
0.0056511546 -0.033906925 0.021189749
0.006621338 -0.034052595 0.021189749
0.007386446 -0.033239007 0.021108747
0.0083180889 -0.033272356 0.020975649
0.0095300823 -0.034308296 0.020475388
0.010289986 -0.033676315 0.019881099
0.011144917 -0.033434749 0.01959005
0.012250968 -0.033925757 0.019335091
0.013405512 -0.034471314 0.018998235
0.014071114 -0.033770673 0.018331587
0.015000912 -0.033752054 0.016985357
0.016160518 -0.034222271 0.015840411
0.017346092 -0.034692183 0.015553206
0.017884126 -0.033885714 0.016189903
0.018575868 -0.033436559 0.01636672
0.020256581 -0.034725565 0.017672777
0.020683926 -0.033846427 0.017951012
0.021418065 -0.033523928 0.018064946
0.022018814 -0.033028223 0.018133789
0.023504792 -0.0338469 0.018094897
0.024573989 -0.034025524 0.017689019
0.025943631 -0.034591507 0.016383111
0.025791211 -0.033160128 0.01550433
0.026961548 -0.033469506 0.01424557
0.028522739 -0.034227286 0.011412948
0.029769432 -0.034570951 0.0079759061
0.031089367 -0.03497554 0.0053482652
-0.0094554536 -0.033094086 0.0070956349
-0.0083370563 -0.032421883 0.016764104
-0.007534978 -0.03296553 0.019311219
-0.006598108 -0.032990541 0.019495994
-0.005765121 -0.033629872 0.020563871
-0.0047038379 -0.032926865 0.02093789
-0.003749032 -0.032804031 0.021260083
-0.0028118354 -0.032804746 0.021091491
-0.0018917798 -0.033106148 0.02092582
-0.00093498494 -0.032724474 0.020910352
0 -0.034019902 0.021476358
0.00093297294 -0.032654051 0.021252453
0.0018923895 -0.033116817 0.020783722
0.0028149446 -0.032841019 0.020565093
0.0037663467 -0.032955535 0.02048409
0.0046956073 -0.032869253 0.020381361
0.0057146423 -0.033335414 0.020475388
0.0064841709 -0.032420855 0.020727694
0.0074598766 -0.032636959 0.020697594
0.0085164476 -0.033119518 0.020351768
0.0093244072 -0.032635424 0.019879371
0.010303776 -0.032784741 0.019412696
0.011280629 -0.032901835 0.019261926
0.012428869 -0.033462342 0.018435508
0.013390633 -0.033476584 0.017702222
0.014571547 -0.034000274 0.01606971
0.015079448 -0.032986291 0.015436441
0.016025441 -0.032993555 0.014119595
0.017558299 -0.034141134 0.013801396
0.017999338 -0.033156674 0.014206558
0.019141667 -0.033497915 0.014772832
0.01957706 -0.032628432 0.014831692
0.020647183 -0.032847792 0.015760034
0.021655468 -0.032953974 0.015766501
0.022747073 -0.033172816 0.016053855
0.023180097 -0.032452136 0.01603049
0.024870697 -0.033479784 0.015997916
0.025486298 -0.033037793 0.01507923
0.026647108 -0.033308886 0.014486849
0.027549811 -0.033249769 0.012005568
0.028157141 -0.032849997 0.0086942315
0.029702643 -0.033535242 0.0064337552
-0.0092576509 -0.031476013 0.0064018965
-0.0084733656 -0.032010492 0.014876246
-0.0075059477 -0.031900279 0.018905997
-0.0067553399 -0.032811649 0.019385874
-0.0055469228 -0.031432562 0.020336837
-0.0047811009 -0.032511488 0.020712525
-0.003780605 -0.032135144 0.020913959
-0.0027863155 -0.031578243 0.020803154
-0.0018937875 -0.032194387 0.020516247
-0.00093708676 -0.031860951 0.02050668
0 -0.031564623 0.020896345
0.00092806335 -0.031554155 0.020504177
0.0018965921 -0.032242067 0.020249248
0.0028784978 -0.032622974 0.020145506
0.0037013497 -0.031461474 0.020114124
0.0047045914 -0.031991221 0.020090997
0.0056544594 -0.032041937 0.020083904
0.0065146717 -0.03164269 0.020088702
0.0074288985 -0.031572819 0.0199489
0.0084042447 -0.031749368 0.019728601
0.0092381472 -0.031409699 0.018883675
0.010386552 -0.032103885 0.018084794
0.011259034 -0.031900596 0.017897844
0.012633617 -0.033041768 0.016446203
0.01330231 -0.032305609 0.015961111
0.014164367 -0.032105897 0.014119595
0.015604303 -0.033159144 0.012603879
0.016437033 -0.032874066 0.012505144
0.016913056 -0.031946883 0.011977434
0.018305352 -0.032756947 0.011977613
0.01940285 -0.032984845 0.012311846
0.019663332 -0.031835873 0.013454318
0.020635761 -0.031891629 0.014092088
0.022052318 -0.03259908 0.014472187
0.023051564 -0.032656383 0.014276743
0.023775633 -0.03233486 0.014485538
0.024140615 -0.031568497 0.014494061
0.024728272 -0.031139305 0.013815999
0.027042985 -0.032837909 0.011334717
0.028003844 -0.032832094 0.0096083581
0.028838331 -0.03268344 0.0062519908
0.030257523 -0.033185672 0.0052917004
-0.0084817987 -0.031099929 0.01134491
-0.007520759 -0.031023132 0.016450614
-0.0065327557 -0.030797277 0.019090414
-0.0056706886 -0.031188788 0.020092368
-0.0047254316 -0.031187847 0.020477563
-0.0039026218 -0.03219663 0.020735711
-0.0028712479 -0.031583726 0.020674318
-0.0018795667 -0.031012852 0.020332277
-0.00094576681 -0.031210305 0.020249248
0 -0.03072755 0.020535707
0.00094302336 -0.031119769 0.020093054
0.0019005389 -0.031358894 0.019977301
0.002830097 -0.031131066 0.019941807
0.0037814269 -0.031196771 0.020090997
0.0046233209 -0.03051392 0.020017266
0.0056791012 -0.031235056 0.020011485
0.0065942002 -0.031086942 0.020008683
0.0075134444 -0.030992957 0.019731462
0.0083649559 -0.030671503 0.018887103
0.0094943615 -0.031331394 0.017975539
0.010108595 -0.030325783 0.016201615
0.011129874 -0.030607155 0.015841901
0.012865202 -0.032657821 0.01490894
0.01342375 -0.031641696 0.01324442
0.014371237 -0.031616721 0.012205839
0.015581252 -0.032136332 0.010120153
0.016692134 -0.032402378 0.0099620223
0.017646881 -0.032352615 0.0098588169
0.018090555 -0.031420436 0.010662138
0.019141452 -0.031583399 0.010132164
0.020393856 -0.032047488 0.011381388
0.021040715 -0.031561073 0.012140125
0.021225475 -0.030453943 0.012322128
0.022773126 -0.031313047 0.012269557
0.024349682 -0.032141581 0.012306035
0.024724899 -0.031381603 0.012269557
0.025500819 -0.031167667 0.011334717
0.026071247 -0.030726826 0.010213137
0.026865324 -0.030570885 0.0068308711
0.029116217 -0.032027841 0.005563736
-0.008203296 -0.029167276 0.0070357621
-0.0077759149 -0.031103659 0.014287025
-0.0066941604 -0.030601878 0.018125743
-0.0056199515 -0.029973075 0.01922825
-0.0047172857 -0.030190628 0.020001829
-0.0037046834 -0.029637467 0.020117879
-0.0027941188 -0.029803934 0.01998499
-0.0019038637 -0.03046182 0.019452155
-0.00093730958 -0.029993907 0.019487649
0 -0.029839886 0.019759625
0.00093334698 -0.029867103 0.01971072
0.0018682615 -0.029892184 0.019496709
0.0028327075 -0.030215546 0.019461215
0.0037478434 -0.029982748 0.019907117
0.0046724812 -0.029903879 0.019891351
0.0056952937 -0.0303749 0.019692659
0.0066694133 -0.030488746 0.019578964
0.0075325971 -0.030130388 0.018950641
0.0085022459 -0.030230207 0.018034101
0.0092598889 -0.029631646 0.016377121
0.010179847 -0.029614102 0.015003324
0.011433546 -0.030489456 0.013194293
0.012511319 -0.030797094 0.012642711
0.013449565 -0.030741861 0.011928141
0.014861279 -0.031704061 0.0097430348
0.015427507 -0.030855015 0.007630378
0.01653293 -0.031120811 0.0070789158
0.017268952 -0.030700359 0.0074567199
0.018366233 -0.030932603 0.0082842708
0.019084541 -0.030535268 0.0077862144
0.020318752 -0.030961908 0.0089040101
0.020959381 -0.030486373 0.0098919272
0.022074191 -0.030711919 0.01025635
0.022333913 -0.029778549 0.010345519
0.023569731 -0.030169256 0.010299325
0.024883499 -0.030625844 0.010322779
0.025691777 -0.030449513 0.0096083581
0.026790319 -0.030617507 0.0064029098
-0.007494166 -0.029039893 0.0076857209
-0.0065867146 -0.029169736 0.014777958
-0.0056595164 -0.029240834 0.018181056
-0.0046393168 -0.028763765 0.018941343
-0.0037349656 -0.028945982 0.019202083
-0.0028568795 -0.029521089 0.019093841
-0.0018518252 -0.028703291 0.01861459
-0.00093762559 -0.029066393 0.018714875
0 -0.029722231 0.01890105
0.00093152956 -0.028877417 0.018920064
0.0019022996 -0.029485643 0.019039899
0.0028133553 -0.029071337 0.019079298
0.0037793424 -0.029289903 0.019564122
0.0046792431 -0.029011305 0.019631714
