ply
format ascii 1.0
comment PCL generated
element vertex 1269
property float x
property float y
property float z
element camera 0
property float view_px
property float view_py
property float view_pz
property float x_axisx
property float x_axisy
property float x_axisz
property float y_axisx
property float y_axisy
property float y_axisz
property float z_axisx
property float z_axisy
property float z_axisz
property float focal
property float scalex
property float scaley
property float centerx
property float centery
property int viewportx
property int viewporty
property float k1
property float k2
end_header
-0.0029311804 -0.074256569 0.0091851056
-0.0018549185 -0.070486903 0.0091333389
-0.00092230592 -0.070095249 0.0083066523
0 -0.071932428 0.0079682469
0.00095224578 -0.072370678 0.0065125227
-0.0066644945 -0.071405299 0.0053649247
-0.0056459657 -0.070574574 0.0074323416
-0.0045924615 -0.068886921 0.0087548494
-0.0038164472 -0.071558386 0.010086268
-0.0029001185 -0.072502963 0.010609806
-0.0018731854 -0.070244454 0.010639846
-0.00095324509 -0.07149338 0.010219574
0 -0.070764683 0.0092821717
0.00095986616 -0.071989961 0.0078782439
0.0019472915 -0.073023431 0.0061837733
0.0029405726 -0.073514313 0.0051613748
-0.0067195003 -0.071034715 0.0072039366
-0.0056278557 -0.06941022 0.0088643432
-0.0047547403 -0.07037016 0.010085791
-0.0038107028 -0.070497997 0.011275291
-0.0028176266 -0.069501452 0.012349695
-0.0018862234 -0.069790266 0.013055503
-0.00094974297 -0.070280977 0.012526304
0 -0.070123844 0.010744035
0.00095235551 -0.070474312 0.009847641
0.0019287525 -0.071363844 0.0083340406
0.0029960636 -0.073902898 0.0080209672
0.0038894392 -0.071954623 0.0054435432
-0.0077744764 -0.070942096 0.0059100688
-0.0066843196 -0.0697079 0.008271575
-0.005847041 -0.071139 0.010038346
-0.0047773006 -0.069748588 0.010686815
-0.0037482982 -0.06840644 0.014445126
-0.0029049881 -0.070688047 0.015146852
-0.0018665621 -0.068129517 0.015311539
-0.00093790819 -0.068467297 0.014214456
0 -0.069993541 0.013867646
0.00095231045 -0.069518663 0.011703908
0.001937418 -0.070715755 0.0096906126
0.0030207501 -0.073504917 0.008112967
0.0038331279 -0.069954582 0.0056447685
0.0049140202 -0.071744695 0.005089581
-0.0078382725 -0.070544451 0.0066452622
-0.006667376 -0.06857872 0.0088494122
-0.0057607051 -0.069128461 0.010879308
-0.0047676284 -0.068653844 0.014024168
-0.0037767696 -0.067981854 0.015887141
-0.0028492317 -0.068381563 0.016179293
-0.0018845652 -0.067844346 0.016254276
-0.00094836956 -0.068282604 0.016109228
0 -0.066711739 0.01588133
0.00095061841 -0.068444528 0.014175594
0.0019482634 -0.070137478 0.010937244
0.0028235218 -0.067764521 0.0088338852
0.0040094294 -0.072169729 0.0074181855
0.0048785456 -0.070251055 0.0052357614
-0.0079963785 -0.070967861 0.0074175894
-0.0067571816 -0.068537131 0.010048747
-0.005737761 -0.067896836 0.013090432
-0.0048545767 -0.068934992 0.015274733
-0.0037407912 -0.066399045 0.016694456
-0.0028481479 -0.067406163 0.016903818
-0.0019349055 -0.068689145 0.016994447
-0.00091931352 -0.065271258 0.016746789
0 -0.068655476 0.016600847
0.00095390482 -0.067727245 0.016086847
0.0018950256 -0.067273408 0.013952464
0.0029444417 -0.069685124 0.010798901
0.0040267487 -0.071474791 0.0086263716
0.0047916607 -0.068041585 0.0063423514
0.005908085 -0.069912337 0.0051367283
-0.0077741765 -0.068024047 0.0089147389
-0.0068214466 -0.068214469 0.011095434
-0.0058088871 -0.067770354 0.014707118
-0.0048521529 -0.06793014 0.015775174
-0.0037682531 -0.065944426 0.016865551
-0.0028406614 -0.066282101 0.017140299
-0.0018917365 -0.066210777 0.017122507
-0.00093292567 -0.065304801 0.017128378
0 -0.068122692 0.01690805
0.00093049346 -0.06513454 0.016336977
0.0018835887 -0.065925606 0.014719725
0.0028775083 -0.067141861 0.012892455
0.0039688991 -0.069455735 0.0099564791
0.0048667449 -0.068134427 0.0083365142
0.0059030023 -0.068868361 0.0056981444
0.0069150715 -0.069150716 0.0051111877
-0.0077863028 -0.067156866 0.0060285628
-0.0068444056 -0.067466281 0.0098334253
-0.0058143307 -0.066864803 0.012432575
-0.0047089201 -0.064983092 0.014526427
-0.0037840256 -0.06527444 0.016246468
-0.0028364391 -0.065238103 0.016910076
-0.0018924483 -0.065289468 0.017073065
-0.00095906516 -0.066175498 0.017412454
0 -0.064199239 0.017140538
0.0009546256 -0.065869167 0.017018974
0.001908017 -0.065826587 0.01589632
0.002887523 -0.06641303 0.013816863
0.0038798668 -0.066927701 0.010920465
0.0048758467 -0.067286685 0.0089992285
0.0058201686 -0.066931941 0.0077612102
0.0067750248 -0.066782385 0.0057460368
0.0077522523 -0.066863179 0.0051431954
-0.0067055551 -0.065139681 0.0093010664
-0.0057412824 -0.065067865 0.011458665
-0.0048463 -0.065909676 0.014271349
-0.0037722883 -0.064128906 0.016313821
-0.0028539121 -0.064688675 0.016926676
-0.0018727111 -0.063672177 0.017446667
-0.00094481918 -0.064247705 0.017964631
0 -0.064922109 0.018155009
0.00094062218 -0.063962311 0.018166661
0.0019085986 -0.064892352 0.016416401
0.002964492 -0.067195155 0.01587683
0.0039511099 -0.067168869 0.013659835
0.0047264807 -0.064280137 0.010378331
0.0060565728 -0.068641156 0.0095800757
0.0075246454 -0.073096551 0.0067784488
0.009005921 -0.076550327 0.0053976774
0.0093003204 -0.070269093 0.0051679313
0.0095456177 -0.064910203 0.0051165521
-0.0067509841 -0.064616561 0.0093597472
-0.0057564988 -0.064280897 0.013016671
-0.0047035641 -0.063027762 0.015352726
-0.0037549264 -0.062895015 0.017222792
-0.002866263 -0.064013205 0.017971486
-0.0018597691 -0.062302265 0.018312931
-0.0009470493 -0.063452303 0.019019365
0 -0.064516358 0.018973202
0.00092904153 -0.062245782 0.019167751
0.0018768033 -0.062872909 0.017881274
0.0029013043 -0.0647958 0.017240137
0.0037904535 -0.0634901 0.015802592
0.0052848179 -0.070816562 0.012080342
0.0067488849 -0.075362548 0.010551393
0.0071307938 -0.068251885 0.0085666478
0.0085291341 -0.071431495 0.0072979033
0.0097557027 -0.072625786 0.0061400235
0.010783685 -0.072250687 0.0056277215
0.010663177 -0.06494844 0.0052188337
-0.0079903239 -0.065920174 0.0058716834
-0.0069215922 -0.065260723 0.010169506
-0.0057815406 -0.063596949 0.01364994
-0.0047773505 -0.063061029 0.016280383
-0.0037694185 -0.062195405 0.018020391
-0.0028265775 -0.062184706 0.019422352
-0.0018566685 -0.061270062 0.019721389
-0.00094550173 -0.062403113 0.019718677
0 -0.061335079 0.019786447
0.00093199365 -0.061511584 0.019801259
0.0019374726 -0.063936599 0.019488662
0.0029808211 -0.065578066 0.018621057
0.0040395665 -0.066652842 0.01636067
0.0050508375 -0.066671059 0.015686184
0.0055632452 -0.061195694 0.014340788
0.0066571292 -0.062767215 0.010589838
0.0075167837 -0.062013466 0.0085061789
0.0083179669 -0.060998429 0.0074692965
0.010394337 -0.068602622 0.0062534511
0.012181041 -0.073086239 0.0056866705
0.01181975 -0.065008625 0.0050179362
-0.0080066808 -0.065054283 0.0061726868
-0.0067995954 -0.063139103 0.010998309
-0.0057098032 -0.061856199 0.015922755
-0.0047659385 -0.061957199 0.017629087
-0.0037077025 -0.060250163 0.01922974
-0.0028252008 -0.061212685 0.019976169
-0.0018903123 -0.061435152 0.019932926
-0.00096263085 -0.062571004 0.020259708
0 -0.06732595 0.020201087
0.00098727783 -0.064173058 0.020538479
0.0018731509 -0.060877405 0.019994915
0.00285076 -0.061766468 0.01980415
0.0037690429 -0.061246946 0.018597603
0.0047771963 -0.062103555 0.017467052
0.0054775989 -0.059340656 0.017326713
0.0064814235 -0.060184646 0.015558362
0.0073841177 -0.059995957 0.01060456
0.0083521418 -0.060321022 0.0090489089
0.0090490337 -0.058818717 0.0075974464
0.010429738 -0.061630268 0.006136626
0.011889511 -0.064401515 0.0056467354
0.012544035 -0.062720172 0.0053251386
0.013657686 -0.063410684 0.0052322745
-0.0082162665 -0.065730132 0.0075933933
-0.0068952045 -0.063041866 0.013161719
-0.0060290899 -0.06431029 0.017124891
-0.0050661038 -0.064846128 0.018235177
-0.0040556747 -0.064890794 0.020115376
-0.0030606294 -0.065293424 0.020437002
-0.0019470837 -0.06230668 0.0205957
-0.0009607083 -0.061485332 0.020829916
0 -0.059596233 0.020714313
0.00091371976 -0.058478065 0.021015406
0.0018758713 -0.060027882 0.020916343
0.0027752358 -0.059205033 0.020697057
0.0036715064 -0.058744103 0.019961387
0.00489417 -0.062645376 0.020025849
0.0056434856 -0.060197178 0.019577205
0.0068104304 -0.062266793 0.017756671
0.0078233927 -0.062587142 0.015463829
0.0090730377 -0.064519376 0.011390239
0.0095676146 -0.061232734 0.0098876953
0.010283418 -0.059830796 0.0086176395
0.011764291 -0.062742889 0.0067495406
0.012538829 -0.061729617 0.0058914423
0.013801987 -0.063094802 0.0055036843
0.014683413 -0.062649228 0.0053104162
0.015722103 -0.062888414 0.0050755143
-0.0080533829 -0.063420385 0.00744766
-0.0071186167 -0.06406755 0.015367389
-0.0057341531 -0.060208607 0.017529279
-0.0047399718 -0.059723645 0.018649817
-0.0037933011 -0.059744492 0.020332992
-0.0028192883 -0.059205052 0.020952344
-0.001826716 -0.057541557 0.021040767
-0.00094362139 -0.059448145 0.020986199
0 -0.058328472 0.020953268
0.00095098716 -0.059912194 0.021511436
0.0018710324 -0.05893752 0.021276236
0.0028158184 -0.059132189 0.021276236
0.0036949317 -0.058195177 0.020801187
0.0047600591 -0.059976742 0.020812839
0.0056333551 -0.059150226 0.020713985
0.0069520269 -0.06256824 0.020305187
0.0075864419 -0.059743229 0.017894864
0.0085397726 -0.059778411 0.016557157
0.0098635573 -0.062140413 0.01139158
0.010136321 -0.058053479 0.0098864734
0.011662327 -0.061227217 0.0073295236
0.012668007 -0.061391111 0.0065658391
0.013562965 -0.061033342 0.0061364472
0.014503974 -0.060916692 0.0054489672
0.015645569 -0.061604425 0.0051716566
-0.0075816615 -0.058757879 0.0075438917
-0.0065268814 -0.057809521 0.016353935
-0.0056045582 -0.057913769 0.017870307
-0.004613399 -0.05720615 0.020076036
-0.0038086877 -0.05903466 0.020978928
-0.0027997755 -0.057862025 0.021677226
-0.0018712947 -0.058010135 0.022073239
-0.00092579308 -0.057399169 0.022000343
0 -0.058954556 0.021869093
0.00094198802 -0.058403257 0.022098601
0.0018663023 -0.057855371 0.021907449
0.002795757 -0.057778981 0.022022456
0.0037709419 -0.058449596 0.021757603
0.0046952814 -0.058221485 0.021757603
0.005651677 -0.058400664 0.021655649
0.0073531284 -0.065127708 0.020812839
0.0082755955 -0.064135864 0.020269305
0.01011977 -0.069713973 0.01808843
0.009645218 -0.059800353 0.016252458
0.010362683 -0.058407847 0.011357814
0.011403252 -0.058916803 0.0096359551
0.012631019 -0.060240243 0.0086427927
0.013697753 -0.060661476 0.0078841746
0.014897515 -0.061576396 0.0067001879
0.015653599 -0.060657695 0.0061219335
0.016810173 -0.061307687 0.005332917
-0.0074989065 -0.057179164 0.0089074671
-0.006560571 -0.057170693 0.017212301
-0.0056761792 -0.05770782 0.019197196
-0.0047214828 -0.057602089 0.020425528
-0.0037302861 -0.056886863 0.021186888
-0.0028299256 -0.057541825 0.021729648
-0.0018621683 -0.056796134 0.022155643
-0.00094497617 -0.057643544 0.022138655
0 -0.057004847 0.022009879
0.00092896167 -0.056666661 0.02212131
0.0018906653 -0.057665292 0.022022456
0.0028041692 -0.057018109 0.022064865
0.003695945 -0.056363162 0.021974295
0.0047205696 -0.057590947 0.021974295
0.0055443025 -0.056367077 0.021933794
0.006543098 -0.057018425 0.021655649
0.0079430845 -0.060566016 0.020776957
0.0086894948 -0.058895465 0.01996541
0.0090761315 -0.055364404 0.01808843
0.010210072 -0.056619488 0.017051578
0.011079763 -0.056322131 0.011986881
0.01291516 -0.060601905 0.010677427
0.013634836 -0.059408929 0.0095217824
0.014685017 -0.059719071 0.0082720518
0.015752068 -0.060054757 0.0068818033
0.016609712 -0.059599556 0.0063349605
0.017620975 -0.059715524 0.0056889653
0.018475277 -0.059315361 0.0052968264
0.020363888 -0.059152246 0.0050986707
0.021203674 -0.058792006 0.0052968264
0.022260856 -0.05903966 0.0060968697
0.023323067 -0.05927946 0.0059226751
0.024602631 -0.060030419 0.0059258342
-0.0075583165 -0.056687374 0.0099396706
-0.0066445246 -0.056953069 0.017643064
-0.0056367158 -0.056367159 0.019290239
-0.0047695842 -0.05723501 0.020404518
-0.0037768008 -0.056652013 0.021375179
-0.0027873544 -0.055747084 0.022054076
-0.0018650857 -0.055952571 0.022069871
-0.00095161312 -0.057096787 0.021935791
0 -0.055766918 0.02185604
0.00093273434 -0.05596406 0.021929264
0.0018656946 -0.05597084 0.021797657
0.002774931 -0.055498622 0.021878839
0.0037448909 -0.056173366 0.021643668
0.0047711064 -0.057253279 0.021622628
0.0055771624 -0.055771627 0.021544039
0.0066121309 -0.056675408 0.021266758
0.0074560256 -0.055920191 0.020804554
0.0083662141 -0.055774763 0.020054072
0.0094023934 -0.056414362 0.018734336
0.010370751 -0.056567732 0.017692983
0.011165911 -0.055829555 0.014430046
0.013021257 -0.060098108 0.011836648
0.013550517 -0.058073644 0.01081109
0.014738011 -0.058952045 0.0092544556
0.015491203 -0.058092013 0.0085387528
0.016461849 -0.058100644 0.0076287687
0.01743158 -0.058105268 0.0065439343
0.018037276 -0.056959823 0.006210357
0.019372361 -0.058117084 0.0060465932
0.021722801 -0.062065147 0.0064825416
0.023110026 -0.063027345 0.0073262751
0.024089983 -0.062843435 0.0077358782
0.026747324 -0.066868305 0.0076241493
0.025512923 -0.061231013 0.0078566372
0.025211466 -0.058180306 0.0074099302
0.027179217 -0.060398258 0.0064409375
0.026985215 -0.057825461 0.0060764849
-0.0075524147 -0.055699058 0.0086576045
-0.0065259733 -0.05500463 0.017898768
-0.0056015914 -0.055082314 0.019209027
-0.0047290549 -0.055802848 0.020458579
-0.0037572836 -0.055419933 0.02150929
-0.0028275254 -0.055607997 0.022201568
-0.0019008818 -0.056076013 0.02222985
-0.0009414964 -0.055548288 0.022182018
0 -0.055059746 0.022058874
0.00093248225 -0.055016454 0.021971077
0.001870185 -0.055170458 0.021777153
0.0028291699 -0.05564034 0.021798193
0.003727319 -0.054977953 0.021693945
0.0046017691 -0.054300878 0.021622628
0.0056384965 -0.055445217 0.021615297
0.0065869312 -0.055518422 0.021360755
0.0073565771 -0.054254755 0.020939916
0.0085486267 -0.056040999 0.020522326
0.0094321528 -0.055649702 0.019546777
0.010283607 -0.055157531 0.019008368
0.011413465 -0.056116201 0.017051578
0.012561468 -0.057009738 0.014674008
0.013238561 -0.05579108 0.012034863
0.014433044 -0.056769971 0.010843992
0.015213622 -0.056100231 0.0092510581
0.016855918 -0.058499951 0.0090182722
0.018913336 -0.061993714 0.0082723796
0.020447271 -0.063494161 0.0083330274
0.020748276 -0.061207417 0.007805109
0.020629518 -0.057959124 0.0082721412
0.020882489 -0.056003042 0.0083958805
0.022165693 -0.056859825 0.008720994
0.023197539 -0.057027284 0.0089101493
0.02375922 -0.056071758 0.0089090765
0.025650667 -0.058207285 0.0085159838
0.025950292 -0.056706194 0.0080046952
0.027116075 -0.057137445 0.007225126
0.028440686 -0.057862088 0.0061664581
0.030609496 -0.060198672 0.005327642
-0.0088970996 -0.057336867 0.0055862069
-0.0074816658 -0.054242078 0.016962439
-0.006566375 -0.054407109 0.018961996
-0.0057147937 -0.055243008 0.020441234
-0.0046872688 -0.054372318 0.0211353
-0.0037024098 -0.053684942 0.02180469
-0.0028192629 -0.054505751 0.022069871
-0.0019079234 -0.055329777 0.022383779
-0.0009199807 -0.053358883 0.022206783
0 -0.054708656 0.022047371
0.00093941222 -0.05448591 0.021930903
0.0018762485 -0.054411206 0.021724164
0.0028159737 -0.054442156 0.021724164
0.0037564985 -0.054469228 0.021609545
0.0046903142 -0.054407645 0.021537483
0.0057195448 -0.055288933 0.021518081
0.0065488955 -0.054262277 0.021497399
0.0075893402 -0.055022717 0.021502137
0.0083177723 -0.053603418 0.02077046
0.0091750454 -0.053215262 0.020329028
0.010322971 -0.054430213 0.019578546
0.011305186 -0.054641731 0.018236071
0.011934494 -0.053246204 0.017065406
0.015608558 -0.064664029 0.01620388
0.015940359 -0.061636053 0.013313115
0.017793145 -0.064500153 0.011527538
0.017716581 -0.060444809 0.010587454
0.017118054 -0.055158172 0.009511441
0.018204547 -0.055571776 0.0093032122
0.019791856 -0.057396386 0.0095723271
0.019814335 -0.054725304 0.0095318854
0.021181948 -0.05584332 0.010282546
0.022587856 -0.05696068 0.010926723
0.023089297 -0.055799138 0.010811269
0.024362309 -0.056520555 0.010932326
0.024583662 -0.054840479 0.010817766
0.025218129 -0.054172274 0.0095318854
0.026916718 -0.055756059 0.0085550845
0.027859004 -0.055718008 0.0074914396
0.029561533 -0.057152297 0.0062935352
0.030271916 -0.056637775 0.0051268041
-0.0089337016 -0.056580108 0.0055443048
-0.0077075996 -0.054916646 0.01726988
-0.0065790298 -0.0535721 0.019148499
-0.0056097931 -0.053293034 0.020479262
-0.0046667643 -0.053201113 0.021368742
-0.0037651933 -0.053654004 0.022022814
-0.002823774 -0.053651705 0.021960795
-0.0018780374 -0.053524062 0.022432595
-0.00093616417 -0.053361356 0.022444338
0 -0.052649666 0.022109032
0.00093677331 -0.05339608 0.021934748
0.0018472119 -0.052645538 0.021784753
0.0027599917 -0.052439842 0.021774322
0.0038499904 -0.054862361 0.021737128
0.0047654477 -0.054326106 0.021711737
0.005631722 -0.053501356 0.021710843
0.0065820147 -0.053596407 0.021673083
0.0075906557 -0.054083422 0.021537483
0.0084118657 -0.053275146 0.021070808
0.0094397506 -0.053806577 0.020477414
0.010080933 -0.052237559 0.020347476
0.011118624 -0.052813463 0.019412369
0.01220888 -0.053531244 0.018408298
0.01355435 -0.055185571 0.017016262
0.014394275 -0.054698247 0.016387761
0.015217032 -0.054210678 0.015333325
0.01614574 -0.054135714 0.013194919
0.017663268 -0.055933684 0.011304438
0.018447017 -0.055341054 0.011451125
0.019068742 -0.054345913 0.011371553
0.020362018 -0.055268332 0.011367828
0.021296665 -0.055177722 0.011852801
0.020999802 -0.052042987 0.012004882
0.023754412 -0.056416731 0.012503088
0.023872457 -0.054429203 0.012250334
0.02449308 -0.053696368 0.012004882
0.02590522 -0.054688796 0.011111528
0.026994513 -0.054953117 0.010601968
0.026975702 -0.053021211 0.0087551475
0.029054437 -0.05520343 0.0070831776
0.030160341 -0.055456113 0.005489409
-0.0075865635 -0.053105947 0.016770303
-0.0066266134 -0.053012908 0.018876076
-0.0056399773 -0.05263979 0.020357162
-0.0047223796 -0.052890651 0.021093667
-0.0037436483 -0.052411076 0.021448523
-0.0028244301 -0.052722696 0.021839201
-0.0018620243 -0.052136678 0.022247106
-0.00094229233 -0.052768372 0.022405952
0 -0.053239375 0.022181481
0.00093942881 -0.052608013 0.022203386
0.0018577595 -0.052017268 0.021872967
0.002846546 -0.053135529 0.02183497
0.003892059 -0.054488827 0.021647513
0.0046511008 -0.052092329 0.021691859
0.0055888044 -0.052162174 0.021768302
0.006700811 -0.053606488 0.02180934
0.0075012832 -0.052508984 0.021571994
0.0083096679 -0.0517046 0.021315306
0.0094090505 -0.052690681 0.020869434
0.010174423 -0.051797062 0.020845413
0.011332428 -0.052884664 0.020326614
0.011865775 -0.051114105 0.019882441
0.013503743 -0.054014973 0.019247353
0.014229541 -0.053123619 0.018235683
0.014971186 -0.052399151 0.016679943
0.016202247 -0.053372104 0.015986294
0.017241094 -0.053638961 0.014909267
0.017745877 -0.052303638 0.013348967
0.019151025 -0.053622868 0.014311671
0.020268278 -0.054048739 0.015115678
0.020347269 -0.05179305 0.015115678
0.02197287 -0.053499162 0.015211374
0.022015518 -0.05136954 0.016441077
0.023402123 -0.052420758 0.01651004
0.024596758 -0.052977633 0.016602546
0.025792982 -0.053496558 0.012659997
0.026165102 -0.052330203 0.011777043
0.027545912 -0.053192109 0.010678113
0.027869016 -0.052022163 0.0082297921
0.030671863 -0.055407234 0.0058835745
-0.0076452931 -0.052561391 0.012758702
-0.0065675494 -0.051602174 0.018451542
-0.0057063238 -0.052307967 0.020247847
-0.0046878024 -0.051565826 0.020835578
-0.0037220756 -0.051178541 0.021350861
-0.0028417034 -0.052097894 0.021839201
-0.0018484339 -0.050831933 0.022226244
-0.00094073825 -0.051740602 0.022405952
0 -0.051660337 0.022126913
0.00091222173 -0.050172195 0.021987706
0.0018854805 -0.05185071 0.021777689
0.0027766286 -0.050904859 0.02183497
0.0037878801 -0.052083351 0.021690905
0.00473624 -0.052098639 0.021666318
0.0056752511 -0.052023135 0.021631539
0.0066225636 -0.05203443 0.02169022
0.0075346618 -0.051800799 0.021534562
0.0084557598 -0.051674087 0.021368533
0.0094081322 -0.051744726 0.02101931
0.010285957 -0.051429786 0.020889163
0.01147458 -0.052591823 0.020392865
0.012022097 -0.050862718 0.020182937
0.013698574 -0.053815827 0.019625247
0.014689418 -0.053861201 0.018890291
0.015910735 -0.054693151 0.017877787
0.016364224 -0.052943077 0.017041177
0.01674532 -0.051166255 0.016485482
0.01830961 -0.053001504 0.016304135
0.018854672 -0.051850349 0.016304135
0.018997513 -0.049755391 0.016468734
0.020857861 -0.052144654 0.016663343
0.021560842 -0.051558536 0.016901433
0.022779636 -0.052203331 0.017770678
0.024232972 -0.05331254 0.01801312
0.023992054 -0.05075242 0.017922759
0.025214393 -0.051362652 0.01650846
0.026965838 -0.05296861 0.014342248
0.026885891 -0.050990481 0.011789083
0.028269082 -0.051826652 0.010454267
0.031284995 -0.055505641 0.0071944892
-0.0078419242 -0.052932985 0.0070056617
-0.0066513116 -0.051310118 0.018063694
-0.0055821738 -0.050239567 0.020203501
-0.0046675093 -0.050409101 0.021000057
-0.003806991 -0.051394381 0.021422356
-0.0027862035 -0.050151665 0.021884859
-0.0018980823 -0.051248223 0.022295356
-0.00093290146 -0.05037668 0.02239272
0 -0.050942827 0.022258341
0.00093783741 -0.050643221 0.021987706
0.0018639573 -0.050326847 0.021872967
0.0028150873 -0.050671574 0.021859556
0.0037538556 -0.05067705 0.021614045
0.0047086393 -0.050853308 0.02151075
0.0055814427 -0.050232984 0.021505535
0.0066125002 -0.051010713 0.021642327
0.007556302 -0.051005039 0.021523893
0.0083309626 -0.049985774 0.021363467
0.0095966151 -0.05182172 0.02107802
0.01030766 -0.050601244 0.02092433
0.011238066 -0.050571296 0.020463645
0.012050105 -0.050054282 0.020521015
0.012983616 -0.050079662 0.020270437
0.014096101 -0.050745964 0.019764841
0.015063615 -0.0508397 0.018664479
0.015671207 -0.049779125 0.018007994
0.017482102 -0.052446306 0.017846286
0.018293915 -0.051993236 0.017356128
0.018692048 -0.050468527 0.017138302
0.019916795 -0.051214613 0.017904401
0.020814231 -0.051089477 0.018007994
0.021417262 -0.050284009 0.018178284
0.023321854 -0.052474171 0.018848449
0.023549413 -0.050866734 0.019251019
0.023845596 -0.04952547 0.019204319
0.024927741 -0.049855482 0.01841867
0.025969125 -0.050083313 0.016792536
0.026495252 -0.049335986 0.014278531
0.028916981 -0.052050568 0.011673063
0.028978704 -0.050479032 0.0085911155
0.031246949 -0.052729227 0.0054228604
-0.0078732939 -0.052160569 0.0054553449
-0.0065861852 -0.049866829 0.017440856
-0.0056206691 -0.049649242 0.019948304
-0.0047056847 -0.049880255 0.021117121
-0.003748565 -0.049668487 0.021457225
-0.0027953966 -0.049385339 0.021884859
-0.0018745965 -0.049676806 0.02218321
-0.00094199966 -0.049925983 0.022333562
0 -0.049987506 0.022199184
0.00093992765 -0.049816165 0.021904618
0.0018418094 -0.048807949 0.021880031
0.0027732749 -0.048994523 0.02183497
0.0038755648 -0.051351231 0.02150622
0.0046301209 -0.04907928 0.0214625
0.0055873976 -0.049355347 0.021469772
0.0064846692 -0.049098209 0.02159667
0.0074272766 -0.049205709 0.021607697
0.0087111229 -0.051298838 0.021605343
0.0092117712 -0.048822388 0.021384418
0.01016043 -0.0489548 0.021308392
0.01136255 -0.050184596 0.02103132
0.012164352 -0.049593128 0.020923138
0.013144162 -0.049760044 0.020672858
0.014202341 -0.050181605 0.020086795
0.014643977 -0.048508175 0.019327581
0.0158723 -0.049484227 0.018926382
0.017315906 -0.05098572 0.018593669
0.017653529 -0.049244054 0.018103451
0.018797092 -0.049812295 0.018091261
0.019949142 -0.050347835 0.01826179
0.020616507 -0.049667042 0.018631399
0.02171853 -0.050047047 0.01898858
0.022117833 -0.048843548 0.019335061
0.023308091 -0.049413156 0.019586951
0.024691956 -0.050333604 0.019568115
0.02543385 -0.049925704 0.019463599
0.026405379 -0.049981613 0.018202871
0.027213147 -0.049734373 0.016299188
0.028004166 -0.049474023 0.014162511
0.028444307 -0.048630588 0.011017203
0.03132927 -0.051889103 0.0060738623
-0.0065871258 -0.048932936 0.017265528
-0.0056496277 -0.048963442 0.019097
-0.0046975194 -0.048854202 0.020793289
-0.0037074147 -0.048196394 0.021539092
-0.0028080477 -0.048672829 0.02195096
-0.0018966841 -0.049313784 0.022144377
-0.00092677528 -0.048192315 0.02239272
0 -0.049041837 0.022190958
0.00092933507 -0.048325423 0.022051752
0.0018699891 -0.048619714 0.021876901
0.0027972602 -0.048485845 0.021499723
0.003704977 -0.048164703 0.021487445
0.0047115367 -0.04899998 0.02145043
0.0056715668 -0.049153578 0.021166742
0.0065137553 -0.048387896 0.021255881
0.0076004267 -0.049402773 0.021394759
0.0083191525 -0.048066214 0.021397322
0.0093776081 -0.048763562 0.021394759
0.010369648 -0.049020153 0.021416157
0.011270592 -0.04883923 0.021375984
0.01206473 -0.048258919 0.021363914
0.013121311 -0.048736297 0.02136156
0.014282929 -0.049514152 0.020687133
0.01539735 -0.050041389 0.020221531
0.016457381 -0.050340224 0.019638836
0.016739683 -0.048359081 0.019322425
0.01790591 -0.04900565 0.018771529
0.018603764 -0.048369788 0.018473148
0.019810097 -0.049053576 0.019126683
0.020754674 -0.049056504 0.019009799
0.021737013 -0.049144551 0.019366503
0.022116635 -0.047919374 0.019507647
0.023632301 -0.049155183 0.019827902
0.023827313 -0.047654625 0.019744784
0.025240442 -0.048611224 0.019507647
0.026904527 -0.049965549 0.018955737
0.026971981 -0.048363551 0.016548038
0.027464811 -0.047605671 0.014848262
0.029015403 -0.048671 0.010800183
0.030762067 -0.049988359 0.0063332319
-0.0066707865 -0.048601445 0.01650238
-0.0056588096 -0.048099883 0.018560916
-0.0046667741 -0.047601096 0.020216763
-0.0037313297 -0.047574453 0.021216869
-0.0028327517 -0.048156779 0.021346331
-0.0018709766 -0.047709905 0.021721393
-0.0009337904 -0.04762331 0.022047371
0 -0.047704283 0.0220249
0.00094268942 -0.048077162 0.022008866
0.0018708548 -0.047706794 0.021817774
0.0027287088 -0.046388049 0.021335602
0.0038010557 -0.04846346 0.02138555
0.004703647 -0.047977202 0.021250993
0.0055977418 -0.047580805 0.0211384
0.0066464697 -0.048424281 0.021122366
0.007537107 -0.048049055 0.021141022
0.008368561 -0.047421847 0.021146566
0.0093685323 -0.047779512 0.021146566
0.010315434 -0.047826104 0.0215711
0.011253124 -0.047825776 0.021222681
0.012237451 -0.048008464 0.021088958
0.01288858 -0.046951257 0.021238297
0.014174317 -0.048192676 0.021024346
0.014949229 -0.047650665 0.020476997
0.015656233 -0.046968699 0.020233929
0.017345894 -0.049146701 0.019842833
0.01796966 -0.048234351 0.019639701
0.018590489 -0.047405746 0.019254774
0.019872874 -0.048262693 0.019594073
0.021275667 -0.049320865 0.019440114
0.021255709 -0.047132228 0.019503832
0.022306586 -0.047401495 0.019751102
0.023778472 -0.048508082 0.020330012
0.024037767 -0.047151007 0.020330012
0.025439285 -0.048051983 0.019418806
0.025999013 -0.047355346 0.0192478
0.026328649 -0.046302106 0.01763463
0.027877051 -0.047390986 0.015129358
0.029026896 -0.047753926 0.010713071
0.031911384 -0.050858773 0.0068097115
-0.0067667891 -0.048334207 0.0087843239
-0.0056010345 -0.046675287 0.018200636
-0.0046826224 -0.046826225 0.019959748
-0.0037954533 -0.047443166 0.020770788
-0.0028428123 -0.047380209 0.021206319
-0.0018621996 -0.046554994 0.021648169
-0.00093476597 -0.046738297 0.022126913
0 -0.047040183 0.022058576
0.00093324209 -0.046662103 0.021714479
0.0018687829 -0.046719573 0.021618247
0.0028376919 -0.047294866 0.021360248
0.0037981356 -0.047476694 0.021300703
0.0046545849 -0.046545848 0.02145201
0.0056138341 -0.04678195 0.021341234
0.0066242944 -0.047316387 0.021093011
0.0073318528 -0.045824081 0.021339655
0.0086334711 -0.047963731 0.021343112
0.009282005 -0.046410028 0.021369278
0.010281925 -0.046736024 0.021644235
0.011391317 -0.047463819 0.021306247
0.012074305 -0.046439633 0.021089166
0.012891983 -0.046042792 0.021238297
0.014184382 -0.047281273 0.021024346
0.014428834 -0.045090105 0.020267367
0.016071388 -0.047268789 0.020271838
0.017148633 -0.04763509 0.020040631
0.017322989 -0.045586813 0.01974526
0.0189509 -0.047377247 0.019257545
0.01987545 -0.0473225 0.019390941
0.020670481 -0.046978366 0.01929751
0.021860365 -0.04752253 0.019251525
0.022933068 -0.047777224 0.019382745
0.023500171 -0.047000341 0.019861877
0.024429977 -0.046980724 0.019741535
0.025151936 -0.046577662 0.019355178
0.02599901 -0.046426803 0.018832237
0.027314188 -0.047093429 0.017591208
0.028241761 -0.047069602 0.014963448
0.029441385 -0.047486104 0.010468304
0.031232925 -0.048801444 0.0067610443
-0.0069156662 -0.048409663 0.005893141
-0.0056350129 -0.046019271 0.017842025
-0.0047255694 -0.046310578 0.019990146
-0.0037700769 -0.046183441 0.02069819
-0.002847553 -0.04651003 0.021189809
-0.0018731611 -0.045892447 0.021760017
-0.00092976174 -0.045558326 0.022068113
0 -0.045946784 0.022051752
0.00092805491 -0.045474689 0.022058576
0.0018682843 -0.045772966 0.021830857
0.0028045771 -0.045808092 0.021511883
0.0037100951 -0.045448665 0.021739662
0.0046883863 -0.045946188 0.021632254
0.0056573222 -0.046201464 0.021466166
0.0064864503 -0.045405153 0.021511376
0.0075409738 -0.046188466 0.021534681
0.0082105398 -0.04470183 0.021534681
0.0092862127 -0.045502439 0.021542847
0.010354259 -0.046123516 0.021606147
0.011189452 -0.045690261 0.021405667
0.012106703 -0.045632958 0.021372288
0.013189564 -0.046163473 0.021343112
0.014052726 -0.045905571 0.021124482
0.015255162 -0.046718936 0.020615906
0.015996758 -0.046108302 0.020363659
0.016445905 -0.04476941 0.020225257
0.018480953 -0.047661405 0.019920051
0.018984897 -0.046512999 0.019152522
0.019636286 -0.045818005 0.019265294
0.020568594 -0.045811869 0.018831521
0.021763675 -0.046366088 0.01881808
0.022304984 -0.045539342 0.019287944
0.024146479 -0.047327101 0.019372761
0.024260601 -0.045721903 0.019361824
0.025022049 -0.045410383 0.018832237
0.026278088 -0.045986652 0.017847359
0.027317561 -0.046157259 0.01580584
0.028163183 -0.045999866 0.013860971
0.030179812 -0.047703572 0.010175943
0.029885272 -0.045761824 0.0074612498
0.032386802 -0.048089493 0.0052850246
-0.0055947155 -0.044757724 0.017354667
-0.0047087516 -0.045204014 0.020068109
-0.0038163629 -0.045796357 0.02069819
-0.0027992395 -0.044787832 0.021104068
-0.0018781374 -0.045075297 0.021460265
-0.00094041869 -0.045140099 0.022027314
0 -0.044830061 0.02188018
0.00093810214 -0.045028903 0.021869719
0.0018956946 -0.045496672 0.021548808
0.0028508131 -0.045613009 0.021073103
0.0037310184 -0.044772219 0.021509349
0.004682844 -0.044955306 0.02177161
0.0056722518 -0.045378014 0.021729887
0.0066109584 -0.045332283 0.021486044
0.007452629 -0.044715777 0.021549731
0.0084918234 -0.045289725 0.02140376
0.0093153492 -0.044713672 0.021405667
0.010381621 -0.04530162 0.021453917
0.011052574 -0.044210296 0.02131635
0.012072493 -0.04457536 0.021288484
0.013091319 -0.044884522 0.021306247
0.01400504 -0.044816125 0.021040708
0.014887559 -0.044662677 0.020354986
0.015983108 -0.045128778 0.020225257
0.017259086 -0.046024229 0.019822806
0.018161444 -0.045881543 0.019189239
0.018461056 -0.044306535 0.018450141
0.019702528 -0.045034349 0.018442184
0.020766539 -0.045308813 0.018091083
0.021223085 -0.044291656 0.018105656
0.023096291 -0.046192583 0.018572569
0.023814632 -0.045724094 0.018782496
0.024065753 -0.044429086 0.018566757
0.025213875 -0.044824667 0.017942548
0.026926542 -0.046159785 0.016510963
0.027290791 -0.045170967 0.014505059
0.028323339 -0.045317344 0.010975659
0.029373078 -0.045480892 0.0094226599
0.030520793 -0.045781188 0.0065545738
-0.0057131168 -0.044752747 0.016455382
-0.0047443295 -0.044596698 0.019384593
-0.0037477752 -0.044036359 0.020342827
-0.0027924208 -0.043747928 0.020801514
-0.0018916379 -0.044453491 0.021358997
-0.00094869325 -0.044588581 0.021905601
0 -0.043964058 0.02188018
0.00094186497 -0.044267654 0.021869719
0.0018670078 -0.043874685 0.021541506
0.0028463744 -0.0445932 0.021364868
0.0038102015 -0.044769868 0.021398336
0.0046464861 -0.043676969 0.021424443
0.0056352103 -0.044142481 0.021355331
0.0065852394 -0.04421518 0.020914555
0.0073613031 -0.043247655 0.021188259
0.0082881581 -0.043282602 0.021093011
0.0093755135 -0.044064917 0.021132618
0.010186357 -0.043523528 0.021250457
0.011253458 -0.044076044 0.021009445
0.012030283 -0.043494102 0.020972401
0.013101314 -0.043982983 0.021020651
0.013975539 -0.04379002 0.020970792
0.014648483 -0.043029919 0.020179212
0.016073944 -0.044439729 0.020071894
0.017152457 -0.044786971 0.019291222
0.017586078 -0.043502405 0.018512249
0.019075692 -0.044827875 0.017992437
0.0196766 -0.044038102 0.017880023
0.020435382 -0.043657403 0.017503142
0.02229221 -0.045553643 0.017193139
0.022337876 -0.043745007 0.017274439
0.023786843 -0.044719264 0.01743263
0.024319962 -0.043963008 0.017383665
0.025750458 -0.044824872 0.015816361
0.026992509 -0.045308854 0.014537573
0.027870459 -0.045169365 0.01142779
0.02817875 -0.044146709 0.01042667
0.028671598 -0.043469843 0.0087920129
0.0312087 -0.045837779 0.0063583553
-0.0058388081 -0.044764195 0.011320949
-0.0046716705 -0.042979367 0.018983006
-0.0037752399 -0.04341526 0.020530999
-0.0028552692 -0.043780796 0.020819873
-0.0018811062 -0.043265443 0.021045804
-0.00092093012 -0.042362783 0.02164647
0 -0.043442674 0.022041947
0.00093227025 -0.042884432 0.021824896
0.0018811062 -0.043265443 0.021449596
0.0028728277 -0.044050027 0.021353275
0.0037674364 -0.043325517 0.021355331
0.0046878261 -0.043127999 0.021695256
0.0055941069 -0.042888153 0.021363705
0.0064519448 -0.042398494 0.020962298
0.0075844596 -0.043610644 0.021355331
0.0083877873 -0.042870909 0.021285921
0.0093039731 -0.042798277 0.021282524
0.010338953 -0.043235619 0.021526426
0.01126854 -0.043196071 0.021285921
0.012125832 -0.042906791 0.021260828
0.013129997 -0.043141417 0.020968169
0.014175334 -0.043471023 0.020884424
0.015084777 -0.043368734 0.020040184
0.016118089 -0.043613654 0.01973933
0.016934983 -0.043278288 0.019227594
0.017967479 -0.043500211 0.017861843
0.018706238 -0.043024346 0.017696738
0.019614747 -0.042965636 0.017465681
0.021208977 -0.044346042 0.016725957
0.02142933 -0.04285866 0.015738547
0.022210246 -0.042569637 0.015791714
0.023548966 -0.043330099 0.015738547
0.024770189 -0.043824181 0.015292883
0.025537984 -0.043509159 0.014562428
0.027065124 -0.04446413 0.011690468
0.027190886 -0.043130372 0.010648012
0.027891705 -0.042767283 0.0096439123
0.030234911 -0.044864707 0.0074612498
0.030832669 -0.044321962 0.0057153702
-0.0060131224 -0.045098417 0.0057528913
-0.0046477495 -0.041829742 0.018114626
-0.0037661027 -0.042368658 0.020135999
-0.0028325038 -0.042487558 0.020765275
-0.0018700743 -0.042076673 0.021054417
-0.00095973897 -0.043188255 0.021608114
0 -0.041797344 0.021667182
0.00094352086 -0.042458437 0.021751851
0.0018710499 -0.042098623 0.021444708
0.0027609873 -0.041414808 0.021037161
0.0037270836 -0.041929688 0.021037161
0.0046654297 -0.041988868 0.021389812
0.0056188069 -0.042141054 0.021363705
0.0065844525 -0.042328626 0.020889491
0.0074413456 -0.041857567 0.021292508
0.0083101746 -0.041550871 0.021282524
0.0093640257 -0.042138115 0.021349013
0.010378193 -0.042456243 0.021552533
0.01142543 -0.042845361 0.021287829
0.01218091 -0.042164687 0.021229982
0.013246465 -0.042577922 0.020929515
0.013689613 -0.041068841 0.020130068
0.015135984 -0.042569954 0.019558012
0.015807971 -0.041844629 0.019241005
0.017058356 -0.04264589 0.017990708
0.018056037 -0.042764299 0.017756075
0.019010134 -0.0427728 0.017478704
0.020137098 -0.043150924 0.016736448
0.020696739 -0.042334236 0.015873849
0.021290064 -0.041654471 0.014921367
0.023531456 -0.044121478 0.015017927
0.023583243 -0.042449836 0.014958292
0.025070017 -0.043390416 0.013482094
0.025517505 -0.042529173 0.01175499
0.026430825 -0.042478111 0.010745555
0.027246483 -0.042279024 0.0097796619
0.029049078 -0.043573618 0.0086674988
0.029817592 -0.0432836 0.0064423382
0.031232417 -0.043920584 0.0051271915
-0.0046981783 -0.041343972 0.017691672
-0.0037813294 -0.041594621 0.02011919
-0.0028172189 -0.04131921 0.02058652
-0.0018665905 -0.041064993 0.020936549
-0.00093812082 -0.041277315 0.021563917
0 -0.041475974 0.021667182
0.00094848615 -0.041733392 0.021820009
0.0018458602 -0.040608924 0.021449596
0.0027839288 -0.040830955 0.020992339
0.0038052292 -0.041857522 0.020992339
0.0046161767 -0.040622357 0.021361023
0.0056335968 -0.041313041 0.021269888
0.0066520632 -0.041812971 0.020883948
0.0074391151 -0.040915135 0.021197081
0.0087268064 -0.04266439 0.02131635
0.0092594484 -0.040741574 0.021374196
0.010222271 -0.040889084 0.02136308
0.011274364 -0.041339334 0.021065146
0.012017261 -0.040673807 0.020998299
0.012964463 -0.040745456 0.020495564
0.014045523 -0.041200198 0.020137578
0.014858594 -0.040861133 0.019733012
0.016015535 -0.041451972 0.01931107
0.016757326 -0.040962353 0.017945319
0.01760756 -0.040775403 0.017674625
0.019253036 -0.042356677 0.016836524
0.020251466 -0.042431641 0.015524596
0.020827239 -0.041654479 0.014793992
0.021993488 -0.042074498 0.013400704
0.02286749 -0.041923728 0.012671381
0.023997709 -0.04223597 0.011860698
0.025260555 -0.04274863 0.010944188
0.025923923 -0.042246394 0.010226279
0.026526935 -0.041685183 0.0092550516
0.027996767 -0.042477854 0.008192718
0.028794521 -0.042231966 0.0070519745
0.029873079 -0.042400498 0.005500257
-0.0047135232 -0.040536303 0.015877604
-0.0037492192 -0.040304109 0.019880027
-0.0028127073 -0.040315472 0.020429105
-0.0018761433 -0.040337078 0.020603001
-0.0009427754 -0.040539343 0.02103591
0 -0.040518492 0.021543503
0.00092899532 -0.039946798 0.02161032
0.0018838259 -0.040502258 0.021251321
0.0027774046 -0.039809465 0.020911485
0.003686785 -0.039632939 0.020899266
0.0047549824 -0.040892851 0.021361023
0.0056578629 -0.040548019 0.02123788
0.0065860627 -0.040457241 0.020794779
0.0075504724 -0.040583789 0.021082431
0.0084603652 -0.040421743 0.021088272
0.009243194 -0.039745733 0.021205425
0.010445757 -0.040833414 0.021172732
0.011278267 -0.040413789 0.021005154
0.012130815 -0.040125005 0.020970792
0.013401539 -0.041161869 0.020311326
0.013994647 -0.04011799 0.020124167
0.015157209 -0.040734999 0.019041479
0.01612566 -0.040788434 0.0181669
0.016618447 -0.039699621 0.01779002
0.018361282 -0.041554481 0.017145008
0.019012302 -0.040876448 0.015839666
0.01985807 -0.040661763 0.014989257
0.021007175 -0.041059475 0.013572633
0.02189316 -0.040930692 0.011688769
0.023071032 -0.041335601 0.011018842
0.024389226 -0.04194947 0.010275096
0.024652041 -0.040770683 0.0097032785
0.025995117 -0.041399632 0.0090141296
0.027571516 -0.04234197 0.007915765
0.02802383 -0.041552577 0.0067777932
0.02944635 -0.042206436 0.0056955218
-0.0047139018 -0.039596777 0.013469785
-0.0037651304 -0.039533868 0.018833995
-0.0028213488 -0.039498884 0.020116389
-0.0018549535 -0.038954023 0.020398319
-0.00093291223 -0.039182313 0.020874172
0 -0.039033905 0.021271706
0.00093279022 -0.039177191 0.021481067
0.0018765384 -0.039407305 0.021252602
0.0027428765 -0.03840027 0.021199226
0.0037990306 -0.03988982 0.021078467
0.0046376893 -0.03895659 0.021480322
0.0055076042 -0.038553227 0.02133441
0.0065178839 -0.039107304 0.020805895
0.0075466889 -0.039620116 0.021217823
0.008543889 -0.03987148 0.02110678
0.0094231572 -0.039577257 0.021278799
0.010378203 -0.039625864 0.021325469
0.011278443 -0.039474551 0.021050513
0.012066039 -0.038982589 0.02069509
0.013252451 -0.039757352 0.020301431
0.014080781 -0.039426185 0.019985408
0.014813336 -0.038885005 0.018743217
0.015851468 -0.03916245 0.018219292
0.017150478 -0.040017784 0.017522275
0.018196087 -0.040222928 0.016705155
0.019091764 -0.040092707 0.01521787
0.020276517 -0.040553033 0.01412791
0.020947225 -0.039990161 0.011917025
0.022221128 -0.040577713 0.010626018
0.023383996 -0.040921994 0.0099927783
0.024138575 -0.040552806 0.009699434
0.025245678 -0.040781479 0.0084891915
0.025854258 -0.040217735 0.0069960654
0.026682911 -0.040024366 0.0057142377
0.027983703 -0.040528119 0.0055679083
-0.004963316 -0.040699191 0.0052012801
-0.0037571173 -0.038510453 0.0187518
-0.0027948518 -0.038196307 0.019973308
-0.001893385 -0.038814392 0.020393312
-0.00093785994 -0.038452256 0.020982146
0 -0.038294878 0.021271706
0.00094084773 -0.038574755 0.021530688
0.0018699707 -0.038334399 0.021440148
0.0027697915 -0.037853818 0.021335989
0.003803944 -0.038990427 0.021179527
0.0046365135 -0.038019411 0.021450609
0.0057220212 -0.039100479 0.021286994
0.0066438396 -0.038913917 0.020681351
0.0074384888 -0.038122255 0.021273255
0.0084084552 -0.038305182 0.02069509
0.0093519269 -0.038342901 0.020739973
0.010269683 -0.038277909 0.020773381
0.01140654 -0.038972348 0.020446151
0.011987718 -0.037807416 0.020408511
0.013029054 -0.038156513 0.020097345
0.014219838 -0.038867556 0.019298434
0.014715992 -0.037709728 0.018743217
0.016081531 -0.038784869 0.017800599
0.017424749 -0.039689709 0.017429978
0.017911578 -0.038651299 0.015883029
0.018990852 -0.038931247 0.014164984
0.020538846 -0.040099651 0.011830598
0.021251474 -0.039605021 0.010303557
0.022728179 -0.040515449 0.0094659925
0.023246901 -0.039713454 0.0090641081
0.024199657 -0.03968744 0.0082370341
0.025323432 -0.039933104 0.0054188073
0.026007263 -0.03949251 0.0050113499
-0.0037288379 -0.037288379 0.017382443
-0.0028356519 -0.03780869 0.01997599
-0.0018698548 -0.037397094 0.020390123
-0.00092694833 -0.037077934 0.020878285
0 -0.038148779 0.021545738
0.00092072884 -0.036829155 0.021588147
0.0019179028 -0.038358055 0.021604687
0.0028149816 -0.03753309 0.021705985
0.0037471298 -0.037471298 0.02131927
0.0047371299 -0.037897039 0.021714896
0.0056675333 -0.037783556 0.021631211
0.0064360262 -0.036777291 0.021186858
0.0076116486 -0.038058244 0.021659434
0.0083826948 -0.037256423 0.02081126
0.0093294028 -0.037317611 0.020802408
0.010370286 -0.037710134 0.020847321
0.011148399 -0.037161328 0.020807981
0.01230783 -0.037870247 0.020764321
0.01326456 -0.037898745 0.020212799
0.013856115 -0.036949638 0.01920107
0.015125466 -0.037813663 0.018340707
0.016080543 -0.037836574 0.017524898
0.017288845 -0.038419653 0.016700059
0.018138452 -0.038186215 0.014947474
0.019249123 -0.038498245 0.012397915
0.020244801 -0.038561527 0.010295987
0.021694893 -0.039445262 0.009365499
0.02237962 -0.038921077 0.0082370341
0.023504071 -0.039173454 0.0064729452
0.024602909 -0.039364655 0.0054408014
-0.0037739456 -0.03679597 0.016188532
-0.0028085706 -0.036511417 0.019556254
-0.0018660683 -0.03638833 0.020311058
-0.00094231113 -0.036750134 0.020801544
0 -0.036205679 0.021501541
0.00093432341 -0.036438614 0.021592677
0.0019159456 -0.03736094 0.021609724
0.0028279605 -0.036763486 0.021520019
0.0037458981 -0.036522508 0.021078795
0.0046295016 -0.036110114 0.021338463
0.0054835118 -0.035642829 0.021387249
0.0066865161 -0.037253447 0.020703793
0.0075535877 -0.036823738 0.020709693
0.0085198293 -0.036919259 0.020711333
0.0094561614 -0.036879029 0.020560235
0.010274377 -0.036427334 0.020800531
0.011244906 -0.036545943 0.020665526
0.012463075 -0.037389226 0.020628333
0.013046117 -0.036342755 0.020262778
0.014103761 -0.03666978 0.0191724
0.015029885 -0.036635343 0.017995805
0.015362791 -0.035244048 0.017374068
0.017843593 -0.038661119 0.01546064
0.018220557 -0.037400089 0.013331294
0.019284386 -0.037604552 0.010918081
0.020793309 -0.038616147 0.0087766051
0.022006916 -0.039012261 0.0080552399
0.022721179 -0.038527217 0.0058841407
-0.0038268336 -0.036354918 0.014019161
-0.0028039715 -0.035516974 0.018965423
-0.0019072692 -0.036238115 0.020217419
-0.00093894865 -0.035680048 0.020569623
0 -0.0357126 0.021082491
0.00093455845 -0.035513222 0.021281272
0.0018858064 -0.035830323 0.021543503
0.0027728751 -0.035123087 0.021440983
0.0037192795 -0.035333157 0.021072447
0.0046282392 -0.035174619 0.021344244
0.0057066032 -0.03614182 0.021417767
0.0064841695 -0.03519978 0.020532429
0.0073915999 -0.035110097 0.020561755
0.008601496 -0.036317427 0.020594865
0.0093414765 -0.03549761 0.020401448
0.010400998 -0.035930723 0.020410925
0.011411552 -0.036136582 0.020522714
0.012181708 -0.035608068 0.020401448
0.013151783 -0.035697695 0.019398481
0.01434949 -0.036352042 0.018276006
0.014580353 -0.034628339 0.017706543
0.015940532 -0.03563178 0.016645014
0.017436648 -0.036810704 0.014866829
0.018146325 -0.03629265 0.012111038
0.020463206 -0.038880091 0.0094644129
0.021092335 -0.038167082 0.0078701079
0.021967866 -0.037944496 0.0058149099
-0.0038428705 -0.035546552 0.012876779
-0.0028406938 -0.035035223 0.017601132
-0.0018838259 -0.03485078 0.0195916
-0.00093710487 -0.034672882 0.020232469
0 -0.035106145 0.021033436
0.00093600736 -0.034632273 0.021136403
0.0018960205 -0.03507638 0.021726102
0.002879838 -0.035518002 0.021543503
0.0036802001 -0.034041852 0.021417767
0.0047016349 -0.034792095 0.021815211
0.0057405345 -0.035399962 0.021599919
0.0065600304 -0.034674447 0.020564139
0.007725067 -0.035728436 0.020561755
0.0084636565 -0.034795031 0.020617872
0.0091328649 -0.033791602 0.020401448
0.010466541 -0.03520564 0.019905269
0.011112249 -0.034262765 0.020380408
0.012170427 -0.034638908 0.01969707
0.013225798 -0.034953896 0.01884982
0.014002874 -0.034540422 0.018171191
0.015223496 -0.035204332 0.017599612
0.016055238 -0.034943752 0.015809119
0.016760983 -0.034453131 0.012908876
0.018765146 -0.03654265 0.009699434
0.019244932 -0.035603121 0.0084041953
-0.0039891135 -0.03590202 0.005268544
-0.0027857579 -0.033429094 0.014827609
-0.0018608592 -0.033495467 0.018555403
-0.00095872954 -0.034514263 0.019919991
0 -0.033232484 0.020663887
0.0009434864 -0.033965509 0.020775884
0.0018717122 -0.033690818 0.021166444
0.0028113658 -0.033736389 0.020970374
0.0038313244 -0.03448192 0.020937085
0.0047701206 -0.034344867 0.021426469
0.0057082181 -0.034249309 0.021536529
0.0066614519 -0.034258895 0.020707577
0.0073708403 -0.033168782 0.021426469
0.0082813324 -0.03312533 0.021107912
0.009549587 -0.034378514 0.020527095
0.010375132 -0.033954978 0.019905269
0.011303618 -0.033910852 0.020121604
0.012227201 -0.033859942 0.01969707
0.013109488 -0.033710115 0.018631577
0.014057404 -0.033737771 0.017952263
0.014853721 -0.033420872 0.01699084
0.015840517 -0.033544626 0.015521348
0.016930558 -0.033861116 0.011274487
0.018952196 -0.035909425 0.0080595315
-0.0028396372 -0.0331291 0.014279515
-0.0019014131 -0.033274729 0.017664403
-0.00094016746 -0.032905862 0.019499451
0 -0.033388242 0.020142704
0.00093132671 -0.032596435 0.020400614
0.0018287367 -0.032002892 0.020990014
0.002824273 -0.03294985 0.020865977
0.0037358629 -0.0326888 0.020784974
0.0046864627 -0.032805242 0.020826548
0.0057073268 -0.033292741 0.020586163
0.0065498874 -0.032749437 0.020327359
0.007465729 -0.032662563 0.020496994
0.0085839257 -0.033381931 0.020586163
0.00933294 -0.03266529 0.020201713
0.010258188 -0.032639686 0.019755632
0.011334015 -0.033057544 0.020063043
0.012336181 -0.033212796 0.019455224
0.013029785 -0.032574464 0.018528402
0.014395161 -0.033588707 0.017892808
0.015035584 -0.032890338 0.017151535
0.015888745 -0.032712124 0.013948292
0.016962972 -0.032983556 0.010751694
0.01893778 -0.034885384 0.006320715
-0.0028247247 -0.032013547 0.013159335
-0.0018646449 -0.031698965 0.016876876
-0.0009333677 -0.0317345 0.01856634
0 -0.031869344 0.020042092
0.00093312381 -0.031726211 0.020214379
0.0018857399 -0.032057576 0.020761698
0.0028774003 -0.032610536 0.020721763
0.0037157375 -0.031583771 0.020690382
0.0047186129 -0.032086566 0.020603448
0.0056464127 -0.03199634 0.020297259
0.0065168054 -0.031653054 0.02029106
0.0075371573 -0.032032918 0.020271242
0.0085051833 -0.032130692 0.020561755
0.0091619603 -0.031150665 0.020354897
0.010316829 -0.031888381 0.019659698
0.011410412 -0.0323295 0.019891798
0.012293774 -0.032152947 0.019362777
0.013458417 -0.032684725 0.018256843
0.014193611 -0.032172184 0.017757565
0.015521453 -0.032983087 0.01620996
0.016064242 -0.032128483 0.012866676
0.016751895 -0.031642471 0.0080149174
-0.002883136 -0.031714495 0.012824774
-0.0018885896 -0.031161729 0.015558898
-0.00094643747 -0.031232437 0.018133312
0 -0.03073962 0.019873202
0.00096149609 -0.03172937 0.019909024
0.0018663981 -0.030795569 0.020361245
0.0028286336 -0.031114971 0.020686269
0.0037882547 -0.031253103 0.02073881
0.0046217968 -0.030503858 0.020656496
0.0056524007 -0.031088205 0.020483643
0.0066496711 -0.031348448 0.020230621
0.0074866246 -0.030882327 0.020321339
0.0083666015 -0.030677538 0.020380408
0.0094961887 -0.031337425 0.020056844
0.010282892 -0.030848676 0.018966228
0.011339016 -0.031182297 0.018935502
0.012153857 -0.030852098 0.018641472
0.013215617 -0.031151097 0.01770395
