ply
format ascii 1.0
comment PCL generated
element vertex 1256
property float x
property float y
property float z
element camera 0
property float view_px
property float view_py
property float view_pz
property float x_axisx
property float x_axisy
property float x_axisz
property float y_axisx
property float y_axisy
property float y_axisz
property float z_axisx
property float z_axisy
property float z_axisz
property float focal
property float scalex
property float scaley
property float centerx
property float centery
property int viewportx
property int viewporty
property float k1
property float k2
end_header
-0.014423932 -0.062503703 0.0075699091
-0.01394804 -0.064758763 0.008141458
-0.012692692 -0.063463457 0.0075123608
-0.011527454 -0.062440373 0.0067318678
-0.011058091 -0.065343268 0.0061378479
-0.010398419 -0.067589723 0.0051321387
0.0040504313 -0.065819509 0.0052773952
0.0047711111 -0.062024444 0.0069064498
0.006780277 -0.073453002 0.0062689185
0.0080241533 -0.074509993 0.0052806735
0.0077998089 -0.063373446 0.0052117407
0.0086664492 -0.062591016 0.005068332
-0.016885746 -0.060038209 0.005964756
-0.016211968 -0.06103329 0.0071451366
-0.015220965 -0.060883861 0.0089510083
-0.01424001 -0.060757373 0.01018846
-0.013526067 -0.061833449 0.010786265
-0.012681181 -0.06243043 0.010182619
-0.011481755 -0.061236028 0.010804325
-0.010893797 -0.063382089 0.010028273
-0.0095816096 -0.061322302 0.008141458
-0.0091480659 -0.065052919 0.0059992969
-0.0082605686 -0.066084549 0.0051166117
0.0018427605 -0.058968335 0.0059728324
0.0027352481 -0.058351956 0.0079292655
0.003646431 -0.058342896 0.0095877647
0.004660767 -0.059657816 0.0097335577
0.0057544927 -0.061381254 0.0093943477
0.0068074488 -0.062239531 0.0076515377
0.0090998663 -0.07279893 0.0067484677
0.0097937547 -0.069644473 0.0067096949
0.0097738868 -0.062552877 0.005489856
0.010676952 -0.062120445 0.0051583946
-0.018682806 -0.061948255 0.0056821406
-0.017507782 -0.061277241 0.0077986717
-0.01616781 -0.059916001 0.0096534789
-0.015494718 -0.061010454 0.012482971
-0.014348852 -0.060265176 0.012753427
-0.013150726 -0.059178267 0.012604058
-0.012543036 -0.06078548 0.012673259
-0.011762361 -0.061752394 0.012587756
-0.010612246 -0.060779225 0.011837512
-0.009763754 -0.061511647 0.010032892
-0.0092003448 -0.064402409 0.0084131658
-0.0076779798 -0.060464088 0.0074867308
-0.0071296939 -0.064167246 0.0064036548
-0.0064437548 -0.067659423 0.0050643682
-0.0029547925 -0.062050641 0.0050138235
-0.0019367767 -0.061008465 0.0052475333
-0.0009930518 -0.062562257 0.0057713091
0 -0.064472347 0.0066237152
0.00093771645 -0.059076138 0.0094425082
0.0018856423 -0.059397731 0.010316968
0.0028359066 -0.05955404 0.01209113
0.003811806 -0.060035944 0.012852758
0.0046389271 -0.058450483 0.013958484
0.0056866757 -0.059710093 0.012765557
0.0064982725 -0.058484454 0.012072831
0.0075309351 -0.059306111 0.010026276
0.0093964348 -0.065775044 0.0091090798
0.011407477 -0.071867108 0.0072556138
0.01143089 -0.065467827 0.0062754452
0.011565214 -0.060717374 0.005456388
-0.02143842 -0.066459104 0.005828917
-0.018140027 -0.059193775 0.0078201592
-0.017603291 -0.060633555 0.010308892
-0.016106991 -0.058743145 0.013043344
-0.015308055 -0.059318714 0.013493866
-0.014225832 -0.058800105 0.014015108
-0.013744605 -0.060868964 0.013705313
-0.012256843 -0.058455709 0.01377514
-0.011276184 -0.058260284 0.01377514
-0.010580259 -0.05963419 0.012697756
-0.0096646948 -0.059921108 0.01205647
-0.0084713977 -0.058358517 0.011633635
-0.0079571167 -0.061667655 0.010243654
-0.0067552817 -0.059832495 0.0090589821
-0.0058036251 -0.059970796 0.008135289
-0.0051777461 -0.064204052 0.0079378188
-0.0042988979 -0.066632919 0.0082328022
-0.0028706419 -0.0593266 0.0091137886
-0.0019226799 -0.059603076 0.0099922121
-0.0010411063 -0.064548589 0.0097952783
0 -0.059075348 0.010435224
0.00095507794 -0.05921483 0.012805969
0.0018727559 -0.058055434 0.014920056
0.0028257109 -0.058398027 0.016290277
0.0038074702 -0.059015788 0.016220748
0.0048416951 -0.060037017 0.016220748
0.0056089414 -0.057959061 0.016173393
0.0064893831 -0.057477392 0.015557677
0.007408299 -0.057414319 0.014957368
0.0085935593 -0.059200075 0.013922602
0.0096519133 -0.05984186 0.012048304
0.011733751 -0.06613569 0.0098411441
0.014036626 -0.072522566 0.0068097711
0.012704588 -0.060591113 0.0059345067
0.013435382 -0.059499551 0.0052322745
-0.019043919 -0.058083951 0.0075822771
-0.018352779 -0.058922078 0.010612994
-0.01674173 -0.056735866 0.013469219
-0.016379079 -0.05877199 0.014486909
-0.015277004 -0.058243576 0.015361309
-0.014222259 -0.057837188 0.015388906
-0.013077652 -0.056981198 0.015177637
-0.01236371 -0.05801433 0.015177637
-0.01148512 -0.058382697 0.015177637
-0.010555563 -0.058535401 0.014562428
-0.0095125893 -0.058026794 0.01385051
-0.0087409969 -0.059244532 0.012602419
-0.0078904843 -0.06016494 0.011880547
-0.0066402662 -0.057865176 0.011633635
-0.0060016694 -0.061016973 0.011377662
-0.0049470691 -0.060354244 0.011186063
-0.0039112475 -0.059646524 0.011338323
-0.0033271536 -0.067652129 0.011573106
-0.0020123255 -0.061375923 0.011513203
-0.00099344575 -0.060600191 0.011372179
0 -0.057101421 0.013161063
0.00091970619 -0.056102075 0.015800059
0.0020330285 -0.062007368 0.016491711
0.0029400757 -0.05978154 0.018042117
0.0038474363 -0.0586734 0.018072218
0.0052889497 -0.064525187 0.018181145
0.0055548963 -0.056474779 0.018197834
0.006633874 -0.057809472 0.016654134
0.0075510191 -0.057576522 0.016179383
0.0085958065 -0.058260467 0.015866548
0.0091984859 -0.056110766 0.015617192
0.010386835 -0.05759972 0.014463425
0.011786764 -0.059916049 0.011454761
0.014622518 -0.068613358 0.0070022047
0.015118105 -0.065871745 0.0060451627
0.014363733 -0.058412515 0.0053147078
-0.021423951 -0.061211288 0.0070480108
-0.018876038 -0.056628115 0.010195702
-0.017922854 -0.056598485 0.013962686
-0.017322071 -0.057740238 0.015745252
-0.016375996 -0.057797633 0.016585618
-0.015171858 -0.056894463 0.01608178
-0.014445898 -0.057783592 0.016776025
-0.013139818 -0.056313504 0.016421884
-0.012211781 -0.056362066 0.016260624
-0.011542102 -0.057710513 0.016065478
-0.010488607 -0.057210587 0.015482992
-0.0096099963 -0.057659976 0.015072346
-0.0086034797 -0.057356533 0.014042169
-0.0076445332 -0.057333998 0.013822943
-0.0067191152 -0.057592414 0.01377511
-0.0058095288 -0.058095288 0.012588114
-0.0048980718 -0.058776863 0.013086379
-0.0039590029 -0.059385046 0.013627082
-0.002953788 -0.059075762 0.014103144
-0.0019511967 -0.0585359 0.015227437
-0.0009441225 -0.056647349 0.015226692
0 -0.055635374 0.01627934
0.0009426609 -0.056559656 0.01708746
0.0019018687 -0.057056062 0.018333107
0.0031302699 -0.062605396 0.018622518
0.0042893053 -0.064339578 0.019099951
0.0052987598 -0.063585117 0.019213259
0.0055161477 -0.05516148 0.019045651
0.00660659 -0.056627914 0.01799047
0.0074789193 -0.056091893 0.017750889
0.0082960753 -0.055307169 0.016425282
0.0094486633 -0.056691978 0.016851336
0.010432358 -0.056903768 0.015855849
0.011031506 -0.055157527 0.014980048
0.01238507 -0.057161864 0.01418063
0.014487796 -0.062090557 0.010576189
0.016392101 -0.065568402 0.0065371096
0.016733536 -0.062750764 0.0054434538
-0.024525687 -0.065773435 0.0058845878
-0.019545099 -0.054912422 0.0081293881
-0.019346727 -0.057072844 0.011889577
-0.01821748 -0.056570072 0.014190167
-0.016601328 -0.054415464 0.016298205
-0.01600557 -0.055548742 0.017532915
-0.015432711 -0.056908123 0.017292678
-0.013961955 -0.054917023 0.017232299
-0.013328892 -0.05617176 0.017185688
-0.012277366 -0.055720352 0.017053753
-0.011110284 -0.054625567 0.016952664
-0.010546139 -0.056565654 0.016236156
-0.0095502762 -0.056346629 0.015873343
-0.0086998818 -0.057032559 0.015394241
-0.0076308469 -0.056277495 0.01492244
-0.0066696303 -0.056215454 0.014421344
-0.0057221735 -0.05626804 0.014393121
-0.0048392876 -0.057103597 0.015212417
-0.0038462032 -0.056731496 0.015723109
-0.002894582 -0.056926779 0.016440272
-0.0019606915 -0.057840403 0.016771019
-0.00092170178 -0.054380402 0.01682055
0 -0.054513536 0.017679691
0.00094563811 -0.055792648 0.018540382
0.001815735 -0.05356418 0.019385427
0.0028567598 -0.056182943 0.01983577
0.0038812838 -0.057248935 0.020064682
0.0045469576 -0.053654101 0.020012438
0.0055778404 -0.054848764 0.019652873
0.0066031301 -0.055654954 0.018739998
0.0074252663 -0.054761339 0.018384606
0.0085957572 -0.056349963 0.018283367
0.0094382418 -0.055685628 0.018478215
0.010311066 -0.055304807 0.01824677
0.011477754 -0.056432292 0.016844779
0.012252041 -0.055605415 0.015710294
0.012678682 -0.053431589 0.014324218
0.014660371 -0.05766413 0.011145592
0.016588533 -0.06117022 0.0081559122
0.020035928 -0.069536462 0.0059483051
-0.021442875 -0.056531217 0.0069146156
-0.019928025 -0.055039309 0.0098262131
-0.018932823 -0.054905184 0.01330635
-0.017722469 -0.054100167 0.014666051
-0.016860647 -0.054328751 0.016157627
-0.015989825 -0.054553524 0.017326891
-0.014696314 -0.053274136 0.017325938
-0.014873894 -0.057512391 0.017560184
-0.013214519 -0.054745864 0.017559439
-0.012123654 -0.054090146 0.017403454
-0.011677081 -0.056439225 0.017309576
-0.010542666 -0.055588603 0.017082751
-0.0092408117 -0.053596709 0.017081618
-0.0087633673 -0.056475032 0.016728491
-0.0076585249 -0.055524305 0.016065478
-0.0064968825 -0.053831313 0.015684813
-0.0057699755 -0.055776432 0.015854716
-0.0047825915 -0.055478059 0.016660422
-0.0036726852 -0.053253938 0.016978264
-0.0030052888 -0.05810225 0.017413914
-0.0018952534 -0.054962348 0.018147737
-0.00092394016 -0.053588528 0.017561257
0 -0.054210503 0.018382221
0.00092631578 -0.053726315 0.019195557
0.0019121872 -0.055453431 0.019850582
0.002810857 -0.054343238 0.02004382
0.0036907147 -0.053515363 0.020102173
0.0047426959 -0.05501527 0.020095617
0.0057206405 -0.055299528 0.019832075
0.0065774596 -0.054498952 0.019409597
0.0075006671 -0.054379836 0.019213468
0.0083912164 -0.054076724 0.019217819
0.0092018396 -0.053370669 0.019617617
0.01036048 -0.054627985 0.019617617
0.011499535 -0.055581089 0.018425822
0.01184031 -0.052825995 0.018041164
0.013326166 -0.055208404 0.015905112
0.014035696 -0.054271359 0.014998853
0.015027421 -0.054474398 0.012302727
0.017241698 -0.058824614 0.0082169771
0.018416038 -0.059340566 0.0058456957
-0.020810887 -0.053919118 0.0076654851
-0.020362018 -0.055268332 0.011435121
-0.019184347 -0.054675389 0.013932139
-0.017946387 -0.053839162 0.015119612
-0.016703643 -0.052894868 0.016585171
-0.016067103 -0.053872049 0.017485857
-0.015619274 -0.055643663 0.017754436
-0.013910296 -0.052859128 0.017636299
-0.013166524 -0.053606559 0.017560959
-0.012619696 -0.055332512 0.017559439
-0.011428449 -0.054285131 0.017468035
-0.01020352 -0.052872788 0.017254502
-0.0094702011 -0.053980149 0.017280638
-0.008556027 -0.054188173 0.017144024
-0.0075901677 -0.054079946 0.017016947
-0.0066924463 -0.054495636 0.017084271
-0.005608697 -0.053282619 0.017429352
-0.0046341745 -0.05282959 0.018132746
-0.0039152941 -0.055792939 0.018550068
-0.0027923398 -0.053054456 0.018560857
-0.0018764534 -0.053478923 0.019312322
-0.00093884469 -0.053514145 0.018666804
0 -0.052413534 0.019385427
0.00093549403 -0.053323161 0.020095497
0.0018813269 -0.053617816 0.020368278
0.0027592606 -0.052425951 0.020739764
0.0038088101 -0.054275546 0.02086845
0.0047672754 -0.054346941 0.020894498
0.005687641 -0.05403259 0.020215839
0.0066839191 -0.054426197 0.019676179
0.007592604 -0.054097306 0.019640565
0.0083504729 -0.052886326 0.01963684
0.0095371939 -0.054362006 0.019786119
0.010086961 -0.052268799 0.019789845
0.011191696 -0.053160556 0.019640565
0.012437638 -0.05453426 0.019456893
0.013167376 -0.053610031 0.018128335
0.014111193 -0.053622533 0.017603904
0.01486641 -0.052961584 0.015112936
0.015565263 -0.05218941 0.011581421
0.017211938 -0.054504469 0.0068106949
0.019192761 -0.057578284 0.0052705705
-0.021534406 -0.054814853 0.0077355802
-0.019893909 -0.053050425 0.011409581
-0.018715333 -0.052402932 0.013734996
-0.018491697 -0.054501843 0.014855951
-0.017340792 -0.053949133 0.016131431
-0.015665172 -0.051602919 0.017074138
-0.01533743 -0.053681005 0.017525822
-0.014152828 -0.052837223 0.017491728
-0.013143155 -0.052572619 0.017542243
-0.012252883 -0.052781653 0.017468035
-0.011432547 -0.053351887 0.017403841
-0.010498006 -0.053444393 0.017468035
-0.0094090505 -0.052690681 0.017446429
-0.0084955096 -0.052860945 0.017386764
-0.0077429931 -0.054200951 0.017429352
-0.0065353587 -0.05228287 0.017542243
-0.0057785097 -0.053932756 0.018613607
-0.0049200719 -0.055104807 0.01913178
-0.0038949831 -0.054529764 0.019614995
-0.0028224196 -0.052685168 0.019649118
-0.0018611714 -0.052112799 0.020055324
-0.00094881147 -0.053133443 0.019781142
0 -0.053437266 0.020064682
0.00093638245 -0.052437417 0.020800054
0.0018352168 -0.05138607 0.020702571
0.0028231509 -0.052698817 0.020664573
0.0038194375 -0.053472124 0.02101779
0.0046660262 -0.052259494 0.020651609
0.0055588321 -0.051882431 0.020127922
0.0067447326 -0.053957861 0.019533575
0.0074481657 -0.052137159 0.019534528
0.0082839029 -0.051544283 0.019445747
0.0093932133 -0.052601997 0.019713402
0.010183132 -0.051841401 0.019974679
0.011439124 -0.053382579 0.019717008
0.012069224 -0.051990505 0.019974679
0.013074107 -0.052296426 0.019454926
0.013838665 -0.051664349 0.018533796
0.014708193 -0.051478673 0.016780376
0.015767619 -0.051940396 0.013379216
0.016604565 -0.051658649 0.0096912384
0.017343482 -0.051117629 0.0058124661
-0.021660181 -0.051796082 0.0062045455
-0.020942185 -0.052355465 0.0079907179
-0.02013734 -0.052740648 0.011072516
-0.019586172 -0.053861976 0.013269186
-0.017857449 -0.051692616 0.014727086
-0.017161679 -0.052438464 0.015706331
-0.016342489 -0.052872762 0.016547143
-0.014943408 -0.051367965 0.017379105
-0.014227263 -0.05216663 0.017636299
-0.013494818 -0.053015355 0.017642587
-0.012085434 -0.051130682 0.017659664
-0.011429267 -0.052384138 0.017918169
-0.010726822 -0.053634111 0.017892629
-0.0094081322 -0.051744726 0.017944992
-0.0084502762 -0.051640578 0.018247038
-0.0075034704 -0.05158636 0.018630266
-0.0066093435 -0.051930554 0.018983424
-0.005776145 -0.052947994 0.019236475
-0.0047350214 -0.052085236 0.019759715
-0.0037359679 -0.051369559 0.019857228
-0.0028120906 -0.051554997 0.019918561
-0.0018656168 -0.05130446 0.021027565
-0.00094719703 -0.052095838 0.020943016
0 -0.052313842 0.020841777
0.00091155153 -0.050135333 0.021192551
0.0019064411 -0.052427128 0.02086845
0.0028499288 -0.052248694 0.021229833
0.0037162264 -0.051098116 0.021726727
0.0047243591 -0.051967949 0.021187484
0.0056438134 -0.051734958 0.021007329
0.0065585943 -0.05153181 0.020495236
0.0076063043 -0.052293342 0.019929469
0.0085237427 -0.052089542 0.019716054
0.0094720917 -0.052096505 0.020616859
0.01048629 -0.052431449 0.020578206
0.01135618 -0.05204916 0.020490468
0.012226358 -0.0517269 0.020705283
0.013350739 -0.052449334 0.019871444
0.013886583 -0.050917469 0.019005716
0.015364239 -0.052814573 0.017621011
0.015950253 -0.051603761 0.015104562
0.01682421 -0.051407307 0.011299998
0.018661162 -0.054019149 0.00660941
-0.022559069 -0.052964769 0.0062173903
-0.021425983 -0.052591048 0.0077355802
-0.020344907 -0.052315474 0.01025635
-0.019146081 -0.051694419 0.011602104
-0.018436169 -0.052397531 0.01363188
-0.017065706 -0.051197115 0.015038699
-0.016041743 -0.050956123 0.015670121
-0.015663743 -0.052865133 0.016164392
-0.014106148 -0.050782133 0.017232299
-0.013009194 -0.050178323 0.017423868
-0.012389778 -0.051465232 0.017576516
-0.011669315 -0.052511919 0.017870784
-0.010170966 -0.0499302 0.017944992
-0.009390099 -0.050706532 0.018821657
-0.0085650887 -0.051390536 0.01888296
-0.007556302 -0.051005039 0.019291937
-0.0066700783 -0.051454887 0.019674033
-0.0057795919 -0.052016325 0.020178765
-0.0046492293 -0.050211675 0.020338804
-0.0037982163 -0.05127592 0.020378977
-0.0027730411 -0.049914744 0.020640969
-0.0019019824 -0.051353522 0.021586657
-0.00092522328 -0.049962055 0.02120316
0 -0.050340638 0.021404028
0.00093515619 -0.050498433 0.021802336
0.0019021042 -0.051356815 0.021584809
0.0027867518 -0.050161533 0.021793991
0.0037843229 -0.051088359 0.021715671
0.0047156471 -0.050928988 0.021683484
0.0055777868 -0.050200082 0.021543115
0.0066943886 -0.051642425 0.02089417
0.007640624 -0.051574212 0.02055338
0.0083424766 -0.050054863 0.020494789
0.0095917406 -0.051795401 0.020540237
0.010378018 -0.050946631 0.021050364
0.01157137 -0.052071165 0.021060407
0.0123106 -0.051136341 0.021186799
0.013023689 -0.050234228 0.020593315
0.01400293 -0.050410546 0.019777626
0.01489897 -0.050284021 0.018937498
0.015988955 -0.050788447 0.016703933
0.017348416 -0.052045248 0.012239009
0.017593062 -0.050001334 0.00705567
-0.02157772 -0.051982686 0.0075397491
-0.020174081 -0.050915536 0.0095893741
-0.019126995 -0.050686538 0.010812372
-0.018418057 -0.051376686 0.012956172
-0.017209604 -0.050672725 0.014431983
-0.01633499 -0.050926737 0.01457414
-0.015134059 -0.050131571 0.01578024
-0.014274509 -0.050436597 0.016102195
-0.013598644 -0.051480584 0.017228305
-0.012346478 -0.050335642 0.017434478
-0.011210503 -0.049513057 0.017889977
-0.010653642 -0.051331185 0.017961055
-0.0095084738 -0.050394911 0.018838316
-0.0083289221 -0.049048096 0.019108951
-0.0077207214 -0.051149782 0.020011157
-0.0065482236 -0.049579404 0.020324886
-0.0056268843 -0.049704142 0.021073967
-0.0046822228 -0.049631566 0.021058947
-0.0037410085 -0.049568363 0.021265388
-0.0027789425 -0.049094651 0.021330476
-0.0018611891 -0.049321514 0.022112578
-0.00094803306 -0.050245754 0.021799147
0 -0.051017877 0.021796286
0.00093535683 -0.049573913 0.021591872
0.0018500976 -0.049027584 0.021274894
0.0027652306 -0.048852406 0.021229833
0.0038499697 -0.051012099 0.021511137
0.0046075732 -0.048840273 0.021467417
0.0055895913 -0.049374722 0.02138716
0.0065303091 -0.049443766 0.020561099
0.0074341008 -0.049250919 0.020857185
0.0086875446 -0.051159985 0.020501286
0.0093458053 -0.049532767 0.020754695
0.010143007 -0.048870854 0.021164894
0.011241937 -0.049651887 0.021164894
0.012323514 -0.050242018 0.021085262
0.013022227 -0.049298432 0.020798892
0.01420965 -0.050207429 0.020201355
0.015098983 -0.050015382 0.019281417
0.015794666 -0.049242198 0.017329842
0.016833721 -0.049565952 0.01347056
0.017417578 -0.048585877 0.0078060627
-0.021113483 -0.049904596 0.0066399574
-0.020266399 -0.050183464 0.0077804923
-0.019974608 -0.051933981 0.010039419
-0.01832811 -0.050161142 0.011375546
-0.016871197 -0.048739012 0.013283789
-0.016326947 -0.049941249 0.014115542
-0.015303809 -0.049737379 0.014301449
-0.014567052 -0.050499115 0.015509337
-0.013457295 -0.049984235 0.016542435
-0.012404458 -0.049617831 0.017297864
-0.01169387 -0.050673436 0.01755932
-0.010478886 -0.049536552 0.017961055
-0.0092923073 -0.048319999 0.018894345
-0.0086229639 -0.049821567 0.019230157
-0.0073659453 -0.047878645 0.020145863
-0.0066135731 -0.0491294 0.020463228
-0.0056719324 -0.049156744 0.021155357
-0.0046658288 -0.048524622 0.021118313
-0.0036652407 -0.047648132 0.021506727
-0.002843336 -0.049284488 0.02148661
-0.0018893701 -0.049123626 0.021808684
-0.00093756308 -0.04875328 0.021538407
0 -0.049384121 0.021637648
0.00091909582 -0.047792982 0.021498442
0.0018554834 -0.048242569 0.021517903
0.0028106074 -0.048717197 0.021116346
0.0036805989 -0.047847789 0.021302074
0.0046777129 -0.048648216 0.021318823
0.0056803422 -0.049229633 0.021041602
0.0065320977 -0.048524152 0.021090865
0.0075726402 -0.049222164 0.021229744
0.008318604 -0.048063047 0.020739704
0.009473267 -0.049260989 0.021688879
0.010372999 -0.049035996 0.021703511
0.011332732 -0.049108502 0.021318674
0.012051268 -0.04820507 0.021277249
0.013101697 -0.048663445 0.021121353
0.014538731 -0.050400935 0.020242989
0.01489846 -0.048419997 0.019331485
0.016015356 -0.048988149 0.01725179
0.016802151 -0.048539549 0.01347056
0.018276058 -0.050018683 0.0067592561
-0.020821331 -0.050566088 0.0069386065
-0.019402582 -0.049476583 0.0081090927
-0.018258858 -0.049010623 0.010591447
-0.017502628 -0.049590778 0.011772454
-0.016184216 -0.048552647 0.01288265
-0.015202588 -0.048458252 0.013847828
-0.014704231 -0.049994387 0.014023423
-0.013199004 -0.048082087 0.015070379
-0.012319024 -0.048328478 0.016038686
-0.011644994 -0.049491223 0.017237306
-0.010321465 -0.047854066 0.017889977
-0.0093520796 -0.047695607 0.018797487
-0.0086312611 -0.04891048 0.019452363
-0.0076853135 -0.048993874 0.020242155
-0.0064485259 -0.046982117 0.020532459
-0.0056350408 -0.047897849 0.021118313
-0.0047176653 -0.048120186 0.021058947
-0.003749127 -0.047801368 0.021594375
-0.0028349459 -0.048194081 0.021244943
-0.0018824356 -0.048002109 0.021502793
-0.00093830086 -0.047853343 0.02116701
0 -0.047172714 0.021535635
0.00094683422 -0.048288547 0.021484822
0.0018908469 -0.048216596 0.021738291
0.0027733245 -0.047146518 0.021256119
0.0038476211 -0.049057171 0.021445662
0.0047280267 -0.048225868 0.021274418
0.0056105405 -0.047689594 0.021416843
0.0066149011 -0.048194282 0.021118432
0.007561483 -0.048204456 0.021390319
0.0083246855 -0.047173221 0.021390319
0.0095153814 -0.048528448 0.021647662
0.010209538 -0.047335133 0.021764219
0.011174896 -0.047493305 0.02155
0.012338031 -0.048403043 0.021002293
0.01353075 -0.04929059 0.020998091
0.013859108 -0.047120966 0.020065129
0.0149541 -0.047666196 0.018963426
0.015625175 -0.046875525 0.01720655
0.016911864 -0.047916945 0.01130867
0.018646386 -0.050050821 0.0057261884
-0.019970041 -0.0499251 0.0068492889
-0.018508783 -0.048707321 0.0077978373
-0.017438006 -0.048438907 0.010405421
-0.016142827 -0.047478903 0.010626405
-0.015520304 -0.048500948 0.011558175
-0.013929456 -0.046431523 0.0129852
-0.013544428 -0.048372958 0.013935357
-0.01266911 -0.048727345 0.015445828
-0.011152961 -0.046470676 0.017081618
-0.010365039 -0.047113817 0.017889977
-0.0098724896 -0.049362447 0.018577367
-0.0084316349 -0.046842415 0.019187391
-0.0075692926 -0.047308076 0.020119756
-0.0066554383 -0.047538847 0.020431995
-0.0055176551 -0.045980461 0.020963818
-0.0047170604 -0.047170602 0.020984232
-0.0037915525 -0.047394406 0.021250874
-0.0028422638 -0.047371063 0.020940423
-0.0018997485 -0.047493711 0.021348208
-0.00093982532 -0.046991266 0.021331757
0 -0.047119427 0.021484822
0.00093763095 -0.046881545 0.021324337
0.0018307464 -0.04576866 0.021453232
0.0028139197 -0.046898663 0.021195233
0.0038495802 -0.048119754 0.021251947
0.0046518417 -0.046518419 0.021346301
0.0055721444 -0.046434537 0.02130571
0.0066221613 -0.047301151 0.02126658
0.007235805 -0.04522378 0.021389216
0.0086087901 -0.047826611 0.021320134
0.0092795677 -0.046397839 0.021462053
0.010226293 -0.046483152 0.021621257
0.011591652 -0.048298549 0.021036446
0.012269934 -0.047192052 0.020564288
0.01294486 -0.046231646 0.020242989
0.014133213 -0.04711071 0.019257128
0.014654924 -0.04579664 0.018405676
0.016105555 -0.047369279 0.01660037
0.017718609 -0.04921836 0.0086454749
-0.018381458 -0.047404811 0.0068737566
-0.0177372 -0.048284598 0.0074778795
-0.01653309 -0.0476542 0.0096053481
-0.015418893 -0.04722036 0.010500878
-0.014561691 -0.047568191 0.011146724
-0.013402794 -0.046909776 0.013590813
-0.012144722 -0.045776263 0.014701635
-0.011648642 -0.047565285 0.016600996
-0.010514462 -0.046837151 0.017542243
-0.0092923064 -0.045532301 0.018428355
-0.0084793055 -0.046165109 0.019059449
-0.007630202 -0.046734985 0.020119756
-0.0064582913 -0.045208041 0.020451039
-0.0056895055 -0.046464294 0.021006465
-0.0047414177 -0.046465892 0.021076769
-0.0037698331 -0.046180457 0.02148661
-0.0028250592 -0.046142634 0.02124536
-0.0018813295 -0.046092574 0.021827698
-0.00091537519 -0.044853386 0.021389008
0 -0.046774194 0.02152282
0.00091775268 -0.044969879 0.021668434
0.0018977886 -0.046495821 0.021536618
0.0028142696 -0.045966402 0.021241874
0.0037164348 -0.045526326 0.021274418
0.0047161211 -0.046217985 0.021445632
0.0056620762 -0.046240289 0.021380782
0.0064958371 -0.04547086 0.021412104
0.0074702743 -0.045755431 0.021490455
0.0081918901 -0.044600293 0.021437138
0.0092130834 -0.045144107 0.021625578
0.010415928 -0.046398222 0.021491826
0.01115728 -0.045558892 0.020983398
0.011926904 -0.044955254 0.020589292
0.013291061 -0.046518713 0.020065129
0.013979625 -0.045666777 0.018762589
0.01502516 -0.046014555 0.017375708
0.015984334 -0.046072494 0.010463446
0.017487273 -0.04760424 0.0054089129
-0.017875168 -0.047667116 0.0064566135
-0.016624048 -0.04693849 0.0073985159
-0.015573704 -0.046721108 0.0095612109
-0.014660241 -0.046912771 0.010378391
-0.013312237 -0.045641955 0.012373984
-0.012489933 -0.046116672 0.013897717
-0.011779419 -0.047117677 0.015331358
-0.01057334 -0.046138208 0.017217904
-0.0098480023 -0.047270413 0.018609345
-0.0088000987 -0.04693386 0.019276828
-0.0074784728 -0.044870835 0.020262271
-0.0064543672 -0.04425852 0.02076751
-0.005582646 -0.044661168 0.021199197
-0.0046688234 -0.044820704 0.021093786
-0.0038712271 -0.046454728 0.02148661
-0.0027933873 -0.044694196 0.02124536
-0.0018845994 -0.045230389 0.021714687
-0.00094035774 -0.045137171 0.021606266
0 -0.044344302 0.021587491
0.0009537696 -0.045780942 0.021575481
0.0019069117 -0.045765884 0.021340519
0.0027952159 -0.044723455 0.020917535
0.0037775922 -0.045331106 0.021084487
0.0046621184 -0.044756334 0.021325737
0.0056587197 -0.045269758 0.021466017
0.0066186385 -0.045384947 0.021594107
0.0075228452 -0.04513707 0.021919817
0.0084731737 -0.04519026 0.021498621
0.0095158555 -0.045676108 0.021445304
0.010078625 -0.043979455 0.021462053
0.011147634 -0.044590537 0.020922571
0.012127941 -0.044780087 0.020456702
0.013143349 -0.045062911 0.019494891
0.014015093 -0.044848293 0.018387318
0.015006465 -0.045019396 0.016967416
0.016799038 -0.047432579 0.0075610876
-0.016489178 -0.045587726 0.0060740709
-0.016099783 -0.047293112 0.0074856877
-0.014423327 -0.045193091 0.0094324052
-0.013491138 -0.045291677 0.011064708
-0.012539631 -0.045335591 0.01379326
-0.011244683 -0.044041675 0.015143275
-0.010536964 -0.045021575 0.017092437
-0.009488266 -0.04459485 0.018663049
-0.0084329769 -0.044038881 0.018960059
-0.0076650986 -0.045032453 0.01999855
-0.0066262027 -0.044490218 0.020503789
-0.005688611 -0.044560786 0.020785123
-0.0047217738 -0.044384673 0.020754397
-0.003776062 -0.044368729 0.020750135
-0.0027909577 -0.043725003 0.020639986
-0.0019184627 -0.045083873 0.02128315
-0.00093899964 -0.044132981 0.021070182
0 -0.044009905 0.0212892
0.00093906058 -0.044135846 0.021295965
0.0018723728 -0.04400076 0.021247268
0.0028246101 -0.044252224 0.020899743
0.0037945949 -0.044586491 0.020960242
0.0046525826 -0.043734275 0.02123782
0.0056421598 -0.044196919 0.021326274
0.0065540904 -0.044006038 0.021339059
0.0072823064 -0.042783551 0.021466017
0.0084307827 -0.044027422 0.021413833
0.0092597138 -0.043520655 0.021325737
0.010317752 -0.04408494 0.020983398
0.011200076 -0.043866962 0.020589292
0.012122171 -0.043826312 0.01997453
0.013137141 -0.044103257 0.018927366
0.014016663 -0.043918874 0.017144322
0.015167988 -0.044555966 0.0097389221
-0.015659863 -0.045022104 0.0063334405
-0.015010628 -0.046032593 0.0073205531
-0.013898586 -0.045666784 0.009924829
-0.012257334 -0.043372102 0.01254797
-0.011542778 -0.044247311 0.015105963
-0.010745217 -0.044934541 0.01782921
-0.0096148169 -0.044228155 0.018616647
-0.0083965641 -0.042915773 0.019496083
-0.0075142374 -0.043206867 0.020252734
-0.0065040044 -0.042740598 0.020655543
-0.00566909 -0.043463025 0.021136582
-0.0046460656 -0.042743806 0.020985425
-0.0037406115 -0.043017033 0.021156043
-0.0028797779 -0.044156596 0.020755589
-0.0018653765 -0.042903658 0.02128315
-0.00092458818 -0.042531058 0.021009743
0 -0.043352928 0.021190315
0.0009200155 -0.042320713 0.021271586
0.0018867154 -0.043394454 0.020920664
0.0028699012 -0.044005152 0.020749539
0.0037464642 -0.043084338 0.020890206
0.0046884357 -0.043133605 0.021044791
0.0056065433 -0.042983498 0.021249384
0.0065300339 -0.042911649 0.021360397
0.007533256 -0.043316223 0.021360397
0.0083718784 -0.042789601 0.021180212
0.0093307914 -0.04292164 0.02119115
0.01026655 -0.042932846 0.020922571
0.011307299 -0.043344647 0.02040109
0.012085431 -0.042763833 0.01985985
0.013263923 -0.043581463 0.017942995
0.014051959 -0.043092672 0.015411913
0.015699826 -0.045136999 0.0053559244
-0.016244279 -0.045687035 0.0053921342
-0.01537671 -0.046130128 0.0066977143
-0.013341155 -0.042882286 0.0086097717
-0.012975489 -0.044915155 0.011327684
-0.011618499 -0.043569371 0.015143275
-0.010439872 -0.042708568 0.017906457
-0.0094834911 -0.042675711 0.018679887
-0.0084791435 -0.042395715 0.019276828
-0.0075335149 -0.042376019 0.020130277
-0.0065404992 -0.042046066 0.020536333
-0.0056923297 -0.042692471 0.020997107
-0.0047501726 -0.042751551 0.020801932
-0.0037592745 -0.042291839 0.020984232
-0.0028469537 -0.042704303 0.020591378
-0.0018360531 -0.041311193 0.021132559
-0.00095412973 -0.042935837 0.020852238
0 -0.041649185 0.020968378
0.00095083728 -0.042787679 0.021271586
0.0018879997 -0.042479992 0.020920664
0.0027706812 -0.041560218 0.020861566
0.0037197673 -0.041847382 0.020970613
0.0046578087 -0.041920278 0.02101922
0.0056312438 -0.042234328 0.021249384
0.0065281242 -0.041966513 0.021253467
0.00749694 -0.042170286 0.021223068
0.0084440326 -0.042220164 0.021003991
0.0093158735 -0.041921433 0.020978421
0.010264891 -0.041992735 0.020766675
0.011327433 -0.042477876 0.020237893
0.012177741 -0.04215372 0.019141495
0.013152626 -0.042276297 0.017118037
0.01461907 -0.043857209 0.0076574087
-0.015504181 -0.045478933 0.0062144697
-0.01418524 -0.044582181 0.0070332587
-0.012723133 -0.04306291 0.011315733
-0.011444766 -0.041964144 0.015105963
-0.01076265 -0.043050598 0.018095225
-0.0094465753 -0.041564934 0.018676102
-0.0084442701 -0.041283101 0.019720644
-0.0076322379 -0.041977309 0.020329207
-0.0065411101 -0.041115552 0.02099517
-0.0055933595 -0.041017968 0.020876884
-0.004680193 -0.041185699 0.020690829
-0.0037501126 -0.041251238 0.02121976
-0.0028309373 -0.041520413 0.021087557
-0.0019052468 -0.041915428 0.021476656
-0.0009362307 -0.041194152 0.021348208
0 -0.041534994 0.021295965
0.00094464491 -0.041564375 0.021479577
0.0018401287 -0.04048283 0.021125853
0.0028131949 -0.04126019 0.020861566
0.0037615751 -0.041377328 0.020988405
0.004716774 -0.041507609 0.02101922
0.0055853119 -0.040958952 0.021076798
0.006629019 -0.041668121 0.021003991
0.007464475 -0.041054614 0.02106306
0.0085079093 -0.041594222 0.020911872
0.0093069924 -0.040950768 0.02082321
0.01026585 -0.041063398 0.020564288
0.011521557 -0.042245708 0.019625634
0.012053704 -0.040797152 0.018355131
0.013241718 -0.041616827 0.016368955
-0.014704799 -0.042153761 0.00531286
-0.014174459 -0.043535836 0.0066003501
-0.012879484 -0.042601373 0.01124841
-0.012291198 -0.044043455 0.015647739
-0.01027412 -0.040162466 0.018411696
-0.009134694 -0.039279185 0.019184798
-0.00848231 -0.040526591 0.019901276
-0.0075758328 -0.040720101 0.020310998
-0.0066466616 -0.040829491 0.02074194
-0.0057438267 -0.041164089 0.020876884
-0.0047052926 -0.040465515 0.020689636
-0.0037158071 -0.039944924 0.021218985
-0.002851303 -0.040868677 0.021087557
-0.0018569977 -0.039925452 0.021589041
-0.00092923921 -0.039957285 0.021404386
0 -0.039996739 0.021515608
0.00092466624 -0.039760649 0.021515608
0.0019243121 -0.041372709 0.02114439
0.0027794165 -0.039838303 0.020938426
0.0037133682 -0.03991871 0.02099967
0.004695233 -0.040379003 0.02091381
0.0057277312 -0.041048739 0.02101922
0.006478094 -0.039794009 0.020978421
0.0075148707 -0.040392432 0.020842612
0.0084515875 -0.040379804 0.020493805
0.0093181683 -0.040068123 0.020408571
0.010426314 -0.04075741 0.019958228
0.011085188 -0.039721925 0.018397152
0.012258367 -0.040546905 0.017140597
0.013924497 -0.042768098 0.0053183138
-0.013548486 -0.040645458 0.0064737499
-0.013313049 -0.043011386 0.013364673
-0.011204575 -0.039216012 0.016980469
-0.010149573 -0.038752913 0.018487811
-0.0093664685 -0.039339166 0.019198537
-0.008389174 -0.039149482 0.020007461
-0.0075808279 -0.039799348 0.020077258
-0.0065797637 -0.039478581 0.020513684
-0.0056846552 -0.039792586 0.020478427
-0.0046462254 -0.039028294 0.020383388
-0.0037814709 -0.039705444 0.020660162
-0.0028105567 -0.039347794 0.020620316
-0.001886782 -0.039622422 0.02089113
-0.00092644885 -0.038910851 0.020789862
0 -0.039743286 0.021232545
0.0009432779 -0.039617673 0.021372497
0.0018461732 -0.038769636 0.021086574
0.002755315 -0.038574409 0.021226168
0.0037709835 -0.039595328 0.021234155
0.0046611628 -0.03915377 0.021261662
0.0055712545 -0.038998783 0.021261662
0.0065524508 -0.039314706 0.02107653
0.0074696317 -0.039215568 0.020955384
0.0084297732 -0.039338943 0.020508707
0.0094597312 -0.039730869 0.020166516
0.010264223 -0.039190672 0.019287735
0.011293802 -0.03952831 0.017804056
0.012478804 -0.040316138 0.012261182
-0.014342027 -0.04200165 0.0064980686
-0.012773642 -0.040286101 0.013401955
-0.011276355 -0.038527545 0.017563283
-0.010383665 -0.038702749 0.01863274
-0.009487859 -0.038900223 0.019627213
-0.0084375329 -0.03843765 0.020099044
-0.0074970135 -0.038422193 0.020420432
-0.0065520857 -0.038376503 0.02067554
-0.0056711733 -0.038753018 0.020961106
-0.0048090601 -0.039434295 0.020621061
-0.0037793112 -0.038737942 0.020766646
-0.0027933882 -0.038176306 0.02069214
-0.0018789949 -0.038519394 0.021249563
-0.00094432337 -0.038717259 0.021045864
0 -0.037862383 0.021052182
0.00095968909 -0.039347254 0.021422118
0.0018581416 -0.038091905 0.021167874
0.0028096684 -0.038398802 0.02114439
0.0037954079 -0.038902931 0.021226168
0.004659377 -0.038206894 0.021206707
0.005650688 -0.038613036 0.021238238
0.0066165267 -0.038753942 0.02109766
0.0074443417 -0.038152251 0.020883113
0.0085039185 -0.038740072 0.019877374
0.0093726516 -0.038427871 0.0194031
0.010286445 -0.038340386 0.018433273
0.011238324 -0.038397606 0.015694737
-0.015463945 -0.044182699 0.0061407089
-0.012037667 -0.037038978 0.014132679
-0.01147825 -0.038260836 0.017296344
-0.010257646 -0.037300531 0.0183658
-0.0092190709 -0.036876284 0.019533515
-0.0085428981 -0.037968438 0.020076543
-0.0075818989 -0.037909493 0.020183563
-0.0064364532 -0.036779735 0.020625293
-0.0058072736 -0.038715158 0.020777732
-0.0047337767 -0.037870213 0.020650834
-0.0037112776 -0.037112776 0.020673484
-0.0028420542 -0.037894055 0.020752519
-0.0018943666 -0.037887331 0.021254599
-0.00092743617 -0.037097447 0.020793974
0 -0.038990244 0.021107018
0.0009132289 -0.036529154 0.021089405
0.0019198541 -0.038397081 0.020942241
0.0028239449 -0.037652601 0.021206766
0.0037256673 -0.037256673 0.021211624
0.0047063394 -0.037650716 0.021137506
0.0056280256 -0.03752017 0.0211896
0.0065841135 -0.037623506 0.021101505
0.0075794598 -0.0378973 0.020770043
0.008424392 -0.037441742 0.019710898
0.0093732905 -0.037493162 0.018888235
0.010211383 -0.0371323 0.017520756
0.011781042 -0.039270137 0.0062928796
-0.013028201 -0.036292847 0.0058790743
-0.012179446 -0.036538336 0.013946295
-0.011211994 -0.036438979 0.016983449
-0.010334048 -0.036638901 0.018458813
-0.0093952054 -0.0366413 0.019842416
-0.0084880078 -0.036781367 0.020038873
-0.0076008947 -0.037054364 0.02022478
-0.0067244982 -0.037465062 0.020628065
-0.0056247152 -0.036560647 0.021116495
-0.0046480978 -0.036255162 0.020874649
-0.0037495568 -0.036558177 0.020898074
-0.00285174 -0.037072621 0.021183074
-0.0018441173 -0.035960287 0.021378905
-0.00094651838 -0.036914218 0.021296382
0 -0.035763364 0.02141428
0.00093700626 -0.036543246 0.021547168
0.0018743608 -0.036550038 0.02121973
0.0028127779 -0.036566112 0.02135399
0.0037539469 -0.036600981 0.02131635
0.0047166897 -0.036790177 0.021290153
0.0055277753 -0.03593054 0.021300256
0.0066963313 -0.037308134 0.020845503
0.0075535877 -0.036823738 0.020144761
0.0084336922 -0.036545999 0.019098103
0.0094835926 -0.036986008 0.017775357
0.010388358 -0.03683145 0.012785435
-0.012971773 -0.035209097 0.0053318143
-0.012201515 -0.035665967 0.014062673
-0.011193605 -0.035446417 0.017152429
-0.010325907 -0.035671312 0.018552363
-0.0094548538 -0.035928447 0.020029336
-0.0083414428 -0.035219423 0.019995987
-0.007608627 -0.036140978 0.020161301
-0.0065874453 -0.035760418 0.020535201
-0.0056645358 -0.035875391 0.020983368
-0.0047163409 -0.035844192 0.020905405
-0.0038200049 -0.036290046 0.020766646
-0.0027520224 -0.034858949 0.021121114
-0.0019112935 -0.036314577 0.021305412
-0.00093833893 -0.035656881 0.021113575
0 -0.036069427 0.021195084
0.00093785115 -0.035638344 0.021404386
0.0018643435 -0.035422526 0.021232545
0.0028079958 -0.035567947 0.021130025
0.003798299 -0.03608384 0.021257252
0.0046053752 -0.035000853 0.021033287
0.0057241623 -0.036253028 0.020942241
0.0065823244 -0.035732619 0.020259202
0.0074169599 -0.035230558 0.019915402
0.0086064329 -0.036338273 0.018805444
0.0093012461 -0.035344735 0.01552552
0.010797246 -0.037299577 0.0057771504
-0.013148165 -0.034748722 0.0061407089
-0.012121309 -0.034499109 0.015097082
-0.011507182 -0.035480477 0.017854214
-0.010409552 -0.035013948 0.01897499
-0.0093693696 -0.034666669 0.019984454
-0.0084866993 -0.034889765 0.02008909
-0.0076509379 -0.035385586 0.020338982
-0.006568566 -0.034719564 0.02051881
-0.0057196836 -0.03527138 0.021043658
-0.0047315094 -0.035013169 0.020921767
-0.0037797047 -0.034962267 0.020926654
-0.0028994097 -0.035759389 0.021035641
-0.0018826064 -0.03482822 0.021291345
-0.00094186084 -0.03484885 0.021072626
0 -0.034393236 0.021094561
0.00094222662 -0.034862384 0.021185189
0.0019035812 -0.035216253 0.021098942
0.0028282553 -0.034881815 0.020832986
0.0037233676 -0.034441151 0.020790607
0.0047510196 -0.035157543 0.020615816
0.0056607896 -0.034908202 0.020250201
0.0065314383 -0.034523319 0.019917786
0.0076099713 -0.035196118 0.019131184
0.008393432 -0.034506332 0.016918749
0.0097600911 -0.036112335 0.0086429119
-0.013488263 -0.034684103 0.0058790743
-0.012574195 -0.034820847 0.014930248
-0.011509124 -0.034527373 0.017492563
-0.010550788 -0.034529854 0.019309968
-0.0094544999 -0.0340362 0.019985616
-0.0084947431 -0.033978973 0.02022326
-0.0075517702 -0.033982966 0.020338982
-0.006588052 -0.033881411 0.020541072
-0.0056098197 -0.033658918 0.02110669
-0.0047054943 -0.033879559 0.020982862
-0.0037605995 -0.033845395 0.02105087
-0.0027674667 -0.0332096 0.021085531
-0.0018679318 -0.033622772 0.021515578
-0.00094616914 -0.034062091 0.021296382
0 -0.034011714 0.021233886
0.00094873004 -0.034154281 0.021396965
0.0018617128 -0.03351083 0.021120638
0.0027939889 -0.033527866 0.020773768
0.0038193741 -0.034374367 0.0206559
0.0047637187 -0.034298774 0.020250201
0.0056529832 -0.0339179 0.020061225
0.0065876255 -0.033879217 0.019452393
0.0074259485 -0.033416767 0.018670112
0.0084283603 -0.033713441 0.014935672
0.0097745052 -0.03518822 0.005340606
-0.013861528 -0.03465382 0.0052773952
-0.012371831 -0.033308774 0.013964564
-0.011416655 -0.033298574 0.016858786
-0.010697987 -0.034039047 0.018897265
-0.0092628459 -0.032419961 0.019960016
-0.0085186427 -0.033128053 0.020259351
-0.0076134927 -0.033309031 0.020342737
-0.0064973994 -0.032486998 0.020702064
-0.0057702418 -0.033659745 0.020981967
-0.0046599428 -0.032619599 0.020949036
-0.0037146462 -0.032503154 0.020953923
-0.0028357962 -0.033084288 0.021049768
-0.0018861705 -0.033007983 0.021529227
-0.00094004546 -0.032901593 0.021437079
0 -0.033418123 0.021233886
0.00093059504 -0.032570824 0.021359384
0.0018993401 -0.033238452 0.0210388
0.0028111038 -0.032796212 0.020705521
0.0037756136 -0.033036619 0.020522296
0.00469195 -0.032843649 0.020222664
0.0056370962 -0.032883063 0.019647926
0.0065541547 -0.032770772 0.017995596
0.0074740187 -0.032698832 0.015935093
0.0089246053 -0.034706797 0.0063450336
-0.01329746 -0.034777973 0.013818532
-0.012807188 -0.036287032 0.016461045
-0.011685792 -0.036119722 0.018724978
-0.0092265671 -0.031370327 0.019862652
-0.0084947599 -0.032091316 0.020177692
-0.0074391393 -0.031616341 0.020732045
-0.0066913324 -0.032500759 0.020897835
-0.0056182481 -0.031836741 0.02101022
-0.0047180033 -0.032082424 0.021201968
-0.0037654852 -0.032006625 0.021225154
-0.0027943633 -0.031669449 0.021428198
-0.0018811062 -0.031978805 0.021551669
-0.00093751348 -0.031875458 0.021533519
0 -0.031610224 0.021423072
0.00093062408 -0.031641219 0.021332413
0.0018725707 -0.031833701 0.020888299
0.002814848 -0.031901613 0.0206559
0.0037047637 -0.03149049 0.020243764
0.00470642 -0.032003656 0.019633502
0.0056284899 -0.031894773 0.01892668
0.0065325946 -0.031729743 0.016636997
0.0076834532 -0.032654677 0.01404503
-0.013986877 -0.03550515 0.008664608
-0.013229339 -0.036380686 0.014725804
-0.01056378 -0.031691339 0.016678244
-0.0096095512 -0.031711519 0.019575208
-0.0085180039 -0.031232679 0.019793868
-0.0075319749 -0.031069396 0.019927621
-0.0065647578 -0.030948143 0.020617932
-0.0055913199 -0.030752258 0.020926654
-0.0046626413 -0.030773431 0.021020949
-0.0038177611 -0.031496529 0.021225154
-0.0028485691 -0.031334262 0.021405011
-0.0018678614 -0.030819712 0.021500081
-0.00095070509 -0.031373266 0.021234572
0 -0.030371446 0.021134645
0.00095241214 -0.0314296 0.0210388
0.0019002949 -0.031354867 0.02077055
0.0028626521 -0.031489171 0.020532012
0.0037677712 -0.031084113 0.019957095
0.0046806247 -0.030892124 0.019090563
0.0055507207 -0.030528963 0.016816229
0.0065792659 -0.03101654 0.015508682
0.0078625893 -0.032433182 0.0055626929
-0.012234082 -0.030114664 0.0070001483
-0.011183465 -0.029822573 0.012927473
-0.010105439 -0.02939764 0.015060961
-0.0094829462 -0.030345429 0.018655449
-0.0082444353 -0.029313549 0.019332439
-0.0076437723 -0.030575089 0.019739091
-0.0065648765 -0.030010864 0.020539433
-0.0056155622 -0.029949667 0.020925105
-0.0047428883 -0.030354485 0.021298736
-0.0037432103 -0.029945683 0.021291345
-0.0028014341 -0.029881964 0.021591663
-0.0018930123 -0.030288197 0.021341473
-0.00093231059 -0.029833939 0.02134791
0 -0.030048626 0.021271348
0.0009402968 -0.030089498 0.021052808
0.0018665546 -0.029864874 0.02077055
0.002833439 -0.030223349 0.020239651
0.0037697891 -0.030158313 0.019827902
0.0046883305 -0.030005315 0.018418074
0.005711752 -0.030462677 0.016153365
0.0069497409 -0.031770244 0.0085628033
-0.010785103 -0.027861515 0.0088304579
-0.01109629 -0.031271365 0.013628542
-0.0092246616 -0.028596452 0.017571658
-0.0084403623 -0.029072359 0.018688083
-0.0075531635 -0.029268509 0.019679129
-0.0066784457 -0.029575974 0.020574868
-0.0056269672 -0.029072663 0.020963103
-0.0046408414 -0.028773217 0.021141291
-0.0037503268 -0.029065032 0.021231383
-0.0028437125 -0.029385028 0.021502584
-0.0018670651 -0.02893951 0.021321028
-0.00093250495 -0.028907655 0.021237344
0 -0.02965042 0.021076322
0.00093335839 -0.02893411 0.020775437
0.0018937653 -0.029353362 0.020716041
0.0027897644 -0.028827565 0.019908428
0.0037517899 -0.029076371 0.018858075
0.0047167307 -0.02924373 0.016661972
0.0056053894 -0.02896118 0.014582813
-0.011976968 -0.029942421 0.0081913471
-0.010129774 -0.027626658 0.012960464
-0.0092734741 -0.027820423 0.016354918
-0.0086159203 -0.028719734 0.017786652
-0.0074049863 -0.027768699 0.018815905
-0.0066631176 -0.028556218 0.019664228
-0.0055896975 -0.027948488 0.020585835
-0.0047103558 -0.028262133 0.020851642
-0.0037757044 -0.028317783 0.021033466
-0.0028137369 -0.028137369 0.021412909
-0.0018789015 -0.028183524 0.021105409
-0.00094561616 -0.028368484 0.020938426
0 -0.028172906 0.020977259
0.00095445488 -0.028633645 0.020657361
0.0018681734 -0.0280226 0.020583868
0.0028040451 -0.02804045 0.019801319
0.0038015489 -0.028511617 0.018046916
0.0046609845 -0.027965907 0.015494585
0.005914072 -0.02957036 0.0060885549
-0.011806568 -0.028532539 0.0075243115
-0.011155896 -0.029410999 0.012576669
-0.0094172787 -0.027310109 0.014742792
-0.0083257826 -0.026827522 0.017237037
-0.0076516746 -0.027737319 0.018291891
-0.0065244613 -0.027029911 0.0193865
-0.0056299213 -0.027211288 0.020359993
-0.0046957238 -0.027235199 0.020539224
-0.0037225529 -0.026988508 0.020749062
-0.0028013012 -0.027079245 0.02106902
-0.0019029154 -0.027592273 0.020685762
-0.00093293708 -0.027055176 0.020685762
0 -0.027260303 0.020550251
0.00094799232 -0.027491776 0.020162046
0.0018619557 -0.026998358 0.019767165
0.0028440885 -0.027492857 0.018809319
0.0037327923 -0.027062744 0.016981781
0.0047642905 -0.027632885 0.013607502
-0.011777941 -0.027481861 0.0081285238
-0.010739585 -0.027337126 0.012863159
-0.0097651174 -0.027342329 0.014621198
-0.008937194 -0.027804602 0.016206205
-0.0075555779 -0.026444523 0.017573386
-0.0064757899 -0.02590316 0.018328935
-0.0056492616 -0.026363222 0.019388288
-0.0046795411 -0.02620543 0.020139784
-0.0037890815 -0.02652357 0.02013579
-0.0028682018 -0.026769884 0.02004832
-0.0018632847 -0.026085986 0.019725263
-0.00093823351 -0.026270539 0.019663304
0 -0.026280858 0.019500911
0.00092720188 -0.025961652 0.018562794
0.0018770589 -0.026278824 0.017591119
0.0028367536 -0.026476368 0.016412407
0.0036915692 -0.025840985 0.01494652
-0.01281921 -0.026624514 0.0068928897
-0.011701 -0.026327251 0.010039896
-0.010401675 -0.025531383 0.012981921
-0.0096138725 -0.025957456 0.014484912
-0.0087632164 -0.026289651 0.016045094
-0.0080019804 -0.027006684 0.017317951
-0.0068967054 -0.026601579 0.017864197
-0.0055863005 -0.025138352 0.018847108
-0.0046133627 -0.024912158 0.019773602
-0.0037597781 -0.025378501 0.019773602
-0.0027906434 -0.02511579 0.019819498
-0.0018669177 -0.025203388 0.019087255
-0.00093450362 -0.025231598 0.019298524
0 -0.024849927 0.018342555
0.00094181683 -0.025429053 0.017205745
0.0018667958 -0.025201743 0.016732037
0.002802161 -0.02521945 0.01494652
0.0039652688 -0.026765566 0.0056036413
-0.012719951 -0.025439901 0.0070638061
-0.01139083 -0.024680132 0.010172576
-0.010871858 -0.02569712 0.012792557
-0.0094126388 -0.024472861 0.013872534
-0.0084658451 -0.024456887 0.014664173
-0.0075733615 -0.024613425 0.015734464
-0.0067528198 -0.025081903 0.016789675
-0.0059071821 -0.02559779 0.017878145
-0.0048055234 -0.024988722 0.018299758
-0.0037655549 -0.024476107 0.018149316
-0.0027768801 -0.024066294 0.018149316
-0.0018873572 -0.024535645 0.017060935
-0.00092796551 -0.024127103 0.017060935
0 -0.024694391 0.016635001
0.000944175 -0.024548549 0.015553772
0.0018711479 -0.024324922 0.013107508
0.0028483588 -0.024685776 0.0064361095
-0.013609057 -0.024301888 0.005361557
-0.01248208 -0.024003999 0.0077904165
-0.011783005 -0.024547927 0.0098948479
-0.010628331 -0.024155298 0.012764931
-0.0093557462 -0.023389366 0.013661712
-0.0087101497 -0.024194861 0.014065653
-0.007531737 -0.023536678 0.014168024
-0.0066208579 -0.023645921 0.0156385
-0.0057505555 -0.023960648 0.016751617
-0.0048721097 -0.024360549 0.017151535
-0.0038332115 -0.023957571 0.016600728
-0.0028448105 -0.023706755 0.016732037
-0.0018675665 -0.02334458 0.016349256
-0.00093823997 -0.023456 0.015894532
0 -0.02354138 0.013842762
0.00093909301 -0.023477325 0.0083979964
-0.01329745 -0.022795627 0.006146878
-0.012561619 -0.023190683 0.009234041
-0.011458856 -0.022917712 0.010654092
-0.010700998 -0.023347631 0.012438655
-0.0095497472 -0.022919394 0.013311446
-0.0083973808 -0.022393014 0.013595492
-0.0074759428 -0.022427829 0.013571084
-0.0067187208 -0.023035614 0.013715059
-0.0057353782 -0.022941513 0.013603121
-0.0047077583 -0.02259724 0.013606727
-0.0038937647 -0.023362588 0.013490021
-0.0029136245 -0.023308996 0.013534755
-0.0019570692 -0.02348483 0.013173223
-0.00092791364 -0.022269927 0.012279838
0 -0.02233872 0.0077031553
-0.013637883 -0.022405092 0.006706059
-0.012525501 -0.022160502 0.0096902251
-0.011363415 -0.02177988 0.011887789
-0.010428597 -0.021805249 0.012479573
-0.0094263526 -0.021680612 0.013309121
-0.0086705899 -0.022158176 0.013595492
-0.007646204 -0.021982837 0.013484657
-0.0066626002 -0.0218914 0.013490826
-0.0056814277 -0.021778805 0.012692511
-0.0049034227 -0.022555744 0.012640506
-0.0038261109 -0.022000138 0.012055844
-0.0029509724 -0.022624122 0.011888951
-0.0020213209 -0.023245189 0.0097784102
-0.0010074411 -0.023171144 0.0067777634
-0.014595408 -0.021406598 0.0051074326
-0.01328611 -0.020878173 0.0088635385
-0.012322312 -0.020853143 0.010659665
-0.011419165 -0.020935137 0.0117881
-0.010635769 -0.021271538 0.012643278
-0.0093674734 -0.020608442 0.013484657
-0.0084745251 -0.020715505 0.013292819
-0.0076785008 -0.021115877 0.013049036
-0.0066993907 -0.021055227 0.012595773
-0.0057579163 -0.02111236 0.011699647
