ply
format ascii 1.0
comment PCL generated
element vertex 1274
property float x
property float y
property float z
element camera 0
property float view_px
property float view_py
property float view_pz
property float x_axisx
property float x_axisy
property float x_axisz
property float y_axisx
property float y_axisy
property float y_axisz
property float z_axisx
property float z_axisy
property float z_axisz
property float focal
property float scalex
property float scaley
property float centerx
property float centery
property int viewportx
property int viewporty
property float k1
property float k2
end_header
0.0056671021 -0.070838779 0.01450181
0.0066096517 -0.070817702 0.013650507
0.0076895752 -0.072089769 0.011462212
0.0084016332 -0.070013613 0.0082701147
0.0099145193 -0.074358895 0.0064429641
0.01087053 -0.074117251 0.0058484972
-0.00098461704 -0.072861664 0.0052157342
0 -0.071427673 0.0079207718
0.00095241627 -0.070478804 0.009593457
0.0019066373 -0.070545584 0.014407873
0.0028744931 -0.070904166 0.014993101
0.0037990382 -0.070282206 0.016139299
0.0046763704 -0.069210283 0.016090184
0.0057528787 -0.07095217 0.015613288
0.0066650705 -0.070459321 0.014720887
0.0076421387 -0.070689783 0.013567865
0.008476139 -0.069692701 0.010421962
0.0095643625 -0.070776284 0.0074689984
0.010747258 -0.072299734 0.006144315
0.011748223 -0.072447374 0.0052269995
-0.0009727896 -0.071013637 0.0055429041
0 -0.071004987 0.0092649162
0.00097175647 -0.070938222 0.013598531
0.0019381474 -0.070742376 0.015321732
0.002878919 -0.070053697 0.016400993
0.0037035744 -0.067590237 0.016812444
0.0047453991 -0.06928283 0.016615897
0.0057023047 -0.069378041 0.016374379
0.0065439637 -0.068244196 0.016013414
0.0076704603 -0.069992952 0.01439169
0.0085566379 -0.069403842 0.012131333
0.0096465405 -0.070419744 0.0086084902
0.011159103 -0.074055865 0.006755501
0.011741917 -0.071429998 0.0055770576
-0.0020017503 -0.072063014 0.0050997734
-0.00097067631 -0.069888696 0.0087130964
0 -0.068204045 0.011319369
0.00094873417 -0.06830886 0.014580339
0.001913983 -0.068903387 0.016760141
0.0027908832 -0.066981196 0.017174542
0.0038098332 -0.068576999 0.017587781
0.0047852537 -0.068907648 0.017573267
0.0055185789 -0.066222951 0.017147303
0.0065873996 -0.067756109 0.017122656
0.007577694 -0.068199247 0.016082495
0.0082220221 -0.065776177 0.014340669
0.0099365003 -0.071542807 0.010569453
0.01104974 -0.072325572 0.0076418519
0.011594829 -0.069568969 0.0060539842
-0.00095129077 -0.067541644 0.0057453513
0 -0.069898576 0.010269433
0.00095670129 -0.067925796 0.013989896
0.0018979437 -0.067377001 0.016300201
0.0028581785 -0.06764356 0.016925484
0.003800852 -0.067465119 0.017382592
0.0046451599 -0.065961272 0.017433465
0.0056370986 -0.066705666 0.017138779
0.0065529477 -0.066465609 0.016718537
0.0075436803 -0.066950165 0.015232652
0.0087646153 -0.069143079 0.01283145
0.0095573878 -0.067857452 0.0099440813
0.010884114 -0.070252009 0.0074742734
0.011691891 -0.069177017 0.0054822564
-0.00096436165 -0.067505315 0.008936733
0 -0.068739861 0.011566132
0.0009427761 -0.065994322 0.014777392
0.0018957495 -0.066351235 0.017034888
0.0028545246 -0.066605575 0.017207593
0.0036882379 -0.064544164 0.01782909
0.0048536728 -0.067951426 0.01778999
0.0056046057 -0.06538707 0.017559558
0.0065997248 -0.06599725 0.017314911
0.0075966618 -0.066470787 0.01595673
0.0084850639 -0.065994941 0.014597356
0.0092589166 -0.064812414 0.010666668
0.011080738 -0.070513792 0.0076224804
0.011635029 -0.067871004 0.0060293972
-0.00099494646 -0.068651304 0.009856075
0 -0.064979754 0.013034403
0.00096186268 -0.066368528 0.016615689
0.0018842991 -0.06500832 0.017548412
0.0028428244 -0.065384962 0.01806125
0.0037597006 -0.064854831 0.018432796
0.004690676 -0.06473133 0.018449485
0.0055348515 -0.063650794 0.018197
0.0066779773 -0.065825775 0.017985255
0.0077478746 -0.06682542 0.017191023
0.0087016709 -0.066712812 0.015581995
0.0099622114 -0.068739258 0.01378718
0.010957048 -0.068730578 0.01049155
0.011767735 -0.067664474 0.0067447424
0.012886465 -0.068397388 0.0052306354
-0.0019499602 -0.066298649 0.005603075
-0.00097048795 -0.065993182 0.011275649
0 -0.065794855 0.015232265
0.00095254421 -0.064773008 0.017766058
0.0018784287 -0.063866578 0.018389583
0.0029115742 -0.065995686 0.018902659
0.0037491755 -0.063735984 0.019058466
0.0046440666 -0.063159302 0.019513637
0.0057062497 -0.064670831 0.019096583
0.0065327114 -0.063460626 0.01865238
0.0076402673 -0.064942271 0.01775822
0.0087125171 -0.065827906 0.016572118
0.0096125063 -0.065365046 0.014072686
0.010373082 -0.06412451 0.011370867
0.011707803 -0.066344224 0.0071726441
0.012536258 -0.065574266 0.0054354966
-0.0019870389 -0.066565804 0.0097954571
-0.00096603046 -0.064724043 0.014858127
0 -0.065743268 0.017375052
0.00093037996 -0.062335458 0.018592477
0.0018791151 -0.062950358 0.019767493
0.002834142 -0.063295841 0.020619988
0.0036863056 -0.061745618 0.020805329
0.0046968726 -0.062938094 0.020716071
0.0057327747 -0.064015985 0.020464987
0.0065495837 -0.062688872 0.019848496
0.0075418213 -0.063162751 0.019325346
0.0083735269 -0.062336251 0.017840534
0.0094456831 -0.063286081 0.015232652
0.010979594 -0.066875704 0.012861609
0.012797817 -0.071454473 0.0095362365
0.013337563 -0.068739749 0.007133007
-0.0020034302 -0.066113196 0.011420727
-0.0010542354 -0.069579534 0.01674816
0 -0.066451356 0.018208563
0.0010203435 -0.067342676 0.019369036
0.0020404248 -0.067334019 0.02055347
0.0028877275 -0.063530006 0.020792186
0.0038577639 -0.063653104 0.020795465
0.0048987311 -0.064663254 0.020747989
0.0056953905 -0.062649295 0.020546496
0.006949699 -0.065525733 0.020531088
0.0079246219 -0.065378129 0.019788027
0.0091205835 -0.066884279 0.019340634
0.010284847 -0.067879982 0.016040862
0.01127044 -0.067622639 0.014835179
0.012586812 -0.069227464 0.0099380016
0.014698007 -0.074620649 0.0079804361
0.015452703 -0.072848462 0.0055276155
-0.0028325035 -0.061370909 0.0055242479
-0.0018640226 -0.060580734 0.013320893
-0.00094108767 -0.061170697 0.017939389
0 -0.061756328 0.019369036
0.00093445426 -0.060739528 0.020710945
0.0018312819 -0.059516665 0.020870149
0.0028387106 -0.061505396 0.021062762
0.0038272191 -0.06219231 0.020952851
0.0046363235 -0.060272209 0.0211474
0.0056240042 -0.060926713 0.021019578
0.0066015366 -0.061299983 0.020808697
0.0073461505 -0.059687473 0.020492166
0.0084808217 -0.061250377 0.019868314
0.0094031105 -0.061120216 0.017972469
0.010540821 -0.062286668 0.015877903
0.01125007 -0.060937878 0.011646926
0.012143138 -0.06071569 0.0095086098
0.013413313 -0.062276095 0.0065726042
-0.0028482734 -0.060763165 0.0102323
-0.0018824448 -0.060238235 0.016905665
-0.00094263116 -0.060328394 0.018576562
0 -0.060344156 0.020518303
0.00092096278 -0.058941618 0.021205187
0.0018974177 -0.060717367 0.021430731
0.0027987906 -0.059707534 0.021595508
0.003696582 -0.059145313 0.021539807
0.0046552895 -0.059587702 0.021545947
0.0056467718 -0.060232233 0.021459699
0.0064696325 -0.059150927 0.02134639
0.0074368478 -0.059494782 0.020714164
0.0083709406 -0.059526686 0.020492166
0.0092274789 -0.059055865 0.019574791
0.010600654 -0.061676536 0.017669171
0.011126944 -0.059343699 0.014991999
0.011831024 -0.05824504 0.010599285
0.01269575 -0.058037713 0.0085493326
0.013583115 -0.057954624 0.006421864
-0.0028267757 -0.059362289 0.014956236
-0.0018453435 -0.05812832 0.017925411
-0.00095731817 -0.060311045 0.019286662
0 -0.059118509 0.020696014
0.0009478826 -0.059716601 0.021292359
0.0018835725 -0.059332535 0.021237254
0.0027997477 -0.058794703 0.021356344
0.0037506905 -0.059073377 0.021280408
0.0046870145 -0.059056383 0.021466911
0.0056165555 -0.05897383 0.021384776
0.0066005271 -0.059404746 0.021267116
0.0075669657 -0.059589855 0.021012604
0.0083765471 -0.058635831 0.020270795
0.0096213501 -0.060614504 0.019972235
0.010201921 -0.058429182 0.019101769
0.011726582 -0.061564557 0.016906232
0.013588684 -0.065852851 0.014274597
0.013925802 -0.062666111 0.010427713
0.013776722 -0.057862233 0.0084702373
0.014842657 -0.058442965 0.0064369142
0.016969116 -0.062885553 0.0052653551
-0.002814387 -0.058163997 0.016957968
-0.0018871244 -0.058500856 0.018648207
-0.00092122675 -0.057116058 0.020356536
0 -0.058429863 0.021056294
0.00094606722 -0.058656167 0.021808416
0.0018731214 -0.058066759 0.021849304
0.0027893644 -0.057646867 0.021922499
0.0037154187 -0.057588991 0.02184698
0.0046149213 -0.057225022 0.02184698
0.0056732269 -0.058623347 0.021805614
0.0065861121 -0.058334138 0.021466911
0.0074248565 -0.057542637 0.021365553
0.0085064573 -0.058600042 0.02123946
0.0096981702 -0.060128659 0.021103978
0.010465781 -0.058988947 0.02007547
0.011593854 -0.05990158 0.018700838
0.011932503 -0.056908865 0.016303897
0.013167901 -0.05831499 0.012969166
0.014872875 -0.061474547 0.010047704
0.014659797 -0.056806713 0.0075747967
0.016436866 -0.059946217 0.0060933828
0.017500378 -0.060279083 0.0051780641
-0.0037487964 -0.057169147 0.007348448
-0.0028598837 -0.058150966 0.018550575
-0.0018580277 -0.056669842 0.01958409
-0.00094637665 -0.057728976 0.020768732
0 -0.058056019 0.021457195
0.00092591706 -0.05648094 0.022133291
0.0019002859 -0.057958722 0.021883309
0.0028184175 -0.057307821 0.022316694
0.0037417333 -0.05706143 0.021986276
0.0047430978 -0.057865791 0.021986276
0.005598003 -0.056913029 0.021945775
0.0065337219 -0.056936719 0.021766424
0.007524719 -0.057375982 0.021766424
0.0085979979 -0.05827532 0.021431029
0.0090858713 -0.055423815 0.021615386
0.010217438 -0.056660336 0.021035582
0.012719451 -0.064657211 0.019695044
0.01440099 -0.067573875 0.018500566
0.015460595 -0.067364022 0.015085191
0.014695057 -0.0597599 0.011701733
0.01503071 -0.057304583 0.0096987486
0.016776225 -0.06019704 0.0074344873
0.017400889 -0.05896968 0.0055298507
0.018612798 -0.059756879 0.0052907467
-0.0037721724 -0.056582585 0.017497301
-0.0027778544 -0.055557087 0.019501895
-0.0018719065 -0.056157194 0.02053836
-0.00094868999 -0.0569214 0.021175176
0 -0.055744994 0.022006929
0.00093255157 -0.055953097 0.022482723
0.0018621626 -0.055864878 0.022257596
0.0028224315 -0.056448627 0.022540182
0.0037631597 -0.056447398 0.022321254
0.0046992507 -0.056391004 0.022213906
0.0056341579 -0.056341581 0.022097498
0.0066436725 -0.056945764 0.021684378
0.0074925586 -0.05619419 0.021851718
0.0085569033 -0.057046022 0.021561772
0.0093932617 -0.05635957 0.021684378
0.010291733 -0.056136724 0.021549463
0.011200974 -0.056004871 0.02068007
0.013913027 -0.064213969 0.0188604
0.014210873 -0.060903743 0.016345918
0.013878103 -0.055512413 0.013174593
0.014658761 -0.054970354 0.0099592209
0.016209465 -0.057209875 0.0076078773
0.017550945 -0.058503147 0.0058182478
0.01853889 -0.058543861 0.0053087771
-0.0037465645 -0.055261824 0.017305166
-0.0028713772 -0.056470416 0.019431949
-0.0019068506 -0.056252092 0.020455092
-0.0009371721 -0.055293154 0.021251589
0 -0.054660868 0.021940708
0.00093534484 -0.055185348 0.022298962
0.0018466753 -0.054476924 0.022213906
0.0028465278 -0.055981714 0.022321254
0.003746077 -0.055254634 0.022355288
0.0046605403 -0.054994375 0.022213906
0.0056268037 -0.055330239 0.022138357
0.0064914441 -0.054713599 0.02169013
0.0073346552 -0.054093082 0.02185747
0.0085700005 -0.056181114 0.021879703
0.0094504198 -0.055757474 0.022052199
0.010345221 -0.055488005 0.022238225
0.011413465 -0.056116201 0.021392226
0.011942615 -0.054201096 0.019890815
0.012624143 -0.053201746 0.017312884
0.014016733 -0.055132478 0.014664441
0.01479881 -0.054570612 0.011480093
0.016806262 -0.058327615 0.0087829828
0.017559646 -0.057556614 0.0071461201
0.018626679 -0.057840738 0.0058984458
0.019638715 -0.05793421 0.0051880777
-0.0037048461 -0.053720269 0.017305166
-0.0028167046 -0.05445629 0.019393444
-0.0019021975 -0.055163726 0.020687997
-0.00093137159 -0.054019552 0.021434456
0 -0.054662727 0.022077292
0.00093758485 -0.054379921 0.022282511
0.0018864819 -0.054707974 0.02210325
0.0028039129 -0.054208983 0.022138357
0.0037318906 -0.054112412 0.022132605
0.0047283825 -0.054849233 0.021991789
0.0056753261 -0.054861486 0.021891505
0.0066043185 -0.054721493 0.021350026
0.0076063927 -0.055146348 0.021481961
0.0083857356 -0.054041404 0.021436065
0.0091476431 -0.053056329 0.021558046
0.010405357 -0.054864608 0.021858901
0.011401629 -0.055107877 0.020754427
0.012129194 -0.054114867 0.019640893
0.01328611 -0.055042457 0.017704368
0.014054871 -0.0543455 0.015874684
0.015130649 -0.054848604 0.013888091
0.016515404 -0.056346674 0.0097222924
0.017321786 -0.055814646 0.0078843534
0.018565239 -0.056672834 0.007474333
0.019645844 -0.056972947 0.0060525537
0.020617843 -0.056944516 0.0054544508
-0.003780788 -0.053876232 0.017298639
-0.0028471667 -0.054096166 0.019260108
-0.0018738947 -0.053406 0.020600706
-0.00093567674 -0.053333577 0.021679521
0 -0.053142756 0.022051752
0.00093049859 -0.053038418 0.022291034
0.0018565935 -0.052912913 0.022260904
0.0027817397 -0.052853055 0.022311926
0.003780301 -0.053869288 0.022274733
0.004691435 -0.053482361 0.02199167
0.0055509503 -0.052734029 0.021840304
0.0065500359 -0.053336006 0.021328151
0.0077188066 -0.054996498 0.021429509
0.0083449911 -0.05285161 0.021436065
0.0095786061 -0.054598056 0.021558046
0.010125814 -0.052470129 0.021862626
0.011091588 -0.052685041 0.020970106
0.012291993 -0.053895663 0.019890815
0.013135838 -0.053481627 0.018539399
0.01398061 -0.05312632 0.01673463
0.014882966 -0.053020567 0.015163451
0.016314398 -0.05470122 0.012517393
0.017619452 -0.055794928 0.0095951855
0.018411178 -0.055233531 0.0081864595
0.019433811 -0.055386361 0.006391108
0.020494884 -0.05562897 0.0059228539
0.021571003 -0.055888508 0.0053262711
-0.0037031951 -0.051844731 0.017304331
-0.0028077976 -0.052412223 0.019488752
-0.0018600747 -0.052082092 0.020735055
-0.00094070821 -0.052679662 0.021524549
0 -0.052403457 0.022001624
0.00094619166 -0.05298673 0.022274733
0.0018330235 -0.051324658 0.022274733
0.0028604369 -0.053394821 0.022236735
0.0038472188 -0.053861063 0.022092342
0.0046486636 -0.052065033 0.021883041
0.0056447294 -0.052684139 0.021838695
0.0066863126 -0.053490501 0.021305501
0.0073974845 -0.051782392 0.021238953
0.008273487 -0.051479474 0.021354645
0.0093792053 -0.052523546 0.021663517
0.010234717 -0.052104015 0.021900326
0.011264465 -0.052567501 0.021434814
0.011978978 -0.051601753 0.020770669
0.013125254 -0.052501015 0.01927188
0.013947343 -0.052070078 0.018042624
0.014667282 -0.051335484 0.01552242
0.016634803 -0.054796997 0.014023572
0.01720275 -0.053519666 0.012242854
0.018130928 -0.053438526 0.0097979903
0.019419987 -0.054375961 0.0080488026
0.020287443 -0.054099847 0.00737077
0.020841129 -0.053050146 0.0059025288
0.021902921 -0.053328849 0.0059570372
0.023028495 -0.053733155 0.0057478547
0.024016289 -0.053796489 0.0054603219
0.025047276 -0.053947978 0.0050153136
-0.0037284126 -0.051265672 0.018196315
-0.0028559612 -0.052359287 0.020129263
-0.0018669572 -0.051341321 0.021011978
-0.00093671668 -0.05151942 0.021304965
0 -0.052035678 0.021715105
0.00091989926 -0.05059446 0.022079647
0.0018920611 -0.052031681 0.022002429
0.0028113595 -0.051541589 0.022041649
0.003721101 -0.051165141 0.022047192
0.0046966369 -0.051663004 0.021795779
0.0056485659 -0.051778518 0.021615624
0.0067573264 -0.053093277 0.021304816
0.0075453832 -0.051874511 0.021304816
0.0084316358 -0.051526662 0.02143386
0.0094331065 -0.051882088 0.021795094
0.010456139 -0.052280698 0.021781683
0.011471656 -0.052578423 0.02162075
0.012160647 -0.051448889 0.02143386
0.013446223 -0.052824449 0.020513475
0.013928598 -0.051071525 0.018463522
0.015297997 -0.052586865 0.016828537
0.016593978 -0.053686395 0.015519023
0.018968459 -0.057959184 0.014463365
0.020903461 -0.060510021 0.012553245
0.021682084 -0.059625726 0.010295033
0.021523785 -0.056371819 0.0087412596
0.024395518 -0.060988799 0.0077472329
0.025383309 -0.060699213 0.0075878203
0.025551729 -0.058556046 0.0073273778
0.027825577 -0.061216269 0.0063500702
0.027991785 -0.059213389 0.0063500702
0.029485459 -0.060062971 0.0071218312
0.030973952 -0.060841691 0.0070387125
0.030215122 -0.057304543 0.0069032609
0.031756233 -0.058219764 0.0056259632
-0.0037935851 -0.051213399 0.01812157
-0.0027845583 -0.050122049 0.019914627
-0.001888698 -0.050994843 0.02108109
-0.0009325358 -0.050356932 0.021562934
0 -0.050663125 0.021854192
0.00093564362 -0.050524756 0.022274733
0.0018603011 -0.05022813 0.022274733
0.002819292 -0.050747257 0.022304386
0.0037567802 -0.050716534 0.022062331
0.004705288 -0.05081711 0.021887928
0.0055686473 -0.050117824 0.021728516
0.0065382887 -0.050438225 0.021628767
0.0076006562 -0.05130443 0.021628767
0.0084055318 -0.050433192 0.021580815
0.0095497072 -0.051568415 0.021702111
0.01029895 -0.050558478 0.021897048
0.011475618 -0.051640283 0.021728724
0.012189457 -0.050633132 0.021613687
0.01300749 -0.050171744 0.020868748
0.013990142 -0.050364513 0.019312114
0.01479083 -0.04991905 0.017974406
0.015988955 -0.050788447 0.016845405
0.01781741 -0.053452231 0.015728384
0.018640874 -0.052979324 0.014324367
0.018644573 -0.050340351 0.012724519
0.020381967 -0.052410774 0.011141688
0.021462124 -0.052679759 0.010021061
0.021559987 -0.050619103 0.010015041
0.023705805 -0.053338062 0.010134548
0.024286853 -0.052459601 0.010255009
0.024634546 -0.051164057 0.010230839
0.02593076 -0.051861521 0.0098787546
0.026929118 -0.051934727 0.0090942085
0.027334245 -0.050898246 0.0081695914
0.030329833 -0.054593701 0.0073429346
0.029585175 -0.051535465 0.0056967139
-0.0049302438 -0.052260581 0.0057162941
-0.0037673346 -0.049917184 0.018299758
-0.0028016127 -0.049495161 0.019914627
-0.0018773999 -0.049751095 0.020997226
-0.00094029325 -0.049835544 0.021562934
0 -0.049648356 0.021787375
0.00094285287 -0.049971201 0.022095799
0.0018552167 -0.049163241 0.022095799
0.0028039897 -0.049537148 0.022050738
0.0037619718 -0.049846128 0.021966785
0.0046063545 -0.048827361 0.021669418
0.0056170123 -0.049616944 0.021542519
0.0065887449 -0.049886212 0.021401703
0.0073673204 -0.048808496 0.021543831
0.0085630687 -0.05042696 0.021410376
0.0093744397 -0.049684532 0.021549314
0.010138986 -0.048851479 0.021711558
0.011387404 -0.050294369 0.021520972
0.012217406 -0.049809426 0.021307886
0.013058041 -0.049434014 0.020564198
0.014210563 -0.050210655 0.019893944
0.014609877 -0.048395216 0.017900884
0.016206639 -0.050526578 0.017612964
0.017486861 -0.051489092 0.017218769
0.017980855 -0.050157119 0.015491754
0.019162297 -0.050780091 0.014455616
0.0209358 -0.052837972 0.013501614
0.020908352 -0.05037012 0.012258738
0.022082372 -0.050885465 0.012402624
0.022316396 -0.04928204 0.012215346
0.023858557 -0.050580136 0.012298465
0.025899991 -0.052796137 0.012298465
0.026354866 -0.051733624 0.011787713
0.02648028 -0.050123386 0.010434538
0.028302517 -0.051725291 0.0091834664
0.028698798 -0.050701208 0.0086983442
0.029301347 -0.050095849 0.0072888434
0.030983241 -0.051315993 0.0060526431
-0.0049187439 -0.051154938 0.0068019927
-0.0036674349 -0.047676653 0.018393457
-0.0028458957 -0.04932886 0.019832462
-0.0018704765 -0.048632391 0.020699441
-0.00093390624 -0.048563123 0.02134335
0 -0.049060855 0.021710813
0.00091842539 -0.047758121 0.022274733
0.0018821784 -0.048936639 0.022337466
0.0027883013 -0.048330557 0.021960288
0.0037395938 -0.048614722 0.02191782
0.0047084894 -0.048968289 0.02157715
0.0057735825 -0.050037712 0.021382958
0.0065047969 -0.048321348 0.021333396
0.0076189521 -0.049523186 0.021431923
0.0083306693 -0.048132755 0.021434486
0.0094976388 -0.049387719 0.02148807
0.010383051 -0.049083516 0.021799356
0.011433616 -0.049545668 0.02147305
0.012063146 -0.048252583 0.021434486
0.013125574 -0.048752133 0.021273464
0.014045398 -0.048690714 0.020391285
0.01524437 -0.049544204 0.019645244
0.016484296 -0.050422553 0.017960608
0.016825167 -0.048606038 0.017622828
0.01823673 -0.049911052 0.017385066
0.019531459 -0.050781794 0.015480697
0.019996708 -0.049515657 0.014362067
0.02075869 -0.049065996 0.013982087
0.021790195 -0.049264789 0.014223307
0.022583876 -0.048931733 0.014564693
0.025016174 -0.052033644 0.014647812
0.024853587 -0.049707174 0.014564693
0.025345521 -0.048813596 0.013938695
0.027112219 -0.050351262 0.012089193
0.027058361 -0.048518438 0.010622412
0.028126677 -0.048752908 0.0094199479
0.029695436 -0.049811698 0.0080086291
0.029994136 -0.048740469 0.006513238
0.033210333 -0.052331433 0.0050573647
-0.0048904526 -0.049882613 0.0066807866
-0.0037718001 -0.04809045 0.018370122
-0.0028221463 -0.047976486 0.019663572
-0.0018884088 -0.048154425 0.020426542
-0.00092921895 -0.047390167 0.021262467
0 -0.047523983 0.021504462
0.00094634655 -0.048263676 0.022041649
0.0018592739 -0.047411483 0.022015601
0.0027663764 -0.047028396 0.02153343
0.0038125145 -0.048609558 0.021781147
0.0046847537 -0.047784489 0.021349192
0.0055655628 -0.047307283 0.021316558
0.0066153277 -0.048197389 0.021199882
0.0075673331 -0.048241749 0.021189511
0.0084003694 -0.047602095 0.021173716
0.0093758442 -0.047816806 0.021386832
0.010320795 -0.047850959 0.021784723
0.011318922 -0.048105419 0.021333396
0.012299225 -0.048250806 0.021186024
0.013071083 -0.047616087 0.021284759
0.014056455 -0.047791947 0.02086547
0.014651041 -0.046700194 0.020226419
0.015751477 -0.047254432 0.019657642
0.017592503 -0.049845424 0.019501716
0.01839189 -0.049367707 0.017856032
0.018718328 -0.047731739 0.016438097
0.020062054 -0.048722129 0.01551494
0.021193992 -0.049131528 0.015317529
0.021276703 -0.047178775 0.015411913
0.023118477 -0.049126767 0.015559196
0.023807367 -0.048567031 0.015668303
0.024420474 -0.047901697 0.015650004
0.02572499 -0.048591647 0.01554963
0.026181182 -0.047687154 0.014389187
0.026794082 -0.047120627 0.012808204
0.028903658 -0.049136218 0.010242194
0.029128626 -0.047921289 0.0088083446
0.031071458 -0.049520139 0.0075911582
0.03210013 -0.049609289 0.0062382221
-0.0049465438 -0.049465436 0.0066284835
-0.0037554679 -0.046943348 0.018064022
-0.0028344004 -0.047240008 0.019507498
-0.0018871916 -0.047179788 0.02021262
-0.00094189786 -0.047094893 0.021091431
0 -0.046936553 0.021429271
0.00094031298 -0.047015648 0.021697551
0.0018808523 -0.047021307 0.021841228
0.0028128226 -0.046880379 0.021583229
0.003764489 -0.047056112 0.021587431
0.0047304695 -0.047304694 0.021412998
0.0055801896 -0.046501581 0.021302223
0.0066447728 -0.047462665 0.021135956
0.0072577447 -0.045360904 0.021288931
0.0086493772 -0.048052099 0.021173716
0.0092308177 -0.046154086 0.021354467
0.01026919 -0.046678137 0.021728873
0.011388392 -0.047451634 0.021310389
0.012039457 -0.046305604 0.021176875
0.012996885 -0.046417449 0.021150202
0.014105803 -0.047019344 0.020394862
0.014423962 -0.04507488 0.020008653
0.016413048 -0.048273668 0.019826829
0.017207824 -0.047799509 0.020008862
0.017575188 -0.046250492 0.019017458
0.018931419 -0.047328547 0.01765132
0.0199905 -0.047596429 0.016362399
0.020583443 -0.046780553 0.015650004
0.022252278 -0.048374519 0.016193122
0.023406215 -0.048762951 0.01673615
0.023804361 -0.047608722 0.017173201
0.024679858 -0.047461264 0.017173201
0.025174927 -0.046620235 0.01645568
0.025959849 -0.046356872 0.015526146
0.027585706 -0.047561564 0.01404649
0.027935399 -0.046558999 0.012385994
0.02909096 -0.046920903 0.009332031
0.030972376 -0.048394337 0.0076754987
0.031023659 -0.047005545 0.0065129101
-0.0048925872 -0.047947355 0.0067588091
-0.0037995803 -0.046544857 0.018299758
-0.0028374947 -0.046345748 0.019771665
-0.0018630417 -0.045644522 0.020421177
-0.00092701853 -0.04542391 0.021119267
0 -0.045767561 0.021444649
0.00091824034 -0.044993777 0.022041649
0.0018631637 -0.045647509 0.022076666
0.0028027485 -0.045778222 0.021681726
0.0037293574 -0.045684628 0.021655977
0.0047277026 -0.046331484 0.02151233
0.0056170924 -0.045872923 0.021356374
0.0064813308 -0.045369316 0.021432608
0.0075321975 -0.04613471 0.021455914
0.0082105398 -0.04470183 0.021446496
0.0092581799 -0.04536508 0.02146408
0.010303985 -0.04589957 0.021649361
0.011191646 -0.04569922 0.021395594
0.01219383 -0.045961358 0.021423191
0.013183593 -0.046142574 0.021189511
0.014119431 -0.046123475 0.02111128
0.014670412 -0.044928137 0.020850033
0.016246287 -0.046827532 0.020255595
0.016475502 -0.044849977 0.020394862
0.018188247 -0.046906535 0.020103633
0.018971503 -0.046480183 0.019053638
0.019526344 -0.04556147 0.017424792
0.020698486 -0.046101175 0.016947687
0.021885455 -0.046625532 0.017182767
0.022300601 -0.045530394 0.017537862
0.024120621 -0.047276419 0.017712206
0.024749324 -0.046642959 0.017704576
0.025685491 -0.046614412 0.017319798
0.026138464 -0.045742314 0.016889334
0.026705725 -0.045123465 0.015189588
0.027867746 -0.045517318 0.014238268
0.03001401 -0.047441497 0.011752129
0.029891104 -0.045770753 0.0078260601
0.032214381 -0.047833476 0.0070681572
0.033138242 -0.047758058 0.0055031776
-0.004853833 -0.046596799 0.0067746341
-0.0037588163 -0.045105796 0.018299758
-0.0028072866 -0.044916585 0.019829512
-0.0018643599 -0.044744637 0.020436019
-0.00093913852 -0.04507865 0.021078467
0 -0.044557922 0.021271884
0.00094925839 -0.045564402 0.022115529
0.0019005717 -0.045613721 0.021796167
0.0028403886 -0.045446217 0.021287799
0.0037310184 -0.044772219 0.021466047
0.0046227998 -0.044378877 0.021356374
0.0056634746 -0.045307796 0.021314651
0.0066122385 -0.045341063 0.021432608
0.0074692075 -0.044815246 0.02154094
0.0084731737 -0.04519026 0.021454662
0.0093988422 -0.045114443 0.021454662
0.010375588 -0.045275293 0.021597356
0.011110341 -0.044441365 0.021364123
0.012095463 -0.044660173 0.021489769
0.01325253 -0.045437247 0.021487981
0.013899039 -0.044476923 0.021128625
0.014966505 -0.044899516 0.020853758
0.015983108 -0.045128778 0.020394862
0.017195504 -0.04585468 0.020842403
0.018117476 -0.045770466 0.020001024
0.018417217 -0.044201318 0.018990725
0.019880235 -0.045440536 0.017555445
0.020790646 -0.045361407 0.017497718
0.020965515 -0.043754116 0.01759845
0.023045175 -0.04609035 0.018144041
0.023662521 -0.045432039 0.01857096
0.024707928 -0.045614637 0.01857096
0.025181029 -0.044766277 0.017965823
0.026524678 -0.045470878 0.017001361
0.026811171 -0.044377111 0.016131938
0.028243093 -0.045188949 0.014567196
0.029358003 -0.045457553 0.012231112
0.030767759 -0.046151638 0.0081753731
0.032031622 -0.04659145 0.0070061386
0.032983027 -0.046564274 0.0059836805
-0.0048878938 -0.045946203 0.0091234744
-0.0037975211 -0.044620872 0.017971933
-0.0027777893 -0.0435187 0.019410551
-0.0018977344 -0.044596758 0.02033475
-0.00093887764 -0.044127248 0.020927101
0 -0.044603046 0.021271884
0.00094265759 -0.044304907 0.022115529
0.0018702999 -0.043952048 0.021787316
0.0028044917 -0.043937039 0.021311432
0.0038392202 -0.045110837 0.021314651
0.004671785 -0.04391478 0.021314651
0.0056202146 -0.044025015 0.021301895
0.006567745 -0.044097718 0.021236032
0.0073759318 -0.043333597 0.021389544
0.0083616646 -0.043666471 0.021364123
0.0094261002 -0.044302668 0.021336824
0.010142784 -0.043337345 0.02146408
0.011249802 -0.044061724 0.021364123
0.012051671 -0.043571424 0.02148059
0.013078284 -0.043905668 0.02143696
0.013967314 -0.043764252 0.021120161
0.014886306 -0.043728523 0.020932555
0.016105009 -0.044525616 0.020853192
0.017153554 -0.044789836 0.021072567
0.017366238 -0.042958591 0.020012558
0.019395974 -0.04558054 0.019395024
0.019736692 -0.044172596 0.018302798
0.020201014 -0.043156713 0.017971843
0.021687446 -0.044317827 0.018024057
0.022226876 -0.043527629 0.018200636
0.02391158 -0.044953771 0.018600136
0.025058657 -0.045298342 0.018709362
0.025272533 -0.043992929 0.018485874
0.026343709 -0.044219796 0.01786834
0.027285013 -0.044220541 0.016466051
0.02840491 -0.044501025 0.015047789
0.028498244 -0.043207012 0.0139727
0.030916994 -0.045409333 0.0091812015
0.031828593 -0.045331635 0.0069369376
0.033145662 -0.045819003 0.0058561862
-0.0047460468 -0.043663628 0.015227675
-0.0037391484 -0.043000206 0.018230915
-0.0028448438 -0.04362094 0.019526154
-0.0018781797 -0.043198135 0.02033475
-0.00091977173 -0.0423095 0.020989478
0 -0.043355733 0.021566689
0.00093092892 -0.04282273 0.021930754
0.0018895199 -0.043458957 0.021555454
0.0028338698 -0.043452669 0.021236032
0.0037467082 -0.043087143 0.021301895
0.004657344 -0.042847566 0.02128002
0.0056021539 -0.042949848 0.02126047
0.0064830952 -0.042603195 0.02123341
0.0075805583 -0.04358821 0.021312028
0.0084272847 -0.04307279 0.021277755
0.0093265241 -0.042902011 0.021219671
0.01036711 -0.043353371 0.021432608
0.011166891 -0.042806413 0.021277755
0.01215435 -0.043007702 0.021406174
0.013135968 -0.043161035 0.021476358
0.014007177 -0.042955346 0.021267623
0.015011674 -0.043158561 0.020947337
0.01586749 -0.042935561 0.020780444
0.016596217 -0.042412557 0.021017522
0.018010292 -0.043603864 0.020135313
0.018687969 -0.042982329 0.019337982
0.01952908 -0.042777985 0.018393666
0.020935761 -0.043774772 0.018064499
0.021426532 -0.042853065 0.018169731
0.022119686 -0.042396065 0.018349558
0.023781719 -0.043758363 0.018699467
0.02465946 -0.043628279 0.018663019
0.024777545 -0.042213596 0.018327892
0.026385643 -0.043347839 0.01786834
0.02670417 -0.042358339 0.016578197
0.027800508 -0.042627446 0.015561044
0.029596105 -0.043916803 0.014023453
0.030301742 -0.043558754 0.0096390843
0.031587254 -0.044030719 0.0069316626
0.033029266 -0.044686656 0.0058884025
-0.004734931 -0.042614378 0.015825421
-0.0037919532 -0.042659473 0.018347472
-0.0028107378 -0.042161066 0.019883424
-0.0018601973 -0.041854441 0.020559222
-0.00094669126 -0.042601109 0.021177232
0 -0.041522976 0.021403402
0.00094406959 -0.042483132 0.021852791
0.0018819027 -0.042342812 0.021514893
0.0027902522 -0.041853786 0.021313816
0.003718548 -0.041833665 0.021313816
0.0046931691 -0.042238522 0.02128002
0.0055994205 -0.041995652 0.02126047
0.0066220048 -0.042570032 0.021219671
0.0074949889 -0.042159311 0.021333665
0.0083705205 -0.041852601 0.021219671
0.0092177419 -0.041479837 0.021314114
0.010366796 -0.042409617 0.021517634
0.011399103 -0.042746637 0.021336824
0.012212598 -0.042274378 0.021431267
0.013247318 -0.042580664 0.021476358
0.013933631 -0.04180089 0.021108538
0.015174973 -0.042679612 0.020763159
0.015758263 -0.041713051 0.020314097
0.016832504 -0.042081263 0.020312697
0.018322181 -0.043394636 0.019626886
0.018891998 -0.042506997 0.018999219
0.019822555 -0.042476904 0.018253088
0.020355208 -0.041635655 0.018011183
0.021012861 -0.041112117 0.01809147
0.02328168 -0.043653153 0.018393666
0.023546731 -0.042384118 0.018723756
0.024691941 -0.042736053 0.018558562
0.024845732 -0.041409556 0.01836592
0.026178777 -0.042073034 0.017818004
0.026786203 -0.0415648 0.016700476
0.029021718 -0.043532576 0.015859157
0.028677505 -0.041628636 0.014370531
0.031010702 -0.0436088 0.010710865
0.031782839 -0.043340236 0.0070061386
0.033205967 -0.043949075 0.0058829486
-0.0047109816 -0.04145664 0.01613763
-0.0037020687 -0.040722758 0.018447846
-0.0028203286 -0.041364819 0.019949228
-0.0018878087 -0.04153179 0.020895123
-0.00093007245 -0.040923189 0.021620244
0 -0.042001802 0.021890193
0.000950986 -0.041843385 0.022422969
0.00182891 -0.040236019 0.022096694
0.0027992933 -0.041056301 0.021846116
0.0038027905 -0.041830696 0.021590412
0.0046311142 -0.040753804 0.021404862
0.0055853119 -0.040958952 0.021301895
0.0066734003 -0.041947089 0.021239221
0.0074093668 -0.040751517 0.021345526
0.0087487511 -0.042771675 0.021423191
0.0093648983 -0.041205551 0.021517634
0.010292667 -0.041170668 0.02151233
0.011339454 -0.041577999 0.021395326
0.012114705 -0.041003618 0.021517634
0.012902187 -0.040549729 0.021517634
0.014093049 -0.04133961 0.021121949
0.01462952 -0.040231179 0.020835489
0.015773203 -0.040824763 0.020384163
0.016686061 -0.040788151 0.02023688
0.017532345 -0.04060122 0.019599825
0.019166563 -0.042166438 0.019174457
0.020091632 -0.042096753 0.018274128
0.020532576 -0.041065153 0.017853469
0.02155247 -0.041230813 0.017681539
0.022629393 -0.041487221 0.017836243
0.023475887 -0.04131756 0.01834631
0.024662578 -0.04173667 0.018136352
0.02559706 -0.04171373 0.017819643
0.025997283 -0.040852875 0.016871929
0.027437713 -0.041629631 0.016462177
0.027991939 -0.041054845 0.014775395
0.029407606 -0.041739825 0.012872994
0.031048523 -0.042691719 0.0095204115
0.031140031 -0.04152004 0.0068879724
0.032948691 -0.042639479 0.0057020485
-0.0047653471 -0.040981986 0.01688236
-0.0037419028 -0.040225454 0.018808872
-0.0028244141 -0.04048327 0.020370543
-0.001872119 -0.040250558 0.020624727
-0.00093442202 -0.040180147 0.021410257
0 -0.040308744 0.021738827
0.0009257028 -0.039805222 0.02188611
0.0018988253 -0.040824745 0.021714926
0.0027929526 -0.04003232 0.021469295
0.0037004426 -0.03977976 0.021459162
0.0047284612 -0.040664762 0.02128002
0.0056644473 -0.040595207 0.021201402
0.0065088207 -0.039982755 0.021160603
0.0075436449 -0.040547092 0.021283716
0.0083764251 -0.040020701 0.02115047
0.0090792254 -0.03904067 0.021346241
0.010469223 -0.040925145 0.021433711
0.011273148 -0.040395446 0.021316946
0.012057928 -0.039883919 0.02135399
0.013476614 -0.041392457 0.021181583
0.013976369 -0.04006559 0.021078885
0.0151962 -0.040839791 0.020471781
0.015661702 -0.039614893 0.020403534
0.01681361 -0.040165845 0.02023688
0.01802801 -0.040800232 0.019221187
0.018685888 -0.040174659 0.01886636
0.019659873 -0.04025593 0.018102348
0.020758044 -0.040572543 0.017392844
0.021369526 -0.039951723 0.017151386
0.022664946 -0.040608026 0.017558873
0.023843052 -0.041010048 0.01781702
0.024481187 -0.040488116 0.017620027
0.025485924 -0.040588696 0.016953379
0.027007788 -0.041476246 0.016551167
0.027053842 -0.040114317 0.015941113
0.028255215 -0.040499143 0.014255017
0.030397631 -0.042164456 0.010942519
0.030314006 -0.040734444 0.0090829134
0.031982943 -0.041674744 0.0067840815
0.033007249 -0.041744459 0.0056138337
-0.0046825027 -0.039333023 0.017613292
-0.0037609842 -0.039490335 0.018677443
-0.0028253731 -0.039555222 0.020009398
-0.0018583681 -0.039025728 0.020598114
-0.00094937539 -0.039873764 0.021114856
0 -0.039287437 0.021543503
0.00093449751 -0.039248895 0.021678507
0.001912391 -0.040160213 0.021371007
0.0027328159 -0.038259424 0.021462798
0.0037768367 -0.039656784 0.021361738
0.0046757958 -0.039276686 0.021443844
0.0055683278 -0.038978297 0.021433711
0.0065853116 -0.039511871 0.02135399
0.0075471764 -0.039622676 0.021377206
0.008505485 -0.03969226 0.021232396
0.0095615266 -0.040158413 0.021539778
0.010287689 -0.039280269 0.021573305
0.011269666 -0.039443832 0.021298349
0.012127834 -0.039182235 0.021418154
0.013179082 -0.039537247 0.021218628
0.014029599 -0.039282877 0.021030933
0.01499855 -0.039371192 0.020360172
0.015741691 -0.038891237 0.020549357
0.016877465 -0.039380752 0.019516408
0.017950756 -0.039680619 0.018713444
0.018929774 -0.039752528 0.018387765
0.020327667 -0.040655334 0.017428786
0.021003481 -0.040097557 0.017091483
0.021813696 -0.039833706 0.017035156
0.02263316 -0.039608032 0.01703763
0.023609126 -0.03966333 0.017271072
0.024752092 -0.039984148 0.016940236
0.025353272 -0.039438423 0.016466051
0.025805799 -0.038708698 0.015948802
0.027003117 -0.039107963 0.014793694
0.02826295 -0.03956813 0.012886018
0.029749811 -0.040306196 0.010430396
0.030057739 -0.039450783 0.0078879893
0.032177959 -0.040953767 0.0065181255
0.032718558 -0.040417045 0.0052002072
-0.0047804038 -0.039199311 0.017681658
-0.0037505324 -0.038442958 0.018834442
-0.0028133267 -0.038448799 0.020188093
-0.0018857021 -0.038656894 0.020680428
-0.00092340878 -0.03785976 0.021159589
0 -0.03822238 0.021637797
0.00094853062 -0.038889755 0.021661997
0.001835215 -0.037621908 0.021276444
0.0028049124 -0.038333803 0.021507353
0.0037812621 -0.038757939 0.021422237
0.004603894 -0.037751928 0.021326751
0.0056653204 -0.038713023 0.020859569
0.0066720061 -0.039078895 0.02084583
0.0074994517 -0.038434692 0.021404415
0.0084781321 -0.038622603 0.02099973
0.0093500977 -0.038335402 0.021157235
0.010305889 -0.038412858 0.021364659
0.011329745 -0.038709961 0.021220684
0.012141417 -0.038292162 0.021248043
0.013082801 -0.038313918 0.020957708
0.014323119 -0.039149858 0.020430148
0.014783255 -0.03788209 0.019587219
0.016125027 -0.038889773 0.019379079
0.017147349 -0.039057851 0.018559933
0.017505391 -0.03777479 0.018175066
0.018926298 -0.03879891 0.017902285
0.020182082 -0.039403114 0.016796231
0.020830892 -0.038821209 0.016542494
0.021857304 -0.03896302 0.016261101
0.022522353 -0.038475685 0.016193151
0.023583483 -0.038676914 0.016261101
0.024945328 -0.039336864 0.015951604
0.02551941 -0.038751695 0.015864462
0.025899712 -0.037924577 0.014864594
0.027364921 -0.038688336 0.013641596
0.027905684 -0.038137767 0.010936022
0.029284595 -0.038731236 0.0091632903
0.030624015 -0.039237019 0.0068845153
0.031670902 -0.039348695 0.0060470104
-0.0046862192 -0.037489753 0.017258674
-0.0037517636 -0.037517637 0.018870562
-0.0028248595 -0.037664793 0.020463377
-0.0018693669 -0.037387338 0.020726025
-0.00093414343 -0.037365738 0.021118969
0 -0.037314631 0.02191183
0.00094225316 -0.037690125 0.021588147
0.0019093663 -0.038187329 0.021440983
0.0027968723 -0.037291631 0.021451563
0.0037500563 -0.037500564 0.021259934
0.0047871261 -0.038297009 0.021256417
0.0056565586 -0.037710391 0.021172285
0.0064304788 -0.036745593 0.021064222
0.0076321322 -0.038160659 0.021391183
0.0083185034 -0.036971129 0.020920902
0.0093354983 -0.037341993 0.020912051
0.010408504 -0.037849106 0.021003902
0.011093546 -0.036978487 0.02139926
0.012292777 -0.03782393 0.021420598
0.013276504 -0.037932869 0.020540833
0.01390547 -0.037081253 0.019759536
0.015036756 -0.03759189 0.018723696
0.016341528 -0.038450655 0.018317103
0.016961006 -0.037691124 0.017531842
0.018022729 -0.037942585 0.017188638
0.019022577 -0.038045153 0.016757667
0.019936629 -0.037974529 0.016243279
0.021274311 -0.038680565 0.015482217
0.021976382 -0.038219795 0.015073925
0.022687491 -0.037812486 0.014956832
0.023262536 -0.037220057 0.014875203
0.024739744 -0.038061146 0.014714837
0.025785591 -0.038200878 0.014028609
0.026650883 -0.03807269 0.01344645
0.027052836 -0.037314255 0.011282146
0.028170271 -0.037560362 0.0096960366
0.029358186 -0.037881531 0.0079820156
0.030188428 -0.037735537 0.0061560273
0.032100152 -0.038909275 0.0055716932
-0.0046901675 -0.036583304 0.017039478
-0.0037883352 -0.036936268 0.019094884
-0.0028221069 -0.036687393 0.020502746
-0.0018638732 -0.036345527 0.020776838
-0.00093554286 -0.036486171 0.021270782
0 -0.03621757 0.022027999
0.00094042096 -0.036676418 0.021516681
0.0018696048 -0.036457293 0.021189243
0.0028184485 -0.036639828 0.021563381
0.003720046 -0.036270447 0.020981252
0.0046444391 -0.036226626 0.021178097
0.0054743667 -0.035583384 0.021024257
0.006663898 -0.037127431 0.020880312
0.0075828498 -0.036966391 0.020880312
0.0085560391 -0.037076168 0.020887852
0.0094653061 -0.036914691 0.020804852
0.010300525 -0.036520042 0.021077991
0.011180545 -0.036336772 0.020899564
0.012465453 -0.037396356 0.020804852
0.013070858 -0.036411677 0.020116538
0.014034299 -0.036489177 0.01948002
0.014975295 -0.036502283 0.018283188
0.015774978 -0.036189657 0.017481029
0.017049765 -0.036941156 0.016679406
0.017890748 -0.036723115 0.016447335
0.018932387 -0.036918156 0.015851766
0.020157786 -0.037435886 0.015117407
0.021278262 -0.037720557 0.013738126
0.021935711 -0.037195336 0.01373592
0.022826195 -0.037092566 0.013388574
0.023324842 -0.036386754 0.012286186
0.024787126 -0.037180688 0.012706816
0.026509898 -0.038292076 0.012511939
0.026661016 -0.037134986 0.011397481
0.027812889 -0.037403543 0.0097999871
0.028867006 -0.037527107 0.0079820156
0.029637011 -0.037285272 0.006259501
0.031281423 -0.038124237 0.0051293075
-0.0046889042 -0.035635673 0.01702112
-0.003770496 -0.035819709 0.018807411
-0.0028288485 -0.035832081 0.020240337
-0.0018782456 -0.035686668 0.020736277
-0.00094193645 -0.035793584 0.021166444
0 -0.036145888 0.021999896
0.00092754641 -0.035246763 0.021410257
0.0018765384 -0.035654228 0.021202058
0.0027781797 -0.035190277 0.021473318
0.0037212304 -0.03535169 0.021121532
0.0045867795 -0.034859523 0.021121532
0.0057534268 -0.036438368 0.020955533
0.0065208711 -0.035399012 0.020901799
0.0073403912 -0.034866858 0.020899415
0.0085526677 -0.036111262 0.020947397
0.0093335519 -0.035467498 0.020813048
0.0103601 -0.035789438 0.020947397
0.011413747 -0.036143534 0.020813048
0.012184085 -0.03561502 0.020069569
0.013130454 -0.035639804 0.01969707
0.014268147 -0.036145974 0.018227279
0.014567681 -0.034598242 0.017581224
0.016619911 -0.03715039 0.0167436
0.017308366 -0.036539882 0.015861541
0.017623264 -0.035246529 0.015498072
0.019519275 -0.037086621 0.014428169
0.020213861 -0.036577463 0.011948615
0.021120012 -0.036480021 0.010774761
0.02211892 -0.036544304 0.010657817
0.022497309 -0.035620738 0.01011169
0.023701932 -0.036026936 0.010142595
0.025332689 -0.037024699 0.010378659
0.026258335 -0.036956172 0.0094865561
0.026730597 -0.036277238 0.0091940463
0.027877884 -0.036529642 0.0083906651
0.028801067 -0.036481351 0.0061769187
0.029195748 -0.035788335 0.0052626431
-0.0046988912 -0.034771793 0.016987294
-0.0037662911 -0.034838192 0.018650413
-0.0028326453 -0.034935959 0.019973636
-0.0018950449 -0.035058331 0.020660758
-0.00093631219 -0.034643553 0.021108747
0 -0.034918897 0.021999896
0.00094771432 -0.035065427 0.021410257
0.0018921182 -0.035004187 0.021386325
0.0028617291 -0.035294659 0.021383137
0.0037065395 -0.034285489 0.020955533
0.0047083409 -0.034841724 0.021077991
0.0057310234 -0.035341311 0.020947397
0.0065766741 -0.03476242 0.020884961
0.00759973 -0.035148751 0.020324737
0.0085744793 -0.035250638 0.020445138
0.0092748897 -0.034317095 0.020319492
0.010453132 -0.035160534 0.02038902
0.011202937 -0.034542389 0.020059317
0.012163297 -0.034618612 0.01969707
0.013360591 -0.035310131 0.018630385
0.014054055 -0.034666669 0.017811835
0.015229343 -0.035217859 0.017101258
0.016640363 -0.036217261 0.015788466
0.017110741 -0.035172079 0.014362007
0.018593879 -0.036209133 0.01372087
0.019520188 -0.036112349 0.011378735
0.01982866 -0.034936212 0.0097077191
0.021723753 -0.036535401 0.0077851713
0.022469996 -0.036147386 0.0078415275
0.023168903 -0.035718724 0.0077130497
0.024736101 -0.03660943 0.0081184804
0.024633056 -0.035054736 0.008333087
0.02628585 -0.036021352 0.0080976486
0.027505094 -0.036346018 0.0071958899
0.02801854 -0.035747793 0.0058275461
-0.0046887286 -0.033758845 0.016768277
-0.0037854749 -0.034069274 0.018686175
-0.0027806363 -0.033367638 0.019824922
-0.0018640297 -0.033552535 0.020539999
-0.00094714476 -0.03409721 0.021033645
0 -0.033484913 0.021644741
0.00094933977 -0.03417623 0.021035016
0.0018821993 -0.033879586 0.021345705
0.0028025857 -0.03363103 0.021243364
0.0038025468 -0.034222919 0.020978779
0.0047612805 -0.034281217 0.020964235
0.0056350599 -0.033810358 0.020724595
0.0066123758 -0.034006506 0.020398498
0.007432776 -0.033447493 0.020203918
0.0083038257 -0.033215303 0.02031967
0.0095008248 -0.034202967 0.020195216
0.010381166 -0.033974726 0.020139098
0.011303618 -0.033910852 0.019755632
0.012231953 -0.033873104 0.018635094
0.013101811 -0.033690371 0.018161029
0.013981547 -0.033555713 0.017160714
0.014898561 -0.03352176 0.016173512
0.016553011 -0.035053432 0.014284074
0.017508358 -0.035016716 0.011842847
0.018404854 -0.034872353 0.01072526
0.019273741 -0.034692734 0.0088566542
0.020742472 -0.035558522 0.0074611306
0.021239765 -0.034755979 0.0056779683
0.022227298 -0.034790553 0.0055235624
0.02325896 -0.034888443 0.0050754249
0.024180271 -0.034819588 0.0051476359
0.025221007 -0.034921393 0.0057905912
0.026774747 -0.035699662 0.0051088035
0.027165584 -0.034927178 0.0056364238
-0.0047023138 -0.032916196 0.016362697
-0.0037919532 -0.033179589 0.01864168
-0.0028131157 -0.032819681 0.019346982
-0.0018832439 -0.032956768 0.020259947
-0.00095095928 -0.033283573 0.020715237
0 -0.033430923 0.021108747
0.00093315582 -0.032660455 0.020663649
0.0018617826 -0.032581195 0.020888627
0.0028235414 -0.032941319 0.021028399
0.0037517145 -0.0328275 0.020588994
0.0046898159 -0.032828711 0.02063489
0.0056813559 -0.033141244 0.020431936
0.0065477537 -0.032738768 0.020276457
0.0074476846 -0.03258362 0.020100147
0.0084791435 -0.032974444 0.020081371
0.0093237981 -0.032633293 0.0200046
0.010210587 -0.032488231 0.019924492
0.011335477 -0.03306181 0.018987387
0.012402727 -0.033391956 0.018073797
0.012966658 -0.032416645 0.017233819
0.014220602 -0.033181403 0.016427487
0.014963452 -0.03273255 0.015172839
0.016729629 -0.034443352 0.011810243
0.018065916 -0.035128172 0.0095565915
0.018705193 -0.034456935 0.007882148
0.019930862 -0.03487901 0.0059481561
-0.0046552103 -0.031655431 0.015519351
-0.0037740206 -0.032079175 0.018588483
-0.0028411858 -0.032200105 0.019106358
-0.0018737901 -0.031854432 0.01965791
-0.00091702811 -0.031178955 0.020366758
0 -0.032140899 0.02088666
0.00093342864 -0.031736575 0.02049005
0.0018628158 -0.03166787 0.020452619
0.0028753884 -0.032587737 0.02047202
0.0037174444 -0.031598277 0.020285159
0.0047146501 -0.032059621 0.020294368
0.0056771371 -0.032170445 0.020246357
0.0066140965 -0.032125611 0.020100206
0.007509361 -0.031914786 0.019841731
0.0084739141 -0.032012567 0.019905269
0.0092997067 -0.031619001 0.019909173
0.010419401 -0.032205421 0.019596159
0.011380429 -0.032244548 0.01846385
0.012329421 -0.032246176 0.017756015
0.013045546 -0.031682041 0.016660362
0.013830798 -0.031349808 0.01532653
0.015362573 -0.032645468 0.011979103
0.016811898 -0.033623796 0.0086422563
0.017543444 -0.033137619 0.0064176917
-0.004724517 -0.03118181 0.015378684
-0.0037870356 -0.031243043 0.018437415
-0.0028555191 -0.031410709 0.019083172
-0.0019055381 -0.031441379 0.019637257
-0.00093393942 -0.030820001 0.01991269
0 -0.030932762 0.020666629
0.00094125536 -0.031061426 0.020389706
0.0019032212 -0.03140315 0.020316541
0.0028083327 -0.030891659 0.020436525
0.0037987407 -0.031339608 0.020294368
0.0046166154 -0.030469662 0.020841956
0.0057043387 -0.031373862 0.02053237
0.0065673185 -0.030960215 0.020179719
0.0074529778 -0.030743534 0.019924551
0.0084494334 -0.030981256 0.019989461
0.0095662782 -0.031568717 0.020000756
0.010312389 -0.030937167 0.019502074
0.011296603 -0.031065658 0.018704832
0.012286937 -0.031189919 0.017587364
0.013099608 -0.030877648 0.015557319
0.014174758 -0.031184468 0.012858123
0.015326861 -0.031611651 0.01002118
0.016501604 -0.032032523 0.0055764019
-0.0046535842 -0.029782938 0.0069468617
-0.0037307746 -0.029846197 0.016868621
-0.0027921069 -0.029782474 0.018421441
-0.0019517803 -0.031228485 0.018360883
-0.00094773434 -0.030327499 0.019102693
0 -0.029933525 0.019879639
0.00094383262 -0.030202644 0.019624949
0.0018483876 -0.029574202 0.019559652
0.0028491672 -0.030391118 0.019773453
0.0037344322 -0.029875457 0.019867748
0.0046520596 -0.029773183 0.020033568
0.0056294608 -0.030023791 0.020033509
0.0066403989 -0.030356109 0.019755632
0.0075296718 -0.030118687 0.019125104
0.0085027944 -0.030232159 0.019313812
0.0093092546 -0.029789614 0.019592345
0.01043793 -0.030364888 0.018271238
0.011503744 -0.030676652 0.018071264
0.012463002 -0.030678157 0.01657936
0.01312629 -0.03000295 0.014390498
0.014049817 -0.029972943 0.011366397
0.015214062 -0.030428125 0.0057520866
-0.0046451082 -0.02879967 0.0059552193
-0.0037825122 -0.02931447 0.014172792
-0.0028356661 -0.029301884 0.016757607
-0.001840121 -0.028521875 0.017820984
-0.00093616254 -0.02902104 0.018256754
0 -0.029918768 0.019201189
0.000932383 -0.028903874 0.018625021
0.0019005927 -0.029459188 0.019201189
0.0028208531 -0.029148815 0.019245148
0.0037849504 -0.029333366 0.019156456
0.0047414177 -0.029396789 0.01946336
0.0055980752 -0.028923389 0.019040674
0.006471518 -0.028659578 0.018884838
0.0077355201 -0.02997514 0.01832065
0.008510571 -0.029314188 0.018370599
0.0093733575 -0.02905741 0.018271238
0.01048698 -0.029554216 0.017903835
0.011522876 -0.029767429 0.017066866
0.012281749 -0.029287249 0.014377236
0.013845459 -0.030657802 0.011757702
0.013879112 -0.028683497 0.0068145692
-0.0037847254 -0.028385442 0.0065785348
-0.002928393 -0.02928393 0.014983952
-0.0018941406 -0.028412109 0.015969098
-0.00095475966 -0.028642789 0.017452508
0 -0.028273484 0.018295139
0.00095110224 -0.028533068 0.01815936
0.0018815836 -0.028223755 0.018262029
0.0027842957 -0.027842956 0.01818803
0.0037722909 -0.028292183 0.018332392
0.0047207172 -0.028324302 0.01862067
0.0056028627 -0.028014313 0.018291593
0.0065359818 -0.028011352 0.017964482
