ply
format ascii 1.0
comment PCL generated
element vertex 1270
property float x
property float y
property float z
element camera 0
property float view_px
property float view_py
property float view_pz
property float x_axisx
property float x_axisy
property float x_axisz
property float y_axisx
property float y_axisy
property float y_axisz
property float z_axisx
property float z_axisy
property float z_axisz
property float focal
property float scalex
property float scaley
property float centerx
property float centery
property int viewportx
property int viewporty
property float k1
property float k2
end_header
-0.0042630136 -0.071405478 0.0058701038
-0.0030876433 -0.068957366 0.0056728721
-0.0019169553 -0.064218 0.005473882
-0.00094960444 -0.063623495 0.0054369569
0 -0.066819347 0.0056217909
0.00095246383 -0.06381508 0.0058287084
0.002165898 -0.072557583 0.0053548515
0.0030420169 -0.067938372 0.005235523
0.00488667 -0.06548138 0.0050797462
0.0058659934 -0.06550359 0.0050678849
0.0069447211 -0.066470906 0.005598098
0.0078498395 -0.065742403 0.0051816404
0.0087244082 -0.064948373 0.0051816404
0.0096165827 -0.064431109 0.0058358014
0.010978925 -0.066871636 0.0061748624
0.012144717 -0.067808002 0.0067314804
0.012687798 -0.065390959 0.0083651245
0.013832025 -0.066196121 0.0096818805
0.014085509 -0.062915273 0.011117339
0.015372265 -0.064371362 0.012094051
0.01648739 -0.06497971 0.012789279
0.017179659 -0.063946508 0.013996661
0.018380241 -0.064814538 0.015525579
0.019034183 -0.063764513 0.015661657
0.019192334 -0.061232686 0.015560359
0.020511176 -0.062465858 0.015400529
0.021560648 -0.062807105 0.014544427
0.022456897 -0.062692173 0.01290831
0.02678629 -0.07178726 0.0097109973
0.026988348 -0.069546893 0.0075864792
0.025712563 -0.063805252 0.0057381988
-0.01789825 -0.062172867 0.0050928891
-0.017443988 -0.06396129 0.0090251565
-0.016033309 -0.06224696 0.011776
-0.014946774 -0.061655443 0.012992293
-0.014310373 -0.062965639 0.014602363
-0.013269012 -0.062553912 0.015090585
-0.012315145 -0.062523045 0.015184879
-0.011487673 -0.063182198 0.015085608
-0.01027353 -0.061641179 0.014111251
-0.0095403073 -0.062966034 0.013239235
-0.0086267497 -0.063262835 0.012826651
-0.0076331007 -0.062973082 0.012088269
-0.0074019679 -0.069789983 0.011250108
-0.0059582209 -0.065540433 0.0092853606
-0.0054709548 -0.0722166 0.0084153712
-0.0040935962 -0.067544334 0.0078068078
-0.0027822212 -0.061208867 0.007941395
-0.0018190654 -0.060029157 0.0080495179
-0.00092098041 -0.060784709 0.0075798929
0 -0.060375273 0.0078167915
0.00092079787 -0.060772657 0.0074228048
0.0018460812 -0.060920682 0.0069121122
0.0031702938 -0.069746464 0.005849272
0.0040356726 -0.066588596 0.005430609
0.0048238952 -0.063675418 0.0062688589
0.0058738962 -0.064612858 0.0061598122
0.0069062607 -0.065116175 0.0065887868
0.0078993151 -0.065169349 0.0061598122
0.0087471968 -0.064146109 0.0061751008
0.0098207258 -0.064816795 0.0066157579
0.011477851 -0.06886711 0.0070828199
0.011646048 -0.064053267 0.0085516274
0.012629803 -0.064120539 0.0097282827
0.013505685 -0.063669659 0.011496902
0.014060467 -0.061866052 0.012396693
0.015004168 -0.061892193 0.014040858
0.015746001 -0.061131533 0.014977604
0.017227346 -0.063166931 0.015878975
0.017795473 -0.061815854 0.016811162
0.01854628 -0.061202724 0.016999304
0.019788848 -0.062193524 0.017048299
0.021083953 -0.06325186 0.016874522
0.020964799 -0.060159858 0.015660018
0.022427058 -0.061674409 0.015355766
0.022699058 -0.059925515 0.013268352
0.026034504 -0.066087589 0.010011792
0.028070619 -0.068617068 0.0076319873
0.0267225 -0.062988751 0.00560233
-0.018708419 -0.064002484 0.0052421093
-0.017480673 -0.063124657 0.0091022551
-0.016158851 -0.061783843 0.011636347
-0.015436585 -0.062711127 0.013415396
-0.014082764 -0.06102531 0.015032083
-0.01365428 -0.063394874 0.015456349
-0.012415938 -0.06207969 0.015719891
-0.011161015 -0.060455497 0.015719891
-0.010652572 -0.06294702 0.015306711
-0.0097419778 -0.06332285 0.015071839
-0.0084665846 -0.061147556 0.014111251
-0.0078324219 -0.063638426 0.013543278
-0.0067467801 -0.062648669 0.013194948
-0.0060811099 -0.065878689 0.013099194
-0.0053373403 -0.069385424 0.011451423
-0.0037315569 -0.060637802 0.011797935
-0.0027870445 -0.060385965 0.012472898
-0.001991577 -0.064726248 0.012558639
-0.001017767 -0.06615486 0.012803793
0 -0.066989712 0.012412369
0.00092337833 -0.060019594 0.011899322
0.0018288476 -0.059437547 0.01031065
0.0027877749 -0.06040179 0.007645309
0.0044157975 -0.071756706 0.0074228048
0.0049637081 -0.064528205 0.0075308681
0.0057569006 -0.062366426 0.0074568093
0.0069158752 -0.064218841 0.0076631904
0.0077019702 -0.062578507 0.0075036287
0.0089906128 -0.064932197 0.0076247454
0.01039416 -0.067562036 0.0090558231
0.01050067 -0.062049419 0.0097251534
0.011561031 -0.062622257 0.011248559
0.012495801 -0.062479004 0.012036443
0.013306879 -0.061781935 0.012526095
0.014418459 -0.062479991 0.013900042
0.014761367 -0.059968054 0.015155017
0.015945921 -0.060969695 0.016141325
0.017384375 -0.062776908 0.016730726
0.017426386 -0.059616584 0.017396182
0.019335726 -0.06284111 0.017398328
0.019895358 -0.06158087 0.017644554
0.020525817 -0.060644459 0.017554045
0.021752063 -0.061473221 0.016823947
0.021990305 -0.059557073 0.01659137
0.023443662 -0.060953524 0.015246183
0.024044393 -0.060110983 0.013072759
0.028143911 -0.067753859 0.0090942979
0.028263386 -0.06561143 0.0070019364
-0.017115587 -0.060855426 0.007471621
-0.016260557 -0.061216213 0.011261582
-0.015306596 -0.061226383 0.013321996
-0.014066662 -0.060017757 0.014975488
-0.013214379 -0.060408588 0.015673637
-0.012566509 -0.061865889 0.015809894
-0.011397068 -0.060784362 0.015911937
-0.010603332 -0.061692111 0.015779853
-0.0094039356 -0.06018519 0.015830159
-0.0087915417 -0.062517628 0.015779853
-0.0076077259 -0.060861807 0.015840828
-0.0067303432 -0.061534565 0.015722632
-0.0059838104 -0.063827313 0.015280515
-0.0047955746 -0.061383355 0.014896005
-0.0036736976 -0.058779161 0.015116215
-0.002888809 -0.061627928 0.016043156
-0.0019450143 -0.062240459 0.01728934
-0.00092534517 -0.059222091 0.017078161
0 -0.059946824 0.017234266
0.00095596077 -0.061181489 0.016945302
0.001881836 -0.060218751 0.016934186
0.0027651933 -0.058990791 0.015535384
0.0036724804 -0.058759686 0.012790561
0.0054495307 -0.06975399 0.011950314
0.0061474 -0.065572269 0.012597144
0.0066212877 -0.060537487 0.012327939
0.0083535537 -0.06682843 0.010571837
0.0091584716 -0.065126911 0.010597438
0.0098201307 -0.062848836 0.011762857
0.010776004 -0.062696755 0.012495965
0.011452553 -0.061080281 0.012710631
0.012475561 -0.06141815 0.013102561
0.013597602 -0.062160466 0.014278561
0.013902439 -0.059317075 0.015362442
0.015508997 -0.062035989 0.016159415
0.015985567 -0.060180955 0.017114729
0.016558494 -0.058874644 0.017644554
0.018252669 -0.061482672 0.019064426
0.018930156 -0.060576495 0.018988788
0.019458013 -0.059300609 0.019187361
0.020530276 -0.059724443 0.019021422
0.02154992 -0.059964996 0.017615587
0.022762107 -0.060698953 0.017004967
0.023497341 -0.060153194 0.016460121
0.024679726 -0.060750093 0.014375806
0.024914758 -0.059057206 0.010319561
0.03103715 -0.070942059 0.0079721808
0.029076649 -0.064169154 0.0055077076
-0.017862448 -0.062518567 0.0069497824
-0.016303256 -0.060417946 0.0099568665
-0.0154227 -0.060726881 0.013225287
-0.014361626 -0.060318831 0.014931232
-0.013117509 -0.059028793 0.015535891
-0.012250381 -0.059367228 0.015825331
-0.011613405 -0.060970377 0.015862405
-0.010379304 -0.059445105 0.016038626
-0.0095744915 -0.060319297 0.01688695
-0.0086991647 -0.06089415 0.016991019
-0.0074009323 -0.058282342 0.017555535
-0.0072528254 -0.065275431 0.017431498
-0.0057147965 -0.060005367 0.017806649
-0.0046024048 -0.057990298 0.017628044
-0.0038753566 -0.061036866 0.017614573
-0.0028032179 -0.058867574 0.019075751
-0.0021089292 -0.066431269 0.019468397
-0.0011378122 -0.07168217 0.02018249
0 -0.064782992 0.020149559
0.00098294648 -0.061925627 0.020485073
0.0018670147 -0.058810964 0.019925863
0.0028198359 -0.059216555 0.019106746
0.0037010191 -0.058291052 0.018587232
0.0047043627 -0.059274968 0.017660439
0.0063144704 -0.066301942 0.016534775
0.0078774299 -0.070896871 0.015839577
0.0078561865 -0.061867472 0.013522893
0.0087090237 -0.060963169 0.013028622
0.0097582769 -0.061477143 0.013498425
0.010521211 -0.060257845 0.014068127
0.011414799 -0.059927694 0.015117973
0.012765296 -0.061862584 0.015154094
0.012988046 -0.058446206 0.016083837
0.014176391 -0.059540842 0.016592413
0.014974042 -0.058960292 0.01719135
0.016188487 -0.05999263 0.017546475
0.016805019 -0.058817565 0.018175393
0.018010406 -0.059718713 0.019571483
0.018827129 -0.059305456 0.019656986
0.019200422 -0.057601269 0.019555837
0.021029387 -0.060220517 0.019353241
0.021094579 -0.057780806 0.018931806
0.022637086 -0.059422351 0.01731652
0.023678482 -0.059669774 0.016546577
0.024019962 -0.058202215 0.015237957
0.025685865 -0.059933685 0.012817979
0.02657314 -0.059789568 0.0090942979
0.030410266 -0.06606368 0.0059557557
-0.017678831 -0.060893752 0.0053502619
-0.016267275 -0.05932771 0.0085344613
-0.01572952 -0.060951892 0.012056023
-0.014475888 -0.059833672 0.014356405
-0.013430271 -0.059476916 0.015170693
-0.012526598 -0.059742235 0.015752435
-0.01113013 -0.057505671 0.01596573
-0.01026561 -0.05786071 0.016860515
-0.0094565377 -0.058630537 0.017405063
-0.0083645741 -0.057622619 0.018155664
-0.0081548272 -0.063199908 0.018639714
-0.0066517349 -0.058915365 0.018643767
-0.0055530565 -0.057381582 0.020254016
-0.0046225311 -0.057319388 0.020514399
-0.0038888066 -0.060276501 0.020681024
-0.0027367626 -0.05655976 0.020971358
-0.0018823755 -0.058353636 0.02114135
-0.0010084728 -0.06252531 0.022230119
0 -0.062480204 0.02179268
0.00094399723 -0.058527827 0.021770328
0.0018536388 -0.057462804 0.021323293
0.0027628811 -0.05709954 0.020367891
0.0037212633 -0.057679579 0.019997895
0.0045330389 -0.056209683 0.019237489
0.0056451024 -0.058332723 0.018546283
0.0068298527 -0.060492981 0.018013477
0.0075840964 -0.058776747 0.016936183
0.0087962514 -0.060596395 0.016551286
0.0094808834 -0.058781475 0.016936183
0.010594987 -0.059717204 0.016673237
0.011467516 -0.059248835 0.01671949
0.012499702 -0.059613962 0.016681224
0.013269272 -0.058763918 0.017299384
0.014224006 -0.058792558 0.017538607
0.015181519 -0.058828387 0.017512918
0.015706798 -0.057283618 0.017976969
0.017278135 -0.059513573 0.018693507
0.017733296 -0.057866544 0.019860417
0.019407436 -0.060163055 0.019589692
0.019976849 -0.058979269 0.019630343
0.020118866 -0.05669862 0.01922062
0.021932144 -0.05912143 0.018244237
0.022285812 -0.057571683 0.017370999
0.023001218 -0.05704302 0.016642451
0.025072202 -0.05978756 0.015246183
0.025276136 -0.058041498 0.013299495
0.026360871 -0.058370501 0.0097020864
0.027522918 -0.0588421 0.0071757734
0.032544911 -0.067259483 0.0052908659
-0.016876545 -0.060557012 0.0070919693
-0.015364619 -0.058577608 0.010397851
-0.014345479 -0.058338281 0.01302132
-0.013428661 -0.058510594 0.014719963
-0.012285384 -0.057646804 0.015519589
-0.011443489 -0.058171067 0.016413152
-0.010525433 -0.058368314 0.017138183
-0.0091315266 -0.05570231 0.018118024
-0.0091382153 -0.061936788 0.019341946
-0.007791616 -0.059411071 0.020280451
-0.0064634029 -0.056323938 0.02111119
-0.0056696036 -0.05764097 0.021166414
-0.0047163074 -0.057538953 0.021239281
-0.0036871769 -0.05622945 0.02156505
-0.0028553167 -0.058058109 0.021953136
-0.0018240506 -0.055633541 0.02264908
-0.00092804834 -0.056610946 0.022840917
0 -0.057004847 0.022702605
0.00092482101 -0.056414083 0.022791922
0.0018777564 -0.05727157 0.022121042
0.0028392419 -0.057731252 0.021332175
0.0037366187 -0.056983434 0.021247774
0.0047001722 -0.057342101 0.020338058
0.005517635 -0.056095954 0.019957393
0.0066487901 -0.057939459 0.019196123
0.0078617483 -0.059945833 0.018320113
0.0087108631 -0.059040293 0.017757177
0.0094620651 -0.057718597 0.017977595
0.010438391 -0.057885621 0.017790288
0.011332473 -0.057606734 0.017632723
0.012345513 -0.057928946 0.01767236
0.013451664 -0.058610819 0.018213928
0.01396213 -0.056779329 0.018147737
0.015174787 -0.057853878 0.018699467
0.016325301 -0.058579016 0.018930793
0.016863272 -0.057147752 0.019356906
0.018085824 -0.058065016 0.019741505
0.018765381 -0.057234414 0.019841939
0.019819897 -0.057572082 0.019693285
0.021211701 -0.058814257 0.019353658
0.02157014 -0.057207763 0.018931806
0.023232622 -0.05904958 0.017676383
0.023856636 -0.05821019 0.016666323
0.024309317 -0.057033397 0.015435874
0.025458308 -0.057516918 0.013332039
0.027359366 -0.059604336 0.010050803
0.027442049 -0.05772293 0.0073127151
0.028277477 -0.057497539 0.0051234663
-0.015925435 -0.059720386 0.0079839528
-0.014870374 -0.059481498 0.012009561
-0.013149191 -0.056353677 0.012883425
-0.01253304 -0.057844795 0.015000343
-0.011452255 -0.057261273 0.015745997
-0.010139724 -0.055307586 0.017333895
-0.010126872 -0.060761232 0.018539757
-0.0085749859 -0.057166569 0.020213038
-0.0074229031 -0.05567177 0.021057189
-0.0066360002 -0.056880005 0.021207243
-0.0056213704 -0.056213703 0.021239281
-0.0047549694 -0.057059631 0.021483362
-0.0037495191 -0.056242786 0.021678537
-0.0029404515 -0.058809027 0.022374094
-0.0018378031 -0.055134092 0.022283465
-0.0009443661 -0.056661967 0.022585362
0 -0.054868039 0.022488773
0.00095301378 -0.057180829 0.022472978
0.0018865222 -0.056595664 0.021531045
0.0027869891 -0.055739779 0.021161199
0.0037680317 -0.056520473 0.021006167
0.0047376142 -0.056851372 0.020530999
0.0055640098 -0.055640098 0.019862115
0.0065750489 -0.056357563 0.019199729
0.0076123849 -0.057092886 0.01868394
0.0084549831 -0.056366552 0.018163145
0.0094797118 -0.056878272 0.018044502
0.010555572 -0.057575844 0.017971516
0.011096518 -0.055482589 0.017793983
0.012493475 -0.057662193 0.017955869
0.013057167 -0.055959288 0.018170118
0.014303493 -0.057213973 0.018128991
0.015193276 -0.056974784 0.018637627
0.015684009 -0.055355325 0.018762231
0.01761665 -0.058722164 0.019558996
0.017681293 -0.055835661 0.019732416
0.018350521 -0.055051565 0.019471198
0.020112334 -0.05746381 0.019564271
0.020881297 -0.056948993 0.019119352
0.022031557 -0.05747363 0.018244237
0.022576125 -0.056440312 0.017423779
0.023540571 -0.056497373 0.016622692
0.024204968 -0.055857617 0.014981687
0.025788018 -0.057306707 0.013080359
0.026995422 -0.057847336 0.01014474
0.027463149 -0.056820311 0.007725209
0.0296074 -0.059214801 0.0051810741
-0.01597216 -0.058897343 0.0058336556
-0.014411133 -0.05668379 0.01165542
-0.013689363 -0.057690885 0.014045805
-0.012355711 -0.056075919 0.01537925
-0.011136585 -0.054754876 0.016989499
-0.011284844 -0.060527798 0.018011093
-0.0092957644 -0.054845009 0.019870996
-0.008460395 -0.055462591 0.020802349
-0.0075046737 -0.055346966 0.02104342
-0.0065340726 -0.055072896 0.021483362
-0.0056538437 -0.055596132 0.021678537
-0.0047394084 -0.055925015 0.021792531
-0.0037541166 -0.055373218 0.021753848
-0.0028130908 -0.055324119 0.022393882
-0.0019123321 -0.0564138 0.022121042
-0.00093181222 -0.054976922 0.022488773
0 -0.055171147 0.022422552
0.00093522307 -0.055178162 0.022340417
0.0018307179 -0.054006178 0.021782875
0.0028573081 -0.056193724 0.021638095
0.0037526547 -0.055351656 0.02153942
0.0045996378 -0.054275729 0.02104646
0.0056154765 -0.055218849 0.020805091
0.0065686009 -0.055363923 0.019867867
0.0073711914 -0.054362539 0.019269556
0.0085179377 -0.055839814 0.019395053
0.0095009562 -0.056055643 0.019018173
0.010365983 -0.055599365 0.018999159
0.011729795 -0.057671495 0.01887688
0.012143623 -0.055113364 0.019257247
0.013002508 -0.054796286 0.019275963
0.013987517 -0.055017568 0.019593865
0.014820232 -0.054649606 0.019857019
0.016224882 -0.056309883 0.019835025
0.016876228 -0.055316526 0.019591868
0.017682284 -0.054908145 0.019800395
0.01882723 -0.055540327 0.019448191
0.019889968 -0.055881336 0.018999338
0.020407522 -0.054729268 0.018792301
0.021204887 -0.054395143 0.017953396
0.02343538 -0.057611976 0.016938448
0.023014558 -0.05431436 0.015826672
0.025303012 -0.057418372 0.014678538
0.025605733 -0.055953268 0.011950761
0.026969768 -0.056829154 0.0097757876
0.028481206 -0.057944521 0.0072556436
0.029283004 -0.057589907 0.0052058399
-0.015206251 -0.058797505 0.0077746212
-0.013621054 -0.056430079 0.012796283
-0.012293027 -0.05484581 0.015252233
-0.012442791 -0.060140155 0.01707688
-0.010466308 -0.055185992 0.019030035
-0.0092676058 -0.053752117 0.020798147
-0.0086236047 -0.055574343 0.02134791
-0.0074465862 -0.053987753 0.021608651
-0.0066030398 -0.054710899 0.021945983
-0.0056292801 -0.054416373 0.022214025
-0.0047314274 -0.05488456 0.022460192
-0.0037187338 -0.05392164 0.022511244
-0.0027975172 -0.054085333 0.022599369
-0.0019634762 -0.056940809 0.022593528
-0.0009185797 -0.053277623 0.02269426
0 -0.054100979 0.022656351
0.00093490462 -0.054224469 0.022539884
0.0018897712 -0.054803364 0.021957368
0.0027986136 -0.05410653 0.021906823
0.0037004605 -0.053656679 0.021738946
0.0047292961 -0.054859836 0.02144289
0.0056588808 -0.054702517 0.021183521
0.006493472 -0.053803053 0.020620406
0.0074651004 -0.054121979 0.020557582
0.0084471209 -0.054437 0.020564139
0.0092962263 -0.053918112 0.019909829
0.010332349 -0.054479655 0.020223737
0.011430125 -0.055245604 0.019906312
0.012192512 -0.054397359 0.020020336
0.013262247 -0.054943591 0.020050317
0.014216485 -0.054970406 0.019903958
0.015010866 -0.054414392 0.019864112
0.016025001 -0.054673538 0.019857019
0.016613098 -0.053531095 0.019741505
0.017520158 -0.053482585 0.019903958
0.019131154 -0.055480346 0.019286126
0.019204997 -0.053042371 0.018823683
0.020648049 -0.054435767 0.018173993
0.021877307 -0.055168863 0.017706096
0.022613561 -0.054649442 0.016641647
0.024375988 -0.056552291 0.015025079
0.02453783 -0.054738235 0.013361603
0.025429813 -0.054627005 0.010790646
0.027461177 -0.056883868 0.009072274
0.027642293 -0.055284586 0.0058186948
-0.014871863 -0.056513079 0.0057216585
-0.013348078 -0.054345746 0.012599617
-0.01351019 -0.059236988 0.015487015
-0.011579708 -0.055003613 0.017640293
-0.010223616 -0.052976917 0.019983083
-0.0093149021 -0.053094942 0.020868033
-0.0084738052 -0.053667434 0.02154547
-0.0075979643 -0.054135498 0.021792531
-0.0066050389 -0.053783886 0.022286743
-0.0056525548 -0.05369927 0.022421509
-0.0046609771 -0.053135142 0.022725284
-0.0037693358 -0.053713035 0.022758484
-0.0027928881 -0.053064872 0.022547543
-0.0018709706 -0.053322662 0.022809535
-0.00093342271 -0.053205095 0.022800386
0 -0.052562855 0.023097545
0.00092739164 -0.052861325 0.023070633
0.0018603705 -0.053020559 0.022764653
0.0027835672 -0.052887779 0.022794783
0.0037754274 -0.053799838 0.022450835
0.0047474778 -0.054121248 0.02194494
0.0057219965 -0.054358967 0.021611929
0.0066144192 -0.053860269 0.021336854
0.0076106335 -0.054225765 0.021421611
0.0083389608 -0.052813422 0.021379888
0.0093630152 -0.053369187 0.021154791
0.010332805 -0.053542718 0.02138564
0.011091588 -0.052685041 0.020949244
0.012360067 -0.054194137 0.021084905
0.013179309 -0.053658616 0.02112937
0.014027182 -0.05330329 0.020713866
0.015005684 -0.053457752 0.020018041
0.01565011 -0.052473899 0.019846141
0.017032282 -0.053935558 0.019793302
0.0179302 -0.053790603 0.019693494
0.018271675 -0.052074276 0.018890232
0.020243201 -0.054945834 0.018018484
0.020801518 -0.053894844 0.017722845
0.021149481 -0.052413933 0.015978754
0.023523815 -0.055869061 0.015011102
0.023661172 -0.053947471 0.013615757
0.024810782 -0.054392867 0.012121797
0.025841214 -0.054553673 0.010123849
0.027380781 -0.055739447 0.0082104802
0.027772164 -0.054586668 0.0052322149
-0.014424395 -0.057697579 0.011298716
-0.012373211 -0.053299986 0.015395612
-0.011026225 -0.051455718 0.017559022
-0.010479247 -0.053348895 0.02005747
-0.009434022 -0.052830525 0.020739079
-0.0084264353 -0.052431155 0.021443814
-0.0076211635 -0.053348143 0.022073448
-0.0065873824 -0.052699059 0.022366315
-0.0056165843 -0.052421454 0.022631794
-0.0047278623 -0.052952059 0.022931814
-0.0037336568 -0.052271195 0.022665024
-0.0028293652 -0.052814815 0.022710055
-0.0018593436 -0.052061621 0.022834301
-0.00097159809 -0.054409493 0.022795916
0 -0.052952778 0.022877485
0.0009380884 -0.052532949 0.02303344
0.0018337546 -0.051345129 0.022752851
0.0028350311 -0.052920584 0.022719592
0.0038618408 -0.054065771 0.02250281
0.0046267319 -0.051819395 0.022245139
0.0055416524 -0.051722091 0.021540463
0.006634715 -0.05307772 0.021198928
0.0075066434 -0.052546505 0.021199882
0.0083277589 -0.051817168 0.021243393
0.0092896707 -0.052022155 0.021243393
0.010157004 -0.051708385 0.021532953
0.011420854 -0.053297322 0.021199882
0.012064475 -0.051970042 0.021287441
0.013152532 -0.052610129 0.021305054
0.014041409 -0.052421261 0.020807207
0.01459715 -0.051090028 0.020673722
0.016077032 -0.052959632 0.020201355
0.016923379 -0.052650511 0.019755632
0.017692687 -0.052146867 0.019769192
0.019115731 -0.053524047 0.018808484
0.019718863 -0.052583639 0.017849833
0.020719336 -0.052740131 0.017000794
0.021744831 -0.052943937 0.015283793
0.022349771 -0.052149463 0.014204681
0.024078619 -0.053936105 0.013214141
0.024754835 -0.053318106 0.010937303
0.026498741 -0.054960348 0.0083573163
0.027181072 -0.054362144 0.0058615208
-0.01344196 -0.0528077 0.0075793564
-0.012021305 -0.050859369 0.015923798
-0.011237049 -0.05150314 0.018053204
-0.010454129 -0.052270647 0.020616978
-0.0093441727 -0.05139295 0.021289945
-0.0085045537 -0.051972274 0.021572351
-0.0075024953 -0.051579654 0.022112131
-0.0065743732 -0.051655788 0.022292107
-0.0057081515 -0.05232472 0.022550464
-0.0046829279 -0.051512208 0.022518843
-0.003721101 -0.051165141 0.022547543
-0.0028343915 -0.051963843 0.022488773
-0.0018575736 -0.051083274 0.022775829
-0.00093592459 -0.051475853 0.022743523
0 -0.052890263 0.022593737
0.00090850488 -0.04996777 0.022655666
0.0019130218 -0.052608099 0.022450835
0.002838413 -0.052037571 0.022617668
0.0037059905 -0.050957367 0.022449017
0.0047255778 -0.051981352 0.022395432
0.0057187523 -0.052421898 0.021520942
0.0065850345 -0.051739559 0.021566719
0.0075580548 -0.051961627 0.02158317
0.0086257188 -0.052712727 0.021574825
0.0093301628 -0.051315896 0.02157414
0.010444749 -0.052223746 0.021646827
0.011360565 -0.052069258 0.021634758
0.012137686 -0.051351748 0.021761835
0.013396775 -0.05263019 0.021549165
0.014161502 -0.05192551 0.021326125
0.015622388 -0.053701956 0.020789832
0.015874704 -0.051359337 0.020449162
0.016905289 -0.051655054 0.01995638
0.017971935 -0.052024022 0.01993981
0.018754868 -0.051575884 0.018844336
0.019463923 -0.050976943 0.017766237
0.020971632 -0.05242908 0.016330361
0.021650387 -0.051772665 0.014247388
0.023059912 -0.052845631 0.013209522
0.024272501 -0.053399507 0.01164028
0.024910569 -0.052695435 0.0091663301
0.026021989 -0.053007755 0.0061119199
0.028630355 -0.056238197 0.0051475763
-0.012993847 -0.050119124 0.0067977011
-0.01210157 -0.050268061 0.015235543
-0.011414951 -0.051367279 0.017988503
-0.010338483 -0.050752554 0.020606399
-0.0093565928 -0.050525598 0.021212131
-0.0084762629 -0.050857581 0.021424621
-0.0075338813 -0.050853699 0.022073448
-0.0065860571 -0.050806727 0.022292107
-0.0056355498 -0.05071995 0.022476614
-0.0046833516 -0.0505802 0.022683322
-0.0038094285 -0.051427282 0.022603512
-0.0028169155 -0.050704479 0.022471607
-0.0018902824 -0.051037624 0.022882551
-0.00092473574 -0.049935728 0.022834301
0 -0.050343927 0.022867143
0.0009366796 -0.050580699 0.022928566
0.0019006416 -0.051317323 0.02275759
0.0027772458 -0.049990427 0.022995442
0.0037521492 -0.050654013 0.022707343
0.0047314893 -0.051100086 0.0226942
0.0055456152 -0.049910538 0.022487223
0.0066265748 -0.051119294 0.022154152
0.0074856277 -0.050527986 0.022383928
0.0083633121 -0.050179873 0.022154152
0.0094723394 -0.051150631 0.022298306
0.010254054 -0.050338086 0.0224545
0.011254147 -0.05064366 0.022507578
0.012160162 -0.050511442 0.022477776
0.012853166 -0.049576499 0.022194088
0.01403216 -0.050515775 0.021471322
0.014851232 -0.050122906 0.020814687
0.015988955 -0.050788447 0.020489007
0.017075567 -0.051226702 0.02013424
0.01829276 -0.05198995 0.019874752
0.018698134 -0.050484959 0.018421739
0.01971999 -0.050708547 0.017627865
0.021387162 -0.052495759 0.015146136
0.021705512 -0.050960768 0.013473511
0.023597773 -0.053094991 0.012139022
0.023982754 -0.051802747 0.010032505
0.024700951 -0.051301975 0.0072849095
0.026672766 -0.053345531 0.0054846406
-0.012211071 -0.049783599 0.014326751
-0.011255825 -0.049713228 0.017635882
-0.010488791 -0.050536904 0.020147741
-0.0094170868 -0.04991056 0.020822108
-0.0084188515 -0.049577683 0.021222919
-0.0076012961 -0.050358586 0.021718115
-0.0065443846 -0.04955034 0.022195131
-0.0056228624 -0.049668618 0.022476614
-0.0046779574 -0.049586348 0.022776693
-0.0037602654 -0.049823515 0.022627741
-0.0027908261 -0.049304593 0.022471607
-0.0018682585 -0.049508851 0.022780836
-0.00093694142 -0.049657892 0.022834301
0 -0.051240746 0.022793651
0.00094132934 -0.049890455 0.022759914
0.0018524134 -0.049088955 0.022662729
0.0027922888 -0.049330436 0.022803307
0.0038116993 -0.050505016 0.022499204
0.0046112295 -0.048879035 0.022641033
0.0055533946 -0.049054988 0.022295088
0.0065460908 -0.049563259 0.022108495
0.0074058287 -0.049063616 0.022464156
0.0086486116 -0.050930709 0.022117168
0.0093500698 -0.049555372 0.022088945
0.010119553 -0.048757844 0.022251606
0.011369129 -0.050213654 0.022251606
0.012239578 -0.04989982 0.022088945
0.013078505 -0.049511485 0.021907538
0.014229746 -0.050278436 0.02131474
0.014757973 -0.048885785 0.020569712
0.015735665 -0.049058251 0.020324558
0.017239193 -0.050759848 0.019793093
0.017359748 -0.048424561 0.019353241
0.019153778 -0.050757509 0.018306851
0.020240538 -0.051083263 0.016397476
0.020530829 -0.049460631 0.014164954
0.022029195 -0.050762929 0.01285094
0.022436118 -0.049546428 0.010790646
0.024447037 -0.051827718 0.0080246627
0.026323749 -0.053659949 0.0052321255
-0.01227221 -0.049088839 0.011468619
-0.011413147 -0.049456969 0.017149329
-0.010355574 -0.048953623 0.01859045
-0.0092423456 -0.048060197 0.020578742
-0.0084090894 -0.048585851 0.021104634
-0.0075097545 -0.048813406 0.021455199
-0.0065773148 -0.048860051 0.021718115
-0.0057494496 -0.049828563 0.022435337
-0.0046646101 -0.048511945 0.022550464
-0.0036979076 -0.0480728 0.022734255
-0.0028469926 -0.049347874 0.02260825
-0.0018911987 -0.049171168 0.022746295
-0.00093000557 -0.048360288 0.022781909
0 -0.048407976 0.0226098
0.00092647056 -0.048176467 0.022582173
0.0018602374 -0.048366174 0.022465676
0.0028032942 -0.048590433 0.02227357
0.0037093651 -0.048221748 0.022341043
0.0046554687 -0.048416875 0.022306889
0.0056642536 -0.049090195 0.021983027
0.0064736572 -0.048090026 0.02180621
0.0076048141 -0.049431294 0.022403359
0.0083005074 -0.04795849 0.022309422
0.0092971819 -0.048345346 0.022306859
0.010326756 -0.048817392 0.022417992
0.011372209 -0.049279571 0.022321492
0.012057602 -0.04823041 0.022277325
0.013012158 -0.048330873 0.022277325
0.014035348 -0.048655871 0.021768123
0.015367144 -0.04994322 0.020644993
0.016354898 -0.050026745 0.020216256
0.016637757 -0.048064634 0.019855052
0.018108334 -0.049559653 0.019335687
0.018931257 -0.04922127 0.018306851
0.020064451 -0.049683403 0.015336514
0.02110411 -0.049882442 0.013251811
0.022226838 -0.050251983 0.011772811
0.023008775 -0.049852345 0.0097478926
0.025043547 -0.052090578 0.0054686964
-0.0113701 -0.048322923 0.016225815
-0.01027455 -0.04763655 0.018164128
-0.0093545169 -0.047708038 0.020264834
-0.0086444234 -0.048985064 0.02066493
-0.0075483201 -0.04812054 0.021363169
-0.0065082507 -0.047417253 0.021716803
-0.005631384 -0.047866762 0.022334874
-0.0046804869 -0.047740966 0.022422642
-0.0037274288 -0.047524717 0.022657394
-0.0028091636 -0.047755782 0.022379011
-0.0018898717 -0.048191726 0.02251941
-0.00092915801 -0.04738706 0.02251941
0 -0.047020391 0.022473246
0.00093616749 -0.047744542 0.022432595
0.001893285 -0.048278764 0.022372007
0.00279289 -0.04747913 0.021924376
0.0038239728 -0.048755653 0.022239149
0.0047060852 -0.048002068 0.022078931
0.0056046895 -0.047639862 0.022102177
0.006619167 -0.048225362 0.021840334
0.007586834 -0.048366066 0.022190213
0.0083427839 -0.047275778 0.022190213
0.009429466 -0.048090275 0.022164315
0.010301359 -0.047760844 0.022488773
0.011209989 -0.047642451 0.022264481
0.012258834 -0.04809235 0.022034466
0.013058291 -0.047569487 0.02218616
0.014098483 -0.047934841 0.021729559
0.014721204 -0.046923835 0.021025181
0.015767006 -0.047301017 0.020394981
0.017539894 -0.049696364 0.019912601
0.017837785 -0.04788037 0.019475102
0.01893018 -0.048271958 0.018233448
0.020182209 -0.049013935 0.014671475
0.021397511 -0.049603317 0.012758285
0.021948511 -0.048668437 0.011043698
0.023416366 -0.049759779 0.0078747571
-0.011328438 -0.047201823 0.01131478
-0.01034292 -0.047013272 0.017730564
-0.0094313016 -0.047156509 0.019749552
-0.0083466219 -0.046370123 0.020271242
-0.0076477886 -0.047798678 0.020867616
-0.0065445146 -0.04674653 0.021354735
-0.0055611734 -0.046343111 0.022027791
-0.0047097458 -0.047097459 0.022143155
-0.0038061813 -0.047577266 0.02209118
-0.0028367778 -0.04727963 0.022167951
-0.0018790234 -0.046975587 0.022362143
-0.00093671656 -0.046835829 0.022348374
0 -0.047305342 0.022398055
0.00092013646 -0.046006825 0.022068739
0.0018996265 -0.047490664 0.02201733
0.0027956334 -0.04659389 0.022061348
0.0038030117 -0.047537647 0.022264481
0.0046917652 -0.046917651 0.022190481
0.0055692187 -0.046410155 0.022020191
0.0065756585 -0.046968989 0.021760613
0.0073147882 -0.045717426 0.022224814
0.0086532161 -0.048073426 0.022190213
0.0093344115 -0.046672054 0.02221638
0.010240369 -0.046547133 0.022556186
0.011441035 -0.047670979 0.022349894
0.012050545 -0.046348251 0.022190481
0.0129713 -0.046326071 0.022154063
0.014114026 -0.047046755 0.021590263
0.014388879 -0.044965245 0.021025181
0.015888136 -0.046729814 0.020671874
0.017250571 -0.047918256 0.020081788
0.017872503 -0.0470329 0.019432843
0.018735385 -0.046838459 0.017967582
0.020202702 -0.048101671 0.013653219
0.021135122 -0.048034366 0.012451738
0.023177475 -0.050385814 0.010518074
0.024145145 -0.050302383 0.0059244037
-0.010440058 -0.046505716 0.015218347
-0.0093581229 -0.045854803 0.017978102
-0.0084491381 -0.046000864 0.019532174
-0.007543412 -0.046203397 0.020481884
-0.0065649552 -0.045954689 0.02088666
-0.0056353784 -0.046022259 0.021769166
-0.004727093 -0.046325512 0.022060603
-0.0037820246 -0.0463298 0.022235692
-0.002856514 -0.046656393 0.022085667
-0.0018623102 -0.045626599 0.022373974
-0.00093122479 -0.045630015 0.022262871
0 -0.045704834 0.022436053
0.000932444 -0.045689758 0.022529513
0.0018757213 -0.04595517 0.022301793
0.0028018341 -0.045763288 0.022289664
0.0037320398 -0.045717489 0.022414744
0.0046914341 -0.045976054 0.022281229
0.0055966121 -0.045705669 0.022115141
0.0064693838 -0.045285687 0.02211076
0.0074795382 -0.045812171 0.02234292
0.0081770811 -0.044519663 0.02234292
0.009228318 -0.045218758 0.022351086
0.010267789 -0.045738332 0.022521704
0.011119258 -0.045403633 0.022287399
0.012151851 -0.04580313 0.022255927
0.013207475 -0.046226162 0.022264004
0.014007952 -0.045759309 0.021986216
0.015157704 -0.04642047 0.021568537
0.015872512 -0.045750182 0.020874649
0.016363693 -0.04454561 0.020002365
0.018536488 -0.047804624 0.019574344
0.019592522 -0.048001681 0.017880797
0.019852338 -0.046322122 0.014204681
0.021564884 -0.048030879 0.01243934
0.023146652 -0.049312431 0.009622097
0.023159329 -0.047283627 0.0051971972
-0.0095548611 -0.04586333 0.015750557
-0.0085856225 -0.045789991 0.018008947
-0.0075511262 -0.045306757 0.019978255
-0.0064680213 -0.044352144 0.020764709
-0.0056258035 -0.045006428 0.021490932
-0.0047069229 -0.04518646 0.021963656
-0.003745405 -0.04494486 0.022235692
-0.0028146019 -0.04503363 0.022023529
-0.0018732605 -0.044958252 0.022239476
-0.00093511492 -0.044885516 0.022207379
0 -0.044326745 0.022010297
0.00095322094 -0.045754608 0.022243738
0.0018759427 -0.045022625 0.022021294
0.0028405713 -0.045449141 0.021850884
0.0037424788 -0.044909745 0.022159964
0.0046730908 -0.044861671 0.022115141
0.0056429929 -0.045143943 0.022073418
0.0066506397 -0.045604385 0.022051245
0.0075145559 -0.045087334 0.02234292
0.0084929215 -0.045295577 0.022351086
0.0093360702 -0.044813138 0.02229777
0.01043793 -0.045547333 0.022399336
0.0110321 -0.044128399 0.022255927
0.012044769 -0.044472992 0.022228062
0.013200498 -0.045258854 0.022423685
0.014019661 -0.044862915 0.021869093
0.014983074 -0.044949222 0.021256983
0.015970685 -0.045093697 0.020386308
0.017151656 -0.045737747 0.019892573
0.017581787 -0.044417143 0.019146472
0.018558474 -0.044540338 0.017560124
0.020885115 -0.047737405 0.014442533
0.021853948 -0.047681339 0.012414992
0.021678034 -0.045241117 0.0092824996
-0.0084999008 -0.044388369 0.015035272
-0.0076397411 -0.044883478 0.018008947
-0.0066483906 -0.044639196 0.019749552
-0.0056805643 -0.044497754 0.020257205
-0.0047534737 -0.044682652 0.020426989
-0.0037870356 -0.044497669 0.021578133
-0.0027790694 -0.043538753 0.021622628
-0.001889687 -0.044407643 0.021933019
-0.00093436619 -0.043915208 0.021953672
0 -0.044093002 0.021832973
0.00093442714 -0.043918073 0.022209197
0.0018745676 -0.044052336 0.021880984
0.0028487521 -0.044630449 0.021744519
0.0037806951 -0.04442317 0.021939516
0.0046632504 -0.043834556 0.022008568
0.0055781524 -0.043695528 0.021841347
0.0065839593 -0.044206586 0.021632522
0.0073769074 -0.043339331 0.022082359
0.0083111972 -0.043402918 0.022201508
0.0093413834 -0.043904498 0.022115141
0.010163565 -0.043426141 0.02216813
0.011258578 -0.044096094 0.021871984
0.012006518 -0.043408182 0.022099614
0.012994689 -0.043625027 0.021851391
0.014111703 -0.04421667 0.021518707
0.014781039 -0.043419305 0.02084142
0.01607498 -0.044442594 0.0201855
0.01691895 -0.044177257 0.019802958
0.017547896 -0.043407954 0.018928587
0.018837001 -0.044266954 0.017539144
0.019631851 -0.043937955 0.014914662
0.023582581 -0.050380968 0.011536837
0.023473736 -0.047968067 0.0080789924
-0.0075103366 -0.043184437 0.016007572
-0.0065419818 -0.042990167 0.019008607
-0.0056990832 -0.043692973 0.020057231
-0.0046570394 -0.042844761 0.020274013
-0.0037362219 -0.042966552 0.02064237
-0.0028303948 -0.043399386 0.02080223
-0.0018753753 -0.043133631 0.021716326
-0.00092995341 -0.042777855 0.021781296
0 -0.043181852 0.021837503
0.00092458818 -0.042531058 0.021820962
0.0018920805 -0.04351785 0.021445453
0.0028177747 -0.043205876 0.02107197
0.0037262235 -0.042851571 0.021515846
0.0046884357 -0.043133605 0.021483839
0.0056069093 -0.042986304 0.021483839
0.0065300339 -0.042911649 0.021072716
0.0075678797 -0.04351531 0.021841347
0.0084130215 -0.042999886 0.021845102
0.0094130728 -0.043300137 0.021933138
0.010294707 -0.043050591 0.022136658
0.011259034 -0.043159634 0.021785617
0.012057705 -0.042665724 0.022025198
0.013553957 -0.044534434 0.021830708
0.013905737 -0.042644259 0.02143234
0.015290443 -0.043960024 0.02071619
0.015795002 -0.042739417 0.020291477
0.016813289 -0.042967297 0.019747913
0.017885324 -0.04330131 0.019062996
0.018706238 -0.043024346 0.017850876
0.01923117 -0.042125423 0.015801758
0.021168798 -0.044262033 0.01151222
0.025191048 -0.050382096 0.0061433911
-0.0066561433 -0.042789493 0.017126113
-0.0056422171 -0.04231663 0.019212723
-0.0046584187 -0.041925766 0.019650966
-0.0037717118 -0.042431757 0.020274013
-0.0028551845 -0.042827766 0.020508111
-0.0018621483 -0.041898336 0.020647734
-0.00094504509 -0.042527027 0.021299452
0 -0.041865937 0.021401465
0.0009415698 -0.04237064 0.021615565
0.0018875119 -0.042469017 0.021260917
0.0027950078 -0.041925117 0.020988405
0.003759762 -0.042297322 0.021149755
0.004705362 -0.042348258 0.021651477
0.0056067365 -0.042050522 0.021702975
0.0065136156 -0.041873243 0.021557093
0.0073657567 -0.041432381 0.02190274
0.0083792983 -0.041896492 0.021933138
0.0093408637 -0.042033888 0.022006929
0.010447918 -0.042741481 0.022201508
0.01138667 -0.042700015 0.022050291
0.012142885 -0.042033061 0.022115141
0.013179071 -0.0423613 0.022160232
0.013842238 -0.041526716 0.021592081
0.01538747 -0.043277256 0.020790607
0.015675418 -0.041493755 0.020109057
0.017035333 -0.042588331 0.019786805
0.018184481 -0.043068506 0.019300073
0.018655725 -0.041975383 0.018274367
0.019629482 -0.042063177 0.017221123
0.020031089 -0.040972684 0.011613607
0.021101061 -0.041284684 0.0051245689
-0.0056939526 -0.041755654 0.016928792
-0.0047195172 -0.041531749 0.01880914
-0.0037154821 -0.040870301 0.019869804
-0.0028130119 -0.041257508 0.020151049
-0.001885004 -0.041470088 0.020418823
-0.00092927989 -0.040888313 0.020721823
0 -0.041773766 0.021398872
0.00094708381 -0.041671686 0.021615565
0.0018452505 -0.040595509 0.021260917
0.0028060614 -0.041155566 0.020988196
0.003741821 -0.041160032 0.021124393
0.004583254 -0.040332634 0.02103734
0.005572509 -0.040865064 0.02120474
0.0067019919 -0.042126805 0.020999908
0.0074079037 -0.04074347 0.021727949
0.0087377783 -0.042718031 0.021865696
0.0091984952 -0.040473379 0.021871984
0.010269872 -0.041079488 0.021840334
0.011247304 -0.041240115 0.021508843
0.012031522 -0.040722072 0.021573156
0.012910718 -0.04057654 0.021633357
0.014220086 -0.041712254 0.021508843
0.014656816 -0.040306244 0.020988643
0.015993787 -0.041395683 0.020818532
0.016642205 -0.040680945 0.019831389
0.0174444 -0.040397558 0.019405007
0.01905695 -0.041925289 0.018490911
0.019841013 -0.041571647 0.017548859
0.020517845 -0.041035689 0.01308763
0.021629473 -0.041378122 0.0065112412
-0.0046949279 -0.04037638 0.016674131
-0.0037489752 -0.040301483 0.018938839
-0.0028275237 -0.040527839 0.019573569
-0.0018774847 -0.040365923 0.020042092
-0.00092777587 -0.039894361 0.020346552
0 -0.040644344 0.020874977
0.00093314151 -0.040125087 0.021356821
0.0018921182 -0.040680543 0.020985603
0.0028264262 -0.040512111 0.020748973
0.0036880043 -0.039646048 0.020751029
0.0048497892 -0.04170819 0.020762295
0.0057028565 -0.040870473 0.02087599
0.0065297317 -0.040111206 0.020835191
0.007498777 -0.040305927 0.020940781
0.0084790187 -0.040510867 0.020971179
0.0091791917 -0.039470524 0.021088332
0.010342506 -0.040429797 0.021107048
0.011354328 -0.040686343 0.020913452
0.012092788 -0.039999221 0.020974874
0.013344381 -0.040986314 0.020990282
0.014242333 -0.040828019 0.020933598
0.015152334 -0.040721901 0.020826191
0.015645131 -0.03957298 0.02043879
0.016623929 -0.03971272 0.019843698
0.018066196 -0.040886655 0.019563466
0.018928261 -0.04069576 0.018999845
0.019634299 -0.040203568 0.017879248
0.021654105 -0.042323932 0.014779806
0.02123512 -0.039700441 0.0084969103
-0.0038270778 -0.040184315 0.017159909
-0.0028350677 -0.039690949 0.018807411
-0.0018687337 -0.039243408 0.019305527
-0.00095199724 -0.039983884 0.019853354
0 -0.039645966 0.020048678
0.00093102199 -0.039102923 0.020770252
0.0018833674 -0.039550714 0.020590544
0.0027655584 -0.038717818 0.020930916
0.0037539115 -0.039416071 0.020899504
0.0046236664 -0.038838796 0.020933688
0.0055244314 -0.038671017 0.021118432
0.0065993951 -0.039596368 0.021038711
0.007528156 -0.039522819 0.02103889
0.008536757 -0.039838199 0.02105248
0.0094268145 -0.03959262 0.021224499
0.010323225 -0.039415948 0.021329552
0.011227248 -0.039295368 0.020907372
0.012192007 -0.039389562 0.021150023
0.013371889 -0.040115666 0.020950496
0.01411277 -0.039515756 0.020784557
0.015153546 -0.039778057 0.020742446
0.015669195 -0.038712129 0.020677209
0.016686685 -0.038935598 0.019839346
0.017913725 -0.039598759 0.019423753
0.019183112 -0.040284537 0.018763304
0.019919757 -0.039839514 0.017526746
0.021145459 -0.040368605 0.015634149
0.022340138 -0.040795036 0.0090585649
-0.0028268627 -0.03863379 0.016906887
-0.0018867997 -0.038679391 0.01889345
-0.00092529901 -0.037937261 0.01967743
0 -0.038314879 0.019848019
0.00095115253 -0.038997255 0.019923329
0.0018660683 -0.038254399 0.019910634
0.0028157048 -0.038481299 0.02046147
0.0037912617 -0.038860433 0.020451665
0.0045743231 -0.037509449 0.020525038
0.0057673818 -0.039410442 0.020885795
0.0067035868 -0.039263863 0.020909369
0.0075228619 -0.038554668 0.021095335
0.0083969338 -0.0382527 0.020975858
0.009341564 -0.038300414 0.021011949
0.01036422 -0.038630273 0.021168977
0.01121565 -0.038320139 0.020841748
0.01219846 -0.038472068 0.020883411
0.012935209 -0.037881684 0.020762026
0.014210698 -0.038842574 0.020695716
0.01484077 -0.03802947 0.020395428
0.016052531 -0.03871493 0.020066679
0.016945604 -0.038598318 0.019791901
0.017548207 -0.037867185 0.019377023
0.02193838 -0.044973679 0.018432349
0.022763824 -0.044443656 0.017464191
0.022951216 -0.042772721 0.014779806
0.023417039 -0.04174342 0.0084353983
-0.0018927812 -0.037855625 0.016853571
-0.00093847275 -0.037538908 0.0189448
0 -0.037699997 0.019599259
0.00092889956 -0.037155982 0.019724637
0.0019125371 -0.038250744 0.019745499
0.0028314446 -0.037752595 0.020173162
0.0037705433 -0.037705433 0.020138621
0.0047218869 -0.037775096 0.020394653
0.0056144902 -0.037429936 0.020589262
0.0063656103 -0.036374915 0.020810813
0.0076170131 -0.038085066 0.021186471
0.0083097257 -0.036932115 0.021185309
0.0093287928 -0.037315171 0.02117762
0.010276419 -0.037368797 0.020952523
0.011097934 -0.036993112 0.021165133
0.012374381 -0.038075019 0.021186471
0.013347314 -0.038135182 0.02060616
0.013943858 -0.03718362 0.020390332
0.0150738 -0.037684496 0.020129532
0.016010119 -0.037670869 0.019683957
0.016695665 -0.037101477 0.019582421
0.01778781 -0.037448023 0.018986434
0.019543877 -0.039087754 0.018064499
0.021533759 -0.041016683 0.017149925
0.023535283 -0.042791422 0.012799859
0.021263719 -0.036980379 0.0070348084
-0.00094200624 -0.036738243 0.016853571
0 -0.036238972 0.018940687
0.00093694532 -0.036540866 0.019414842
0.001891068 -0.036875825 0.01947844
0.0027913763 -0.036287893 0.019747853
0.0037827257 -0.036881577 0.01979509
0.004697179 -0.036637995 0.020196289
0.0055025346 -0.035766475 0.020661712
0.0067458362 -0.037583943 0.020874739
0.0075545628 -0.036828492 0.020944983
0.0085757906 -0.037161756 0.020952523
0.0094573814 -0.036883786 0.02080214
0.010271695 -0.036417827 0.020957619
0.01121565 -0.036450863 0.020764083
0.012408409 -0.037225228 0.021024048
0.013128018 -0.036570907 0.020747334
0.014045266 -0.036517691 0.02036342
0.015141991 -0.036908604 0.020032763
0.015504674 -0.035569545 0.019507557
0.01711336 -0.037078947 0.018962175
0.017911578 -0.03676587 0.018389583
0.018484168 -0.036044128 0.017413586
0.01922176 -0.035697557 0.016118914
0.0201518 -0.035723642 0.0091365874
0.021447068 -0.036366768 0.0062461793
0 -0.035935037 0.016432822
0.00094004621 -0.035721757 0.018647134
0.001847027 -0.035093512 0.019073457
0.0028125686 -0.035625868 0.019418478
0.0037490337 -0.03561582 0.019543648
0.0046282392 -0.035174619 0.01965192
0.0056575853 -0.035831373 0.02034086
0.0065878723 -0.035762735 0.020551831
0.0073677022 -0.034996588 0.020659328
0.0085071307 -0.035918996 0.020891368
0.0093384283 -0.035486028 0.02075702
0.010362112 -0.035796385 0.020666242
0.011477376 -0.036345024 0.020538062
0.0121928 -0.035640489 0.02075702
0.013034904 -0.035380453 0.020393223
0.014383308 -0.036437713 0.019976854
0.0145979 -0.034670014 0.019394666
0.016035812 -0.035844754 0.018941224
0.016908165 -0.035695016 0.018281966
0.017357104 -0.034714207 0.017416775
0.019082021 -0.03625584 0.016138166
0.019788049 -0.035806946 0.012244195
0.020708809 -0.035769761 0.0072737932
0.00093972671 -0.034769889 0.016422927
0.0018985815 -0.035123758 0.018616915
0.0028531321 -0.03518863 0.019270539
0.0037433659 -0.034626134 0.019309223
0.0046900501 -0.034706373 0.01961562
0.0056834691 -0.03504806 0.019953281
0.0064541963 -0.034115039 0.020245075
0.0075216992 -0.03478786 0.020611346
0.0086545786 -0.035579935 0.020882666
0.0091206748 -0.033746496 0.020831972
0.010422962 -0.035059053 0.020611346
0.011098353 -0.034219921 0.020457953
0.012213209 -0.034760669 0.020403147
0.013274427 -0.035082411 0.020027667
0.014044915 -0.034644127 0.0197106
0.015276135 -0.03532606 0.019310951
0.016050059 -0.034932483 0.018896073
0.016642569 -0.034209725 0.017434597
0.01803958 -0.035129711 0.016792238
0.018788196 -0.034758162 0.013362318
0.019459119 -0.034285113 0.0089527965
0.021887161 -0.036810223 0.006278187
0.0019150021 -0.034470037 0.016358376
0.0028033175 -0.033639811 0.018336236
0.0037713302 -0.033941973 0.018913895
0.0047179931 -0.033969548 0.01902923
0.0056551783 -0.033931073 0.019550234
0.0066110962 -0.033999924 0.019826472
0.0075010508 -0.033754729 0.020614266
0.0082379915 -0.032951966 0.020788163
0.0096465033 -0.034727413 0.020957619
0.010322168 -0.033781637 0.020826548
0.011421364 -0.034264091 0.020461708
0.01222324 -0.033848971 0.020403147
0.013176884 -0.033883415 0.020120978
0.014028158 -0.033667579 0.019479066
0.014920981 -0.033572208 0.019073844
0.015875729 -0.033619188 0.018329233
0.01689986 -0.033799719 0.016769826
0.017980171 -0.034067694 0.014656186
0.018665994 -0.033598788 0.0091629326
0.020869059 -0.035775531 0.0063061118
0.0028202492 -0.032902908 0.016057909
0.0038078045 -0.033318292 0.018484771
0.0046791472 -0.03275403 0.018873811
0.0056766011 -0.033113506 0.019097179
0.0065221502 -0.032610752 0.019460529
0.0074696299 -0.032679632 0.020109594
0.0085021844 -0.033064049 0.020601302
0.0093926731 -0.032874357 0.020541817
0.01016969 -0.032358106 0.020457953
0.011273316 -0.032880504 0.020384669
0.012314 -0.033153076 0.020213425
0.012984572 -0.032461431 0.019508511
0.014362259 -0.033511937 0.019279897
0.014963452 -0.03273255 0.018593222
0.015903244 -0.032741971 0.017260671
0.017240353 -0.033522908 0.015934259
0.018003965 -0.033165202 0.012412548
0.019508252 -0.034139443 0.0081807673
0.020401774 -0.034002956 0.005366385
0.0037191517 -0.031612787 0.015611112
0.0047402554 -0.032233734 0.018294156
0.005589352 -0.031672996 0.01863572
0.0066111097 -0.032111105 0.019141346
0.0074947318 -0.03185261 0.019888461
0.0085885674 -0.032445699 0.020242691
0.0092229098 -0.031357896 0.020398915
0.010397278 -0.03213704 0.020197451
0.011282436 -0.031966902 0.020063579
0.012329421 -0.032246176 0.019971132
0.013106965 -0.031831201 0.019223064
0.013727528 -0.031115729 0.018497229
0.015191996 -0.032282993 0.017448664
0.016043531 -0.032087062 0.016250432
0.016898805 -0.031919964 0.013698786
0.018444205 -0.03300542 0.0083968043
0.019328561 -0.032858554 0.0057645738
0.0046629459 -0.030775443 0.015219718
0.0056864163 -0.031275291 0.017748177
0.0065647578 -0.030948143 0.018874198
0.0075466032 -0.031129738 0.019409865
0.0082782842 -0.030353708 0.019933939
0.0095358044 -0.031468157 0.020001948
0.010259428 -0.030778285 0.019638091
0.011327316 -0.031150119 0.019607365
0.012215644 -0.031008942 0.01941818
0.012931567 -0.030481549 0.018176347
0.01412541 -0.031075902 0.017426431
0.015165064 -0.031277943 0.016226679
0.016257226 -0.031558145 0.013527364
0.017794879 -0.032623947 0.0085935891
0.018455027 -0.032053467 0.0057688355
0.0056082476 -0.029910656 0.013701797
0.0065243426 -0.029825566 0.017322481
0.0075457627 -0.030183051 0.018718988
0.0085088285 -0.030253612 0.019103467
0.009573753 -0.030636009 0.019155025
0.010096724 -0.02937229 0.018832356
0.011298268 -0.030128716 0.018734664
0.01205269 -0.02966816 0.018451303
0.012902814 -0.029492147 0.01661697
0.014291062 -0.030487599 0.016063958
0.014947987 -0.029895974 0.013331294
0.016665466 -0.03137029 0.0083221197
0.017328149 -0.030805599 0.00568977
0.0066089006 -0.029267989 0.013269335
0.0076267892 -0.029553808 0.017000228
0.008332856 -0.02870206 0.018050492
0.0092197862 -0.028581338 0.018245637
0.01053189 -0.029680783 0.018022567
0.011061493 -0.028575525 0.017656654
0.012012447 -0.028645067 0.016369432
0.013532437 -0.029964684 0.014522552
0.013834337 -0.028590964 0.012094021
0.015579699 -0.030185666 0.0077917874
0.016550692 -0.030180674 0.0053738952
0.0074371644 -0.027889367 0.0090817511
0.0084639946 -0.028213315 0.014657557
0.0093886461 -0.028165936 0.014851153
0.010649904 -0.029045191 0.015262097
0.011179283 -0.027948208 0.014107198
0.012224789 -0.02821105 0.012329608
0.013130787 -0.028137399 0.0094830692
0.014487732 -0.028975464 0.0073384941
0.015472552 -0.029011033 0.005348891
0.0084738601 -0.027304661 0.0057167113
0.0093514705 -0.027119264 0.0082505345
0.010179378 -0.026836542 0.0085489154
0.011287485 -0.02727809 0.008271724
0.012088562 -0.026966792 0.0075152218
