ply
format ascii 1.0
comment PCL generated
element vertex 1261
property float x
property float y
property float z
element camera 0
property float view_px
property float view_py
property float view_pz
property float x_axisx
property float x_axisy
property float x_axisz
property float y_axisx
property float y_axisy
property float y_axisz
property float z_axisx
property float z_axisy
property float z_axisz
property float focal
property float scalex
property float scaley
property float centerx
property float centery
property int viewportx
property int viewporty
property float k1
property float k2
end_header
-0.00713932 -0.062214073 0.005417645
-0.0069427071 -0.070584185 0.0060912371
-0.0055221468 -0.067370191 0.0081034303
-0.0037992122 -0.057937987 0.012517571
-0.0028527593 -0.058006108 0.016458452
-0.0018449971 -0.05627241 0.017220587
-0.00093383295 -0.056963809 0.017283559
0 -0.057301994 0.01844421
0.00093164091 -0.056830097 0.019391984
0.0018934662 -0.057750721 0.019320488
0.0028123895 -0.057185251 0.02033475
0.0037424639 -0.057072576 0.019244969
0.0047293981 -0.057698656 0.017364055
0.0055359001 -0.056281649 0.014495105
0.0067370087 -0.058708217 0.010047734
0.0080424398 -0.061323602 0.0064124465
0.0087448321 -0.059270527 0.0051751435
-0.0087482994 -0.065612242 0.0055070221
-0.0080988267 -0.06941852 0.0069539547
-0.0059728436 -0.059728436 0.0097944736
-0.0047650165 -0.0571802 0.012409419
-0.0037892235 -0.056838352 0.0159913
-0.0028372295 -0.056744594 0.017413884
-0.0018367069 -0.055101208 0.018443435
-0.00095319649 -0.057191793 0.018326968
0 -0.055131126 0.019484758
0.00095210032 -0.057126019 0.020429969
0.0018784836 -0.056354508 0.020537555
0.00277146 -0.055429202 0.021280468
0.0038038387 -0.057057582 0.020383567
0.0046788505 -0.056146208 0.019214451
0.0055570682 -0.055570681 0.016933799
0.0065315734 -0.055984914 0.01410535
0.0083547235 -0.062660426 0.0085073411
0.0087327976 -0.058218647 0.0060293078
-0.0098271668 -0.06442254 0.0054558218
-0.0083250478 -0.061397225 0.0079075694
-0.0065617808 -0.055306438 0.012294918
-0.0055453195 -0.054528974 0.015348703
-0.0047579836 -0.056144208 0.016742826
-0.0037723875 -0.055642717 0.017463833
-0.0028452487 -0.055956557 0.019060254
-0.0019067288 -0.056248501 0.019508123
-0.00093711115 -0.055289555 0.019484758
0 -0.055375978 0.021280468
0.00093382224 -0.055095512 0.021456033
0.001835834 -0.054157101 0.021583349
0.002849634 -0.056042802 0.021715641
0.0038306119 -0.056501526 0.021619737
0.0046367883 -0.054714102 0.021357507
0.0056545744 -0.055603314 0.019834727
0.0065306621 -0.055044152 0.016939551
0.0074944431 -0.055271517 0.012620986
0.0094024483 -0.061638273 0.0086279809
0.0096659632 -0.057029184 0.0057985187
-0.0087924153 -0.056662232 0.0071620047
-0.0074884868 -0.054291531 0.010578424
-0.0064981617 -0.053841911 0.015348494
-0.005738182 -0.055469096 0.016885817
-0.0047423914 -0.055011738 0.017770737
-0.0036704924 -0.053222138 0.018889397
-0.0028450289 -0.055003889 0.019833356
-0.0019298521 -0.05596571 0.020486295
-0.00092412287 -0.053599127 0.020365745
0 -0.054256432 0.0213871
0.00093460002 -0.054206803 0.021619737
0.0018781977 -0.054467734 0.021532744
0.0028090295 -0.054307904 0.021741927
0.0037345707 -0.054151278 0.021526992
0.0046732593 -0.05420981 0.021409184
0.0056585157 -0.054698985 0.020283192
0.0065795914 -0.054516613 0.018599302
0.0074080965 -0.053708702 0.014698476
0.0089880833 -0.057923201 0.011378706
0.0095903492 -0.055624027 0.0066964924
0.01080054 -0.0569483 0.0057660043
-0.0093362182 -0.053216442 0.0055751204
-0.0086398944 -0.054719329 0.0087058246
-0.0076588728 -0.054569468 0.014086366
-0.0066067441 -0.053797774 0.016835749
-0.0055893259 -0.053098597 0.017732054
-0.0046366113 -0.052857365 0.01874128
-0.0037505731 -0.053445667 0.019911051
-0.0027908776 -0.053026672 0.020486295
-0.0018723108 -0.053360857 0.021332771
-0.0009428045 -0.053739857 0.021233737
0 -0.052135739 0.021583349
0.00092477206 -0.052712005 0.021729499
0.0018866878 -0.053770605 0.022089511
0.0027747951 -0.052721106 0.022174597
0.0038248925 -0.054504719 0.022137403
0.0047005727 -0.053586528 0.021520317
0.005582382 -0.053032629 0.020914733
0.0066540726 -0.054183163 0.019824266
0.0075623938 -0.053882055 0.017208785
0.0083554061 -0.05291757 0.013552576
0.010638904 -0.060641754 0.0090442598
0.010517691 -0.054500762 0.0063251555
0.011806962 -0.056083068 0.0052413344
-0.010417612 -0.053035114 0.0050370097
-0.0093578873 -0.052404173 0.0074051321
-0.0082871914 -0.051564749 0.013111293
-0.0076460163 -0.053522114 0.015799165
-0.0065899407 -0.052719526 0.018821567
-0.0057441508 -0.053612076 0.019235134
-0.0047260351 -0.052931592 0.020747572
-0.0037300016 -0.05222002 0.020696282
-0.002854771 -0.05328906 0.021080434
-0.0018721381 -0.052419867 0.021717727
-0.0009544777 -0.053450748 0.021274328
0 -0.054027528 0.021565646
0.00093680894 -0.0524613 0.021771133
0.0018402127 -0.051525958 0.022082448
0.0028396004 -0.053005874 0.022099406
0.0038455131 -0.053837184 0.02196154
0.0046188114 -0.051730689 0.021876752
0.0056030601 -0.052295227 0.021116793
0.006560944 -0.052487552 0.020204335
0.0074545005 -0.052181505 0.018739045
0.0082707461 -0.051462419 0.014764547
0.010021174 -0.056118578 0.011993229
0.010767993 -0.054818869 0.0082266629
0.011662017 -0.054422744 0.005923748
-0.01052448 -0.0526224 0.0057955086
-0.0099204173 -0.054562297 0.01068002
-0.0089859236 -0.054913975 0.015195251
-0.0077081635 -0.052993625 0.018030107
-0.006527036 -0.051283855 0.01886934
-0.005809776 -0.053256281 0.019955397
-0.0047377632 -0.052115396 0.020489484
-0.0037615583 -0.051721428 0.020550519
-0.0028440794 -0.052141454 0.020999521
-0.0018639105 -0.05125754 0.021291852
-0.00094500347 -0.051975191 0.020947188
0 -0.052789725 0.021106064
0.00091331854 -0.050232518 0.021543264
0.0019393443 -0.053331967 0.021637768
0.0028548641 -0.052339178 0.02204445
0.0037033092 -0.050920501 0.022066116
0.0046561197 -0.051217318 0.022004932
0.0057330094 -0.052552585 0.02115646
0.0065492117 -0.051458094 0.020756871
0.0076389578 -0.052517835 0.020116448
0.0084135439 -0.051416099 0.017862082
0.0093636652 -0.051500157 0.014967442
0.012155279 -0.06077639 0.010840207
0.011742077 -0.053817853 0.0070953071
0.012752052 -0.053950991 0.0055367649
-0.010662126 -0.052341349 0.0081272721
-0.0093651218 -0.050571658 0.01408276
-0.0084746191 -0.050847713 0.015861332
-0.0076576835 -0.051689364 0.018733501
-0.0066005578 -0.05091859 0.019440293
-0.0056187329 -0.050568596 0.020755112
-0.004641308 -0.050126124 0.020742267
-0.0037816421 -0.051052168 0.021175772
-0.0028063126 -0.050513629 0.021113425
-0.0019069792 -0.05148844 0.02193737
-0.0009271733 -0.050067358 0.021312714
0 -0.050403159 0.021694601
0.00093210925 -0.050333902 0.022065371
0.0018918666 -0.051080398 0.022272766
0.0027732239 -0.049918033 0.022257417
0.0037667735 -0.050851442 0.02221173
0.0047272244 -0.051054019 0.022198588
0.0055364752 -0.049828276 0.021854311
0.0065924544 -0.050856076 0.021169603
0.0074792914 -0.050485216 0.020703197
0.0084022423 -0.050413456 0.019773453
0.0093157766 -0.050305195 0.018557936
0.010593779 -0.052005824 0.012564868
0.012482111 -0.056169499 0.0086401701
0.012605143 -0.052359823 0.0061717927
0.013639278 -0.052608643 0.0052255988
-0.011033603 -0.048731748 0.0059007108
-0.011482586 -0.055325188 0.010515243
-0.010657508 -0.056484792 0.014327765
-0.0093614692 -0.055128653 0.016358137
-0.0088360067 -0.058538549 0.018870652
-0.0064518256 -0.048849534 0.0203363
-0.0056890398 -0.050253186 0.020872056
-0.0047148257 -0.04997715 0.021267265
-0.0037595343 -0.049813829 0.021265388
-0.00278461 -0.049194776 0.021185935
-0.0018808126 -0.049841534 0.021853507
-0.00094315759 -0.04998735 0.021798134
0 -0.050811157 0.021754742
0.0009412074 -0.049883991 0.022072434
0.0018468066 -0.048940375 0.022157133
0.0027798566 -0.0491108 0.022173584
0.0038487511 -0.05099595 0.022063136
0.0046733869 -0.049537905 0.022156745
0.0056056785 -0.049516827 0.021726549
0.0065827733 -0.049840998 0.021285027
0.0075359782 -0.049925856 0.021132618
0.0086513525 -0.050946854 0.020034671
0.0093458053 -0.049532767 0.019532204
0.010021714 -0.048286442 0.016299307
0.012812109 -0.056586813 0.01089862
0.012538104 -0.051116887 0.0072967112
0.01367965 -0.051787246 0.0051051378
-0.01129764 -0.048956443 0.0062542856
-0.01049229 -0.049599916 0.010910541
-0.010514546 -0.054675639 0.015191436
-0.0099813379 -0.057669953 0.016500384
-0.0079884678 -0.051925041 0.019117594
-0.0065218601 -0.048448104 0.020611733
-0.0057607847 -0.049926799 0.021072477
-0.004663696 -0.048502438 0.021189243
-0.0036771861 -0.047803421 0.021475345
-0.002821761 -0.048910521 0.021265388
-0.0018774245 -0.048813038 0.021479487
-0.00093670981 -0.048708912 0.021312714
0 -0.049453847 0.021308452
0.00091976626 -0.047827847 0.021704346
0.0018825441 -0.048946146 0.022077531
0.0028128016 -0.048755229 0.021700352
0.0036779176 -0.047812928 0.021772504
0.0047794883 -0.049706679 0.021831185
0.0055841766 -0.048396196 0.021507323
0.0065329513 -0.048530493 0.02141571
0.0075151166 -0.04884826 0.021431923
0.0083493143 -0.048240483 0.020712405
0.0094153844 -0.048959997 0.019850314
0.010423262 -0.049273599 0.018360615
0.01154035 -0.050008181 0.012309313
0.013171026 -0.052684106 0.0083194673
0.013585207 -0.05045934 0.0058160126
-0.011625986 -0.04941044 0.0069758594
-0.010167314 -0.047139365 0.010786146
-0.0091985278 -0.046912491 0.015094787
-0.0084716668 -0.04800611 0.016643494
-0.0075166305 -0.047918521 0.018846661
-0.0065479246 -0.047706306 0.020334989
-0.0056288242 -0.047845006 0.020863473
-0.0047130943 -0.04807356 0.020850807
-0.0037535154 -0.047857322 0.021348953
-0.0029111956 -0.049490325 0.020999521
-0.0018824356 -0.048002109 0.021270394
-0.00093543611 -0.047707241 0.02094996
0 -0.047017284 0.021072298
0.00094567612 -0.048229482 0.021505266
0.0018998678 -0.048446629 0.022018403
0.0027927072 -0.04747602 0.021599174
0.0038405512 -0.048967026 0.021775573
0.0047219316 -0.048163701 0.021603227
0.0056021302 -0.047618106 0.021617889
0.0066831578 -0.048691578 0.021646678
0.0076077972 -0.048499707 0.021620512
0.0083422353 -0.047272671 0.021422178
0.0093758442 -0.047816806 0.02125603
0.010291976 -0.047717344 0.019753993
0.011101054 -0.047179479 0.017250121
0.013831678 -0.054262739 0.010402739
0.013587887 -0.049498733 0.0076467693
0.014473078 -0.049208466 0.0051738918
-0.011704249 -0.048767705 0.0069919229
-0.010273212 -0.046696417 0.010910541
-0.0094934581 -0.047467291 0.015032828
-0.0084283436 -0.046824131 0.01672712
-0.0077126333 -0.048203956 0.018827617
-0.0066507454 -0.047505327 0.020234525
-0.0055275289 -0.046062741 0.02069962
-0.0047225459 -0.04722546 0.020593792
-0.0038205665 -0.047757078 0.020987332
-0.0028468352 -0.047447253 0.020898104
-0.0018967006 -0.047417518 0.021119833
-0.00094299507 -0.047149755 0.021099359
0 -0.047415063 0.021156073
0.00094153214 -0.047076609 0.021255672
0.0018458635 -0.04614659 0.021711886
0.0028168454 -0.046947423 0.021458566
0.0038344637 -0.047930796 0.022086114
0.0045896708 -0.045896709 0.022221029
0.005600669 -0.04667224 0.021841824
0.006559873 -0.046856236 0.021872878
0.0074103493 -0.046314683 0.021896183
0.0085287131 -0.047381744 0.021521628
0.0093277078 -0.046638541 0.021440506
0.010356326 -0.04707421 0.019874573
0.011339405 -0.047247522 0.019313604
0.012113114 -0.046588901 0.012310714
0.014397298 -0.051418923 0.009435147
0.014406412 -0.048021372 0.0054905117
-0.012677782 -0.047785487 0.0062479675
-0.011474618 -0.04685469 0.0084284842
-0.010318062 -0.045962278 0.014068633
-0.0092648827 -0.045397926 0.015929937
-0.0084189707 -0.045836616 0.017657012
-0.0075858315 -0.046463218 0.019587517
-0.0065009571 -0.045506697 0.020871222
-0.0057571637 -0.047016837 0.021267265
-0.0047200834 -0.046256818 0.021234006
-0.0038217688 -0.046816666 0.021382272
-0.0028402379 -0.046390552 0.021272391
-0.0018741363 -0.045916338 0.021757156
-0.00092488492 -0.04531936 0.02136302
0 -0.045660026 0.021543264
0.00092189794 -0.045173001 0.021733135
0.0018677965 -0.045761015 0.021879673
0.0027983594 -0.045706537 0.021581262
0.0037176539 -0.04554126 0.022152364
0.0046405364 -0.045477256 0.022228718
0.0055966121 -0.045705669 0.022048235
0.0064796242 -0.045357369 0.022141308
0.0075395112 -0.046179507 0.022164613
0.0083838664 -0.045645494 0.021833539
0.0092466008 -0.045308344 0.021499544
0.010229581 -0.045568135 0.02115953
0.011207 -0.045761917 0.019405127
0.011834233 -0.044605955 0.017059624
0.014024572 -0.049086001 0.010938793
0.014721599 -0.048090558 0.0079962611
0.015476394 -0.047396455 0.0053162575
-0.013569833 -0.046525139 0.005127281
-0.012738654 -0.047035031 0.0070776045
-0.013655029 -0.054620117 0.0092872679
-0.010698023 -0.046682283 0.014182836
-0.0094579589 -0.045398202 0.016144544
-0.0085850749 -0.045787062 0.017252982
-0.0075282087 -0.045169253 0.018911391
-0.0064705811 -0.044369698 0.020574063
-0.0055804513 -0.044643611 0.021208286
-0.0046730908 -0.044861671 0.021249831
-0.0038439168 -0.046127003 0.021382272
-0.0027941188 -0.044705901 0.021272391
-0.001885331 -0.045247942 0.021385938
-0.00093743147 -0.044996712 0.021322221
0 -0.044309188 0.021429926
0.00095120916 -0.045658041 0.021855593
0.0019212989 -0.046111174 0.021591932
0.0028175281 -0.045080449 0.021019787
0.0037541834 -0.0450502 0.021452934
0.0046615084 -0.044750482 0.021525532
0.0056561599 -0.04524928 0.021731824
0.0065977308 -0.045241583 0.022134602
0.0074145957 -0.044487573 0.022164613
0.0085543562 -0.045623232 0.021891385
0.0094189551 -0.045210984 0.021838963
0.010284421 -0.044877473 0.02134338
0.011178346 -0.044713385 0.019931108
0.012129524 -0.044785935 0.019265741
0.013113497 -0.044960558 0.015539765
0.015741277 -0.050372086 0.009385258
0.015470391 -0.046411172 0.0074053407
-0.014367581 -0.04501842 0.0052599013
-0.0149984 -0.050351769 0.0071109831
-0.014027276 -0.050713997 0.0087464154
-0.011522564 -0.045130044 0.012673944
-0.010962653 -0.046840426 0.015132815
-0.0094212238 -0.044279754 0.01670295
-0.0084143262 -0.043941479 0.017686337
-0.0076397411 -0.044883478 0.019466311
-0.0066722864 -0.044799637 0.020850807
-0.0056586186 -0.044325847 0.021232724
-0.004803767 -0.04515541 0.021191269
-0.0037497259 -0.04405928 0.021337122
-0.0027911405 -0.043727867 0.021226972
-0.0019043187 -0.044751488 0.021728367
-0.00093265914 -0.043834981 0.021661699
0 -0.044319369 0.021556288
0.00094021892 -0.044190288 0.021911293
0.0018654227 -0.043837432 0.02158308
0.0028405217 -0.04450151 0.021142483
0.0037955705 -0.044597954 0.021301538
0.0046513635 -0.043722816 0.021240532
0.0056973891 -0.044629548 0.02133736
0.0064879525 -0.043561965 0.021926075
0.007371543 -0.043307815 0.022013217
0.0084433993 -0.044093311 0.021859914
0.0093493061 -0.04394174 0.021723866
0.010266133 -0.043864388 0.021392256
0.011167169 -0.043738078 0.02043125
0.012164947 -0.043980964 0.019461155
0.012923037 -0.043384481 0.018147171
0.014657273 -0.04592612 0.01143527
0.015671898 -0.046036202 0.0082812607
0.016509887 -0.045644984 0.0054014921
-0.016976405 -0.052060973 0.0071902573
-0.014163882 -0.046538468 0.0084284842
-0.012484688 -0.04417659 0.012129426
-0.011714631 -0.044906087 0.014664561
-0.010812257 -0.045214891 0.016144544
-0.0097245257 -0.044732817 0.017338216
-0.0084053418 -0.042960633 0.018351585
-0.0076220091 -0.04382655 0.019543946
-0.0065543568 -0.043071486 0.020714939
-0.0056643351 -0.04342657 0.021507502
-0.0046515525 -0.042794283 0.021249533
-0.0037845068 -0.043521829 0.021272928
-0.0028581957 -0.043825667 0.021191269
-0.0018796431 -0.043231789 0.021661699
-0.0009162355 -0.042146832 0.02169624
0 -0.04337256 0.021806568
0.00091934489 -0.042289864 0.021911293
0.0018893979 -0.043456152 0.021535993
0.0028417346 -0.043573264 0.021158218
0.003730613 -0.042902052 0.02123791
0.0046872161 -0.043122388 0.021100938
0.0056211739 -0.043095667 0.021205902
0.0065364344 -0.042953711 0.021775037
0.0075815339 -0.04359382 0.022010595
0.0083762668 -0.042812031 0.021773547
0.0092936112 -0.042750612 0.021656394
0.01030275 -0.04308423 0.021368623
0.011213694 -0.042985827 0.020764977
0.012041861 -0.042609666 0.020218283
0.013116348 -0.043096572 0.019332379
0.013967881 -0.042834833 0.017465234
0.017721396 -0.050949015 0.0098623931
0.016354192 -0.044252519 0.0076043606
-0.01643143 -0.0462134 0.0070440471
-0.015028507 -0.04508552 0.0085636079
-0.01332324 -0.0428247 0.010558844
-0.012887555 -0.044610769 0.013747185
-0.011496369 -0.043111384 0.014845163
-0.010348024 -0.042332824 0.01666671
-0.0098479837 -0.044315927 0.01741451
-0.0085948976 -0.042974487 0.018178642
-0.0075305887 -0.042359561 0.019305378
-0.0066266991 -0.042600207 0.020372301
-0.0056872088 -0.042654064 0.021387547
-0.0046934742 -0.042241264 0.021130532
-0.00373318 -0.041998275 0.021289736
-0.0028809744 -0.043214615 0.021272391
-0.0018409308 -0.04142094 0.02169624
-0.0009482156 -0.042669702 0.02169624
0 -0.04195099 0.021911293
0.00094717904 -0.042623058 0.021911293
0.0019023886 -0.042803746 0.021535993
0.00276117 -0.04141755 0.021318316
0.0037097684 -0.041734897 0.021561593
0.0046666488 -0.041999839 0.021449178
0.0055526001 -0.041644502 0.021647513
0.006518736 -0.041906159 0.021850646
0.0074506113 -0.041909687 0.021907389
0.0084067285 -0.042033643 0.021855563
0.0094170533 -0.042376742 0.021931082
0.010331264 -0.04226426 0.021506488
0.011365461 -0.04262048 0.021267951
0.012256961 -0.042427942 0.021073937
0.013185896 -0.042383239 0.019542307
0.013800198 -0.041400593 0.019170403
0.015355303 -0.043186788 0.012193948
0.016962633 -0.044901084 0.0089113116
0.017433314 -0.043583281 0.0060498416
-0.019787768 -0.048370097 0.0050280988
-0.016633786 -0.043052156 0.007432431
-0.015586756 -0.042863581 0.0088673234
-0.014626793 -0.04290526 0.010638505
-0.013589781 -0.04271074 0.012264282
-0.012502102 -0.042314809 0.014749527
-0.011286066 -0.041382242 0.015587986
-0.01071907 -0.042876281 0.016581118
-0.0095916446 -0.042203236 0.017512143
-0.0085578328 -0.041838296 0.018368393
-0.0074991002 -0.041245051 0.019248486
-0.0065338556 -0.041069951 0.020745486
-0.0055699483 -0.040846288 0.021317244
-0.0046271509 -0.040718928 0.021359801
-0.0037464546 -0.041211002 0.021714568
-0.0028217917 -0.041386276 0.021582365
-0.0019079293 -0.041974444 0.021797746
-0.00093598681 -0.04118342 0.021857321
0 -0.041360613 0.021923214
0.00094092562 -0.041400727 0.021918535
0.0018497624 -0.040694773 0.021535993
0.0027925256 -0.040957041 0.021561593
0.0037632822 -0.041396104 0.021561593
0.0046426975 -0.040855739 0.021205902
0.0054945946 -0.040293694 0.02133736
0.0066102422 -0.041550096 0.02170223
0.0074478937 -0.040963415 0.021912843
0.0085677085 -0.041886576 0.022059083
0.0093575837 -0.041173369 0.022116363
0.010286633 -0.041146532 0.021847039
0.011438184 -0.041940007 0.021414369
0.012072717 -0.040861502 0.021354318
0.013055744 -0.041032337 0.02043125
0.014060146 -0.041243095 0.019402534
0.01452132 -0.039933629 0.017552018
0.018058771 -0.046740346 0.010057569
0.017433804 -0.042615961 0.007398963
-0.018772088 -0.042484201 0.0052798986
-0.01734647 -0.041438792 0.0075941086
-0.016783278 -0.042451821 0.0091998577
-0.015435028 -0.041481636 0.011344463
-0.014384911 -0.041236747 0.012373954
-0.013574721 -0.041693788 0.014208108
-0.012474648 -0.041262295 0.014887542
-0.011460375 -0.041066345 0.015932441
-0.010443075 -0.040822931 0.016779572
-0.0093224347 -0.040086471 0.017512143
-0.0087198652 -0.041661579 0.018327415
-0.007725067 -0.041522235 0.01931861
-0.0066778143 -0.041020859 0.020689726
-0.0057207812 -0.040998932 0.020878732
-0.0046741986 -0.040198106 0.020835936
-0.0037187338 -0.039976388 0.021403521
-0.0028588024 -0.04097617 0.021272093
-0.0018606561 -0.040004104 0.021542877
-0.00091930054 -0.039529923 0.021651804
0 -0.040258929 0.021866649
0.00092594669 -0.039815709 0.021539986
0.0018927279 -0.040693652 0.021083146
0.0028300846 -0.040564544 0.021167517
0.0036877606 -0.039643425 0.021162838
0.0046873065 -0.040310837 0.020966321
0.0056981011 -0.04083639 0.021205902
0.0065813679 -0.040428404 0.021563798
0.0075236494 -0.040439617 0.021671832
0.0083676474 -0.039978758 0.021606714
0.0092590414 -0.03981388 0.021723866
0.010354574 -0.04047697 0.02158621
0.011209519 -0.040167443 0.02140519
0.012085658 -0.039975636 0.021360785
0.013288075 -0.040813375 0.020674109
0.013913305 -0.039884809 0.019542307
0.014944701 -0.040163886 0.018046498
0.016014848 -0.040508147 0.01229322
0.018354081 -0.043845862 0.0093959868
0.01843187 -0.041714236 0.0062315762
-0.019318309 -0.040568449 0.005782038
-0.018549038 -0.041003138 0.0076650381
-0.017809438 -0.041555356 0.0092839599
-0.01627815 -0.040216606 0.011640638
-0.015292946 -0.040143982 0.012870878
-0.014798256 -0.041435115 0.013933241
-0.013304492 -0.039913476 0.01449433
-0.012103274 -0.039102886 0.015306413
-0.011347923 -0.039717734 0.015999198
-0.010261541 -0.039180432 0.016780227
-0.0094828941 -0.039828155 0.017263383
-0.0083518671 -0.03897538 0.018327415
-0.0076071639 -0.039937608 0.018996537
-0.0065144696 -0.039086819 0.020197004
-0.0056264913 -0.039385442 0.020621002
-0.0046261051 -0.038859282 0.020435363
-0.0037417172 -0.039288029 0.021272093
-0.0028052519 -0.039273527 0.021140724
-0.0018716604 -0.039304867 0.021305442
-0.00094394857 -0.039645839 0.021599084
0 -0.039610114 0.021866649
0.00094254618 -0.039586939 0.021702886
0.0018777578 -0.039432913 0.02117005
0.0027425105 -0.038395148 0.021926194
0.0037780562 -0.039669588 0.021825135
0.0046565901 -0.039115358 0.02169162
0.0055471114 -0.038829781 0.021847039
0.0066015287 -0.039609171 0.021767318
0.0074223252 -0.038967207 0.021840215
0.0084550101 -0.039456714 0.021824002
0.0094225472 -0.039574698 0.021996021
0.010379544 -0.039630983 0.022121996
0.011165082 -0.039077785 0.02158621
0.012308469 -0.039765824 0.0216676
0.013121923 -0.039365768 0.020988286
0.013989383 -0.039170273 0.020403385
0.015016097 -0.039417256 0.018995166
0.015468283 -0.038215756 0.016765773
0.018011183 -0.042026091 0.010671437
0.018760808 -0.041471262 0.0079552829
-0.020689735 -0.040394243 0.0053780079
-0.019422017 -0.039815135 0.0076872706
-0.018830417 -0.040634055 0.0094711781
-0.017256994 -0.039307598 0.011742145
-0.016303159 -0.039319385 0.012661129
-0.015586512 -0.039940439 0.013936341
-0.014420915 -0.039417166 0.014670998
-0.013211625 -0.038691185 0.015396565
-0.012242827 -0.038611989 0.015889913
-0.011503813 -0.039304696 0.016405255
-0.010327344 -0.038492829 0.016627252
-0.0094086155 -0.038575325 0.01728946
-0.0085900547 -0.039132472 0.018327415
-0.0076716123 -0.039317012 0.01903978
-0.0066715796 -0.039076395 0.019817024
-0.0056803189 -0.038815513 0.020634621
-0.0047572348 -0.039009325 0.020321339
-0.0037729701 -0.038672943 0.02098152
-0.0028131439 -0.0384463 0.020838439
-0.0018603367 -0.038136903 0.021303952
-0.00093206728 -0.038214758 0.021651804
0 -0.03780238 0.021866649
0.00094889646 -0.038904756 0.021527171
0.001876556 -0.038469397 0.021187305
0.0028065587 -0.0383563 0.021502674
0.0037619951 -0.03856045 0.021565855
0.0045953579 -0.037681937 0.021437347
0.0057677478 -0.039412942 0.021568149
0.0067539448 -0.039558817 0.021346092
0.0074155671 -0.038004778 0.021953106
0.008477035 -0.038617607 0.021568149
0.0093945954 -0.038517844 0.0216676
0.010210681 -0.038057994 0.021875024
0.011280012 -0.038540043 0.021547794
0.011995642 -0.037832405 0.021575153
0.013164702 -0.038553771 0.021201491
0.014196074 -0.038802601 0.020923585
0.014927528 -0.038251791 0.019998074
0.016009035 -0.038610023 0.017604381
0.016815124 -0.038301118 0.012890071
0.01973537 -0.042586848 0.0099875033
0.019330669 -0.039627872 0.0061262846
-0.020230737 -0.038534734 0.0063798428
-0.019476887 -0.038953774 0.009098947
-0.017723005 -0.037311591 0.011146545
-0.017045433 -0.037878741 0.012455523
-0.016416095 -0.038626105 0.013872534
-0.015087446 -0.037718616 0.014859229
-0.014267411 -0.038046431 0.015437692
-0.013540977 -0.038688503 0.015803546
-0.012373588 -0.038072579 0.016441584
-0.011408038 -0.038026795 0.016536862
-0.010352854 -0.037646741 0.017041415
-0.0092471112 -0.036988445 0.017379552
-0.0086685373 -0.038526833 0.017957598
-0.007498988 -0.037494939 0.01903978
-0.0065602143 -0.037486941 0.020197004
-0.0057099676 -0.038066451 0.020698488
-0.0046718912 -0.03737513 0.020571589
-0.0036998149 -0.036998149 0.021092087
-0.0028654682 -0.038206242 0.021272928
-0.0018852203 -0.037704404 0.021308988
-0.00092505809 -0.037002321 0.021906197
0 -0.038558535 0.022100091
0.00092865562 -0.037146226 0.021809965
0.001895586 -0.037911721 0.021437466
0.0028334567 -0.037779424 0.021597892
0.0037405447 -0.037405446 0.02154249
0.0047292034 -0.037833627 0.021402746
0.0056309518 -0.03753968 0.021495432
0.0064343195 -0.036767539 0.021392465
0.0074209548 -0.037104774 0.021623194
0.0083761113 -0.037227161 0.021551341
0.0092830751 -0.0371323 0.021614343
0.010294522 -0.037434626 0.021722227
0.011248598 -0.037495326 0.021643043
0.012174729 -0.037460707 0.021664381
0.013250057 -0.037857305 0.021187812
0.013895416 -0.037054442 0.020794183
0.015143013 -0.037857533 0.02022022
0.015927268 -0.037475925 0.019029081
0.016689086 -0.037086856 0.017405212
0.018465947 -0.03887568 0.010835677
0.02004569 -0.04009138 0.0078114271
-0.020646257 -0.03834305 0.0078576207
-0.019096816 -0.037238792 0.010706395
-0.018380255 -0.037727892 0.01200828
-0.017368831 -0.037632469 0.013287812
-0.016040104 -0.036797885 0.014904767
-0.015301863 -0.037298292 0.01580143
-0.014514143 -0.03773677 0.016534626
-0.01297616 -0.036147874 0.016803563
-0.012322845 -0.036968533 0.016857982
-0.01148041 -0.03731133 0.016812801
-0.010461439 -0.037090559 0.017046601
-0.0095037073 -0.037064459 0.01735729
-0.0084336922 -0.036545999 0.01787582
-0.0076886821 -0.037482325 0.018500596
-0.0067611998 -0.037669539 0.019461423
-0.0055950843 -0.03636805 0.02036804
-0.0046615112 -0.036359787 0.02018401
-0.0037561418 -0.036622383 0.020623922
-0.0028281433 -0.036765862 0.021070212
-0.001832898 -0.035741512 0.021060079
-0.00094267703 -0.036764402 0.021700382
0 -0.035589766 0.02212742
0.00095456711 -0.037228119 0.021614224
0.0019046043 -0.037139781 0.021286786
0.0028222899 -0.036689769 0.021351844
0.0037217534 -0.036287095 0.021340728
0.0046990081 -0.036652263 0.021334946
0.0055168006 -0.035859205 0.021669805
0.0066353045 -0.036968127 0.021489799
0.0074799443 -0.036464728 0.021698654
0.0085741449 -0.037154626 0.021706194
0.0094774971 -0.036962237 0.021664381
0.010315945 -0.036574718 0.021886647
0.011212725 -0.036441356 0.021795869
0.012341067 -0.037023202 0.021969378
0.012998341 -0.036209665 0.021651208
0.013989513 -0.036372732 0.02121526
0.015103973 -0.036815934 0.020970315
0.015636202 -0.035871286 0.020019084
0.016827187 -0.036458906 0.01844871
0.017429013 -0.035775341 0.01545459
0.020870203 -0.040696897 0.0098806024
0.020238345 -0.037585497 0.006411761
-0.021330301 -0.036843248 0.0052992702
-0.01984687 -0.035913385 0.0089424551
-0.019078366 -0.036248896 0.011323094
-0.018059535 -0.03611907 0.012709171
-0.016799618 -0.035465859 0.014172882
-0.016146624 -0.036092453 0.015487105
-0.015339737 -0.036431875 0.016335487
-0.014297394 -0.036220066 0.017268836
-0.013388098 -0.036339123 0.017167807
-0.012434437 -0.036346816 0.017263383
-0.011182634 -0.035411675 0.016970158
-0.010208574 -0.035265982 0.017075747
-0.0095072761 -0.036127649 0.017306864
-0.008402341 -0.035476554 0.017561436
-0.0076135038 -0.036164142 0.01795724
-0.0066220127 -0.035948068 0.018368721
-0.0057179434 -0.036213644 0.019326955
-0.0047209137 -0.035878941 0.019459009
-0.0037970797 -0.036072258 0.020224184
-0.0027761678 -0.035164792 0.020556629
-0.0018992207 -0.036085196 0.02034691
-0.00094321696 -0.035842244 0.0211353
0 -0.035874795 0.021661699
0.00093352195 -0.035473835 0.02158919
0.0018471489 -0.03509583 0.021454364
0.0028067152 -0.035551727 0.021351844
0.0037173284 -0.03531462 0.021459103
0.0046142163 -0.035068043 0.021340728
0.0057292837 -0.036285464 0.021623373
0.0065012402 -0.035292447 0.021506518
0.007425251 -0.035269942 0.021739274
0.0085224928 -0.035983857 0.021804094
0.0093018552 -0.035347048 0.021761
0.010278973 -0.03550918 0.021924227
0.011391074 -0.036071736 0.022015929
0.012099314 -0.035367224 0.022015929
0.013232829 -0.035917681 0.021725088
0.014446373 -0.036597479 0.021243393
0.014546235 -0.03454731 0.021119028
0.016172515 -0.036150329 0.020669878
0.016808389 -0.035484377 0.019854218
0.017362891 -0.034725782 0.017563522
0.019212345 -0.036503457 0.011431515
0.021190796 -0.038345251 0.0077292919
0.0211468 -0.036526293 0.0056546926
-0.021489358 -0.036141194 0.0058481991
-0.020264694 -0.03570446 0.0094839633
-0.019229097 -0.035573829 0.011314392
-0.017935432 -0.034926895 0.012943953
-0.017044956 -0.035036854 0.015146405
-0.016495375 -0.035901699 0.015926272
-0.014976871 -0.034634013 0.016701013
-0.01426701 -0.035191957 0.017448157
-0.013469788 -0.035598725 0.017292708
-0.012119723 -0.034494597 0.017275035
-0.011361642 -0.035031728 0.017084986
-0.010576497 -0.035575487 0.017088175
-0.0094656786 -0.035023011 0.017171174
-0.0084428089 -0.034709323 0.01740104
-0.0076650809 -0.035450999 0.017561436
-0.0067115277 -0.035475217 0.017997473
-0.0057522398 -0.035472147 0.018906444
-0.0047616893 -0.0352365 0.019069582
-0.0037258063 -0.034463707 0.019802123
-0.0028269752 -0.034866028 0.019895762
-0.0018800455 -0.034780841 0.020223767
-0.00093387323 -0.034553312 0.02065888
0 -0.034512807 0.021052539
0.00093551952 -0.034614224 0.021042645
0.0018905329 -0.034974858 0.021136314
0.002868314 -0.035375874 0.021325231
0.0037028815 -0.034251653 0.021437466
0.0047754073 -0.035338014 0.021351844
0.0057248045 -0.035302963 0.021632075
0.0065182089 -0.034453392 0.021527886
0.0076338686 -0.03530664 0.021739274
0.0083961757 -0.034517609 0.021836579
0.0093193874 -0.03448173 0.021761
0.010327755 -0.034738816 0.021830529
0.011254864 -0.034702495 0.02178365
0.012088827 -0.034406662 0.021877259
0.013413482 -0.035449918 0.021520257
0.014007443 -0.034551691 0.021444052
0.015136738 -0.035003707 0.021229327
0.015891608 -0.034587618 0.020849019
0.016799357 -0.034532011 0.02014637
0.018061567 -0.035172526 0.019048393
0.018629864 -0.034465246 0.015864998
0.021204531 -0.037360363 0.0098357797
0.021871086 -0.036783192 0.0060582757
-0.021358971 -0.034951042 0.006095022
-0.020307725 -0.034813244 0.0095047951
-0.018771954 -0.033789515 0.011569202
-0.018399067 -0.034861393 0.013635308
-0.017090632 -0.034181263 0.015104473
-0.015870551 -0.033608224 0.015720874
-0.015407397 -0.034666643 0.016623259
-0.014303256 -0.034327812 0.017151445
-0.013164086 -0.03385051 0.017238289
-0.012539336 -0.034724317 0.017084986
-0.011642229 -0.034926686 0.016923696
-0.01050788 -0.034389425 0.01695767
-0.0094983866 -0.03419419 0.016866028
-0.0085934931 -0.034373973 0.01699087
-0.0076317503 -0.034342878 0.017044127
-0.0066157901 -0.034024063 0.017436624
-0.0056485943 -0.033891566 0.017769963
-0.0046811076 -0.033703975 0.017796695
-0.0038881479 -0.034993332 0.018775016
-0.0027960008 -0.03355201 0.019139618
-0.0018831749 -0.033897147 0.019585222
-0.00094683992 -0.034086235 0.020240098
0 -0.034053419 0.020926267
0.0009351332 -0.033664797 0.020898074
0.0018598837 -0.033477906 0.021218151
0.0027895991 -0.03347519 0.02140218
0.0038174232 -0.034356806 0.021621704
0.004723785 -0.034011252 0.021590322
0.0056884657 -0.034130793 0.022048563
0.0066034147 -0.033960417 0.021713078
0.0075117801 -0.033803012 0.02196756
0.0084343953 -0.033737581 0.022083312
0.0095191104 -0.034268796 0.022106826
0.010238362 -0.033507362 0.022050709
0.01128899 -0.033866972 0.021935821
0.012062417 -0.033403616 0.021975935
0.012959344 -0.033324029 0.021874398
0.013938592 -0.033452619 0.021701783
0.014929754 -0.033591945 0.021394312
0.015855016 -0.03357533 0.020953178
0.016889991 -0.033779982 0.020039529
0.017775351 -0.033679612 0.018880755
0.018288435 -0.032919183 0.017315686
0.02020799 -0.034642268 0.010820061
0.0226153 -0.037006855 0.0069841146
0.022183895 -0.034722619 0.0055003464
-0.021770885 -0.034635499 0.0061450601
-0.020101296 -0.033502162 0.0090125501
-0.019388899 -0.033930574 0.011124045
-0.017838495 -0.032860387 0.013030678
-0.016881842 -0.032825802 0.014753699
-0.01632265 -0.033605456 0.01552096
-0.014924462 -0.03264726 0.016606778
-0.013783747 -0.032162078 0.01706928
-0.013536508 -0.033841271 0.017113388
-0.012378168 -0.03332584 0.017073005
-0.011264539 -0.032854907 0.016855329
-0.010346684 -0.032921266 0.016800016
-0.0095005585 -0.033251952 0.016637415
-0.0085767936 -0.033354197 0.016637415
-0.0075057177 -0.032837514 0.016662627
-0.0066808942 -0.033404469 0.016866028
-0.0056561171 -0.032994017 0.01721096
-0.0048452793 -0.033916954 0.017322719
-0.0037970745 -0.0332244 0.017755628
-0.0027897034 -0.032546543 0.018194705
-0.001875196 -0.03281593 0.018996119
-0.00093230227 -0.032630578 0.019587964
0 -0.033573903 0.020223051
0.00093333871 -0.032666855 0.020121753
0.0018723913 -0.032766849 0.020896256
0.0028303091 -0.033020273 0.020917684
0.0037502514 -0.0328147 0.021360546
0.0047212136 -0.033048496 0.02158162
0.0056952559 -0.033222325 0.022106826
0.006552021 -0.032760106 0.021795392
0.0075720404 -0.033127677 0.021928757
0.0084418384 -0.03282937 0.022106826
0.0093177026 -0.032611959 0.022114605
0.010246119 -0.032601289 0.022096604
0.011526353 -0.033618528 0.022083133
0.012250625 -0.03298245 0.022014737
0.01316201 -0.032905027 0.022094935
0.014250761 -0.033251774 0.022001266
0.014958578 -0.032721888 0.021624744
0.015995409 -0.032931726 0.021170199
0.016909251 -0.032879099 0.020401001
0.017677652 -0.032564096 0.019066483
0.018633805 -0.032609157 0.017067403
0.019339234 -0.032232057 0.010967851
0.021666417 -0.034469299 0.00700441
0.022349877 -0.034010682 0.0051956475
-0.020045629 -0.03245483 0.0078346729
-0.019058198 -0.032398935 0.010694832
-0.018060047 -0.032317977 0.012362808
-0.017133418 -0.032363124 0.014184773
-0.016176078 -0.032352157 0.015439987
-0.014768967 -0.031384055 0.016101718
-0.014647814 -0.033201713 0.016514152
-0.013204211 -0.03206737 0.017046601
-0.011973734 -0.031315919 0.016855329
-0.011514256 -0.032623727 0.016211361
-0.010518621 -0.032512099 0.01588276
-0.0092771547 -0.031542327 0.01571542
-0.0085090231 -0.032145198 0.015259594
-0.0076941811 -0.03270027 0.015318483
-0.0067250431 -0.032664496 0.015513361
-0.0056892075 -0.032238841 0.01588282
-0.0048579155 -0.033033825 0.016488075
-0.0039047312 -0.033190217 0.016906738
-0.0028987997 -0.032853063 0.017343283
-0.001900738 -0.032312546 0.017878979
-0.00094745139 -0.032213345 0.019034743
0 -0.031840321 0.019916594
0.00093470892 -0.031780105 0.02006802
0.001881838 -0.031991243 0.020587176
0.0028651459 -0.032471653 0.020642936
0.0037315886 -0.031718504 0.021168351
0.0046808152 -0.031829543 0.021541417
0.0056665302 -0.032110337 0.021928757
0.0065381411 -0.031756684 0.021593273
0.0075454479 -0.032068152 0.021830529
0.0082681961 -0.031235408 0.02190274
0.0094161201 -0.03201481 0.022068053
0.01028465 -0.031788919 0.02200067
0.011212963 -0.031770062 0.021911889
0.012182076 -0.031860817 0.02192229
0.013048105 -0.031688254 0.022039831
0.013904823 -0.031517599 0.021845996
0.015226112 -0.032355487 0.021508962
0.015973115 -0.031946231 0.020879507
0.016746415 -0.031632114 0.019958556
0.017864497 -0.031968046 0.018745571
0.018776873 -0.031920683 0.016781837
0.019287428 -0.031227265 0.010898262
0.020484421 -0.03165774 0.0068640411
0.024969853 -0.036911957 0.0051591694
-0.020470569 -0.032168038 0.0056413412
-0.019432509 -0.032063641 0.0095877945
-0.018048901 -0.031348091 0.011386156
-0.016823573 -0.030843217 0.013582468
-0.016067732 -0.031190302 0.015206993
-0.015509127 -0.031987574 0.01562959
-0.013970969 -0.030736133 0.016118437
-0.013027103 -0.030706741 0.016436189
-0.012606171 -0.032000281 0.016309381
-0.011605929 -0.031916305 0.015710056
-0.010321104 -0.030963311 0.015468031
-0.0097021908 -0.032017231 0.01504606
-0.0086842161 -0.031842127 0.014729828
-0.0075943917 -0.031326864 0.014113843
-0.0066518043 -0.031358507 0.013930529
-0.0058056531 -0.031931091 0.014221162
-0.0048476593 -0.031994551 0.014991999
-0.0039399313 -0.032504436 0.015681028
-0.0029290423 -0.032219466 0.016488075
-0.0018970028 -0.031300545 0.01700601
-0.00093613425 -0.03089243 0.017725617
0 -0.030598789 0.019240379
0.00094040181 -0.031033261 0.019327641
0.0019095618 -0.031507768 0.019925684
0.0028096128 -0.03090574 0.020385653
0.0037916687 -0.031281266 0.021145225
0.0046288078 -0.03055013 0.021484882
0.0055957087 -0.030776398 0.022004306
0.0065528103 -0.030891821 0.0216268
0.0075105187 -0.030980889 0.021753103
0.0084099369 -0.030836437 0.021753103
0.0093870936 -0.030977409 0.021975935
0.01029898 -0.030896943 0.021674186
0.011255653 -0.030953044 0.021688551
0.012164155 -0.03087824 0.021518737
0.013036486 -0.03072886 0.021453261
0.013981022 -0.030758247 0.021521956
0.01491847 -0.030769344 0.0209876
0.016016992 -0.031091807 0.020252615
0.016916756 -0.031014053 0.019323826
0.017820962 -0.030952195 0.017917246
0.018548382 -0.03060483 0.016717434
0.019662537 -0.030898271 0.011451066
0.020338956 -0.030508434 0.0069722831
0.021757443 -0.031217201 0.0050048828
-0.019380456 -0.03100873 0.0068996549
-0.0181545 -0.030576002 0.010073483
-0.017566031 -0.031228499 0.012115508
-0.01624197 -0.03057312 0.012979507
-0.015221859 -0.030443719 0.014911741
-0.014163128 -0.030214675 0.01538375
-0.0134163 -0.030665828 0.015369892
-0.012363988 -0.030434432 0.015425801
-0.011048188 -0.029461833 0.015122205
-0.010803938 -0.031429637 0.014754266
-0.0097541483 -0.031213274 0.013750732
-0.0082998369 -0.029510533 0.013014734
-0.0077534844 -0.031013938 0.012600482
-0.006814484 -0.031151926 0.012126446
-0.0057080947 -0.030443171 0.012375921
-0.0048117712 -0.030795338 0.012232453
-0.0038031954 -0.030425563 0.012600482
-0.0029181149 -0.031126559 0.013766915
-0.0019814081 -0.03170253 0.014840901
-0.00092834799 -0.029707136 0.016655922
0 -0.030218346 0.018099964
0.00094578351 -0.030265072 0.018815994
0.0018427791 -0.029484466 0.019091666
0.0028509961 -0.030410623 0.019480854
0.0037463803 -0.029971043 0.020350963
0.0046779672 -0.02993899 0.021125972
0.0056696921 -0.030238358 0.021532923
0.0066271718 -0.030295642 0.021380782
0.007503341 -0.030013364 0.02147159
0.0085022459 -0.030230207 0.02170977
0.009282439 -0.029703803 0.021934748
0.010245541 -0.029805211 0.021674186
0.011358229 -0.030288612 0.021766484
0.012135069 -0.02987094 0.021647781
0.01301114 -0.029739749 0.021486729
0.014117438 -0.030117201 0.02144751
0.014837853 -0.029675705 0.02095297
0.016080441 -0.030269066 0.019973785
0.016686853 -0.029665515 0.019150168
0.017619967 -0.029675733 0.017898381
0.018889703 -0.030223524 0.016391605
0.01952482 -0.029752107 0.012425452
0.020051423 -0.029165706 0.0086640418
-0.019568169 -0.030330662 0.0054140091
-0.018281961 -0.029828463 0.0081940591
-0.016149938 -0.027813783 0.01038152
-0.01614482 -0.029440554 0.01186955
-0.014936473 -0.028939417 0.012910187
-0.014441075 -0.029844888 0.013807207
-0.013172504 -0.029167689 0.013943195
-0.012109871 -0.028877385 0.014207691
-0.011557243 -0.029856211 0.013809144
-0.010701479 -0.030158713 0.013478667
-0.0092788991 -0.028764587 0.012357473
-0.0087535577 -0.030151142 0.011202097
-0.0078008561 -0.030228319 0.010385275
-0.0066929515 -0.029640215 0.0095918179
-0.005795198 -0.029941857 0.0096104741
-0.0048483941 -0.030060045 0.0093467534
-0.0038944294 -0.030181829 0.0096925199
-0.0029931217 -0.030928925 0.010487229
-0.0019742318 -0.030600592 0.01236093
-0.00095609651 -0.029638991 0.014736772
0 -0.029100498 0.016601413
0.00092811586 -0.02877159 0.017522186
0.001891205 -0.029313676 0.018493235
0.0028025657 -0.028959844 0.018866509
0.0037949474 -0.029410843 0.019469619
0.0046774144 -0.028999969 0.020297348
0.0056218468 -0.02904621 0.021095395
0.0064685307 -0.028646352 0.021095395
0.0075297598 -0.029177818 0.021101654
0.0084217135 -0.029008122 0.021195531
0.0093660457 -0.029034741 0.021330684
0.010387775 -0.029274637 0.021389008
0.011210658 -0.028960865 0.021085203
0.012052842 -0.028741393 0.020855755
0.013241592 -0.029320667 0.021016747
0.013842561 -0.028607959 0.021065056
0.015085585 -0.02922832 0.020536512
0.015922211 -0.02903462 0.019207686
0.016611427 -0.02860857 0.018687695
0.017942976 -0.029275382 0.017600954
0.018481996 -0.028647093 0.015880078
0.019929042 -0.029419061 0.012636364
0.021957241 -0.030939749 0.008628875
0.022217201 -0.029944923 0.0053419769
-0.018331779 -0.028944915 0.0059840381
-0.017542137 -0.029236894 0.0079616606
-0.016480343 -0.02908296 0.0099499524
-0.015340016 -0.028762529 0.011202693
-0.014080219 -0.028160438 0.012181878
-0.013639949 -0.029228464 0.012221098
-0.012658814 -0.029212646 0.012455761
-0.011320395 -0.028300989 0.012300491
-0.010420672 -0.028420014 0.012002587
-0.0097067403 -0.02912022 0.01074478
-0.0088084331 -0.029361445 0.010048687
-0.0076429131 -0.028660925 0.0091764629
-0.0068615009 -0.029406432 0.0080575049
-0.0058350815 -0.029175408 0.0077287853
-0.0048880302 -0.02932818 0.0074268878
-0.0040017203 -0.030012902 0.0076525807
-0.0030313458 -0.030313456 0.008418411
-0.0020297063 -0.030445594 0.0095027089
-0.0010270539 -0.030811617 0.011475772
0 -0.028591678 0.014615715
0.00095232134 -0.028569641 0.016487569
0.0018595177 -0.027892765 0.017435193
0.0027872215 -0.027872216 0.018258899
0.0037705845 -0.028279383 0.018906236
0.0047018225 -0.028210934 0.019910455
0.0055721444 -0.027860722 0.020667642
0.0065756585 -0.028181393 0.021000773
0.0075756307 -0.028408615 0.020915389
0.0084974514 -0.028324837 0.02092272
0.0092509268 -0.027752779 0.020779103
0.010258467 -0.027977636 0.020352721
0.011219497 -0.028048741 0.020613521
0.01228419 -0.028348131 0.020112693
0.012988357 -0.027832193 0.020465821
0.01394225 -0.0278845 0.020204872
0.014817671 -0.027783133 0.019239485
0.0156966 -0.027699884 0.018791109
0.016975449 -0.028292414 0.018235534
0.01776607 -0.028051689 0.016972065
0.019062921 -0.028594382 0.015789837
0.021316126 -0.030451609 0.012600839
0.021199394 -0.028908264 0.0085071921
0.02224808 -0.029019233 0.0055071414
-0.017743757 -0.028587164 0.0060452521
-0.015965775 -0.027235733 0.0077371597
-0.015263978 -0.027665962 0.0093003213
-0.014059197 -0.027181113 0.0094808936
-0.013546953 -0.028061546 0.010008305
-0.012438611 -0.02774767 0.0095918179
-0.011335007 -0.027392933 0.0099447966
-0.011002415 -0.029006366 0.0099152029
-0.0096128751 -0.027877338 0.0092105269
-0.0084590521 -0.027256947 0.0086618066
-0.0080407178 -0.029147603 0.0074268878
-0.0067851157 -0.028109765 0.0064582825
-0.0057568103 -0.027824583 0.0056621134
-0.0029719027 -0.028728392 0.0056653619
-0.0019780081 -0.028681116 0.0069104433
-0.00097353134 -0.028232409 0.0076897442
0 -0.028570114 0.009762466
0.00092952378 -0.026956189 0.014192343
0.0018530568 -0.026869323 0.015979499
0.002864751 -0.027692592 0.017329067
0.0037686306 -0.027322572 0.018424928
0.0046780491 -0.027132686 0.019548774
0.0057045189 -0.02757184 0.019901335
0.0065018516 -0.026936242 0.020194232
0.0075653829 -0.027424512 0.02052027
0.0086866524 -0.027990324 0.020709008
0.0092399623 -0.02679589 0.020331353
0.010172006 -0.026817106 0.019836754
0.011359134 -0.02745124 0.020091325
0.012060843 -0.026904957 0.020026326
0.01304891 -0.027029885 0.019927949
0.014096656 -0.027253535 0.019554257
0.014795263 -0.026816415 0.019074351
0.016064124 -0.027403507 0.018517673
0.017483996 -0.02816866 0.017597437
0.018320169 -0.027962362 0.01666522
0.019485373 -0.028253792 0.014975607
0.020762533 -0.028672067 0.012535632
0.022291919 -0.029384801 0.0086454749
0.022061879 -0.027817151 0.006637007
-0.016693404 -0.027495017 0.0053984225
-0.015000772 -0.026251351 0.0070133209
-0.014162336 -0.026436361 0.0074294508
-0.013331087 -0.026662175 0.007884413
-0.012421088 -0.026753115 0.0081213415
-0.011590792 -0.027045179 0.0086891353
-0.010522448 -0.026784414 0.0087310076
-0.0096115759 -0.026912414 0.0079259574
-0.0089739366 -0.027918912 0.0072133541
-0.0078470958 -0.027464835 0.0057527125
0 -0.027531758 0.005739063
0.00096663524 -0.027065786 0.0074980259
0.0018894923 -0.026452892 0.013754994
0.0028067681 -0.026196502 0.015892327
0.0036974198 -0.025881939 0.017394215
0.0046889875 -0.026258331 0.018212169
0.0058189225 -0.027154973 0.018749774
0.0067598876 -0.02703955 0.019095331
0.0074176192 -0.025961667 0.01926747
0.0084738005 -0.026362933 0.018882662
0.009280121 -0.025984339 0.018897682
0.010381711 -0.026426172 0.018601388
0.011180673 -0.026088236 0.018699676
0.012062354 -0.025980456 0.01892218
0.013191236 -0.026382472 0.018924683
0.013854459 -0.025861656 0.018663615
0.015278474 -0.02673733 0.018156767
0.016404588 -0.02701932 0.017493784
0.017006001 -0.026453778 0.016842306
0.018171955 -0.026779722 0.016596973
0.019135788 -0.026790103 0.01473245
0.019843331 -0.026457774 0.012436599
0.02191277 -0.02788898 0.0088897049
0.026174825 -0.031865004 0.0078861117
-0.014696551 -0.026453791 0.0058381855
-0.013427255 -0.025895419 0.0063998401
-0.012376567 -0.025705179 0.0065566301
-0.011654948 -0.026223632 0.0067432225
-0.010453274 -0.025658038 0.0068002045
-0.009860008 -0.026622022 0.0058638752
-0.0089600757 -0.026880227 0.005387336
0.0018717932 -0.025269207 0.0066275597
0.0028129478 -0.025316531 0.0109635
0.0037895171 -0.02557924 0.014486313
0.0047459039 -0.025627881 0.016313463
0.0057526575 -0.025886958 0.017424434
0.0066557112 -0.025672028 0.017791778
0.0077109723 -0.026024532 0.017618418
0.0082960203 -0.024888063 0.017356187
0.0093165617 -0.025154717 0.017304629
0.010205999 -0.025051087 0.017245948
0.011195153 -0.025189094 0.017423093
0.0120044 -0.024932215 0.017570853
0.013016259 -0.025102787 0.017468452
0.014530292 -0.026154526 0.017260194
0.015204209 -0.025657102 0.017032534
0.015856773 -0.025184287 0.016756266
0.01692906 -0.025393592 0.016656935
0.017990107 -0.025564887 0.016213059
0.018651012 -0.025178865 0.014928132
0.02001049 -0.025727771 0.013063043
0.0210275 -0.025806477 0.010567397
0.022208318 -0.026070634 0.0079231858
0.0028138079 -0.024386335 0.0059295297
0.003820884 -0.024835747 0.0090542138
0.0049922853 -0.025959883 0.010885239
0.005767162 -0.024991035 0.014434159
0.0069792927 -0.025923086 0.015690386
0.0077025248 -0.025033206 0.015607417
0.0083803097 -0.024209784 0.014935672
0.0092999376 -0.024179839 0.01480481
0.010175657 -0.024051553 0.014823198
0.011292155 -0.024466334 0.016768843
0.012394529 -0.024789058 0.017073721
0.013475575 -0.025026066 0.016963303
0.014405754 -0.024969975 0.016896158
0.014939887 -0.024277316 0.016885966
0.015984816 -0.024447365 0.016325623
0.017145697 -0.024766007 0.015816897
0.017362915 -0.023759777 0.015570223
0.018784558 -0.024419926 0.014720678
0.020173661 -0.024976915 0.013157129
0.021004315 -0.024823282 0.011446983
0.022596849 -0.025544265 0.0081682801
0.02293206 -0.024843065 0.0059793591
0.00538817 -0.026940851 0.0070660114
0.0063778493 -0.026574371 0.008913964
0.0071727028 -0.025616795 0.0095461905
0.0077291201 -0.024153499 0.010609448
0.00810323 -0.022508971 0.010507733
0.0096511785 -0.024127945 0.010885954
0.01046552 -0.023785271 0.013023347
0.011881672 -0.024753483 0.014135927
0.012495539 -0.024029883 0.014473647
0.01383839 -0.024711411 0.014420122
0.014127707 -0.02354618 0.015217751
0.015282411 -0.023878768 0.01559177
0.015899543 -0.02338168 0.015191644
0.016754085 -0.023269564 0.014294535
0.017937243 -0.023601634 0.015044481
0.019516796 -0.024395995 0.014281869
0.019341251 -0.0230253 0.013157129
0.020851169 -0.02369451 0.011739463
0.022446502 -0.024398372 0.0086430907
0.022614684 -0.023556963 0.0067936778
0.0057565784 -0.023026314 0.005325228
0.0066061453 -0.02264964 0.0055032372
0.007222537 -0.021667611 0.0067010224
0.0086764162 -0.023137109 0.0068474412
0.0097994702 -0.023518728 0.0075649619
0.011036639 -0.024079939 0.0092872679
0.011683941 -0.023367882 0.009840548
0.012853731 -0.023729967 0.011524916
0.013406564 -0.022982681 0.012677729
0.014261506 -0.022818409 0.013119847
0.01540464 -0.023106961 0.013828546
0.015681729 -0.02213891 0.013829023
0.01741091 -0.023214545 0.013819188
0.018181806 -0.022966493 0.014021277
0.018513307 -0.022215968 0.014009058
0.0198543 -0.02269063 0.013016373
0.020902693 -0.022802938 0.011646181
0.021477621 -0.02241143 0.0097879767
0.023721818 -0.023721818 0.0077568293
0.011131966 -0.023275927 0.0064494312
0.012257085 -0.023492746 0.0079736412
0.012611779 -0.022313148 0.0091787875
0.013308016 -0.02186317 0.010882407
0.014308439 -0.021939605 0.012026608
0.015109898 -0.021720478 0.013379246
