ply
format ascii 1.0
comment PCL generated
element vertex 1263
property float x
property float y
property float z
element camera 0
property float view_px
property float view_py
property float view_pz
property float x_axisx
property float x_axisy
property float x_axisz
property float y_axisx
property float y_axisy
property float y_axisz
property float z_axisx
property float z_axisy
property float z_axisz
property float focal
property float scalex
property float scaley
property float centerx
property float centery
property int viewportx
property int viewporty
property float k1
property float k2
end_header
-0.0037649497 -0.053650532 0.018466413
-0.002766571 -0.052564848 0.018727243
-0.0018970442 -0.05406576 0.019417197
-0.0009365906 -0.053385668 0.019465536
0 -0.052437846 0.019551188
0.00092714798 -0.052847434 0.019376904
0.0018439221 -0.05255178 0.01909095
0.0028080568 -0.053353079 0.019121081
0.0037449687 -0.053365804 0.018145859
0.0047831135 -0.054527495 0.014629364
0.0064112968 -0.060907319 0.01041463
0.0072642211 -0.059151515 0.0052850544
-0.00926976 -0.064888321 0.0064145923
-0.0068142395 -0.054513916 0.0094222128
-0.0056991922 -0.053192459 0.01758647
-0.0047558867 -0.053265929 0.018483162
-0.0037251273 -0.052151784 0.018961281
-0.0028361278 -0.05294105 0.019540906
-0.0018695792 -0.052348215 0.020069748
-0.00095063931 -0.053235799 0.020139456
0 -0.052655943 0.020774484
0.00097324303 -0.054501612 0.020584226
0.0018487424 -0.051764786 0.019574642
0.0028240648 -0.052715875 0.019612104
0.003799211 -0.053188954 0.019056737
0.0045974893 -0.051491879 0.018878192
0.005514604 -0.051469639 0.015757978
0.0076841428 -0.061473142 0.010843098
0.0080875261 -0.056612685 0.0053769052
-0.01026336 -0.062720537 0.0056730211
-0.0078339037 -0.053858086 0.0086106658
-0.0065095508 -0.05114647 0.015695214
-0.0057710265 -0.052901078 0.018158197
-0.0047161337 -0.051877469 0.018446058
-0.003773988 -0.051892333 0.01898846
-0.0028464557 -0.052185021 0.019564569
-0.001854527 -0.050999496 0.02015698
-0.00094670965 -0.052069031 0.02088818
0 -0.052082598 0.020723432
0.0009113687 -0.050125279 0.020762175
0.0018994949 -0.05223611 0.020580709
0.0027969189 -0.051276848 0.020933539
0.0037386485 -0.051406417 0.020091444
0.004722836 -0.051951192 0.019367993
0.005610548 -0.05143002 0.018909007
0.0065709613 -0.051628981 0.015800685
0.0089124423 -0.061273038 0.011233687
0.0092315422 -0.056414977 0.0054257214
0.0096420413 -0.053031228 0.0050756335
-0.011354744 -0.061315622 0.0052304864
-0.0089214882 -0.053528931 0.0085102022
-0.0075587393 -0.05102149 0.015035301
-0.0066479002 -0.051283799 0.017888069
-0.005628604 -0.050657436 0.018466413
-0.0046254653 -0.049955025 0.018647969
-0.003774086 -0.050950158 0.019593447
-0.0027898597 -0.050217476 0.019593388
-0.0019192885 -0.051820792 0.020974815
-0.00093594834 -0.050541207 0.020973563
0 -0.050485428 0.021220267
0.0009288186 -0.050156206 0.021893948
0.0019626762 -0.052992254 0.0218696
0.0027862035 -0.050151665 0.02185595
0.0037636049 -0.050808664 0.02128312
0.0046903593 -0.050655879 0.020589203
0.0055514644 -0.04996318 0.020215958
0.0065826448 -0.050780404 0.01892215
0.0074744173 -0.050452318 0.016354382
0.0097280461 -0.058368281 0.011223465
0.010373335 -0.056016013 0.0057767332
0.010551565 -0.051798593 0.0050847828
-0.0099355541 -0.052658435 0.0077398419
-0.0083546946 -0.049199864 0.013723582
-0.0075623007 -0.050100241 0.016685188
-0.0065392661 -0.049511585 0.018356562
-0.0056221308 -0.049662158 0.018830538
-0.0047364584 -0.05020646 0.019134462
-0.0037653844 -0.049891345 0.019725859
-0.0027780281 -0.049078498 0.019910127
-0.0018670396 -0.049476549 0.020894468
-0.00094736263 -0.050210219 0.02101782
0 -0.051082481 0.021299988
0.00093401608 -0.049502853 0.021901011
0.0018277926 -0.048436504 0.021901011
0.002779308 -0.049101111 0.021893263
0.0038173059 -0.050579302 0.021494001
0.0046471832 -0.049260143 0.021237463
0.0056846524 -0.050214428 0.021092951
0.0066117779 -0.050060604 0.020252645
0.0073746317 -0.048856936 0.019887447
0.0086069359 -0.05068529 0.016317397
0.010783012 -0.057149965 0.012916237
0.010888186 -0.052461259 0.00706622
0.011565766 -0.051082134 0.0052246749
-0.011031112 -0.052147076 0.0054813027
-0.0091076912 -0.047359996 0.0098462999
-0.0085050585 -0.049140338 0.015594751
-0.0074273688 -0.048277896 0.017888069
-0.0065564127 -0.048704777 0.018417507
-0.0057366518 -0.04971765 0.01919359
-0.0046969103 -0.048847865 0.019282967
-0.0036720668 -0.047736868 0.019967198
-0.0028447984 -0.049309842 0.020353734
-0.0018663321 -0.048524637 0.020937949
-0.00094688812 -0.049238179 0.020973563
0 -0.04944434 0.021227717
0.00092360593 -0.048027508 0.021893948
0.0018635286 -0.048451744 0.022101253
0.002835291 -0.049145043 0.021724075
0.0037271611 -0.048453096 0.021568418
0.0047325618 -0.049218643 0.021500766
0.0056097722 -0.048618026 0.021176904
0.0064608604 -0.047994964 0.02086091
0.0074965926 -0.048727851 0.020412415
0.0082950229 -0.047926798 0.019643664
0.0094141662 -0.048953664 0.017488867
0.012246143 -0.057890859 0.012732655
0.012222419 -0.052963816 0.0069239438
0.012437719 -0.049750876 0.0052838326
-0.010188091 -0.047235694 0.0069188476
-0.0093246596 -0.047555763 0.013520241
-0.0086427778 -0.04897574 0.015897185
-0.0075902469 -0.048387825 0.018199384
-0.006562429 -0.047811985 0.018626302
-0.0056171226 -0.047745544 0.019259304
-0.0046746968 -0.047681909 0.019633472
-0.0037603416 -0.047944356 0.019980043
-0.002860911 -0.048635487 0.020255417
-0.0019004772 -0.048462171 0.020894468
-0.00093604566 -0.047738329 0.020794481
0 -0.046687774 0.021045983
0.00094506663 -0.048198398 0.021614701
0.0019053534 -0.048586514 0.021805555
0.0027636336 -0.046981771 0.021385044
0.0037747258 -0.048127752 0.021329105
0.0046686023 -0.047619745 0.021272808
0.0056112716 -0.047695808 0.021334887
0.0066695064 -0.048592117 0.021001875
0.0075093177 -0.047871903 0.020705879
0.0083987247 -0.047592774 0.020285904
0.0092192451 -0.047018148 0.020020455
0.010285274 -0.047686268 0.016901344
0.012721177 -0.054065004 0.012579262
0.013428567 -0.052681301 0.0065641105
-0.011213648 -0.046723533 0.0062281489
-0.010353644 -0.047062021 0.0094382763
-0.0095507391 -0.047753695 0.014407814
-0.0084420554 -0.04690031 0.017947555
-0.0076838681 -0.048024174 0.018731743
-0.0066029625 -0.047164019 0.019121528
-0.0055717784 -0.046431486 0.019759327
-0.0047347359 -0.047347359 0.019601882
-0.0037805808 -0.047257259 0.020204633
-0.0028729851 -0.047883082 0.020136863
-0.0019018209 -0.047545522 0.020794064
-0.00094732293 -0.047366146 0.020723432
0 -0.047536977 0.021302402
0.0009350098 -0.04675049 0.021487504
0.0018444005 -0.046110015 0.021635175
0.002802765 -0.046712749 0.021601558
0.0038578697 -0.048223373 0.02149719
0.0046228897 -0.046228897 0.021924824
0.005600669 -0.04667224 0.021824419
0.0065944302 -0.047103073 0.021361381
0.0074318019 -0.04644876 0.02130726
0.0085588796 -0.04754933 0.020938396
0.0092887087 -0.046443541 0.020732045
0.010163958 -0.046199813 0.020317107
0.01138693 -0.047445543 0.016762465
0.014206416 -0.054640062 0.010818422
0.014231841 -0.050828002 0.0076090395
0.014362555 -0.047875185 0.0050472915
-0.011353971 -0.04636205 0.0063992739
-0.010446091 -0.046532586 0.014007092
-0.0095561817 -0.04682529 0.015887409
-0.0085451268 -0.046523467 0.018187255
-0.0077018766 -0.047173992 0.019259304
-0.0065969545 -0.04617868 0.019459516
-0.0057677692 -0.04710345 0.019858897
-0.0047752475 -0.046797428 0.019815564
-0.003802506 -0.046580698 0.02044037
-0.0028479185 -0.046516005 0.020423859
-0.0018670651 -0.045743097 0.020976841
-0.00091805746 -0.044984814 0.020834863
0 -0.046556141 0.0213404
0.00092214177 -0.045184948 0.021831602
0.0018937653 -0.04639725 0.021691144
0.0028126237 -0.04593952 0.021601558
0.0037359409 -0.045765277 0.021908551
0.004660042 -0.045668412 0.021935195
0.0056287958 -0.045968499 0.021942407
0.0064463452 -0.045124415 0.021793157
0.0075229337 -0.046077967 0.021737695
0.0083482135 -0.045451388 0.021384686
0.0092307562 -0.045230705 0.021315426
0.010327446 -0.046004079 0.020511091
0.011068074 -0.045194637 0.019321412
0.012209672 -0.04602107 0.01654923
0.015245955 -0.053360842 0.011205405
0.0151931 -0.049630795 0.0074415505
0.015414994 -0.047208421 0.0053601563
-0.011796237 -0.047184948 0.0073418915
-0.01055323 -0.046050455 0.014158458
-0.0095518129 -0.045848701 0.016149759
-0.008628957 -0.046021104 0.018627495
-0.0075901351 -0.045540813 0.019582987
-0.0064428472 -0.044179522 0.0198237
-0.0056495764 -0.045196611 0.019999146
-0.004682844 -0.044955306 0.019765764
-0.0038085601 -0.045702722 0.02044037
-0.0027862545 -0.044580072 0.020423859
-0.0018958165 -0.045499597 0.020776093
-0.00094249146 -0.04523959 0.020637214
0 -0.044171657 0.020873666
0.00094700273 -0.04545613 0.021425843
0.0019072776 -0.045774661 0.021294326
0.0028233803 -0.045174085 0.020975888
0.0036951734 -0.044342082 0.02130726
0.0046740049 -0.044870447 0.02170679
0.0056407987 -0.04512639 0.021824419
0.0065495167 -0.044910971 0.021793157
0.007503828 -0.045022968 0.021816462
0.0084901787 -0.045280952 0.021534801
0.0093580103 -0.044918448 0.021428138
0.010261629 -0.044778019 0.020732045
0.011238308 -0.044953231 0.020375848
0.011986946 -0.044259492 0.019309849
0.013032464 -0.044682734 0.016594857
0.016037351 -0.051319525 0.010770172
0.016218912 -0.048656736 0.007463634
0.016295815 -0.046011709 0.0056914985
-0.011523295 -0.045132909 0.0079067945
-0.0108869 -0.046516757 0.014514506
-0.0096327113 -0.04527374 0.01677072
-0.0091340337 -0.047699954 0.017917931
-0.0076841158 -0.045144182 0.019319266
-0.0065818261 -0.044192258 0.01945129
-0.0056893425 -0.044566516 0.019640595
-0.0047620083 -0.044762876 0.019555688
-0.0037809394 -0.044426039 0.020112544
-0.0027646208 -0.043312393 0.020002395
-0.0018991976 -0.044631142 0.020574838
-0.00093906058 -0.044135846 0.020496845
0 -0.044448312 0.020873666
0.00094271853 -0.044307768 0.021425843
0.0018590823 -0.043688435 0.021314532
0.0028129048 -0.044068843 0.021162778
0.0038065438 -0.04472689 0.021567225
0.0046736142 -0.043931972 0.021717012
0.0055883937 -0.043775752 0.021972895
0.0065109944 -0.043716677 0.021727383
0.0073890979 -0.043410949 0.021811485
0.0083984183 -0.043858405 0.021845102
0.0094193965 -0.044271164 0.02170679
0.010305685 -0.044033382 0.021220446
0.011186913 -0.043815408 0.020652324
0.012058008 -0.043594334 0.020195305
0.012890622 -0.043275658 0.019290298
0.013903345 -0.043563813 0.017575502
0.016727477 -0.049136966 0.011165619
0.017438723 -0.048212942 0.0074415505
0.017400218 -0.045433901 0.0050075054
-0.011565448 -0.044334214 0.0073418915
-0.012168482 -0.050886378 0.014030129
-0.010513825 -0.048363596 0.016533375
-0.00988157 -0.050505802 0.018130809
-0.0075337435 -0.043319024 0.019215733
-0.0065095518 -0.042777054 0.019414216
-0.0056789662 -0.043538738 0.019936532
-0.0046064388 -0.042379238 0.020006567
-0.0037474395 -0.043095555 0.020555764
-0.0028620367 -0.04388456 0.020117998
-0.0018789114 -0.043214962 0.020731688
-0.00092099106 -0.042365588 0.020794064
0 -0.043179046 0.021335483
0.0009222104 -0.042421676 0.021613687
0.0019001283 -0.043702953 0.021267444
0.002873925 -0.04406685 0.020931482
0.0037832877 -0.043507807 0.021229118
0.004671975 -0.042982172 0.021606058
0.005596302 -0.04290498 0.021789789
0.0065705716 -0.043178044 0.021714389
0.0075820214 -0.043596622 0.021821797
0.0083356714 -0.042604543 0.021758735
0.0092777647 -0.042677715 0.021651953
0.010265878 -0.042930037 0.021361381
0.011231976 -0.043055907 0.021102607
0.01221614 -0.043226343 0.020536214
0.013350081 -0.043864548 0.020022333
0.013957828 -0.042804006 0.019251347
0.015349901 -0.044130966 0.017464042
0.019039331 -0.051518191 0.011110574
0.01789098 -0.045721393 0.007368803
0.018285682 -0.044270597 0.0052690506
-0.011097798 -0.041616745 0.006732583
-0.010197178 -0.04171573 0.014050305
-0.010018648 -0.045083918 0.015973479
-0.0083425418 -0.041712709 0.017666399
-0.0076564071 -0.043067291 0.019130617
-0.0065908534 -0.042369772 0.019396901
-0.005660872 -0.042456541 0.019823074
-0.0047187749 -0.042468973 0.019785523
-0.0037407402 -0.042083327 0.020572573
-0.0028873761 -0.043310639 0.02019912
-0.0018426379 -0.041459352 0.020655453
-0.00095352001 -0.0429084 0.02072528
0 -0.041918065 0.02072069
0.00094120397 -0.042354178 0.021425843
0.0018917798 -0.042565048 0.021238387
0.002765011 -0.041475166 0.020897448
0.0037209864 -0.041861098 0.021138668
0.004677013 -0.042093117 0.02129817
0.0056590433 -0.042442825 0.021789789
0.0065443399 -0.042070758 0.021589637
0.0074686548 -0.042011183 0.021718591
0.0084358035 -0.042179018 0.021651953
0.009356712 -0.042105202 0.021736056
0.01024746 -0.041921426 0.021503329
0.011355955 -0.042584833 0.021416962
0.012134962 -0.042005636 0.021102607
0.013115092 -0.042155653 0.020655096
0.013907126 -0.041721378 0.020390093
0.014912764 -0.041942149 0.019102305
0.015691986 -0.041537613 0.016521364
0.020133663 -0.050334156 0.011165619
0.019769764 -0.046823125 0.0074415505
-0.011308005 -0.041462686 0.0058940053
-0.010531345 -0.042125382 0.012831539
-0.0094715664 -0.041674893 0.01515609
-0.0084727984 -0.041422568 0.016925931
-0.007614681 -0.041880745 0.018627495
-0.0066128033 -0.041566189 0.019389004
-0.0055871406 -0.040972367 0.019853234
-0.0047039702 -0.041394938 0.019863397
-0.0038205937 -0.042026531 0.020646572
-0.0028324006 -0.041541874 0.020502269
-0.0018997592 -0.041794702 0.020794064
-0.00092568249 -0.040730029 0.020821661
0 -0.041695964 0.021271586
0.00094330346 -0.041505352 0.02146852
0.0018493965 -0.040686723 0.02109322
0.0028137437 -0.041268241 0.020810187
0.0037715742 -0.041487314 0.020897448
0.0046231882 -0.040684056 0.020896852
0.0054920344 -0.040274918 0.021638066
0.0066422485 -0.041751277 0.021510869
0.0073645003 -0.04050475 0.021736056
0.0084788334 -0.041452073 0.021939576
0.0092746867 -0.040808622 0.02195251
0.010255123 -0.04102049 0.021794111
0.01140308 -0.041811295 0.021765292
0.012160654 -0.041159138 0.021503329
0.013188827 -0.041450597 0.021361381
0.014145142 -0.041492417 0.021215677
0.014801082 -0.040702976 0.020389616
0.015656183 -0.040521882 0.01918155
0.016606024 -0.040592503 0.016581237
0.020684488 -0.047900919 0.011183321
0.020542825 -0.045194212 0.0070798099
-0.011855308 -0.042481519 0.005587399
-0.010283506 -0.040199161 0.010052085
-0.0092889098 -0.039942313 0.014467269
-0.0085130325 -0.040673379 0.016706258
-0.0076241149 -0.040979616 0.018906623
-0.0066193491 -0.040661719 0.019506186
-0.0057526059 -0.041227009 0.019925207
-0.0047126086 -0.040528435 0.01988706
-0.003706052 -0.039840057 0.020645797
-0.0028615461 -0.041015495 0.020502269
-0.0018835821 -0.040497016 0.020737231
-0.00093667803 -0.040277157 0.020752668
0 -0.04034283 0.021226943
0.00091820303 -0.039482731 0.021381199
0.001904191 -0.040940106 0.021018714
0.0028075858 -0.040242065 0.02085799
0.003655324 -0.039294735 0.021086127
0.0047711395 -0.0410318 0.021026254
0.0057551665 -0.04124536 0.021682382
0.0066005723 -0.040546373 0.021565259
0.0074280612 -0.039925829 0.021718591
0.0085190684 -0.040702216 0.021736056
0.0093785133 -0.040327605 0.021866143
0.010396143 -0.040639468 0.021872878
0.011121756 -0.039852958 0.021818429
0.012130023 -0.040122382 0.021714389
0.013248832 -0.040692843 0.021466285
0.013971799 -0.040052492 0.021355391
0.015029509 -0.040391807 0.02071014
0.015843971 -0.040075924 0.020073324
0.01645508 -0.039309356 0.019332141
0.018037267 -0.040821183 0.016557902
0.022099821 -0.047514614 0.011750519
0.020965416 -0.042929184 0.0070055425
-0.01163974 -0.040739089 0.0053259432
-0.010655106 -0.040683135 0.0092738271
-0.0092445565 -0.038827136 0.01352191
-0.0083480263 -0.038957458 0.016259551
-0.0075696106 -0.039740454 0.018693268
-0.0066663958 -0.039998375 0.01938954
-0.0056542931 -0.039580051 0.019862562
-0.0046889042 -0.039386794 0.01988706
-0.0038029328 -0.039930794 0.020794541
-0.0028090931 -0.039327305 0.020558089
-0.0018822699 -0.039527666 0.020860553
-0.00093400973 -0.03922841 0.021038145
0 -0.039794501 0.021326333
0.0009348634 -0.039264265 0.02136144
0.0018961719 -0.039819613 0.021019995
0.0027428765 -0.03840027 0.021000564
0.0037934212 -0.039830923 0.02116099
0.0046651261 -0.039187059 0.021052778
0.0055734492 -0.039014146 0.0218485
0.006477342 -0.03886405 0.021714389
0.0074115954 -0.038910877 0.022085756
0.0084742131 -0.039546326 0.021953344
0.0094012134 -0.039485097 0.022138298
0.010278973 -0.039246988 0.022069067
0.011331102 -0.039658856 0.022019297
0.012270441 -0.039642964 0.022044629
0.013178229 -0.039534688 0.021714389
0.014136533 -0.039582293 0.021562308
0.014954684 -0.039256047 0.021262407
0.015810043 -0.039060105 0.020587027
0.016924612 -0.039490759 0.020061255
0.01756309 -0.038823672 0.018928617
0.018445019 -0.03873454 0.016501993
0.023437489 -0.046874978 0.011645108
0.022416573 -0.042795274 0.0069692433
-0.011811722 -0.040356718 0.0060213506
-0.011957272 -0.044568013 0.0088029504
-0.0098907808 -0.040552203 0.013007194
-0.0084227202 -0.03837017 0.015071213
-0.0075794356 -0.038844608 0.017434418
-0.0065473914 -0.038349006 0.019381613
-0.0056400793 -0.038540542 0.019902945
-0.0047672954 -0.039091822 0.01988706
-0.0037368743 -0.038302962 0.020794541
-0.0028107658 -0.0384138 0.020391464
-0.0019016775 -0.038984388 0.020833492
-0.00093688437 -0.038412258 0.02102825
0 -0.038204882 0.021381199
0.00095694518 -0.039234754 0.021368384
0.0018732633 -0.038401898 0.021059275
0.0027880836 -0.038103811 0.021018714
0.0037617511 -0.03855795 0.020983696
0.0046206606 -0.037889417 0.020872056
0.0056847082 -0.038845506 0.021388501
0.0066788341 -0.039118886 0.021374762
0.0075823623 -0.038859606 0.02203089
0.0084611243 -0.038545121 0.021388501
0.0093116947 -0.038177948 0.021580607
0.01025024 -0.038205437 0.021526366
0.011324625 -0.038692471 0.021924824
0.012126364 -0.038244687 0.021868318
0.013162997 -0.038548775 0.021722466
0.014021503 -0.03832544 0.021694601
0.014873913 -0.038114402 0.021415532
0.015904434 -0.038357753 0.020530492
0.016982881 -0.038683232 0.020394713
0.017433641 -0.037619963 0.0200001
0.018496349 -0.037917517 0.019052923
0.01974348 -0.038546793 0.017463565
0.023840602 -0.044430211 0.011611134
0.023961687 -0.042714313 0.0066794753
0.023058459 -0.039391536 0.0052324831
-0.012818135 -0.042727116 0.0064502358
-0.010846997 -0.039443623 0.0097140968
-0.0095141008 -0.038056403 0.013541847
-0.0088978698 -0.039546087 0.015326589
-0.0074804556 -0.037402276 0.018437266
-0.0064492561 -0.036852892 0.01938954
-0.0057644737 -0.038429823 0.019966811
-0.0047023767 -0.037619013 0.020140409
-0.003733228 -0.037332278 0.020712167
-0.0028382128 -0.037842836 0.020634472
-0.0018876593 -0.037753187 0.020838529
-0.00093072886 -0.037229154 0.021042258
0 -0.038343903 0.021600366
0.00093255803 -0.037302323 0.021370977
0.0019155858 -0.038311716 0.020744264
0.0028241277 -0.037655037 0.021178842
0.0037383498 -0.037383497 0.021123439
0.0047307275 -0.03784582 0.020983696
0.0056452188 -0.037634794 0.021202773
0.006454804 -0.036884595 0.021090448
0.0075306888 -0.037653442 0.021651864
0.0083437413 -0.037083294 0.02113229
0.009330621 -0.037322484 0.021427095
0.010279773 -0.03738099 0.021518946
0.011269076 -0.037563585 0.02220279
0.012127194 -0.037314441 0.022185355
0.013127206 -0.037506301 0.021921992
0.01388262 -0.037020322 0.021775007
0.01518298 -0.037957452 0.021829545
0.01595523 -0.037541721 0.021296322
0.016853554 -0.03745234 0.021410435
0.017806327 -0.037487004 0.020655096
0.018894687 -0.037789375 0.020265609
0.019226937 -0.036622737 0.019752324
0.020692993 -0.037623625 0.017355233
0.024906848 -0.043316256 0.011350185
0.024393693 -0.040656153 0.005959332
-0.012145961 -0.039474372 0.0075394511
-0.010590171 -0.037546966 0.010041803
-0.0099285739 -0.038721435 0.013407201
-0.0087508066 -0.037920162 0.014625758
-0.0078808377 -0.038419086 0.01716876
-0.0066007366 -0.036775533 0.019018441
-0.0056788553 -0.03691256 0.019416511
-0.0046557188 -0.036314607 0.019769788
-0.0037512637 -0.036574822 0.020633698
-0.0028235703 -0.036706414 0.020666748
-0.0018446052 -0.035969801 0.020891488
-0.0009445062 -0.036835741 0.021232605
0 -0.035839461 0.021688432
0.00094462821 -0.036840502 0.021738499
0.001893263 -0.036918629 0.021394193
0.0028157048 -0.036604162 0.021304488
0.0037600438 -0.036660429 0.02120775
0.0046697422 -0.036423989 0.021121293
0.0055098506 -0.035814028 0.021267623
0.0066937711 -0.037293866 0.02120775
0.0076004071 -0.037051987 0.021486104
0.0086438218 -0.037456561 0.021023601
0.0092927981 -0.036241915 0.021035254
0.010173135 -0.036068387 0.021207452
0.011192977 -0.036377177 0.021560967
0.012383849 -0.037151549 0.022053063
0.013029054 -0.03629522 0.022132009
0.014235376 -0.037011977 0.021953344
0.015070829 -0.036735144 0.021958441
0.015666235 -0.035940189 0.021685421
0.016736181 -0.036261726 0.021695703
0.017472986 -0.035865605 0.02125138
0.01848295 -0.036041752 0.021455407
0.019620722 -0.036438484 0.020788461
0.020115634 -0.035659533 0.019510627
0.021381263 -0.036255185 0.014764309
0.026073515 -0.042369463 0.010401934
0.025865609 -0.040350348 0.0052898228
-0.01301833 -0.038053576 0.0053825974
-0.011508824 -0.036444612 0.0079348683
-0.010564594 -0.036495868 0.010158956
-0.0095749367 -0.036384761 0.013366818
-0.0084429402 -0.03564797 0.014500141
-0.0077929781 -0.037016645 0.016499698
-0.0068524624 -0.037199084 0.01826641
-0.0055972273 -0.035449106 0.019299328
-0.0047312784 -0.035957716 0.019752771
-0.0037809829 -0.035919338 0.020502269
-0.0027931791 -0.03538027 0.020689517
-0.0018873917 -0.035860442 0.020911396
-0.00095382653 -0.036245409 0.021329522
0 -0.035886381 0.021785975
0.00093358295 -0.035476152 0.02177608
0.0018706848 -0.03554301 0.021407008
0.0027834843 -0.03525747 0.021304488
0.0037319616 -0.035453636 0.021127075
0.0046361652 -0.035234854 0.021110713
0.0057073352 -0.036146458 0.021207452
0.0065242853 -0.035417549 0.020690531
0.0074291527 -0.035288475 0.02124837
0.0083573535 -0.035286602 0.020894647
0.0094377864 -0.035863589 0.020840228
0.010441227 -0.036069691 0.021019638
0.011350118 -0.03594204 0.021559983
0.01207 -0.035281539 0.022044241
0.013155195 -0.035706956 0.022093236
0.014397019 -0.036472447 0.02185455
0.014645667 -0.034783456 0.022133201
0.015827648 -0.035379451 0.021850318
0.016980531 -0.035847787 0.022049487
0.017494813 -0.034989625 0.021686286
0.018865222 -0.03584392 0.021623105
0.019520799 -0.035323352 0.021383047
0.020525308 -0.035452805 0.020177275
0.021259254 -0.035123982 0.01778996
0.021842884 -0.034584567 0.012675136
0.026225939 -0.039863426 0.006502986
-0.012618836 -0.035915148 0.0064279735
-0.011782904 -0.036330622 0.0089665353
-0.010646895 -0.035812281 0.010713905
-0.0096174562 -0.035584588 0.013314337
-0.0086573213 -0.035591211 0.014445722
-0.0076777609 -0.035509646 0.016646862
-0.0067170751 -0.035504542 0.018202543
-0.0058773444 -0.036243625 0.019078523
-0.0047010249 -0.034787584 0.019718945
-0.0037250747 -0.034456942 0.02028355
-0.0028251458 -0.034843463 0.020498782
-0.0018712654 -0.034618407 0.020833492
-0.0009360683 -0.034634527 0.02111873
0 -0.034506038 0.021616936
0.00093881215 -0.034736048 0.021678537
0.0019044348 -0.035232045 0.021532148
0.0028695946 -0.035391666 0.021309972
0.0037067833 -0.034287747 0.021152318
0.0047077313 -0.034837212 0.021152318
0.0057266336 -0.03531424 0.021232516
0.0065702731 -0.034728587 0.021059066
0.0076260655 -0.035270553 0.02124837
0.0086079454 -0.03538822 0.0211128
0.0092389267 -0.034184027 0.020987153
0.01020238 -0.034317095 0.021056682
0.011164175 -0.034422874 0.021479875
0.012064267 -0.034336761 0.021905571
0.013267601 -0.035064373 0.021831632
0.014062281 -0.03468696 0.022112042
0.015114318 -0.034951862 0.022081822
0.015840864 -0.034477174 0.022088051
0.016847599 -0.034631174 0.022212207
0.017992135 -0.035037316 0.022012055
0.018847877 -0.034868572 0.021969616
0.019507708 -0.034370724 0.021663308
0.020820996 -0.035017129 0.02069366
0.021256121 -0.03419463 0.018354595
0.021797262 -0.033604112 0.014059961
0.023820231 -0.035253942 0.0096429586
0.027754309 -0.039496515 0.0056772232
-0.013694711 -0.035214972 0.0056890547
-0.012979814 -0.0359441 0.007889688
-0.011683184 -0.035049554 0.0097790658
-0.010770694 -0.035249542 0.012407035
-0.0096653989 -0.034795437 0.01364246
-0.0087158335 -0.034863334 0.014876068
-0.0075712777 -0.034070749 0.016566634
-0.0066567571 -0.034234751 0.017775714
-0.0057385797 -0.034431476 0.018861711
-0.0046811076 -0.033703975 0.019416898
-0.0038308364 -0.034477528 0.02023834
-0.0028119145 -0.033742975 0.020534545
-0.0018630542 -0.033534978 0.020840675
-0.00095220545 -0.034279395 0.021232605
0 -0.034198288 0.021442473
0.00094318157 -0.033954535 0.021351993
0.0018848821 -0.033927877 0.021214545
0.0027949035 -0.033538841 0.020968199
0.0037779147 -0.034001231 0.020817161
0.0046841558 -0.033725921 0.020833075
0.0057323608 -0.034394167 0.021242023
0.0066260318 -0.034076735 0.020914078
0.0074161943 -0.033372875 0.021121502
0.0082961442 -0.033184577 0.021010399
0.0095093576 -0.034233689 0.020965874
0.010382507 -0.033979114 0.021056682
0.01116905 -0.03350715 0.021548748
0.01221294 -0.03382045 0.022073567
0.013160674 -0.033841733 0.021945834
0.014038212 -0.033691708 0.022006452
0.014854696 -0.033423066 0.022003144
0.015814628 -0.033489801 0.021967351
0.016907534 -0.033815067 0.022028506
0.017725592 -0.033585332 0.021835506
0.018432152 -0.033177871 0.021795064
0.01987426 -0.03407016 0.02143845
0.020387925 -0.033362057 0.020870894
0.021320062 -0.033370532 0.019227952
0.022310957 -0.033466436 0.016428769
0.023135105 -0.033314552 0.010779172
0.024235452 -0.033556782 0.0072502196
-0.014694012 -0.034286026 0.0051552057
-0.013851291 -0.034628227 0.0075302124
-0.012500168 -0.033654299 0.0093409717
-0.011356686 -0.033123668 0.011374176
-0.010430486 -0.033187911 0.013260186
-0.0095584616 -0.033454616 0.013876647
-0.0084802397 -0.03297871 0.015165687
-0.0076837172 -0.033616263 0.016512215
-0.0065882932 -0.032941468 0.017144382
-0.0055518686 -0.032385901 0.018240094
-0.0048815543 -0.034170877 0.018906444
-0.0037692732 -0.032981139 0.019723833
-0.002790618 -0.032557212 0.019996881
-0.0018942186 -0.033148825 0.020382226
-0.00093089993 -0.032581497 0.020667017
0 -0.033319958 0.021211892
0.0009326071 -0.032641251 0.021161407
0.001869099 -0.032709233 0.021132708
0.0028145791 -0.032836754 0.020986974
0.0037658589 -0.032951266 0.020952672
0.0047410275 -0.033187192 0.021152318
0.0056491671 -0.032953475 0.021207452
0.0065801856 -0.032900926 0.021152318
0.0074915751 -0.03277564 0.021274388
0.0084763998 -0.032963779 0.021207452
0.009425587 -0.032989558 0.021081805
0.010351376 -0.032936197 0.021098733
0.011437131 -0.033358302 0.021490186
0.012156351 -0.032728638 0.021902323
0.013017842 -0.032544605 0.021842659
0.014254416 -0.033260304 0.021946996
0.014889371 -0.032570496 0.022096545
0.016084468 -0.033115081 0.022038281
0.01713839 -0.033324648 0.022011727
0.017615167 -0.032448992 0.021803468
0.018781168 -0.032867048 0.021515071
0.019569388 -0.032615647 0.020919055
0.020486463 -0.032592103 0.020442098
0.021231264 -0.032308444 0.018974334
0.022468086 -0.032765958 0.016614437
0.02309034 -0.032326479 0.012237012
0.024383472 -0.032823905 0.0085631609
0.026920179 -0.03489653 0.0055696964
-0.015333331 -0.03258333 0.0053693652
-0.01471727 -0.033359144 0.0075093508
-0.013600022 -0.033028625 0.0092603564
-0.012071964 -0.03157283 0.011188447
-0.01164589 -0.032996688 0.012705356
-0.010463648 -0.032342184 0.013470054
-0.0092594801 -0.031482231 0.01473096
-0.008707609 -0.032895412 0.015679628
-0.0074796146 -0.03178836 0.016908467
-0.006723763 -0.032658275 0.01749441
-0.0057232245 -0.032431606 0.017932057
-0.0047493996 -0.032295916 0.018720984
-0.0038622993 -0.032829542 0.019348085
-0.0027972895 -0.031702615 0.019643903
-0.0019036644 -0.032362293 0.019967824
-0.0009232469 -0.031390395 0.020214021
0 -0.031469263 0.020727336
0.00093781837 -0.031885825 0.020998925
0.0018747656 -0.031871013 0.020968199
0.0028653289 -0.032473728 0.020937353
0.0037228095 -0.031643882 0.020833075
0.0047567151 -0.032345664 0.021137893
0.0055385102 -0.031384889 0.021177351
0.0065206457 -0.031671707 0.021177351
0.0075108241 -0.031921003 0.021265239
0.0085095717 -0.03214727 0.020909756
0.0092198625 -0.031347532 0.021035254
0.010215599 -0.031575486 0.021002799
0.011140564 -0.031564932 0.021536529
0.012035524 -0.031477526 0.021829545
0.013300605 -0.032301471 0.021752328
0.013908478 -0.031525884 0.022038281
0.015175426 -0.032247782 0.021803468
0.015942048 -0.031884097 0.021797329
0.016752992 -0.031644538 0.02209565
0.017718701 -0.031707149 0.021810234
0.01863073 -0.031672243 0.021422744
0.019452367 -0.031494308 0.021373004
0.020610314 -0.031852305 0.020703644
0.021464331 -0.031729881 0.019200504
0.022388441 -0.031716961 0.016338348
0.023357289 -0.031765912 0.013446629
0.025371294 -0.033177845 0.0096695125
0.025815552 -0.032508474 0.0069515407
0.027381875 -0.033249419 0.0051288903
-0.015717708 -0.032417774 0.0061362684
-0.01435753 -0.031586565 0.0089665353
-0.013213911 -0.031147076 0.010392368
-0.012667958 -0.032157123 0.012801975
-0.011385087 -0.03130899 0.01347667
-0.010477971 -0.031433914 0.014894933
-0.0097503392 -0.032176122 0.015833795
-0.0084883813 -0.031124065 0.016334683
-0.0077231266 -0.031857897 0.016981751
-0.0065741455 -0.0309924 0.017613977
-0.0057398169 -0.031568993 0.017642796
-0.0047674947 -0.031465467 0.017908126
-0.003895794 -0.0321403 0.018705636
-0.0029220923 -0.032143015 0.018859327
-0.0018751773 -0.030940425 0.019387454
-0.00094521814 -0.031192198 0.019368857
0 -0.030490147 0.020162404
0.00093595131 -0.030886393 0.020438462
0.0018779816 -0.030986696 0.020648837
0.002809064 -0.030899704 0.020828962
0.0038119084 -0.031448245 0.020929545
0.0046434384 -0.030646693 0.021110713
0.005707996 -0.031393979 0.021121293
0.0065890797 -0.031062806 0.02120775
0.0074500525 -0.030731466 0.021438569
0.0084642442 -0.031035563 0.021098733
0.0095876101 -0.031639114 0.021107495
0.010360656 -0.031081967 0.021051168
0.011511596 -0.031656887 0.021678984
0.012145144 -0.030829981 0.021652848
0.012950333 -0.030525785 0.021396369
0.014154654 -0.031140238 0.021467686
0.014936014 -0.030805528 0.021723837
0.015821286 -0.030711906 0.02170831
0.016843306 -0.030879395 0.02153793
0.017916996 -0.031118993 0.021427006
0.018696954 -0.030849975 0.021413475
0.019630572 -0.030848041 0.021196812
0.020788938 -0.031183407 0.020416439
0.021327669 -0.030600568 0.019422203
0.022358324 -0.030742696 0.016914994
0.024705639 -0.032611445 0.014128655
0.027024815 -0.034300726 0.011021942
0.026054293 -0.031844135 0.0087555647
0.026938016 -0.031748377 0.0056097806
-0.016657183 -0.031354699 0.0055746138
-0.015666293 -0.031332586 0.0080102682
-0.014255423 -0.030411569 0.0096449256
-0.013571539 -0.031020662 0.010960847
-0.01218418 -0.029991828 0.013344675
-0.011186389 -0.029830372 0.014594555
-0.010609538 -0.03086411 0.015893012
-0.009594474 -0.030702317 0.016538411
-0.0083914427 -0.029836239 0.016788185
-0.0075740442 -0.030296177 0.017477125
-0.0067688292 -0.030943219 0.017535478
-0.0055804513 -0.029762408 0.017572314
-0.0047191144 -0.030202333 0.017470509
-0.0037056587 -0.02964527 0.017771274
-0.0028314271 -0.03020189 0.018405855
-0.00193593 -0.03097488 0.018050313
-0.00094968517 -0.030389925 0.018701494
0 -0.030142266 0.019528031
0.00094297912 -0.030175332 0.020080566
0.0018713096 -0.029940953 0.020177603
0.0028314271 -0.03020189 0.020234376
0.0037383335 -0.029906668 0.020529896
0.0046621184 -0.029837556 0.020727634
0.0055917893 -0.029822877 0.020827919
0.0066135181 -0.030233225 0.020738214
0.0075194319 -0.030077728 0.020955503
0.0085274791 -0.030319924 0.020896286
0.0093007227 -0.029762311 0.020998985
0.010132253 -0.029475646 0.021016151
0.011345798 -0.030255463 0.021288276
0.0120717 -0.029714955 0.021555036
0.012908785 -0.029505793 0.021213561
0.014114697 -0.030111354 0.021491647
0.01489828 -0.029796559 0.0214625
0.015981039 -0.030081956 0.021363735
0.016702199 -0.029692799 0.021338582
0.017754178 -0.029901775 0.021265835
0.018775234 -0.030040374 0.020894408
0.019500529 -0.029715093 0.020468831
0.020238906 -0.029438408 0.02011627
0.021213286 -0.029514136 0.018798977
0.022877216 -0.030502954 0.016307116
0.024281615 -0.031080466 0.014207423
0.025685428 -0.031612836 0.012650013
0.028739842 -0.034062035 0.0094882548
0.027270509 -0.031166296 0.0066587925
-0.016374676 -0.029859703 0.0066560209
-0.015223976 -0.029496454 0.0092826486
-0.014329595 -0.029614497 0.010811299
-0.013324325 -0.029503861 0.012645453
-0.012253235 -0.029219253 0.014965624
-0.011251604 -0.029066643 0.016037345
-0.010684051 -0.030109597 0.016666621
-0.00929901 -0.028826931 0.017121404
-0.0085615814 -0.029489892 0.017314047
-0.0077140667 -0.029892007 0.017746687
-0.0065350891 -0.02894111 0.017703563
-0.0057257116 -0.029582843 0.017471224
-0.0046441937 -0.028794 0.017207503
-0.003745938 -0.029031018 0.017297596
-0.0029327727 -0.030305319 0.017415017
-0.001879257 -0.029128483 0.017480135
-0.00095042714 -0.029463243 0.017805398
0 -0.030370422 0.018031299
0.00091263198 -0.028291591 0.018665999
0.0018685281 -0.028962184 0.019210607
0.0028009196 -0.028942836 0.019658744
0.0037849504 -0.029333366 0.019916922
0.0046990532 -0.02913413 0.020254493
0.0056448872 -0.029165251 0.020298183
0.0064638378 -0.028625568 0.020345479
0.0076297144 -0.029565142 0.020343453
0.0083652176 -0.028813528 0.020343453
0.0094141886 -0.029183986 0.020337701
0.010426653 -0.029384203 0.020627618
0.01109659 -0.028666193 0.020754933
0.012330065 -0.029402463 0.021085232
0.013220268 -0.02927345 0.02093187
0.013949472 -0.028828908 0.021046013
0.014976432 -0.029016836 0.021121919
0.015906679 -0.029006299 0.020829469
0.01681751 -0.028963489 0.020972967
0.017877031 -0.029167788 0.020824909
0.01848443 -0.028650867 0.02068007
0.019675918 -0.029045403 0.020302504
0.020979697 -0.0295623 0.019488811
0.022306787 -0.030065669 0.018653542
0.023277622 -0.03006693 0.016617537
0.024402015 -0.030258497 0.015518993
0.024980241 -0.029784136 0.013433814
0.026370285 -0.030276995 0.011234641
0.029436635 -0.032590561 0.0083705187
0.03076818 -0.032890122 0.0052502155
-0.016746422 -0.029552512 0.0075093508
-0.015344888 -0.028771665 0.0096828043
-0.014209965 -0.02841993 0.011828542
-0.013541869 -0.02901829 0.014095873
-0.012271518 -0.028318886 0.015241772
-0.01145054 -0.028626351 0.016147316
-0.010235007 -0.027913656 0.016601622
-0.0094581144 -0.028374344 0.017272085
-0.0085786246 -0.028595414 0.017601609
-0.0074917711 -0.028094141 0.018012017
-0.0067318054 -0.028850595 0.017542034
-0.0055509335 -0.027754668 0.017190099
-0.004815802 -0.028894814 0.0169186
-0.0037874077 -0.028405556 0.017074198
-0.0028636591 -0.02863659 0.017099679
-0.0019143779 -0.028715668 0.016595006
-0.00096140389 -0.028842116 0.016819924
0 -0.029281097 0.017096907
0.00099261361 -0.029778408 0.01778242
0.0018790234 -0.028185351 0.01805678
0.0027895989 -0.027895989 0.018440813
0.0037369379 -0.028027033 0.019551843
0.0046582418 -0.027949449 0.019759178
0.0056112739 -0.02805637 0.020004928
0.0065637128 -0.028130198 0.020004928
0.0075956206 -0.028483577 0.019901097
0.0083833691 -0.027944563 0.020079166
0.0094818808 -0.028445642 0.020068944
0.010367719 -0.0282756 0.019978553
0.011123717 -0.02780929 0.02034232
0.012437049 -0.028700883 0.020204633
0.01296874 -0.027790159 0.020344526
0.013914838 -0.027829677 0.020663708
0.014782587 -0.027717352 0.020474136
0.015829122 -0.027933745 0.020423323
0.017000658 -0.028334431 0.020425737
0.017723266 -0.027984105 0.020295411
0.018639192 -0.027958788 0.020154625
0.020012232 -0.0285889 0.019718081
0.021159224 -0.028853487 0.018874079
0.021616818 -0.028195851 0.01761651
0.022827923 -0.028534904 0.016116649
0.023650743 -0.028380893 0.015482277
0.024388855 -0.028140988 0.013911784
0.02668401 -0.0296489 0.011984169
0.027236814 -0.029182302 0.0086784065
0.027929515 -0.028892601 0.0064387619
-0.016054807 -0.027387613 0.0080792904
-0.015423791 -0.02795562 0.0096704364
-0.013898394 -0.02687023 0.011614263
-0.01333716 -0.027626976 0.014179885
-0.012500384 -0.027885472 0.015655965
-0.011068885 -0.026749806 0.016305625
-0.010793304 -0.028455075 0.016814113
-0.0093197851 -0.027027376 0.017428517
-0.0084190164 -0.027127942 0.017707348
-0.0077267531 -0.02800948 0.017733723
-0.0064937458 -0.026902661 0.017098993
-0.0056745335 -0.027426912 0.016981274
-0.0047380826 -0.02748088 0.01680848
-0.0038688316 -0.028049029 0.016238511
-0.0028210492 -0.027270144 0.015974879
-0.0019441188 -0.028189722 0.01529336
-0.00094884564 -0.027516523 0.01529336
0 -0.028174166 0.016357183
0.00097919989 -0.028396796 0.016109884
0.0018958449 -0.027489752 0.016554445
0.0028091636 -0.027155248 0.017111778
0.0037854526 -0.027444532 0.017698556
0.0046829251 -0.027160965 0.019001931
0.0056306524 -0.027214821 0.019472301
0.0065585896 -0.027171301 0.019378603
0.0075814715 -0.027482834 0.019141138
0.0085232183 -0.027463704 0.019708753
0.0092582423 -0.026848901 0.019595474
0.010270528 -0.027076848 0.019538701
0.011497311 -0.027785169 0.020009935
0.011924624 -0.026601085 0.020107716
0.013160629 -0.027261302 0.020001739
0.014036355 -0.027136954 0.019962907
0.014846909 -0.026910022 0.020205796
0.015910907 -0.027142135 0.019957483
0.017110247 -0.027566509 0.020004064
0.017646914 -0.026934765 0.01989612
0.018534482 -0.026874999 0.019839108
0.020398231 -0.028168986 0.018992811
0.020515151 -0.0270427 0.018173248
0.021994699 -0.027732445 0.016516805
0.023100955 -0.027913656 0.015899658
0.023024131 -0.02670799 0.014683902
0.02474783 -0.027603349 0.014003366
0.026061596 -0.027992085 0.011856556
0.026516577 -0.027463596 0.009219408
0.028276766 -0.028276766 0.0073451698
-0.016487401 -0.02715572 0.007296294
-0.014762047 -0.025833583 0.0092799067
-0.014200706 -0.026507985 0.011336625
-0.013201469 -0.026402937 0.014724463
-0.012000585 -0.025847413 0.015909463
-0.01146432 -0.02675008 0.016359329
-0.010271131 -0.026144698 0.017437875
-0.0094958106 -0.02658827 0.017795295
-0.0085401554 -0.026569372 0.018123597
-0.0075760526 -0.026516184 0.017992496
-0.0065986435 -0.026394574 0.017428517
-0.0057154442 -0.026672073 0.016981274
-0.0047883252 -0.026814621 0.016656369
-0.0037795738 -0.026457017 0.015396684
-0.00294792 -0.027513919 0.014596283
-0.0018935147 -0.026509207 0.014020383
-0.00096114998 -0.026912199 0.014019698
0 -0.026816715 0.013212025
0.00094713189 -0.026519693 0.013257653
0.0019729901 -0.027621862 0.014372379
0.0029460916 -0.027496856 0.015908211
0.0036993702 -0.025895592 0.016551495
0.0046371855 -0.025968241 0.017510712
0.0056492616 -0.026363222 0.017509311
0.006550014 -0.026200056 0.017515391
0.0074410187 -0.026043566 0.017496943
0.0083213467 -0.025888633 0.018515378
0.0093776081 -0.026257304 0.018970758
0.010366967 -0.026388643 0.019026071
0.011103912 -0.02590913 0.019193113
0.012109869 -0.026082793 0.019151956
0.013350701 -0.026701402 0.019020021
0.01369641 -0.025566632 0.018758953
0.014887743 -0.02605355 0.01868251
0.015927365 -0.026233308 0.018578857
0.016429527 -0.025557041 0.018743157
0.017613262 -0.025956387 0.018631727
0.019426757 -0.027197462 0.018308789
0.019316729 -0.02575564 0.017861724
0.020573931 -0.026185002 0.016352564
0.021613859 -0.026312523 0.016034663
0.022369238 -0.026097443 0.015473604
0.023452852 -0.026267195 0.014650881
0.024625877 -0.026520176 0.014039308
0.025079539 -0.02600841 0.01281631
0.026589587 -0.026589587 0.010706693
0.02768947 -0.026734661 0.0082729459
0.028398354 -0.026505131 0.0057126582
-0.016481975 -0.026177255 0.0066973269
-0.015540348 -0.026224338 0.0089582205
-0.014142962 -0.025457332 0.011174649
-0.013207261 -0.025471147 0.014204532
-0.012148516 -0.025231533 0.015241534
-0.011315767 -0.025460476 0.016100138
-0.010294455 -0.025268208 0.016865551
-0.0093494607 -0.025243545 0.017659009
-0.008699608 -0.026098825 0.017881334
-0.0076271314 -0.025741568 0.017885268
-0.0066975122 -0.02583326 0.017082244
-0.005619572 -0.025288073 0.016521931
-0.0046700351 -0.025218191 0.016087323
-0.0038789774 -0.026183097 0.014563173
-0.0027831476 -0.025048327 0.013831258
-0.0019298106 -0.026052443 0.012718081
-0.00095565093 -0.025802575 0.011463702
0 -0.025631526 0.0098518729
0.00098990113 -0.02672733 0.0086312294
0.0019979444 -0.026972249 0.0088631213
0.0029504322 -0.026553892 0.010841668
0.004031328 -0.027211465 0.01422295
0.0047452948 -0.025624592 0.016639233
0.005548276 -0.024967242 0.01688388
0.0065738158 -0.025356146 0.017118335
0.0075164801 -0.025368121 0.017000973
0.0084572369 -0.02537171 0.017138004
0.009376877 -0.025317568 0.018662274
0.010319919 -0.025330711 0.018731594
0.011496321 -0.025866725 0.019063145
0.012495345 -0.02595187 0.019033045
0.012910526 -0.024898872 0.018930644
0.014093634 -0.025368541 0.018418372
0.01493335 -0.025200026 0.017756432
0.015736701 -0.024993582 0.018184453
0.016735092 -0.025102638 0.018457621
0.018280419 -0.025977436 0.018184453
0.018651012 -0.025178865 0.016736507
0.019898022 -0.02558317 0.015887886
0.0206888 -0.025390798 0.015770763
0.021409266 -0.025132615 0.015449673
0.022694541 -0.025531359 0.014683902
0.02386768 -0.025777094 0.014648497
0.024911741 -0.025869885 0.014276713
0.025837718 -0.025837718 0.0134269
0.026611354 -0.025660949 0.012040526
0.02701572 -0.025152566 0.010068387
0.029338736 -0.026404863 0.0072169304
-0.015181498 -0.024669934 0.0083732307
-0.014362823 -0.02489556 0.010379732
-0.013059499 -0.024253355 0.01342088
-0.0125996 -0.025199199 0.014595062
-0.011205174 -0.024277877 0.015549719
-0.010510691 -0.024843451 0.016118199
-0.0094510177 -0.024572646 0.016862452
-0.008297516 -0.023970602 0.01706329
-0.0077605266 -0.025221711 0.016921312
-0.0066496055 -0.024698535 0.015969306
-0.0057342588 -0.024848456 0.015516609
-0.0048119216 -0.025021993 0.014832109
-0.0037370373 -0.024290742 0.013418019
-0.0028373902 -0.024590716 0.011922479
-0.0019543886 -0.025407052 0.010549814
-0.00095812976 -0.024911374 0.0085910559
0 -0.025217241 0.0078390837
0.00096599088 -0.025115762 0.0070994794
0.0019473197 -0.025315156 0.0063386559
0.0030333621 -0.026289139 0.0070843995
0.0039415359 -0.025619984 0.0073759258
0.0048439116 -0.025188342 0.0089663565
0.0057042805 -0.024718549 0.015077323
0.0066577098 -0.024728635 0.015848875
0.0073540276 -0.023900589 0.016004503
0.0085119037 -0.024589945 0.016171992
0.0092597315 -0.024075301 0.016527027
0.010427603 -0.024647061 0.016605586
0.011474888 -0.024862256 0.016731173
0.012299515 -0.024599031 0.016602188
0.012977648 -0.024101347 0.016393721
0.014525414 -0.025177384 0.016054362
0.014696328 -0.023881534 0.015119582
0.015596685 -0.023853753 0.013840169
0.017519359 -0.025305741 0.01385659
0.017838245 -0.024410231 0.01384443
0.019175295 -0.024927882 0.014093757
0.019749383 -0.024451617 0.014081597
0.02083431 -0.024622366 0.01393503
0.021547394 -0.024357924 0.014481992
0.022943741 -0.024855718 0.014648497
0.023275724 -0.024206752 0.014650881
0.024598181 -0.024598181 0.014481992
0.025441563 -0.024499284 0.01384151
0.025844872 -0.023998808 0.012612283
0.027522841 -0.024675652 0.011183262
0.027985411 -0.024254022 0.0081691444
0.029165165 -0.024461107 0.0053694844
-0.0153808 -0.0240325 0.0061498582
-0.014310378 -0.023850629 0.0086889863
-0.013594564 -0.024276007 0.011398554
-0.011979344 -0.023037201 0.013438761
-0.011456309 -0.023867309 0.014319628
-0.010609571 -0.02411266 0.015561908
-0.0092497561 -0.023124391 0.015542299
-0.0086487457 -0.024024293 0.015860945
-0.0074776397 -0.023367625 0.015594661
-0.0066856802 -0.023877429 0.015224278
-0.0056668436 -0.023611847 0.014238477
-0.0047225314 -0.023612656 0.013592213
-0.0038010408 -0.023756506 0.011671007
-0.0029272502 -0.024393752 0.010077983
-0.001938735 -0.024234189 0.0085852742
-0.00094987813 -0.023746952 0.0071990192
0 -0.024961114 0.0053246319
0.0059216358 -0.024673482 0.0055899024
0.0066323723 -0.023687044 0.0099166036
0.0074839755 -0.023387425 0.01233381
0.008405868 -0.023349633 0.014544636
0.0094574727 -0.023643682 0.015415817
0.010714092 -0.024350209 0.015709966
0.011385415 -0.023719614 0.015559584
0.012627754 -0.024284143 0.015524179
0.014058345 -0.025104187 0.013076752
0.013729488 -0.022882478 0.011825204
0.015372032 -0.0240188 0.01157707
0.016223473 -0.02385805 0.01109308
0.017495863 -0.02429981 0.012087643
0.018471507 -0.024304615 0.012593746
0.019350048 -0.024187561 0.012902409
0.019867716 -0.023652045 0.01313141
0.020686533 -0.023507424 0.013282329
0.023057928 -0.025062965 0.014103144
0.021918375 -0.022831641 0.014198542
0.023258423 -0.023258423 0.014300644
0.024569089 -0.023624124 0.014279097
0.025143808 -0.023281304 0.013888597
0.026576091 -0.023728652 0.01253581
0.027730094 -0.023905255 0.011384785
0.028230803 -0.02352567 0.0081691444
0.03014373 -0.02430946 0.0056488216
-0.014504433 -0.023207093 0.00750494
-0.012941123 -0.022184782 0.0091320574
-0.012643158 -0.023341214 0.010563135
-0.011374083 -0.022748167 0.013005048
-0.010475897 -0.022856504 0.014136106
-0.0094139231 -0.022593414 0.014777213
-0.0084341103 -0.022490961 0.014879435
-0.0075095678 -0.022528702 0.014632702
-0.0066364207 -0.022753444 0.013881266
-0.0057339161 -0.022935664 0.013494194
-0.0046916138 -0.022519747 0.012665004
-0.0039076554 -0.023445932 0.0095792711
-0.0028383213 -0.02270657 0.0082146525
-0.0019401317 -0.02328158 0.0072216094
0.0083727119 -0.022327231 0.0066944361
0.0094644763 -0.022714743 0.010581225
0.011896846 -0.025956756 0.01159215
0.012694629 -0.025389258 0.011314631
0.014183674 -0.026185244 0.010399729
0.013161909 -0.022563273 0.0094428062
0.013719941 -0.021951906 0.007134378
0.015822509 -0.023733763 0.006054163
0.017113926 -0.024160836 0.0067136586
0.017765878 -0.023687836 0.007047236
0.018897561 -0.023870602 0.0082237124
0.01905123 -0.022861475 0.0092647672
0.019974405 -0.022827892 0.010825187
0.021594632 -0.02355778 0.011568695
0.021136262 -0.022055229 0.012870312
0.023056228 -0.023056228 0.013252616
0.023202976 -0.022274856 0.013682008
0.024339093 -0.022466855 0.013754278
0.025435179 -0.022609049 0.013228416
0.02638123 -0.022612482 0.01192075
0.026835723 -0.022208873 0.011022627
0.029059237 -0.023247389 0.0077293515
0.029061817 -0.022499472 0.0055689216
-0.013583331 -0.022315472 0.0075007975
-0.012030781 -0.021285228 0.0089023709
-0.011004632 -0.021092212 0.011221498
-0.010437976 -0.021824857 0.01346001
-0.0094598485 -0.021757651 0.013663977
-0.0083833616 -0.021424145 0.013729751
-0.007663745 -0.022033267 0.013494194
-0.006774738 -0.022259854 0.013035893
-0.0056284326 -0.021575658 0.011718452
-0.0050078928 -0.023036309 0.010236055
-0.0037627567 -0.021635851 0.0081699193
-0.0029078419 -0.022293456 0.0074903667
0.016425114 -0.022222213 0.0051145852
0.018318357 -0.023406791 0.005191505
0.01867363 -0.022604922 0.0053256452
0.019486137 -0.022409057 0.0055314898
0.020391401 -0.022333439 0.0081398785
0.020964783 -0.021917729 0.0091037452
0.0226085 -0.0226085 0.010825187
0.02258829 -0.021647112 0.012248814
0.02365509 -0.021762684 0.012935191
0.024719106 -0.021866901 0.012930095
0.024863103 -0.02117968 0.012332648
0.026189648 -0.021512926 0.011300296
0.027654104 -0.021932565 0.0095331371
0.027831534 -0.021337509 0.0075979829
-0.01248377 -0.02112638 0.0076435506
-0.011475424 -0.021038279 0.0084424019
-0.010568118 -0.021136235 0.0099638999
-0.0094143627 -0.020711599 0.011123478
-0.0086055184 -0.02103571 0.010872811
-0.0076112649 -0.020930978 0.010821939
-0.0065770331 -0.020670675 0.0099548101
-0.0058642603 -0.021502286 0.0089655817
-0.0046961005 -0.020662842 0.0076966882
-0.0038722295 -0.021297263 0.0070322454
0.020013614 -0.020966643 0.0052342117
0.021252867 -0.021252867 0.0066667497
0.021948643 -0.020994356 0.0081487298
0.022801813 -0.020901661 0.010172844
0.023950418 -0.021076368 0.010940194
0.024400331 -0.020646434 0.011333704
0.025077008 -0.020433119 0.010838479
0.026457328 -0.020787902 0.0082602501
0.026759585 -0.020300375 0.0077887177
0.028353339 -0.020792449 0.005680263
-0.011581493 -0.020267613 0.0066637993
-0.010242754 -0.019554349 0.0076982081
-0.0095283557 -0.020009547 0.0080137849
-0.0084954686 -0.019822761 0.0083287954
-0.0077653029 -0.020383921 0.008387506
-0.0067501981 -0.020250594 0.0081099272
-0.0057159616 -0.020005867 0.0075476468
-0.0047911755 -0.020122936 0.0064473748
0.021932134 -0.020024993 0.0052536726
0.023349291 -0.02043063 0.0074932873
0.023693871 -0.019902851 0.0083223879
0.024291649 -0.019620178 0.0082923472
0.026033971 -0.020248644 0.0080390871
