ply
format ascii 1.0
comment PCL generated
element vertex 1273
property float x
property float y
property float z
element camera 0
property float view_px
property float view_py
property float view_pz
property float x_axisx
property float x_axisy
property float x_axisz
property float y_axisx
property float y_axisy
property float y_axisz
property float z_axisx
property float z_axisy
property float z_axisz
property float focal
property float scalex
property float scaley
property float centerx
property float centery
property int viewportx
property int viewporty
property float k1
property float k2
end_header
0.01299304 -0.070961989 0.0074658394
0.013142446 -0.066650972 0.010682613
0.014069901 -0.066597529 0.012372077
0.014767358 -0.065530151 0.013919383
0.016177114 -0.067563243 0.016074479
0.017689837 -0.06977658 0.015907079
0.017402461 -0.065030247 0.015865654
0.018765479 -0.066617452 0.015574992
0.019947309 -0.067440897 0.013278991
0.020476403 -0.066082932 0.010286093
0.021842495 -0.067426831 0.0080530345
0.023021882 -0.068106398 0.0063259006
0.025673375 -0.07291238 0.0054225028
0.010921611 -0.069501162 0.0070133805
0.011704315 -0.068275176 0.0076995194
0.012402174 -0.06678094 0.011216849
0.013797458 -0.068987288 0.012549043
0.014262143 -0.066556662 0.013676763
0.015525478 -0.067923971 0.015711188
0.016278286 -0.067028239 0.016681612
0.016658839 -0.064784378 0.016661495
0.017786572 -0.065529473 0.016572982
0.018890485 -0.066116698 0.01589188
0.019770006 -0.06590002 0.015445411
0.020827554 -0.066269487 0.012961596
0.021866167 -0.066549204 0.0083161294
0.02246394 -0.065519825 0.007237792
0.024332486 -0.068130963 0.0059094727
0.027043479 -0.072809368 0.0050320029
0.0088350484 -0.076202288 0.0050389171
0.0087821102 -0.067329511 0.0054790378
0.0096247876 -0.066411033 0.007166326
0.011310135 -0.07094539 0.0081101358
0.011681657 -0.067169532 0.012335122
0.012714203 -0.067483075 0.013197213
0.013165209 -0.064885676 0.015367508
0.014266578 -0.065626256 0.016144216
0.015047041 -0.064890362 0.016400427
0.015734838 -0.063864939 0.017736107
0.017103698 -0.065564178 0.017053783
0.017697489 -0.064269833 0.016993433
0.018836845 -0.064987116 0.016303599
0.01981061 -0.065092005 0.015744478
0.020932894 -0.065653168 0.013278991
0.02189949 -0.065698467 0.0090918839
0.023697732 -0.068130977 0.0080831051
0.024368796 -0.067257881 0.0060603321
0.008469779 -0.07199312 0.006385088
0.010145904 -0.076657943 0.0072394013
0.01064624 -0.072394431 0.0088611245
0.010578417 -0.065393858 0.012241006
0.011772737 -0.066712178 0.013883859
0.012436675 -0.065053374 0.016194761
0.013494346 -0.065543965 0.01630652
0.014236279 -0.064537793 0.017042249
0.014994275 -0.063725665 0.017536521
0.015951481 -0.063805923 0.018045902
0.016777495 -0.06338165 0.017659754
0.017662523 -0.063213244 0.017565429
0.019152436 -0.065118283 0.016492009
0.020030964 -0.064862169 0.015903205
0.020563796 -0.063560829 0.014123678
0.021881012 -0.064691685 0.010336787
0.022501158 -0.063753277 0.0080831051
0.024241058 -0.065935679 0.0060603321
0.0066163964 -0.073883094 0.0052484572
0.006537661 -0.062574752 0.0068330765
0.0075204112 -0.062983446 0.0076827109
0.0088169174 -0.065637052 0.0092245638
0.0098355282 -0.065898038 0.01325056
0.010604978 -0.064593956 0.016099036
0.01177548 -0.065746427 0.016786128
0.012163718 -0.06268993 0.01678586
0.013432812 -0.064285599 0.017489016
0.013724389 -0.061302271 0.017802536
0.015217619 -0.06372378 0.018303573
0.016286928 -0.064189658 0.018521875
0.016849281 -0.062716767 0.0178096
0.018563824 -0.065461904 0.017625779
0.018827593 -0.063072436 0.016225725
0.019155335 -0.061114643 0.015751094
0.020794496 -0.063328691 0.013100117
0.02183166 -0.063596569 0.0090215802
0.02380944 -0.066468023 0.0071986616
0.024721835 -0.066254519 0.0055887103
0.0052665239 -0.069518119 0.0056520402
0.0057924916 -0.06371741 0.0070455372
0.00650978 -0.061377924 0.0080393255
0.007487583 -0.061772559 0.011901677
0.0083015421 -0.060877979 0.01389429
0.0096041774 -0.063387573 0.01719749
0.011421649 -0.068529896 0.018352509
0.011336597 -0.062351279 0.018082887
0.012391042 -0.062908366 0.017753661
0.013274121 -0.062578 0.018093973
0.014025808 -0.061713554 0.018041342
0.014650076 -0.060431562 0.017941743
0.015993003 -0.062090479 0.018046558
0.017356455 -0.063640334 0.017438531
0.017173035 -0.059653699 0.01671505
0.018942509 -0.062510282 0.0159823
0.020036401 -0.062971547 0.015044093
0.021157466 -0.063472398 0.011881411
0.021705309 -0.062284797 0.0082750916
0.023428513 -0.064428411 0.006185621
0.024567999 -0.064859517 0.0055394769
0.0039727818 -0.064557701 0.0056666136
0.0052697943 -0.068507329 0.0073419809
0.0055798274 -0.060448129 0.008528173
0.0065900362 -0.061193194 0.012098551
0.0074366876 -0.060423087 0.016402334
0.0083603552 -0.060380347 0.018571556
0.009178618 -0.05966102 0.019382447
0.010207572 -0.060317472 0.019941866
0.011969807 -0.06483645 0.019921184
0.012186628 -0.060933139 0.019560009
0.013097416 -0.06080943 0.019691139
0.014386531 -0.062341634 0.019026846
0.014665048 -0.059576757 0.018820643
0.015935585 -0.060930178 0.018113166
0.01697072 -0.061283156 0.017712444
0.017987709 -0.061536897 0.016928524
0.019405015 -0.063066304 0.015813559
0.020325452 -0.062912114 0.014380187
0.020797195 -0.061446261 0.010773122
0.02283226 -0.064525954 0.0079850852
0.023776297 -0.064394139 0.0058542192
0.0043212809 -0.069140494 0.0073050559
0.0047058044 -0.060234297 0.0094128549
0.0056507885 -0.060275078 0.013528556
0.0065424778 -0.059816942 0.018223494
0.0076880539 -0.061504431 0.019942939
0.0084459689 -0.060060225 0.020133018
0.0094769523 -0.060652494 0.020497978
0.01028074 -0.059815217 0.020522088
0.011181698 -0.059635725 0.020285487
0.012537248 -0.061721835 0.020113021
0.013995301 -0.063978523 0.019970775
0.013746426 -0.058651417 0.019745022
0.014939743 -0.059758972 0.019310385
0.016164413 -0.06085426 0.018766165
0.016862761 -0.059956484 0.018023074
0.018097876 -0.060961265 0.017264813
0.019362982 -0.061961547 0.015632063
0.019778399 -0.060277022 0.013266116
0.021109216 -0.061408628 0.0091888905
0.022733705 -0.063259006 0.0065713525
0.0030588857 -0.064236604 0.0070442259
0.0039586294 -0.062348414 0.0090639591
0.0046556666 -0.058661398 0.01621294
0.0056307982 -0.059123382 0.019836277
0.0065038116 -0.058534302 0.020056576
0.0075440817 -0.059409641 0.02040264
0.0084581608 -0.059207123 0.020522088
0.00941444 -0.059310969 0.020642638
0.010166444 -0.058225993 0.02059564
0.011386322 -0.059778187 0.020418316
0.012149929 -0.058880422 0.020345122
0.013017005 -0.058576521 0.020267159
0.014512187 -0.060951184 0.019891679
0.015079151 -0.059374157 0.019685417
0.015887609 -0.058877613 0.019310385
0.016655052 -0.058292683 0.018390387
0.018153666 -0.060193732 0.017369747
0.018997366 -0.059841704 0.01576677
0.020118315 -0.060354948 0.01273331
0.02263942 -0.064831063 0.0085551739
0.022882396 -0.062677868 0.0063566566
0.001947033 -0.060358025 0.0057830513
0.0033387628 -0.069001101 0.0084663928
0.003741232 -0.057989094 0.016368717
0.0045573907 -0.056511644 0.020392716
0.0056381621 -0.058261007 0.020596206
0.0065656584 -0.058152974 0.020876169
0.007432648 -0.05760302 0.021091074
0.0085990382 -0.059237819 0.021637201
0.0094285393 -0.058456946 0.021637201
0.010368708 -0.058441807 0.021249026
0.011348481 -0.058633819 0.020998508
0.01198076 -0.057139009 0.020959526
0.012943013 -0.057319056 0.020884037
0.014116317 -0.058347445 0.020196348
0.0149995 -0.058123063 0.019620627
0.01713074 -0.062476818 0.019344985
0.017267186 -0.059475865 0.018687785
0.017871954 -0.058319006 0.017561913
0.019808767 -0.061407179 0.015691817
0.02111065 -0.062326677 0.012173474
0.020819675 -0.058673631 0.0082070827
0.022376714 -0.060319841 0.0061409175
0.0021535926 -0.065684572 0.0079775453
0.0028280988 -0.057504676 0.013589203
0.003726633 -0.056831151 0.019900173
0.0047434019 -0.057869505 0.020637572
0.0055676824 -0.056604769 0.020982802
0.0066078771 -0.05758293 0.021091074
0.0076245619 -0.058137283 0.02177766
0.0085810134 -0.058160204 0.022168875
0.0092690988 -0.056541502 0.022179008
0.010386835 -0.05759972 0.021858335
0.011209769 -0.056982994 0.021623224
0.012097084 -0.056763239 0.021632373
0.013269343 -0.057816423 0.021562487
0.013878158 -0.056437843 0.020677
0.015062836 -0.057427064 0.020013422
0.016018134 -0.057476833 0.019557208
0.017481916 -0.059244271 0.018929809
0.019398637 -0.062279835 0.0175955
0.018966073 -0.057846524 0.015771538
0.020480093 -0.059489794 0.01213187
0.021194311 -0.058766045 0.0081837773
0.022441223 -0.059518028 0.0061409175
0.001027311 -0.061638661 0.0060330927
0.0020435192 -0.061305575 0.011001587
0.0027734695 -0.05546939 0.019227982
0.0037541471 -0.056312207 0.020152748
0.0046867672 -0.056241207 0.020756572
0.005663021 -0.056630209 0.021248311
0.0065967864 -0.056543887 0.021388769
0.0075539327 -0.056654494 0.021790117
0.0083859405 -0.055906266 0.021945834
0.009423702 -0.05654221 0.021921724
0.010382134 -0.056629822 0.021858335
0.011167373 -0.055836864 0.021671206
0.01221732 -0.056387629 0.021794528
0.013135557 -0.056295246 0.021570057
0.014203993 -0.056815971 0.02079311
0.014653893 -0.0549521 0.020135045
0.015602295 -0.055066925 0.019444317
0.016980406 -0.056601349 0.019213408
0.017722901 -0.055967055 0.0175955
0.019090138 -0.057270415 0.014317542
0.023759833 -0.067885235 0.011984408
0.023928743 -0.065260209 0.0075745285
0.022086095 -0.057615902 0.0060284138
0 -0.057611141 0.0053198338
0.0010896826 -0.064291269 0.0082132816
0.0018411938 -0.054315217 0.018619984
0.002807792 -0.055219907 0.019820452
0.0037416918 -0.055189956 0.020661175
0.0046535362 -0.054911729 0.021070838
0.005569071 -0.054762531 0.021481454
0.0065894891 -0.055539977 0.021785736
0.0073858066 -0.054470323 0.021927476
0.0086379554 -0.056626596 0.022181392
0.0093688304 -0.055276096 0.022135407
0.010386744 -0.055710718 0.022113651
0.011552271 -0.056798663 0.021933526
0.012247293 -0.055583868 0.022077322
0.012960752 -0.054620314 0.02183336
0.01406238 -0.05531203 0.021086603
0.014686831 -0.054157689 0.02045536
0.016028328 -0.05562773 0.019815803
0.016599139 -0.054408289 0.019388944
0.016991036 -0.05276164 0.017805427
0.020203229 -0.059599526 0.014360607
0.019820994 -0.055687554 0.010932982
0.022157542 -0.059422497 0.0068719387
0.024257932 -0.062226865 0.0053627491
0 -0.06228343 0.0069476068
0.00094300613 -0.054694355 0.013233334
0.0018483502 -0.053602155 0.019579321
0.0027969689 -0.054074734 0.020457149
0.0037182465 -0.053914577 0.021248311
0.0046878778 -0.054379381 0.021634996
0.0056650937 -0.054762572 0.021780074
0.0065194787 -0.054018535 0.021877885
0.0075654672 -0.054849636 0.022186667
0.008394504 -0.054097917 0.022193223
0.0092219347 -0.053487219 0.022085905
0.010287471 -0.054243032 0.021942109
0.011350485 -0.054860678 0.021784693
0.012016015 -0.053609911 0.021977663
0.013189803 -0.054643467 0.021665215
0.014241138 -0.055065732 0.021222085
0.015038134 -0.054513235 0.020789713
0.015830496 -0.054009929 0.02045536
0.016444417 -0.052987564 0.020103246
0.01840339 -0.056178767 0.019311398
0.018525206 -0.053723097 0.016581327
0.019101523 -0.052756589 0.012195587
0.020329585 -0.05359618 0.0071847141
0.02344387 -0.059119321 0.0055072606
-0.001006771 -0.057385944 0.0052870214
0 -0.058514677 0.0094951689
0.00091673055 -0.052253641 0.017909735
0.0018832764 -0.053673375 0.02017051
0.0027861258 -0.05293639 0.020896554
0.003741801 -0.053320665 0.021597683
0.0046972223 -0.053548332 0.022077203
0.0056507271 -0.05368191 0.022019178
0.0066250791 -0.053947072 0.022117257
0.0075048963 -0.053472385 0.022237539
0.0084288577 -0.053382762 0.022193223
0.0094300071 -0.053751037 0.022085905
0.010153949 -0.052615918 0.021945834
0.011199003 -0.053195264 0.021933526
0.012368773 -0.054232314 0.022077322
0.013112824 -0.053387925 0.02183336
0.01397513 -0.053105496 0.021294028
0.014791415 -0.052694418 0.020746022
0.015961559 -0.053518172 0.020555019
0.017075006 -0.054070849 0.020427465
0.017683933 -0.053051796 0.01973471
0.018936099 -0.053967886 0.017341942
0.020175491 -0.054762047 0.01246348
0.020441534 -0.052962154 0.0072979033
0.021006795 -0.052060321 0.0057583749
-0.0011152023 -0.062451329 0.0078504682
0 -0.053771637 0.016468793
0.00093607785 -0.052420359 0.01992023
0.0018430153 -0.051604431 0.02075395
0.0028523949 -0.053244706 0.021393836
0.003819925 -0.053478952 0.021594256
0.0046693771 -0.052297026 0.02190271
0.0055994052 -0.052261114 0.021950185
0.0065745898 -0.052596718 0.021993577
0.0075714574 -0.053000201 0.022012681
0.008435755 -0.052489143 0.021991849
0.0093743326 -0.052496266 0.021968365
0.010251466 -0.052189283 0.021877885
0.011396738 -0.053184777 0.021834314
0.012010643 -0.051738154 0.02198723
0.013132926 -0.052531704 0.021933079
0.013768343 -0.051401813 0.02139765
0.015024759 -0.052586656 0.020917177
0.01555548 -0.051241584 0.020845979
0.016811628 -0.052302845 0.020665109
0.017806005 -0.052480858 0.020158052
0.018809043 -0.052665319 0.017726541
0.02065159 -0.055070907 0.014178962
0.021019131 -0.053503245 0.0081902146
0.021017347 -0.05117267 0.0063040555
-0.002119825 -0.058295187 0.0059289932
-0.000966269 -0.053144794 0.012447417
0 -0.051496122 0.019678324
0.00092056952 -0.050631322 0.020630568
0.0018879178 -0.051917739 0.021431834
0.002825069 -0.051792935 0.021740675
0.0037427919 -0.051463388 0.021993577
0.0046820142 -0.051502157 0.022066712
0.0056657465 -0.051936012 0.022126257
0.006584608 -0.051736206 0.022189289
0.0074625313 -0.051304903 0.022162139
0.0083493972 -0.051024094 0.021974653
0.009377066 -0.051573865 0.021973968
0.010423309 -0.052116543 0.021815628
0.011164693 -0.051171511 0.021815628
0.012155103 -0.051425438 0.022011727
0.013217743 -0.051926848 0.021950155
0.014834641 -0.054393683 0.021576017
0.015353524 -0.052777737 0.021411896
0.015958533 -0.051630549 0.021182239
0.016763948 -0.051223174 0.020940661
0.020459397 -0.059224568 0.020667791
0.019435247 -0.05344693 0.019142061
0.019554649 -0.051214553 0.014542192
0.022342257 -0.055855643 0.0089052022
0.021178875 -0.050645135 0.0062492788
-0.0029702929 -0.053465273 0.0052194297
-0.0020946667 -0.056556005 0.0091492832
-0.00091498566 -0.049409226 0.017226249
0 -0.050626922 0.020537674
0.00093881245 -0.050695874 0.021597683
0.0018652979 -0.050363045 0.021732688
0.0028227654 -0.050809775 0.022070408
0.003748493 -0.050604656 0.022133142
0.0047339271 -0.051126409 0.022126257
0.0055946037 -0.050351433 0.022145331
0.0065515102 -0.050540224 0.0221394
0.0074573583 -0.050337169 0.022133142
0.0083945664 -0.050367396 0.0218997
0.009421776 -0.050877593 0.022018701
0.010196429 -0.050055195 0.02198267
0.011236604 -0.050564721 0.02188465
0.012241716 -0.050850201 0.02219817
0.013086783 -0.05047759 0.022035748
0.013895145 -0.05002252 0.021746278
0.014873639 -0.050198533 0.0215078
0.015773673 -0.050104603 0.021301568
0.016881613 -0.050644841 0.021198004
0.019029466 -0.054083746 0.020773351
0.020146657 -0.054395974 0.020137608
0.022660544 -0.058269974 0.015644222
0.022193011 -0.054473754 0.0090087652
0.021084236 -0.049502119 0.0064189732
0.023548137 -0.05298331 0.0050396621
-0.0032661716 -0.057702366 0.0088030696
-0.0018627737 -0.049363501 0.016585261
-0.00093322381 -0.049460862 0.020266086
0 -0.050462317 0.020965427
0.00093115179 -0.049351044 0.021739751
0.001853876 -0.049127717 0.021851361
0.0027696183 -0.048929922 0.022054464
0.0038285188 -0.050727874 0.022021025
0.0046471832 -0.049260143 0.022087485
0.0056056785 -0.049516827 0.022054374
0.0066190287 -0.050115503 0.022093743
0.007462373 -0.049438223 0.022150904
0.0086063882 -0.050682064 0.021862715
0.0093220454 -0.049406838 0.021991998
0.010130274 -0.048809502 0.021972001
0.011476585 -0.050688248 0.021972001
0.012108924 -0.049367152 0.021991998
0.013152689 -0.049792323 0.021767229
0.01421513 -0.050226793 0.021655738
0.014666387 -0.048582405 0.021283239
0.015888862 -0.049535863 0.021057636
0.016693449 -0.049152933 0.020672202
0.017054399 -0.047572799 0.020531923
0.018654665 -0.049434859 0.020134836
0.020070557 -0.050654262 0.015571922
0.019952497 -0.04806738 0.0091309249
0.021638764 -0.049863242 0.006488055
0.02331505 -0.051487401 0.0052157938
-0.0041454886 -0.053891353 0.0058123469
-0.0029087923 -0.050419066 0.011782765
-0.0018695014 -0.048607036 0.019796371
-0.00092549535 -0.048125759 0.020672053
0 -0.049406309 0.021547258
0.00092567824 -0.048135266 0.021905273
0.0018695014 -0.048607036 0.021992028
0.0027981745 -0.048501689 0.021909803
0.0037571462 -0.0488429 0.022061288
0.0046658288 -0.048524622 0.021945149
0.005688752 -0.049302518 0.021708816
0.0065163146 -0.048406906 0.021717191
0.0075458288 -0.049047887 0.021904558
0.0083410889 -0.048192956 0.021816134
0.0092825582 -0.048269302 0.021904558
0.010400476 -0.049165886 0.021864444
0.011303489 -0.048981786 0.021864444
0.012075025 -0.048300099 0.02191475
0.013156273 -0.048866156 0.021850705
0.014179694 -0.049156271 0.021627814
0.015311603 -0.049762711 0.021407038
0.016230676 -0.049646772 0.021028817
0.016911747 -0.048856158 0.020672202
0.017881619 -0.048939165 0.020464808
0.01860133 -0.048363458 0.019419581
0.019484168 -0.048246514 0.014875591
0.020353023 -0.048107143 0.0090807974
0.0226145 -0.051128436 0.0064207017
-0.004981569 -0.050812006 0.0055400431
-0.0042554955 -0.054257568 0.010078013
-0.0027623535 -0.046960007 0.017325282
-0.0018769499 -0.047862224 0.020385057
-0.00093860563 -0.047868885 0.021064192
0 -0.047101218 0.021881491
0.00094409136 -0.048148658 0.022235364
0.0018852394 -0.048073605 0.022209316
0.0028003869 -0.047606576 0.021966845
0.0037527839 -0.047847994 0.022089392
0.0046826201 -0.047762726 0.02180472
0.0056105405 -0.047689594 0.021733373
0.0065803463 -0.047942523 0.021632165
0.0075068804 -0.047856361 0.021613628
0.0083252341 -0.047176328 0.02155751
0.0094666351 -0.048279837 0.021613628
0.010358999 -0.048028082 0.021848142
0.011326234 -0.048136495 0.021709263
0.012184389 -0.047800295 0.021671206
0.013088139 -0.047678221 0.021627814
0.013973313 -0.047509264 0.021410763
0.014782595 -0.047119521 0.021279514
0.015566166 -0.046698496 0.020673037
0.016910767 -0.047913842 0.020482093
0.017791513 -0.047756169 0.020303547
0.018401772 -0.046924517 0.018359095
0.019897159 -0.048321672 0.014218688
0.021171231 -0.049078763 0.0085482299
0.021961106 -0.048696365 0.0061783195
0.023619341 -0.050191101 0.0050986111
-0.0057029556 -0.057029556 0.0079244077
-0.0038295875 -0.047869842 0.016669124
-0.0028104454 -0.046840757 0.019843996
-0.0019012113 -0.047530282 0.020819068
-0.00093604607 -0.046802301 0.021553904
0 -0.047061514 0.021958947
0.00093458313 -0.046729155 0.021891266
0.001854885 -0.046372127 0.021845311
0.0028104454 -0.046840757 0.021821558
0.0037727789 -0.047159735 0.021908373
0.0046238038 -0.046238039 0.021676034
0.0056156623 -0.046797186 0.021705031
0.0065893107 -0.047066502 0.021560073
0.0074415528 -0.046509705 0.02161479
0.0085479105 -0.047488391 0.02155751
0.0093630524 -0.046815261 0.021639794
0.010196801 -0.046349097 0.02191475
0.011467357 -0.047780652 0.02180472
0.012075097 -0.046442684 0.022190094
0.013179399 -0.047069285 0.021727443
0.014051894 -0.046839647 0.021410763
0.014538956 -0.045434237 0.021016419
0.015987528 -0.047022142 0.020651281
0.017020389 -0.047278859 0.020550132
0.017402813 -0.045796875 0.019797385
0.018737819 -0.046844546 0.016979545
0.019612115 -0.046695512 0.014044374
0.021503352 -0.048871256 0.0082838237
0.022574207 -0.049074363 0.0062217116
0.023822412 -0.049630024 0.0051961839
-0.0064739748 -0.052870791 0.0063687265
-0.0048246216 -0.047281291 0.012769789
-0.0037047309 -0.045382954 0.01907599
-0.0028259736 -0.046157569 0.02049315
-0.0018582869 -0.045528028 0.021270335
-0.00093707693 -0.04591677 0.021874189
0 -0.045719769 0.022108406
0.00092793291 -0.045468714 0.022240818
0.001876087 -0.045964133 0.022026181
0.0028307284 -0.04623523 0.021865726
0.0037698331 -0.046180457 0.021949321
0.0047319694 -0.0463733 0.021722615
0.0055717435 -0.04550257 0.021991163
0.0066123139 -0.046286199 0.021642894
0.0074395565 -0.045567282 0.021666199
0.0082116369 -0.044707797 0.021583378
0.0092045516 -0.045102302 0.02177301
0.010342194 -0.046069771 0.02182126
0.011165323 -0.045591734 0.0221982
0.012227889 -0.046089735 0.022205502
0.013216004 -0.046256013 0.021645039
0.014048158 -0.045890648 0.021586865
0.015033931 -0.046041414 0.021279514
0.015932566 -0.045923274 0.020482093
0.016609237 -0.045214031 0.020372272
0.018089907 -0.046652921 0.019760102
0.018704832 -0.045826837 0.017490894
0.020132307 -0.046975385 0.01397872
0.021343933 -0.047538761 0.0088992119
0.02260354 -0.048155367 0.0068083405
0.023676317 -0.048339147 0.0052458644
-0.0067812032 -0.046499677 0.0060668588
-0.0062793796 -0.050235037 0.010218263
-0.0046548028 -0.044686109 0.01752606
-0.0037439419 -0.044927303 0.020302474
-0.0028087494 -0.044939991 0.021054685
-0.0018822829 -0.045174789 0.022312671
-0.00093322503 -0.044794802 0.02214992
0 -0.04464278 0.022181779
0.00094096735 -0.045166433 0.022249401
0.0018947192 -0.045473263 0.021966845
0.0027917412 -0.044667859 0.021521717
0.0037512572 -0.045015085 0.021670163
0.0046560219 -0.044697814 0.02156049
0.0057004141 -0.045603313 0.021607995
0.006588771 -0.045180146 0.021591485
0.0074779848 -0.044867907 0.021668136
0.0085148616 -0.045412596 0.021419764
0.0092891427 -0.044587888 0.021674365
0.010190573 -0.044467956 0.021722615
0.010982377 -0.043929506 0.021738529
0.012096256 -0.044663098 0.022176206
0.013199646 -0.045255929 0.021951765
0.014095507 -0.045105621 0.021586865
0.01502011 -0.045060329 0.021283239
0.015879564 -0.044836417 0.020664364
0.017082592 -0.045553584 0.020360917
0.017897647 -0.045215108 0.019363195
0.018284483 -0.043882757 0.017170221
0.020031095 -0.04578536 0.01425752
0.02129953 -0.0464717 0.011194617
0.022461949 -0.046877112 0.008071214
0.023519835 -0.047039669 0.0059902668
0.024800315 -0.047616608 0.0050630271
-0.0077445796 -0.051999319 0.0081814229
-0.0056589846 -0.044328712 0.015630722
-0.0047626179 -0.044768609 0.019006938
-0.0037758183 -0.044365864 0.020917535
-0.0028006509 -0.043876864 0.021738827
-0.001880786 -0.044198472 0.022382498
-0.0009349758 -0.043943863 0.022087544
0 -0.043923944 0.022181779
0.00095107086 -0.044700332 0.022197902
0.0018660323 -0.043851759 0.021841556
0.0028019312 -0.043896925 0.021294475
0.0038277591 -0.044976167 0.021514803
0.0045681507 -0.042940617 0.021463394
0.0056502065 -0.044259951 0.021460772
0.0065532369 -0.044000305 0.021260202
0.0073369215 -0.043104414 0.021463394
0.0083298478 -0.043500315 0.021213144
0.00939136 -0.044139389 0.021505117
0.010185687 -0.043520663 0.021622956
0.011241758 -0.044030219 0.021644831
0.012015233 -0.043439686 0.021716028
0.013054399 -0.043825481 0.021569163
0.013927104 -0.043638259 0.021396399
0.014909698 -0.043797236 0.021223038
0.015706345 -0.043423425 0.020451337
0.016972667 -0.044317517 0.020247161
0.017370867 -0.042970039 0.018915325
0.019874571 -0.046705242 0.01652956
0.022908727 -0.051271912 0.014244497
0.020988485 -0.044839036 0.011346906
0.022324407 -0.045619439 0.0080834925
0.023409931 -0.045844447 0.0059676468
-0.0084783267 -0.048750378 0.0064463615
-0.006653355 -0.043722045 0.013029218
-0.0055977646 -0.042916197 0.017802924
-0.004657344 -0.042847566 0.020078152
-0.0037464642 -0.043084338 0.02118659
-0.0028549035 -0.043775186 0.02185443
-0.0018750094 -0.043125216 0.022354186
-0.00092501496 -0.042550687 0.02214992
0 -0.043280013 0.022391707
0.00092678308 -0.042632021 0.022169769
0.0018617185 -0.042819526 0.021689743
0.0029276982 -0.044891372 0.021154702
0.0036989111 -0.042537477 0.021373242
0.0047146501 -0.043374781 0.021385401
0.0055926437 -0.042876936 0.021385401
0.0065607573 -0.043113548 0.021257579
0.0075352066 -0.04332744 0.021460772
0.0083658444 -0.042758759 0.021301925
0.0093734553 -0.043117896 0.021439373
0.01026655 -0.042932846 0.021642894
0.011284629 -0.043257747 0.021652162
0.012005421 -0.042480722 0.02194941
0.013299751 -0.043699183 0.021697253
0.014088514 -0.043204777 0.021469027
0.015028243 -0.0432062 0.021245748
0.015738048 -0.042585306 0.020569533
0.016573194 -0.042353716 0.020224005
0.018066989 -0.043741129 0.018472195
0.019401632 -0.044623755 0.016472518
0.020076314 -0.043976691 0.014598072
0.023888893 -0.049949504 0.011986196
0.023131695 -0.046263389 0.0093565583
0.022946401 -0.043980602 0.0071144104
0.024155946 -0.044446941 0.0055734515
-0.0089904368 -0.044952184 0.005803138
-0.0085659111 -0.048183247 0.0092473328
-0.0064671021 -0.041574229 0.016828656
-0.0055899103 -0.041924328 0.018996567
-0.0046639056 -0.041975148 0.020318061
-0.0037734192 -0.042450964 0.021273047
-0.0028381739 -0.04257261 0.021935552
-0.0018408088 -0.041418198 0.022549599
-0.00094669126 -0.042601109 0.022273779
0 -0.041745216 0.022169769
0.00094254524 -0.042414539 0.022169769
0.0018950721 -0.042639121 0.02167666
0.0027368434 -0.041052651 0.021232486
0.0037570796 -0.042267147 0.021365345
0.0046855481 -0.042169936 0.02125293
0.0056294147 -0.042220611 0.021385401
0.0065038009 -0.041810147 0.021183997
0.0075140079 -0.042266294 0.021357566
0.0083387019 -0.041693509 0.021066189
0.0093183117 -0.041932404 0.021387964
0.010244108 -0.041907713 0.021496028
0.011390327 -0.042713728 0.021558464
0.012197547 -0.042222276 0.021666706
0.0131313 -0.042207751 0.021454751
0.01381482 -0.041444462 0.021355122
0.01510674 -0.042487707 0.020914406
0.015573932 -0.041225113 0.020379633
0.016825927 -0.042064816 0.019950211
0.018651964 -0.044175707 0.019012302
0.019064939 -0.042896111 0.016959012
0.020184407 -0.0432523 0.01532355
0.021119967 -0.043199934 0.0136365
0.022450678 -0.043925241 0.010897666
0.026668984 -0.050004344 0.008250773
0.024208497 -0.043575294 0.0069313347
0.025308885 -0.043803837 0.0053349435
-0.0096956594 -0.047401 0.006411612
-0.007647356 -0.042060457 0.015181243
-0.0065317219 -0.041056536 0.018034875
-0.0055787275 -0.040910669 0.020029843
-0.004672267 -0.041115951 0.020858228
-0.0037745005 -0.041519504 0.021485955
-0.0028238038 -0.041415788 0.021935254
-0.0018997592 -0.041794702 0.022416562
-0.00092562148 -0.040727343 0.02214992
0 -0.041591335 0.022065043
0.00093641359 -0.041202199 0.02205196
0.0018393971 -0.040466737 0.021518648
0.0028393511 -0.041643817 0.021162838
0.0037805976 -0.041586574 0.021231323
0.00459179 -0.040407751 0.021106988
0.0055750697 -0.040883843 0.021138996
0.0067310105 -0.04230921 0.021066189
0.0074210712 -0.04081589 0.021255374
0.0087520424 -0.042787764 0.021269709
0.0092521338 -0.040709388 0.021642894
0.010240372 -0.040961489 0.021538615
0.011305811 -0.041454639 0.021710664
0.011987949 -0.040574595 0.022011846
0.012987496 -0.040817846 0.021753073
0.013886496 -0.040733721 0.021468163
0.014753317 -0.040571623 0.021243453
0.015910938 -0.041181255 0.020462066
0.017033618 -0.041637734 0.020139366
0.017961657 -0.041595414 0.019116938
0.019199446 -0.042238783 0.017738044
0.020493131 -0.04293799 0.016100645
0.020679908 -0.041359816 0.014276087
0.02252971 -0.043100312 0.012274355
0.023213679 -0.042558409 0.0098080933
0.025287811 -0.044506546 0.0078861713
0.02686307 -0.045460578 0.0065149069
0.02599455 -0.04236149 0.0051789582
-0.010292226 -0.044256572 0.0058920085
-0.0090424577 -0.043202851 0.0092643499
-0.0074802451 -0.040206317 0.017115504
-0.0065446673 -0.040202957 0.0193142
-0.0057035885 -0.040875718 0.020249367
-0.0046787709 -0.04023743 0.020858228
-0.0037394639 -0.040199239 0.021400869
-0.0028035615 -0.040184382 0.021353751
-0.0018448031 -0.039663266 0.022211403
-0.00095503114 -0.041066337 0.022019982
0 -0.039627057 0.022153258
0.00092484918 -0.039768513 0.021849304
0.0019123612 -0.041115768 0.021579534
0.0028085003 -0.04025517 0.021239698
0.0036575191 -0.039318331 0.021308184
0.0047507146 -0.040856145 0.021118909
0.005696638 -0.040825903 0.02118367
0.0065532029 -0.04025539 0.02114287
0.0075353547 -0.04050253 0.021294087
0.0083643552 -0.039963033 0.02107811
0.0092114965 -0.039609436 0.021372527
0.010359938 -0.04049794 0.021426111
0.011254864 -0.040329926 0.021607786
0.012091995 -0.039996598 0.021753073
0.013378505 -0.041091122 0.021701485
0.014038518 -0.040243752 0.021417618
0.014891087 -0.040019795 0.021029919
0.015735229 -0.039800875 0.020469725
0.016773043 -0.040068936 0.020139366
0.018132158 -0.041035935 0.019104332
0.019013518 -0.040879067 0.017945558
0.019543512 -0.040017668 0.016453236
0.020855822 -0.04076365 0.015520632
0.021968765 -0.041072037 0.014017254
0.023193734 -0.041555442 0.011805952
0.024599176 -0.042310584 0.0099435747
0.025382916 -0.04197944 0.0077933967
0.029060131 -0.046280947 0.0057583749
-0.010909869 -0.045821451 0.0072131455
-0.0083288243 -0.038867846 0.016129434
-0.0074642673 -0.039187405 0.01747334
-0.0065524508 -0.039314706 0.019540459
-0.005696361 -0.039874528 0.020215005
-0.0046946965 -0.03943545 0.02027005
-0.0037353761 -0.039221447 0.021269441
-0.0028158613 -0.039422058 0.021501869
-0.0018884892 -0.039658275 0.021866381
-0.0009224246 -0.038741831 0.021765113
0 -0.039804745 0.021849304
0.00092815614 -0.038982559 0.021605343
0.0018734896 -0.039343283 0.021580815
0.0027562296 -0.038587213 0.021425992
0.0037836658 -0.039728492 0.021482944
0.0046282392 -0.038877212 0.02134943
0.0055489405 -0.038842585 0.021361351
0.0065682414 -0.039409447 0.021269709
0.0075198654 -0.039479293 0.021280855
0.0085416948 -0.039861243 0.021226913
0.0095078861 -0.039933119 0.021532178
0.010322554 -0.039413389 0.021567822
0.01122871 -0.039300486 0.021538615
0.012074755 -0.039010745 0.021727532
0.013178229 -0.039534688 0.021528006
0.013978415 -0.039139561 0.021160573
0.014920565 -0.039166484 0.020970315
0.01581315 -0.039067782 0.020745486
0.016968468 -0.039593093 0.019910336
0.018116238 -0.04004642 0.019055337
0.018708102 -0.039287016 0.017728865
0.019970905 -0.03994181 0.016879767
0.021204395 -0.040481117 0.015961707
0.021830497 -0.039864387 0.014524341
0.022986665 -0.040226664 0.013279378
0.023905799 -0.040161744 0.012041032
0.025141265 -0.040612813 0.010288864
0.026943292 -0.041911788 0.0080551505
0.028598931 -0.042898394 0.0062378645
0.02938227 -0.042553633 0.0050224364
-0.012228815 -0.045580126 0.0056432486
-0.009537844 -0.039105158 0.009326607
-0.008282817 -0.037732832 0.017321825
-0.0076125995 -0.039014574 0.018780291
-0.0066267694 -0.038813937 0.019999474
-0.0056228861 -0.038423058 0.020255387
-0.0047365054 -0.038839344 0.02027005
-0.0038273574 -0.039230414 0.021269441
-0.0027187567 -0.03715634 0.02112636
-0.0018708244 -0.038351901 0.02173382
-0.00094499404 -0.038744755 0.021627665
0 -0.038187381 0.021407723
0.0009609696 -0.039399754 0.0213902
0.001886068 -0.038664393 0.021212637
0.0027822303 -0.038023811 0.020900488
0.0037741896 -0.038685441 0.021056384
0.0045999307 -0.037719432 0.021115959
0.0057476279 -0.039275456 0.021374851
0.0066045774 -0.038683955 0.021222591
0.0074677509 -0.038272224 0.021398932
0.0084111979 -0.03831768 0.021150976
0.0093513168 -0.038340401 0.02123633
0.010273706 -0.038292903 0.021358401
0.011266847 -0.038495064 0.021292865
0.012176277 -0.038402103 0.02138871
0.012915587 -0.037824221 0.021188438
0.014214355 -0.038852569 0.020988286
0.015028911 -0.038511582 0.020766824
0.016252412 -0.039196994 0.020168036
0.017025644 -0.038780633 0.019879043
0.017471829 -0.03770237 0.019460946
0.018659558 -0.038252097 0.018840969
0.020233231 -0.039502971 0.017502278
0.020497372 -0.038199648 0.016105175
0.022322146 -0.039791651 0.015671939
0.022791136 -0.03893486 0.014318645
0.02375084 -0.038951375 0.013297975
0.024630507 -0.038840413 0.011653125
0.02593006 -0.039375275 0.010212988
0.026110901 -0.03823382 0.0082471371
0.028816411 -0.040740445 0.0060623288
-0.011003218 -0.0400117 0.0071908832
-0.009170305 -0.03668122 0.016213953
-0.0085703302 -0.038090359 0.017907649
-0.0075419066 -0.037709534 0.019304484
-0.0065286341 -0.03730648 0.020528167
-0.0056397314 -0.037598208 0.021186709
-0.0048737042 -0.038989633 0.021135241
-0.0036361597 -0.036361597 0.021682948
-0.0028925405 -0.038567208 0.021401644
-0.0019058299 -0.038116597 0.021735102
-0.00092432642 -0.036973055 0.021302879
0 -0.038480487 0.021549493
0.00091530202 -0.036612082 0.021187842
0.0018954641 -0.037909284 0.020898193
0.0028071161 -0.037428215 0.020629734
0.003753715 -0.03753715 0.020717144
0.0047298134 -0.037838507 0.021032929
0.0056591197 -0.037727464 0.021185637
0.006418529 -0.036677308 0.021223426
0.0076413983 -0.038206995 0.02141434
0.0084337182 -0.037483193 0.021267325
0.0093848733 -0.037539493 0.021405488
0.01033408 -0.037578475 0.021365136
0.011190088 -0.037300292 0.021496981
0.012231773 -0.037636224 0.02151832
0.013168155 -0.037623301 0.021215677
0.013930148 -0.037147064 0.020947337
0.015040656 -0.037601639 0.020659059
0.015775029 -0.037117712 0.020145088
0.016931402 -0.037625339 0.019865662
0.0180424 -0.037984002 0.019551456
0.018813083 -0.037626166 0.018960476
0.019500583 -0.037143968 0.018152952
0.020990349 -0.038164273 0.01698795
0.021386929 -0.037194658 0.016507059
0.022528265 -0.037547108 0.015807182
0.023988254 -0.038381208 0.015429199
0.024466053 -0.037640084 0.013943791
0.025434075 -0.037680112 0.011617541
0.026666211 -0.038094588 0.010255247
0.027772412 -0.038306776 0.0077975988
0.028781358 -0.038375147 0.0052731633
-0.010128212 -0.035909116 0.0088510811
-0.0093860617 -0.036605641 0.016434282
-0.0083777318 -0.036303502 0.018136322
-0.007578948 -0.03694737 0.019335419
-0.0066745668 -0.037186872 0.020522058
-0.0056861718 -0.036960114 0.021082461
-0.0045776763 -0.035705876 0.020840615
-0.0037544344 -0.036605734 0.021400869
-0.0028374724 -0.036887139 0.021304071
-0.0018498491 -0.036072057 0.021383286
-0.00094084773 -0.036693063 0.021332473
0 -0.035734829 0.021523803
0.00094060379 -0.036683548 0.021383762
0.0018971654 -0.036994725 0.020987898
0.0028138754 -0.03658038 0.020739555
0.0037298016 -0.036365565 0.02067101
0.0046209656 -0.036043532 0.021066666
0.0055325311 -0.035961449 0.021366835
0.006670299 -0.037163094 0.021286309
0.0075384686 -0.036750033 0.02146852
0.008522572 -0.036931146 0.021287978
0.0093769189 -0.036569983 0.02124837
0.010093348 -0.035785507 0.021383047
0.011111795 -0.036113337 0.021457702
0.012250748 -0.036752246 0.02141434
0.013017111 -0.03626195 0.02111873
0.014028814 -0.036474917 0.020565748
0.015421767 -0.037590556 0.020347685
0.015626881 -0.035849903 0.019843489
0.016829379 -0.036463656 0.019685805
0.017721793 -0.036376309 0.019463539
0.018859308 -0.036775652 0.019354045
0.019633509 -0.036462232 0.018841714
0.020714361 -0.036720913 0.017399222
0.02136166 -0.036221948 0.016957015
0.022621686 -0.036760237 0.016408205
0.023038816 -0.035940554 0.015956581
0.024559315 -0.036838975 0.015391141
0.026273362 -0.037950415 0.013669401
0.026144965 -0.036416203 0.01142031
0.027573032 -0.037080973 0.0096197724
0.02961855 -0.038504116 0.0061558187
-0.010223995 -0.035319254 0.0088802278
-0.0093884123 -0.035675965 0.016761482
-0.0083216922 -0.035136033 0.018136322
-0.0077729826 -0.036921665 0.019032896
-0.0063860156 -0.034666941 0.020071447
-0.0056791678 -0.035968065 0.02038759
-0.0048056617 -0.036523029 0.020272762
-0.0038041521 -0.036139447 0.020415634
-0.0028081785 -0.035570264 0.020474285
-0.0018873917 -0.035860442 0.020729542
-0.00095663132 -0.03635199 0.020734787
0 -0.036115769 0.021204174
0.00093894865 -0.035680048 0.020961851
0.0018697093 -0.035524476 0.020842075
0.0027964718 -0.035421975 0.020507127
0.0037312298 -0.035446685 0.020658642
0.0046605533 -0.035420205 0.020962447
0.0056850207 -0.036005132 0.021353722
0.0065584257 -0.035602883 0.021299988
0.0073642889 -0.034980372 0.021326929
0.0085400483 -0.036057983 0.020975322
0.0093646394 -0.035585631 0.020840973
0.010315179 -0.035634253 0.020906895
0.011280638 -0.035722021 0.02106142
0.012131004 -0.035459857 0.020629734
0.013231123 -0.035913046 0.020467937
0.014591697 -0.036965631 0.019823134
0.014512116 -0.034466278 0.019710064
0.015934318 -0.035617888 0.019392967
0.017223939 -0.03636165 0.018945426
0.017232124 -0.034464248 0.01895389
0.018996764 -0.03609385 0.018890709
0.019940216 -0.036082298 0.018829346
0.020854807 -0.036021937 0.018403023
0.021456668 -0.035450149 0.018286079
0.022397976 -0.035463464 0.017750889
0.023189219 -0.035247613 0.017133653
0.024691975 -0.036088273 0.016226262
0.02591175 -0.036468387 0.014994442
0.026401894 -0.035831142 0.012676984
0.027638029 -0.036215346 0.010704249
0.028574876 -0.036194842 0.007443428
0.028958291 -0.035497259 0.0050399899
-0.010298256 -0.034639589 0.0087581873
-0.0092212502 -0.034118626 0.016151756
-0.0088455006 -0.036364835 0.017771959
-0.0073983124 -0.034217194 0.018838078
-0.0066556232 -0.035179723 0.019607127
-0.0057065147 -0.035190172 0.020164073
-0.0047430932 -0.035098892 0.019991994
-0.0037555601 -0.034738932 0.020243824
-0.0028059396 -0.034606587 0.020261616
-0.0018893135 -0.034952298 0.020141423
-0.00092936121 -0.034386367 0.020658016
0 -0.034936942 0.020874172
0.00092875148 -0.034363806 0.020603359
0.0018800455 -0.034780841 0.020717889
0.0028813013 -0.035536051 0.020251155
0.0037045884 -0.034267444 0.020507127
0.004680295 -0.034634184 0.020739555
0.0057145623 -0.035239801 0.020906895
0.0066172155 -0.03497671 0.02084446
0.0075636404 -0.034981836 0.020842075
0.0085366238 -0.03509501 0.020616144
0.009218202 -0.03410735 0.020490497
0.010440393 -0.035117686 0.020459503
0.011201474 -0.034537878 0.020521641
0.012297978 -0.035001937 0.019963503
0.013442489 -0.035526577 0.019606501
0.013807285 -0.034057967 0.019371808
0.015543231 -0.03594372 0.018945426
0.016141193 -0.035130832 0.018950045
0.016373945 -0.033657555 0.018798202
0.018395999 -0.035823788 0.018875659
0.019089032 -0.035314709 0.018857181
0.018932298 -0.033356905 0.018857181
0.020843767 -0.035055425 0.018614501
0.021800755 -0.035070781 0.018142194
0.022314364 -0.034401312 0.017997473
0.024048438 -0.035591688 0.017914474
0.024334062 -0.034629244 0.017154425
0.025811151 -0.035370834 0.015838414
0.026268642 -0.034712136 0.014071703
0.027440073 -0.035009749 0.011576027
0.028289873 -0.034890842 0.0094113648
0.029474206 -0.035178892 0.0061313212
-0.010408654 -0.034064688 0.0084934831
-0.010051235 -0.036184445 0.015171438
-0.0084535964 -0.033814386 0.017115295
-0.0076059033 -0.034226567 0.018636376
-0.0066396873 -0.034146965 0.019116491
-0.0056387177 -0.033832308 0.019707799
-0.004599106 -0.033113562 0.019669384
-0.0038013274 -0.034211945 0.019814283
-0.0028135607 -0.033762727 0.019988537
-0.0018904915 -0.034028847 0.019836247
-0.0009483032 -0.034138914 0.020100981
0 -0.034005128 0.020363718
0.00094933977 -0.03417623 0.020133138
0.0018896379 -0.034013484 0.020502985
0.0027652718 -0.033183262 0.019969046
0.0038140088 -0.03432608 0.020360678
0.0047368929 -0.034105629 0.020515829
0.0057221185 -0.034332711 0.020705849
0.0065773833 -0.033826541 0.020705849
0.0074396036 -0.033478215 0.02039513
0.008330158 -0.033320632 0.020445049
0.0095623871 -0.034424596 0.020214826
0.010283281 -0.033654373 0.019918025
0.011175632 -0.033526897 0.020009071
0.012391984 -0.034316264 0.019538224
0.013271577 -0.034126911 0.019177496
0.014219172 -0.034126014 0.018650383
0.014952173 -0.033642389 0.017982244
0.015840517 -0.033544626 0.01787436
0.017320875 -0.03464175 0.018061578
0.017845938 -0.033813357 0.018405825
0.018494265 -0.033289678 0.018691003
0.02028599 -0.03477598 0.01905483
0.0202714 -0.033171382 0.018939823
0.021196855 -0.033177689 0.018961757
0.022569504 -0.033854257 0.018409491
0.023294847 -0.033544578 0.018012285
0.024088332 -0.033353075 0.017794788
0.026323054 -0.035097405 0.016687989
0.026268071 -0.033773232 0.01504299
0.027002109 -0.03351986 0.0124771
0.02806855 -0.033682261 0.010523796
0.029141894 -0.033842199 0.006790936
-0.010376853 -0.033017259 0.0050188303
-0.0091909226 -0.032168228 0.008855015
-0.0084731085 -0.032950975 0.016178966
-0.007465241 -0.032660428 0.018081903
-0.0065383655 -0.032691829 0.018704325
-0.0055793026 -0.032545932 0.01894626
-0.004734321 -0.033140246 0.01888606
-0.0037543969 -0.032850973 0.019293964
-0.0028015925 -0.032685246 0.019547611
-0.0018958038 -0.033176567 0.01938194
-0.00093888707 -0.032861046 0.019460917
0 -0.033906803 0.019767493
0.00093193637 -0.032617774 0.019639432
0.0018830001 -0.032952502 0.019578665
0.0028542697 -0.033299815 0.019768119
0.0037775647 -0.033053692 0.020121515
0.0047190795 -0.033033557 0.020112813
0.0056974506 -0.033235129 0.020148635
0.0065823193 -0.032911595 0.01982522
0.0074486602 -0.03258789 0.01977244
0.0084720114 -0.03294671 0.019768864
0.0092677223 -0.032437027 0.019552767
0.010127454 -0.032223716 0.019197553
0.011549755 -0.033686787 0.019138992
0.01265227 -0.034063805 0.018281013
0.013127035 -0.032817587 0.017457068
0.014248018 -0.033245377 0.017201334
0.015228584 -0.033312529 0.01680848
0.016008871 -0.032959439 0.016832888
0.017039718 -0.033132788 0.017269045
0.017992394 -0.033143885 0.017499417
0.01897238 -0.033201665 0.018033087
0.019486276 -0.032477126 0.018186659
0.020477088 -0.032577183 0.018511027
0.021385266 -0.032542795 0.018409491
0.022525052 -0.032849032 0.018143654
0.023093382 -0.032330737 0.017950088
0.024951374 -0.033588387 0.017895788
0.024986984 -0.032390535 0.017035455
0.026338862 -0.032923575 0.014793426
0.027750852 -0.033492409 0.012133807
0.02807506 -0.032754239 0.010216355
0.030211441 -0.034109693 0.0066766441
-0.0092576509 -0.031476013 0.006788373
-0.0085287727 -0.032219805 0.014455527
-0.0076254229 -0.032408047 0.016988903
-0.0066004419 -0.03205929 0.018285602
-0.0057206638 -0.032417096 0.018599361
-0.0048064007 -0.032683525 0.018552244
-0.0037723137 -0.032064669 0.018700689
-0.0028133851 -0.031885032 0.018862128
-0.0018959824 -0.0322317 0.018660456
-0.00093995227 -0.031958375 0.019043028
0 -0.031933606 0.019446909
0.00092275912 -0.03137381 0.019304067
0.0018831792 -0.032014046 0.019164354
0.0028581957 -0.032392882 0.019262373
0.0036781826 -0.031264551 0.019777566
0.0046972753 -0.031941473 0.01966399
0.0056065433 -0.031770412 0.019648314
0.0065466757 -0.031798139 0.018962085
0.0075395955 -0.032043282 0.018755972
0.0084294789 -0.031844698 0.018755972
0.0092326617 -0.031391051 0.018449843
0.010393255 -0.032124609 0.017665982
0.011593237 -0.032847505 0.017879516
0.012271591 -0.032094933 0.017042696
0.01340297 -0.032550067 0.016648829
0.014038251 -0.031820033 0.016159803
0.015182249 -0.032262281 0.015807778
0.016423572 -0.032847144 0.016072154
0.017072024 -0.032247156 0.016309172
0.017680516 -0.03163882 0.016067028
0.019067941 -0.032415498 0.016580164
0.019264413 -0.031190002 0.017089009
0.020520583 -0.031713627 0.01743266
0.022034118 -0.032572173 0.017747521
0.02292157 -0.032472223 0.017619699
0.023407491 -0.031834189 0.017498016
0.024044123 -0.031442314 0.017189056
0.024986131 -0.031464014 0.016720414
0.026654711 -0.032366432 0.01452747
0.027007487 -0.031663951 0.011482209
0.028294794 -0.032067433 0.0085493624
0.030074736 -0.032985196 0.0051558912
-0.0086057726 -0.031554502 0.0068973005
-0.0075280736 -0.031053303 0.014597476
-0.0066287625 -0.031249881 0.017012089
-0.005682393 -0.031253163 0.017388254
-0.0047190301 -0.031145601 0.017931998
-0.003857753 -0.031826463 0.018249899
-0.0028844164 -0.031728581 0.018552244
-0.0018909062 -0.031199953 0.01826787
-0.00095021736 -0.031357173 0.018146783
0 -0.030645063 0.018605977
0.00095155858 -0.031401433 0.01852414
0.0019027336 -0.031395104 0.018861145
0.0028419851 -0.031261835 0.018918484
0.0037853285 -0.03122896 0.019037545
0.0046324651 -0.03057427 0.018923789
0.005682393 -0.031253163 0.018718541
0.0065109944 -0.030694688 0.018152893
0.0074734585 -0.030828016 0.017716706
0.0084110349 -0.03084046 0.017716706
0.0094791241 -0.03128111 0.017482966
0.010682436 -0.032047309 0.016932577
0.011600809 -0.031902228 0.016745031
0.01266479 -0.032149084 0.016278654
0.013207087 -0.031130992 0.015504301
0.014139118 -0.03110606 0.014794648
0.015602696 -0.032180559 0.015189826
0.016072908 -0.031200353 0.015483588
0.017107509 -0.031363767 0.015441865
0.018212045 -0.031631447 0.015771121
0.018869882 -0.031135306 0.015957952
0.019831302 -0.031163475 0.016475499
0.020971073 -0.031456612 0.016963333
0.021077083 -0.030241035 0.017032236
0.022501461 -0.030939508 0.017156571
0.024136715 -0.031860463 0.017125398
0.024264598 -0.030797375 0.016839504
0.025415417 -0.031063288 0.015875727
0.025654038 -0.030235115 0.013510019
0.027112199 -0.030851813 0.011239737
0.029274894 -0.032202382 0.0081601441
-0.0078188246 -0.031275298 0.0067949891
-0.0066843471 -0.030557014 0.014597476
-0.005588132 -0.029803371 0.016210347
-0.004675529 -0.029923385 0.016868621
-0.003716388 -0.029731104 0.017573625
-0.0027955817 -0.029819539 0.017838866
-0.0019061803 -0.030498885 0.017342538
-0.00093505398 -0.029921727 0.017592251
0 -0.030048626 0.018120319
0.00094432035 -0.030218251 0.018186033
0.0018725288 -0.029960461 0.018355161
0.0028387427 -0.030279921 0.01862663
0.0037693013 -0.030154411 0.018883795
0.0047407546 -0.03034083 0.018525302
0.0056835902 -0.03031248 0.018152893
0.0065874909 -0.030114245 0.017444938
0.0075530768 -0.030212307 0.017156333
0.0085351579 -0.030347228 0.017202526
0.0093519157 -0.029926129 0.017098427
0.010425193 -0.030327836 0.016173333
0.011688015 -0.03116804 0.0152224
0.012245172 -0.030141961 0.013450623
0.013465771 -0.030778904 0.012567282
0.014673035 -0.031302474 0.012514979
0.015021084 -0.030042168 0.012318909
0.0165671 -0.031185128 0.013843656
0.017061764 -0.030332025 0.014754832
0.017703271 -0.029816035 0.015245199
0.01928547 -0.030856753 0.015362471
0.020160221 -0.030720336 0.01559332
0.020174626 -0.029344911 0.016235262
0.021738229 -0.030244494 0.016178638
0.022361662 -0.029815549 0.016543776
0.023105789 -0.029575411 0.016559899
0.024581391 -0.030254019 0.016245067
0.025522621 -0.030249033 0.014347017
0.026419105 -0.030193264 0.011742324
0.027352508 -0.030182078 0.0097535551
0.028626086 -0.030534493 0.0059844255
-0.0070091039 -0.031040318 0.0060578585
-0.0057436316 -0.02967543 0.01283437
-0.004690215 -0.029079333 0.014680684
-0.0037478886 -0.029046137 0.015987486
-0.0028707781 -0.029664708 0.016594619
-0.0018536539 -0.028731635 0.016431749
-0.00093799137 -0.029077733 0.016516387
0 -0.030007588 0.017412931
0.00093268789 -0.028913325 0.017556757
0.0019131504 -0.029653832 0.017863274
0.0028978435 -0.029944384 0.018050909
0.0038919912 -0.030162932 0.018029034
0.0047133779 -0.029222945 0.017826051
0.0056284298 -0.029080221 0.017363757
0.0064762109 -0.028680362 0.016929388
0.0075107436 -0.029104132 0.015268892
0.0083657661 -0.028815417 0.014819771
0.0099315792 -0.030787895 0.01469785
0.010898549 -0.030714095 0.012955427
0.011428553 -0.02952376 0.009752363
0.012623128 -0.030101307 0.0090590417
0.013805372 -0.030569037 0.0094555318
0.014225427 -0.029399214 0.010095745
0.015453978 -0.029942082 0.010324717
0.016084766 -0.029331045 0.01180315
0.016708989 -0.02877659 0.013452888
0.018560784 -0.030283384 0.014573693
0.018726749 -0.029026462 0.014870673
0.019907309 -0.029386979 0.015150607
0.020999784 -0.029590603 0.015497118
0.021416532 -0.02886576 0.015476167
0.0227139 -0.029338788 0.015810966
0.023956349 -0.029705873 0.015342087
0.024243204 -0.028905358 0.014293343
0.02469361 -0.028351923 0.012677968
0.026838282 -0.029713813 0.010718673
0.027821843 -0.029740591 0.0069026947
-0.0049145441 -0.029487265 0.0076107979
-0.0038132519 -0.028599389 0.013270348
-0.0028415322 -0.028415322 0.014658928
-0.0018929214 -0.02839382 0.014743596
-0.00094878592 -0.028463578 0.015221059
0 -0.028679455 0.015764862
0.00095945329 -0.028783599 0.016088456
0.0019097453 -0.028646179 0.017087668
0.0028565272 -0.028565271 0.01733157
0.0038181283 -0.028635962 0.017020375
0.0047850218 -0.028710129 0.016937673
0.0055549564 -0.027774781 0.016363531
0.0066225878 -0.028382519 0.014380753
0.0075283377 -0.028231265 0.010698795
0.008918128 -0.029727092 0.0094411671
0.010045553 -0.030136658 0.0092524886
0.010934767 -0.029822093 0.0078299046
0.011621629 -0.029054074 0.0069944263
0.012700791 -0.029309517 0.0064602792
0.013680886 -0.029316187 0.0067020953
0.014466718 -0.028933436 0.00734815
0.01518994 -0.028481137 0.008128345
0.016153181 -0.028505612 0.0090096295
0.017454449 -0.029090747 0.011353821
0.018064544 -0.028522963 0.012783974
0.019184683 -0.028777024 0.013236672
0.02036505 -0.029092928 0.01417166
0.020646378 -0.028154153 0.014373928
0.021947145 -0.028626712 0.01436168
0.022662908 -0.028328635 0.013746977
0.023170125 -0.027804149 0.012811035
0.024316106 -0.028057044 0.011651725
0.026376938 -0.02930771 0.011064202
0.026867345 -0.028786441 0.0081601441
