ply
format ascii 1.0
comment PCL generated
element vertex 1258
property float x
property float y
property float z
element camera 0
property float view_px
property float view_py
property float view_pz
property float x_axisx
property float x_axisy
property float x_axisz
property float y_axisx
property float y_axisy
property float y_axisz
property float z_axisx
property float z_axisy
property float z_axisz
property float focal
property float scalex
property float scaley
property float centerx
property float centery
property int viewportx
property int viewporty
property float k1
property float k2
end_header
-0.009041626 -0.082504839 0.0064806938
-0.0070832693 -0.073868379 0.0078873336
-0.005854697 -0.071232148 0.0099381804
-0.0046630632 -0.068080723 0.010409683
-0.0038377461 -0.070038863 0.009798795
-0.0029383495 -0.071499832 0.0096011758
-0.0018867372 -0.06886591 0.0083674788
-0.00094981893 -0.069336779 0.0076567233
0 -0.070601299 0.0070669651
-0.011504883 -0.075304687 0.0051251948
-0.011389334 -0.082003199 0.0057987571
-0.0095859794 -0.076687835 0.0079630017
-0.0075815828 -0.068234242 0.010582715
-0.0063997959 -0.065826476 0.01168564
-0.0057191355 -0.068629622 0.01260823
-0.0047472678 -0.068360656 0.011687338
-0.0038205304 -0.068769544 0.011687338
-0.0028567074 -0.06856098 0.011221379
-0.0018767853 -0.067564271 0.010632902
-0.00096058653 -0.069162235 0.0099737048
0 -0.068055257 0.0083667934
0.00099085562 -0.071341604 0.0074701905
0.0020199846 -0.072719447 0.0051229596
-0.013469664 -0.079695515 0.0057300925
-0.012564661 -0.081099175 0.006596297
-0.0096631357 -0.068608262 0.0084465444
-0.0082799718 -0.065319777 0.011156887
-0.0077440152 -0.068728134 0.012923658
-0.006589965 -0.066841073 0.014640272
-0.0056469459 -0.066822194 0.016287714
-0.0048706857 -0.06916374 0.015077025
-0.0037152593 -0.065945856 0.014481783
-0.0028368407 -0.067138568 0.01386556
-0.0019473073 -0.069129407 0.012538195
-0.00092624396 -0.065763324 0.011741847
0 -0.07008417 0.010559052
0.00097074453 -0.068922862 0.0094337463
0.0020597735 -0.073121957 0.006498158
-0.014408896 -0.07758636 0.0053129196
-0.012015739 -0.070091814 0.0066283643
-0.01001833 -0.063753009 0.0086243749
-0.0092036007 -0.064425208 0.011408806
-0.0088346647 -0.06871406 0.013183266
-0.007518847 -0.065789908 0.016194522
-0.0067695267 -0.067695267 0.017885625
-0.0056523927 -0.065944582 0.018359423
-0.0047913529 -0.067078941 0.01793471
-0.003791844 -0.06635727 0.017595619
-0.0028007138 -0.065349989 0.016934872
-0.0019111938 -0.066891782 0.015825957
-0.00093931018 -0.065751709 0.013939619
0 -0.068867557 0.012375504
0.00094453938 -0.066117756 0.01122129
0.0019312591 -0.067594066 0.0091028512
0.0030715917 -0.071670473 0.0066639781
0.0038577535 -0.067510687 0.0052883029
-0.012259842 -0.065071471 0.0066283643
-0.011199481 -0.064397015 0.0085451007
-0.010460855 -0.06561809 0.011128396
-0.0093663996 -0.064628161 0.013275117
-0.0086371005 -0.066217773 0.015347958
-0.0073733227 -0.063594908 0.018162519
-0.0066941516 -0.06598521 0.018775791
-0.0057647103 -0.066294163 0.018816799
-0.0046155746 -0.063694924 0.018757433
-0.0038560282 -0.066516489 0.018849701
-0.0028424596 -0.065376572 0.018538892
-0.0018785824 -0.064811096 0.017205685
-0.00097068097 -0.066976987 0.016929775
0 -0.063238285 0.014593959
0.00096417364 -0.066527985 0.012273699
0.001939276 -0.066905022 0.010724872
0.0029643315 -0.06817963 0.0086387396
0.0038574876 -0.066541664 0.0058897734
0.0049184146 -0.067874119 0.0050677359
-0.013450941 -0.065333143 0.005889684
-0.012678516 -0.066318393 0.006793201
-0.011403563 -0.064620189 0.0092935562
-0.010490799 -0.064852215 0.012209892
-0.0094842026 -0.064492576 0.014325082
-0.0083173644 -0.062842309 0.01645726
-0.0077292998 -0.065699048 0.018407077
-0.0064462903 -0.062621102 0.018942147
-0.0056934776 -0.064526081 0.019152641
-0.004733779 -0.064379394 0.019186586
-0.0036499109 -0.062048484 0.019243956
-0.002844241 -0.064469464 0.018771768
-0.0018528819 -0.062997982 0.01800698
-0.00094609649 -0.064334564 0.017200649
0 -0.065654218 0.015726566
0.00095035444 -0.064624101 0.01362884
0.0019368218 -0.065851942 0.012036175
0.0029509889 -0.066889077 0.010709435
0.0042987787 -0.073079236 0.0077273548
0.0047933846 -0.065190032 0.0052335262
-0.013728178 -0.065699138 0.0061539412
-0.01241825 -0.064001746 0.0087773204
-0.011784236 -0.065795317 0.011501521
-0.010226348 -0.062287755 0.013799995
-0.0095794844 -0.064182542 0.015409589
-0.0084622046 -0.06299641 0.017399192
-0.0075676115 -0.063378744 0.018747985
-0.0064857141 -0.062077552 0.019109726
-0.0055955416 -0.062483545 0.019303322
-0.0047467551 -0.063606523 0.019300669
-0.0036970123 -0.061924957 0.019272864
-0.002891449 -0.064575695 0.019096822
-0.001902963 -0.063749261 0.018290311
-0.00093135342 -0.062400676 0.017922968
0 -0.065837018 0.016842127
0.00092745974 -0.062139805 0.014694333
0.0019043015 -0.063794099 0.01334849
0.0029609839 -0.066128641 0.011431396
0.0038734314 -0.064879976 0.009658426
0.0049481108 -0.066304684 0.0075640082
0.0057992018 -0.064757749 0.0052327514
-0.013523564 -0.06375394 0.0064629316
-0.012524654 -0.063586704 0.008646071
-0.011701516 -0.064358339 0.012040794
-0.010203947 -0.061223682 0.014064103
-0.0095086768 -0.062757269 0.015409589
-0.0085687162 -0.062837258 0.017408282
-0.0073561794 -0.060688481 0.018763512
-0.0067848889 -0.06397181 0.01921466
-0.0056366185 -0.062002804 0.019470155
-0.0046438016 -0.06129818 0.01933223
-0.0037925392 -0.062576897 0.019357562
-0.0027802133 -0.061164692 0.019202471
-0.0018844145 -0.062185679 0.018879205
-0.00095475046 -0.063013531 0.018290311
0 -0.061298937 0.016933531
0.00096101774 -0.063427173 0.015488982
0.0019052241 -0.062872395 0.013687462
0.0028585216 -0.062887475 0.012194395
0.0038730968 -0.063906096 0.010582745
0.0053824289 -0.071048066 0.0093221962
0.0057384656 -0.063123122 0.0084867775
0.0068819863 -0.0648873 0.005713582
-0.014423932 -0.062503703 0.0052637756
-0.014148137 -0.065687776 0.0065658391
-0.012744088 -0.063720442 0.0088143945
-0.011207002 -0.060704596 0.012309045
-0.010924927 -0.064556383 0.01440379
-0.0094980169 -0.061737113 0.01619485
-0.0084583713 -0.061088234 0.01769495
-0.0076878546 -0.06246382 0.018624604
-0.006523591 -0.0605762 0.019199133
-0.0056970245 -0.061717764 0.019442767
-0.0046923077 -0.060999997 0.019272864
-0.0037685561 -0.061239034 0.019243062
-0.0028441877 -0.061624065 0.019201577
-0.0018748548 -0.060932782 0.01881206
-0.00095581496 -0.062127974 0.018413156
0 -0.06247231 0.017826498
0.00094832957 -0.061641425 0.016791135
0.0018768023 -0.060996074 0.01568383
0.0028421793 -0.06158055 0.01494664
0.0039265328 -0.063806154 0.012250245
0.0048079267 -0.062503047 0.011248469
0.0061873542 -0.06702967 0.0098788738
0.0068306886 -0.063427821 0.0082663596
0.0077092722 -0.062637836 0.0056446493
0.0087436568 -0.063148633 0.0050241351
-0.014645095 -0.06248574 0.0053530633
-0.01349626 -0.061697192 0.0066867471
-0.012738912 -0.062714644 0.0093667507
-0.011387577 -0.060733743 0.012528688
-0.010656204 -0.061999734 0.014328808
-0.0094988579 -0.060792688 0.01595369
-0.0086606508 -0.061586849 0.017009765
-0.0075585563 -0.06046845 0.01829806
-0.0065948754 -0.060296007 0.01892662
-0.0056883995 -0.060676262 0.018959671
-0.0047109774 -0.06030051 0.019288063
-0.0037216579 -0.059546527 0.019300669
-0.0029083465 -0.062044725 0.019305587
-0.0018988784 -0.060764108 0.019021869
-0.00094780471 -0.060659502 0.018720716
0 -0.060971323 0.018167496
0.00090623321 -0.057998925 0.0173271
0.0019353976 -0.061932724 0.016874909
0.00285649 -0.060938455 0.016019523
0.0037523326 -0.060037322 0.015098363
0.0049002566 -0.062723286 0.013454825
0.0062010786 -0.066144839 0.011946887
0.0066319373 -0.060634855 0.010331273
0.0081052687 -0.06484215 0.0081397593
0.0099635283 -0.070851751 0.0066232383
0.010793686 -0.069079593 0.0059993267
0.010814154 -0.062918708 0.0057216287
-0.013505047 -0.060772713 0.0059516728
-0.012671172 -0.061406445 0.0084765553
-0.011804711 -0.061974734 0.011191785
-0.010477702 -0.060008656 0.013382792
-0.0097728819 -0.061569154 0.014498979
-0.0087150494 -0.061005346 0.016722262
-0.0075056162 -0.05910673 0.017710119
-0.0068685194 -0.061816674 0.018644422
-0.0056059645 -0.058862627 0.018783599
-0.0048005376 -0.060486775 0.019083023
-0.003844677 -0.060553662 0.019098461
-0.002850699 -0.059864677 0.019408792
-0.0018779722 -0.059156124 0.018860728
-0.00096072716 -0.060525812 0.018556386
0 -0.058915246 0.018494546
0.00095743989 -0.060318712 0.017968148
0.0018802853 -0.059228987 0.01768887
0.0028682305 -0.06023284 0.017257184
0.003784779 -0.05961027 0.01646018
0.004824277 -0.06078589 0.016117871
0.0058280118 -0.061194122 0.015078455
0.0076124202 -0.068511784 0.014120549
0.008582646 -0.067588337 0.010700077
0.0090409527 -0.06328667 0.0088277459
0.009320721 -0.058720544 0.0088277459
0.010131637 -0.058026645 0.0085595846
0.011313304 -0.059394848 0.0078240037
0.012336595 -0.059785038 0.0076752007
0.01258688 -0.056640964 0.0065255463
0.013741136 -0.057712771 0.0054611564
0.016752124 -0.065961488 0.0050903261
-0.013978863 -0.061906394 0.0052346289
-0.012566151 -0.059930876 0.0067840219
-0.011368929 -0.058739468 0.010105848
-0.010564862 -0.059547402 0.012372881
-0.0094875786 -0.058822989 0.014142066
-0.0085880812 -0.059162337 0.01613161
-0.0076673683 -0.059422106 0.017258644
-0.0066577005 -0.058968205 0.018587679
-0.0057192501 -0.059098918 0.018721372
-0.0045930045 -0.056953259 0.019234061
-0.0038693249 -0.059974536 0.019440025
-0.0027533832 -0.056903254 0.020120323
-0.0018907774 -0.058614098 0.019822866
-0.00094387541 -0.058520276 0.019303501
0 -0.058463838 0.018955231
0.000977483 -0.06060395 0.018626571
0.0018795748 -0.058266819 0.01844731
0.0028794089 -0.059507784 0.018340468
0.0038853972 -0.060223658 0.017805636
0.0046420125 -0.057560954 0.017805636
0.0059712799 -0.061703227 0.016695142
0.0069291387 -0.06137237 0.016543269
0.0074175522 -0.057486027 0.015396744
0.0084566064 -0.058256622 0.014764726
0.0093926303 -0.058234308 0.014991075
0.01046645 -0.058992717 0.015586257
0.012038592 -0.062199395 0.015178442
0.012863593 -0.061349444 0.012192905
0.013124458 -0.058122598 0.010171115
0.01415556 -0.058509652 0.0077073574
0.014970299 -0.058009908 0.0067281127
0.018029366 -0.065754153 0.0054301918
-0.012549637 -0.058886759 0.0062486529
-0.011535516 -0.058638874 0.008559823
-0.010852178 -0.060180254 0.011013508
-0.009336059 -0.056949958 0.013141572
-0.0086067645 -0.058334734 0.014498979
-0.0079133753 -0.060339484 0.016849458
-0.006502185 -0.056661896 0.018126845
-0.0058676014 -0.059653945 0.018573016
-0.0047771945 -0.058281772 0.018984824
-0.0037444124 -0.057102289 0.019366086
-0.0029070124 -0.059109252 0.020164877
-0.0018284346 -0.055767257 0.020095497
-0.00095331832 -0.058152415 0.019954473
0 -0.05759915 0.01981616
0.00091465213 -0.055793777 0.01926592
0.001913195 -0.058352448 0.018856734
0.0027838927 -0.05660582 0.018856734
0.0037166472 -0.056678869 0.018657029
0.0049893856 -0.060870506 0.018657029
0.0058339927 -0.059312262 0.018163562
0.0064697955 -0.056379646 0.017949581
0.0074838083 -0.057064038 0.017571986
0.0086127911 -0.058375586 0.017571986
0.0092264879 -0.056281574 0.017831206
0.010509363 -0.058279198 0.01782468
0.011195892 -0.056912456 0.017532736
0.012210222 -0.057294119 0.01727134
0.014027591 -0.06112022 0.015315503
0.013826132 -0.056226268 0.011916339
0.015165052 -0.057816762 0.0094410181
0.017478466 -0.062716849 0.00738585
0.017880477 -0.06059495 0.0055931211
-0.012683382 -0.058538686 0.0050858557
-0.011795574 -0.058977872 0.0080341995
-0.010420304 -0.056838024 0.0099143386
-0.0099673653 -0.05980419 0.012664437
-0.0085590947 -0.057060633 0.014265239
-0.007579749 -0.056848116 0.01631242
-0.0066675413 -0.057150353 0.017667055
-0.0057613016 -0.057613019 0.018533677
-0.0048895464 -0.058674559 0.018817186
-0.0037448909 -0.056173366 0.019309163
-0.0028403355 -0.05680671 0.020055085
-0.0018672781 -0.056018341 0.020135403
-0.00094716746 -0.056830049 0.020113975
0 -0.056132313 0.020097941
0.00094972522 -0.056983512 0.02000159
0.0018838426 -0.056515276 0.019809842
0.002864999 -0.057299979 0.02004391
0.0038981065 -0.058471598 0.019805014
0.0047497931 -0.056997515 0.019876719
0.005553049 -0.055530488 0.018941939
0.0066048857 -0.056613304 0.018688649
0.0075958231 -0.056968674 0.018209308
0.008300459 -0.055336393 0.017836988
0.009493106 -0.056958634 0.018540859
0.011375884 -0.062050276 0.018955886
0.012811652 -0.064058267 0.018715769
0.013796709 -0.063677117 0.018652588
0.014138447 -0.060593344 0.017259985
0.014067064 -0.056268256 0.015923798
0.014885614 -0.05582105 0.01164481
0.015758483 -0.055618174 0.0092765689
0.020044455 -0.066814855 0.0070878267
-0.011482137 -0.056453843 0.0071847141
-0.010702184 -0.057402626 0.0089909136
-0.009609337 -0.056695089 0.011449158
-0.0087272832 -0.057212189 0.013714373
-0.0077151251 -0.056899048 0.015377879
-0.0066768769 -0.056276534 0.017037004
-0.0056198612 -0.05526197 0.01788789
-0.0047735134 -0.056327458 0.018912017
-0.0038328045 -0.056533866 0.019284397
-0.0028479896 -0.056010462 0.020054817
-0.0019287769 -0.056898918 0.020225227
-0.00092718337 -0.05470382 0.020452976
0 -0.055063345 0.020411164
0.00094703893 -0.055875298 0.020329028
0.0018531313 -0.054667372 0.020148098
0.0028668093 -0.056380581 0.020265013
0.0037248824 -0.054942016 0.02022627
0.004580758 -0.054052945 0.020565629
0.0056194961 -0.055258378 0.019750267
0.0065340726 -0.055072896 0.019683808
0.0073190657 -0.053978112 0.019176304
0.0085831527 -0.056267332 0.019137263
0.0094656423 -0.055847287 0.019873381
0.0102528 -0.054992292 0.019901037
0.013331903 -0.065548524 0.019737959
0.013613994 -0.061786592 0.019678384
0.01335531 -0.05628309 0.0190835
0.013881614 -0.054601014 0.017526388
0.014851392 -0.054764509 0.015810519
0.016223848 -0.056306295 0.011672705
0.017515838 -0.057413023 0.0091128051
0.018539986 -0.05757153 0.0073221326
-0.01204167 -0.058201406 0.0055995584
-0.010888954 -0.057414483 0.0083478689
-0.009345552 -0.054204199 0.0098229349
-0.0088850427 -0.057259165 0.012493253
-0.0076302662 -0.055319432 0.014923692
-0.0065953657 -0.054647315 0.016778797
-0.0058364864 -0.056419369 0.017816454
-0.0046912273 -0.05441824 0.019155711
-0.0037080136 -0.053766198 0.019754648
-0.0028492317 -0.055085149 0.02038765
-0.0019020757 -0.055160195 0.020767689
-0.00094050867 -0.0545495 0.020783246
0 -0.054072719 0.020769119
0.00093916856 -0.054471776 0.020735979
0.001847863 -0.053588029 0.020591825
0.0027863702 -0.053869825 0.021115243
0.0037063078 -0.053741466 0.020963073
0.0047631003 -0.055251967 0.021138519
0.0056840964 -0.054946266 0.020903498
0.0065425006 -0.054209292 0.020221025
0.0075644921 -0.054842569 0.02004984
0.0084235528 -0.05428512 0.01970911
0.0091445977 -0.053038668 0.020305485
0.010286801 -0.0542395 0.020943135
0.011228467 -0.054270927 0.020739734
0.011921039 -0.053186171 0.020739734
0.013276735 -0.055003617 0.019818515
0.014073132 -0.054416109 0.019338399
0.015105329 -0.054756816 0.018208444
0.015976375 -0.054507636 0.016079515
0.016607622 -0.053513449 0.012438983
0.02020685 -0.061684072 0.0094410181
0.019530252 -0.05663773 0.0066171288
-0.011929723 -0.056666184 0.0055854321
-0.010510322 -0.054462578 0.0083439648
-0.0097375596 -0.055504091 0.0098229349
-0.0086930646 -0.055056073 0.013546675
-0.0078245439 -0.055749875 0.015615821
-0.006646398 -0.054120667 0.017144918
-0.0056218542 -0.053407617 0.018558443
-0.0047078826 -0.053669862 0.019665271
-0.0037746963 -0.053789422 0.020358473
-0.0028347392 -0.053860046 0.020653039
-0.001867559 -0.053225435 0.020987093
-0.00093104684 -0.05306967 0.02126506
0 -0.052441318 0.021580487
0.00092921924 -0.052965496 0.021492451
0.0018787683 -0.053544898 0.021462321
0.0027707743 -0.052644715 0.021584004
0.0037944335 -0.054070678 0.021455258
0.0047002682 -0.053583059 0.02156812
0.0057176105 -0.054317299 0.021293133
0.0065709287 -0.053506132 0.021209449
0.0075921169 -0.054093834 0.02106598
0.0084233759 -0.053348046 0.020303458
0.0094848182 -0.054063465 0.020943135
0.01014926 -0.052591622 0.021078289
0.01119535 -0.053177912 0.02106598
0.012284869 -0.053864427 0.020958632
0.013159704 -0.053578798 0.0201765
0.014108453 -0.053612124 0.019848853
0.014995945 -0.053423055 0.018524617
0.015677013 -0.052564103 0.017258286
0.01676718 -0.053096067 0.015179843
0.018105943 -0.054317828 0.011622578
0.020508327 -0.058448732 0.0081140697
0.020313468 -0.055136558 0.0052706599
-0.011911948 -0.055589091 0.0050806403
-0.010729135 -0.054621052 0.0079883039
-0.0097312527 -0.054495014 0.0090008974
-0.0085744504 -0.053352136 0.013375133
-0.0078438679 -0.054907072 0.015902132
-0.0067319395 -0.053855516 0.017797738
-0.0057214885 -0.053400561 0.01916644
-0.004900272 -0.054883048 0.020013124
-0.0037263462 -0.052168846 0.020472974
-0.0028375899 -0.052968349 0.020799041
-0.001858247 -0.052030917 0.021714866
-0.00094722741 -0.053044736 0.021762729
0 -0.052533112 0.021649033
0.0009340063 -0.052304354 0.021630496
0.0018309519 -0.051266655 0.021630496
0.0028249787 -0.052732933 0.021592498
0.0038433198 -0.053806476 0.021391004
0.0046529281 -0.052112795 0.0214248
0.0056005013 -0.052271344 0.021280885
0.0067396155 -0.053916924 0.021162361
0.007511517 -0.052580621 0.020822972
0.0082131848 -0.051104259 0.020225644
0.0094023505 -0.052653164 0.020739734
0.010150975 -0.051677689 0.020969003
0.011423047 -0.053307552 0.020925432
0.012090599 -0.05208258 0.020866543
0.013224138 -0.052896552 0.02074337
0.013908072 -0.051923472 0.019997865
0.014522148 -0.050827518 0.019534379
0.01591767 -0.052434675 0.018323451
0.01678643 -0.05222445 0.016948789
0.017520398 -0.051639065 0.01469335
0.020628488 -0.057759766 0.00973019
0.020398604 -0.054396279 0.0066171288
-0.012295341 -0.056353647 0.0056934357
-0.010923805 -0.054619022 0.0087291896
-0.0094885388 -0.052186962 0.010190785
-0.0086799953 -0.05304442 0.015224427
-0.0075424593 -0.051854406 0.016780734
-0.0066647837 -0.05236616 0.018406719
-0.0058276877 -0.053420473 0.019338369
-0.0047249687 -0.051974654 0.019787282
-0.0037898296 -0.052110158 0.020557731
-0.0028283594 -0.051853254 0.020936966
-0.0018556239 -0.051029656 0.021478146
-0.0009422616 -0.051824387 0.021676481
0 -0.051630173 0.021508217
0.00091977743 -0.050587758 0.021630496
0.0018974232 -0.052179139 0.021630496
0.0028281764 -0.051849902 0.021592498
0.0037091589 -0.051000934 0.021497905
0.0047237501 -0.051961247 0.021423846
0.0056134723 -0.051456831 0.021160007
0.006605505 -0.051900398 0.021161675
0.0075497697 -0.051904663 0.020821333
0.0085363528 -0.0521666 0.020380467
0.0094184875 -0.051801682 0.020821333
0.010510409 -0.052552048 0.02117306
0.011414649 -0.052317139 0.020797402
0.012248525 -0.051820684 0.020924479
0.013311522 -0.052295264 0.02078864
0.014182509 -0.052002534 0.02027896
0.01561362 -0.053671818 0.01992625
0.016015453 -0.051814705 0.018745571
0.016906384 -0.051658399 0.01812911
0.017827382 -0.051605579 0.016369879
0.018627068 -0.051224437 0.013844341
0.021350002 -0.055916671 0.0080469549
0.021331688 -0.053329222 0.0057179928
-0.011922949 -0.05365327 0.0069114864
-0.010806861 -0.053051863 0.0090425313
-0.0095728561 -0.051693421 0.012357473
-0.0087016178 -0.052209705 0.016138583
-0.0077322568 -0.052192733 0.018202424
-0.0068696816 -0.052994687 0.019203305
-0.0056775925 -0.051098332 0.020028621
-0.0046434407 -0.050149158 0.020469904
-0.0037482495 -0.050601367 0.020865768
-0.0027926017 -0.050266832 0.021392912
-0.0018872354 -0.050955355 0.021939546
-0.00093472959 -0.050475396 0.021921039
0 -0.050449226 0.021841973
0.00093076861 -0.050261505 0.021929651
0.0019027136 -0.051373266 0.021984935
0.0027960751 -0.050329354 0.022007793
0.0038023598 -0.051331855 0.022115946
0.0047686589 -0.051501516 0.021658987
0.0055682813 -0.050114531 0.021530598
0.0067088897 -0.051754292 0.02155599
0.0075870091 -0.051212311 0.021173149
0.0084066289 -0.050439775 0.020983964
0.0094954893 -0.051275641 0.021119982
0.010321732 -0.050670318 0.021144122
0.011400333 -0.051301498 0.020874232
0.01224805 -0.050876517 0.021000624
0.012998964 -0.050138861 0.021091491
0.013994709 -0.050380953 0.020617992
0.014826876 -0.050040707 0.02028361
0.015685696 -0.049825154 0.01961571
0.017105153 -0.05131546 0.019404888
0.018160915 -0.051615234 0.018389702
0.018570323 -0.05013987 0.015414983
0.020895701 -0.053731803 0.0095611811
0.021958753 -0.053898759 0.0072077215
-0.01172293 -0.051776271 0.0080785751
-0.010979993 -0.052903604 0.011294246
-0.0098819397 -0.052374281 0.015747219
-0.0088838544 -0.052316029 0.017072201
-0.0077840895 -0.051569596 0.019141376
-0.0064936266 -0.049166031 0.019912899
-0.0055833757 -0.049319815 0.020546764
-0.0046947156 -0.049763985 0.020990729
-0.0037763538 -0.050036687 0.021435201
-0.0027948483 -0.049375653 0.021599591
-0.0018633831 -0.049379651 0.021855682
-0.00094145117 -0.049896911 0.021801114
0 -0.051050175 0.021824867
0.00094254815 -0.049955051 0.021637559
0.0018404686 -0.048772421 0.021648109
0.0027548096 -0.048668303 0.021575391
0.003850457 -0.051018558 0.021265447
0.0046042218 -0.048804749 0.021221727
0.0056261532 -0.049697686 0.021158338
0.0065251901 -0.049405012 0.021127492
0.0074141156 -0.049118515 0.02112028
0.00874238 -0.051482901 0.02094698
0.0093147336 -0.049368091 0.02101779
0.010124914 -0.048783675 0.021113306
0.011375709 -0.050242711 0.021097422
0.01228788 -0.050096743 0.02101779
0.013145015 -0.04976327 0.021148711
0.014293692 -0.050504379 0.020840228
0.014609877 -0.048395216 0.020252407
0.015915774 -0.049619764 0.020082742
0.01692906 -0.049846679 0.019334286
0.017167747 -0.047888979 0.018579572
0.018847004 -0.049944561 0.016580969
0.019776605 -0.049912386 0.013772041
0.023517545 -0.056655902 0.0080469549
-0.013688391 -0.050842594 0.0050263405
-0.013602617 -0.054410469 0.0076184571
-0.013661125 -0.059198204 0.010190785
-0.011349446 -0.053651925 0.013801843
-0.0095597859 -0.049710888 0.016673714
-0.0083120232 -0.048025023 0.018244028
-0.0074224938 -0.048246209 0.019203305
-0.006559398 -0.048726957 0.020142496
-0.0056704697 -0.049144071 0.021015704
-0.004647546 -0.048334476 0.02102077
-0.0036603652 -0.04758475 0.021413386
-0.0028135332 -0.048767906 0.02158615
-0.0018775464 -0.048816208 0.021679252
-0.00094079331 -0.04892125 0.021585971
0 -0.049644005 0.021508217
0.00092305749 -0.047998991 0.021630496
0.0018638943 -0.048461251 0.021636128
0.0028029282 -0.048584092 0.021231294
0.0036805989 -0.047847789 0.021140784
0.0046880734 -0.048755962 0.020978898
0.0056810738 -0.04923597 0.020749271
0.0065410556 -0.048590701 0.020735055
0.0075726402 -0.049222164 0.020849794
0.0083191525 -0.048066214 0.020852357
0.0093897935 -0.048826929 0.020893812
0.010440687 -0.049355973 0.020998687
0.011233308 -0.048677672 0.020904452
0.011990291 -0.047961164 0.020892382
0.013232168 -0.049148049 0.021132559
0.014193397 -0.049203776 0.020801485
0.01531745 -0.049781714 0.020591527
0.016192375 -0.049529616 0.020181298
0.016596111 -0.047944322 0.019924372
0.017956806 -0.049144942 0.019510776
0.018824123 -0.048942719 0.018299729
0.019741077 -0.048882667 0.01469335
0.021045202 -0.049743205 0.0093242824
0.023545166 -0.053232551 0.0055552721
-0.015186914 -0.055323761 0.0055075586
-0.014827179 -0.058168162 0.0087004602
-0.012275205 -0.052169621 0.012435287
-0.010083536 -0.04675094 0.016031086
-0.0092101051 -0.046971533 0.017282665
-0.0085994517 -0.048730224 0.018918395
-0.0074907923 -0.0477538 0.019711912
-0.0065172091 -0.04748252 0.020503283
-0.0056332126 -0.047882307 0.021111935
-0.0046850583 -0.047787596 0.021289498
-0.0037893537 -0.048314258 0.021725982
-0.0028402489 -0.048284229 0.021570772
-0.0018936507 -0.048288092 0.021855682
-0.0009343999 -0.047654394 0.021463394
0 -0.047160279 0.021582633
0.00094317709 -0.048102032 0.021592498
0.0018902374 -0.048201054 0.021566451
0.0027965468 -0.047541298 0.021067172
0.0038229977 -0.048743218 0.02102834
0.0047066947 -0.048008285 0.020832449
0.0056094434 -0.04768027 0.02074638
0.006603383 -0.048110362 0.020577401
0.0076048723 -0.048481062 0.020551234
0.008353753 -0.047337934 0.020575374
0.009474556 -0.048320238 0.020759314
0.010352297 -0.047997009 0.021209478
0.011268476 -0.047891025 0.02075094
0.012301601 -0.048260126 0.020617425
0.013071936 -0.047619194 0.021031678
0.01390753 -0.047285605 0.020831436
0.014765054 -0.047063611 0.020727336
0.015607575 -0.046822727 0.020559907
0.017208891 -0.048758522 0.020181298
0.017686246 -0.047473606 0.020001948
0.018443167 -0.047030076 0.018926829
0.019950846 -0.048452053 0.01627019
0.020998508 -0.048678361 0.012392759
0.023774987 -0.052718449 0.0080035627
-0.014601986 -0.052149951 0.0069745481
-0.012317454 -0.047374826 0.011448085
-0.010967981 -0.045699921 0.015837491
-0.010212888 -0.046422221 0.017384142
-0.0094556771 -0.047278386 0.01842159
-0.0083148107 -0.046193391 0.019514143
-0.0076029338 -0.047518335 0.020394593
-0.0065829111 -0.047020793 0.021111935
-0.005539597 -0.046163309 0.021385133
-0.0047737453 -0.047737453 0.021302402
-0.003776436 -0.047205448 0.021350414
-0.0028601843 -0.047669739 0.021261185
-0.0018846313 -0.047115784 0.021698415
-0.00093519269 -0.046759635 0.021379322
0 -0.047302295 0.021575391
0.00093854527 -0.046927262 0.021246225
0.0018600053 -0.046500131 0.021194816
0.0028197714 -0.046996191 0.020921886
0.0038020364 -0.047525454 0.020834625
0.0046810987 -0.046810988 0.02070111
0.0055648303 -0.046373583 0.020674706
0.0066434927 -0.047453519 0.02052182
0.007261645 -0.045385279 0.020729065
0.0087382291 -0.048545718 0.020595253
0.0091979112 -0.045989554 0.020857602
0.010300023 -0.046818286 0.021212041
0.011435917 -0.047649652 0.020754933
0.012006984 -0.046180706 0.020601541
0.01311117 -0.04682561 0.021009296
0.01417433 -0.047247767 0.020731062
0.014400573 -0.04500179 0.020619899
0.016050683 -0.047207888 0.020647526
0.017100405 -0.047501124 0.020350486
0.01751156 -0.046083052 0.020107508
0.018760953 -0.046902381 0.019239932
0.019572487 -0.046601158 0.016475409
0.020683872 -0.047008798 0.013756007
0.022444036 -0.048791382 0.0082301199
-0.01413862 -0.04618616 0.0051682591
-0.013023244 -0.045581356 0.0080295801
-0.011911063 -0.044895545 0.012096584
-0.011204077 -0.045749977 0.016709238
-0.010264437 -0.045723401 0.018066198
-0.0093349647 -0.045741327 0.019230425
-0.0084019667 -0.045744043 0.019779593
-0.0076014344 -0.046558786 0.021232814
-0.0065060765 -0.045542534 0.021739334
-0.0056924312 -0.046488188 0.021613508
-0.0047374554 -0.046427064 0.021449029
-0.0037576417 -0.04603111 0.021622598
-0.0028226818 -0.046103802 0.021514475
-0.0018748679 -0.045934264 0.021917552
-0.00092903018 -0.045522481 0.021739215
0 -0.04632315 0.021704555
0.0009215321 -0.045155074 0.021676868
0.0018759652 -0.045961145 0.021449149
0.0028080519 -0.045864847 0.021013051
0.0037327714 -0.045726448 0.02124992
0.0046448032 -0.045519069 0.021116406
0.005636476 -0.046031218 0.020981342
0.0064250124 -0.044975087 0.021067709
0.0075258589 -0.046095885 0.021480292
0.0081726937 -0.044495773 0.021091014
0.0092752427 -0.045448691 0.021257699
0.010343534 -0.046075739 0.021536708
0.011189452 -0.045690261 0.021257699
0.012227889 -0.046089735 0.021226227
0.013239033 -0.046336614 0.021330267
0.014056382 -0.045917515 0.021075785
0.01503978 -0.046059325 0.020965636
0.016015396 -0.04616202 0.020739734
0.016586216 -0.045151364 0.020595253
0.018129244 -0.046754368 0.020113021
0.018771803 -0.045990918 0.019544303
0.019572368 -0.045668855 0.016375721
0.020402543 -0.04544203 0.01352334
0.021636296 -0.046094716 0.0080609322
-0.014015093 -0.044848293 0.0059555471
-0.012882343 -0.044168029 0.010549963
-0.012282401 -0.045350403 0.01599133
-0.011575405 -0.046301622 0.018239439
-0.010470777 -0.045690663 0.019269705
-0.0095804576 -0.045986194 0.02010867
-0.0085828807 -0.045775361 0.0205172
-0.0075238203 -0.045142923 0.021553218
-0.0064368737 -0.044138562 0.021877229
-0.0056382385 -0.045105908 0.021866232
-0.0046523646 -0.044662703 0.021577328
-0.0038397717 -0.046077259 0.021622598
-0.00276632 -0.04426112 0.0213449
-0.0018850872 -0.045242094 0.021737307
-0.00094566151 -0.045391753 0.021511465
0 -0.044452574 0.021413475
0.00093999197 -0.045119617 0.02148518
0.0019308091 -0.046339419 0.021168649
0.0028294155 -0.045270648 0.020638973
0.0037771042 -0.045325249 0.02105999
0.0046925978 -0.045048937 0.020981342
0.0056539648 -0.045231719 0.020974427
0.0066263187 -0.045437615 0.021170855
0.0075204074 -0.045122445 0.02159059
0.0085505173 -0.045602757 0.021488458
0.0093641048 -0.044947702 0.021308184
0.010317938 -0.045023732 0.021536708
0.011131547 -0.04452619 0.021276712
0.012155664 -0.044882454 0.021198362
0.013133967 -0.045030747 0.021489948
0.014069007 -0.045020822 0.021075785
0.014914849 -0.044744547 0.020948052
0.016077334 -0.045394827 0.020623624
0.017100133 -0.045600355 0.020187676
0.017924258 -0.045282338 0.019673318
0.01829057 -0.043897368 0.018629581
0.019738326 -0.045116171 0.016146779
0.021286139 -0.046442483 0.011308938
0.021976203 -0.045863379 0.0078447163
-0.014932115 -0.043863088 0.0054798722
-0.014416016 -0.045170184 0.0094516277
-0.013517582 -0.045380451 0.014793634
-0.012334466 -0.044593837 0.017564058
-0.011094773 -0.043454528 0.019619048
-0.01027887 -0.043918807 0.020641208
-0.0093944082 -0.044153716 0.02093634
-0.008474119 -0.044253729 0.020797193
-0.0076660733 -0.045038182 0.021613508
-0.00663559 -0.044553246 0.021787077
-0.0056326501 -0.044122424 0.021715462
-0.0047595701 -0.044739958 0.021547586
-0.003783134 -0.044451825 0.021660507
-0.0027849223 -0.043630447 0.021550357
-0.001909074 -0.044863239 0.021703273
-0.00093162269 -0.043786265 0.021703273
0 -0.044310775 0.021714807
0.00094753486 -0.044534139 0.021702796
0.0018750554 -0.044063799 0.021374583
0.0028200378 -0.044180591 0.020799369
0.0037938633 -0.044577893 0.020974427
0.0046666036 -0.043866076 0.020974427
0.0056198486 -0.04402215 0.020936996
0.0065831062 -0.044200856 0.021042764
0.0072852327 -0.042800743 0.021439195
0.0083408197 -0.043557614 0.021456987
0.0094486503 -0.044408657 0.021190345
0.010190381 -0.043540716 0.021308184
0.011163512 -0.043723758 0.021066755
0.011957406 -0.043230623 0.021029711
0.012998953 -0.043639343 0.021080524
0.014065097 -0.044070639 0.020894498
0.01496038 -0.043946117 0.020691276
0.016176458 -0.044723149 0.020529151
0.017426528 -0.045502599 0.020056933
0.017838316 -0.044126362 0.018732905
0.01937649 -0.045534752 0.017792642
0.01951167 -0.043668974 0.014351696
0.020380473 -0.043540101 0.0087910891
-0.015808994 -0.045450859 0.0064264238
-0.014613086 -0.044813465 0.012580425
-0.013322783 -0.043774858 0.016015023
-0.012216932 -0.043229144 0.018353909
-0.011152997 -0.042753153 0.020641208
-0.010485101 -0.043846782 0.020885766
-0.0094075873 -0.043274902 0.020887107
-0.0084503246 -0.04319055 0.021153957
-0.0075737312 -0.043548953 0.021691144
-0.006480535 -0.042586371 0.021845579
-0.0057404158 -0.044009853 0.021864712
-0.0046274713 -0.042572737 0.021530062
-0.0037496344 -0.043120794 0.021649063
-0.0028673406 -0.043965891 0.021387279
-0.0018602553 -0.042785872 0.021282047
-0.00091690611 -0.042177681 0.021306127
0 -0.043181852 0.021190047
0.00091715 -0.042188901 0.021218777
0.0018831792 -0.04331312 0.020843476
0.0028774003 -0.044120137 0.020574838
0.003780605 -0.043476958 0.020575047
0.00470703 -0.043304674 0.020543039
0.0056028855 -0.042955454 0.020597428
0.0064655999 -0.042488225 0.020789832
0.0075698299 -0.043526523 0.021418661
0.0084349653 -0.043112043 0.02137062
0.0092722792 -0.042652484 0.021253467
0.010343646 -0.043255247 0.021276712
0.011419188 -0.043773554 0.020980388
0.012169401 -0.043060958 0.020955294
0.013373112 -0.043940227 0.021003038
0.014188129 -0.043510258 0.020808131
0.014743624 -0.042387921 0.020458609
0.015643815 -0.042330321 0.020311147
0.016528245 -0.042238846 0.019869745
0.017693246 -0.042836279 0.018409163
0.018547917 -0.042660207 0.016082764
0.019291265 -0.042257056 0.010318488
0.020567458 -0.043004684 0.0065448582
-0.01582247 -0.041883007 0.0054686368
-0.016623458 -0.046753477 0.0091099739
-0.015005658 -0.045016974 0.013417393
-0.014096974 -0.045311704 0.017512798
-0.013790666 -0.04773692 0.01942867
-0.011146066 -0.041797746 0.020928144
-0.010138852 -0.041477118 0.021215975
-0.0095212813 -0.042845767 0.020989984
-0.0084561026 -0.04228051 0.021613508
-0.007630073 -0.042919159 0.021689802
-0.0066019488 -0.0424411 0.021828264
-0.0056473385 -0.042355038 0.021787077
-0.0046867677 -0.042180907 0.021530062
-0.0037319607 -0.041984558 0.021728754
-0.0028531724 -0.042797584 0.021514475
-0.0018401991 -0.041404482 0.02134794
-0.00097095763 -0.043693095 0.02134794
0 -0.041698571 0.021401465
0.00094504509 -0.042527027 0.021477699
0.0018832439 -0.04237299 0.021102399
0.0027492808 -0.041239213 0.020709842
0.0036719684 -0.041309644 0.020870239
0.0046364707 -0.041728236 0.020939797
0.0056798933 -0.042599197 0.020939797
0.00661219 -0.042506937 0.020920604
0.0074857236 -0.042107195 0.021315455
0.0084259287 -0.042129643 0.021253467
0.0093457401 -0.04205583 0.021022707
0.010206564 -0.041754127 0.021170855
0.011342059 -0.042532723 0.020853668
0.012142885 -0.042033061 0.020829439
0.013194427 -0.042410657 0.020528793
0.013883364 -0.041650094 0.020438254
0.015064826 -0.042369824 0.019948035
0.015939489 -0.042192765 0.019688517
0.016909251 -0.042273127 0.019143701
0.01772278 -0.041975006 0.017552346
0.018918792 -0.042567283 0.011451811
0.019694693 -0.042202912 0.0080488622
-0.015634434 -0.040465593 0.0061367452
-0.017541192 -0.048238281 0.0096479058
-0.01546214 -0.045355611 0.013570607
-0.015498151 -0.048708472 0.01738444
-0.012642327 -0.042789415 0.01972875
-0.011103231 -0.040711842 0.020890832
-0.010587663 -0.042350654 0.020885766
-0.0094349943 -0.041513976 0.020973146
-0.0084629226 -0.041374288 0.021293014
-0.0076624742 -0.042143609 0.021559417
-0.006621338 -0.041619837 0.021856815
-0.0055747037 -0.040881157 0.021733582
-0.0047100675 -0.041448593 0.021437675
-0.0037847436 -0.041632179 0.021715462
-0.0028111828 -0.041230682 0.02151686
-0.0018815895 -0.041394971 0.02139309
-0.00093165773 -0.040992942 0.02139309
0 -0.041945461 0.021438569
0.00094391318 -0.041532181 0.021438569
0.001841714 -0.040517706 0.021063268
0.0028022202 -0.041099228 0.020652622
0.0037427966 -0.041170761 0.020655453
0.0046070316 -0.040541876 0.020597428
0.0056142095 -0.041170869 0.020575047
0.0065982938 -0.041474987 0.020556629
0.0073435293 -0.040389411 0.020967335
0.008585264 -0.041972402 0.020857364
0.0092838295 -0.040848851 0.020915806
0.010224282 -0.040897127 0.02083987
0.011291916 -0.041403692 0.020451665
0.012128965 -0.041051883 0.02045542
0.013082189 -0.041115452 0.020335317
0.014020847 -0.04112782 0.019842952
0.014877115 -0.040912066 0.019506663
0.015988609 -0.041382279 0.018621624
0.016714567 -0.040857829 0.017563075
0.017594833 -0.040745929 0.013950199
0.019240856 -0.042329885 0.0085558891
-0.017742278 -0.04238433 0.0051108301
-0.016248899 -0.041100156 0.0083351433
-0.014774111 -0.039705426 0.010857254
-0.014724907 -0.042211402 0.013920903
-0.01348941 -0.041431759 0.016947746
-0.012091203 -0.039993979 0.01851663
-0.011306058 -0.040513374 0.020382434
-0.010384745 -0.040594913 0.020665944
-0.0092413649 -0.039737869 0.020973146
-0.0084214127 -0.040235639 0.020925075
-0.0075977794 -0.040838063 0.021366417
-0.0066338587 -0.040750846 0.021683246
-0.0058491775 -0.041919105 0.021536678
-0.0047473609 -0.040827304 0.021395653
-0.0037445852 -0.040254291 0.021697044
-0.0028408766 -0.04071923 0.02151686
-0.0018565099 -0.039914966 0.021282047
-0.00092741003 -0.039878633 0.021275669
0 -0.040193379 0.021174133
0.00092716614 -0.039868146 0.021174133
0.0019067518 -0.040995162 0.020557851
0.0028449008 -0.040776912 0.020463079
0.0037228798 -0.040020958 0.020645767
0.0047690053 -0.041013446 0.020493597
0.0056311595 -0.040356643 0.020316809
0.006541254 -0.040181987 0.020452797
0.0075070681 -0.040350489 0.020512879
0.0083462503 -0.039876528 0.020499408
0.0092937863 -0.039963279 0.020616561
0.010413574 -0.040707611 0.020535141
0.011248281 -0.040306341 0.019943953
0.012172012 -0.040261272 0.019980997
0.013271013 -0.040760972 0.019523948
0.014044915 -0.040262092 0.018719494
0.015147461 -0.040708803 0.017777234
0.015763192 -0.039871603 0.016172856
0.016989037 -0.040584922 0.01005128
0.018989641 -0.042976558 0.0067021549
-0.017502435 -0.040839013 0.0057198107
-0.016708976 -0.041281 0.0088703036
-0.014616421 -0.038368106 0.011216342
-0.013948253 -0.039055109 0.013591617
-0.012726926 -0.03818078 0.017103523
-0.012253803 -0.039589211 0.018972784
-0.011506631 -0.040273208 0.019892395
-0.010541798 -0.040250499 0.020349354
-0.0096194344 -0.040401626 0.020661354
-0.0083655827 -0.039039385 0.020925075
-0.0074530505 -0.039128516 0.021175832
-0.0065234313 -0.03914059 0.021503121
-0.0056071039 -0.039249729 0.021472275
-0.0046492741 -0.039053902 0.021371275
-0.0037592771 -0.039472409 0.021541238
-0.0028134831 -0.039388765 0.021468103
-0.0018565388 -0.038987316 0.021369189
-0.00094504614 -0.039691936 0.021291167
0 -0.03905439 0.021356821
0.0009391926 -0.039446089 0.021294385
0.0018601972 -0.039064143 0.020559132
0.0027917158 -0.039084021 0.020933509
0.0037153773 -0.03901146 0.020869553
0.004663297 -0.039171696 0.020698935
0.0055825948 -0.039078161 0.020535141
0.0065938472 -0.039563082 0.020335317
0.0074676811 -0.039205324 0.020413995
0.0084550101 -0.039456714 0.020349085
0.0093908506 -0.039441574 0.020166785
0.0103306 -0.039444108 0.01991567
0.0112075 -0.039226253 0.019555211
0.012237959 -0.039538018 0.019329458
0.013250744 -0.039752234 0.018044919
0.013940028 -0.039032079 0.017399192
0.01519059 -0.039875299 0.012985796
0.01663441 -0.041096777 0.0077642202
-0.018284203 -0.039455388 0.0057585537
-0.018396204 -0.041902464 0.0067773163
-0.017984014 -0.043373212 0.0096921921
-0.016153863 -0.041394271 0.011967301
-0.014436454 -0.039459638 0.014826328
-0.013208211 -0.03868119 0.017123729
-0.012047138 -0.037994821 0.01847145
-0.01102988 -0.037685428 0.019632459
-0.010191908 -0.037988022 0.019854039
-0.0094957836 -0.038932715 0.020451218
-0.0084397281 -0.038447648 0.020859957
-0.0075467597 -0.038677145 0.021238476
-0.006562755 -0.038438994 0.021544248
-0.0056788553 -0.038805515 0.021575511
-0.0047944272 -0.039314304 0.021437675
-0.0037593124 -0.03853295 0.021583259
-0.0028230215 -0.038581297 0.021398157
-0.0018799705 -0.038539395 0.021381825
-0.00092749414 -0.03802726 0.021543056
0 -0.038684878 0.021479696
0.0009519452 -0.039029755 0.021344006
0.0018802143 -0.038544394 0.02066201
0.0028224727 -0.038573794 0.020802915
0.0037951639 -0.038900431 0.020649612
0.0046359035 -0.038014408 0.020622313
0.0057121445 -0.039032988 0.020367742
0.006656216 -0.038986407 0.019969642
0.0074448292 -0.038154747 0.020029604
0.0085159885 -0.038795058 0.019741327
0.0093336394 -0.038267922 0.019329458
0.010190566 -0.037983019 0.018451869
0.011304879 -0.038625002 0.017727375
0.012000394 -0.0378474 0.017590255
0.013146787 -0.038501304 0.015473962
0.014992159 -0.04097857 0.0096756518
-0.021892164 -0.043784328 0.0060448647
-0.021287279 -0.044815324 0.0069047809
-0.017996056 -0.039991237 0.0084604323
-0.016881103 -0.039720241 0.010850728
-0.015462757 -0.03865689 0.012936294
-0.014137624 -0.037700329 0.015151829
-0.013092227 -0.037406363 0.016732514
-0.012280894 -0.037787367 0.01869148
-0.011441682 -0.038138937 0.019408822
-0.010303909 -0.037468761 0.019953668
-0.009367805 -0.03747122 0.020352632
-0.0085121747 -0.037831888 0.020723581
-0.0074736276 -0.037368137 0.020944476
-0.0065119904 -0.037211373 0.021467209
-0.0056986273 -0.037990849 0.021451384
-0.0046840855 -0.037472684 0.021648288
-0.0037142045 -0.037142046 0.021670938
-0.0028372982 -0.037830643 0.021600306
-0.0018820497 -0.037640993 0.021369219
-0.00093316782 -0.037326712 0.021540344
0 -0.037241463 0.021667957
0.00093030196 -0.037212078 0.021062136
0.0019153419 -0.03830684 0.020778924
0.0028124207 -0.037498944 0.020677656
0.0037168872 -0.037168872 0.020622253
0.0047377395 -0.037901916 0.02048251
0.0056389999 -0.037593335 0.020150244
0.0065401569 -0.037372325 0.019879669
0.0075979931 -0.037989963 0.01993838
0.0083936676 -0.037305191 0.018737018
0.0093726814 -0.037490726 0.017974913
0.010357548 -0.03766381 0.017972946
0.011288092 -0.037626974 0.01679036
0.012810126 -0.039415773 0.0095329285
-0.021230634 -0.039428324 0.0067317784
-0.020041974 -0.039081849 0.008018434
-0.018436959 -0.037844282 0.0097831488
-0.017642943 -0.038226377 0.01087147
-0.016592104 -0.038064238 0.013015032
-0.015889684 -0.038731102 0.014793634
-0.01453882 -0.037800934 0.016219854
-0.012974453 -0.03614312 0.017682403
-0.012378303 -0.037134912 0.018779755
-0.01136412 -0.036933392 0.019436359
-0.010361538 -0.036736362 0.02002418
-0.0093769189 -0.036569983 0.020330369
-0.0084682563 -0.036695778 0.02064231
-0.0075628539 -0.036868911 0.020881832
-0.006656216 -0.037084632 0.021459281
-0.0056942194 -0.037012428 0.021535128
-0.0046740104 -0.036457282 0.02145347
-0.0037583369 -0.036643784 0.021672666
-0.0028030833 -0.036440082 0.021649063
-0.0018543612 -0.036160044 0.021395653
-0.0009404819 -0.036678795 0.021383345
0 -0.036189035 0.021282047
0.0009460916 -0.036897574 0.021232456
0.0018966775 -0.036985211 0.020795494
0.0028596059 -0.037174877 0.020705789
0.0037956517 -0.037007604 0.020459145
0.0046932157 -0.036607083 0.019851863
0.005554114 -0.03610174 0.019202799
0.0066327443 -0.036953859 0.018163532
0.0075726076 -0.036916461 0.017976493
0.008412296 -0.036453281 0.017143041
0.0094616478 -0.036900427 0.016221255
0.010536533 -0.037356798 0.010338604
0.011779541 -0.038283508 0.0051572323
-0.021811154 -0.037673812 0.0068406463
-0.020366026 -0.036852811 0.0084261
-0.019281769 -0.036635362 0.010009646
-0.018310649 -0.036621299 0.011268318
-0.017226132 -0.03636628 0.013150513
-0.016497705 -0.036877226 0.013846636
-0.015351435 -0.036459658 0.01554504
-0.014913417 -0.037780657 0.016605258
-0.01341028 -0.036399331 0.017752409
-0.012222906 -0.035728496 0.01892367
-0.01117532 -0.035388514 0.019441068
-0.010262212 -0.035451278 0.019902259
-0.0095273918 -0.036204088 0.020289987
-0.0083557069 -0.035279654 0.02064231
-0.0076120407 -0.036157195 0.020848602
-0.0065925666 -0.035788219 0.021051198
-0.0056349048 -0.035687733 0.021352738
-0.0047117681 -0.035809439 0.021311373
-0.0037943968 -0.036046769 0.021318197
-0.0027970206 -0.035428926 0.021267444
-0.0019028791 -0.036154702 0.021172613
-0.00093992433 -0.035717122 0.021340698
0 -0.0357126 0.021219164
0.00093986333 -0.035714809 0.021160513
0.0018423928 -0.035005461 0.020279408
0.0027975691 -0.035435878 0.020152509
0.0037536677 -0.035659842 0.019238442
0.0046254955 -0.035153765 0.018186003
0.0057003852 -0.036102436 0.017428547
0.0065900059 -0.03577432 0.016795278
0.0074257385 -0.035272259 0.016337335
0.0087084789 -0.036769133 0.013610721
0.0098650865 -0.037487332 0.0050978065
-0.02286482 -0.036782537 0.0063154995
-0.021571061 -0.036278602 0.0079819262
-0.020242956 -0.03566616 0.0090933442
-0.019456856 -0.035995182 0.011278838
-0.018642481 -0.036303781 0.013071179
-0.016911192 -0.034761894 0.013242215
-0.016590655 -0.036109071 0.014673471
-0.015144536 -0.035021741 0.015465379
-0.014517437 -0.035809677 0.016605258
-0.013611404 -0.035972998 0.017736822
-0.012075358 -0.034368329 0.018820256
-0.011370419 -0.035058789 0.01892519
-0.010369324 -0.034878638 0.01977399
-0.0092846435 -0.034353178 0.020314932
-0.0084740808 -0.034837887 0.02061367
-0.0075904634 -0.035105892 0.020805806
-0.0066167889 -0.034974456 0.021295488
-0.0056662764 -0.034942038 0.021449625
-0.0046806 -0.034636442 0.021476209
-0.0037187338 -0.034398288 0.021282434
-0.0028264262 -0.034859259 0.021100253
-0.0018818749 -0.034814686 0.020979822
-0.00093655614 -0.034652576 0.021101087
0 -0.03485347 0.02088356
0.00093503174 -0.034596175 0.020793438
0.0019066299 -0.03527265 0.020066768
0.0028611806 -0.035287894 0.019215465
0.0037270261 -0.034474991 0.017734706
0.0047531533 -0.035173338 0.017183483
0.0057226098 -0.035289429 0.01597926
0.0066086804 -0.034931596 0.013626516
0.0080059785 -0.037027653 0.0053269863
-0.023511665 -0.035267495 0.0050619543
-0.022160094 -0.034685366 0.0068760514
-0.021308074 -0.034867756 0.0086330473
-0.020357594 -0.034898732 0.010896057
-0.019043552 -0.034278393 0.012607366
-0.018371297 -0.034808774 0.013337672
-0.017108174 -0.034216348 0.013496697
-0.016121164 -0.034138937 0.0144521
-0.015246557 -0.034304753 0.015429467
-0.01429503 -0.034308072 0.016226381
-0.013925046 -0.035807263 0.017621696
-0.012399906 -0.034338202 0.018015414
-0.01139723 -0.034191687 0.018652141
-0.010377814 -0.033963755 0.019185275
-0.0093746502 -0.033748742 0.019778758
-0.0085249161 -0.034099665 0.020464182
-0.007516657 -0.033824954 0.020668089
-0.0066311527 -0.034103073 0.020944476
-0.0055951881 -0.033571128 0.021109283
-0.0046768398 -0.033673245 0.020907998
-0.0037898649 -0.034108784 0.020792872
-0.0028047808 -0.033657368 0.020695686
-0.0018652492 -0.033574484 0.0205203
-0.00094976655 -0.034191594 0.0205203
0 -0.033783432 0.020437032
0.00094373029 -0.03397429 0.019711256
0.0018873209 -0.033971775 0.018124878
0.0028038663 -0.033646394 0.017233819
0.0037391384 -0.033652246 0.016433537
0.0047457335 -0.034169279 0.015266627
0.0059456187 -0.035673715 0.0090575814
-0.022973478 -0.033502989 0.0058329999
-0.022489877 -0.034223728 0.0080103874
-0.021071753 -0.033523243 0.0096681714
-0.020087233 -0.033478722 0.01113078
-0.018902959 -0.033080179 0.012626022
-0.018132409 -0.033401806 0.013183713
-0.017383978 -0.033802178 0.013591349
-0.016143495 -0.033236608 0.014252186
-0.015096993 -0.033024672 0.015125811
-0.014207806 -0.033151548 0.015493572
-0.013469116 -0.033672791 0.016365439
-0.012829724 -0.034541566 0.01735568
-0.011186289 -0.032626674 0.018007338
-0.010387579 -0.033051386 0.018600374
-0.0093628066 -0.032769825 0.019361436
-0.008502733 -0.033066183 0.01977399
-0.0075413175 -0.032993264 0.020240933
-0.006637367 -0.033186834 0.020541698
-0.0056242938 -0.032808382 0.020747304
-0.0047385888 -0.033170119 0.020692348
-0.0037387891 -0.032714404 0.020618379
-0.002840369 -0.033137638 0.020484984
-0.0018849511 -0.032986645 0.020021111
-0.00093315582 -0.032660455 0.019928962
0 -0.033181246 0.018987417
0.00092675391 -0.032436389 0.017830282
0.0018799516 -0.032899152 0.017150372
0.0028036046 -0.032708719 0.015557587
0.0039216927 -0.034314811 0.0089765787
-0.022600234 -0.032016996 0.0064629018
-0.021954319 -0.032454211 0.0094131827
-0.021100493 -0.032609854 0.010786593
-0.019788632 -0.032038737 0.01221624
-0.019116655 -0.032498315 0.012892723
-0.017960535 -0.032139905 0.013525099
-0.016954716 -0.032025576 0.013591349
-0.016370758 -0.032741517 0.014090657
-0.014856693 -0.031570472 0.014252186
-0.014374562 -0.032582339 0.014527261
-0.013202504 -0.032063223 0.015964657
-0.012444287 -0.032546595 0.016824931
-0.011519375 -0.032638229 0.017133504
-0.010218951 -0.031585846 0.018029869
-0.0092972685 -0.031610712 0.018428087
-0.0084431944 -0.031896509 0.019262075
-0.0074732751 -0.031761419 0.019693047
-0.0065624644 -0.031874828 0.020157963
-0.0056621404 -0.032085463 0.020481497
-0.0047332444 -0.032186061 0.020481735
-0.003759389 -0.031954806 0.020380497
-0.002829663 -0.032069515 0.019810677
-0.0018881785 -0.032099035 0.019057244
-0.00093665993 -0.031846438 0.018425465
0 -0.032383431 0.017638206
0.00093550154 -0.031807054 0.016097873
0.0019389038 -0.032961365 0.010491878
-0.023417233 -0.032198697 0.0071187913
-0.021820439 -0.031307586 0.0093534589
-0.020659031 -0.030988548 0.01089102
-0.019904178 -0.031277996 0.012548029
-0.019232789 -0.031734101 0.013043642
-0.017873028 -0.031042628 0.013544202
-0.017006651 -0.03117886 0.013508648
-0.016527491 -0.032082777 0.013954282
-0.015258633 -0.031470928 0.01381439
-0.014239642 -0.03132721 0.013559401
-0.013374276 -0.031525079 0.01415208
-0.012652115 -0.032116909 0.015964657
-0.011904285 -0.032736782 0.016108721
-0.010254066 -0.030762199 0.016891688
-0.0095144734 -0.031397764 0.017737985
-0.0085223913 -0.031248769 0.018377811
-0.0075383135 -0.031095542 0.018708348
-0.0066159619 -0.031189535 0.019391418
-0.0056516696 -0.031084182 0.019745052
-0.0047101909 -0.031087261 0.019547164
-0.0038409273 -0.031687651 0.019391418
-0.0028491179 -0.031340297 0.018707335
-0.0018829808 -0.031069184 0.018051744
-0.00094162114 -0.031073498 0.016985863
0 -0.030510265 0.013046116
0.0009909427 -0.032701109 0.0053524971
-0.022929795 -0.030573059 0.0068341196
