ply
format ascii 1.0
comment PCL generated
element vertex 1260
property float x
property float y
property float z
element camera 0
property float view_px
property float view_py
property float view_pz
property float x_axisx
property float x_axisy
property float x_axisz
property float y_axisx
property float y_axisy
property float y_axisz
property float z_axisx
property float z_axisy
property float z_axisz
property float focal
property float scalex
property float scaley
property float centerx
property float centery
property int viewportx
property int viewporty
property float k1
property float k2
end_header
0.006557988 -0.058085036 0.018517137
0.0073888209 -0.057263359 0.017616451
0.0085250828 -0.058728348 0.015525907
0.0094577549 -0.058638081 0.0092410743
0.011188805 -0.063064173 0.0061599612
0.01174137 -0.060663745 0.0052316785
-0.007860288 -0.059934698 0.0050361156
-0.0064634029 -0.056323938 0.0061176419
-0.0057992884 -0.058959432 0.0093364418
-0.0047631902 -0.058110919 0.013271809
-0.0037090969 -0.056563728 0.0145908
-0.0028624409 -0.058202967 0.016609758
-0.0018518168 -0.056480411 0.017756522
-0.00094375829 -0.057569254 0.018015385
0 -0.057573147 0.018707216
0.00091757491 -0.055972073 0.019267172
0.0018996771 -0.057940152 0.019741267
0.0028067266 -0.057070106 0.020535856
0.0036995981 -0.056418873 0.020543069
0.0047485773 -0.057932645 0.02056396
0.0055706045 -0.056634478 0.020501196
0.0065980745 -0.057497509 0.019203544
0.0075052381 -0.05722744 0.01866287
0.008522938 -0.057766579 0.017259419
0.0092733596 -0.056567494 0.013985842
0.010927837 -0.060599826 0.0080063343
0.011638499 -0.059162371 0.0058395565
-0.0085114231 -0.056742821 0.0050759315
-0.0074014701 -0.055511028 0.0060636401
-0.006584852 -0.05644159 0.0093209743
-0.0056173517 -0.056173518 0.013366044
-0.0048012491 -0.05761499 0.016609758
-0.0037953132 -0.056929696 0.017399013
-0.0028103737 -0.056207474 0.017954171
-0.0018311043 -0.054933127 0.018540353
-0.0009507605 -0.057045631 0.018488824
0 -0.055635374 0.019090921
0.00095630239 -0.057378143 0.020022929
0.0018917593 -0.056752782 0.020274669
0.0027811427 -0.055622857 0.021039248
0.0038057875 -0.05708681 0.021326303
0.0047753691 -0.057304427 0.021419644
0.0055870274 -0.055870272 0.021137655
0.0066551804 -0.057044402 0.019932032
0.0075427294 -0.05657047 0.018856347
0.0083081303 -0.055387534 0.018251687
0.0094730156 -0.056838091 0.016870528
0.010667402 -0.058185831 0.0097937286
0.011729832 -0.05864916 0.0064581931
0.012618498 -0.058239218 0.0052318871
-0.0083705196 -0.054873403 0.0058072507
-0.0078067114 -0.057574496 0.0079866648
-0.0069910479 -0.058924548 0.013709247
-0.0058982964 -0.057999916 0.016581535
-0.0047713821 -0.056302309 0.017503172
-0.0037906589 -0.055912219 0.018819541
-0.002873387 -0.056509942 0.018807292
-0.0019256097 -0.056805488 0.019320428
-0.00092980237 -0.054858338 0.019353867
0 -0.055325672 0.019955069
0.00093820743 -0.055354241 0.020957112
0.001831327 -0.054024145 0.020626664
0.0028430563 -0.055913441 0.021481663
0.0038030832 -0.056095477 0.02144292
0.0045935474 -0.05420386 0.021648198
0.0055654165 -0.054726597 0.021238923
0.006644906 -0.056007065 0.020117193
0.0073556025 -0.054247569 0.019067466
0.0085486267 -0.056040999 0.018469304
0.0092677558 -0.054679759 0.017475665
0.010459744 -0.056102265 0.013788879
0.012257987 -0.060268436 0.0074146986
0.012666722 -0.057487428 0.0059331656
-0.0093163215 -0.054034665 0.0052145422
-0.0086537497 -0.055768609 0.0067183673
-0.0075683901 -0.054870829 0.011672884
-0.0065395162 -0.05418456 0.016172051
-0.0056431671 -0.054550614 0.017444462
-0.0047765006 -0.055407409 0.018963337
-0.0036936386 -0.053557761 0.019814521
-0.0028408258 -0.054922633 0.019482851
-0.0019198623 -0.055676006 0.020126045
-0.00092101627 -0.053418942 0.019972563
0 -0.054143377 0.02017343
0.0009372193 -0.054358721 0.021401942
0.0019004919 -0.055114266 0.0207102
0.0028110398 -0.05434677 0.021486342
0.0037080136 -0.053766198 0.021293014
0.0047363006 -0.054941088 0.021506608
0.0057188137 -0.055281866 0.021087021
0.0065923813 -0.054622587 0.020253062
0.0074899485 -0.05430213 0.020054996
0.0084032742 -0.054154433 0.018465102
0.0093534682 -0.054250114 0.018247962
0.010238576 -0.053985219 0.016814232
0.012254287 -0.05922905 0.0086508095
0.012573206 -0.056095839 0.0059585869
-0.0093216021 -0.05313313 0.0061292946
-0.0086492132 -0.054778349 0.0098183453
-0.0085949143 -0.061238762 0.016018599
-0.0074569443 -0.060720835 0.017444462
-0.0064182407 -0.060973287 0.019034088
-0.0047706258 -0.054385133 0.019725144
-0.0037917534 -0.054032486 0.020490527
-0.0027877707 -0.052967642 0.020143479
-0.0018758442 -0.053461559 0.021185935
-0.00094085501 -0.053628735 0.020209044
0 -0.052722588 0.02099213
0.00092940201 -0.052975915 0.021876872
0.0018885154 -0.053822689 0.020968109
0.0027773536 -0.052769721 0.021596462
0.0037922405 -0.054039426 0.021469295
0.0047349902 -0.05397889 0.021573037
0.0057048183 -0.054195777 0.021344423
0.0068075694 -0.055433065 0.020499945
0.0074503222 -0.053083543 0.020054996
0.0084606502 -0.053584117 0.018720508
0.0094574122 -0.053907253 0.018276006
0.01014792 -0.052584678 0.016851068
0.011834729 -0.056214962 0.0092100203
0.012804918 -0.05614464 0.0065272152
-0.010817568 -0.055071253 0.0056530237
-0.0095320838 -0.05337967 0.0080028772
-0.0083425604 -0.051909268 0.013009429
-0.0085509662 -0.059856761 0.016441166
-0.0074180546 -0.059344437 0.018377721
-0.0062240791 -0.058091402 0.019280612
-0.0047482713 -0.053180639 0.020239949
-0.0037358501 -0.052301902 0.021362185
-0.0028344828 -0.052910347 0.020492822
-0.0018736003 -0.052460808 0.021191269
-0.00094619166 -0.05298673 0.02049309
0 -0.054358482 0.020974427
0.0009343109 -0.052321412 0.021953821
0.0018287586 -0.05120524 0.020780653
0.0028381385 -0.052978583 0.021431297
0.0038403955 -0.053765535 0.021219254
0.0046111965 -0.051645402 0.021330148
0.0055793012 -0.052073479 0.021256506
0.0068308697 -0.054646958 0.02045393
0.0074413433 -0.052089401 0.019884139
0.0083661331 -0.05205594 0.019526571
0.0093353512 -0.052277967 0.018519133
0.010126857 -0.051554907 0.017021567
0.011507087 -0.053699743 0.011382401
0.012553703 -0.054077491 0.0072152615
0.013797841 -0.055191364 0.0057222545
-0.011951835 -0.054779243 0.0054642856
-0.010767693 -0.053838465 0.0063455403
-0.0097102644 -0.053406455 0.0090219975
-0.0084650796 -0.051731039 0.013965666
-0.0074006361 -0.05087937 0.016855329
-0.0063931262 -0.050231706 0.018607348
-0.0057118069 -0.052358229 0.019527495
-0.0046466757 -0.051113434 0.019821465
-0.0037459603 -0.051506955 0.020965487
-0.0028449933 -0.05215821 0.02078405
-0.0018490432 -0.050848689 0.02106604
-0.00095243729 -0.052384049 0.020582855
0 -0.052152976 0.020574689
0.00091526838 -0.050339762 0.020961046
0.0019241114 -0.052913062 0.020660579
0.0028448105 -0.052154861 0.021308661
0.0037103773 -0.051017687 0.021262646
0.004705776 -0.051763538 0.021329194
0.0056880461 -0.052140422 0.021149039
0.0066558281 -0.052295789 0.020824045
0.0075112679 -0.051639967 0.020356655
0.0084585007 -0.051690836 0.019624591
0.0094276248 -0.051851936 0.018746376
0.010407899 -0.052039493 0.017175883
0.011431458 -0.052394185 0.014005393
0.013123364 -0.055521924 0.0087872148
0.013635486 -0.053567983 0.0058805943
-0.012814173 -0.053228103 0.0057444274
-0.011774569 -0.05298556 0.0063959658
-0.010638004 -0.05222293 0.0085216463
-0.009603925 -0.051861197 0.01176247
-0.0084669422 -0.050801653 0.014355034
-0.0076289261 -0.05149525 0.017464489
-0.0066611213 -0.051385794 0.018806219
-0.0056732055 -0.051058847 0.019574344
-0.0046434407 -0.050149158 0.02014634
-0.003775792 -0.050973192 0.021036983
-0.0027730411 -0.049914744 0.020812869
-0.0019124636 -0.051636517 0.021135151
-0.00091858098 -0.049603373 0.020761698
0 -0.049988538 0.02099213
0.00093777647 -0.050639931 0.021284461
0.0018929634 -0.051110014 0.021195412
0.0027891283 -0.050204311 0.021915823
0.0037960226 -0.051246308 0.021630019
0.0047305753 -0.051090214 0.021616876
0.005552561 -0.049973052 0.021465868
0.0066432082 -0.051247608 0.020972997
0.0073827845 -0.049833797 0.020819992
0.0084291091 -0.050574657 0.020286918
0.0094022825 -0.050772324 0.019535899
0.010342504 -0.050772291 0.018335044
0.011264379 -0.050689708 0.01643461
0.013073877 -0.054306872 0.010624558
0.013491775 -0.052039705 0.0061998665
-0.013652364 -0.051683947 0.0055373311
-0.012557109 -0.051194366 0.0066400766
-0.011620591 -0.051324278 0.0081613958
-0.011993892 -0.057788748 0.010875911
-0.010139651 -0.053740148 0.013308316
-0.0083991112 -0.049461432 0.015330136
-0.0075233043 -0.049841892 0.017864347
-0.006543105 -0.04954065 0.01926142
-0.005685749 -0.050224118 0.019896865
-0.0047047702 -0.049870566 0.02065751
-0.0037960983 -0.050298303 0.021151096
-0.0027650478 -0.048849177 0.02090919
-0.0018862975 -0.049986884 0.021221787
-0.00095485867 -0.05060751 0.020781338
0 -0.051076017 0.02099213
0.00093054236 -0.049318746 0.021202475
0.001839006 -0.048733659 0.021202475
0.0027599286 -0.048758741 0.021915823
0.0038631328 -0.051186509 0.021628082
0.0046170186 -0.048940398 0.021592766
0.0056151845 -0.049600795 0.02168873
0.0066220146 -0.050138112 0.021116525
0.0075130677 -0.049774073 0.021125197
0.0085531976 -0.050368834 0.02068314
0.0093896706 -0.049765255 0.020147443
0.010191256 -0.049103323 0.019418836
0.01129676 -0.049894027 0.017077267
0.012773283 -0.052075692 0.011130244
0.013689029 -0.051822752 0.0059832335
-0.015042114 -0.052145995 0.0056703985
-0.014907828 -0.055371933 0.006880939
-0.014326421 -0.057305682 0.0085830986
-0.012946889 -0.056103189 0.010859847
-0.010980179 -0.051906299 0.012065351
-0.0096261986 -0.050056234 0.013978034
-0.0084090894 -0.048585851 0.016388148
-0.0073937322 -0.048059259 0.018303514
-0.0065807267 -0.048885398 0.01926142
-0.0056975274 -0.04937857 0.020121485
-0.0046594301 -0.048458073 0.02072379
-0.0036674349 -0.047676653 0.021287024
-0.0028332798 -0.049110182 0.021045685
-0.0018747429 -0.048743315 0.021051288
-0.00093981816 -0.048870545 0.020685017
0 -0.049881704 0.020880252
0.0009167798 -0.047672551 0.021195412
0.0018618221 -0.048407372 0.021341741
0.0028212122 -0.048901014 0.021571964
0.0036752357 -0.047778066 0.021503419
0.0046889875 -0.048765469 0.021435767
0.005658403 -0.049039494 0.021176904
0.0064920001 -0.048226286 0.020796418
0.0075458288 -0.049047887 0.020935297
0.0083767343 -0.048398908 0.020630032
0.0093904035 -0.048830096 0.020436794
0.010484918 -0.049565066 0.019850761
0.01131811 -0.049045142 0.018183798
0.01209403 -0.048376121 0.01368469
0.014004762 -0.052017689 0.0081538856
0.014643794 -0.050765153 0.0052298605
-0.017015088 -0.054235592 0.0064446628
-0.015824363 -0.053802833 0.0071013272
-0.013633939 -0.049666494 0.0087720752
-0.012731638 -0.049947195 0.010971189
-0.011973259 -0.050886352 0.012049288
-0.010564758 -0.048982054 0.013398588
-0.0097700842 -0.04982743 0.015452653
-0.0086586829 -0.049065869 0.017497957
-0.0075414949 -0.048077028 0.018724799
-0.0065526175 -0.047740497 0.019924968
-0.0056540556 -0.048059475 0.020267546
-0.004714618 -0.048089102 0.020602584
-0.003725966 -0.047506068 0.021229804
-0.0028872418 -0.04908311 0.020966142
-0.0018925535 -0.048260115 0.021051288
-0.00093220564 -0.047542486 0.020664901
0 -0.04709189 0.020778239
0.00093702093 -0.047788065 0.021246463
0.0019048658 -0.048574079 0.021890014
0.0027658276 -0.047019068 0.021465868
0.0038364064 -0.048914183 0.02150479
0.0047271121 -0.048216544 0.021311074
0.0056039584 -0.047633648 0.021397322
0.0065760803 -0.047911443 0.021139294
0.0075185806 -0.047930952 0.021113127
0.0082884887 -0.046968102 0.020636737
0.0094349496 -0.048118241 0.020550996
0.010268518 -0.04760858 0.020374626
0.011315999 -0.048092995 0.019035369
0.012266754 -0.048123419 0.016051143
0.013972507 -0.050899845 0.0092590153
0.014457547 -0.04915566 0.0055343509
-0.017523503 -0.048676394 0.006637603
-0.016398553 -0.048231039 0.0070305765
-0.015852617 -0.049539428 0.0084686875
-0.014182554 -0.047275178 0.0090351105
-0.013839521 -0.049426861 0.010939091
-0.012817217 -0.04929699 0.012219191
-0.011510495 -0.047960393 0.013398588
-0.010701514 -0.048643246 0.01533398
-0.0099669425 -0.049834713 0.016834378
-0.0085594282 -0.047552381 0.017992407
-0.007568317 -0.047301982 0.018749058
-0.0065709655 -0.046935469 0.020021021
-0.0055538593 -0.046282161 0.020295143
-0.004724679 -0.047246791 0.020585239
-0.0038281246 -0.047851559 0.021071076
-0.0028541498 -0.047569163 0.020981848
-0.0018835341 -0.047088355 0.021234125
-0.00095152901 -0.04757645 0.02066046
0 -0.047085896 0.020923048
0.0009419588 -0.04709794 0.020902365
0.0018348915 -0.045872286 0.02156952
0.0028263545 -0.047105908 0.021320581
0.0038251989 -0.047814984 0.021311074
0.0046625081 -0.046625081 0.021139294
0.0055633672 -0.046361394 0.021131575
0.0064852131 -0.046322949 0.020994574
0.0074366773 -0.046479233 0.021127641
0.00861263 -0.047847942 0.020687819
0.0093441615 -0.046720807 0.020606458
0.010310748 -0.046867035 0.020539224
0.011388392 -0.047451634 0.019236535
0.012005399 -0.046174612 0.018535912
0.013811377 -0.049326345 0.010054201
0.014485905 -0.048286349 0.0056659579
-0.019771522 -0.048440225 0.0052936673
-0.01813503 -0.046769287 0.0072138608
-0.017540986 -0.047750458 0.0085718036
-0.01659832 -0.047842216 0.0090114772
-0.015415968 -0.047211405 0.011096895
-0.014346958 -0.04686673 0.011547208
-0.013545231 -0.047408309 0.012459636
-0.012326897 -0.04646292 0.014140218
-0.011572598 -0.047254771 0.015132517
-0.010610317 -0.04726414 0.015981138
-0.0093075419 -0.045606956 0.017281502
-0.0086082043 -0.04686689 0.018031359
-0.0075619398 -0.046316881 0.019159645
-0.0065171695 -0.045620188 0.019960254
-0.0057041342 -0.046583764 0.020319045
-0.0046966155 -0.04602683 0.020583093
-0.0037749533 -0.04624318 0.021065325
-0.0028245104 -0.046133671 0.021019071
-0.0018758432 -0.045958158 0.021500289
-0.0009210445 -0.04513118 0.02093482
0 -0.046278346 0.021393448
0.00091805746 -0.044984814 0.021916062
0.0018847432 -0.04617621 0.021746367
0.0028096978 -0.045891732 0.021482587
0.0037122895 -0.045475546 0.021559626
0.0046889959 -0.04595216 0.021426111
0.0056375731 -0.046040181 0.021400809
0.0065239966 -0.045667976 0.021486491
0.0074795382 -0.045812171 0.021515787
0.0083443737 -0.045430481 0.021185935
0.0092709763 -0.045427784 0.021026045
0.010351578 -0.046111573 0.020550877
0.011153623 -0.045543961 0.020053744
0.012059179 -0.045453828 0.018822134
0.013490644 -0.047217254 0.010720134
0.014643016 -0.047833852 0.0067598224
-0.02093881 -0.047860138 0.005310148
-0.019795706 -0.047509696 0.0075267553
-0.017886076 -0.045185875 0.0089297891
-0.017582476 -0.046886601 0.011235595
-0.016319629 -0.046078954 0.011669815
-0.015184823 -0.04555447 0.012678772
-0.014481135 -0.046339631 0.013382047
-0.013186852 -0.045212064 0.0147672
-0.012455872 -0.045990914 0.01530242
-0.011861317 -0.047445267 0.015682757
-0.01041916 -0.045465428 0.016958147
-0.009646887 -0.046305057 0.01802361
-0.0089048687 -0.047492635 0.018590093
-0.0075174812 -0.045104887 0.019624203
-0.0065055685 -0.044609614 0.020206392
-0.0055713081 -0.044570465 0.020561904
-0.0046846727 -0.044972859 0.0206936
-0.0038480621 -0.046176746 0.021065325
-0.0027937528 -0.044700045 0.021065563
-0.001896792 -0.045523006 0.021585315
-0.00094706367 -0.045459058 0.021348387
0 -0.044197991 0.021630377
0.00094304013 -0.045265928 0.021727204
0.0019041075 -0.045698579 0.021522462
0.0027986909 -0.044779055 0.021108717
0.0037710085 -0.0452521 0.021369696
0.0046679094 -0.044811931 0.021260023
0.0055863033 -0.044690426 0.021364391
0.0065516499 -0.0449256 0.02134639
0.0074555548 -0.044733327 0.021564513
0.0084896293 -0.045278024 0.021208763
0.0093226619 -0.044748779 0.021135807
0.010212024 -0.044561557 0.020662904
0.011116923 -0.044467691 0.020184547
0.012200022 -0.045046236 0.018885732
0.013177468 -0.045179892 0.015057057
0.014863106 -0.04756194 0.0084219873
0.015681887 -0.047045663 0.0051799715
-0.021498732 -0.045929112 0.0051388741
-0.020028196 -0.04482501 0.0076444149
-0.019518971 -0.045869585 0.0097160339
-0.018525608 -0.045826502 0.011786133
-0.017127242 -0.044721134 0.013338387
-0.016114328 -0.04455138 0.014714658
-0.015469165 -0.04544067 0.015334785
-0.014274369 -0.044726357 0.015365928
-0.01347152 -0.045225814 0.015762448
-0.012339219 -0.044611018 0.016155779
-0.01096534 -0.042947579 0.016826361
-0.010524897 -0.044970017 0.017849267
-0.0095723737 -0.044990156 0.018569589
-0.0085053872 -0.04441702 0.019228667
-0.0077309287 -0.045419205 0.019942671
-0.0065877996 -0.044232368 0.020319045
-0.0056597162 -0.044334445 0.020370066
-0.0047415863 -0.044570912 0.02050671
-0.0037692343 -0.044288501 0.020932496
-0.0027737657 -0.04345566 0.021273017
-0.001894808 -0.044527989 0.021935821
-0.00093034242 -0.043726094 0.022044659
0 -0.04406435 0.021788836
0.00094558398 -0.044442445 0.02177617
0.0018738359 -0.044035144 0.021552622
0.0028129048 -0.044068843 0.021184027
0.0038033738 -0.04468964 0.021359086
0.0047354898 -0.044513606 0.0212183
0.0055905879 -0.043792941 0.021361768
0.0064589367 -0.043367147 0.021359086
0.0074037272 -0.043496896 0.021559715
0.0084494334 -0.044124819 0.021492481
0.0094157392 -0.044253971 0.021076262
0.010284233 -0.043941725 0.02083382
0.011160587 -0.043712299 0.020207971
0.012020777 -0.043459732 0.019446969
0.012965687 -0.043527663 0.017924637
0.015089525 -0.047280513 0.0095953047
0.015454545 -0.045397725 0.0056261718
-0.021128619 -0.044178024 0.0059869289
-0.01978224 -0.043332525 0.00876531
-0.019796217 -0.045531299 0.011998415
-0.018399077 -0.044545133 0.013500065
-0.016899901 -0.043188635 0.015185028
-0.016464993 -0.044552334 0.015653014
-0.015342103 -0.044108547 0.016341746
-0.014518042 -0.044521995 0.016326278
-0.013379084 -0.043959849 0.016543776
-0.012018096 -0.042525571 0.01690352
-0.011459409 -0.043927737 0.017565161
-0.01053471 -0.044054244 0.018203855
-0.0094984025 -0.043692652 0.018627852
-0.0084991492 -0.043440096 0.019625992
-0.0077526998 -0.044578023 0.020254672
-0.0064660264 -0.04249103 0.020413995
-0.0056639696 -0.043423764 0.020642102
-0.0046570394 -0.042844761 0.020722926
-0.0037186637 -0.042764634 0.02093634
-0.0028711816 -0.044024784 0.020984441
-0.0018709855 -0.043032669 0.021935821
-0.00091782073 -0.042219754 0.021998197
0 -0.043549251 0.021998107
0.00091843039 -0.042247798 0.02177617
0.0018819598 -0.043285076 0.021636844
0.002856001 -0.043792013 0.021359086
0.0037676801 -0.043328322 0.021361768
0.0046622208 -0.042892434 0.021324456
0.005576916 -0.042756356 0.021329761
0.0065159523 -0.042819113 0.021361768
0.0074288985 -0.042716168 0.021557093
0.008437708 -0.043126062 0.021406114
0.0092485091 -0.042543139 0.021012008
0.01030074 -0.043075822 0.020975828
0.011269272 -0.04319888 0.020251185
0.012083846 -0.042758226 0.019581109
0.013247716 -0.04352821 0.018414915
0.014602119 -0.044779833 0.0098440647
0.015483438 -0.044514883 0.0066168904
-0.020979337 -0.042912282 0.0084250867
-0.020557765 -0.044052355 0.011795759
-0.019200126 -0.043200284 0.013711035
-0.017703108 -0.041928414 0.015346706
-0.017166896 -0.04291724 0.016505867
-0.016195275 -0.042869844 0.017131567
-0.015326059 -0.043104544 0.017117113
-0.014598964 -0.043796889 0.017282724
-0.012944478 -0.04160725 0.017662942
-0.012422532 -0.043001071 0.018008232
-0.011403491 -0.042763092 0.018155605
-0.010274948 -0.042033877 0.018635511
-0.0095676053 -0.043054223 0.019114733
-0.0084489705 -0.042244852 0.019820005
-0.0076295855 -0.042916417 0.02025333
-0.0066689458 -0.042871792 0.02038762
-0.0055708895 -0.041781671 0.020536929
-0.0046718307 -0.042046476 0.020736545
-0.0037239131 -0.041894022 0.020953149
-0.0028758529 -0.043137792 0.021022618
-0.0018394674 -0.041388016 0.021791905
-0.00094565481 -0.042554468 0.022107035
0 -0.041885141 0.021841824
0.0009537639 -0.042919375 0.021727204
0.0018849511 -0.042411398 0.021636844
0.0027703154 -0.04155473 0.021442175
0.003711232 -0.041751359 0.021581352
0.0047288341 -0.042559508 0.021468937
0.0055387006 -0.041540254 0.02148211
0.0065097748 -0.041848555 0.021441311
0.007541805 -0.042422656 0.02160567
0.0083376048 -0.041688021 0.021484286
0.0094414344 -0.042486455 0.021441311
0.010311151 -0.04218198 0.021162629
0.011278435 -0.04229413 0.020761937
0.012122287 -0.041961763 0.019759774
0.013040875 -0.041917097 0.01912111
0.014062493 -0.042187478 0.016459227
0.015980121 -0.044944089 0.0076159835
0.016530799 -0.043757997 0.0052191019
-0.02203689 -0.042157527 0.0055420399
-0.021629523 -0.043259047 0.008841455
-0.019628756 -0.041126918 0.013566434
-0.018907145 -0.041595716 0.015218377
-0.01789107 -0.041431949 0.016397327
-0.017001823 -0.041560013 0.017264694
-0.016156375 -0.041816503 0.017427444
-0.015252407 -0.04194412 0.0178864
-0.01423471 -0.041755151 0.017717183
-0.013307407 -0.041823275 0.017849118
-0.012291371 -0.041601565 0.018046916
-0.011219514 -0.041138217 0.018118292
-0.010494472 -0.041977886 0.018238902
-0.0095172813 -0.041876037 0.018649548
-0.0085144928 -0.041626409 0.0196428
-0.0076478436 -0.042063139 0.020210475
-0.006662305 -0.041877344 0.020491391
-0.0055556823 -0.040741671 0.020454586
-0.0046661706 -0.041062299 0.020612657
-0.0037735251 -0.041508779 0.021041751
-0.0028174017 -0.041321892 0.021118999
-0.0018976862 -0.041749094 0.022107035
-0.00094123045 -0.041414142 0.022259921
0 -0.041237205 0.021931916
0.00094714476 -0.041674368 0.021841824
0.0018415921 -0.040515024 0.021636844
0.0028038663 -0.041123372 0.02143687
0.0037462108 -0.041208319 0.021442175
0.0046204445 -0.040659912 0.021324456
0.0056365225 -0.041334499 0.021361768
0.0065812236 -0.041367691 0.021337688
0.0074371649 -0.040904406 0.021530032
0.0085973339 -0.042031407 0.021644831
0.0093057724 -0.0409454 0.021644831
0.010210873 -0.040843491 0.02124235
0.011290453 -0.041398332 0.020820439
0.012221655 -0.041365601 0.020091504
0.013121432 -0.041238785 0.019588023
0.013940419 -0.040891897 0.017652541
0.015828501 -0.043528378 0.0085395575
0.016519871 -0.042757314 0.0059665143
-0.022824217 -0.042671364 0.0056777
-0.021158526 -0.041355301 0.011793494
-0.019909218 -0.040766492 0.014990032
-0.019059801 -0.040978573 0.015896499
-0.017967835 -0.040664047 0.016865671
-0.016755501 -0.04002703 0.01745677
-0.016220937 -0.041029427 0.018106788
-0.014945677 -0.040166508 0.018386215
-0.014140882 -0.040537193 0.018136382
-0.01342116 -0.041222136 0.017927051
-0.01244692 -0.041170582 0.018197984
-0.01129582 -0.040476687 0.01810959
-0.010433689 -0.040786237 0.018142343
-0.0092840334 -0.039921343 0.018569589
-0.0085755764 -0.040972199 0.019903213
-0.0077162883 -0.04147505 0.020162284
-0.0066022789 -0.040556855 0.020498097
-0.0056783478 -0.040694825 0.020454586
-0.00468121 -0.040258404 0.020441949
-0.0037201969 -0.039992116 0.021150202
-0.0028591682 -0.040981412 0.021351993
-0.0018763873 -0.040342327 0.02219829
-0.00092777587 -0.039894361 0.022340566
0 -0.040151432 0.022083998
0.00092173944 -0.039634798 0.0219675
0.0019035812 -0.040926997 0.021858871
0.0028114272 -0.040297121 0.021671385
0.0036967841 -0.039740428 0.021658212
0.0047290702 -0.040670007 0.021468937
0.0056490838 -0.040485099 0.021378487
0.0065532029 -0.04025539 0.021337688
0.0075031663 -0.04032952 0.021410912
0.0084225098 -0.04024088 0.021288961
0.0093827806 -0.040345956 0.021365136
0.010380723 -0.040579189 0.021184057
0.011254133 -0.040327307 0.020691246
0.012093579 -0.040001839 0.019846141
0.013156696 -0.040409852 0.019550979
0.013890455 -0.039819304 0.018154621
0.016048178 -0.043129481 0.0096167028
0.016427025 -0.041550711 0.0072158277
-0.022258932 -0.040646743 0.0068987608
-0.020628445 -0.039381575 0.012597829
-0.019798281 -0.039596561 0.015170932
-0.018742206 -0.039358635 0.016084939
-0.018149797 -0.040120605 0.016865671
-0.017144997 -0.040004991 0.017379194
-0.01582972 -0.03910872 0.017902792
-0.014995626 -0.039363518 0.018057138
-0.014603578 -0.040890016 0.017650306
-0.013156901 -0.039470702 0.017804772
-0.012150018 -0.039253902 0.017695874
-0.011249188 -0.039372161 0.017626226
-0.010101969 -0.038571153 0.017764837
-0.0094426628 -0.039659183 0.018059433
-0.0084961578 -0.039648734 0.019447148
-0.007541324 -0.039591949 0.019942403
-0.0065780571 -0.039468341 0.020272136
-0.0056177122 -0.039323986 0.020350635
-0.0046834168 -0.039340701 0.020259142
-0.0037648864 -0.039531309 0.020863026
-0.0028045203 -0.039263286 0.021155715
-0.0018404417 -0.038649276 0.022260547
-0.00093102199 -0.039102923 0.022346944
0 -0.03989438 0.022083998
0.00093248539 -0.039164387 0.021905065
0.0018750749 -0.039376575 0.021624297
0.0027672048 -0.038740866 0.021806777
0.0037826903 -0.039718248 0.021705717
0.0046419576 -0.038992442 0.021572202
0.0056612431 -0.039628703 0.021620929
0.0065524508 -0.039314706 0.021451503
0.0074506113 -0.039115708 0.021385968
0.0084604966 -0.039482318 0.021229297
0.0094091371 -0.039518375 0.021348417
0.010246791 -0.039124113 0.021330506
0.011214814 -0.039251849 0.02088207
0.012282325 -0.039681356 0.020262182
0.013237095 -0.039711285 0.01960206
0.014110029 -0.039508078 0.018168807
0.015742337 -0.041323636 0.012532294
0.016412783 -0.04054923 0.0080077052
0.017476121 -0.040777612 0.0052971244
-0.022175133 -0.039529584 0.0056777
-0.021248795 -0.039600026 0.012597829
-0.020196147 -0.039430574 0.015233845
-0.018904373 -0.038753968 0.016177893
-0.018149966 -0.039165717 0.017005712
-0.01665066 -0.037926503 0.017447323
-0.015974859 -0.0385276 0.0175699
-0.015322333 -0.039263479 0.018167824
-0.01441726 -0.039407179 0.017756194
-0.013136549 -0.038471323 0.017703772
-0.012108142 -0.038187217 0.017363816
-0.011397032 -0.03893986 0.016929358
-0.010498315 -0.039130084 0.016590953
-0.0094854208 -0.038890228 0.017558932
-0.0084934942 -0.038692586 0.019021362
-0.0075350543 -0.038617153 0.019305795
-0.0066041509 -0.038681455 0.020139515
-0.0056444691 -0.038570538 0.020216793
-0.0047932076 -0.039304301 0.020117164
-0.0037605318 -0.038545452 0.020758241
-0.0027873518 -0.038093809 0.021012634
-0.0018936289 -0.038819391 0.022043616
-0.00091743324 -0.037614763 0.022340566
0 -0.037912384 0.022173136
0.00095822569 -0.039287254 0.021954685
0.0018724096 -0.038384397 0.021717787
0.0027933882 -0.038176306 0.021623015
0.0037805308 -0.03875044 0.021570921
0.0045981016 -0.037704434 0.021621317
0.0057198261 -0.039085478 0.021692008
0.0066101258 -0.03871645 0.021436542
0.0074740914 -0.038304716 0.021436542
0.0085088564 -0.038762566 0.021175355
0.0092860935 -0.038072985 0.021303862
0.010303207 -0.038402863 0.021362185
0.011308536 -0.038637497 0.020928025
0.012242827 -0.038611989 0.020198584
0.013031614 -0.038164012 0.019748092
0.014209785 -0.038840078 0.018760502
0.014762782 -0.03782963 0.015062988
0.016858265 -0.040658168 0.008485198
0.017558517 -0.0399944 0.0053730309
-0.022308212 -0.038796891 0.0055188239
-0.020899268 -0.037998669 0.012891144
-0.019890595 -0.037886847 0.015202552
-0.018981166 -0.037962332 0.016238958
-0.017584136 -0.037019234 0.016869217
-0.016843686 -0.037430413 0.017335117
-0.01616236 -0.038029086 0.017487347
-0.015115717 -0.037789293 0.017939776
-0.014338703 -0.03823654 0.017323971
-0.013251764 -0.037862182 0.016892523
-0.012304661 -0.037860494 0.016640157
-0.011628914 -0.038763046 0.016417533
-0.010460131 -0.038036838 0.016226172
-0.0091794496 -0.036717799 0.016645074
-0.0085483845 -0.03799282 0.017763972
-0.0075887265 -0.037943631 0.018320829
-0.0066101463 -0.037772264 0.019503504
-0.005836173 -0.038907818 0.020186663
-0.0046090912 -0.03687273 0.020369291
-0.0036534758 -0.036534756 0.020781457
-0.0028248595 -0.037664793 0.021154523
-0.001890952 -0.037819039 0.021661013
-0.00092877762 -0.037151106 0.022351056
0 -0.03792927 0.022268265
0.00091518008 -0.036607202 0.021931916
0.0019179028 -0.038358055 0.02186498
0.0028012628 -0.03735017 0.021756679
0.0037427398 -0.037427399 0.021704793
0.0047368249 -0.037894599 0.02156505
0.0057524019 -0.038349345 0.021801919
0.0064112744 -0.036635853 0.021566808
0.0075384923 -0.037692461 0.021612555
0.0084189055 -0.037417356 0.021418124
0.0092928279 -0.037171312 0.021424234
0.010230827 -0.03720301 0.021516085
0.011086231 -0.036954105 0.021411747
0.012196121 -0.037526526 0.020628631
0.013178393 -0.037652552 0.019964635
0.013921922 -0.037125126 0.019501925
0.015056252 -0.037640631 0.017787486
0.017511813 -0.041204266 0.0089105964
0.017480724 -0.038846053 0.0056273341
-0.022630172 -0.0383729 0.0051529408
-0.021184502 -0.037554346 0.011252016
-0.020655209 -0.038359676 0.014504611
-0.018951876 -0.036956158 0.015896499
-0.018028457 -0.037005782 0.016194046
-0.017225198 -0.037321262 0.016546756
-0.01617681 -0.037111506 0.017159551
-0.015266769 -0.037212748 0.017348081
-0.014344141 -0.037294764 0.017218649
-0.013026495 -0.036288094 0.016392618
-0.012651633 -0.0379549 0.016240925
-0.011479677 -0.03730895 0.015869498
-0.010366232 -0.036753003 0.015718281
-0.0095445486 -0.037223738 0.0159235
-0.0085532963 -0.037064284 0.016892523
-0.0077467193 -0.037765257 0.017763972
-0.0068136915 -0.037961997 0.019203365
-0.005717997 -0.037166983 0.01987949
-0.0046798023 -0.036502458 0.019934565
-0.003772482 -0.036781702 0.020501971
-0.0028211924 -0.036675502 0.021150976
-0.0018449711 -0.035976935 0.021486461
-0.00093816477 -0.036588427 0.022299588
0 -0.036091536 0.022346944
0.00094975013 -0.037040252 0.022150815
0.0018821657 -0.036702231 0.021874458
0.0028122293 -0.036558978 0.02186498
0.0037551662 -0.036612868 0.021785587
0.0046526701 -0.036290828 0.021783322
0.0055039977 -0.035775986 0.022016883
0.0066088452 -0.03682071 0.021688014
0.0075833374 -0.036968771 0.021514177
0.0084177824 -0.036477055 0.021501124
0.0094707916 -0.036936089 0.021433085
0.010337401 -0.036650784 0.021605283
0.011211994 -0.036438979 0.021417379
0.012299078 -0.036897231 0.021055907
0.013104984 -0.036506739 0.020279258
0.014009621 -0.036425013 0.019642889
0.014989917 -0.036537923 0.018215537
0.016195452 -0.037154272 0.0098933876
0.017491635 -0.03789854 0.0073451698
-0.021141443 -0.036517039 0.0069570839
-0.019216467 -0.034772653 0.01350385
-0.018708102 -0.035545398 0.014446288
-0.018242374 -0.036484748 0.015120357
-0.017069342 -0.036035277 0.015748471
-0.016104164 -0.03599754 0.015991986
-0.01516232 -0.036010507 0.016247004
-0.014352233 -0.03635899 0.016021371
-0.013618442 -0.036964342 0.015482783
-0.012577835 -0.036765981 0.015308291
-0.011084631 -0.035101332 0.015065551
-0.010304451 -0.035597198 0.014704913
-0.0095731076 -0.03637781 0.014840603
-0.0084956093 -0.035870351 0.01549536
-0.0077320151 -0.036727071 0.016505629
-0.006740225 -0.036589794 0.018332958
-0.0057439161 -0.036378134 0.0195373
-0.0046651261 -0.035454959 0.019897133
-0.0037580575 -0.035701547 0.020370543
-0.0027935449 -0.035384901 0.021072328
-0.0018676361 -0.035485089 0.021472901
-0.00094285107 -0.035828341 0.022068888
0 -0.035462361 0.022329986
0.0009279123 -0.035260666 0.022239476
0.0018651971 -0.035438746 0.021971405
0.0028114712 -0.035611968 0.021868885
0.0037268398 -0.03540498 0.021789104
0.0046038511 -0.034989268 0.021789104
0.0057552564 -0.036449958 0.021891713
0.0065311133 -0.035454612 0.021679938
0.0074257385 -0.035272259 0.021704018
0.0085422434 -0.036067251 0.021613985
0.0093481811 -0.035523087 0.021634489
0.010354066 -0.035768591 0.021843702
0.011294533 -0.035766024 0.021875083
0.01223162 -0.035753965 0.021464676
0.013206382 -0.035845894 0.020578742
0.014350406 -0.036354359 0.019670218
0.014517965 -0.034480166 0.018591464
0.016303007 -0.036442015 0.013394803
0.017686635 -0.037338454 0.0080903471
0.018359255 -0.03671851 0.0051153898
-0.021552309 -0.036247067 0.0055054724
-0.020113809 -0.035438616 0.011177868
-0.019302174 -0.035709023 0.013341308
-0.01814373 -0.035332527 0.013745219
-0.016821286 -0.034577087 0.014236897
-0.016336927 -0.035556842 0.015352696
-0.015253714 -0.035274215 0.015210003
-0.014670983 -0.036188424 0.015268415
-0.013474054 -0.035610002 0.014801592
-0.012162505 -0.034616359 0.014781117
-0.011602258 -0.035773627 0.014226705
-0.010692487 -0.035965636 0.013079613
-0.0096009988 -0.035523698 0.013069093
-0.0087456508 -0.035954341 0.014217466
-0.0076884902 -0.035559267 0.015065551
-0.0066769603 -0.035292506 0.016505629
-0.0058290586 -0.035945859 0.018916607
-0.0047138282 -0.034882329 0.019590735
-0.0037472681 -0.034662232 0.020024359
-0.0028631925 -0.035312708 0.020807922
-0.0018828503 -0.034832731 0.021011591
-0.00093716587 -0.034675136 0.021414936
0 -0.03481286 0.021947354
0.00093539763 -0.034609713 0.022055149
0.0018727288 -0.034645483 0.022173703
0.0028677655 -0.035369109 0.021887273
0.0036821512 -0.034059897 0.021868885
0.0047119991 -0.034868795 0.021885842
0.0057789437 -0.03563682 0.022095293
0.0064742533 -0.034221053 0.021781266
0.0076172869 -0.035229951 0.021728635
0.0083797174 -0.034449946 0.021834999
0.00931451 -0.034463689 0.021960944
0.010266074 -0.03453134 0.022030473
0.011337507 -0.034957312 0.022026628
0.012206079 -0.034740377 0.021409065
0.013247127 -0.035010263 0.020221859
0.014025723 -0.034596782 0.019685656
0.015302454 -0.035386927 0.019037396
0.015734194 -0.03424501 0.015446752
0.017994456 -0.036988605 0.008303225
0.018645953 -0.036310542 0.0052470565
-0.020673424 -0.035440154 0.0071623325
-0.01902041 -0.03423674 0.010949105
-0.018197721 -0.03447989 0.01274997
-0.017019365 -0.03403873 0.01285246
-0.016045567 -0.033978846 0.013347864
-0.015422993 -0.034701735 0.013354897
-0.014340728 -0.034417745 0.013575792
-0.013373095 -0.034387957 0.013489395
-0.012681938 -0.035119213 0.012747437
-0.011764362 -0.035293087 0.012309849
-0.010781421 -0.035284653 0.010493815
-0.00980803 -0.035308909 0.01019457
-0.0086066602 -0.034426641 0.01036343
-0.0076902718 -0.034606222 0.013070166
-0.0068137986 -0.035042394 0.01480338
-0.0058453912 -0.035072349 0.016481817
-0.0047332346 -0.034079291 0.018067807
-0.0037466984 -0.033720285 0.019392669
-0.0027820996 -0.033385195 0.020262748
-0.0018918329 -0.034052994 0.020744503
-0.00095305906 -0.034310125 0.021155596
0 -0.033919524 0.021777242
0.00093647453 -0.033713084 0.021882594
0.0018793946 -0.033829104 0.021990597
0.0028100852 -0.033721022 0.021626562
0.0038108383 -0.034297545 0.021824837
0.0047320155 -0.03407051 0.021877587
0.005686637 -0.034119822 0.021975547
0.0065701287 -0.033789232 0.021694988
0.0074732536 -0.033629641 0.021768838
0.008474444 -0.033897776 0.02188459
0.0094051268 -0.033858459 0.022086591
0.010226293 -0.033467866 0.022176266
0.01128899 -0.033866972 0.022026628
0.012159862 -0.033673462 0.021570683
0.013106076 -0.033701338 0.020955384
0.014013535 -0.033632483 0.01974836
0.014935602 -0.033605106 0.019293398
0.01572453 -0.033299007 0.017417103
0.018021472 -0.036042944 0.0088416338
0.018380554 -0.034826312 0.0055032074
-0.018898087 -0.033071652 0.0065926313
-0.018084966 -0.033314411 0.0080911815
-0.017273244 -0.033586863 0.011080027
-0.016385818 -0.03373551 0.01199457
-0.015316312 -0.033504434 0.011983454
-0.014243449 -0.033234715 0.011970073
-0.013699444 -0.034248609 0.011828125
-0.012505713 -0.033669226 0.010526985
-0.01149198 -0.033518277 0.0093484223
-0.010663124 -0.033928122 0.0083247721
-0.0095596816 -0.033458885 0.0082231164
-0.0086135501 -0.03349714 0.0083537102
-0.0078266039 -0.034241393 0.0088216662
-0.0068451851 -0.034225926 0.01078859
-0.0058437642 -0.034088627 0.014606208
-0.0049443492 -0.034610443 0.015929729
-0.0037326925 -0.032661058 0.01785022
-0.0028250045 -0.032958388 0.019595623
-0.001868855 -0.032704961 0.020203292
-0.00093541178 -0.032739412 0.020862132
0 -0.033595242 0.021134883
0.00092797331 -0.032479066 0.02136007
0.0018878776 -0.03303786 0.021694213
0.0028460391 -0.033203788 0.021409959
0.0037673221 -0.032964069 0.021436572
0.0046937787 -0.032856449 0.021600425
0.0056231967 -0.032801982 0.021868885
0.0065306844 -0.032653421 0.021605283
0.0074398825 -0.032549486 0.021754652
0.0084105683 -0.032707766 0.021827042
0.0093993777 -0.032897823 0.022106737
0.010252823 -0.03262262 0.022114813
0.011254301 -0.032825045 0.022056252
0.012240326 -0.032954723 0.021565169
0.013052817 -0.032632045 0.021195859
0.014158455 -0.033036396 0.020416945
0.014885471 -0.032561969 0.019421995
0.015803829 -0.032537296 0.017935604
0.017713984 -0.034443855 0.012134016
0.018425165 -0.033941094 0.0061904788
-0.018223198 -0.032609932 0.0063374043
-0.017369129 -0.032808356 0.0066753328
-0.016719734 -0.033439469 0.0078245699
-0.015008749 -0.031893592 0.008757025
-0.014725495 -0.033377789 0.0088604093
-0.013586373 -0.032995477 0.0084018707
-0.012408638 -0.032453362 0.0077996552
-0.011803119 -0.033442169 0.0072130263
-0.010751922 -0.03323321 0.0063239634
-0.0095179062 -0.032360882 0.0061620474
-0.0087558841 -0.033077788 0.0069277585
-0.007865835 -0.033429801 0.0074241757
-0.0068295882 -0.033172287 0.0081887841
-0.0059057442 -0.033465885 0.0097203553
-0.0050206897 -0.034140687 0.014495462
-0.0037745086 -0.032083321 0.016222775
-0.0028097269 -0.031843569 0.018787593
-0.0018893979 -0.032119762 0.019583941
-0.00094446389 -0.032111771 0.020409107
0 -0.031599861 0.02088666
0.00093074603 -0.031645365 0.021246344
0.0018757412 -0.031887598 0.02145654
0.0028430149 -0.032220837 0.021360338
0.0037162253 -0.031587914 0.021394581
0.0047173933 -0.032078277 0.021413445
0.0054880334 -0.031098858 0.021788955
0.0065987352 -0.032051001 0.021570325
0.0075127748 -0.031929292 0.021728635
0.0083674891 -0.031610515 0.021778882
0.0093094585 -0.03165216 0.022103101
0.010310126 -0.031867661 0.022292823
0.011265616 -0.031919245 0.02216351
0.012171779 -0.031833883 0.021747291
0.013085638 -0.031779405 0.021510869
0.013879234 -0.031459596 0.020667076
0.015114994 -0.03211936 0.019231826
0.015735978 -0.031471957 0.017960966
0.01668502 -0.03151615 0.012934625
0.018785549 -0.033616249 0.0067262053
-0.01763263 -0.03232649 0.005613029
-0.016372167 -0.031781264 0.0060732961
-0.015761569 -0.032508235 0.006221801
-0.014433378 -0.031753432 0.0060861111
-0.013550849 -0.031941283 0.0058902204
-0.012891342 -0.032724176 0.0058293939
-0.011842859 -0.032567862 0.0052578449
-0.010892934 -0.032678802 0.0050879717
-0.0089091249 -0.032666791 0.0051376224
-0.007882582 -0.032515652 0.0053161979
-0.0069662817 -0.032841042 0.0068330467
-0.006043029 -0.03323666 0.0078909099
-0.0050777891 -0.033513408 0.012290657
-0.0040162574 -0.033134121 0.014621943
-0.0028116247 -0.030927872 0.016985863
-0.0018646911 -0.030767404 0.018480033
-0.00094076758 -0.031045331 0.019106925
0 -0.030870393 0.020255238
0.00093973125 -0.031011131 0.020749956
0.0018974906 -0.031308595 0.020909816
0.0028054062 -0.030859469 0.021317303
0.003813128 -0.031458307 0.021305829
0.0046391711 -0.030618528 0.021331131
0.0055843703 -0.030714039 0.021732479
0.0065323291 -0.030795265 0.021503687
0.007508568 -0.030972844 0.021629244
0.0083874464 -0.03075397 0.021663129
0.0094651058 -0.031234851 0.022010982
0.010166917 -0.030500751 0.022066325
0.011295141 -0.031061638 0.022070467
0.012187127 -0.030936552 0.021567822
0.013016867 -0.030682616 0.02115491
0.014017576 -0.030838666 0.020258933
0.014930165 -0.030793466 0.019138455
0.015899982 -0.030864673 0.017871946
0.016878387 -0.03094371 0.012557179
0.019290421 -0.033504415 0.005808413
-0.01580859 -0.03161718 0.0051246285
-0.014687655 -0.031333663 0.0051228106
-0.0060178759 -0.032095339 0.0061161816
-0.0048657199 -0.031140607 0.0075720549
-0.0038870769 -0.031096615 0.0086139739
-0.0028202713 -0.030082894 0.015106112
-0.0018913053 -0.030260885 0.016141653
-0.00093840691 -0.030029021 0.018129945
0 -0.029553114 0.019174069
0.00094529579 -0.030249465 0.020324767
0.0018498506 -0.02959761 0.02047202
0.0028681874 -0.030593997 0.020584881
0.0037532079 -0.030025663 0.02084583
0.0046520596 -0.029773183 0.02101317
0.0056082476 -0.029910656 0.021497041
0.0065350095 -0.029874329 0.021388024
0.0075477134 -0.030190853 0.02158305
0.0084973089 -0.030212654 0.021702379
0.0093171773 -0.029814968 0.021983832
0.01028107 -0.029908566 0.022101194
0.011307043 -0.030152114 0.022045553
0.012059819 -0.029685708 0.021791995
0.012882343 -0.029445354 0.021049947
0.014217957 -0.030331641 0.020287365
0.014818359 -0.029636718 0.018934995
0.016174667 -0.030446431 0.017219007
0.016519129 -0.029367341 0.0090085268
0.018665895 -0.031437296 0.0056969821
-0.0039061334 -0.030272534 0.0066362321
-0.0028471872 -0.029420935 0.0077814162
-0.0018704789 -0.028992422 0.014224142
-0.00092269044 -0.028603403 0.016811192
0 -0.029710893 0.018075436
0.00093591871 -0.029013479 0.019177705
0.0018808418 -0.029153047 0.020066947
0.0027745855 -0.028670717 0.02033928
0.0037822684 -0.029312581 0.020635575
0.0047648852 -0.02954229 0.020564228
0.0055903951 -0.028883707 0.020896882
0.006602501 -0.029239647 0.020948976
0.0075751049 -0.029353531 0.021291047
0.0083849635 -0.028881542 0.021380126
0.0094635515 -0.029337009 0.021647125
0.010322754 -0.029091397 0.021843255
0.01121285 -0.028966529 0.021381915
0.012124129 -0.028911384 0.020979732
0.013187857 -0.029201685 0.020321012
0.013909265 -0.028745815 0.019666463
0.015072916 -0.029203774 0.018435597
0.016004007 -0.029183777 0.015697032
0.016621294 -0.028625561 0.0080964565
0.018337494 -0.029919067 0.005399555
-0.0029269301 -0.029269302 0.0057214499
-0.0019021867 -0.028532801 0.011595398
-0.0009407397 -0.02822219 0.015934646
0 -0.028518528 0.017137051
0.00095152901 -0.02854587 0.018757582
0.0018815836 -0.028223755 0.019869834
0.0028044106 -0.028044106 0.020221025
0.0037983793 -0.028487844 0.020112395
0.0047972118 -0.028783269 0.020385563
0.0054968102 -0.02748405 0.020772457
0.0065133702 -0.027914444 0.020820707
0.0075376015 -0.028266005 0.021101236
0.0084645431 -0.028215144 0.0211761
0.009349646 -0.028048938 0.021066368
0.010304045 -0.028101942 0.020827204
0.011150769 -0.027876923 0.020532995
0.012351511 -0.028503487 0.020204455
0.013122257 -0.028119123 0.019855738
0.013930371 -0.027860742 0.018473148
0.014838135 -0.027821504 0.017218143
0.015727662 -0.027754696 0.014672518
0.016904199 -0.028173666 0.0080194175
-0.0018572015 -0.026929421 0.0057096481
-0.00093683804 -0.027168304 0.013898015
0 -0.027647411 0.015337229
0.00096237706 -0.027908936 0.016988009
0.0019107172 -0.027705399 0.018403172
0.0028877903 -0.027915308 0.019016564
0.0037847215 -0.027439231 0.019122988
0.0047066947 -0.027298829 0.019122988
0.0056226077 -0.027175937 0.019887835
0.0065031312 -0.026941543 0.020073414
0.0074985921 -0.027182397 0.020335793
0.0084184688 -0.027126176 0.02065888
0.0093088169 -0.026995568 0.020463794
0.010139835 -0.026732292 0.020433098
0.011367176 -0.027470674 0.020029396
0.012048963 -0.026878458 0.0197936
0.01292184 -0.026766669 0.01958552
0.014042751 -0.027149318 0.01821512
0.014946304 -0.027090177 0.016509056
0.015739053 -0.026848974 0.013121456
0.016992969 -0.027377563 0.0080883801
-0.00094469398 -0.026451431 0.0070231557
0 -0.026550492 0.012911677
0.00095371431 -0.026704 0.014789611
0.0019111895 -0.026756654 0.016568601
0.0028705788 -0.02679207 0.017721444
0.0036659723 -0.025661806 0.017971456
0.0047158026 -0.026408494 0.017862916
0.0056273229 -0.026260842 0.018522441
0.006529965 -0.02611986 0.018807262
0.0074527184 -0.026084514 0.019185543
0.0084162187 -0.026183791 0.01962328
0.009385529 -0.026279479 0.019934297
0.010319385 -0.026267523 0.01984185
0.011077595 -0.025847722 0.018880874
0.012071856 -0.026000923 0.018558681
0.013246665 -0.02649333 0.01821512
0.013909274 -0.025963977 0.016383797
0.01508652 -0.026401408 0.015591532
0.016608518 -0.027355207 0.011118054
0.017707415 -0.027544867 0.0074475408
0 -0.028629577 0.0052006543
0.0010036742 -0.027099203 0.010857373
0.0020260999 -0.02735235 0.013896644
0.0030950471 -0.027855424 0.014919847
0.0037407647 -0.025250161 0.01587075
0.0049183606 -0.026559146 0.016402692
0.0055669225 -0.02505115 0.016993135
0.0066011143 -0.025461441 0.017297089
0.0075174547 -0.02537141 0.018110335
0.0083486624 -0.025045987 0.018451214
0.0092312675 -0.024924422 0.018399656
0.010164452 -0.024949107 0.018327594
0.011147639 -0.025082188 0.018021941
0.012509598 -0.025981473 0.017701924
0.01353384 -0.026100976 0.016592056
0.014599717 -0.026279492 0.01591906
0.015544246 -0.026230915 0.014690548
0.016839087 -0.026744433 0.010533601
0.01739919 -0.026098786 0.0073650479
0.0020634669 -0.026825069 0.0067873299
0.0030514605 -0.02644599 0.011916667
0.0037085195 -0.024105377 0.012863636
0.0047756662 -0.024833465 0.013124794
0.0055617006 -0.024100704 0.014751107
0.0065310379 -0.02425814 0.016110659
0.0073467162 -0.023876829 0.01657927
0.0086347237 -0.024944758 0.017560184
0.0096234195 -0.02502089 0.017820299
0.010880568 -0.025717707 0.018172145
0.011703669 -0.02535795 0.017875016
0.012336729 -0.024673458 0.017444313
0.013062057 -0.024258105 0.016224414
0.014522674 -0.025172634 0.015775532
0.015258462 -0.024795001 0.014586896
0.016667929 -0.025492124 0.01008606
0.017680438 -0.025538411 0.0068820119
0.0027545108 -0.022954257 0.0050767362
0.0035931484 -0.022457177 0.010204971
0.0049296864 -0.024648432 0.010645807
0.0058551049 -0.024396269 0.012449384
0.006794855 -0.02426734 0.013021231
0.0079552578 -0.024860179 0.01524967
0.0086443592 -0.024012109 0.016284734
0.0095561529 -0.023890384 0.016563267
0.010356308 -0.023537064 0.017380685
0.011351794 -0.023649571 0.016777396
0.012179647 -0.023422398 0.016337544
0.013686638 -0.024440426 0.015686929
0.01420717 -0.023678616 0.015273362
0.015263903 -0.023849849 0.012869298
0.016432527 -0.024165483 0.0093930662
0.018401993 -0.025558323 0.0068820119
0.0048920475 -0.023481827 0.006188333
0.0058673313 -0.023469325 0.010050565
0.0068423832 -0.0234596 0.011322081
0.0076996214 -0.023098864 0.012793273
0.0085366247 -0.022764331 0.015183955
0.0094401129 -0.022656271 0.015787363
0.010414262 -0.022722026 0.016062409
0.011257156 -0.022514312 0.015686929
0.012464249 -0.023010921 0.015794694
0.013126958 -0.022503357 0.015187979
0.014030449 -0.022448719 0.014543682
0.01546211 -0.023193164 0.012317538
0.016430942 -0.023196623 0.0080190897
0.017663987 -0.023551984 0.0054882169
0.0060999054 -0.023382971 0.0058331788
0.0068502072 -0.022507824 0.0093305111
0.0077787405 -0.022363879 0.010837406
0.0086771678 -0.022174986 0.012488306
0.00948969 -0.021826288 0.01395756
0.010459411 -0.021869678 0.015048772
0.011397028 -0.021844305 0.014761895
0.012184342 -0.021556914 0.014713377
0.013169933 -0.021636318 0.01441732
0.01447646 -0.022197239 0.0125269
0.015082627 -0.021681275 0.011951417
0.016712766 -0.022611389 0.0079495013
0.017220702 -0.02200423 0.0054284632
0.0068532969 -0.021538934 0.0058988631
0.0076921429 -0.021153392 0.0095442832
0.0085331704 -0.020858862 0.010789692
0.0094758673 -0.020846907 0.012069285
0.010709447 -0.021418894 0.012853861
0.011526569 -0.021132043 0.013650149
0.012177473 -0.02060803 0.013689637
0.013177019 -0.020706743 0.013935089
0.01420644 -0.020836111 0.01240176
0.015150126 -0.020831423 0.012021899
0.016130531 -0.020874806 0.0089579225
0.017166248 -0.020980969 0.0065973401
0.0078106085 -0.020502847 0.0060049295
0.0087623568 -0.0204455 0.0099273324
0.0096361283 -0.020235868 0.01160267
0.010276909 -0.019619554 0.012525469
0.011320685 -0.019811198 0.013504297
0.012117508 -0.019574435 0.01394558
0.013083465 -0.019625198 0.013922542
0.013920871 -0.019489219 0.013600171
0.01503348 -0.019731443 0.012028933
0.015966259 -0.019723026 0.010553509
0.017564027 -0.020491363 0.0072582662
0.007673759 -0.019184398 0.0055828989
0.0085837534 -0.019075008 0.0086531341
0.0095667709 -0.019133542 0.010916919
0.010506018 -0.019101851 0.012430727
0.011339032 -0.018898387 0.012565941
0.012122367 -0.018649794 0.013638914
0.013106587 -0.018723696 0.013845801
0.014167478 -0.018889971 0.013291985
0.014766832 -0.01845854 0.012067378
0.016392548 -0.019285349 0.009827584
0.017587082 -0.019541202 0.0068989098
0.0087946896 -0.018566567 0.0053695142
0.0095460694 -0.018137531 0.0093013048
0.01049999 -0.018136347 0.011169851
0.011479277 -0.018175522 0.012047172
0.011982364 -0.017512685 0.012271106
0.013179887 -0.017886991 0.012758136
0.014204005 -0.01799174 0.01180467
0.015127086 -0.017963415 0.010816067
0.016065709 -0.017955793 0.0077941418
0.016785529 -0.017718058 0.0059232712
0.0095849624 -0.017252931 0.0069607794
0.010355989 -0.016946163 0.0093283057
0.011341179 -0.017011769 0.010726631
0.012338324 -0.017083833 0.010991633
0.013277791 -0.017071445 0.011567205
0.013857136 -0.016628562 0.010762364
0.015267175 -0.017175572 0.0091859698
0.015763674 -0.016690949 0.0066760182
0.010502469 -0.016231088 0.0068784952
0.011441085 -0.016208204 0.0091588795
0.01216733 -0.015911125 0.010001242
