ply
format ascii 1.0
comment PCL generated
element vertex 1265
property float x
property float y
property float z
element camera 0
property float view_px
property float view_py
property float view_pz
property float x_axisx
property float x_axisy
property float x_axisz
property float y_axisx
property float y_axisy
property float y_axisz
property float z_axisx
property float z_axisy
property float z_axisz
property float focal
property float scalex
property float scaley
property float centerx
property float centery
property int viewportx
property int viewporty
property float k1
property float k2
end_header
0.021161478 -0.067331977 0.0052433014
0.0052121328 -0.071927436 0.0062053204
0.0057420894 -0.066034026 0.0071558952
0.0069193188 -0.068204716 0.0085494816
0.0079477979 -0.06854976 0.010834426
0.0086929156 -0.066645689 0.013069093
0.0095591266 -0.065957971 0.013389468
0.01055782 -0.066226326 0.014315486
0.011180514 -0.064287961 0.014751315
0.012492948 -0.066308722 0.015518397
0.013049486 -0.064315327 0.016959816
0.014104312 -0.064879835 0.016915768
0.014908005 -0.064290769 0.016453266
0.015465241 -0.062770687 0.015004963
0.017211964 -0.065979198 0.013852328
0.01751166 -0.063594982 0.011499882
0.018694712 -0.064496756 0.0093455315
0.022987602 -0.075530693 0.0080159903
0.023499239 -0.073702157 0.0064343512
0.021764033 -0.065292098 0.0051717758
0.0039335927 -0.066871077 0.0055273771
0.0048523825 -0.0659924 0.0066071153
0.0059938063 -0.067929804 0.0082421899
0.0068217772 -0.06626869 0.010567427
0.0077808714 -0.066137403 0.012503356
0.0086402735 -0.065282062 0.013543308
0.0093966387 -0.06389714 0.01414308
0.010294829 -0.063640758 0.014872342
0.011534159 -0.065360241 0.016859978
0.01242324 -0.0649831 0.017733514
0.013036476 -0.063320033 0.018296063
0.014216221 -0.064446867 0.018252015
0.014985522 -0.063688472 0.017575443
0.016121946 -0.064487785 0.017045289
0.016812496 -0.063513875 0.016757488
0.017520532 -0.062705062 0.015680969
0.018814661 -0.063969843 0.013112277
0.019617666 -0.063523874 0.0090257823
0.021344125 -0.065972753 0.0080354214
0.025918927 -0.076629877 0.0055992007
0.0029204676 -0.065223776 0.0050997138
0.0040345206 -0.067578219 0.0064463317
0.0049885642 -0.066846758 0.0082778037
0.0059247552 -0.06615977 0.0096116662
0.0067054243 -0.064180493 0.011823118
0.0076751499 -0.064279377 0.013275236
0.0083319237 -0.062026545 0.01438418
0.009200586 -0.061643928 0.01495409
0.010335388 -0.062951908 0.016844243
0.011776209 -0.065750502 0.018943042
0.012016691 -0.061932176 0.018735141
0.013572409 -0.06495367 0.018718481
0.013776368 -0.061534442 0.018931389
0.014837325 -0.062131301 0.018555164
0.016474988 -0.064930841 0.018062592
0.016522184 -0.061499242 0.017254651
0.018716233 -0.065999351 0.016729325
0.01886162 -0.063186422 0.014284253
0.019381158 -0.061835121 0.011595011
0.020471083 -0.062343754 0.008659333
0.02148661 -0.062591426 0.0067949295
0.026329428 -0.073502988 0.0052048564
-0.019690001 -0.064977005 0.0050297379
-0.018414445 -0.063965969 0.0051828921
-0.019368593 -0.071018174 0.0051828921
-0.017868755 -0.069372818 0.0050030053
0.0019571867 -0.064587161 0.0053386986
0.0030158679 -0.066349097 0.0064716339
0.0039263964 -0.06478554 0.0081067681
0.0049677878 -0.065574795 0.0089331567
0.005690645 -0.062597096 0.010713756
0.0067755198 -0.063883476 0.012144208
0.007739197 -0.063848376 0.013916135
0.0086240126 -0.063242756 0.014882952
0.0094533227 -0.062391929 0.015783846
0.010638171 -0.063829027 0.018100291
0.011262883 -0.061945856 0.019014299
0.012444803 -0.063181303 0.018784225
0.013145568 -0.061971962 0.019015282
0.01382424 -0.060826655 0.019497544
0.014885489 -0.061402641 0.018863052
0.01558788 -0.060517654 0.018430501
0.017470246 -0.064057574 0.018057704
0.017197287 -0.059737939 0.017249942
0.018869584 -0.062269628 0.01477012
0.020049162 -0.063011646 0.012773722
0.021357961 -0.064073883 0.0097444654
0.021231662 -0.06092564 0.0074044764
0.022285659 -0.061285563 0.0052110553
-0.020976331 -0.061975524 0.00522843
-0.020112319 -0.062252417 0.0066587031
-0.01942325 -0.063125558 0.0072204173
-0.018733827 -0.06408941 0.0079880357
-0.017400788 -0.062836178 0.0083262324
-0.016744923 -0.064024702 0.0075634718
-0.018142316 -0.073703162 0.0064281225
-0.01502873 -0.065124497 0.0051622689
-0.01372921 -0.063742764 0.0050469339
-0.00096086605 -0.062456295 0.005033195
0 -0.063876584 0.0059425831
0.00098514778 -0.064034611 0.0061813593
0.0019282866 -0.062669314 0.0066677928
0.0030094092 -0.065203868 0.0083113313
0.0039654793 -0.064439036 0.0097291172
0.0046664458 -0.060663793 0.010733694
0.0057886643 -0.062710531 0.012144208
0.0066931122 -0.062150326 0.013813376
0.0074960715 -0.060905583 0.014742166
0.0085071046 -0.0614402 0.0153355
0.0095010595 -0.061756883 0.017884076
0.01025776 -0.060614038 0.018377393
0.011007724 -0.059625175 0.019031733
0.012130487 -0.060652435 0.019135058
0.013067613 -0.060671061 0.019111395
0.014506032 -0.062859468 0.019787222
0.014517161 -0.058975965 0.018909007
0.015878735 -0.060712807 0.01845026
0.017237736 -0.062247377 0.018228352
0.017588085 -0.060169764 0.017463416
0.019700412 -0.064026341 0.015680969
0.02003064 -0.061999597 0.012937546
0.020798532 -0.061450209 0.011086583
0.022311026 -0.0630529 0.0076173544
0.023123132 -0.062625155 0.0050919056
-0.021066431 -0.061284162 0.0071935952
-0.019951994 -0.060806077 0.0091519356
-0.019805538 -0.063377723 0.010848641
-0.018427096 -0.062070221 0.011146069
-0.017084943 -0.060746465 0.01106745
-0.016481789 -0.062049087 0.010144114
-0.015474939 -0.061899755 0.0080807507
-0.015200717 -0.064856395 0.0072700381
-0.013505627 -0.061740015 0.0067928433
-0.012695416 -0.062500514 0.006116569
-0.011705887 -0.062431395 0.005079478
-0.0088506881 -0.062938228 0.0050576031
-0.0063733566 -0.058270689 0.0051104128
-0.00546748 -0.058319788 0.0053276718
-0.0046081217 -0.058983959 0.0061261952
-0.0037369954 -0.059791926 0.0068467557
-0.0032298935 -0.068904392 0.006746918
-0.0022044226 -0.070541523 0.0067715943
-0.0010415383 -0.066658452 0.0067977607
0 -0.061691977 0.0085474849
0.00094372674 -0.060398512 0.0087224841
0.0020016192 -0.064051814 0.0097291172
0.0030142507 -0.064304017 0.010352165
0.0037978583 -0.060765732 0.011887401
0.0048616095 -0.062228601 0.012304962
0.0058720727 -0.062635444 0.01409626
0.0064713364 -0.059166506 0.014772654
0.0076719881 -0.061375905 0.015274525
0.0083682025 -0.059507214 0.017530024
0.0097337281 -0.062295858 0.01847592
0.010395857 -0.060484983 0.019228965
0.011470805 -0.061177626 0.019357979
0.012012127 -0.059136625 0.019293815
0.013288468 -0.060747284 0.019146711
0.01402287 -0.059830911 0.019846231
0.015031214 -0.060124855 0.018931389
0.016132366 -0.060733609 0.01845026
0.016658092 -0.059228774 0.018228352
0.018325442 -0.061727803 0.017491788
0.018988512 -0.06076324 0.015598357
0.019611187 -0.059767425 0.013664901
0.021054396 -0.061249156 0.011258036
0.021991568 -0.061193928 0.0082444251
0.023375997 -0.062335994 0.005232811
-0.021480378 -0.058837559 0.0072731674
-0.020387514 -0.058382425 0.0098951757
-0.019896183 -0.059688549 0.011449635
-0.018976696 -0.059776589 0.011478633
-0.018470226 -0.061243378 0.012254477
-0.017768309 -0.06218908 0.01191029
-0.016247422 -0.060211036 0.011114568
-0.015528781 -0.061144579 0.010637701
-0.014597961 -0.061311435 0.0096615553
-0.014915513 -0.067119807 0.0092875361
-0.01260473 -0.06108446 0.0085490048
-0.011482704 -0.060284197 0.0078991354
-0.011107583 -0.063616157 0.0073336065
-0.0098860748 -0.062282268 0.0070377886
-0.0084570646 -0.059199452 0.007610172
-0.0075528459 -0.059478659 0.0079137981
-0.0072621992 -0.065359794 0.010974437
-0.005951087 -0.062486414 0.013275892
-0.0046754493 -0.05891066 0.013330966
-0.0037122197 -0.058467459 0.013690084
-0.0028260453 -0.059346948 0.013269812
-0.0018953821 -0.059704538 0.01240775
-0.0011219239 -0.070681207 0.012206525
0 -0.065607548 0.012173593
0.0010244023 -0.064537346 0.011832833
0.0020232182 -0.063731372 0.012097448
0.0028627517 -0.060117789 0.012115359
0.0038600168 -0.060795266 0.013584256
0.0047865375 -0.060310371 0.014424205
0.0057578916 -0.060457859 0.015046477
0.0067441096 -0.060696986 0.015630752
0.0074476749 -0.058650438 0.016844243
0.0085090995 -0.0595637 0.017796308
0.0094235679 -0.059368476 0.018262655
0.010387336 -0.059491109 0.019135416
0.011415529 -0.059931524 0.019239217
0.012576256 -0.060946468 0.019194692
0.012994008 -0.058473036 0.019116729
0.01384881 -0.058164999 0.019397259
0.015125866 -0.059558097 0.018698215
0.016055109 -0.059498347 0.018334359
0.017025042 -0.05958765 0.017377615
0.018123627 -0.060094133 0.016959816
0.018818617 -0.059278641 0.014756083
0.019861715 -0.059585143 0.013108999
0.020850198 -0.059707385 0.011026561
0.021882951 -0.05994026 0.0083786547
0.02310523 -0.060651228 0.0054894388
-0.023088038 -0.059644096 0.0053150654
-0.021500155 -0.057956941 0.0085556209
-0.021143332 -0.059585754 0.011212289
-0.01996408 -0.058941573 0.012384057
-0.018773818 -0.058198839 0.012589037
-0.018583735 -0.060641661 0.013515025
-0.017418269 -0.059996258 0.013107836
-0.016057355 -0.058562122 0.012994409
-0.015547503 -0.060246572 0.011844337
-0.014555286 -0.060161848 0.010846496
-0.013769308 -0.060978364 0.010635227
-0.013467971 -0.064231865 0.010736912
-0.01285577 -0.066421479 0.010674
-0.011530903 -0.064992361 0.010374606
-0.0093938475 -0.058241852 0.010662585
-0.0084719453 -0.05836229 0.012666911
-0.0080856774 -0.062663995 0.014547616
-0.0065123932 -0.057681199 0.015785158
-0.0056396229 -0.058276106 0.017686188
-0.0047753369 -0.059214178 0.017830282
-0.0038391282 -0.059506487 0.017934412
-0.0027763967 -0.057378866 0.017782718
-0.001864963 -0.057813853 0.017320633
-0.00091897411 -0.056976393 0.017123699
0 -0.063352175 0.017113119
0.0010419586 -0.064601436 0.016919106
0.0018941868 -0.058719791 0.015972078
0.0029426045 -0.060813822 0.015209615
0.0038919724 -0.06032557 0.015636235
0.0046736691 -0.057953496 0.017554432
0.0058441693 -0.060389746 0.018179119
0.0065072798 -0.057635907 0.018215001
0.0074925455 -0.058067225 0.018336475
0.0087228436 -0.060090702 0.018448174
0.0093707191 -0.058098458 0.019524306
0.010522685 -0.05930968 0.020129532
0.011286409 -0.058313113 0.01997593
0.012410311 -0.059187636 0.019840747
0.013105717 -0.058039602 0.019116044
0.014509655 -0.05997324 0.019052595
0.014943046 -0.057904299 0.018325448
0.015943605 -0.058147267 0.018137842
0.017271565 -0.059490949 0.01707691
0.017885821 -0.058364253 0.016541481
0.019822147 -0.061448652 0.01445353
0.019875983 -0.058681469 0.01293993
0.020906609 -0.058918621 0.010689378
0.022074742 -0.059505824 0.0081271231
0.023441017 -0.060555961 0.0052344501
-0.022940865 -0.058308028 0.0067783892
-0.021893127 -0.058064379 0.010279864
-0.021067237 -0.058413707 0.011710614
-0.02013531 -0.05848828 0.013943464
-0.019068245 -0.058158144 0.014486372
-0.018130897 -0.058209717 0.014862776
-0.016950866 -0.057444602 0.014862776
-0.016480435 -0.059135675 0.014297485
-0.015415239 -0.058770601 0.013367891
-0.014496081 -0.058950726 0.012778223
-0.013509598 -0.058863245 0.012453526
-0.012414346 -0.058251929 0.012622386
-0.011729795 -0.05962646 0.012453526
-0.011030279 -0.061167911 0.012523353
-0.0090651745 -0.055297565 0.012640476
-0.0083317244 -0.056470577 0.015720159
-0.0087754298 -0.066912651 0.017828077
-0.0072496999 -0.063175954 0.020117432
-0.006590914 -0.067007624 0.02011919
-0.0051690023 -0.063061826 0.020537645
-0.0036966756 -0.056374304 0.020845681
-0.0028286469 -0.057515822 0.020370007
-0.0018469455 -0.056331839 0.019636184
-0.00093523343 -0.057049241 0.019082338
0 -0.056718837 0.018944025
0.0009244557 -0.056391798 0.0186674
0.0020224333 -0.061684214 0.01835078
0.0029104832 -0.059179824 0.01835078
0.0037251713 -0.056808863 0.018340051
0.004840821 -0.059058018 0.018759429
0.0056286887 -0.057225 0.019423395
0.006642397 -0.057883747 0.019320637
0.0077180732 -0.058850311 0.019373208
0.0086210091 -0.058431286 0.019422531
0.0093731908 -0.057176463 0.020304233
0.010331932 -0.057295255 0.020219892
0.011302527 -0.057454512 0.020135611
0.012320986 -0.05781386 0.019934475
0.013312793 -0.058005743 0.019751936
0.014091738 -0.057306401 0.018909007
0.015131953 -0.057690572 0.018246084
0.016327368 -0.058586437 0.017918557
0.017023133 -0.057689507 0.016323537
0.01822219 -0.058502823 0.015918583
0.018910123 -0.057675876 0.014063805
0.020354949 -0.05912628 0.012425303
0.021555463 -0.059767421 0.0094236732
0.02278099 -0.060419146 0.0068220198
-0.022958374 -0.057395935 0.0079146326
-0.021642806 -0.056459494 0.010688275
-0.02051341 -0.055945665 0.012692451
-0.019720253 -0.056343578 0.014838517
-0.01918624 -0.057558719 0.015532732
-0.017897425 -0.056518186 0.015783936
-0.017209278 -0.057364263 0.015967399
-0.016292214 -0.057501931 0.015757322
-0.015432785 -0.057872944 0.015184224
-0.014544485 -0.058177941 0.014970094
-0.013081877 -0.056065187 0.014783621
-0.012373202 -0.057107083 0.01492545
-0.011880307 -0.059401538 0.01462853
-0.010177894 -0.055515781 0.014619082
-0.010090344 -0.060542062 0.016184658
-0.0084051192 -0.056034125 0.020033896
-0.0076732719 -0.05754954 0.021154612
-0.0076559726 -0.06562262 0.021358937
-0.006454383 -0.064543828 0.021335065
-0.0047303066 -0.056763679 0.021454722
-0.0037451345 -0.056177016 0.021486104
-0.0028008735 -0.05601747 0.021246552
-0.0018543676 -0.055631027 0.021026254
-0.00094814191 -0.056888513 0.02051124
0 -0.054915544 0.020168871
0.00093535293 -0.056121178 0.020153075
0.0018406045 -0.055218134 0.019558847
0.0028684703 -0.057369407 0.019723207
0.0038457355 -0.057686035 0.0198645
0.0048712781 -0.058455341 0.020082951
0.0055472036 -0.055472035 0.019915342
0.0067472467 -0.057833541 0.019388407
0.0074910969 -0.056183226 0.019767851
0.0083037466 -0.055358309 0.019773602
0.0094784945 -0.056870967 0.020223826
0.010427 -0.056874547 0.020247757
0.011207548 -0.056037743 0.020038307
0.012250553 -0.056541014 0.019840181
0.013292339 -0.056967165 0.018621594
0.014067064 -0.056268256 0.018177301
0.015281875 -0.057307031 0.018052429
0.015730556 -0.055519607 0.017065138
0.017533423 -0.058444746 0.01624006
0.018226827 -0.057558399 0.014605343
0.018536642 -0.055609927 0.012397677
0.020661501 -0.059032861 0.011304557
0.021485971 -0.058598105 0.0089941621
0.022651043 -0.059089679 0.0064231455
-0.022966992 -0.056460522 0.0067783892
-0.021902766 -0.056185357 0.010136008
-0.020944035 -0.056168094 0.012748122
-0.019943614 -0.056032058 0.014889389
-0.018909959 -0.055784382 0.015518785
-0.017807124 -0.055295806 0.015595406
-0.017066797 -0.055941168 0.015786141
-0.016212467 -0.0562668 0.015842885
-0.015256465 -0.056258213 0.015939772
-0.01403134 -0.055189937 0.01588881
-0.013482285 -0.056818198 0.01590389
-0.012847154 -0.058306318 0.016020238
-0.011208179 -0.055106882 0.016630173
-0.010330488 -0.055408981 0.019753128
-0.0091819037 -0.054173231 0.020532399
-0.0087091979 -0.057093631 0.02136597
-0.0075373128 -0.055587679 0.021719903
-0.0063946778 -0.053897996 0.021902502
-0.0055559166 -0.054633178 0.022422582
-0.0046803332 -0.055227932 0.02235949
-0.0037504621 -0.055319317 0.022349149
-0.0028549328 -0.056147009 0.022885323
-0.0019024654 -0.056122728 0.022471368
-0.00093059416 -0.054905053 0.022237599
0 -0.055128027 0.021423489
0.00093065505 -0.054908648 0.021192282
0.0018470407 -0.054487702 0.020528138
0.0028260634 -0.055579249 0.020688415
0.0037429102 -0.055207927 0.021261245
0.0047174837 -0.055666309 0.021278948
0.0056330157 -0.055391323 0.020505518
0.0065788319 -0.055450156 0.020135283
0.00735609 -0.054251164 0.020135283
0.0085941125 -0.056339186 0.020110667
0.009372483 -0.05529765 0.020448476
0.010453717 -0.056069933 0.020480752
0.01149821 -0.056532864 0.020282269
0.012419812 -0.056366842 0.020122975
0.01279969 -0.053941555 0.018769354
0.014125375 -0.055559807 0.018353879
0.014847497 -0.054750144 0.01781857
0.016361434 -0.056783799 0.016801655
0.017351555 -0.05687454 0.015754819
0.017406015 -0.054050259 0.014298111
0.019767679 -0.058314651 0.011990041
0.020038133 -0.056297615 0.010083705
0.02100558 -0.056333147 0.0070305765
0.02247897 -0.057663444 0.0055099428
-0.023311114 -0.056335188 0.0061348677
-0.022386441 -0.056452762 0.0094840527
-0.021053491 -0.055504661 0.012051523
-0.019802837 -0.05469355 0.014297485
-0.019070316 -0.055303913 0.01500833
-0.017827669 -0.054421309 0.015404552
-0.016995374 -0.054762874 0.015656859
-0.016207093 -0.055294789 0.015906781
-0.014903742 -0.054026064 0.016404301
-0.01458719 -0.056403801 0.01680541
-0.013379008 -0.055427317 0.016886711
-0.012627817 -0.056339487 0.017515033
-0.01131103 -0.05466998 0.019726932
-0.010230539 -0.053942841 0.020587772
-0.00917261 -0.053201139 0.020895571
-0.0086384034 -0.05566971 0.021409065
-0.0074236873 -0.053821735 0.021761209
-0.0065531586 -0.0542976 0.022065192
-0.0056237984 -0.054363385 0.022362053
-0.004681482 -0.054305192 0.02235949
-0.0036902276 -0.0535083 0.022640854
-0.0028002583 -0.054138325 0.022737443
-0.0019041467 -0.055220257 0.022626102
-0.00092363555 -0.053570859 0.022505552
0 -0.054051515 0.022335619
0.00093648839 -0.054316327 0.022070527
0.0018760049 -0.05440414 0.021713167
0.0027797916 -0.05374264 0.021715015
0.0037162974 -0.053886313 0.021707416
0.0047009732 -0.054531287 0.021702707
0.005837217 -0.056426432 0.021454573
0.0065224627 -0.054043259 0.020293772
0.0076556015 -0.055503108 0.020260155
0.0082733771 -0.05331732 0.020254314
0.0092730867 -0.053783901 0.02041766
0.010368518 -0.054670367 0.020436138
0.011498074 -0.055574022 0.020232737
0.012015223 -0.05360638 0.020025074
0.013425031 -0.055617984 0.01850605
0.014418272 -0.055750653 0.018156707
0.015069297 -0.0546262 0.017767042
0.016291931 -0.055584233 0.016663283
0.016678819 -0.053742867 0.01473406
0.018043853 -0.055081237 0.012876242
0.01932827 -0.056051981 0.011257827
0.01975685 -0.054566536 0.0094411671
0.021330476 -0.056234889 0.0064709783
-0.023545707 -0.055921052 0.0051319599
-0.022565136 -0.055922292 0.0081336796
-0.021165518 -0.054837935 0.011047661
-0.020428451 -0.055448651 0.013337731
-0.019060222 -0.054321636 0.014858842
-0.017911702 -0.053735107 0.015558273
-0.017130874 -0.054247767 0.015976995
-0.016029852 -0.053747151 0.016370714
-0.015376761 -0.054779708 0.01742202
-0.014388797 -0.054677427 0.017380148
-0.013492128 -0.054932237 0.01879245
-0.012569827 -0.055113859 0.018967897
-0.011292535 -0.053639542 0.020164728
-0.010263808 -0.053185187 0.020846218
-0.0093563152 -0.053330999 0.021194607
-0.008486961 -0.053750753 0.021698028
-0.0076564364 -0.054552108 0.022024006
-0.0066033336 -0.053770002 0.022256702
-0.0055904225 -0.053109016 0.022349149
-0.004645444 -0.05295806 0.022913307
-0.0037622692 -0.053612337 0.022947639
-0.0027943498 -0.053092647 0.022930056
-0.0018947293 -0.053999785 0.023048997
-0.00094487582 -0.053857923 0.02295509
0 -0.052458677 0.022820711
0.00093196065 -0.053121757 0.022646427
0.0018626854 -0.053086534 0.02253437
0.0027700432 -0.052630823 0.022244453
0.0037932154 -0.054053318 0.02220726
0.0046329559 -0.052815698 0.022232234
0.0056587681 -0.053758297 0.021714628
0.0065705026 -0.053502664 0.021345019
0.007624764 -0.054326445 0.020493209
0.0083581461 -0.052934926 0.02046141
0.0096084485 -0.054768156 0.020501792
0.010049448 -0.052074417 0.020739675
0.011376568 -0.0540387 0.020727366
0.012242917 -0.05368048 0.020282269
0.013256874 -0.053974416 0.019879013
0.013959608 -0.05304651 0.018455833
0.015057304 -0.053641647 0.017455369
0.015917068 -0.053368993 0.016328394
0.017152783 -0.054317143 0.014298111
0.018127911 -0.054383732 0.012412846
0.01881076 -0.053610664 0.0097281039
0.020755509 -0.056336384 0.0081980526
0.022098267 -0.057254605 0.0056475699
-0.021958878 -0.053465098 0.0063226521
-0.021357741 -0.054365158 0.0095474422
-0.020431824 -0.054484863 0.011766762
-0.01920579 -0.053776212 0.013744116
-0.018832808 -0.055507224 0.015385389
-0.017212611 -0.053550344 0.015523255
-0.016017012 -0.052761924 0.016247302
-0.015069566 -0.05274348 0.017343462
-0.013941864 -0.052049622 0.017905712
-0.013657186 -0.054628745 0.018950701
-0.012186386 -0.0524952 0.019549638
-0.011190654 -0.052223053 0.020517081
-0.010406223 -0.052977137 0.020940393
-0.0094309766 -0.05281347 0.021332175
-0.0084543936 -0.052605115 0.021942735
-0.0074949479 -0.052464634 0.022349149
-0.0067933449 -0.054346759 0.022506177
-0.0056366879 -0.052609086 0.0224033
-0.0047306041 -0.052982762 0.022964388
-0.0037197664 -0.052076731 0.022697598
-0.0028646407 -0.053473294 0.022825301
-0.0018643396 -0.052201509 0.022873163
-0.00095216249 -0.053321101 0.022916704
0 -0.053594213 0.022797883
0.00092718255 -0.051922221 0.022527307
0.0018410658 -0.051549841 0.021921724
0.0028352139 -0.052923992 0.021838754
0.0038233369 -0.053526714 0.021671683
0.0046276455 -0.051829632 0.021716028
0.0055522523 -0.051821023 0.021542668
0.006634715 -0.05307772 0.021202415
0.0074145407 -0.051901784 0.020594358
0.0082806135 -0.05152382 0.020260036
0.0092506893 -0.051803861 0.020642549
0.010283624 -0.052352995 0.020637929
0.011347044 -0.052952871 0.020594358
0.01222201 -0.052648656 0.020228118
0.013247155 -0.052988619 0.019937545
0.013957389 -0.052107587 0.018181473
0.014781246 -0.051734362 0.017304838
0.015936295 -0.052496031 0.016046584
0.017408719 -0.054160457 0.013724178
0.017874228 -0.052681934 0.011004627
0.019501526 -0.054604273 0.0093453825
0.020562151 -0.054832403 0.0066911578
-0.021434754 -0.053586885 0.006687969
-0.020146284 -0.05276408 0.0097947419
-0.019514361 -0.053664494 0.01243329
-0.018039007 -0.052218176 0.014706314
-0.017241664 -0.052682862 0.015403539
-0.016240032 -0.052541286 0.016725451
-0.014777803 -0.050798696 0.018063664
-0.015207289 -0.05576006 0.019304454
-0.013120553 -0.051545031 0.01990509
-0.012050598 -0.050983302 0.020665497
-0.011506007 -0.052735869 0.021194607
-0.010383109 -0.051915541 0.021659374
-0.0093411272 -0.051376197 0.022024363
-0.0085089402 -0.051999077 0.02235949
-0.0074688671 -0.051348463 0.022437453
-0.0064391838 -0.050593589 0.022437453
-0.0059768348 -0.054787651 0.02233699
-0.0046887165 -0.05157588 0.022171527
-0.0037474225 -0.051527061 0.022342354
-0.0028493805 -0.052238643 0.022825301
-0.0018622044 -0.05121062 0.022852302
-0.00094847666 -0.052166216 0.022911578
0 -0.052273624 0.022666514
0.00092191005 -0.050705053 0.022527307
0.0019369071 -0.053264946 0.02220726
0.002816295 -0.051632073 0.021883726
0.0037393798 -0.051416472 0.02227816
0.0047222269 -0.051944494 0.02213338
0.0056536836 -0.05182543 0.021953225
0.0065440941 -0.051417883 0.0214037
0.0075088311 -0.051623214 0.020853519
0.0084612416 -0.051707588 0.020639211
0.0094635636 -0.0520496 0.020766109
0.010419289 -0.052096445 0.020639718
0.011385415 -0.052183151 0.020639718
0.012248525 -0.051820684 0.020593405
0.013274863 -0.052151248 0.019998223
0.014537802 -0.053305276 0.019443303
0.015448015 -0.053102553 0.017767042
0.016322827 -0.052809145 0.016538084
0.01691296 -0.051678486 0.014019042
0.018388245 -0.053229131 0.010894299
0.019241722 -0.052914739 0.0093634427
0.020640805 -0.054059252 0.0063144565
-0.020787077 -0.053452484 0.0071033537
-0.019808263 -0.053482309 0.010010809
-0.018495152 -0.052565165 0.013218939
-0.017359374 -0.052078124 0.014757127
-0.016337758 -0.051896404 0.016488642
-0.015971603 -0.053904157 0.018243194
-0.014107062 -0.050785422 0.019728184
-0.013002374 -0.050152015 0.020661354
-0.012081776 -0.050185841 0.02119574
-0.011329432 -0.050982442 0.021690965
-0.010331783 -0.050719664 0.022057921
-0.0093462365 -0.050469678 0.0220204
-0.0084307538 -0.050584525 0.02233699
-0.0075314445 -0.050837249 0.022491574
-0.0066069555 -0.050967943 0.022484571
-0.0055324538 -0.049792085 0.022339761
-0.0047107721 -0.050876338 0.022336006
-0.0037872479 -0.051127847 0.022284687
-0.0027810847 -0.050059523 0.022848994
-0.0018971073 -0.051221896 0.022878915
-0.0009221154 -0.049794234 0.022873163
0 -0.050195847 0.022738785
0.00093832496 -0.050669547 0.022484809
0.0018676135 -0.050425567 0.022484809
0.0027843753 -0.050118756 0.022169262
0.0038074784 -0.051400959 0.022153646
0.0047083348 -0.050850015 0.022140503
0.0055613355 -0.050052017 0.022313654
0.0065741153 -0.050714601 0.021548063
0.0075382679 -0.050883308 0.021214634
0.0082821632 -0.049692981 0.020689905
0.0094583277 -0.051074971 0.020676762
0.010220551 -0.050173614 0.020676762
0.011407642 -0.051334389 0.020733744
0.012479249 -0.051836882 0.020754904
0.013165222 -0.050780144 0.020489424
0.013991969 -0.050371084 0.019811004
0.014949629 -0.050455 0.018700242
0.015965151 -0.050712831 0.017166734
0.017419642 -0.052258927 0.014666229
0.018546039 -0.052709796 0.011615038
0.019583073 -0.052874297 0.0094895661
0.020269508 -0.052121591 0.0066103935
-0.020492315 -0.051718701 0.0050169528
-0.019648021 -0.052067257 0.0081393719
-0.019011404 -0.05303181 0.010464251
-0.017221659 -0.050708219 0.013909996
-0.01643436 -0.051236536 0.015946835
-0.015775159 -0.052255213 0.01803109
-0.014174023 -0.050081547 0.019593894
-0.013336017 -0.050486349 0.020638227
-0.012203153 -0.049751319 0.021184504
-0.011205387 -0.049490459 0.021656722
-0.010461316 -0.050404526 0.022040427
-0.0094713103 -0.050197944 0.021983713
-0.0083864983 -0.049387161 0.022166163
-0.0075476766 -0.050003357 0.022438765
-0.0065934365 -0.049921732 0.022438765
-0.005567654 -0.049180944 0.022412866
-0.0046541914 -0.049334429 0.022236019
-0.0037973174 -0.050314456 0.022257537
-0.0027635852 -0.048823338 0.022676468
-0.0018597265 -0.049282752 0.022795051
-0.00094394985 -0.050029341 0.022830665
0 -0.050694875 0.022738785
0.00093864778 -0.049748331 0.022491872
0.00187094 -0.049579911 0.022491872
0.0027939342 -0.049359504 0.021754712
0.0038136493 -0.050530851 0.021546125
0.0045676585 -0.048417181 0.021920711
0.005600194 -0.049468379 0.022313654
0.0065610199 -0.049676292 0.021502405
0.0074345884 -0.049254145 0.021206051
0.0086381929 -0.050869357 0.02065292
0.0093695661 -0.049658701 0.020558625
0.010110841 -0.048715871 0.020633966
0.011306995 -0.049939226 0.02097556
0.012341727 -0.050316267 0.02055043
0.013162068 -0.049827829 0.020207584
0.014463605 -0.051104739 0.019979477
0.014855404 -0.049208529 0.019281417
0.015812263 -0.049297053 0.0180493
0.017346589 -0.051076069 0.016617835
0.01798548 -0.050170023 0.012345582
0.019931663 -0.052818909 0.0097295344
0.020306997 -0.051250994 0.0067582726
-0.020914475 -0.054377634 0.0062538087
-0.018752623 -0.051322971 0.009062618
-0.017436711 -0.050372723 0.012992233
-0.017320726 -0.052981045 0.015036345
-0.015170317 -0.049303532 0.017920971
-0.014203447 -0.049238618 0.019593894
-0.013274806 -0.049306419 0.020720512
-0.012207273 -0.048829094 0.021184504
-0.011383174 -0.049327087 0.021640658
-0.010441356 -0.049359139 0.0219163
-0.0092076156 -0.047879599 0.021946549
-0.0085363174 -0.049320944 0.021883249
-0.0074493056 -0.048420485 0.021983713
-0.0065820068 -0.048894908 0.021985024
-0.0056777829 -0.049207449 0.021983713
-0.0046499837 -0.04835983 0.021880984
-0.0037242356 -0.048415065 0.022214681
-0.0028469926 -0.049347874 0.02207154
-0.0018872981 -0.049069751 0.022102952
-0.00093037123 -0.048379302 0.022138566
0 -0.049415816 0.022519618
0.00091489044 -0.0475743 0.022380412
0.0018565805 -0.048271094 0.022202343
0.0027709315 -0.048029479 0.021299034
0.0036952258 -0.048037935 0.021292448
0.0047282958 -0.049174279 0.021639347
0.0056942366 -0.049350049 0.0220429
0.0064659789 -0.048032988 0.021411389
0.0076452764 -0.049694296 0.021008402
0.0082719903 -0.047793724 0.020804524
0.0093928408 -0.048842769 0.020954043
0.010406508 -0.049194399 0.020923197
0.011448968 -0.049612198 0.021038771
0.0118327 -0.0473308 0.020754635
0.013137513 -0.048796475 0.020413041
0.014111176 -0.048918743 0.020068169
0.015532791 -0.050481569 0.019784898
0.017143708 -0.052439578 0.019275963
0.016906267 -0.048840329 0.017676979
0.018508557 -0.050654996 0.014704764
0.018958041 -0.049290907 0.0097900033
0.02030091 -0.050268918 0.0066103935
-0.019245606 -0.051659256 0.0061300099
-0.018116409 -0.051329825 0.010433555
-0.016313622 -0.048940867 0.014887661
-0.014913172 -0.047535736 0.018039286
-0.01412772 -0.048034247 0.019636542
-0.013166598 -0.047964036 0.020665497
-0.012358622 -0.048483822 0.021511883
-0.011357671 -0.048270103 0.02186355
-0.010204846 -0.047313377 0.022040427
-0.0093734069 -0.047804374 0.021883249
-0.0086510042 -0.049022358 0.022137821
-0.0074820169 -0.047697857 0.02227807
-0.0065726675 -0.047886577 0.02235949
-0.0056694141 -0.04819002 0.022287369
-0.0046963338 -0.047902603 0.0222103
-0.0037474202 -0.047779609 0.022336006
-0.0028799276 -0.048958771 0.022048831
-0.0018682947 -0.047641516 0.021973789
-0.00094171416 -0.048027422 0.021926939
0 -0.047237996 0.021829903
0.00094110466 -0.047996338 0.021754712
0.0019099857 -0.048704635 0.022143215
0.0027802731 -0.047264643 0.021246493
0.0038325058 -0.04886445 0.021190554
0.0046938956 -0.047877736 0.020996839
0.005652593 -0.04804704 0.021976501
0.0066887038 -0.048731983 0.021410644
0.0075907344 -0.048390932 0.021100581
0.0083652698 -0.047403194 0.020610005
0.0094069205 -0.047975294 0.020809621
0.01024506 -0.047499821 0.02110818
0.011289679 -0.047981136 0.020969301
0.012413268 -0.048698206 0.020542681
0.013031 -0.047470074 0.020501435
0.014044578 -0.047751565 0.020108014
0.014694893 -0.046839971 0.019865364
0.015237988 -0.045713965 0.019298077
0.01834877 -0.051988181 0.018463939
0.02024045 -0.05432963 0.016613364
0.021038944 -0.053649306 0.0099059641
0.021341577 -0.051829543 0.0067308843
-0.018458486 -0.051273569 0.006550312
-0.015757686 -0.046346132 0.012843192
-0.015030118 -0.046969116 0.016316444
-0.013990675 -0.046635587 0.019007146
-0.0131649 -0.0470175 0.019883275
-0.012359431 -0.047536273 0.020998925
-0.011184402 -0.046601675 0.021659315
-0.010344261 -0.047019366 0.021879613
-0.0094111925 -0.047055963 0.021728486
-0.0084486371 -0.046936873 0.021687537
-0.0076136598 -0.047585376 0.021883249
-0.0066004032 -0.047145735 0.021923542
-0.0055458141 -0.046215117 0.022167653
-0.0047109649 -0.047109649 0.021979004
-0.0037247471 -0.046559341 0.021958232
-0.0028042279 -0.046737131 0.021903247
-0.0019188885 -0.047972213 0.021945685
-0.00094122731 -0.047061365 0.021931916
0 -0.047137711 0.022342414
0.00093659468 -0.046829734 0.021998316
0.0018502524 -0.046256311 0.022426367
0.0028069711 -0.046782851 0.021827489
0.0038103263 -0.047629077 0.021723121
0.0046430035 -0.046430036 0.021555424
0.0055681216 -0.046401013 0.021894515
0.0066285608 -0.047346864 0.021850765
0.0072752968 -0.045470607 0.021354228
0.0086351167 -0.047972873 0.020655483
0.009282005 -0.046410028 0.020835787
0.010237018 -0.046531901 0.021026701
0.01131674 -0.047153082 0.020885259
0.012067176 -0.046412218 0.020498455
0.013116287 -0.046843883 0.020392686
0.014133213 -0.04711071 0.020017892
0.014370363 -0.044907384 0.019825131
0.016052755 -0.047213983 0.019445151
0.01692722 -0.047020052 0.01867646
0.01724085 -0.045370657 0.01704067
0.02023061 -0.050576523 0.010444045
0.023927752 -0.056970838 0.0069334209
-0.015928423 -0.045911338 0.0082227886
-0.014998847 -0.045933969 0.01465854
-0.014151413 -0.046227951 0.018144637
-0.013044567 -0.045655984 0.019409567
-0.011991854 -0.045200065 0.020665497
-0.0112867 -0.046087362 0.021080792
-0.010224218 -0.045544248 0.021640658
-0.0093166828 -0.045651745 0.021567672
-0.0084134862 -0.045806754 0.021386981
-0.0074546714 -0.045659862 0.021720588
-0.0064983969 -0.045488779 0.021833897
-0.0057458263 -0.046924248 0.021762043
-0.0047054538 -0.046113446 0.021637857
-0.0037795864 -0.046299934 0.02207154
-0.002856514 -0.046656393 0.021972865
-0.0018523128 -0.045381665 0.022097588
-0.00094286812 -0.04620054 0.021857321
0 -0.046833936 0.02238065
0.00091866701 -0.045014683 0.022446811
0.0018708445 -0.045835689 0.022594154
0.0027912273 -0.045590043 0.022168368
0.0037322836 -0.045720473 0.022138804
0.0046740617 -0.045805804 0.021930486
0.0056704879 -0.046308987 0.021976531
0.0065043699 -0.045530587 0.022062898
0.0075390236 -0.046176519 0.022153348
0.0081891483 -0.044585362 0.021221459
0.0092167398 -0.045162022 0.021393985
0.010284547 -0.045812979 0.021277875
0.011135344 -0.045469321 0.021229625
0.012127297 -0.045710582 0.021098137
0.013225386 -0.046288852 0.020809621
0.014061864 -0.045935422 0.020450205
0.015071941 -0.046157818 0.020104289
0.015918069 -0.045881495 0.019837528
0.016417406 -0.044691827 0.019368589
0.018028591 -0.046494789 0.018446207
0.01847956 -0.045274921 0.011004627
0.019431744 -0.045340732 0.0067308843
-0.015293008 -0.045879021 0.010532439
-0.014439099 -0.046205118 0.01740098
-0.012926697 -0.044320103 0.018789798
-0.012292699 -0.045388427 0.019530386
-0.011551275 -0.0462051 0.020871609
-0.010293806 -0.044918425 0.020897299
-0.0095097609 -0.045646854 0.021372169
-0.0085395463 -0.045544244 0.021567672
-0.0076091518 -0.045654912 0.0217444
-0.0065333028 -0.04479979 0.02186808
-0.0055753309 -0.044602647 0.021900028
-0.0046304199 -0.04445203 0.021653682
-0.0037690576 -0.04522869 0.02207154
-0.0028041776 -0.044866841 0.021972865
-0.0018642378 -0.044741709 0.022572517
-0.00091566762 -0.043952048 0.022533625
0 -0.045081716 0.02238667
0.00094438129 -0.045330301 0.022292137
0.0019127643 -0.045906343 0.022313654
0.0027979591 -0.044767346 0.021804392
0.0037702767 -0.045243319 0.021967977
0.0046630325 -0.044765111 0.021858305
0.0056777382 -0.045421906 0.022001952
0.0065827975 -0.045139182 0.022062898
0.0075111422 -0.045066852 0.022217631
0.0084890807 -0.0452751 0.021393985
0.0093190055 -0.04473123 0.021622956
0.0103414 -0.04512611 0.021277875
0.011065005 -0.044260021 0.021362513
0.012074077 -0.044581208 0.021303058
0.013211587 -0.04529687 0.021260262
0.014031541 -0.044900931 0.020787537
0.015000618 -0.045001853 0.020472288
0.016031776 -0.045266189 0.020108014
0.017220717 -0.045921914 0.019817501
0.017877977 -0.04516542 0.018487245
0.018386772 -0.044128254 0.015646577
0.019538885 -0.044660307 0.007836014
-0.0140587 -0.044050593 0.013403773
-0.0130689 -0.043874163 0.018062621
-0.012263965 -0.044338949 0.018976182
-0.011207389 -0.043895602 0.020368636
-0.010418979 -0.044517454 0.020673454
-0.0094078155 -0.044216733 0.020800918
-0.0083589219 -0.043652147 0.020855069
-0.0076436424 -0.0449064 0.021257639
-0.0066769798 -0.044831149 0.021592021
-0.0056662997 -0.044386014 0.021330535
-0.0047617033 -0.044760011 0.021272928
-0.0037745992 -0.044351541 0.021310031
-0.0027825446 -0.043593198 0.021733552
-0.001880786 -0.044198472 0.021694541
-0.00093393942 -0.043895155 0.021925271
0 -0.043551438 0.022304147
0.00094954675 -0.044628698 0.022292137
0.0018681051 -0.043900471 0.022304803
0.0028279021 -0.044303801 0.021729589
0.00378289 -0.044448957 0.021934807
0.0046541067 -0.043748602 0.021934807
0.0056344792 -0.044136755 0.021999329
0.0065395827 -0.043908626 0.021934807
0.0073413104 -0.043130197 0.022060543
0.0083265565 -0.043483131 0.021362513
0.0094693732 -0.044506054 0.021276146
0.010214514 -0.043643832 0.021061569
0.011251996 -0.044070318 0.021098137
0.012011271 -0.043425363 0.021009982
0.013000661 -0.043645073 0.021043867
0.014123583 -0.044253893 0.020756066
0.014770317 -0.043387808 0.020542353
0.015795397 -0.043669626 0.02052635
0.016917853 -0.044174396 0.020111054
0.01778625 -0.043997563 0.019028932
0.019635882 -0.046144322 0.0169819
0.019686827 -0.044060998 0.0099940598
-0.014271292 -0.043765295 0.0060926974
-0.013309988 -0.043732818 0.014362931
-0.012113158 -0.042861942 0.017925203
-0.011290479 -0.043280173 0.019464999
-0.010371133 -0.043370191 0.020179033
-0.0093009258 -0.042784259 0.020232499
-0.008472817 -0.043305509 0.020477265
-0.0075088735 -0.043176021 0.020819098
-0.0064617591 -0.04246299 0.021564245
-0.0056120302 -0.043025564 0.02154693
-0.0046530766 -0.042808305 0.021342367
-0.0037552433 -0.043185297 0.021364033
-0.0028494166 -0.043691054 0.021523327
-0.0018776921 -0.043186918 0.021632284
-0.00092653919 -0.042620804 0.021594673
0 -0.043184653 0.021829754
0.00093330664 -0.042932108 0.021685719
0.0018465983 -0.042471763 0.021882653
0.0028730107 -0.044052828 0.021347612
0.0037586573 -0.043224558 0.021379173
0.0046527716 -0.0428055 0.02159822
0.0055911806 -0.04286572 0.021688044
0.0064741336 -0.042544309 0.021720052
0.0075239907 -0.043262947 0.021932185
0.0084689772 -0.043285884 0.02148515
0.0093947882 -0.043216027 0.021387964
0.010220963 -0.042742204 0.021130532
0.011201262 -0.042938169 0.021276146
0.011999876 -0.042461101 0.021251053
0.013295486 -0.043685168 0.021321237
0.014031853 -0.043031015 0.021044165
0.015307988 -0.044010464 0.020918638
0.015963795 -0.043196149 0.020642012
0.016760666 -0.042832814 0.020119995
0.017876068 -0.043278899 0.019273758
0.018672138 -0.042945918 0.017912954
0.020722 -0.045391046 0.013460129
0.02109112 -0.044099614 0.0051718354
-0.013579161 -0.043647304 0.0059337616
-0.012298157 -0.042570543 0.015392631
-0.011245525 -0.042170718 0.017848045
-0.010136169 -0.041466147 0.018255323
-0.0094700819 -0.042615369 0.01958847
-0.0084500676 -0.042250335 0.020322144
-0.0076729883 -0.043160558 0.020596594
-0.0066138972 -0.042517908 0.021117449
-0.0057000113 -0.042750087 0.021347374
-0.0046471395 -0.041824255 0.021223664
-0.0037631763 -0.042335734 0.021380842
-0.0028343331 -0.042514995 0.021604449
-0.0018671479 -0.042010825 0.0217264
-0.00095053244 -0.042773958 0.021737248
0 -0.04204702 0.021685719
0.00093650923 -0.042142916 0.022218972
0.0019108024 -0.042993058 0.021978468
0.0027306245 -0.040959366 0.021521211
0.003721962 -0.041872073 0.021642953
0.0046571991 -0.041914791 0.021688044
0.0056107598 -0.0420807 0.021900177
0.0065067876 -0.041829348 0.021859378
0.0074545122 -0.041931629 0.021924615
0.0083666807 -0.041833401 0.021859378
0.0093280636 -0.041976288 0.021727294
0.010429146 -0.042664688 0.021130532
0.011332553 -0.042497072 0.021241874
0.012301325 -0.04258151 0.021241874
0.013196986 -0.042418886 0.021286964
0.013812993 -0.041438978 0.021313041
0.01510674 -0.042487707 0.021061093
0.015744802 -0.041677415 0.021002233
0.016765626 -0.041914068 0.020508647
0.02080309 -0.049270477 0.019473374
0.020252386 -0.04556787 0.018487245
0.021479657 -0.046027835 0.015646577
0.020928444 -0.042808179 0.0065255463
-0.0113219 -0.041513637 0.013225794
-0.010493801 -0.041975204 0.016547203
-0.0094398707 -0.041535433 0.017691076
-0.008467312 -0.041395746 0.019171894
-0.0076185828 -0.041902203 0.019980013
-0.0065504988 -0.041174565 0.020526826
-0.0056207939 -0.041219153 0.02059561
-0.004731101 -0.041633692 0.020795763
-0.0037320657 -0.041052725 0.021318197
-0.0028296569 -0.041501634 0.021353751
-0.0018998812 -0.041797385 0.021594673
-0.00092915789 -0.040882945 0.0217264
0 -0.041695964 0.021607816
0.00094123045 -0.041414142 0.021685719
0.0018278124 -0.040211875 0.021843672
0.0028510578 -0.041815516 0.021386415
0.0037891334 -0.041680466 0.021459579
0.0046000201 -0.040480178 0.021408796
0.0055582426 -0.040760446 0.021562546
0.006723329 -0.042260926 0.02155742
0.007386446 -0.040625453 0.021859378
0.0087246122 -0.042653661 0.021693259
0.0092058089 -0.040505558 0.021571517
0.010365746 -0.041462984 0.021177858
0.011356275 -0.041639674 0.021228403
0.012069548 -0.040850777 0.021256268
0.012975553 -0.04078031 0.021328241
0.01406563 -0.041259181 0.021342993
0.014781588 -0.040649366 0.021140128
0.015757671 -0.040784556 0.021140337
0.0164613 -0.040238734 0.020570785
0.019857109 -0.045984883 0.019649178
0.021131085 -0.046488386 0.018867433
0.022654071 -0.047465675 0.015819132
0.020347744 -0.040695488 0.0069118142
-0.01101967 -0.043076891 0.0064734817
-0.009326702 -0.040104818 0.014327049
-0.008539916 -0.040801819 0.017193377
-0.0076089962 -0.040898353 0.018233925
-0.0066005723 -0.040546373 0.019871145
-0.0057028565 -0.040870473 0.020043194
-0.0046815146 -0.040261026 0.020459622
-0.0037397079 -0.040201858 0.020986229
-0.0028569733 -0.040949952 0.02123183
-0.0018716312 -0.040240072 0.021101922
-0.00092942215 -0.039965153 0.02147755
0 -0.040203869 0.021343917
0.0009281417 -0.039910093 0.021497071
0.0019111418 -0.04108955 0.021412641
0.0027880138 -0.039961532 0.02124238
0.0036916628 -0.039685376 0.021243781
0.0047626034 -0.04095839 0.021274
0.0057109045 -0.040928148 0.021274
0.0065301582 -0.040113829 0.021052748
0.0075046299 -0.040337384 0.021202803
0.0084131826 -0.040196318 0.021052748
0.0092230784 -0.039659236 0.021340519
0.010396813 -0.04064209 0.021126747
0.011262908 -0.040358752 0.021061093
0.012021486 -0.039763376 0.021047026
0.01344846 -0.041305985 0.021084696
0.013949863 -0.039989606 0.021214992
0.015211797 -0.040881705 0.021043867
0.015905071 -0.040230475 0.02088967
0.016686425 -0.039862018 0.020203471
0.017963205 -0.040653571 0.019460768
0.018506847 -0.039789725 0.017912954
0.019254528 -0.039425936 0.014616936
0.020403104 -0.039878793 0.0058943927
-0.0087457867 -0.04081367 0.0090540946
-0.007453538 -0.039131075 0.016728759
-0.0065848846 -0.039509308 0.017893851
-0.0056652674 -0.039656874 0.018928349
-0.0047236574 -0.039678719 0.019612044
-0.0037665935 -0.039549232 0.020335436
-0.0027893379 -0.039050728 0.020830423
-0.0018760506 -0.039397061 0.020822346
-0.00094522908 -0.039699621 0.021056056
0 -0.039405242 0.021312773
0.000940595 -0.03950499 0.021264434
0.0018665387 -0.039197311 0.021218836
0.0027657412 -0.038720377 0.021360546
0.0037370834 -0.039239377 0.021429062
0.0045977542 -0.038621135 0.021516442
0.0055496721 -0.038847703 0.021516442
0.0065511712 -0.039307028 0.021256268
0.0075018206 -0.039384559 0.021190733
0.0084906714 -0.039623134 0.021270037
0.0094633875 -0.039746229 0.021514028
0.010337303 -0.039469704 0.021401703
0.01128722 -0.039505269 0.021279812
0.012220529 -0.039481707 0.021246552
0.013353973 -0.040061917 0.021200091
0.014084437 -0.039436422 0.021222353
0.015139899 -0.039742235 0.020702153
0.015714765 -0.038824711 0.020849556
0.016791943 -0.039181199 0.019825459
0.017719312 -0.039169006 0.01846391
0.018620409 -0.03910286 0.016882807
0.019775262 -0.039550524 0.012601614
0.021035627 -0.040158924 0.0056634545
-0.0067257783 -0.039393846 0.014212757
-0.0056810505 -0.038820509 0.017492443
-0.0047264448 -0.038756847 0.018562078
-0.0037590682 -0.03853045 0.019599885
-0.002831436 -0.038696293 0.020080298
-0.0018786291 -0.038511898 0.020628989
-0.00094170135 -0.038609758 0.020774961
0 -0.037972379 0.021125346
0.0009534086 -0.039089754 0.021299958
0.001876312 -0.038464397 0.02121383
0.0028166194 -0.038493797 0.021269858
0.0037844328 -0.038790435 0.021336824
0.0046834606 -0.038404375 0.021442056
0.0056181308 -0.038390558 0.021455795
0.0066758473 -0.039101392 0.021442056
0.0075413948 -0.038649648 0.021403015
0.008400226 -0.038267694 0.021416754
0.0093238866 -0.038227934 0.021455795
0.010283764 -0.038330391 0.021429479
0.011304148 -0.038622502 0.02110225
0.012252334 -0.038641978 0.021129608
0.012971041 -0.037986618 0.021030098
0.014282903 -0.039039936 0.021093875
0.014828096 -0.037996996 0.020360291
0.016125027 -0.038889773 0.019925684
0.016942313 -0.038590826 0.019460768
0.017611856 -0.038004529 0.017383546
0.018764306 -0.038466826 0.015149742
0.020040143 -0.039125994 0.0094911158
0.021567581 -0.040194128 0.0052409768
-0.0060267611 -0.040178407 0.0075217187
-0.0046938406 -0.037550725 0.016713262
-0.0037300573 -0.037300572 0.017567486
-0.0028208352 -0.037611134 0.018906474
-0.0018780252 -0.037560504 0.019421995
-0.00093139953 -0.03725598 0.02006197
0 -0.038009755 0.020696789
0.00093176536 -0.037270613 0.020784467
0.0018744888 -0.037489776 0.021143615
0.0028367494 -0.037823323 0.021343946
0.0037442029 -0.037442029 0.021336108
0.0046737199 -0.037389759 0.021531522
0.0056927744 -0.037951827 0.021583617
0.0064223697 -0.036699254 0.021621406
0.0076111611 -0.038055804 0.02166298
0.0084424969 -0.037522208 0.02166298
0.0093281828 -0.037312731 0.021654129
0.010282453 -0.037390739 0.021437377
0.01107453 -0.036915097 0.02146408
0.012310207 -0.03787756 0.021485418
0.013270533 -0.037915807 0.021091014
0.01405445 -0.037478533 0.020697057
0.015116692 -0.037791729 0.019979984
0.015927268 -0.037475925 0.019670486
0.016863421 -0.037474271 0.019070566
0.017812112 -0.037499182 0.016914219
0.018679103 -0.037358206 0.013955235
0.019958366 -0.038015936 0.007040441
-0.0038858908 -0.037887435 0.0089407861
-0.0028151558 -0.036597025 0.016799033
-0.0018753365 -0.036569063 0.018628687
-0.00094164041 -0.036723975 0.019081324
0 -0.036184277 0.020438701
0.00094170135 -0.036726352 0.020673603
0.0018917996 -0.036890093 0.020600349
0.0027794861 -0.036133319 0.020893484
0.0037537029 -0.036598604 0.021102667
0.0046862043 -0.036552392 0.021383733
0.0054977788 -0.035735562 0.021463424
0.006749677 -0.037605345 0.021560878
0.0075550503 -0.036830869 0.021560878
0.0085280584 -0.036954921 0.02174598
0.0093714325 -0.036548588 0.021680117
0.010179169 -0.036089782 0.021665186
0.011201023 -0.036403324 0.021471649
0.012490805 -0.037472416 0.021485418
0.013072564 -0.03641643 0.021400869
0.014050751 -0.036531951 0.020841211
0.015152713 -0.036934741 0.02011615
0.015551278 -0.035676461 0.019678116
0.016937928 -0.036698844 0.01813072
0.017611856 -0.036150649 0.015106976
0.018651033 -0.036369514 0.011247396
0.020724261 -0.038487911 0.0059863031
-0.0029825007 -0.037778344 0.0054107606
-0.0019042207 -0.036180191 0.015137017
-0.00094193645 -0.035793584 0.018520951
0 -0.035733454 0.019097686
0.00093474146 -0.035520174 0.020079792
0.0018669046 -0.035471186 0.020195007
0.0028286655 -0.035829764 0.020320237
0.0037839096 -0.03594714 0.020390123
0.0046416526 -0.035276558 0.021102667
0.0056568538 -0.035826743 0.021223813
0.0064688064 -0.035116378 0.021415859
0.0074696317 -0.035480753 0.021413475
0.0085400483 -0.036057983 0.02152586
0.0093103889 -0.035379477 0.021531969
0.010413737 -0.03597473 0.021478295
0.011498585 -0.036412187 0.021343946
0.012092183 -0.035346381 0.021010876
0.013120216 -0.035612017 0.020872205
0.014352233 -0.03635899 0.020457804
0.014483848 -0.034399137 0.019673884
0.016094843 -0.035976704 0.019081265
0.016964084 -0.035813063 0.01728642
0.017420752 -0.034841504 0.014264971
0.019622803 -0.037283324 0.0093827844
0.020293141 -0.03672092 0.0055947602
-0.00098057906 -0.036281426 0.0073182583
0 -0.034819629 0.0171507
0.00093881215 -0.034736048 0.018760085
0.0018940693 -0.035040282 0.019197077
0.0028439863 -0.035075832 0.01978144
0.003741171 -0.034605831 0.019974083
0.0046873065 -0.03468607 0.020483643
0.0056977356 -0.035136037 0.020772934
0.0065113809 -0.034417298 0.021145672
0.0075607141 -0.034968305 0.021143287
0.0085212616 -0.035031855 0.021526575
0.0092492895 -0.034222368 0.021638483
0.010443745 -0.035128962 0.021413475
0.011151742 -0.034384537 0.020957917
0.012184688 -0.034679495 0.020712197
0.01338277 -0.035368752 0.020355195
0.013874917 -0.034224797 0.020149171
0.01544575 -0.035718296 0.019183666
0.015970316 -0.034758922 0.018109828
0.016538408 -0.033995617 0.016571969
0.018496675 -0.036019843 0.012064487
0.019954998 -0.036916748 0.0065388381
0 -0.035493348 0.0050622225
0.00097257021 -0.035012528 0.0094127357
0.0018647615 -0.033565704 0.017190993
0.0028091706 -0.033710048 0.018296182
0.0037859629 -0.034073666 0.018555492
0.0047054943 -0.033879559 0.019004852
0.005600675 -0.033604052 0.019714773
0.0065846378 -0.033863854 0.020398796
0.007399125 -0.033296064 0.020772934
0.0084190341 -0.033676136 0.021502823
0.0094544999 -0.0340362 0.021835178
0.010384518 -0.033985697 0.021470457
0.011173439 -0.033520319 0.021263838
0.012207394 -0.033805091 0.020712197
0.013067687 -0.033602621 0.020448506
0.01398703 -0.033568874 0.019649625
0.015052577 -0.033868298 0.018408775
0.015797023 -0.033452518 0.017130822
0.017191499 -0.034382999 0.013767332
0.018493956 -0.03504118 0.0091724694
0.019298099 -0.034736577 0.0053011477
0.0019899416 -0.034823976 0.0055511594
0.0028198832 -0.032898638 0.016280293
0.0037443982 -0.032763485 0.017239064
0.0047507822 -0.033255473 0.018152356
0.0056177098 -0.032769974 0.018568665
0.0065673832 -0.032836918 0.018996149
0.0074535371 -0.032609224 0.02027899
0.0083908187 -0.032630961 0.020893484
0.0096267285 -0.033693548 0.021084905
0.010058399 -0.032003999 0.020924181
0.011357417 -0.033125799 0.020865619
0.012252209 -0.032986715 0.01999867
0.013146656 -0.032866638 0.019719064
0.014156627 -0.033032127 0.01880458
0.01492641 -0.032651521 0.017272651
0.015908422 -0.032752633 0.014767736
0.017457433 -0.033945009 0.010423303
0.018233079 -0.033587255 0.0061850548
0.0038779064 -0.032962203 0.0077292919
0.0046981899 -0.031947691 0.016786397
0.00560252 -0.031747613 0.017520398
0.006499737 -0.031570151 0.018122256
