ply
format ascii 1.0
comment PCL generated
element vertex 792
property float x
property float y
property float z
element camera 1
property float view_px
property float view_py
property float view_pz
property float x_axisx
property float x_axisy
property float x_axisz
property float y_axisx
property float y_axisy
property float y_axisz
property float z_axisx
property float z_axisy
property float z_axisz
property float focal
property float scalex
property float scaley
property float centerx
property float centery
property int viewportx
property int viewporty
property float k1
property float k2
end_header
-0.0071896017 -0.0657335 0.02313599
-0.0061020749 -0.065088801 0.023731709
-0.0051481472 -0.065896288 0.023800015
-0.0040769675 -0.06523148 0.023150891
-0.01010283 -0.063647829 0.024053663
-0.0091017447 -0.063712217 0.023488402
-0.0081843231 -0.064451545 0.024122119
-0.0071923849 -0.064731464 0.023800015
-0.0061875498 -0.064969279 0.024041414
-0.0051326733 -0.064671688 0.024639308
-0.0041161296 -0.064829044 0.02465409
-0.0030557222 -0.064170167 0.025018841
-0.0020487439 -0.064535432 0.025456816
-0.0010216106 -0.064361468 0.025599837
0 -0.064350277 0.02529785
0.0010262486 -0.064653657 0.024202496
-0.013430302 -0.064052209 0.025183171
-0.01226299 -0.063358784 0.024747163
-0.011205421 -0.063157834 0.025311351
-0.010249443 -0.063546553 0.026367188
-0.0092017213 -0.063389637 0.024696171
-0.0082457596 -0.063904643 0.024521887
-0.007163919 -0.063451856 0.024611533
-0.0061649657 -0.063704647 0.024656653
-0.005175903 -0.064181201 0.025158823
-0.0040644356 -0.062998749 0.025500745
-0.0030655642 -0.063354999 0.025569022
-0.0020695301 -0.064155437 0.025977522
-0.0010169387 -0.063050203 0.026020646
0 -0.063412778 0.02595529
0.0010173605 -0.063076355 0.024643868
0.0020259053 -0.06280306 0.024089098
0.0030473073 -0.062977687 0.023483813
-0.016188337 -0.061718032 0.025627434
-0.015176193 -0.061716519 0.026211619
-0.01430992 -0.062350366 0.026300192
-0.013245017 -0.062149696 0.026508272
-0.012256747 -0.06230513 0.026338905
-0.011291818 -0.062618263 0.026068091
-0.010288241 -0.062758274 0.02614364
-0.0091764294 -0.0621958 0.025685906
-0.008256088 -0.062952667 0.024604529
-0.0071712486 -0.062492311 0.024546206
-0.0062142927 -0.063178644 0.02464807
-0.0051220935 -0.062489543 0.024263173
-0.0041158702 -0.062767014 0.024315685
-0.0030764807 -0.062555104 0.02562207
-0.00204921 -0.062500902 0.026037633
-0.0010282914 -0.062725775 0.025723159
0 -0.062556826 0.02595529
0.0010133423 -0.06181388 0.025180638
0.0020750088 -0.063287772 0.024883121
0.0030772036 -0.062569812 0.025281131
0.0041093603 -0.062667742 0.023645461
-0.019249767 -0.060788736 0.026327252
-0.018475065 -0.061583553 0.027165711
-0.017365526 -0.061290089 0.026518881
-0.016461357 -0.061730094 0.027131706
-0.01544754 -0.061790161 0.026683867
-0.014175992 -0.060754254 0.027145356
-0.013321209 -0.0614825 0.026937276
-0.012316245 -0.061581224 0.026781499
-0.011199844 -0.06109006 0.025329262
-0.010156408 -0.060938448 0.025670826
-0.0091890441 -0.061260298 0.024744689
-0.0082933828 -0.062200375 0.024358541
-0.0071232547 -0.061056469 0.024448186
-0.0062299753 -0.062299751 0.023157924
-0.005125796 -0.061509553 0.024161637
-0.0041260747 -0.061891124 0.022576898
-0.0030759899 -0.061519798 0.024224818
-0.0020462289 -0.061386865 0.024502933
-0.0010266816 -0.061600897 0.024959326
0 -0.061720479 0.024959326
0.0010190838 -0.061145026 0.024863601
0.0020544298 -0.06163289 0.025663584
0.003047046 -0.060940921 0.02665627
0.0040416578 -0.060624864 0.0257034
0.005073037 -0.060876444 0.027730554
0.0060660951 -0.060660955 0.025739968
-0.019435355 -0.060351893 0.027099997
-0.018405842 -0.060330264 0.027761221
-0.017313432 -0.060087793 0.026990145
-0.016232021 -0.05985558 0.026761979
-0.015244279 -0.059960835 0.026601762
-0.014403122 -0.060698874 0.026307046
-0.013246104 -0.060116936 0.025695384
-0.012123193 -0.059605695 0.025577277
-0.011388316 -0.061082788 0.025095075
-0.010235483 -0.060389351 0.024777204
-0.0092363507 -0.060549416 0.024590969
-0.0083832471 -0.061826449 0.023297936
-0.0071891756 -0.06059448 0.023624033
-0.0061696335 -0.060668062 0.023479998
-0.0052151228 -0.06153845 0.02319783
-0.0041266112 -0.060867514 0.022263646
-0.0030946624 -0.060861699 0.023522764
-0.0020803919 -0.061371565 0.024048835
-0.0010251852 -0.060485929 0.024071515
0 -0.060560852 0.024655432
0.0010379736 -0.061240442 0.024599761
0.0020450433 -0.060328774 0.024604559
0.0030742136 -0.060459536 0.025374293
0.0041147885 -0.06069313 0.024844974
0.005026326 -0.059310649 0.026207566
0.006071921 -0.059707228 0.027417302
0.0070984033 -0.059829403 0.028697252
0.0081564775 -0.060154021 0.027696401
-0.021333009 -0.058919739 0.028397024
-0.020226877 -0.058657948 0.028871268
-0.01930601 -0.058934137 0.028438866
-0.018267011 -0.058860376 0.027290136
-0.017338069 -0.059153415 0.026910722
-0.016334301 -0.059211843 0.027319193
-0.015450538 -0.059742082 0.026353985
-0.014289224 -0.059198212 0.026207209
-0.013325329 -0.059451472 0.025531769
-0.012493055 -0.060383104 0.025329262
-0.011312764 -0.059649125 0.024600714
-0.010341698 -0.059981853 0.023064643
-0.0092570307 -0.059656426 0.023803055
-0.0082482062 -0.0597995 0.0226987
-0.0071917484 -0.059588775 0.023553878
-0.006203338 -0.059965603 0.022726923
-0.0051171267 -0.059358675 0.021915168
-0.0041575348 -0.060284257 0.022029191
-0.0031098907 -0.060124554 0.023305327
-0.0020734128 -0.060128972 0.023158401
-0.0010307418 -0.059783027 0.021868795
0 -0.060080711 0.02453047
0.0010341814 -0.059982527 0.024299413
0.0020399822 -0.059159487 0.024674445
0.0030662627 -0.059281081 0.024431109
0.0040491614 -0.058712844 0.025544137
0.0050592008 -0.05868673 0.027183026
0.0061363629 -0.059318177 0.028212011
0.0070798262 -0.05866142 0.029078871
0.008173394 -0.059257109 0.029402733
0.0091408361 -0.058907617 0.029217035
-0.021232896 -0.057632141 0.029067129
-0.02048721 -0.05838855 0.029499531
-0.019242907 -0.057728719 0.028476447
-0.018452542 -0.058433048 0.027240485
-0.017481558 -0.05861463 0.027200818
-0.016251255 -0.057895094 0.026866525
-0.015285858 -0.058086257 0.026597083
-0.014333102 -0.058356203 0.026246876
-0.013281387 -0.058233775 0.025531769
-0.012404046 -0.058919217 0.025124848
-0.011264971 -0.058373034 0.024138182
-0.010303698 -0.058731083 0.0226987
-0.0093140621 -0.058989063 0.022851914
-0.0082660783 -0.058895804 0.021707684
-0.0072893426 -0.059356075 0.022478521
-0.006234495 -0.059227701 0.021829575
-0.0051780823 -0.059030138 0.021382272
-0.0041466849 -0.059090257 0.021303982
-0.0031124346 -0.059136257 0.021314323
-0.0020689515 -0.05896512 0.0213826
-0.0010265774 -0.058514912 0.021191657
0 -0.059358101 0.021694511
0.0010364774 -0.059079207 0.022948205
0.0020379238 -0.05808083 0.023796588
0.0030695158 -0.058320798 0.024216563
0.0040967041 -0.058378033 0.024589151
0.005127681 -0.058455564 0.026500463
0.0061120866 -0.058064822 0.02714771
0.0071148514 -0.057935219 0.028958261
0.0081130201 -0.057805266 0.029169917
0.0091369934 -0.057867624 0.029403597
0.010179384 -0.058022488 0.028867632
0.011135535 -0.057702318 0.028867632
-0.022423847 -0.057078883 0.028795868
-0.021369401 -0.056985069 0.029508263
-0.020253034 -0.0567085 0.0296188
-0.019309152 -0.056911185 0.029173374
-0.0183449 -0.057073023 0.02700004
-0.017419904 -0.057383213 0.026866525
-0.016283907 -0.056993671 0.026389867
-0.015363558 -0.057357285 0.026064306
-0.014261173 -0.057044692 0.026008695
-0.013355813 -0.057532731 0.02498132
-0.012159896 -0.056746181 0.024806291
-0.011339919 -0.057730492 0.02363801
-0.010335034 -0.057876188 0.023026705
-0.0092363264 -0.057470478 0.023026705
-0.0083075799 -0.058153056 0.022408366
-0.0071557751 -0.057246201 0.022106081
-0.0062029609 -0.057894301 0.02130425
-0.005140929 -0.057578407 0.020340204
-0.0041502942 -0.05810412 0.020317942
-0.0031207583 -0.058254156 0.020858824
-0.00205276 -0.05747728 0.020699978
-0.0010346021 -0.057937711 0.020858824
0 -0.057319049 0.021526307
0.001039916 -0.058235295 0.02156502
0.0020550545 -0.057541527 0.023458719
0.0031198524 -0.058237247 0.023711026
0.0040611681 -0.056856349 0.024411261
0.0051324754 -0.057483729 0.025372624
0.0060953638 -0.056890063 0.027165025
0.0070966049 -0.056772839 0.027865827
0.0081911767 -0.057338238 0.028775334
0.0091363518 -0.056848411 0.02993992
0.010158759 -0.05688905 0.030130029
0.011044434 -0.056226213 0.029916286
0.012248987 -0.057161942 0.029383808
-0.023368776 -0.055881858 0.028397024
-0.022511076 -0.056277692 0.029067129
-0.021301912 -0.055790722 0.029792666
-0.020460218 -0.0562656 0.029453367
-0.019245775 -0.055711456 0.027873755
-0.018224042 -0.055684574 0.02644819
-0.017343743 -0.056112111 0.026082098
-0.016367666 -0.056263853 0.025836229
-0.015412243 -0.056511559 0.025651038
-0.014280389 -0.056101531 0.024531603
-0.013356429 -0.056507971 0.024350703
-0.012420528 -0.05692742 0.02433008
-0.011230855 -0.056154277 0.022009015
-0.010252194 -0.056387067 0.02103278
-0.0093856789 -0.057356931 0.020378351
-0.0083253831 -0.05723701 0.01990062
-0.0072524911 -0.056983862 0.019263685
-0.006272479 -0.057497725 0.020425141
-0.005203383 -0.057237215 0.019963056
-0.0041809427 -0.057487961 0.019963056
-0.0031375864 -0.05752242 0.020702899
-0.0020882527 -0.057426952 0.020665348
-0.0010354978 -0.05695238 0.020108193
0 -0.056872819 0.021167964
0.0010472772 -0.057600245 0.02145955
0.0020549085 -0.056509983 0.02116999
0.0031165651 -0.057137027 0.023961157
0.0040743896 -0.05602286 0.023803294
0.0051357318 -0.056493055 0.024899155
0.0061652074 -0.056514405 0.026725471
0.0071298829 -0.056020509 0.028294265
0.0081451638 -0.055998005 0.028917491
0.0090769539 -0.055470277 0.030300826
0.010149532 -0.055822432 0.030330688
0.011079409 -0.055397049 0.03047055
0.01220678 -0.055947743 0.02982533
0.013209655 -0.055887002 0.028841048
-0.023321064 -0.054753803 0.029465973
-0.022269025 -0.054660335 0.030063897
-0.0212672 -0.054687083 0.029976189
-0.020438075 -0.055182807 0.029067129
-0.019276282 -0.054785226 0.027957737
-0.018483305 -0.055449922 0.026592731
-0.017428564 -0.055361323 0.02621758
-0.016377961 -0.055275623 0.025801748
-0.015482608 -0.055737391 0.025238067
-0.014378163 -0.055458631 0.025036037
-0.013461392 -0.055916555 0.023513883
-0.012323929 -0.055457685 0.02323398
-0.011459194 -0.05625423 0.022300154
-0.01031301 -0.055690255 0.020484298
-0.0093953414 -0.05637205 0.01952678
-0.0082551846 -0.055722501 0.019263685
-0.00731751 -0.056449365 0.018957704
-0.0062078717 -0.05587085 0.019775808
-0.0051443982 -0.055559505 0.019238263
-0.0041661477 -0.056242991 0.019117564
-0.0031353729 -0.056436714 0.019497663
-0.0020742072 -0.056003593 0.019477546
-0.0010412221 -0.056225996 0.020274371
0 -0.056111965 0.020681679
0.0010423098 -0.056284733 0.020681679
0.0020690104 -0.055863284 0.020981073
0.003085159 -0.055532865 0.021640927
0.0040859035 -0.055159703 0.023958236
0.0051667546 -0.055800952 0.024844944
0.0061324667 -0.055192202 0.026611894
0.0071783666 -0.055375971 0.02818498
0.0081619034 -0.055092853 0.028967559
0.0091805747 -0.055083454 0.030329347
0.010115473 -0.054623555 0.030329347
0.011158195 -0.054776601 0.030533493
0.012184766 -0.054831449 0.0299263
0.013080594 -0.054334778 0.029741496
-0.023417534 -0.053962141 0.030401707
-0.022301549 -0.053726457 0.03058055
-0.021442767 -0.054117456 0.030767053
-0.02029505 -0.053781886 0.029979378
-0.019462716 -0.054290731 0.028147966
-0.018449148 -0.054322496 0.027232885
-0.017386025 -0.054203488 0.026412904
-0.016430687 -0.054426651 0.025767058
-0.015394362 -0.054393407 0.024908483
-0.01452243 -0.054977767 0.024642318
-0.013400621 -0.054633297 0.022708952
-0.012387428 -0.054711141 0.021773964
-0.011411778 -0.054984018 0.020403087
-0.010272282 -0.054443095 0.019311696
-0.0093391426 -0.054997172 0.019143254
-0.0083004432 -0.054990437 0.018522531
-0.0072678756 -0.0550282 0.019594967
-0.0062581426 -0.055280261 0.018713534
-0.0052636489 -0.055794682 0.01790306
-0.0041953204 -0.055587996 0.01790306
-0.0031182694 -0.055089425 0.01843515
-0.0020889123 -0.055356175 0.01843515
-0.0010282659 -0.054498091 0.019708633
0 -0.054834645 0.019886613
0.001043015 -0.055279795 0.020833462
0.0020883079 -0.05534016 0.020868421
0.0031043065 -0.054842748 0.022266477
0.0040790252 -0.054047085 0.022829503
0.0050947121 -0.05400395 0.024559885
0.0061932295 -0.05470686 0.026549518
0.0071904543 -0.054442011 0.027869433
0.0082255034 -0.05449396 0.027333558
0.0091868527 -0.054100357 0.028256744
0.010104896 -0.053555947 0.030423105
0.011118657 -0.053571709 0.030750901
0.012231544 -0.054022651 0.030569375
0.013174423 -0.053711109 0.030889094
-0.024369046 -0.052799601 0.02966401
-0.023208462 -0.052471306 0.030968755
-0.022280827 -0.052663777 0.030968755
-0.021152934 -0.052378695 0.031274498
-0.020401832 -0.053044766 0.030510306
-0.019448325 -0.053226992 0.028515816
-0.018338744 -0.052978598 0.027473032
-0.017465569 -0.053424094 0.026720375
-0.016396346 -0.053288121 0.02559182
-0.01535491 -0.053230353 0.024886101
-0.014527109 -0.053957831 0.02292639
-0.013474864 -0.053899456 0.021024257
-0.012387795 -0.053680446 0.020701379
-0.011443382 -0.054095987 0.02027154
-0.010401931 -0.054090042 0.019045383
-0.0093922075 -0.054266091 0.017901778
-0.0083563207 -0.054316085 0.017663926
-0.0072939191 -0.054183397 0.018013448
-0.0062140906 -0.053855449 0.017692864
-0.0051930947 -0.054008186 0.017476141
-0.0041782926 -0.054317802 0.017172992
-0.0031470286 -0.054548498 0.018946588
-0.0020949072 -0.054467589 0.01886493
-0.0010432305 -0.05424799 0.019519508
0 -0.05448712 0.019708633
0.0010382119 -0.053987015 0.020396203
0.0020719301 -0.053870182 0.021508753
0.0031490242 -0.054583084 0.021634012
0.0041454001 -0.053890202 0.022331119
0.0051111681 -0.053156152 0.024819493
0.0061966782 -0.053704545 0.027253807
0.0071246373 -0.052925877 0.027411848
0.0081546428 -0.053005178 0.027212709
0.0090924278 -0.052534029 0.028017193
0.010100899 -0.052524675 0.029796004
0.011089661 -0.052423853 0.030701876
0.012131047 -0.052567869 0.03064847
0.013075748 -0.052302994 0.030995041
0.014204774 -0.052760586 0.029214263
-0.02430428 -0.051646594 0.030523986
-0.023304678 -0.051675592 0.031253755
-0.022246672 -0.051571835 0.031403363
-0.021351157 -0.051852811 0.031608254
-0.020310409 -0.051791549 0.030301124
-0.019400515 -0.052075066 0.028156787
-0.018324962 -0.051920731 0.02762267
-0.017260484 -0.051781453 0.026770294
-0.016344475 -0.052098013 0.026013315
-0.015276353 -0.051939599 0.024050623
-0.01447331 -0.052724201 0.02211231
-0.013537284 -0.053107809 0.020638466
-0.012454108 -0.05292996 0.019528151
-0.011425055 -0.052970707 0.019045383
-0.01032964 -0.052681163 0.018210888
-0.0093168104 -0.052795265 0.017447561
-0.0083623519 -0.053309996 0.017070413
-0.0073779332 -0.053753514 0.017107457
-0.0063002449 -0.05355208 0.017229974
-0.0052074404 -0.053115893 0.017133355
-0.0042023575 -0.053580057 0.017179132
-0.0031511099 -0.05356887 0.017537773
-0.0021152887 -0.05393986 0.017868519
-0.0010407786 -0.053079709 0.018221468
0 -0.053243365 0.018731147
0.0010372099 -0.052897707 0.019415408
0.0020879495 -0.053242713 0.019519836
0.0030897788 -0.052526243 0.021535844
0.0041687288 -0.053151291 0.022125989
0.005155426 -0.052585348 0.024203479
0.0060828826 -0.051704504 0.026256859
0.0071561038 -0.05213733 0.026845753
0.0081620617 -0.052033145 0.027041137
0.0091693215 -0.051959492 0.028805166
0.010103491 -0.051527809 0.030515462
0.011067896 -0.051314794 0.030442327
0.012088452 -0.051375922 0.030439407
0.013096389 -0.051378142 0.030755609
0.014175415 -0.051639013 0.028844535
-0.024432115 -0.050900243 0.031715572
-0.023278553 -0.05060555 0.031535536
-0.022280149 -0.050636705 0.031664938
-0.021084964 -0.050202299 0.031711638
-0.020300992 -0.050752483 0.030660629
-0.019412272 -0.051084924 0.028889388
-0.018263191 -0.050731089 0.027802676
-0.017406628 -0.051195968 0.027176976
-0.016497545 -0.051554829 0.026124239
-0.015628451 -0.05209484 0.023795933
-0.014512511 -0.051830396 0.021171123
-0.013473877 -0.051822603 0.020284295
-0.012491359 -0.052047331 0.018721491
-0.011487814 -0.052217338 0.01822114
-0.010481038 -0.052405193 0.01676321
-0.0094209639 -0.052338693 0.016482174
-0.008365917 -0.052286986 0.016474992
-0.0072963773 -0.052116983 0.017277509
-0.0062836902 -0.052364089 0.015718162
-0.0052886154 -0.052886158 0.016517401
-0.0041985805 -0.052482259 0.016563177
-0.0031437397 -0.05239566 0.01685223
-0.0021077173 -0.052692935 0.01739642
-0.001055381 -0.052769054 0.017859608
0 -0.052699637 0.017773628
0.0010515088 -0.052575439 0.019204408
0.0020741983 -0.051854957 0.018802822
0.0031110679 -0.051851131 0.021553069
0.0041460656 -0.051825818 0.021863699
0.00513918 -0.051391803 0.024012923
0.0061824168 -0.051520139 0.026256859
0.0071532447 -0.051094607 0.026944548
0.0081752436 -0.051095273 0.02742812
0.0091656372 -0.050920211 0.029159755
0.010159251 -0.050796263 0.030426919
0.011000811 -0.050003689 0.031187236
0.012172036 -0.050716817 0.031613231
0.013093378 -0.050359152 0.031653941
0.014192512 -0.050687548 0.028652698
-0.024139388 -0.049284585 0.031794608
-0.023274507 -0.049584817 0.031778455
-0.022255007 -0.049567971 0.031872809
-0.020908598 -0.048786726 0.031735301
-0.020250343 -0.049613342 0.031075776
-0.019404391 -0.050042901 0.029638082
-0.018361252 -0.049983408 0.028054088
-0.017423233 -0.050219905 0.027087718
-0.016471602 -0.050444283 0.023908794
-0.015437248 -0.050428342 0.021936297
-0.014502532 -0.050758861 0.02006194
-0.013476405 -0.050795682 0.018844783
-0.012573565 -0.051342059 0.018173814
-0.011507284 -0.051259719 0.016813755
-0.010398313 -0.050951738 0.015936702
-0.0094276452 -0.051328294 0.015983641
-0.0052660196 -0.05160699 0.015114993
-0.0031459683 -0.051384147 0.015057594
-0.0020886294 -0.051171418 0.015403152
-0.0010411771 -0.051017676 0.015663892
0 -0.051314399 0.015789211
0.0010481373 -0.051358726 0.017469466
0.0021066649 -0.05161329 0.018510818
0.0031559546 -0.051547259 0.021478564
0.0052139736 -0.051096942 0.023097247
0.0061189421 -0.049971357 0.025646359
0.0071054394 -0.049738076 0.025917023
0.0080833361 -0.049510431 0.02650407
0.0091275861 -0.049694635 0.028805166
0.010073404 -0.049359679 0.029846072
0.011087349 -0.049389098 0.031063229
0.012052328 -0.049213674 0.032239884
0.012969969 -0.048886802 0.031864434
-0.024375742 -0.048751485 0.032293171
-0.023004791 -0.048009995 0.033208817
-0.022201793 -0.048440274 0.033098876
-0.021176374 -0.04840314 0.032585651
-0.020169307 -0.048406336 0.032048941
-0.01925391 -0.048641458 0.029921949
-0.018361283 -0.048963428 0.028803527
-0.017461333 -0.049302589 0.026113272
-0.016362304 -0.04908691 0.023577601
-0.015556199 -0.049779832 0.021672666
-0.01452126 -0.049787179 0.020115793
-0.013540211 -0.049994625 0.018325865
-0.012474928 -0.049899712 0.017066061
0.0051667993 -0.049601275 0.023872435
0.0061007934 -0.048806347 0.025906861
0.0071554431 -0.049065892 0.026649863
0.008197125 -0.04918275 0.028328091
0.0090338932 -0.048180766 0.029763937
0.010132093 -0.048634045 0.030990183
0.010978821 -0.047907583 0.032094657
0.012082068 -0.048328273 0.03242138
0.013059583 -0.048219997 0.031155854
-0.025218191 -0.047410198 0.031506836
-0.024175385 -0.047343463 0.032801062
-0.023171423 -0.047350295 0.033106238
-0.022213593 -0.047456313 0.032965958
-0.021258758 -0.047579125 0.032407612
-0.020148585 -0.047349174 0.032229751
-0.019110121 -0.047272403 0.031901211
-0.017385177 -0.048064902 0.026535809
-0.016447445 -0.04831437 0.024330199
0.006136368 -0.048068218 0.026115596
0.0071460935 -0.047980912 0.027375728
0.0081041018 -0.047611598 0.02780959
0.0091733048 -0.047905039 0.02980417
0.010151404 -0.0477116 0.031553864
0.011083916 -0.04735855 0.03159833
0.012149526 -0.047585644 0.032015741
0.013051599 -0.04718655 0.031116575
0.014101849 -0.04734192 0.030494422
-0.025340268 -0.046626095 0.031596988
-0.024186645 -0.04635774 0.033381641
-0.023180827 -0.046361655 0.034042299
-0.022209302 -0.046437632 0.03421542
-0.021001872 -0.046004098 0.033262908
-0.020174919 -0.046402317 0.032571107
-0.019338626 -0.046819832 0.032233894
-0.018142067 -0.046363063 0.031312227
0.0062446087 -0.047875334 0.025431633
0.0070820032 -0.046538878 0.027295589
0.0081461556 -0.046840396 0.029189467
0.0089960685 -0.045979906 0.030602008
0.010052576 -0.046241853 0.032541573
0.010987178 -0.045946386 0.032375902
0.012044745 -0.04617152 0.032357574
0.013019133 -0.046067704 0.031640619
0.0140847 -0.046278305 0.030668795
-0.025315607 -0.045568094 0.031982839
-0.024260189 -0.045487858 0.033276796
-0.02314279 -0.045279372 0.034205884
-0.022041148 -0.045084167 0.034184664
-0.021124659 -0.045267127 0.033923775
-0.019934863 -0.044853445 0.032914639
-0.019133594 -0.045316409 0.0327878
-0.018172212 -0.045430534 0.032094985
0.0071153729 -0.045741685 0.026534379
0.0081217866 -0.045685049 0.029133111
0.0090629263 -0.045314636 0.032077283
0.0099766497 -0.044894926 0.033005923
0.010948951 -0.044791169 0.033626467
0.011956546 -0.04483705 0.03348878
0.01307081 -0.045245111 0.032174051
0.014014045 -0.045045149 0.031429023
-0.025334634 -0.044588953 0.031260699
-0.024111461 -0.044204347 0.033276796
-0.0229849 -0.04397111 0.034720063
-0.022121746 -0.044243492 0.034818977
-0.021149514 -0.044313263 0.035562247
-0.019992389 -0.043983255 0.035642982
-0.019019207 -0.04404448 0.03485322
-0.018189183 -0.044462446 0.032672554
0.0081996433 -0.045098037 0.032077283
0.0090490552 -0.044239827 0.033833474
0.0099315215 -0.043698695 0.035424054
0.010927299 -0.043709196 0.034937084
0.012012899 -0.044047296 0.034685791
0.012965719 -0.043883972 0.032974422
0.014031459 -0.044098869 0.031912923
-0.025339903 -0.043584634 0.030783623
-0.024267521 -0.043479308 0.032295436
-0.023137232 -0.043256562 0.033847034
-0.021925241 -0.042853881 0.034452707
-0.020950483 -0.042898607 0.035736948
-0.0202448 -0.043526322 0.035850495
-0.018946065 -0.042877935 0.035383552
-0.017896442 -0.042752612 0.035425246
0.0088916542 -0.04248235 0.035085022
0.010014191 -0.043061022 0.035688519
0.010961565 -0.042849757 0.035210639
0.011907774 -0.042669524 0.034852862
0.012915635 -0.042720947 0.033762544
0.014049646 -0.043152481 0.032060206
-0.025260286 -0.042437281 0.031851709
-0.024153287 -0.04226825 0.032701701
-0.022952517 -0.041913293 0.03395164
-0.021981606 -0.041964885 0.035018682
-0.021027191 -0.042054381 0.036600888
-0.020065978 -0.042138554 0.036672711
-0.018965993 -0.041924827 0.036351621
-0.01796329 -0.041914348 0.036351621
-0.016966132 -0.041916329 0.035454273
0.0079532322 -0.041754469 0.035357207
0.0088868951 -0.041472178 0.035993099
0.0099616535 -0.041838944 0.036106557
0.010937103 -0.041759849 0.036146998
0.011945813 -0.041810349 0.035209805
0.013023032 -0.042074412 0.034458369
-0.025325771 -0.041534267 0.031118006
-0.024301879 -0.041515712 0.03233254
-0.023209102 -0.04137275 0.033938378
-0.022172445 -0.041321378 0.034257025
-0.020886282 -0.040777981 0.0369353
-0.019890578 -0.04077569 0.03698644
-0.019088274 -0.04119049 0.036451429
-0.018018065 -0.041041151 0.036073476
-0.016957086 -0.040896505 0.036035955
-0.015792498 -0.040468279 0.035585195
-0.015090565 -0.041247547 0.035431951
0.0069200057 -0.040531464 0.035884142
0.0079135485 -0.040556937 0.036852181
0.0089006368 -0.040547349 0.036137849
0.0099096326 -0.040629499 0.036604792
0.010910561 -0.04066664 0.035012811
0.01195033 -0.040830296 0.034634918
0.012913667 -0.04072772 0.034356654
0.014018743 -0.041054893 0.032048672
-0.024132064 -0.040220104 0.031299025
-0.023166139 -0.040288933 0.032565653
-0.021947408 -0.039904378 0.033566684
-0.020827882 -0.039672155 0.034935266
-0.019885855 -0.03977171 0.036500692
-0.018901898 -0.039793465 0.035882711
-0.017986568 -0.039970152 0.036035955
-0.016937625 -0.039853234 0.036078006
-0.015698479 -0.039246198 0.036102712
-0.014855153 -0.039613739 0.035643876
-0.013921232 -0.039774947 0.035713106
0.005036986 -0.040295888 0.035215378
0.0058814711 -0.039209805 0.035622686
0.0069051781 -0.039458159 0.036013752
0.007976192 -0.039880957 0.036185622
0.0088903094 -0.039512489 0.036137849
0.009950933 -0.039803732 0.035946846
0.010913292 -0.039684698 0.035412312
0.011974428 -0.039914761 0.034634918
0.012864868 -0.039584208 0.034255952
0.013933965 -0.039811328 0.032321572
-0.022140728 -0.039249476 0.032379001
-0.021073503 -0.039136507 0.033312857
-0.020104062 -0.039202921 0.034861445
-0.01896525 -0.038928669 0.035257816
-0.017854545 -0.038684849 0.036078006
-0.016898468 -0.038767073 0.036553472
-0.015804186 -0.038522705 0.037126631
-0.014782367 -0.038434155 0.036524534
-0.013631687 -0.037973981 0.037608415
-0.012875108 -0.038625326 0.037148505
0.0029579031 -0.038452741 0.034750015
0.0039687878 -0.038695678 0.035365731
0.0049186717 -0.03836564 0.03596738
0.0059145838 -0.038444795 0.036006749
0.0069276793 -0.03859707 0.035586178
0.0079315426 -0.038666271 0.036308378
0.0089296149 -0.038694996 0.035673946
0.0098957298 -0.038593344 0.035946846
0.010905283 -0.038664181 0.034787983
0.012000647 -0.039002102 0.034831345
0.012938979 -0.038816936 0.034147173
-0.019014692 -0.038029384 0.03519693
-0.017842421 -0.037667334 0.035854936
-0.016960228 -0.037911095 0.036575139
-0.015960313 -0.037905741 0.037098587
-0.014892345 -0.037727274 0.03670904
-0.01380055 -0.037458636 0.038552403
-0.01274646 -0.037258882 0.038552403
-0.011615428 -0.03678219 0.038409412
-0.010873172 -0.037561871 0.038098812
-0.0097767208 -0.037151542 0.037468791
0.00099794276 -0.037921827 0.036195129
0.0019624811 -0.037287138 0.035870552
0.0029611578 -0.037508 0.03596738
0.0039743474 -0.037756298 0.036319017
0.0049137748 -0.037344687 0.036765188
0.0059713479 -0.03781854 0.036204487
0.0069535472 -0.037747826 0.036185622
0.0079387734 -0.037709173 0.036038995
0.0089956457 -0.037981618 0.03558889
0.0099260025 -0.03771881 0.035227209
0.010893865 -0.037633352 0.03450653
0.011959821 -0.037872765 0.034320861
0.013002792 -0.038008165 0.033151627
-0.017891323 -0.036776613 0.034906298
-0.016995098 -0.036989331 0.035690516
-0.015994107 -0.036986373 0.036915243
-0.014844835 -0.03661726 0.037006319
-0.014011034 -0.037029162 0.038451046
-0.012824363 -0.036500111 0.039031804
-0.011922542 -0.036761172 0.038909078
-0.010790907 -0.036296688 0.03861016
-0.0097965933 -0.036247399 0.039593428
-0.0088464078 -0.036368567 0.03885749
-0.0078663155 -0.03638171 0.038197696
-0.0068468 -0.03619023 0.038057625
-0.0058966056 -0.036362402 0.037745744
-0.0049100593 -0.036334444 0.037513733
-0.0029399886 -0.03625986 0.037578374
-0.0019606301 -0.036271658 0.037745744
-0.0009808098 -0.036289964 0.03749606
0 -0.036494508 0.038112342
0.00098093122 -0.036294457 0.038200676
0.0019549227 -0.036166072 0.036991358
0.0029798781 -0.036751833 0.036970586
0.0038912431 -0.035994001 0.036875308
0.0049847346 -0.036887038 0.036858022
0.0059690927 -0.036809407 0.036200315
0.0069190417 -0.03657208 0.035711825
0.0079056518 -0.036563642 0.035117865
0.0089452891 -0.036775082 0.034682661
0.0099720089 -0.036896437 0.0339683
0.01095047 -0.036833402 0.033658385
0.012069653 -0.037214763 0.032944351
-0.016996874 -0.035993375 0.034798175
-0.015898688 -0.035772044 0.036043316
-0.014947413 -0.035873789 0.036509812
-0.013916483 -0.035785243 0.037580371
-0.01285488 -0.035598129 0.038971394
-0.011807958 -0.035423871 0.039167464
-0.010902863 -0.035682097 0.039222628
-0.0097848456 -0.035225444 0.039764166
-0.0089265471 -0.035706189 0.039593428
-0.0078972392 -0.035537574 0.039257526
-0.0069342079 -0.035661638 0.039511234
-0.0059912107 -0.035947263 0.039769083
-0.0049287803 -0.035487216 0.039596468
-0.0039394908 -0.035455413 0.039724171
-0.0029652491 -0.035582986 0.040234506
-0.0019716404 -0.035489526 0.039739162
-0.00099451386 -0.035802498 0.039700061
0 -0.035608027 0.039398968
0.00099639653 -0.035870273 0.038755804
0.0019875516 -0.035775926 0.037307322
0.0029723542 -0.03566825 0.036884189
0.0039356044 -0.035420436 0.036336303
0.0049606608 -0.035716757 0.035826355
0.005909598 -0.035457589 0.034989208
0.006969912 -0.035845261 0.034891218
0.0079817586 -0.035917915 0.034201324
0.008954416 -0.035817664 0.033658385
0.0099742645 -0.03590735 0.033618838
-0.016164387 -0.035359595 0.034792215
-0.014816854 -0.034572661 0.035254806
-0.013836255 -0.034590639 0.036699474
-0.012894802 -0.034716774 0.038021296
-0.011829499 -0.034502704 0.038635492
-0.010892571 -0.034658182 0.038905829
-0.0097869979 -0.034254491 0.039279968
-0.0088754958 -0.03451582 0.039515913
-0.0078994632 -0.034560151 0.039257526
-0.0069527398 -0.034763698 0.040841192
-0.0059342226 -0.034616299 0.040284961
-0.0049772416 -0.034840692 0.040145904
-0.0039743725 -0.03477576 0.040234506
-0.0029793866 -0.03475951 0.040299147
-0.0019898114 -0.0348217 0.039880961
-0.00099187787 -0.034715723 0.039398968
0 -0.03457126 0.038994581
0.00098999485 -0.034649819 0.037868202
0.0019827653 -0.034698393 0.036884189
0.0029555149 -0.034481008 0.035872102
0.0039950241 -0.034956463 0.03524968
0.0049368502 -0.034557953 0.034300297
0.0059928941 -0.034958549 0.033552825
0.0070148101 -0.035074051 0.032779276
-0.012929136 -0.033814665 0.03652814
-0.011782474 -0.033383675 0.037858039
-0.010878867 -0.033625592 0.037857324
-0.0098990267 -0.033656694 0.038582295
-0.0089522898 -0.033819761 0.038527966
-0.007875883 -0.033472504 0.038162887
-0.006864504 -0.033341877 0.039556652
-0.0059712129 -0.033836875 0.03971082
-0.0049345656 -0.033555049 0.03971082
-0.0039574835 -0.033638608 0.039222449
-0.002967448 -0.033631079 0.039200157
-0.0019687298 -0.033468407 0.03886354
-0.00098716887 -0.033563744 0.038455963
0 -0.033574175 0.037238181
0.00098060723 -0.033340644 0.036950439
0.0019991077 -0.033984829 0.034713
0.002972187 -0.033684786 0.034023255
-0.011857084 -0.032606982 0.036322385
-0.010903179 -0.032709535 0.037378818
-0.0098767839 -0.032593384 0.038323462
-0.0088808807 -0.032563228 0.038599819
-0.0079251537 -0.032691259 0.038599819
-0.0069684326 -0.032851182 0.038079351
-0.0059910477 -0.032950763 0.03863892
-0.0049778228 -0.032853629 0.038906544
-0.0039607366 -0.032676078 0.037878007
-0.0029986915 -0.032985605 0.03777951
-0.001983359 -0.03272542 0.037931979
-0.0010010472 -0.033034556 0.036923558
-0.0098751299 -0.031600419 0.036198527
-0.0089537678 -0.031835623 0.036543787
-0.0081012826 -0.032405131 0.036912233
-0.0069132601 -0.031603474 0.037703633
-0.0059368298 -0.031663094 0.038117975
-0.0049782195 -0.031860605 0.03818503
-0.0040043243 -0.032034595 0.037696391
-0.0029644701 -0.031621013 0.036125749
-0.0079842219 -0.030938862 0.03555432
-0.0069431202 -0.030748105 0.036385894
-0.0059879581 -0.030937785 0.036548108
-0.0050062444 -0.031038716 0.036125749
0 0 0 1 0 0 0 1 0 0 0 1 0 0 0 0 0 792 1 0 0
