ply
format ascii 1.0
comment PCL generated
element vertex 1265
property float x
property float y
property float z
element camera 0
property float view_px
property float view_py
property float view_pz
property float x_axisx
property float x_axisy
property float x_axisz
property float y_axisx
property float y_axisy
property float y_axisz
property float z_axisx
property float z_axisy
property float z_axisz
property float focal
property float scalex
property float scaley
property float centerx
property float centery
property int viewportx
property int viewporty
property float k1
property float k2
end_header
-0.099849775 -0.0071321269 0.041188419
-0.099661268 -0.0071827942 0.040298641
-0.098270707 -0.0071469606 0.036092222
-0.098433085 -0.0072244466 0.037620962
-0.09686064 -0.0071748616 0.038562864
-0.095475674 -0.0071383677 0.041060537
-0.096116349 -0.0072540645 0.039129585
-0.095967919 -0.0073118415 0.035450637
-0.094271384 -0.007251645 0.03599152
-0.0933972 -0.0072541516 0.03752473
-0.091889255 -0.0072070002 0.037736326
-0.090750076 -0.0071881246 0.035890967
-0.091140747 -0.0072912597 0.036077768
-0.088255078 -0.0071317232 0.041448653
-0.088139661 -0.007195075 0.037493587
-0.087888144 -0.0072485069 0.036235452
-0.086308897 -0.0071924082 0.03682515
-0.085801803 -0.0072254152 0.038032234
-0.084220894 -0.0071677356 0.038362116
-0.08262004 -0.0071071004 0.038549632
-0.083312444 -0.0072445604 0.037239939
-0.082311012 -0.0072361324 0.03554818
-0.080925703 -0.0071933959 0.036685437
-0.080159187 -0.0072053205 0.039085358
-0.078844473 -0.0071676793 0.039772809
-0.078605928 -0.0072281314 0.036457598
-0.078085959 -0.0072638104 0.037239313
-0.076452047 -0.0071954867 0.038355559
-0.075044528 -0.007147098 0.041525126
-0.074108943 -0.0071430304 0.041760802
-0.073433474 -0.0071642413 0.039583683
-0.0722927 -0.0071400204 0.039985448
-0.071941651 -0.0071941651 0.036107153
-0.070339255 -0.0071229627 0.039808571
-0.069542363 -0.0071325498 0.042843193
-0.06903778 -0.0071727564 0.03711614
-0.066920854 -0.0070443009 0.04444012
-0.067216367 -0.0071697459 0.04009822
-0.06713517 -0.0072578564 0.036975086
-0.064103365 -0.0070250263 0.047474831
-0.062950574 -0.0069945082 0.048791617
-0.062132962 -0.0070008975 0.044586986
-0.060766984 -0.0069447984 0.047968894
-0.060525209 -0.0070174155 0.051185191
-0.061422031 -0.0072261216 0.036637872
-0.061691698 -0.0073661725 0.029293448
-0.058608867 -0.0074423961 0.027268231
-0.057188842 -0.0073792054 0.025856853
-0.056533877 -0.007414279 0.026951343
-0.057385676 -0.0076514231 0.013770074
-0.055307541 -0.0074993274 0.021639645
-0.1028585 -0.0061539272 0.044846058
-0.101355 -0.0061162501 0.046937257
-0.1032974 -0.0062876684 0.042046726
-0.10393072 -0.006381711 0.034123987
-0.099983931 -0.0061936947 0.04346329
-0.10095878 -0.0063099237 0.036563933
-0.099522144 -0.0062761712 0.036634594
-0.098106869 -0.0062431642 0.041266829
-0.097732104 -0.0062763733 0.041575432
-0.09768489 -0.006331428 0.03204298
-0.096803233 -0.0063329218 0.035643905
-0.095221005 -0.0062881797 0.040333569
-0.093959808 -0.0062639872 0.038235545
-0.09372323 -0.0063082944 0.037362009
-0.093474291 -0.0063526216 0.037054092
-0.091254562 -0.0062625678 0.039014041
-0.092192911 -0.0063896072 0.033859104
-0.090689339 -0.0063482537 0.036008388
-0.087889858 -0.0062144343 0.04287082
-0.089356415 -0.0063826013 0.034297615
-0.086955234 -0.0062751202 0.041996092
-0.08634118 -0.0062957113 0.03692168
-0.085884504 -0.0063283318 0.038532168
-0.083521679 -0.0062196995 0.0373905
-0.084269464 -0.0063428627 0.038100064
-0.081304587 -0.006186218 0.041876018
-0.081789933 -0.0062915334 0.03681004
-0.08030834 -0.006246204 0.039946586
-0.080030352 -0.006294522 0.038730025
-0.079927385 -0.0063578603 0.036559284
-0.078174077 -0.0062898686 0.041534901
-0.076731071 -0.0062455526 0.041675597
-0.075938441 -0.0062537538 0.04200694
-0.075734526 -0.0063112103 0.039021075
-0.074662253 -0.0062968163 0.038467497
-0.073715925 -0.0062928228 0.038128197
-0.072513752 -0.0062666209 0.040297955
-0.071131848 -0.0062240367 0.042134851
-0.070810214 -0.006274323 0.041174054
-0.069517493 -0.0062387493 0.039661646
-0.069234505 -0.0062940461 0.034435779
-0.068080105 -0.0062705358 0.041016161
-0.066837415 -0.0062381583 0.040723234
-0.066588119 -0.0062988764 0.037048697
-0.064876847 -0.0062210672 0.044166297
-0.063139193 -0.0061385329 0.044785708
-0.061581731 -0.0060714381 0.050471723
-0.061698783 -0.0061698784 0.046049327
-0.060150724 -0.0061022476 0.048087418
-0.060783152 -0.0062570893 0.038562864
-0.061057981 -0.0063791918 0.035957038
-0.06230294 -0.0066078878 0.019802392
-0.061028406 -0.0067809336 0.0055647194
-0.057254963 -0.0064642699 0.029641569
-0.05640411 -0.006472603 0.03090629
-0.058390357 -0.0068122083 0.0095261335
-0.055285167 -0.0065592569 0.021085769
-0.10264326 -0.0052637565 0.04723525
-0.1026358 -0.0053087482 0.045065194
-0.10528914 -0.0054933466 0.032157302
-0.10352814 -0.0054970696 0.031800717
-0.10103492 -0.0054125846 0.037575155
-0.10019106 -0.005415733 0.036588937
-0.099468559 -0.0054255575 0.038540661
-0.097485736 -0.0053661871 0.036635786
-0.096321829 -0.0053512123 0.042804062
-0.096491799 -0.0054107551 0.03844884
-0.095374547 -0.0053985594 0.036751837
-0.095183201 -0.0054390398 0.033189058
-0.093512014 -0.005394924 0.036324918
-0.09307038 -0.0054215756 0.035662055
-0.091577418 -0.0053869071 0.039535433
-0.090936646 -0.0054021766 0.039038807
-0.090680972 -0.0054408582 0.036341041
-0.08925841 -0.0054096002 0.03771168
-0.088762097 -0.0054344139 0.033517271
-0.086929835 -0.0053771031 0.037541986
-0.086344495 -0.005396531 0.036638498
-0.085172117 -0.0053792913 0.038628578
-0.084501244 -0.0053936965 0.039219975
-0.083284117 -0.0053731687 0.038766623
-0.082903922 -0.0054067774 0.034414768
-0.082296215 -0.0054261237 0.038713872
-0.080905668 -0.0053937109 0.035403699
-0.079328984 -0.0053480216 0.039898008
-0.079301685 -0.0054069334 0.040705025
-0.078835376 -0.0054369224 0.035388231
-0.077415839 -0.0054011047 0.039173692
-0.076281019 -0.0053845425 0.042604983
-0.075511925 -0.0053937091 0.038688451
-0.074149847 -0.0053602299 0.043197036
-0.073851041 -0.0054037343 0.041044354
-0.072400413 -0.0053629936 0.038722008
-0.071809001 -0.005385675 0.039123327
-0.070430234 -0.0053491318 0.039500922
-0.069520213 -0.0053477087 0.033367813
-0.068384372 -0.0053286524 0.040519893
-0.068073668 -0.0053742365 0.039508343
-0.066867001 -0.0053493599 0.038687378
-0.067136422 -0.0054434934 0.036642462
-0.064507231 -0.005301964 0.044144034
-0.063158959 -0.0052632471 0.045219511
-0.063323118 -0.0053512496 0.044614762
-0.061264008 -0.0052512009 0.046123207
-0.060223572 -0.005236832 0.047752857
-0.060176551 -0.0053096954 0.042988241
-0.060564853 -0.0054237181 0.034852058
-0.060999185 -0.0055453805 0.027791858
-0.062511139 -0.005860419 0.0059480965
-0.057126492 -0.0055283699 0.029715061
-0.056237228 -0.0055315308 0.026857227
-0.0582335 -0.00582335 0.010684162
-0.055002678 -0.0055934922 0.024657309
-0.11261097 -0.0047716512 0.017380178
-0.10350234 -0.0044231769 0.047704905
-0.10207525 -0.0043997951 0.045417964
-0.103035 -0.0044797827 0.039283812
-0.098971307 -0.0043408466 0.049489051
-0.10232472 -0.0045276429 0.034007937
-0.10162338 -0.0045367577 0.038116515
-0.098629117 -0.0044427528 0.042394757
-0.09848877 -0.0044767624 0.038800567
-0.098059535 -0.0044981437 0.039413542
-0.097450145 -0.0045115803 0.036165655
-0.097024284 -0.004533845 0.033290446
-0.094927803 -0.0044777268 0.043684006
-0.093867324 -0.0044698725 0.038379729
-0.093656175 -0.0045027006 0.0376243
-0.093018651 -0.0045154681 0.038450122
-0.091658719 -0.004493074 0.038544148
-0.091064975 -0.004508167 0.037384808
-0.089412168 -0.0044706082 0.039654613
-0.090058178 -0.0045483923 0.035534859
-0.087534629 -0.0044660526 0.040814191
-0.08876615 -0.0045755748 0.038183123
-0.086148106 -0.0044868803 0.036758274
-0.086262539 -0.0045401333 0.036802769
-0.084397994 -0.0044892547 0.03746438
-0.083623737 -0.0044958997 0.03648743
-0.081785969 -0.0044448897 0.041356117
-0.082120374 -0.0045121079 0.040998101
-0.079939328 -0.0044410736 0.041377008
-0.080676988 -0.004532415 0.042232335
-0.078942724 -0.0044853818 0.040110916
-0.078817226 -0.0045297253 0.036962241
-0.076803222 -0.0044653034 0.045469671
-0.076552205 -0.0045030708 0.035163343
-0.076025665 -0.0045253369 0.036159694
-0.074216709 -0.0044708857 0.041837275
-0.073598795 -0.004487731 0.037438065
-0.072335042 -0.004465126 0.041017979
-0.071017399 -0.0044385875 0.043309718
-0.070527069 -0.0044637383 0.047086835
-0.070134006 -0.0044957693 0.047875077
-0.068792336 -0.0044670347 0.044784069
-0.067424931 -0.0044358508 0.036706328
-0.067799576 -0.0045199716 0.038496912
-0.066060565 -0.0044635511 0.039425522
-0.065052316 -0.0044556377 0.041314453
-0.063277714 -0.0043942858 0.046349108
-0.062008172 -0.0043667727 0.048722476
-0.061455235 -0.0043896595 0.044995666
-0.060623575 -0.0043930123 0.048379302
-0.059839312 -0.0043999492 0.044552445
-0.060933508 -0.0045472765 0.032399803
-0.062914953 -0.004766284 0.016098171
-0.060091853 -0.0047691944 0.017369926
-0.057255413 -0.0046173716 0.024341613
-0.056161907 -0.0046034348 0.030908555
-0.057634909 -0.0048029087 0.015797675
-0.055029437 -0.0046635112 0.024030834
-0.11375942 -0.0038562517 0.013474047
-0.10341603 -0.0035355904 0.043750107
-0.10211187 -0.0035210988 0.045208335
-0.10208076 -0.0035506354 0.041253775
-0.10058489 -0.0035292946 0.043392003
-0.10043772 -0.0035553176 0.040017247
-0.10067251 -0.0035954469 0.03940925
-0.09957733 -0.0035883721 0.036497116
-0.099170372 -0.0036061953 0.035721004
-0.097914614 -0.0035931969 0.03908515
-0.096359223 -0.00356886 0.037861884
-0.097549945 -0.003646727 0.035129011
-0.095211431 -0.0035928844 0.038710743
-0.094501413 -0.003600054 0.035526395
-0.094045281 -0.0036171263 0.037766904
-0.093185313 -0.0036188471 0.036301881
-0.092305958 -0.0036198413 0.039395928
-0.09195704 -0.0036418629 0.035068393
-0.090301819 -0.0036120727 0.035325736
-0.088542946 -0.0035774927 0.037690252
-0.088262402 -0.0036025471 0.037830532
-0.088044286 -0.0036306921 0.035482109
-0.087066762 -0.0036277818 0.036403507
-0.086495891 -0.0036419323 0.03405118
-0.083965041 -0.0035729806 0.036373228
-0.083410569 -0.0035875512 0.037842482
-0.082701109 -0.0035957003 0.038861513
-0.081072971 -0.0035636469 0.041427284
-0.08042866 -0.003574607 0.041568488
-0.079874009 -0.0035898432 0.041328788
-0.078483693 -0.0035674407 0.042041332
-0.078503154 -0.0036093404 0.040847868
-0.077179514 -0.0035897449 0.037292331
-0.076493427 -0.0035996907 0.038384944
-0.075862296 -0.0036124904 0.038953334
-0.074684493 -0.0035992528 0.039259374
-0.073688939 -0.0035945822 0.038323104
-0.07259354 -0.0035848664 0.037815958
-0.071588509 -0.0035794254 0.037905991
-0.070609309 -0.003575155 0.037708759
-0.069206983 -0.0035490759 0.036577582
-0.067996629 -0.0035322923 0.037121505
-0.066912331 -0.0035217018 0.046603024
-0.067284539 -0.0035885086 0.037371308
-0.066159964 -0.0035762142 0.038635194
-0.065811604 -0.003606115 0.038148522
-0.063560277 -0.0035311268 0.042725921
-0.062129218 -0.0035002378 0.044449359
-0.061288744 -0.0035022141 0.049273133
-0.060571332 -0.0035113816 0.048572928
-0.060368232 -0.0035510727 0.044409424
-0.061515361 -0.0036725588 0.031222016
-0.063949011 -0.0038756977 0.010251135
-0.05925113 -0.0037619763 0.021345556
-0.057496078 -0.0037094243 0.028825104
-0.056615695 -0.0037125046 0.02813673
-0.057784826 -0.0038523218 0.011022478
-0.055272955 -0.0037473189 0.021618694
-0.11227801 -0.0028545256 0.018340081
-0.10382893 -0.0026622801 0.045717329
-0.10256907 -0.0026526481 0.046052575
-0.10151675 -0.002648263 0.041699916
-0.1000722 -0.002633479 0.045668066
-0.10093042 -0.0026795685 0.040839583
-0.099734157 -0.0026714506 0.037178874
-0.099442393 -0.0026876321 0.042561233
-0.098706767 -0.0026920026 0.039037555
-0.097929426 -0.0026953053 0.038074106
-0.097664475 -0.0027129021 0.040664673
-0.097066641 -0.0027214943 0.036543399
-0.095063441 -0.0026904747 0.038310736
-0.094949201 -0.0027128344 0.036588669
-0.093777172 -0.0027051107 0.037673235
-0.092189789 -0.0026851394 0.040624887
-0.092910506 -0.0027326618 0.034764618
-0.09047813 -0.0026874691 0.038025051
-0.090126216 -0.0027037864 0.033788472
-0.089013539 -0.0026973798 0.041360646
-0.087712869 -0.0026850877 0.040437102
-0.088281766 -0.0027303637 0.034582138
-0.086675823 -0.0027086195 0.037163168
-0.084880218 -0.0026804281 0.036685854
-0.085406311 -0.0027257334 0.038415849
-0.08347857 -0.0026928571 0.038270861
-0.081975728 -0.0026731216 0.039765537
-0.082676128 -0.0027255865 0.038621873
-0.081062078 -0.0027020692 0.036001414
-0.080506034 -0.0027136866 0.035211146
-0.079370953 -0.0027058281 0.04173255
-0.078312993 -0.002700448 0.037941188
-0.076750495 -0.0026773429 0.039606065
-0.075998217 -0.0026822898 0.042656124
-0.075528055 -0.0026974306 0.037736803
-0.074359007 -0.0026876749 0.037898988
-0.073421091 -0.0026861373 0.039853036
-0.072140045 -0.0026718536 0.04207173
-0.071303025 -0.0026738634 0.042331249
-0.070469022 -0.002676039 0.040102303
-0.069698587 -0.0026807149 0.037679493
-0.068486758 -0.0026683153 0.040786624
-0.067368999 -0.0026593027 0.04061377
-0.067115165 -0.0026846065 0.039505601
-0.066192426 -0.0026834765 0.043720335
-0.065283164 -0.0026828696 0.038461238
-0.063362867 -0.0026401195 0.044791132
-0.062595151 -0.0026448655 0.048028409
-0.060793936 -0.0026054543 0.046775669
-0.060593348 -0.0026344934 0.04480052
-0.060365427 -0.0026631807 0.045564532
-0.062084768 -0.0027799148 0.026916981
-0.059461094 -0.0028314807 0.022912055
-0.057725184 -0.002793154 0.027451903
-0.056521308 -0.0027797364 0.029077679
-0.058093589 -0.0029046794 0.013434708
-0.054718941 -0.002782319 0.028157949
-0.11089251 -0.0018795341 0.020141631
-0.10348121 -0.0017689095 0.04609257
-0.10180971 -0.0017553398 0.046521723
-0.10157212 -0.0017664718 0.043693036
-0.1008023 -0.0017684615 0.047263741
-0.1003749 -0.0017765469 0.041567802
-0.10044584 -0.0017936758 0.036991507
-0.10008948 -0.0018034142 0.035440773
-0.099348456 -0.0018063355 0.03527537
-0.098854251 -0.0018138394 0.035650879
-0.096788555 -0.0017923806 0.036144286
-0.096204586 -0.0017982165 0.038240343
-0.095252261 -0.0017972125 0.041116893
-0.095080636 -0.0018110598 0.03474915
-0.094386138 -0.001815118 0.036446363
-0.09281759 -0.0018022833 0.039161086
-0.091254555 -0.001789305 0.036844879
-0.09001372 -0.0017824498 0.040059328
-0.090606697 -0.0018121338 0.036959618
-0.089688718 -0.0018118932 0.032317162
-0.087406561 -0.0017838074 0.040390313
-0.087949686 -0.0018133956 0.0382092
-0.085299648 -0.001777076 0.040602595
-0.086076282 -0.0018121323 0.039083093
-0.083968028 -0.0017865538 0.036493272
-0.083921678 -0.0018047673 0.035777032
-0.082786053 -0.0017996967 0.04055056
-0.082466356 -0.0018124473 0.038289458
-0.080645688 -0.0017921262 0.040641963
-0.079866275 -0.0017947478 0.040163666
-0.078507461 -0.0017842606 0.042042851
-0.077531435 -0.001782332 0.042732149
-0.077305324 -0.0017977982 0.041705012
-0.076156512 -0.0017919178 0.040962875
-0.075328685 -0.0017935401 0.040339142
-0.074107401 -0.0017857205 0.042054862
-0.073804244 -0.0018001035 0.037918299
-0.072242789 -0.0017837726 0.042526573
-0.070844904 -0.0017711226 0.04347986
-0.070276327 -0.0017791477 0.041131824
-0.069662288 -0.0017862126 0.044359088
-0.068275705 -0.001773395 0.043900788
-0.067010365 -0.0017634307 0.042890698
-0.0670937 -0.0017891654 0.044348568
-0.06600707 -0.0017839748 0.039667845
-0.06529291 -0.0017888467 0.037766039
-0.063342229 -0.0017595064 0.044839799
-0.062135734 -0.0017503025 0.048101217
-0.060769632 -0.0017362753 0.048890561
-0.060208689 -0.0017451794 0.05165115
-0.060194667 -0.0017704314 0.042487442
-0.061400753 -0.0018328582 0.030934513
-0.058813114 -0.001867083 0.024671197
-0.056870565 -0.0018345343 0.026319504
-0.05606623 -0.001838237 0.031151682
-0.057805032 -0.0019268345 0.013893217
-0.055171769 -0.0018702295 0.023766935
-0.11251523 -0.00095351884 0.015275925
-0.10293433 -0.00087978056 0.045648187
-0.10115843 -0.00087205542 0.047271729
-0.10124953 -0.00088043074 0.04896754
-0.099452816 -0.00087239314 0.047991276
-0.10154942 -0.00089866744 0.037930042
-0.10070319 -0.0008991356 0.037226677
-0.099770784 -0.00089883595 0.040564537
-0.098553844 -0.00089594407 0.042260289
-0.0974636 -0.00089416141 0.042193085
-0.0976604 -0.00090426294 0.036191702
-0.096142389 -0.00089852698 0.042269796
-0.094834492 -0.00089466508 0.038877457
-0.094369322 -0.00089875545 0.037155718
-0.093337469 -0.00089747563 0.039656997
-0.093110345 -0.00090398395 0.034130424
-0.091803789 -0.00090003712 0.035167187
-0.091465488 -0.00090559886 0.037056386
-0.089477636 -0.00089477631 0.034593761
-0.089560591 -0.00090465241 0.037904948
-0.087871641 -0.00089664938 0.040651262
-0.087502122 -0.00090208382 0.036147326
-0.086763248 -0.00090378383 0.038492173
-0.085321829 -0.00089812453 0.040364921
-0.083829284 -0.00089180091 0.034617841
-0.084590755 -0.00090957806 0.035135895
-0.081802733 -0.00088916009 0.041406572
-0.081357934 -0.00089404319 0.03950268
-0.081112199 -0.00090124662 0.038072467
-0.07960742 -0.00089446537 0.042306751
-0.078361422 -0.00089047075 0.040137589
-0.07812307 -0.00089796633 0.040325403
-0.07687024 -0.00089383998 0.040846944
-0.076461375 -0.00089954562 0.036549628
-0.075038627 -0.00089331693 0.043323219
-0.074440084 -0.00089686847 0.036514759
-0.072923243 -0.00088930788 0.041717678
-0.072011083 -0.00088902574 0.042789906
-0.070725963 -0.00088407454 0.040394992
-0.070995286 -0.00089867454 0.037303686
-0.068388514 -0.00087677583 0.048189759
-0.067838326 -0.00088101724 0.041601926
-0.067707539 -0.00089088862 0.040135503
-0.06652347 -0.00088697957 0.04204762
-0.066304944 -0.0008960127 0.036214679
-0.065718248 -0.00090024999 0.041581392
-0.063174292 -0.00087742071 0.043231934
-0.062302537 -0.00087750057 0.046180487
-0.060648255 -0.00086640369 0.053239554
-0.060557507 -0.00087764504 0.047926188
-0.060420036 -0.00088852993 0.047152609
-0.06219507 -0.0009282846 0.028577387
-0.058123022 -0.00092258764 0.022406667
-0.05770044 -0.00093065226 0.029019266
-0.056199115 -0.000921297 0.029247135
-0.057581246 -0.00095968746 0.010733545
-0.055150926 -0.00093476143 0.024901211
-0.11057634 0 0.021919787
-0.10355773 0 0.042932808
-0.10204865 0 0.048958421
-0.10056916 0 0.04964745
-0.098691002 0 0.048835844
-0.10127121 0 0.043140858
-0.10064429 0 0.035864532
-0.099679776 0 0.040517628
-0.098166101 0 0.039579421
-0.097072721 0 0.039110482
-0.097578034 0 0.037628204
-0.096602768 0 0.036567926
-0.095084682 0 0.035741895
-0.094121888 0 0.036801994
-0.09285289 0 0.040318072
-0.09343297 0 0.035831153
-0.092014991 0 0.040768534
-0.091208994 0 0.035566628
-0.090495363 0 0.035705984
-0.090129256 0 0.036816001
-0.088202722 0 0.036055595
-0.087266713 0 0.037285209
-0.086974107 0 0.033914983
-0.084696501 0 0.040341258
-0.084778085 0 0.036636114
-0.083044447 0 0.040433764
-0.081682704 0 0.038459271
-0.082002029 0 0.037576467
-0.080555625 0 0.041856021
-0.079957269 0 0.036831051
-0.079210624 0 0.039947152
-0.077827841 0 0.037036538
-0.07714732 0 0.039535582
-0.075979978 0 0.043826282
-0.075149134 0 0.041461498
-0.074405618 0 0.039189607
-0.073614098 0 0.038324952
-0.071943529 0 0.043507189
-0.071190149 0 0.042428046
-0.070735581 0 0.039505184
-0.068528756 0 0.044359595
-0.068410233 0 0.044092894
-0.067671314 0 0.042747438
-0.067063048 0 0.040657341
-0.066034488 0 0.042282522
-0.065109789 0 0.041509509
-0.063265219 0 0.045152396
-0.062903762 0 0.045580238
-0.060900707 0 0.047713906
-0.06055769 0 0.046460181
-0.059950132 0 0.04539749
-0.061445821 0 0.030550003
-0.064515971 0 0.0078932643
-0.059398219 0 0.023490906
-0.057558656 0 0.028585464
-0.056515511 0 0.025003642
-0.057700813 0 0.015412927
-0.054848574 0 0.022970974
-0.11185272 0.00094790442 0.016375452
-0.10431062 0.00089154375 0.04759112
-0.10252388 0.00088382652 0.045491397
-0.10106083 0.00087878987 0.045849919
-0.09953972 0.00087315548 0.045598745
-0.10016359 0.00088640349 0.042859077
-0.099887729 0.0008918547 0.039434433
-0.099196874 0.00089366548 0.040705532
-0.096885309 0.00088077557 0.042989314
-0.097579025 0.00089522038 0.040145785
-0.096522376 0.00089372572 0.03722775
-0.096463837 0.0009015312 0.038617671
-0.095371805 0.00089973403 0.038429528
-0.094976202 0.00090453529 0.039538413
-0.093656614 0.0009005444 0.03720203
-0.092623778 0.00089925999 0.042916954
-0.091936372 0.00090133701 0.036963373
-0.091304272 0.00090400269 0.034478724
-0.090684392 0.00090684392 0.037078261
-0.088599592 0.00089494535 0.037407786
-0.087865837 0.00089659018 0.038069129
-0.088272355 0.00091002433 0.037688047
-0.085687466 0.00089257775 0.035456449
-0.086443372 0.00090993027 0.03652063
-0.084292397 0.00089672761 0.035876215
-0.083718061 0.00090019417 0.036703825
-0.083005466 0.00090223335 0.037959993
-0.081682563 0.00089761056 0.03993082
-0.08068388 0.0008964875 0.039167047
-0.079925254 0.00089803658 0.040497363
-0.078943126 0.00089708099 0.039137095
-0.077661723 0.00089266355 0.041588515
-0.077854574 0.00090528576 0.039296985
-0.076268725 0.00089727913 0.03848207
-0.075429603 0.00089797151 0.039838254
-0.074435122 0.00089680869 0.040288061
-0.073222026 0.00089295156 0.041096449
-0.072224081 0.00089165533 0.039873481
-0.070797712 0.00088497141 0.045130491
-0.070541613 0.00089293183 0.041251808
-0.069401503 0.00088976283 0.045532495
-0.068091907 0.00088431046 0.040859461
-0.067484453 0.00088795333 0.040423036
-0.06677068 0.00089027575 0.042479128
-0.06582576 0.00088953727 0.041490912
-0.064768039 0.00088723336 0.040213704
-0.063602045 0.00088336185 0.043928057
-0.062502883 0.00088032236 0.043826967
-0.060223613 0.00086033734 0.053047329
-0.060362644 0.00087482098 0.049176008
-0.060595803 0.00089111476 0.040419966
-0.06163501 0.00091992551 0.029756069
-0.064642832 0.00097943691 0.0062327683
-0.059143793 0.00093879033 0.022189796
-0.057513647 0.00092763948 0.026512623
-0.056346197 0.00092370814 0.028041571
-0.057722349 0.00096203916 0.013869196
-0.054940943 0.00093120238 0.023598254
-0.11432923 0.0019377834 0.012187898
-0.10328949 0.0017656323 0.043400496
-0.10093339 0.0017402308 0.049402952
-0.10078365 0.0017527592 0.049670309
-0.099030793 0.0017373824 0.046489716
-0.10068654 0.0017820627 0.045651793
-0.10066286 0.0017975512 0.039434105
-0.10040253 0.0018090545 0.037179917
-0.097227223 0.0017677677 0.042165875
-0.097796194 0.0017944257 0.041580886
-0.09682034 0.0017929692 0.038498968
-0.095750786 0.0017897342 0.040007472
-0.095046081 0.0017933224 0.04083398
-0.094380885 0.0017977312 0.037296921
-0.093336649 0.0017949356 0.036658794
-0.092130326 0.0017889383 0.039161086
-0.091833107 0.0018006491 0.041973412
-0.090825781 0.0017985303 0.040272146
-0.090387829 0.0018077565 0.035989493
-0.089852788 0.0018152078 0.036839217
-0.088451251 0.0018051277 0.039608568
-0.087754257 0.0018093662 0.034701169
-0.08666002 0.0018054171 0.0351004
-0.086093187 0.0018124882 0.036306739
-0.083928972 0.0017857228 0.03779909
-0.083192594 0.0017890881 0.042713881
-0.081966005 0.0017818697 0.045542091
-0.081541158 0.0017921134 0.03905049
-0.081009746 0.0018002165 0.040832371
-0.079813294 0.0017935573 0.038425744
-0.078591309 0.0017861661 0.042590737
-0.078511149 0.0018048539 0.043518603
-0.0767055 0.0017838489 0.042921096
-0.076384641 0.0017972856 0.038958907
-0.075529188 0.0017983139 0.03873989
-0.074186683 0.001787631 0.039595127
-0.073529951 0.0017934133 0.039399683
-0.072702661 0.0017951274 0.041259587
-0.07161022 0.0017902557 0.036807239
-0.070276327 0.0017791477 0.044146687
-0.069181472 0.0017738839 0.041821539
-0.068653762 0.0017832145 0.039230466
-0.067283526 0.001770619 0.045742095
-0.066059902 0.0017615972 0.04295823
-0.066291027 0.0017916494 0.038348794
-0.064587913 0.0017695319 0.046067804
-0.063126191 0.0017535053 0.041695237
-0.063499764 0.0017887257 0.041401148
-0.061087646 0.0017706564 0.044753134
-0.060709707 0.0017855796 0.041549742
-0.061231527 0.0018278067 0.032690495
-0.06283956 0.0019042292 0.016989589
-0.060422041 0.00191816 0.011155069
-0.057322599 0.0018491161 0.029139489
-0.056860454 0.0018642772 0.025557846
-0.056907766 0.0018969255 0.015075058
-0.05535328 0.0018763823 0.023260236
-0.10431506 0.0026747452 0.041784674
-0.10298344 0.0026633649 0.04450655
-0.10085632 0.0026310345 0.044794083
-0.098848872 0.0026012862 0.049819708
-0.0997767 0.0026489389 0.046496063
-0.10081265 0.0027003388 0.035182506
-0.099318482 0.0026842831 0.040422618
-0.098221742 0.0026787745 0.038473159
-0.097814001 0.0026921285 0.036403358
-0.097778916 0.0027160808 0.040005386
-0.097400673 0.0027308599 0.036684811
-0.095638216 0.0027067421 0.034986556
-0.094912045 0.0027117727 0.03840515
-0.093169577 0.0026875839 0.039490849
-0.092925705 0.0027065738 0.03724733
-0.092319913 0.0027152915 0.03500095
-0.090949841 0.0027014802 0.039372921
-0.09075325 0.0027225972 0.033078611
-0.090349533 0.0027378646 0.034873635
-0.087469108 0.0026776257 0.036741644
-0.087862171 0.0027173867 0.035103589
-0.08640261 0.0027000816 0.037613779
-0.084034853 0.0026537322 0.041858882
-0.084541485 0.0026981323 0.039864182
-0.083196886 0.0026837706 0.036869228
-0.082440414 0.0026882743 0.033894598
-0.082962885 0.0027350399 0.03690955
-0.080971062 0.0026990355 0.038785398
-0.07989157 0.0026929742 0.039306015
-0.07892552 0.0026906428 0.041899294
-0.078048639 0.0026913323 0.040038437
-0.077406697 0.0027002336 0.039820671
-0.077296026 0.002728095 0.040198863
-0.074736089 0.0026691458 0.041054577
-0.074106291 0.0026785405 0.038901955
-0.073244773 0.0026796865 0.040975988
-0.072328836 0.0026788458 0.041450232
-0.071719162 0.0026894684 0.038576424
-0.070601352 0.002681064 0.042183995
-0.068755642 0.0026444476 0.043041766
-0.06864351 0.0026744222 0.03987655
-0.067792393 0.0026760155 0.044088095
-0.066517368 0.0026606945 0.039889127
-0.066649415 0.0027020031 0.037077129
-0.063965149 0.0026287048 0.046427011
-0.063514099 0.0026464206 0.04164663
-0.063545689 0.0026850291 0.041160405
-0.059747066 0.0025605885 0.054031044
-0.061227683 0.0026620731 0.043166161
-0.06085185 0.0026846405 0.03890419
-0.060783364 0.0027216431 0.033604056
-0.061949193 0.0028158724 0.023294121
-0.061707485 0.0029384517 0.0090346932
-0.056978028 0.0027570012 0.028536499
-0.056661036 0.0027866082 0.02292937
-0.056244813 0.0028122405 0.024988025
-0.055747475 0.0028346174 0.017010599
-0.10641497 0.0036381187 0.037453294
-0.10232924 0.0035285943 0.046215594
-0.10126536 0.0035222736 0.046949565
-0.099896371 0.0035051359 0.049724936
-0.099469677 0.0035210506 0.045298159
-0.10108022 0.0036100079 0.037506908
-0.10020991 0.0036111681 0.03851819
-0.098394349 0.0035779763 0.036285371
-0.097299047 0.0035706072 0.043203086
-0.096441872 0.003571921 0.037555784
-0.096245326 0.0035979562 0.038121223
-0.095330141 0.0035973641 0.038899332
-0.095572688 0.0036408643 0.037814617
-0.09302038 0.0035777069 0.038781911
-0.093209639 0.0036197919 0.039962739
-0.092348143 0.0036214958 0.035236537
-0.090571806 0.0035870019 0.039655894
-0.091141783 0.0036456711 0.03643778
-0.088595681 0.0035796233 0.040436476
-0.08834365 0.0036058635 0.036954075
-0.087797135 0.0036205004 0.036216855
-0.086702488 0.0036126038 0.036450952
-0.085898519 0.0036167796 0.039271533
-0.085131146 0.003622602 0.034022748
-0.082791969 0.0035609449 0.039006501
-0.082493365 0.0035866681 0.042046517
-0.082447179 0.0036240518 0.039976597
-0.081226356 0.0036100601 0.035215467
-0.080536135 0.0036196017 0.038948119
-0.078572772 0.0035714898 0.03787294
-0.077798203 0.003576929 0.040347397
-0.077010341 0.0035818764 0.041250437
-0.076848298 0.0036163905 0.034758747
-0.075356051 0.0035883833 0.039836466
-0.074520975 0.0035913724 0.040405631
-0.07286609 0.0035544434 0.042575896
-0.072574183 0.0035839104 0.036788076
-0.071555026 0.0035777516 0.039603978
-0.070543155 0.0035718053 0.03957507
-0.068917572 0.0035342344 0.043184489
-0.068061166 0.0035356451 0.045407981
-0.067080781 0.0035305673 0.042625576
-0.067082278 0.0035777215 0.041350573
-0.067087233 0.0036263368 0.035085857
-0.06404262 0.0035091843 0.045394331
-0.063521393 0.0035289663 0.043061942
-0.061732806 0.0034779047 0.049444228
-0.061040696 0.0034880398 0.050041914
-0.060907152 0.0035308492 0.045063913
-0.061279748 0.003604691 0.037412584
-0.060975466 0.0036403262 0.033194482
-0.063698873 0.0038605379 0.012946248
-0.059133496 0.0037545078 0.02187559
-0.056349214 0.003635433 0.030632675
-0.057501812 0.0037706106 0.023748636
-0.055635806 0.0037090536 0.025469899
-0.056073707 0.0038016071 0.015562534
-0.10289039 0.0044349302 0.044410795
-0.10124251 0.0044018482 0.044885725
-0.099773452 0.0043760287 0.047354698
-0.099361002 0.0043965047 0.045977592
-0.099196889 0.0044284323 0.038985491
-0.10049424 0.0045267669 0.036237627
-0.098656915 0.0044844048 0.039082766
-0.097944118 0.0044928491 0.039248824
-0.09588626 0.0044391784 0.043017328
-0.097219661 0.0045429743 0.038426518
-0.095814928 0.004519572 0.037200928
-0.094480351 0.0044990643 0.035926491
-0.093987569 0.0045186332 0.037128627
-0.09308555 0.0045187161 0.037576228
-0.092309542 0.0045249774 0.034881145
-0.091357544 0.0045226505 0.039607525
-0.089666516 0.0044833254 0.037761778
-0.090087473 0.0045498721 0.033688277
-0.088921666 0.0045368196 0.035910815
-0.087294757 0.0044997297 0.036239594
-0.086700186 0.0045156344 0.035714805
-0.085304506 0.0044897106 0.036826462
-0.084822014 0.004511809 0.035802454
-0.083988257 0.0045154975 0.039076686
-0.082573168 0.0044876719 0.037909746
-0.081541486 0.0044803009 0.038287103
-0.081422262 0.0045234589 0.038307667
-0.079797707 0.0044830171 0.041399091
-0.0794615 0.0045148577 0.038777024
-0.077645794 0.0044624018 0.041442543
-0.076541774 0.0044501033 0.041487783
-0.076101035 0.0044765314 0.041532844
-0.075564533 0.0044978885 0.040002435
-0.074077971 0.004462528 0.04057169
-0.07384368 0.0045026634 0.036936343
-0.072688393 0.004486938 0.039607674
-0.07120394 0.0044502462 0.039698571
-0.070749164 0.0044777952 0.040291756
-0.069629878 0.0044634538 0.03894639
-0.068861485 0.0044715251 0.039419591
-0.067825541 0.0044622067 0.043007791
-0.066248976 0.004416598 0.043578714
-0.066051684 0.0044629513 0.037219256
-0.065301895 0.0044727321 0.045177162
-0.062659889 0.0043513812 0.047645271
-0.06247703 0.0043997909 0.044304103
-0.061451033 0.0043893596 0.0466052
-0.060996693 0.00442005 0.043668777
-0.061739944 0.0045397016 0.033781022
-0.06205355 0.0046308618 0.026771307
-0.06201233 0.004844713 0.0084768832
-0.057872131 0.0045930264 0.02734375
-0.057554264 0.0046414724 0.030270338
-0.057764959 0.0047348328 0.016587436
-0.055934552 0.0046612122 0.022599101
-0.11133836 0.0057096593 0.013763309
-0.10404186 0.0053814752 0.042652696
-0.10114496 0.0052771284 0.046946883
-0.10002429 0.0052644364 0.047751904
-0.099112526 0.0052626119 0.049473047
-0.098135054 0.0052572349 0.043234915
-0.099871516 0.0053984602 0.040865928
-0.098414503 0.0053680637 0.039387167
-0.097229265 0.0053520696 0.039859354
-0.096569754 0.0053649861 0.039578438
-0.096340552 0.0054022735 0.036116451
-0.094156362 0.0053296057 0.040193677
-0.094799303 0.0054171029 0.037104726
-0.09334632 0.0053853644 0.039180875
-0.093581229 0.0054513337 0.035142452
-0.092113733 0.0054184548 0.040646106
-0.090942621 0.0054025319 0.034238696
-0.090290599 0.0054174354 0.037973493
-0.089234971 0.0054081799 0.04057613
-0.088228188 0.0054017259 0.035388529
-0.087498829 0.0054122987 0.037944853
-0.085149296 0.005321831 0.041191638
-0.085172117 0.0053792913 0.037845552
-0.084049337 0.0053648511 0.041973919
-0.083328307 0.0053760195 0.037602693
-0.082521275 0.0053818221 0.039643526
-0.082177192 0.0054182759 0.037358403
-0.080450639 0.0053633754 0.038663328
-0.080420107 0.0054215803 0.037684053
-0.079747088 0.0054373015 0.037918299
-0.078923486 0.0054429993 0.036174625
-0.076708421 0.0053517506 0.040842682
-0.076767661 0.0054188939 0.039408416
-0.074629806 0.0053307004 0.041337699
-0.074442185 0.0053813625 0.041931421
-0.07341025 0.0053714816 0.043481231
-0.072555296 0.005374467 0.038004935
-0.072153367 0.0054115024 0.038453758
-0.07001441 0.0053175502 0.042419791
-0.068806067 0.0052927742 0.041554183
-0.068923742 0.0053706812 0.03920275
-0.067923434 0.0053623766 0.04365322
-0.06587375 0.0052698995 0.040437222
-0.065876476 0.0053413357 0.044795901
-0.064130686 0.0052710148 0.046999037
-0.063660122 0.0053050104 0.044211417
-0.061277274 0.0051783612 0.054483801
-0.061621346 0.0052818297 0.041270673
-0.06129729 0.0053301989 0.044580549
-0.062673859 0.0055300463 0.029788822
-0.059008759 0.005532071 0.024924129
-0.058594905 0.0055804667 0.029029161
-0.057402913 0.0055551203 0.025955468
-0.058358621 0.0057401923 0.011524051
-0.055921815 0.0055921813 0.026216
-0.10433683 0.0062961876 0.03883332
-0.10144439 0.0061748759 0.043523222
-0.099666275 0.0061198589 0.046647847
-0.099267915 0.00614934 0.044355094
-0.097513266 0.0060945791 0.048798919
-0.099130891 0.0062514977 0.041945308
-0.097783551 0.0062225894 0.037528157
-0.098110393 0.0063006668 0.038916677
-0.096845791 0.006277042 0.038635194
-0.095927268 0.0062756157 0.038989246
-0.094896175 0.0062667285 0.04273802
-0.095421061 0.006361404 0.036891013
-0.094625302 0.0063690105 0.035615474
-0.093650639 0.0063646068 0.035849661
-0.090856865 0.006235275 0.041140795
-0.090157047 0.0062485081 0.040172249
-0.091168426 0.0063817897 0.035440564
-0.089419037 0.006322558 0.036005825
-0.087267295 0.0062333783 0.040006012
-0.08720237 0.006292955 0.039436519
-0.085515954 0.0062355385 0.036850542
-0.08579997 0.0063221031 0.035827368
-0.08434736 0.0062811864 0.042019755
-0.084225282 0.006339537 0.038788885
-0.082539953 0.0062802136 0.038881451
-0.082747459 0.0063651889 0.039069027
-0.079724841 0.0062008211 0.041921318
-0.080342844 0.0063191005 0.036920875
-0.078910872 0.0062770015 0.040798724
-0.078194812 0.0062915366 0.040105134
-0.076567039 0.0062322011 0.041365594
-0.076288201 0.0062825573 0.038738936
-0.075027853 0.0062523209 0.038854003
-0.074285693 0.0062650582 0.040497124
-0.073245779 0.0062526879 0.040851623
-0.072354026 0.0062528173 0.040560901
-0.071280107 0.00623701 0.044813097
-0.070115626 0.0062127765 0.041628659
-0.069732204 0.0062580183 0.040260047
-0.068229571 0.0062026884 0.043679297
-0.066937543 0.0061653 0.042214066
-0.067520522 0.0063019153 0.036432832
-0.065301605 0.006177179 0.04167679
-0.064101897 0.0061467569 0.047692895
-0.06328176 0.0061523933 0.046441764
-0.061543372 0.0060676564 0.048694938
-0.061131272 0.0061131273 0.045400769
-0.062269058 0.0063171508 0.035422713
-0.064187691 0.0066075562 0.020219088
-0.063131861 0.0067988159 0.0096042752
-0.058910098 0.0064432919 0.027981341
-0.058440816 0.0064934236 0.027438104
-0.057811521 0.0065271072 0.021375686
-0.057308517 0.0065763872 0.021962255
-0.056686506 0.0066134259 0.018859327
-0.10561601 0.0072838627 0.032437772
-0.10182406 0.0070834127 0.043568254
-0.099608481 0.0069900686 0.046059519
-0.098686844 0.0069866795 0.047333509
-0.097607657 0.0069719758 0.04966563
-0.098565802 0.0071038413 0.039029807
-0.098244846 0.0071450793 0.040888846
-0.098631836 0.0072390339 0.035832822
-0.09643475 0.0071433145 0.039339811
-0.096943945 0.0072481451 0.039976925
-0.095110647 0.0071781622 0.042382568
-0.094927758 0.007232591 0.035356313
-0.093946166 0.0072266283 0.038375229
-0.093749896 0.0072815455 0.035352141
-0.091298744 0.007160686 0.040217429
-0.091848552 0.0072751329 0.035039812
-0.090153046 0.0072122435 0.039650053
-0.088624179 0.0071615493 0.03912884
-0.087536164 0.0071458095 0.038133115
-0.087319195 0.0072015831 0.036804199
-0.086428411 0.0072023673 0.040121168
-0.08611735 0.0072519877 0.038411826
-0.084667183 0.0072057182 0.035489708
-0.083558843 0.0071878573 0.038953424
-0.082880631 0.0072070109 0.035766542
-0.081331886 0.0071500558 0.038068682
-0.081177294 0.0072157588 0.035805196
-0.079677224 0.0071619982 0.041370511
-0.079022616 0.0071838745 0.037010133
-0.07814467 0.0071857171 0.040460765
-0.077030055 0.0071655866 0.041649818
-0.076320253 0.0071830829 0.038951904
-0.075250007 0.0071666669 0.043100238
-0.074480534 0.0071788463 0.040471435
-0.073105358 0.0071322299 0.040085346
-0.072699241 0.0071801725 0.03936407
-0.071004301 0.0071004303 0.039550453
-0.070603848 0.0071497569 0.041578919
-0.069336995 0.007111487 0.042149067
-0.068645962 0.0071320483 0.040779889
-0.068450272 0.0072052917 0.036151022
-0.066169269 0.0070580556 0.04268676
-0.064917147 0.0070180697 0.043185562
-0.064221576 0.0070379805 0.046779156
-0.063071527 0.0070079481 0.043103665
-0.062725358 0.0070676464 0.043626547
-0.061679166 0.0070490474 0.045831084
-0.062390584 0.0072336909 0.034556001
-0.061185047 0.0075304671 0.018870682
-0.059003729 0.0073754662 0.030725092
-0.057876639 0.0073494143 0.029460281
-0.05849988 0.0075483713 0.020434856
-0.057879396 0.0075907405 0.022419274
-0.10227049 0.0080037769 0.041222572
-0.10034546 0.0079220096 0.042281687
-0.10003433 0.0079673361 0.045618147
-0.097011119 0.007795536 0.046986282
-0.097765461 0.0079269288 0.046499789
-0.098821908 0.0080854278 0.03938207
-0.096633144 0.0079788836 0.041924477
-0.097942755 0.008161895 0.037007272
-0.096126273 0.0080853868 0.04162389
-0.094318897 0.0080082081 0.039976209
-0.094817787 0.0081272386 0.04009521
-0.09278179 0.0080291936 0.040166914
-0.092833132 0.0081116324 0.038514674
-0.09104114 0.0080330418 0.043216199
-0.090954475 0.0081048543 0.040097564
-0.090331875 0.0081298677 0.034041524
-0.088426411 0.0080387639 0.041683286
-0.087375119 0.0080242455 0.040215373
-0.087418251 0.0081109721 0.035688579
-0.085752577 0.0080393041 0.038435668
-0.084912859 0.008044376 0.03950125
-0.08442305 0.0080830576 0.038288981
-0.083764486 0.0081062401 0.038666457
-0.082018338 0.008023533 0.039353073
-0.082068846 0.0081166979 0.037448525
-0.080268592 0.0080268579 0.039348066
-0.079614937 0.0080509484 0.037464827
-0.07868854 0.0080476915 0.039651692
-0.077990413 0.0080679739 0.038695514
-0.077010773 0.008059267 0.040145844
-0.076590076 0.008109537 0.038878381
-0.07501065 0.0080368547 0.040568471
-0.074115083 0.0080365753 0.042618215
-0.073890045 0.0081098825 0.040823817
-0.071858287 0.0079842545 0.042946905
-0.071593657 0.0080542862 0.041580856
-0.070600234 0.0080430647 0.039997935
-0.06918411 0.0079827821 0.03944242
-0.068946667 0.0080587007 0.039796054
-0.068414897 0.0081017632 0.035526365
-0.065343522 0.007841222 0.0446738
-0.065046892 0.0079111075 0.045820832
-0.063863665 0.0078736022 0.047952175
-0.062489439 0.0078111799 0.049317122
-0.06252183 0.0079253027 0.045232922
-0.062071107 0.0079805702 0.04263413
-0.06426093 0.0083818603 0.024798334
-0.061048899 0.008452924 0.024646163
-0.058653947 0.0082482109 0.026798785
-0.058241632 0.0083202329 0.027387291
-0.059326008 0.0086118393 0.015879542
-0.057424232 0.0084724277 0.019549578
-0.10467009 0.0091017466 0.034541637
-0.1019038 0.0089389291 0.040239245
-0.099061035 0.008766463 0.042119384
-0.098300949 0.0087768706 0.045598388
-0.096990727 0.0087379031 0.048118412
-0.096391954 0.0087629044 0.043494195
-0.098422788 0.0090296129 0.039381444
-0.096799642 0.0089629292 0.041430771
-0.095175803 0.0088949343 0.041126937
-0.095194347 0.0089805983 0.040751785
-0.09341339 0.0088965138 0.042757988
-0.09296684 0.0089391191 0.038135231
-0.093010381 0.0090301335 0.039527863
-0.091373459 0.0089581823 0.038063139
-0.0903465 0.0089451978 0.037849396
-0.089504816 0.0089504812 0.041443676
-0.088843241 0.0089740641 0.038651347
-0.087729961 0.0089520374 0.037679046
-0.08795926 0.0090679647 0.036278963
-0.085594118 0.0089160539 0.038836569
-0.085263051 0.0089750579 0.039000839
-0.084563337 0.0089960992 0.037954539
-0.083616197 0.0089909881 0.036693066
-0.082811661 0.0090012671 0.037616193
-0.080858015 0.0088854963 0.042296648
-0.079889387 0.0088765975 0.040321171
-0.079901695 0.0089777187 0.040247411
-0.078825541 0.0089574475 0.039197028
-0.077861622 0.0089496123 0.039336622
-0.077139661 0.0089697279 0.039285421
-0.076007955 0.0089421123 0.040044844
-0.075873308 0.0090325354 0.039205998
-0.074328847 0.0089552822 0.038939118
-0.072945677 0.0088958135 0.041179806
-0.072183259 0.0089115137 0.041988552
-0.071336135 0.0089170169 0.041435003
-0.07016629 0.0088818092 0.041359156
-0.069712169 0.0089374576 0.04219237
-0.068597034 0.0089087058 0.039267033
-0.067077443 0.0088259783 0.042375207
-0.064957827 0.0086610438 0.046636373
-0.065211706 0.0088123921 0.042989045
-0.06373743 0.0087311547 0.048860878
-0.063250393 0.0087847775 0.044298857
-0.062283862 0.0087723751 0.042901605
-0.062954389 0.0089934841 0.035906702
-0.065231264 0.0094538061 0.022490174
-0.06496077 0.0098425411 0.0052686036
-0.059477095 0.0091503225 0.028928697
-0.059729185 0.0093326848 0.027688056
-0.059402872 0.0094290264 0.02213496
-0.057854813 0.009331421 0.020336241
-0.059446309 0.0097452961 0.0065321922
-0.1014365 0.0097877327 0.03918165
-0.099790774 0.0097141461 0.04399389
-0.098419867 0.009666237 0.046534747
-0.09657409 0.0095704049 0.048843741
-0.096909724 0.009690972 0.046077549
-0.096512929 0.0097398367 0.042484134
-0.095802262 0.009757637 0.039498031
-0.096354485 0.0099056009 0.035777748
-0.095394611 0.0098994412 0.041432798
-0.094980031 0.0099502895 0.035444736
-0.093580782 0.0098979678 0.039713889
-0.091606267 0.0097831935 0.041036576
-0.091295533 0.0098455967 0.040210724
-0.091331795 0.0099470261 0.041274786
-0.089451991 0.0098397182 0.04141742
-0.088691317 0.0098545905 0.038743585
-0.088217698 0.0099019865 0.036895275
-0.08742518 0.0099141961 0.036987573
-0.086260237 0.0098839849 0.038431138
-0.085071839 0.0098504229 0.040279359
-0.084736571 0.0099159814 0.03375107
-0.083268665 0.0098489812 0.040490508
-0.082473144 0.0098609189 0.04020378
-0.081188314 0.0098139718 0.039750159
-0.080949455 0.0098938216 0.039771557
-0.079912595 0.009876838 0.038983494
-0.078768216 0.009846027 0.039908886
-0.077903382 0.0098498529 0.040930361
-0.077293701 0.0098864026 0.037471324
-0.076114677 0.0098501341 0.039159894
-0.075447626 0.0098800464 0.041327178
-0.073660381 0.0097622182 0.042040169
-0.073171213 0.0098156491 0.040054649
-0.07246422 0.00984082 0.041531891
-0.071446396 0.0098238802 0.041647583
-0.071607426 0.0099706538 0.038773268
-0.069591105 0.0098141292 0.040131658
-0.068500526 0.0097857891 0.03945604
-0.066781931 0.0096658058 0.047330827
-0.065515369 0.0096089207 0.048023343
-0.06411206 0.0095301708 0.046750307
-0.064333074 0.0096940249 0.047346711
-0.062684886 0.0095768571 0.046935558
-0.062377907 0.0096641826 0.043739051
-0.064244859 0.010095621 0.032974422
-0.065173231 0.010389935 0.018716604
-0.064484291 0.010747381 0.0067597628
-0.060462695 0.010232148 0.024956048
-0.058797032 0.010105739 0.031177163
-0.059315626 0.010356695 0.019484222
-0.059034947 0.010473941 0.020021707
-0.1031872 0.01086181 0.034231842
-0.10061926 0.010685231 0.043897122
-0.098255552 0.010527381 0.043714404
-0.097832352 0.010576471 0.046044886
-0.095364705 0.010403423 0.044969618
-0.0952181 0.010482727 0.045515716
-0.097187608 0.010798623 0.039307088
-0.095995225 0.010765819 0.039284617
-0.094195388 0.01066363 0.041029364
-0.09541934 0.010905067 0.038814425
-0.092249371 0.010644158 0.042920172
-0.091964878 0.010714355 0.04183653
-0.091409862 0.010754102 0.042853862
-0.090316929 0.010730724 0.039097309
-0.090167321 0.010820079 0.037512064
-0.088632599 0.010743344 0.038882941
-0.088548206 0.010842637 0.033435553
-0.087741002 0.010854556 0.036416441
-0.086169034 0.010771129 0.037598789
-0.084480166 0.010671179 0.038189292
-0.085048698 0.01085728 0.039017588
-0.083207779 0.010736487 0.039252907
-0.081713386 0.010658267 0.040533692
-0.08118818 0.010706132 0.039462179
-0.080713801 0.010761839 0.03981638
-0.079382919 0.010703315 0.041384429
-0.079276182 0.010810388 0.041977704
-0.07780996 0.010732408 0.039188504
-0.076427467 0.010664297 0.041759074
-0.076281741 0.010769187 0.040254205
-0.074640773 0.010662966 0.041562915
-0.073873252 0.01068047 0.040342391
-0.073538274 0.010761698 0.038642764
-0.071805999 0.010637926 0.042580366
-0.071197622 0.010679644 0.043700635
-0.070218414 0.010666088 0.045084834
-0.069945574 0.010760858 0.037042081
-0.068210058 0.010630138 0.045893252
-0.065921769 0.0104087 0.047806531
-0.065106466 0.010417034 0.048643023
-0.065398186 0.010605111 0.044925123
-0.064363621 0.01058032 0.043769896
-0.063332677 0.010555446 0.042349398
-0.064350568 0.010876153 0.035598546
-0.063942008 0.010961487 0.030978888
-0.066403672 0.011548465 0.012012392
-0.063535169 0.011551849 0.011762559
-0.059871908 0.011053275 0.029526412
-0.059197351 0.011099503 0.024506658
-0.059709728 0.011373281 0.019795954
-0.060434882 0.011697073 0.0065048039
-0.10105603 0.011625915 0.038615406
-0.099313296 0.011527436 0.048195064
-0.097127773 0.011375325 0.048860431
-0.095946014 0.011339074 0.046212137
-0.095550872 0.011395975 0.048523039
-0.094664127 0.011394755 0.045964777
-0.09542755 0.011594001 0.040223747
-0.095930785 0.011765096 0.038080782
-0.093171738 0.011535549 0.041806191
-0.092622951 0.011577869 0.039142072
-0.092493102 0.011673886 0.040700287
-0.091126077 0.011614108 0.03855148
-0.090889215 0.011698612 0.036754429
-0.089865074 0.011682459 0.040678442
-0.089082919 0.011697756 0.037294626
-0.087062411 0.011549096 0.04115206
-0.087837949 0.011772097 0.038688123
-0.086344726 0.011692516 0.035936624
-0.08569631 0.011726864 0.042384624
-0.083558954 0.011556026 0.04307279
-0.083361723 0.011652713 0.038537651
-0.082231894 0.011619724 0.042051166
-0.080971248 0.011567322 0.040362477
-0.080611482 0.01164388 0.039551795
-0.080388293 0.01174211 0.03885898
-0.07833793 0.011572649 0.0381414
-0.077990681 0.01165378 0.038447142
-0.077021286 0.011642752 0.039205819
-0.075531177 0.011551826 0.042635769
-0.07482557 0.011580147 0.040295362
-0.074184716 0.011619292 0.04246372
-0.073219441 0.011607959 0.038830906
-0.071868353 0.011534427 0.045229286
-0.071182713 0.011567191 0.043840796
-0.071020849 0.011686975 0.039939523
-0.06872721 0.011454535 0.046873331
-0.067218781 0.011348626 0.048642695
-0.066285387 0.011338289 0.045958817
-0.065137498 0.011290499 0.051035374
-0.065065086 0.011430353 0.046575725
-0.063899212 0.011379311 0.045277417
-0.064165697 0.011585474 0.040450841
-0.06532561 0.011961027 0.030243218
-0.064462438 0.011971597 0.029607832
-0.06468837 0.012551473 0.00916031
-0.06178413 0.012169601 0.025664061
-0.060258362 0.012051673 0.027045786
-0.061411273 0.012474164 0.017307431
-0.060065489 0.012394466 0.01765126
-0.099042624 0.012380328 0.042557627
-0.096807294 0.012209929 0.045732647
-0.097392797 0.012395447 0.047877282
-0.094678193 0.012160501 0.05249393
-0.094459713 0.012244777 0.047020167
-0.094796434 0.012403271 0.042693168
-0.094905421 0.012534679 0.037300199
-0.093900897 0.01252012 0.039280117
-0.09343759 0.012578137 0.040412903
-0.092102841 0.012518833 0.036731243
-0.090100951 0.012366797 0.041831642
-0.090691045 0.012571035 0.04027307
-0.088628225 0.012407952 0.039800227
-0.089263245 0.012623086 0.037812233
-0.08780957 0.012544225 0.044203013
-0.087664358 0.012652588 0.033354878
-0.087259427 0.012725333 0.039465576
-0.085081145 0.012538275 0.040033281
-0.083485357 0.01243399 0.042310029
-0.083851874 0.012622862 0.039531767
-0.082356453 0.012532503 0.038935781
-0.082619421 0.012710679 0.037816018
-0.079877302 0.012425357 0.039738894
-0.079418287 0.012492765 0.03949827
-0.077954538 0.012401858 0.043661475
-0.077720188 0.012506697 0.040706843
-0.076512963 0.012455598 0.042419881
-0.076178692 0.012547079 0.039365739
-0.074594103 0.01243235 0.043512613
-0.074094526 0.012497871 0.037495911
-0.073120512 0.012483989 0.041908205
-0.072452754 0.012522698 0.043171018
-0.071903586 0.012583127 0.036881596
-0.070320792 0.012461913 0.045197368
-0.068404384 0.012277709 0.045888603
-0.068015069 0.012366376 0.045550942
-0.066002443 0.012158344 0.053115398
-0.065370269 0.01220245 0.049018711
-0.065135166 0.012322868 0.043863475
-0.064322874 0.012335893 0.045825303
-0.065157972 0.012669606 0.031643122
-0.066018924 0.013017817 0.023760617
-0.065086417 0.013400145 0.014298439
-0.06214213 0.012984922 0.028872997
-0.061227459 0.012987643 0.024699867
-0.061434165 0.013231974 0.019969881
-0.060416494 0.013216107 0.020627588
-0.10107821 0.013537261 0.033447087
-0.099777706 0.013483474 0.043239176
-0.096945114 0.013219789 0.045969605
-0.094868869 0.013055349 0.048844367
-0.094991796 0.013193304 0.049416423
-0.093276747 0.013076179 0.047163337
