ply
format ascii 1.0
comment PCL generated
element vertex 1269
property float x
property float y
property float z
element camera 0
property float view_px
property float view_py
property float view_pz
property float x_axisx
property float x_axisy
property float x_axisz
property float y_axisx
property float y_axisy
property float y_axisz
property float z_axisx
property float z_axisy
property float z_axisz
property float focal
property float scalex
property float scaley
property float centerx
property float centery
property int viewportx
property int viewporty
property float k1
property float k2
end_header
-0.0052653872 -0.074592985 0.043177485
-0.0044321003 -0.075345702 0.045421332
-0.0035419585 -0.075266615 0.040985256
-0.0026262857 -0.074411429 0.042894691
-0.0017740249 -0.075396061 0.043420166
-0.00088505214 -0.075229436 0.043134302
0 -0.075052217 0.042537957
0.00087694061 -0.074539952 0.045710891
0.0017792734 -0.075619116 0.040461898
0.0026649337 -0.075506456 0.038338035
0.0035689161 -0.075839467 0.038408786
0.004407648 -0.07493002 0.042272389
0.0052396236 -0.074228004 0.047161281
0.0061531495 -0.074716814 0.041696846
0.0070910105 -0.075341985 0.041194081
0.0080386978 -0.075921036 0.039355397
0.008682739 -0.073803283 0.044409424
0.0095799258 -0.074026704 0.047340095
0.010579601 -0.074938849 0.043831319
0.01140458 -0.074568413 0.043899536
0.012348462 -0.074972808 0.042727649
0.013348259 -0.075640135 0.043272346
0.014130026 -0.075065762 0.038047493
0.014744222 -0.073721111 0.050224423
0.015689267 -0.074088208 0.046834677
0.016370019 -0.073234297 0.045471132
0.017515542 -0.07444106 0.043249726
0.018253976 -0.073885143 0.044769347
0.019239997 -0.07433635 0.043810666
0.019787239 -0.073126748 0.048568755
0.020768983 -0.073556818 0.048371434
0.021873796 -0.074370906 0.047911912
0.02298208 -0.075133719 0.042857021
0.023364104 -0.073553659 0.04868266
0.024270462 -0.073678188 0.046556324
0.024698215 -0.072391316 0.058233112
0.02563105 -0.072621308 0.051988989
0.026541457 -0.072774954 0.054501206
0.028026128 -0.074444406 0.048116714
0.030144112 -0.077643931 0.028464943
0.030610833 -0.076527081 0.033190578
0.033258077 -0.080769613 0.013263971
-0.022171991 -0.077601969 0.025282085
-0.021344321 -0.077953175 0.025238007
-0.018643642 -0.074574567 0.039571315
-0.01749577 -0.073482238 0.052140415
-0.016438307 -0.072674625 0.047640026
-0.015519053 -0.072422251 0.049409896
-0.014823629 -0.073246166 0.04965356
-0.013902464 -0.072987936 0.04915759
-0.013199355 -0.073916391 0.043914378
-0.012306272 -0.073837638 0.045707345
-0.011376225 -0.07350792 0.043492287
-0.010446802 -0.073127612 0.044569224
-0.0096766315 -0.073894277 0.047626466
-0.0087772077 -0.073728547 0.04283312
-0.0079396693 -0.074103586 0.044267356
-0.0069647687 -0.073130071 0.045868605
-0.0061157472 -0.073388964 0.046037704
-0.0052988376 -0.074183732 0.040717125
-0.0044597001 -0.074922964 0.038260102
-0.0035635601 -0.074834764 0.040791184
-0.0026528551 -0.074279949 0.04594776
-0.0017607197 -0.073950224 0.03988561
-0.00088812533 -0.074602529 0.041127175
0 -0.0744223 0.04377687
0.00088711083 -0.07451731 0.038573146
0.0017767121 -0.074621916 0.040744931
0.0026680718 -0.074706011 0.037617475
0.0035420787 -0.074383654 0.040671825
0.0044307606 -0.074436784 0.040408224
0.0052777152 -0.073888019 0.044249475
0.00619009 -0.074281082 0.037589103
0.0070039076 -0.07354103 0.04677546
0.0079552401 -0.074248917 0.040783256
0.0088082282 -0.073989123 0.040804774
0.0096825371 -0.073939376 0.044190526
0.010492612 -0.073448285 0.046263188
0.011402587 -0.073678263 0.045472473
0.012282894 -0.073697366 0.045325637
0.013422088 -0.075163692 0.035851866
0.013887198 -0.072907791 0.049348414
0.014773964 -0.073000766 0.046743989
0.015874246 -0.074079819 0.043734461
0.016797336 -0.074261911 0.038603157
0.017543452 -0.073682502 0.043009281
0.018156808 -0.072627231 0.043480754
0.019442406 -0.074234642 0.041973561
0.019979468 -0.07296849 0.049379677
0.021096846 -0.073838964 0.046680123
0.021928001 -0.073678084 0.047149807
0.022818683 -0.073721901 0.043831468
0.023565577 -0.073315129 0.045872837
0.024109311 -0.072327934 0.052795142
0.024620879 -0.071315646 0.056762427
0.025865335 -0.072422937 0.049420357
0.026547424 -0.071934953 0.054171652
0.027773689 -0.072905935 0.046689272
0.030844294 -0.078512751 0.019343078
0.030183405 -0.074570768 0.036156923
0.033108294 -0.079459913 0.014126837
-0.022340389 -0.077260517 0.024937093
-0.021158909 -0.076356061 0.028111815
-0.021237167 -0.080122046 0.010111123
-0.018920897 -0.074782595 0.037921548
-0.017347071 -0.071990348 0.048206836
-0.016402319 -0.071652234 0.049739242
-0.015483855 -0.071397781 0.050985366
-0.014656609 -0.071558744 0.052398503
-0.01373091 -0.071229093 0.049182147
-0.013327663 -0.073746406 0.041430414
-0.012243086 -0.072584011 0.045228958
-0.011569643 -0.073867731 0.040243894
-0.010637502 -0.073576063 0.042896599
-0.0097044464 -0.073224463 0.042398244
-0.0088096475 -0.07312008 0.044310838
-0.0079049598 -0.072901301 0.04371649
-0.0071287048 -0.073960312 0.043599337
-0.0061986176 -0.073497899 0.043410242
-0.0052588633 -0.072747618 0.043722391
-0.0044243205 -0.073443726 0.042171627
-0.0035459998 -0.073579498 0.043581694
-0.0026756746 -0.074027002 0.034316868
-0.0017565853 -0.072898291 0.042675823
-0.00088468892 -0.073429182 0.040455192
0 -0.072517596 0.047404885
0.00088313658 -0.073300339 0.042246312
0.0017637496 -0.073195614 0.040789187
0.0026439726 -0.07314992 0.04093188
0.0035557908 -0.07378266 0.044990659
0.0044592442 -0.074023463 0.035915166
0.0052298503 -0.07234627 0.045537204
0.0062333001 -0.073909134 0.038634688
0.0069830553 -0.0724492 0.045294583
0.0078840088 -0.072708093 0.041090131
0.0089355847 -0.074165359 0.038413912
0.0096466746 -0.072788544 0.044976503
0.010566604 -0.073085681 0.042395324
0.011345449 -0.072436333 0.050913572
0.012252275 -0.072638489 0.042150021
0.01328381 -0.073503748 0.041669071
0.013970496 -0.072471954 0.046700358
0.014744835 -0.071989492 0.046123087
0.015989533 -0.073729523 0.042682678
0.016429516 -0.071771041 0.04985851
0.01754505 -0.072811961 0.041718841
0.018223463 -0.072026066 0.051253766
0.019336682 -0.072952032 0.044546157
0.019985318 -0.072120927 0.045589298
0.020984346 -0.072570868 0.045225322
0.021518802 -0.071442425 0.049771518
0.023002008 -0.073429488 0.03846699
0.023291001 -0.071598262 0.045967191
0.023936188 -0.070953704 0.051820785
0.024764391 -0.070877396 0.053527117
0.025590606 -0.070800684 0.054375112
0.026564317 -0.071123816 0.05091235
0.028054155 -0.07276547 0.044736385
0.031030476 -0.078046352 0.02087608
0.030637376 -0.074791245 0.031986207
0.033289213 -0.078942999 0.011373729
-0.022425825 -0.07662157 0.02452004
-0.021442311 -0.076446496 0.025477707
-0.021195155 -0.07900013 0.014172077
-0.019150717 -0.074778989 0.028133035
-0.017490467 -0.071710922 0.049447715
-0.016577071 -0.07154315 0.047042876
-0.015553801 -0.070856214 0.048408687
-0.014675007 -0.070785336 0.04822278
-0.013942062 -0.071453072 0.048967689
-0.013248289 -0.07242398 0.038705021
-0.01236698 -0.07243517 0.041000783
-0.011539659 -0.072788619 0.039762259
-0.010581858 -0.072309367 0.042416275
-0.0096639227 -0.072040156 0.048509777
-0.0088444585 -0.072524562 0.041275352
-0.0079765897 -0.072675608 0.040632725
-0.007082541 -0.072596051 0.045054197
-0.0062280218 -0.07295683 0.041233867
-0.005246772 -0.071705885 0.043600619
-0.0044300924 -0.072653517 0.043291539
-0.0035176494 -0.072111815 0.040903449
-0.0026225233 -0.071682304 0.041692764
-0.0017796748 -0.072966672 0.044393301
-0.00088202039 -0.072325677 0.041598201
0 -0.072448343 0.043223083
0.00089109986 -0.073070191 0.040307969
0.0017459856 -0.071585409 0.044727832
0.0026461771 -0.072328843 0.044010371
0.0034956685 -0.071661204 0.043364346
0.0044169524 -0.072438024 0.040758967
0.0052546561 -0.071813636 0.042764485
0.006249343 -0.073206596 0.040708274
0.0071260189 -0.073041692 0.037983119
0.0079647657 -0.072567873 0.044287533
0.0086886007 -0.071246535 0.043855041
0.0096803429 -0.072162561 0.039123118
0.010597621 -0.07241708 0.045353889
0.011528016 -0.072715186 0.040072769
0.012218212 -0.071563818 0.046015471
0.013138155 -0.071821921 0.044745922
0.013902907 -0.071252398 0.041876793
0.014920537 -0.071969658 0.045095503
0.015926534 -0.072554216 0.041868299
0.016376404 -0.070677117 0.046613306
0.017445123 -0.071525015 0.048349977
0.018342696 -0.071623862 0.044955671
0.019272735 -0.07183475 0.043041199
0.020199558 -0.072015814 0.043751031
0.021039058 -0.071883447 0.041264296
0.021791741 -0.071476914 0.046218783
0.022969944 -0.072443672 0.04466179
0.022763362 -0.069133177 0.053428322
0.024151547 -0.070729531 0.049724758
0.024845695 -0.070253342 0.053672642
0.025808726 -0.070543855 0.046395272
0.026278263 -0.069510244 0.049817652
0.028786371 -0.073765077 0.037826687
0.029851131 -0.074175544 0.028983712
0.030868987 -0.074448735 0.032287627
-0.022582803 -0.076216958 0.022336572
-0.02148982 -0.07568153 0.023986518
-0.020685596 -0.076160602 0.020504653
-0.019325504 -0.074541219 0.026881516
-0.017752094 -0.071895979 0.042595476
-0.016415024 -0.069979832 0.051698416
-0.015450703 -0.069528162 0.052683294
-0.014664917 -0.069874011 0.052545518
-0.013834216 -0.070035711 0.047701746
-0.013313887 -0.071894981 0.040754497
-0.012309472 -0.071219087 0.044700056
-0.011450563 -0.071345814 0.040235668
-0.010584879 -0.071447931 0.043297231
-0.0097008469 -0.071433507 0.042774498
-0.008855354 -0.071728364 0.040459067
-0.0079858676 -0.071872808 0.043424904
-0.0071008233 -0.07189583 0.038408041
-0.0061486666 -0.071148857 0.044217825
-0.0053199693 -0.071819581 0.04235518
-0.0043778792 -0.070921645 0.041663378
-0.0035674167 -0.072240181 0.038819909
-0.0026426308 -0.071351029 0.04439044
-0.0017475568 -0.070776053 0.044701904
-0.00087617687 -0.070970319 0.040184259
0 -0.071546584 0.039395511
0.00088974292 -0.072069176 0.036335558
0.0017493499 -0.070848666 0.04529953
0.0026591248 -0.071796365 0.040446222
0.0035377759 -0.071639955 0.041282028
0.0043763854 -0.070897445 0.043623447
0.0053357449 -0.072032556 0.037646383
0.0061419741 -0.071071409 0.042688102
0.0071395421 -0.072287865 0.038694799
0.0079966215 -0.071969599 0.038573384
0.0087693213 -0.071031503 0.044951886
0.0096154176 -0.070804439 0.046167791
0.010506026 -0.070915677 0.044205219
0.011330978 -0.070600711 0.043700159
0.012408141 -0.071789958 0.039467901
0.013212658 -0.071348354 0.041065037
0.013959382 -0.070669368 0.045551926
0.01481718 -0.070599504 0.047099888
0.015870903 -0.071419068 0.043273866
0.016570417 -0.0706423 0.045728594
0.017454833 -0.07069207 0.045794934
0.018162388 -0.070054919 0.04519245
0.019174481 -0.070596948 0.044446647
0.020111969 -0.070829101 0.04420197
0.021478863 -0.072491162 0.037537754
0.02172631 -0.070393234 0.047672898
0.022446148 -0.069928385 0.048429042
0.023241369 -0.069724105 0.05092591
0.024200033 -0.070007235 0.048580348
0.024582917 -0.068662621 0.054485649
0.025690755 -0.069365032 0.052735686
0.0268046 -0.070037819 0.049889535
0.028817525 -0.072944358 0.032816499
0.029847948 -0.073263146 0.029307544
0.030809063 -0.073398061 0.033708841
0.033432189 -0.077371635 0.0070500076
-0.022863001 -0.07621 0.017214119
-0.021382099 -0.074372515 0.023854822
-0.02061676 -0.074970037 0.021087736
-0.019662108 -0.074903265 0.026751161
-0.017903985 -0.071615942 0.037647367
-0.016542099 -0.069650941 0.046586871
-0.015721586 -0.069873713 0.049244195
-0.014593799 -0.068676695 0.051925719
-0.013824645 -0.069123223 0.055157065
-0.012886524 -0.068728127 0.052341998
-0.012401587 -0.070866212 0.041375279
-0.011497271 -0.070752442 0.042478234
-0.010606489 -0.070709929 0.041214406
-0.0096424185 -0.070126683 0.045042515
-0.0089056604 -0.071245283 0.040837258
-0.0078643756 -0.069905557 0.047893316
-0.0071788616 -0.071788616 0.036752731
-0.0062466348 -0.071390107 0.042589188
-0.0052529527 -0.070039362 0.044049621
-0.0044155694 -0.07064911 0.039244235
-0.0035038528 -0.070077054 0.046372056
-0.0026618456 -0.070982553 0.039437413
-0.0017714814 -0.070859253 0.038170427
-0.00088652602 -0.070922077 0.043073654
0 -0.070711821 0.04125616
0.0008865858 -0.07092686 0.042977989
0.001773036 -0.070921436 0.041853547
0.0026614869 -0.070972979 0.039748341
0.0035490531 -0.070981055 0.043382615
0.004370729 -0.069931664 0.043501049
0.0053024543 -0.070699386 0.039386362
0.0062252921 -0.07114619 0.041704416
0.0070870398 -0.070870392 0.04069823
0.007866527 -0.06992469 0.043421954
0.0087891016 -0.070312813 0.045523524
0.0097199995 -0.070690908 0.039424151
0.010487436 -0.069916241 0.042146742
0.011581176 -0.071268775 0.041306943
0.01231291 -0.070359483 0.042020649
0.013036201 -0.069526404 0.048709095
0.013971858 -0.069859289 0.044641882
0.014924876 -0.070234708 0.041722178
0.015800076 -0.070222557 0.046902657
0.01648082 -0.069392927 0.044030577
0.017451311 -0.069805242 0.045482576
0.018359244 -0.069939971 0.046050221
0.01934923 -0.070360839 0.044826299
0.020029671 -0.06966842 0.047112614
0.021337369 -0.071124561 0.042402536
0.022296272 -0.071348064 0.039985299
0.022069106 -0.067904942 0.053249866
0.023279946 -0.068977617 0.049327701
0.023775753 -0.067930721 0.051085263
0.025110165 -0.069269419 0.048667043
0.025484866 -0.067959644 0.057531506
0.02663267 -0.068729468 0.048053384
0.02973552 -0.074338794 0.026609182
0.029972425 -0.072660424 0.032635212
0.030333595 -0.071373165 0.032294989
-0.022995716 -0.075694233 0.012158334
-0.021388171 -0.073463716 0.024391741
-0.020815825 -0.074747734 0.019257993
-0.019519683 -0.073431186 0.024207026
-0.018155104 -0.071712658 0.031021297
-0.016763438 -0.069700606 0.045485705
-0.015550518 -0.068249501 0.049052566
-0.014619053 -0.067935601 0.047957987
-0.013938359 -0.068820648 0.050688446
-0.012742928 -0.067112759 0.051506162
-0.012300375 -0.069409259 0.044216871
-0.011474781 -0.069731362 0.042187631
-0.010664654 -0.070208967 0.038985789
-0.009668733 -0.069439083 0.046259969
-0.0088423397 -0.069854483 0.041885406
-0.0077873962 -0.068356037 0.048059702
-0.0071741585 -0.070844814 0.038755983
-0.0061989604 -0.069959693 0.03873378
-0.0052184984 -0.06871023 0.042180568
-0.0044416068 -0.070177384 0.043904632
-0.0034957177 -0.069040425 0.044480056
-0.0026776539 -0.070511557 0.036489278
-0.0017913509 -0.070758358 0.039624333
-0.00087995088 -0.069516115 0.042496085
0 -0.069970004 0.041562974
0.00088282226 -0.069742955 0.043309629
0.001756536 -0.069383167 0.040342182
0.002638174 -0.069471911 0.043356419
0.0035351971 -0.069820143 0.041321725
0.0043925578 -0.069402412 0.040554971
0.005290275 -0.069655284 0.044070661
0.0061545805 -0.069458835 0.043351233
0.0070574125 -0.069691949 0.041100442
0.0080253026 -0.070444323 0.040093631
0.0087645967 -0.069240317 0.042770505
0.0096878083 -0.069576077 0.043844134
0.010539086 -0.06938231 0.047500521
0.011272692 -0.068503283 0.043957382
0.012292005 -0.069362029 0.041490704
0.013440558 -0.070786931 0.037613362
0.013982353 -0.069037862 0.042869985
0.014917775 -0.069323778 0.044132799
0.015659166 -0.068726338 0.045897156
0.016359253 -0.068020053 0.046083212
0.017562401 -0.069371484 0.040700525
0.018345417 -0.069013707 0.04344359
0.018923476 -0.067952484 0.048742294
0.020493906 -0.070392109 0.035667866
0.021003567 -0.069136739 0.04423815
0.021774 -0.068805836 0.042918056
0.022349691 -0.067908674 0.051651448
0.023374831 -0.068393022 0.049016863
0.023863934 -0.067330383 0.052398622
0.024940418 -0.067941137 0.052843183
0.025754713 -0.067820743 0.050280422
0.02753659 -0.070173882 0.037888378
0.029221028 -0.072139412 0.028721035
0.029728903 -0.07116919 0.031458169
0.031134414 -0.072341725 0.030474246
-0.021458713 -0.072773024 0.026363164
-0.020692842 -0.073365532 0.020964265
-0.020131355 -0.074773602 0.013579488
-0.018486453 -0.072097175 0.025847346
-0.016694101 -0.068533674 0.042039692
-0.015549244 -0.067380056 0.048406035
-0.014899397 -0.068361938 0.050994337
-0.013706685 -0.066820085 0.049492359
-0.013019872 -0.067703329 0.050023288
-0.012043242 -0.067098066 0.049285948
-0.011470088 -0.068820529 0.041728973
-0.010765166 -0.069973581 0.036348075
-0.0095416792 -0.067659184 0.046449363
-0.0087130936 -0.067962132 0.04638049
-0.0078950059 -0.068423383 0.045856595
-0.0070684045 -0.068916947 0.042029411
-0.0062006316 -0.069092751 0.038464874
-0.0053168307 -0.069118798 0.045431912
-0.0043108524 -0.067249298 0.048497438
-0.0035512303 -0.069248989 0.038013875
-0.0026627609 -0.069231786 0.040193051
-0.0017845369 -0.069596939 0.040169716
-0.00086396834 -0.067389525 0.048979729
0 -0.068482079 0.046538085
0.00087958865 -0.068607911 0.04227677
0.0017766369 -0.069288842 0.037368864
0.002652168 -0.068956368 0.04174906
0.0034767827 -0.067797258 0.044477165
0.0044335322 -0.069163099 0.042345494
0.0053448365 -0.069482878 0.042008996
0.0061331927 -0.068341285 0.039996743
0.0071421238 -0.069635704 0.038104117
0.0078761587 -0.068260044 0.044947118
0.0087101022 -0.067938797 0.042694926
0.0098279491 -0.069689095 0.039485544
0.010613695 -0.068989016 0.037520647
0.011179253 -0.067075521 0.049098551
0.012567444 -0.070018619 0.03758654
0.013156233 -0.068412408 0.040525824
0.014057843 -0.068531983 0.0407134
0.014814008 -0.067970157 0.045588732
0.015451307 -0.066955671 0.047473282
0.016736129 -0.068706214 0.04337883
0.017329182 -0.067583814 0.048347175
0.018544843 -0.068880849 0.038467348
0.019338651 -0.068564311 0.045060068
0.020094009 -0.068144895 0.048615277
0.021238575 -0.069025367 0.042323261
0.021655817 -0.067566149 0.049365908
0.022208026 -0.066624075 0.051484615
0.022984348 -0.066399224 0.051524252
0.024154352 -0.067287125 0.052279949
0.025021391 -0.067298912 0.04577595
0.025677286 -0.066760942 0.04877609
0.027965764 -0.070365466 0.033203721
0.028866263 -0.070361517 0.029569834
0.030083418 -0.071106263 0.027965367
0.030946245 -0.070994325 0.028532326
-0.021498952 -0.071974754 0.022429883
-0.020538056 -0.071883202 0.020830572
-0.019071579 -0.073425576 0.012845963
-0.017009851 -0.068934657 0.034929782
-0.015873045 -0.067901365 0.045150578
-0.014810744 -0.067083955 0.048672974
-0.013822205 -0.066519365 0.050041944
-0.012887723 -0.066156976 0.052607596
-0.012070642 -0.066388533 0.047346145
-0.01125371 -0.06665659 0.048977822
-0.010623675 -0.068168581 0.044504732
-0.0097851297 -0.068495907 0.04007858
-0.0089955004 -0.069265358 0.037567049
-0.0078378106 -0.067056827 0.048392206
-0.0069538904 -0.066931196 0.046359271
-0.0062299278 -0.068529211 0.043176413
-0.0053009926 -0.068029404 0.042339921
-0.0044493726 -0.068520337 0.040042251
-0.0035469013 -0.068277851 0.043492049
-0.0026375994 -0.067698389 0.041409343
-0.0017883638 -0.068852007 0.037242621
-0.00087185617 -0.067132927 0.04653573
0 -0.067944579 0.04064402
0.00088598696 -0.068220995 0.038608134
0.0017537557 -0.067519598 0.044619292
0.0026135298 -0.067080602 0.043540865
0.0034939731 -0.067258976 0.049192011
0.0043748319 -0.067372411 0.040257782
0.0052729733 -0.067669824 0.044471323
0.0062596821 -0.068856508 0.039991438
0.0071215117 -0.068544552 0.04101935
0.0078340396 -0.067024566 0.046380848
0.0090122605 -0.06939441 0.035412163
0.0095691746 -0.066984221 0.04527393
0.010575554 -0.067859806 0.040865809
0.011445097 -0.067790188 0.044549257
0.01218458 -0.067015186 0.04667595
0.013193782 -0.067728087 0.038534224
0.01401749 -0.067459174 0.046978652
0.014956176 -0.067742676 0.039747238
0.015680313 -0.067076899 0.046323001
0.016606422 -0.067299709 0.043207675
0.017285822 -0.066550419 0.044087708
0.018370144 -0.06735719 0.045015097
0.019142458 -0.066998608 0.047807395
0.019975491 -0.066874467 0.044931471
0.021044753 -0.067518584 0.044996858
0.021615092 -0.066574484 0.049221516
0.02225564 -0.065910935 0.053564101
0.023043428 -0.065716438 0.051858813
0.024190666 -0.066524327 0.050536096
0.024653703 -0.065459833 0.052629769
0.02636279 -0.067664497 0.045072585
0.028123112 -0.069854178 0.0299474
0.030594978 -0.073619172 0.013585985
0.029772414 -0.069468968 0.031869531
0.031563129 -0.071481206 0.022101343
-0.021662908 -0.071581781 0.020239234
-0.02072121 -0.07158237 0.022371471
-0.017849917 -0.071399666 0.022571206
-0.015922368 -0.067227773 0.041389138
-0.014849108 -0.066384248 0.046181649
-0.013807502 -0.065585636 0.052555114
-0.012770642 -0.064704582 0.051314831
-0.012087939 -0.065620244 0.052971691
-0.011254227 -0.065793939 0.048689038
-0.010423788 -0.06601733 0.042657048
-0.009700059 -0.067018591 0.044121087
-0.0089721 -0.068187967 0.038446724
-0.0078915525 -0.066639781 0.045060724
-0.007085986 -0.067316867 0.042499632
-0.0060801888 -0.066013485 0.04604736
-0.005276843 -0.066840015 0.044084489
-0.0044136881 -0.06708806 0.044732898
-0.0035638721 -0.067713574 0.041858852
-0.0026404334 -0.066890985 0.043009847
-0.0017435428 -0.066254631 0.045334756
-0.00088585663 -0.067325108 0.039105177
0 -0.067848869 0.039752275
0.00087998615 -0.066878945 0.047036439
0.0017648684 -0.067065001 0.037786961
0.0026576852 -0.067328028 0.043057799
0.0035502149 -0.067454085 0.043871492
0.0044328556 -0.067379408 0.039773196
0.0052718115 -0.066776283 0.043461561
0.0061640423 -0.066923887 0.043124437
0.007073049 -0.067193963 0.041205972
0.0079168854 -0.066853702 0.047671884
0.0089463489 -0.067992255 0.037081331
0.0096651474 -0.066777386 0.042396486
0.010497797 -0.066486053 0.045531183
0.01133751 -0.066280827 0.044258446
0.012181812 -0.066129841 0.044853538
0.013111862 -0.066433437 0.047842771
0.01395978 -0.066308953 0.037662446
0.014588633 -0.065219767 0.045870423
0.015653063 -0.06609071 0.047373682
0.016529933 -0.06611973 0.041982919
0.01753909 -0.066648543 0.045185
0.018255478 -0.066067442 0.04673481
0.019151265 -0.066158913 0.044240385
0.020248793 -0.066909052 0.043468893
0.020820489 -0.065931551 0.04946667
0.021838782 -0.066389896 0.045082659
0.021908371 -0.064039849 0.058825642
0.022942659 -0.06457933 0.053508461
0.02426536 -0.065863118 0.044200569
0.024924941 -0.065320536 0.048423499
0.026943035 -0.068255693 0.034315795
0.029641416 -0.072669275 0.0091269016
0.030505814 -0.072451308 0.017748713
0.02953385 -0.068017356 0.034487426
0.032436144 -0.072504319 0.014518082
-0.021934232 -0.071524665 0.015006781
-0.020150024 -0.068693273 0.028222352
-0.020085001 -0.071732149 0.010102928
-0.016242145 -0.067675605 0.035372764
-0.015071667 -0.066492647 0.042849422
-0.013870317 -0.065017112 0.041895509
-0.013010027 -0.06505014 0.052320361
-0.012095955 -0.064799763 0.051486433
-0.011039754 -0.063690893 0.053071976
-0.010388998 -0.064931244 0.051590383
-0.0096965674 -0.066112965 0.040810257
-0.0089090839 -0.066818133 0.041340083
-0.0079981443 -0.066651203 0.041318446
-0.0070431954 -0.066029958 0.045802623
-0.0062251547 -0.066698089 0.039956242
-0.0053062141 -0.066327684 0.045998216
-0.0043530758 -0.065296136 0.045712113
-0.0035415248 -0.06640359 0.044706523
-0.0026529636 -0.066324092 0.043772578
-0.0018029494 -0.067610599 0.03401652
-0.00087097794 -0.065323345 0.044876367
0 -0.066892244 0.041616231
0.00087900873 -0.065925658 0.042263359
0.0017554844 -0.065830663 0.045690984
0.0026533233 -0.066333085 0.042981476
0.0035283405 -0.066156387 0.041901886
0.0044318796 -0.066478193 0.041133672
0.0052893152 -0.066116445 0.044847667
0.0060913484 -0.065264449 0.042712659
0.0070221042 -0.065832227 0.046833217
0.0079803485 -0.066502914 0.041486233
0.0088383863 -0.066287905 0.041675597
0.0096445065 -0.065758005 0.045986414
0.010626223 -0.066413902 0.042317003
0.011339558 -0.065420531 0.04490152
0.012320684 -0.066003673 0.044514567
0.013215751 -0.06607876 0.041899443
0.013690181 -0.06417273 0.049776405
0.015070649 -0.066488162 0.042585969
0.015444641 -0.064352676 0.045646936
0.016432803 -0.064866334 0.046288431
0.017535092 -0.065756597 0.044343561
0.017969664 -0.064177372 0.050658435
0.019741889 -0.067301899 0.037821293
0.019605663 -0.06393151 0.052057117
0.020575801 -0.064299382 0.052408695
0.021459876 -0.064379632 0.053501666
0.022328844 -0.064410128 0.05148381
0.023440674 -0.065112978 0.048437804
0.024016879 -0.064330928 0.050677896
0.025333242 -0.065517008 0.042539179
0.028300051 -0.070750132 0.012718827
0.028963344 -0.067882843 0.029275954
0.029608333 -0.06729167 0.03177911
-0.020330297 -0.068383731 0.024714649
-0.019505531 -0.068733774 0.028238684
-0.019444941 -0.071946286 0.0074976981
-0.017159436 -0.070544355 0.015478015
-0.015260732 -0.066429071 0.033715069
-0.014098943 -0.065207615 0.046970904
-0.013068901 -0.064473249 0.047838122
-0.012078744 -0.063844793 0.048369616
-0.011149111 -0.06346418 0.053047925
-0.010320313 -0.063641936 0.050223112
-0.0095018214 -0.063921347 0.051257491
-0.0089232819 -0.06603229 0.040927082
-0.0079105683 -0.065042458 0.04450205
-0.0070286207 -0.065014742 0.045751244
-0.0061133928 -0.064627297 0.049326301
-0.0052424152 -0.064656459 0.045059681
-0.0044242814 -0.065479375 0.04350239
-0.0035275305 -0.065259315 0.044414878
-0.0026667486 -0.065779798 0.039403498
-0.0017527969 -0.064853489 0.045064032
-0.00089151587 -0.065972179 0.043577492
0 -0.064259723 0.047247082
0.00087430794 -0.064698793 0.046791226
0.0017662273 -0.065350413 0.043481171
0.0026176444 -0.064568564 0.043264657
0.0035889247 -0.066395111 0.037699908
0.0044398694 -0.065710068 0.039593428
0.0051499698 -0.063516296 0.04707408
0.0062308935 -0.065869451 0.043882936
0.0070185498 -0.064921588 0.042945743
0.0078420527 -0.064479105 0.046300381
0.0088459589 -0.065460101 0.046465546
0.009582255 -0.064462446 0.046031088
0.010668399 -0.065788463 0.037541509
0.011433469 -0.065082826 0.043962896
0.011993174 -0.06339249 0.04705134
0.012870274 -0.063493356 0.050091028
0.013843958 -0.064028308 0.047042817
0.014757643 -0.064239152 0.040640175
0.015876386 -0.065269589 0.044948667
0.016624536 -0.06474819 0.044608265
0.017195627 -0.063623831 0.046040237
0.018891897 -0.066571444 0.035975009
0.018827423 -0.063328609 0.052422762
0.019629605 -0.06315612 0.048512638
0.021070566 -0.06496758 0.046351045
0.021234607 -0.062854439 0.05280748
0.021993479 -0.062596828 0.052440375
0.023627248 -0.064756162 0.046904027
0.024464777 -0.064656913 0.04230237
0.026374811 -0.067301244 0.027534872
0.028746771 -0.066476911 0.031177878
0.030333517 -0.068020619 0.026462555
-0.020722769 -0.068761922 0.021251559
-0.01936825 -0.06732773 0.023794293
-0.018675899 -0.068167038 0.022287399
-0.01744858 -0.070763692 0.0092765689
-0.015572141 -0.066868603 0.030445725
-0.014116707 -0.064407483 0.043203682
-0.013117862 -0.063840263 0.045125932
-0.012162999 -0.063421361 0.049925804
-0.011179004 -0.062774405 0.052208155
-0.010402603 -0.063282505 0.047871053
-0.0094671249 -0.062827289 0.054302424
-0.0086657908 -0.06326028 0.050108224
-0.0079799294 -0.064726099 0.040012121
-0.0071329777 -0.065088429 0.042724967
-0.0061429786 -0.064062491 0.045221895
-0.0052836104 -0.06428393 0.044455945
-0.0043773632 -0.063909508 0.048680037
-0.0035067848 -0.063998826 0.041915387
-0.0026445403 -0.064350486 0.044387579
-0.0017672525 -0.06450472 0.043716431
-0.00087451655 -0.063839711 0.045228451
0 -0.064050093 0.046788186
0.00088477397 -0.064588502 0.043452889
0.0017550157 -0.064058073 0.044148326
0.0026407612 -0.064258523 0.044051677
0.0034921493 -0.06373173 0.048921287
0.0043944581 -0.064159095 0.042562038
0.0052998047 -0.06448096 0.043160409
0.0062151896 -0.064815551 0.043662488
0.0070255059 -0.064107746 0.043972403
0.0079669757 -0.064621031 0.04375425
0.008762937 -0.063969448 0.043104053
0.0095588081 -0.063435733 0.047034919
0.010562332 -0.064254194 0.045784503
0.011461928 -0.064363137 0.044510037
0.01237618 -0.064532943 0.042755842
0.013139443 -0.063945293 0.044430524
0.01397765 -0.063773029 0.045409381
0.01487117 -0.063858554 0.046411723
0.015859697 -0.064319886 0.040725827
0.016504399 -0.063411646 0.043405682
0.017820351 -0.065044284 0.037648946
0.018237302 -0.063396342 0.047492713
0.018789645 -0.062347464 0.053140819
0.019674115 -0.062443931 0.052175403
0.020341212 -0.061871193 0.053653061
0.021549355 -0.062924124 0.048687786
0.022228898 -0.062411908 0.053924233
0.023728201 -0.064154029 0.040556401
0.024933042 -0.065004006 0.034565389
0.028279491 -0.06659364 0.028159142
0.028830273 -0.065769061 0.031693995
0.030984193 -0.068540797 0.016286343
-0.021364627 -0.069920599 0.0092521906
-0.019586904 -0.0671551 0.022941679
-0.018861493 -0.067901373 0.021386117
-0.017885223 -0.067775577 0.02088508
-0.016062109 -0.06802775 0.018491268
-0.014590139 -0.065655619 0.030629963
-0.013522114 -0.064906143 0.039052695
-0.012312752 -0.063322723 0.045605451
-0.011314122 -0.062662825 0.046688825
-0.010389888 -0.062339325 0.052450925
-0.0095801568 -0.062706478 0.049407095
-0.0085802013 -0.061777446 0.049578249
-0.0078090206 -0.062472165 0.048597127
-0.0070943469 -0.063849121 0.041519701
-0.0061683543 -0.063445926 0.041593581
-0.0052880887 -0.063457064 0.04699564
-0.004368783 -0.062910475 0.045701057
-0.0035109641 -0.063197352 0.044718176
-0.0026439002 -0.063453607 0.045607269
-0.0017392229 -0.062612019 0.048584461
-0.00088822271 -0.063952036 0.03941521
0 -0.063070782 0.048152983
0.0008713596 -0.06273789 0.046112478
0.0017771494 -0.063977376 0.042847484
0.0026628033 -0.063907281 0.044383049
0.003503283 -0.063059092 0.044670165
0.0043924856 -0.063251793 0.044404894
0.0052481256 -0.062977508 0.046923637
0.0061918753 -0.063687854 0.041713595
0.0070852274 -0.063767038 0.04267171
0.0077323448 -0.061858758 0.050661027
0.0087493816 -0.062995546 0.043698937
0.0095662987 -0.062615775 0.046527654
0.010613753 -0.063682511 0.041893542
0.011387418 -0.063068777 0.042586118
0.012283363 -0.06317158 0.044118077
0.013080432 -0.062786072 0.0432266
0.01383986 -0.062279366 0.048811287
0.01513047 -0.064081982 0.0423069
0.015572038 -0.062288154 0.047770083
0.016741699 -0.063442223 0.043688446
0.017291101 -0.062247958 0.050923854
0.017983506 -0.06165773 0.051373035
0.019047029 -0.06233573 0.048609912
0.01952011 -0.061106425 0.054451048
0.020282533 -0.060847595 0.058061689
0.021841794 -0.062904365 0.043533832
0.022327367 -0.06182963 0.047312111
0.023753118 -0.06334164 0.040119082
0.025879329 -0.066546842 0.023947686
0.02752785 -0.066066839 0.02628541
0.02815827 -0.065399848 0.028913409
0.029043861 -0.065348685 0.031205237
-0.019961763 -0.067489766 0.016931891
-0.018609397 -0.066063359 0.022690594
-0.017644549 -0.065934889 0.025451958
-0.017463768 -0.068884864 0.010484219
-0.015982376 -0.066749923 0.020178854
-0.014955431 -0.06636472 0.025364041
-0.013653954 -0.06462872 0.033909947
-0.012337399 -0.06256824 0.039288998
-0.011323698 -0.061844811 0.047861159
-0.01053841 -0.062352259 0.047192663
-0.0095466729 -0.061619435 0.049812615
-0.0086481357 -0.061401766 0.051520318
-0.0077897119 -0.061452173 0.05190742
-0.0068592378 -0.060875732 0.051069677
-0.0061075753 -0.061948262 0.047998577
-0.0052529192 -0.062159542 0.043005973
-0.0044054938 -0.06255801 0.048074126
-0.0035261724 -0.062589556 0.045049727
-0.0026482875 -0.062676139 0.041736692
-0.0017327719 -0.061513398 0.048317313
-0.00088110287 -0.062558301 0.04493168
0 -0.06272047 0.043635011
0.00088470505 -0.062814057 0.044667512
0.0017373345 -0.061675373 0.046035945
0.0026173091 -0.061942983 0.046251386
0.0035307349 -0.062670544 0.045073748
0.0043748771 -0.062123254 0.044640243
0.005242114 -0.062031683 0.045647264
0.0061290055 -0.062165625 0.047782511
0.0069879321 -0.062017895 0.044082731
0.0079020737 -0.062338583 0.044032454
0.0087993834 -0.062475622 0.04559043
0.0095499735 -0.061640739 0.045491487
0.010488002 -0.062054008 0.043736041
0.011418868 -0.062364586 0.045076847
0.012243317 -0.062091101 0.045385182
0.013165285 -0.06231568 0.042645365
0.013931271 -0.061820012 0.044081151
0.014894314 -0.062205665 0.044652611
0.016018171 -0.063182786 0.040473342
0.01629087 -0.060876403 0.048265159
0.017044323 -0.060507346 0.053560346
0.018222947 -0.061610911 0.046166986
0.019007774 -0.061343271 0.051868141
0.01976015 -0.060998719 0.046850026
0.020717049 -0.061287936 0.050846875
0.02158156 -0.061291631 0.049425185
0.022798102 -0.062256355 0.041389018
0.025028195 -0.065814883 0.024177641
0.026380189 -0.066892624 0.012841493
0.026853954 -0.06574589 0.024576724
0.027467862 -0.065007269 0.031182468
0.028322568 -0.064867817 0.028255403
0.030107841 -0.066801772 0.01771611
-0.020166775 -0.06722258 0.012164533
-0.018726513 -0.065542795 0.023372173
-0.017927941 -0.066050306 0.019895077
-0.016783213 -0.065268055 0.022921503
-0.015077047 -0.065962076 0.021269739
-0.013983901 -0.065258205 0.023192495
-0.012756974 -0.063784868 0.03227061
-0.011465106 -0.061735187 0.044855982
-0.010462943 -0.06103383 0.044307023
-0.009567922 -0.060886778 0.048080683
-0.0087358924 -0.061151247 0.045033455
-0.0077287285 -0.060112335 0.052914381
-0.0069741039 -0.061023407 0.050202757
-0.0061085033 -0.061085034 0.050829619
-0.0051766108 -0.060393795 0.04881376
-0.0044350037 -0.06209005 0.043121845
-0.0035973489 -0.062953606 0.039615512
-0.0026128418 -0.060966309 0.043652475
-0.0017559757 -0.061459146 0.046704322
-0.00087739521 -0.061417662 0.042668492
0 -0.061346374 0.046152294
0.00088009803 -0.061606858 0.047017008
0.0017690692 -0.06191742 0.037358612
0.0026153645 -0.061025169 0.046679556
0.0035574695 -0.062255714 0.040624529
0.0043362076 -0.06070691 0.047325909
0.0052360664 -0.061087444 0.045570701
0.0061568469 -0.061568465 0.043695241
0.0070581753 -0.061759032 0.042636365
0.0079524675 -0.06185253 0.043642968
0.0087214811 -0.06105037 0.044841319
0.0097138816 -0.061815612 0.040683627
0.010440608 -0.060903553 0.046828568
0.011287952 -0.060781278 0.045672417
0.012179633 -0.060898159 0.049126267
0.013210519 -0.061649088 0.043311805
0.013997714 -0.061239999 0.040498972
0.014753764 -0.060750794 0.048248261
0.015416924 -0.059954707 0.053235471
0.016154185 -0.059515417 0.054549456
0.017561506 -0.061465271 0.041729122
0.018118607 -0.060395353 0.053528547
0.018968375 -0.06035392 0.046972334
0.01975064 -0.06011064 0.052818716
0.020540241 -0.059909035 0.048542172
0.02179458 -0.061024819 0.044458419
0.023795858 -0.064065769 0.028387636
0.024618134 -0.063824788 0.026105732
0.026575966 -0.066439912 0.01785633
0.026531795 -0.064042263 0.028229713
0.027831748 -0.064940743 0.022138894
0.028009709 -0.063247725 0.027428955
-0.019062076 -0.065764166 0.019420981
-0.017837409 -0.064777955 0.021920204
-0.016683307 -0.063952677 0.024635971
-0.014759896 -0.067895524 0.0060287416
-0.013288647 -0.065494046 0.015493512
-0.011749443 -0.062362429 0.032959491
-0.010550956 -0.060668003 0.045334756
-0.0096928673 -0.060800716 0.043968409
-0.0088284779 -0.060916502 0.041280061
-0.0077536129 -0.059444368 0.05320099
-0.0068751546 -0.059298206 0.053275853
-0.006106874 -0.060196329 0.04614085
-0.0051942943 -0.059734385 0.052919865
-0.0043203114 -0.059620298 0.047369897
-0.0034741289 -0.059928723 0.049366057
-0.002636296 -0.060634807 0.045521557
-0.0017540724 -0.060515493 0.043815762
-0.00087872666 -0.060632139 0.044128597
0 -0.060669634 0.0413647
0.0008754218 -0.060404103 0.046676338
0.0017527505 -0.060469892 0.044512749
0.0026177294 -0.060207773 0.04770869
0.0034734076 -0.05991628 0.043237358
0.0044350713 -0.061203983 0.041698009
0.0053283968 -0.061276563 0.040831447
0.0060492572 -0.059628394 0.047174215
0.007009726 -0.060458887 0.047244132
0.0079569016 -0.061002914 0.038639218
0.0087834261 -0.060605641 0.042096972
0.0095805442 -0.060096141 0.046947688
0.010476721 -0.060241144 0.045815229
0.011544107 -0.061272569 0.036659032
0.012473975 -0.061478876 0.040211111
0.013079177 -0.060164213 0.044699103
0.013900816 -0.059947267 0.04812929
0.014400723 -0.058449995 0.056097239
0.015582251 -0.059731968 0.04660663
0.016308097 -0.05922414 0.055844903
0.017181195 -0.059275124 0.053245634
0.018181676 -0.059739791 0.045317978
0.018891871 -0.059251778 0.052320063
0.020088719 -0.060266152 0.046841681
0.020920292 -0.06014584 0.042252332
0.023051208 -0.063621327 0.029339522
0.023741931 -0.063007437 0.027512074
0.025737351 -0.065773226 0.010168493
0.026164144 -0.064475931 0.020021856
0.026386498 -0.062781662 0.030207455
0.027577356 -0.063427918 0.026271015
0.029743191 -0.066202581 0.014019817
-0.019437432 -0.066087276 0.0079013109
-0.01762576 -0.063081667 0.023682684
-0.016840488 -0.063619621 0.023036718
-0.016381372 -0.065525487 0.0078558922
-0.012423703 -0.064985529 0.014275521
-0.0109548 -0.062077206 0.033480436
-0.0097669642 -0.060377602 0.039035171
-0.0087648425 -0.059600934 0.045696169
-0.0078520328 -0.059326474 0.048799872
-0.0069530201 -0.059100669 0.052672952
-0.0060294745 -0.058572039 0.052050233
-0.0051957336 -0.058884982 0.051114619
-0.0043013711 -0.058498651 0.051356792
-0.0034681205 -0.058958046 0.048304588
-0.0025818497 -0.05852193 0.051599711
-0.0017346042 -0.058976546 0.050662786
-0.00086965447 -0.059136502 0.04486829
0 -0.059606768 0.046046674
0.00089123496 -0.060603976 0.042006969
0.0017700706 -0.060182404 0.04284814
0.0026563278 -0.060210098 0.039192706
0.0034984159 -0.059473071 0.045395225
0.0044297026 -0.06024396 0.040585339
0.0052094376 -0.059040297 0.045344383
0.0061872476 -0.060104694 0.04108724
0.0070145638 -0.059623793 0.042046994
0.0079921223 -0.060384925 0.038535058
0.0088970512 -0.060499951 0.039470315
0.0097167278 -0.06006705 0.040861934
0.010437814 -0.059147611 0.046819687
0.011232572 -0.058754988 0.051742882
0.012120016 -0.058868647 0.046716183
0.012710659 -0.057621654 0.056539893
0.013699962 -0.058224838 0.055885851
0.014484302 -0.057937209 0.050594926
0.015509809 -0.058592618 0.052511275
0.016402716 -0.058704458 0.04534775
0.017101867 -0.05814635 0.047647983
0.018366978 -0.059474021 0.049082816
0.019121559 -0.059103005 0.045474917
0.020257173 -0.059890773 0.04083547
0.02241813 -0.06351804 0.020210773
0.025647717 -0.062287312 0.024396002
0.026279176 -0.061620135 0.033625692
0.027696671 -0.062779121 0.026377827
-0.018065555 -0.063704848 0.015090078
-0.016865769 -0.062778145 0.019898027
-0.015846714 -0.0624547 0.023216844
-0.011442588 -0.063887782 0.013296694
-0.01018228 -0.062019344 0.02633068
-0.0088772522 -0.059477594 0.039967507
-0.0078952946 -0.058776084 0.039969802
-0.0070169596 -0.058767039 0.04562372
-0.0059755463 -0.057194516 0.049089193
-0.0052220379 -0.058312759 0.045771927
-0.0042998283 -0.057617698 0.054336399
-0.003414219 -0.057188172 0.051475465
-0.0026233203 -0.058587492 0.044765353
-0.001714749 -0.057444096 0.054460168
-0.00085678097 -0.057404324 0.053281963
0 -0.057726838 0.048062146
0.0008659219 -0.05801677 0.05039534
0.0017158316 -0.057480358 0.051092476
0.0025890428 -0.057821956 0.049167365
0.0034733918 -0.058179315 0.048949808
0.004310051 -0.057754684 0.045797467
0.0052375519 -0.058486 0.046276987
0.006067303 -0.058072761 0.048680335
0.0068813148 -0.057631016 0.05072242
0.0077546067 -0.057728741 0.048074394
0.0087624239 -0.058708243 0.04451254
0.0093127061 -0.056722846 0.051891893
0.010352645 -0.057802271 0.049772352
0.011208264 -0.05776567 0.048590451
0.011955855 -0.057217307 0.048995167
0.013170199 -0.058826894 0.04526484
0.013654617 -0.05717871 0.051101446
0.014441203 -0.056915332 0.055134058
0.015383148 -0.057259496 0.048471451
0.016490469 -0.058150604 0.04548645
0.017030783 -0.057053123 0.053121328
0.018513225 -0.059066001 0.039541781
0.019678956 -0.059931368 0.034252256
0.021825932 -0.063579887 0.015274525
0.025126675 -0.062351376 0.018961608
0.025481803 -0.060974319 0.026997775
0.026749145 -0.06179975 0.026033372
-0.018523868 -0.064346068 0.006298095
-0.016987253 -0.062286597 0.020146519
-0.015876617 -0.061638627 0.024740964
-0.014689306 -0.060593385 0.024791598
-0.014649988 -0.064459942 0.012649447
-0.010380889 -0.062285334 0.013880312
-0.0093114711 -0.061455708 0.023023069
-0.0081323395 -0.059637159 0.034115553
-0.0072012111 -0.059409987 0.036763966
-0.0061106016 -0.057614241 0.046943545
-0.0052591604 -0.057850763 0.046271682
-0.0043933075 -0.057991657 0.04249534
-0.0034266694 -0.056540046 0.051568478
-0.0026269082 -0.057791982 0.049500078
-0.0017124346 -0.05651034 0.051257551
-0.00085899257 -0.056693509 0.050945163
0 -0.056693684 0.052148551
0.00085249508 -0.056264672 0.049766004
0.0017395072 -0.057403736 0.048538238
0.0026386396 -0.05805007 0.044061542
0.0033802264 -0.055773735 0.054022998
0.004342474 -0.057320662 0.048583269
0.0051288633 -0.056417495 0.050963789
0.0060924953 -0.057443526 0.04665482
0.0069861133 -0.05763543 0.04698953
0.0076900763 -0.056393892 0.051269591
0.0085061453 -0.056140561 0.051964283
0.0093892403 -0.056335442 0.055954248
0.010330852 -0.056819685 0.048902422
0.011312071 -0.057430513 0.042693168
0.012086109 -0.056977373 0.050482064
0.012791347 -0.056281924 0.051078796
0.013807294 -0.056955084 0.049583137
0.01472907 -0.057183444 0.046861231
0.01550836 -0.05686399 0.046615809
0.016651271 -0.057841256 0.044831783
0.017610906 -0.058115989 0.03821668
0.019048089 -0.059865423 0.027613491
0.021000585 -0.063001752 0.010044366
0.024477135 -0.059832994 0.026316792
0.025723975 -0.060635082 0.027464777
0.02722282 -0.061955377 0.018674761
-0.017411776 -0.062875859 0.0093557239
-0.015859425 -0.060638975 0.023283571
-0.01504252 -0.061110236 0.024945736
-0.014110006 -0.061143357 0.02153191
-0.013129237 -0.060957171 0.01818946
-0.0094469497 -0.061405178 0.018844515
-0.0083446158 -0.06026667 0.025584847
-0.0073735323 -0.059909947 0.027439535
-0.0062541524 -0.058074273 0.038994819
-0.0053601922 -0.058068752 0.038900018
-0.004392351 -0.057100564 0.040971637
-0.003590771 -0.058350027 0.044704109
-0.0026593721 -0.057619732 0.041840285
-0.0017434508 -0.05666215 0.050435394
-0.00086938619 -0.056510102 0.048895091
0 -0.055982135 0.046945184
0.0008614416 -0.055993706 0.053661793
0.0017309324 -0.0562553 0.051494598
0.0025893175 -0.056101877 0.04523465
0.003589808 -0.05833438 0.042417139
0.0043565431 -0.056635063 0.04417327
0.0053641638 -0.058111776 0.034398645
0.0060511143 -0.056188919 0.051198721
0.0069248723 -0.056264587 0.050450236
0.0077613755 -0.05605438 0.05162698
0.00840725 -0.054647125 0.058386862
0.0093995994 -0.055543087 0.05275178
0.01022668 -0.055394515 0.052651852
0.011289205 -0.056446027 0.049952894
0.012167555 -0.056492221 0.044246525
0.01283343 -0.055611528 0.049631596
0.013834923 -0.056204371 0.049963713
0.014687908 -0.056159649 0.046976119
0.016111953 -0.058182057 0.03922677
0.016932044 -0.057925414 0.033979893
0.018405391 -0.059817523 0.02455014
0.019647645 -0.060814139 0.016589105
0.023470473 -0.063565865 0.0063445568
0.022806313 -0.059296414 0.025854975
0.023555608 -0.058889024 0.030944288
0.025114346 -0.060460459 0.025342375
0.026053615 -0.060481604 0.02245608
-0.016210284 -0.061026949 0.011983275
-0.015002217 -0.060008869 0.023680121
-0.013812293 -0.05893245 0.027990431
-0.013034141 -0.059584647 0.023203075
-0.012047797 -0.059312236 0.024119675
-0.011533546 -0.061512247 0.0078479052
-0.0083668549 -0.05949764 0.019623548
-0.0075748418 -0.060598735 0.020659983
-0.0065385299 -0.059780844 0.022852212
-0.0055367672 -0.059058849 0.022202909
-0.0045771007 -0.058586892 0.033257365
-0.0036042233 -0.057667572 0.036389023
-0.0026790216 -0.057152458 0.038340509
-0.0017435339 -0.055793084 0.046360999
-0.00088797131 -0.056830164 0.0390881
0 -0.055778347 0.04869768
0.00085021992 -0.054414075 0.058788687
0.0017136702 -0.054837447 0.05204469
0.0059236991 -0.054159537 0.055649608
0.0068149013 -0.05451921 0.048784524
0.0077606323 -0.055186722 0.052514046
0.0086862287 -0.055591866 0.047045648
0.0094310967 -0.054871839 0.048944563
0.010428579 -0.055619087 0.050915152
0.011263126 -0.055449236 0.04535076
0.012304593 -0.05624957 0.048355728
0.013356517 -0.056987807 0.03725633
0.014163787 -0.05665515 0.03831172
0.015473964 -0.05825492 0.030487508
0.016571928 -0.05892241 0.027139843
0.017206082 -0.057957329 0.02641511
0.018765006 -0.060048025 0.019796908
0.021716475 -0.060428452 0.016975909
0.022071777 -0.058858074 0.026277632
0.023174312 -0.059326235 0.024422765
0.023727302 -0.058405668 0.026293695
0.024934391 -0.059103739 0.023574054
-0.015017645 -0.059131976 0.016852111
-0.014158922 -0.059467472 0.021187544
-0.012983559 -0.058426019 0.024006635
-0.012131504 -0.058791135 0.021696806
-0.011193383 -0.058765266 0.023576945
-0.0107064 -0.061318476 0.0077792406
-0.003750894 -0.059076581 0.020092785
-0.0027873912 -0.058535215 0.027802855
-0.0018010683 -0.056733653 0.031248569
-0.00090524059 -0.05703016 0.034308672
0 -0.055709783 0.040765762
0.00089572376 -0.056430601 0.038982779
0.00175481 -0.055276513 0.040813446
0.0026294643 -0.055218749 0.04575181
0.0035853814 -0.056469757 0.035487592
0.0044788932 -0.056434058 0.03678757
0.0053719627 -0.056405608 0.038352251
0.0062012766 -0.055811491 0.038422972
0.0070343358 -0.055395398 0.047454447
0.00785306 -0.054971423 0.044633716
0.0087172892 -0.054918922 0.044872016
0.0097996844 -0.05612547 0.040413558
0.010468736 -0.054960866 0.044914156
0.011519489 -0.055825219 0.037999541
0.012792252 -0.057565138 0.030267119
0.01382576 -0.058068193 0.021957994
0.015184239 -0.059787944 0.017670631
0.016385356 -0.060722198 0.012156397
0.017015915 -0.059555706 0.0078225732
0.018522805 -0.061417721 0.0063536167
0.020334581 -0.058230847 0.022566199
0.021125959 -0.05786676 0.028528571
0.021869607 -0.057407722 0.026480168
0.022729356 -0.057277974 0.028015256
0.024464736 -0.059279937 0.020076543
-0.014338637 -0.05926637 0.017341822
-0.013242273 -0.058644354 0.01495865
-0.012161179 -0.057999477 0.024909079
-0.011213549 -0.057936676 0.024477333
-0.010234754 -0.057686795 0.022093773
-0.0029016121 -0.05996665 0.0067725778
-0.001882859 -0.058368634 0.019161165
-0.0009301703 -0.05767056 0.024897724
0 -0.057450317 0.024801403
0.0009307728 -0.057707917 0.025669008
0.0018282677 -0.056676298 0.029187679
0.0027354904 -0.056533474 0.028030336
0.0036286849 -0.056244615 0.032609016
0.0044965674 -0.055757441 0.034704894
0.005439803 -0.0562113 0.034583181
0.0063613676 -0.056343544 0.035883158
0.0072085932 -0.055866599 0.032387346
0.0082317777 -0.056707807 0.028602511
0.0091958866 -0.057014499 0.029058665
0.010235416 -0.057690527 0.026695639
0.011115255 -0.057428818 0.024886906
0.012416413 -0.059216741 0.01594761
0.019636294 -0.057973824 0.02029106
0.020323783 -0.057276119 0.026257008
0.020919524 -0.056391764 0.026373684
0.022378851 -0.057812035 0.024132371
0.023288285 -0.057754949 0.02220425
-0.013364472 -0.058230914 0.016434222
-0.012421071 -0.058283485 0.011977226
-0.011082552 -0.056336306 0.023787558
-0.010335366 -0.057314306 0.020101547
-0.009428327 -0.057512794 0.019717157
-0.00095493247 -0.058250878 0.015117824
0 -0.056919981 0.02428025
0.00092732487 -0.056566816 0.025075853
0.0019005645 -0.05796722 0.016395599
0.0028876928 -0.05871642 0.0095478892
0.003904664 -0.059546124 0.011138946
0.0048312712 -0.05894151 0.0052076876
0.0058309622 -0.059281446 0.011692792
0.0066814371 -0.058223952 0.01287362
0.0074972059 -0.057166196 0.017405093
0.0083129695 -0.056343459 0.025214374
0.009174631 -0.055965248 0.027502835
0.010226001 -0.056707826 0.021378964
0.018710574 -0.057067253 0.020542026
0.019456556 -0.056516662 0.024175406
0.020189706 -0.055980552 0.024990797
0.021281706 -0.056442782 0.026359528
0.022427663 -0.057003643 0.01853326
0.024262631 -0.05920082 0.0079416335
-0.0123904 -0.057186462 0.015404999
-0.011611757 -0.058058783 0.010343105
-0.010363718 -0.056529373 0.02068764
-0.0093130544 -0.05587833 0.021894664
-0.0082769757 -0.055179842 0.024548471
-0.0075646071 -0.056734554 0.019413143
-0.0065720654 -0.056331988 0.017171174
-0.0058175619 -0.05817562 0.014977098
-0.0048550651 -0.058260784 0.006560266
0.016334144 -0.057649918 0.0055910051
0.01709903 -0.05699677 0.012409776
0.017886719 -0.056484375 0.020021975
0.018616293 -0.055848878 0.020935029
0.0195434 -0.055838283 0.025485069
0.020495199 -0.055895999 0.022278428
0.021652335 -0.056484353 0.014689684
-0.011312809 -0.055621311 0.016472965
-0.010496168 -0.056297634 0.016015828
-0.0096034911 -0.056660604 0.012929261
-0.0084368475 -0.055308226 0.019129694
-0.007641179 -0.056353696 0.016452879
-0.00655588 -0.055256702 0.022243768
-0.0055562165 -0.054636132 0.02403003
-0.0047138771 -0.055623755 0.018433273
-0.0037716881 -0.055632401 0.020677716
-0.0029028407 -0.057089206 0.0088551939
0.012816585 -0.058167581 0.0050886273
0.013064514 -0.055057596 0.02001524
0.014003687 -0.05508117 0.021773666
0.014944532 -0.055107962 0.022784233
0.015848275 -0.055002838 0.024951667
0.016550938 -0.0542503 0.026515841
0.017675687 -0.05488766 0.025283605
0.01825312 -0.053846706 0.023521304
0.020037547 -0.056295965 0.014530301
0.020412525 -0.054742683 0.017491907
-0.010760696 -0.056738216 0.0071180165
