ply
format ascii 1.0
comment PCL generated
element vertex 1305
property float x
property float y
property float z
element camera 0
property float view_px
property float view_py
property float view_pz
property float x_axisx
property float x_axisy
property float x_axisz
property float y_axisx
property float y_axisy
property float y_axisz
property float z_axisx
property float z_axisy
property float z_axisz
property float focal
property float scalex
property float scaley
property float centerx
property float centery
property int viewportx
property int viewporty
property float k1
property float k2
end_header
0.071360961 -0.0067962823 0.054078132
0.073167495 -0.0068863523 0.047014177
0.074528679 -0.0069329008 0.046084225
0.075366743 -0.0069302754 0.045345604
0.076528594 -0.0069571454 0.044178784
0.078061856 -0.0070167966 0.041061074
0.077034116 -0.0068474771 0.048152626
0.078578457 -0.0069079958 0.043561369
0.080464669 -0.0069969273 0.046104372
0.081095874 -0.0069759893 0.041138619
0.082167946 -0.0069930167 0.041495681
0.082854778 -0.0069772443 0.041472435
0.083702445 -0.0069752038 0.041567594
0.084095158 -0.0069356831 0.043771654
0.08446645 -0.0068952208 0.04488337
0.085366756 -0.0068983231 0.044549614
0.087024331 -0.0069619464 0.046936601
0.087514333 -0.0069318279 0.041092545
0.089039177 -0.006983465 0.042273164
0.08825881 -0.0068550529 0.044869095
0.090338044 -0.0069490806 0.043142617
0.09098997 -0.0069325692 0.044083327
0.092218474 -0.0069598854 0.045140475
0.092772283 -0.0069362451 0.041154772
0.093701445 -0.0069408477 0.042541564
0.094381124 -0.0069270548 0.041056007
0.095251076 -0.006927351 0.040606648
0.097209506 -0.0070060906 0.042154968
0.098120518 -0.0070086084 0.044616908
0.096996322 -0.0068669962 0.044822514
0.099829048 -0.0070055476 0.043245256
0.098529197 -0.0068542054 0.045982182
0.099958256 -0.006893673 0.040517926
0.10163547 -0.0069494341 0.046248406
0.10121363 -0.0068619414 0.047854424
0.10232874 -0.0068792431 0.041020244
0.1046315 -0.0069754333 0.043491304
0.10420207 -0.0068893931 0.042644411
0.10384487 -0.0068095 0.051151723
0.10366956 -0.0067427359 0.056173921
0.10505979 -0.0067780507 0.054038048
0.10454453 -0.0066908496 0.053627372
0.063719973 -0.0064643449 0.024007648
0.066570953 -0.0066570956 0.0077109337
0.064688735 -0.0063777626 0.026460469
0.064914778 -0.0063111596 0.030217171
0.066067725 -0.0063352613 0.02804479
0.070605025 -0.0063363481 0.028316021
0.068830401 -0.0060988963 0.044212461
0.067903586 -0.0059415638 0.051293522
0.068912745 -0.0059554228 0.050073683
0.069151536 -0.0059031798 0.056499481
0.070594452 -0.0059537487 0.052818179
0.071915478 -0.0059929565 0.046944618
0.074615434 -0.0061448002 0.038238049
0.074162945 -0.0060365191 0.046229362
0.075095423 -0.0060421606 0.042940825
0.076039486 -0.0060485955 0.047181696
0.076778293 -0.0060387421 0.044514537
0.077701345 -0.0060434374 0.043848455
0.079999305 -0.0061537926 0.042207927
0.079976298 -0.0060851527 0.042232513
0.080983505 -0.0060955328 0.039168954
0.081909381 -0.0060996348 0.044987291
0.082452722 -0.0060754642 0.041972578
0.084889926 -0.0061898902 0.040692091
0.084403485 -0.006090973 0.044366091
0.084342517 -0.0060244659 0.040456027
0.086425126 -0.006110867 0.044267505
0.087595977 -0.0061317179 0.047411829
0.087559976 -0.0060685128 0.039486527
0.089742087 -0.0061587705 0.042345971
0.088901222 -0.0060418304 0.045744866
0.090286776 -0.0060769944 0.040194273
0.091322124 -0.0060881418 0.043354005
0.0921413 -0.006084803 0.042125106
0.092391916 -0.0060443305 0.040497005
0.094461992 -0.0061225365 0.044215053
0.094519891 -0.0060700844 0.042469531
0.095733732 -0.0060921465 0.040561408
0.096333422 -0.0060750805 0.043566734
0.096448056 -0.0060280035 0.045628607
0.098167367 -0.0060811643 0.042078674
0.100455 -0.0061682896 0.040151358
0.099955231 -0.0060842317 0.042468578
0.10112406 -0.0061023138 0.043260068
0.10216018 -0.0061121471 0.044822633
0.10147329 -0.0060196021 0.044441521
0.10340405 -0.0060825907 0.047052562
0.10357787 -0.0060420423 0.041951567
0.10406532 -0.006020308 0.044536948
0.10476709 -0.0060112267 0.046372086
0.10261318 -0.0058397749 0.053845376
0.10501373 -0.0059281942 0.053015471
0.10481086 -0.0058694077 0.054700375
0.10646051 -0.0059144725 0.049567342
0.062611453 -0.0054444741 0.028983355
0.064184077 -0.0054240068 0.030783713
0.065478981 -0.0054565817 0.025633961
0.065921463 -0.0054182019 0.029845208
0.070845835 -0.0054496797 0.026091069
0.068218805 -0.0051811747 0.046702504
0.067432739 -0.005057455 0.05079338
0.068378165 -0.0050650495 0.054210782
0.069291368 -0.0050700996 0.055737168
0.070800349 -0.0051180972 0.0479967
0.072163865 -0.0051545617 0.048760325
0.073477767 -0.0051866658 0.043249041
0.074739963 -0.0052144155 0.043155462
0.074911743 -0.0051663271 0.047279656
0.075942867 -0.0051779225 0.044611216
0.077967726 -0.0052562514 0.042516619
0.078378879 -0.0052252584 0.043945313
0.078530885 -0.0051778601 0.041567475
0.07979352 -0.0052039251 0.045181274
0.081395313 -0.0052513108 0.045227736
0.081605688 -0.0052088737 0.041831493
0.082591139 -0.0052162823 0.041191161
0.083305277 -0.0052065798 0.044393063
0.084188305 -0.0052075242 0.040599346
0.084960915 -0.0052016885 0.045289725
0.086475313 -0.0052409279 0.041191667
0.086806737 -0.0052084038 0.042563409
0.088034987 -0.0052298009 0.044831902
0.089148931 -0.0052440548 0.041095108
0.089056641 -0.0051877652 0.045463204
0.091149352 -0.0052586165 0.04524684
0.08974044 -0.0051280255 0.04646939
0.091719992 -0.0051916977 0.045097023
0.093548708 -0.0052457214 0.0416058
0.09386801 -0.0052148891 0.042168349
0.093241096 -0.0051325369 0.045977086
0.094806165 -0.005171245 0.048981249
0.095808834 -0.0051788557 0.042769402
0.096642375 -0.0051772702 0.048495442
0.098661691 -0.0052386736 0.042056769
0.099248901 -0.0052236263 0.041888446
0.10057218 -0.0052472446 0.039587259
0.10072029 -0.0052096699 0.041996866
0.10143142 -0.0052016112 0.04452005
0.10142189 -0.0051570451 0.048840731
0.10170414 -0.0051279394 0.046236217
0.10372888 -0.0051864441 0.043658346
0.10529079 -0.0052210307 0.042881221
0.10413778 -0.00512153 0.053581804
0.1039359 -0.0050700437 0.050700426
0.10532814 -0.0050965226 0.054228723
0.1044292 -0.0050126011 0.056005925
0.10661831 -0.0050770622 0.051313758
0.063591942 -0.0046081115 0.022711635
0.06676919 -0.0047692279 0.0085282922
0.064484581 -0.0045411675 0.030712694
0.06543795 -0.0045443024 0.029763281
0.066015601 -0.0045216163 0.025887489
0.071300961 -0.0045705745 0.028078735
0.067687079 -0.0042839926 0.047469676
0.068118922 -0.0042574327 0.053114802
0.068423994 -0.0042237034 0.055838019
0.069758944 -0.0042535937 0.050100595
0.070535108 -0.0042491029 0.052607059
0.07304839 -0.0043481183 0.043582618
0.073363587 -0.0043155053 0.042367816
0.075772822 -0.0044053965 0.039794892
0.075209647 -0.0043223933 0.046280295
0.076815225 -0.0043645012 0.043898076
0.076905601 -0.0043205395 0.046398401
0.077787198 -0.0043215109 0.041686356
0.07926923 -0.004355452 0.040688962
0.080381058 -0.0043685352 0.043186218
0.080354124 -0.0043201139 0.042259842
0.081948675 -0.004358972 0.042497635
0.083016492 -0.0043692891 0.042022973
0.082437173 -0.0042936024 0.045461684
0.084754318 -0.0043687792 0.041264296
0.08498688 -0.0043360651 0.042756587
0.08514218 -0.00430011 0.045714766
0.086572938 -0.0043286467 0.043298274
0.087619886 -0.0043376177 0.04511714
0.088085175 -0.0043179006 0.044735759
0.08936967 -0.0043383334 0.046645552
0.090213344 -0.0043371799 0.0452483
0.090350166 -0.0043023885 0.043710947
0.092172749 -0.0043477709 0.043801874
0.093047522 -0.0043480149 0.040476233
0.093190797 -0.0043143881 0.044053316
0.095456243 -0.0043787262 0.040801853
0.095423527 -0.0043374328 0.043103874
0.095238015 -0.0042900005 0.045402795
0.097520038 -0.0043535731 0.045021176
0.096509993 -0.0042703534 0.043114275
0.098830931 -0.00433469 0.046299279
0.099476963 -0.0043250853 0.045963943
0.10081179 -0.0043453355 0.043309897
0.10179065 -0.0043500275 0.046089798
0.10302603 -0.0043655094 0.04449138
0.10091455 -0.0042401073 0.050164819
0.10389334 -0.0043288893 0.046112537
0.10501872 -0.0043396163 0.040851682
0.10498773 -0.0043027755 0.046421945
0.10410403 -0.0042318711 0.055061251
0.10493426 -0.0042312201 0.049944162
0.10524721 -0.0042098882 0.051398575
0.10712723 -0.0042510806 0.053362429
0.063386388 -0.0036745733 0.027470976
0.066451497 -0.0037972284 0.012876838
0.065419815 -0.0036856234 0.028072029
0.0652842 -0.0036269 0.028467923
0.06705077 -0.0036740145 0.022649229
0.069706455 -0.0035746899 0.032891095
0.067419559 -0.0034136486 0.051993132
0.068551242 -0.0034275623 0.047783107
0.06834355 -0.0033749903 0.053688139
0.070436731 -0.0034359379 0.046900392
0.071265422 -0.0034344781 0.049432397
0.073295966 -0.0034902839 0.03945455
0.072544307 -0.0034138495 0.043943495
0.074754678 -0.0034769617 0.043539524
0.074309751 -0.0034165403 0.046710521
0.076675795 -0.0034852633 0.046185941
0.077760488 -0.0034948534 0.041638255
0.078410313 -0.0034849027 0.041782647
0.079309225 -0.0034861197 0.040309519
0.079508521 -0.0034568922 0.045683056
0.081957981 -0.0035250743 0.039695382
0.082319111 -0.003502941 0.043210983
0.081767589 -0.0034428458 0.044373274
0.084431477 -0.0035179784 0.041265219
0.08391165 -0.0034602741 0.046337664
0.084188215 -0.0034362539 0.043728977
0.086070232 -0.003477585 0.042614609
0.086403683 -0.0034561474 0.047700405
0.087293804 -0.0034571802 0.043108344
0.089726672 -0.0035186929 0.043555349
0.089809924 -0.0034877639 0.04286781
0.089841343 -0.0034554363 0.04159081
0.092600361 -0.0035276329 0.040621817
0.091862798 -0.0034665207 0.042247027
0.092444927 -0.003455885 0.044247031
0.09361919 -0.0034673773 0.047374427
0.093958281 -0.0034480102 0.044614911
0.095341951 -0.0034669801 0.043598861
0.097320877 -0.0035070586 0.042278349
0.095996946 -0.0034284624 0.042650282
0.099297285 -0.0035149483 0.045157343
0.099154368 -0.0034791008 0.045573354
0.10011301 -0.0034821918 0.043433636
0.099883772 -0.0034442679 0.047667861
0.1010059 -0.003453193 0.044873744
0.10064103 -0.0034115603 0.045896053
0.10207162 -0.0034309789 0.046753138
0.10365074 -0.0034550247 0.04851985
0.10389861 -0.0034346648 0.042253405
0.10614307 -0.0034801008 0.045723259
0.10392033 -0.0033795228 0.053244352
0.10700233 -0.003451688 0.046194881
0.10642112 -0.0034054758 0.053075999
0.10527609 -0.0033420979 0.052945018
0.065389067 -0.002884812 0.0094014108
0.063391879 -0.0027561686 0.020261168
0.066629484 -0.0028555491 0.015447736
0.062778436 -0.00265261 0.032851428
0.065073863 -0.0027114109 0.032309145
0.06810309 -0.0027987571 0.020706236
0.068853669 -0.0026482181 0.037894934
0.067855738 -0.0025768001 0.048740089
0.067529082 -0.0025323408 0.054289222
0.069046877 -0.0025572919 0.052709192
0.070203103 -0.0025684061 0.050891489
0.070553347 -0.0025501209 0.048979729
0.073999248 -0.0026428304 0.040362418
0.073716894 -0.0026017728 0.045351923
0.073202878 -0.0025535887 0.042515129
0.074420162 -0.0025662123 0.047211945
0.076855563 -0.0026200761 0.043137968
0.076596737 -0.0025819126 0.045234054
0.078336991 -0.0026112329 0.045614511
0.078704908 -0.002594667 0.044448465
0.079630442 -0.0025966447 0.044804573
0.081385262 -0.0026253308 0.040670186
0.081762865 -0.0026094529 0.042998195
0.083228946 -0.0026282824 0.040601194
0.083129786 -0.0025978058 0.044230551
0.083263867 -0.0025751712 0.044252783
0.085484207 -0.0026168635 0.044203669
0.085304402 -0.0025849817 0.047918677
0.086222097 -0.0025866628 0.043631554
0.088471889 -0.0026278778 0.041406631
0.088239968 -0.0025952931 0.042823583
0.089221805 -0.0025986934 0.040884703
0.090886526 -0.0026217268 0.045108765
0.091054142 -0.0026015467 0.043099612
0.092145815 -0.0026079004 0.043167353
0.092837572 -0.0026029225 0.043258339
0.094186909 -0.0026163028 0.040923715
0.094402641 -0.0025982377 0.041862637
0.095337428 -0.0026001115 0.045363486
0.095685914 -0.0025861056 0.041926682
0.09711685 -0.0026013441 0.045680881
0.097150996 -0.0025792299 0.049899399
0.097137555 -0.0025562514 0.044190347
0.10001394 -0.0026090594 0.040949851
0.10076889 -0.0026060918 0.044670522
0.099446803 -0.0025499179 0.045085311
0.1032861 -0.0026259178 0.045054853
0.10228926 -0.0025787207 0.048787862
0.10350564 -0.0025876409 0.042189986
0.10464925 -0.0025946095 0.044985592
0.10764651 -0.0026470453 0.039052159
0.10565212 -0.0025356507 0.052495062
0.1062308 -0.0025293045 0.053062439
0.06382449 -0.0018771909 0.014282733
0.063761838 -0.0018481693 0.023866743
0.065352373 -0.0018672106 0.020228922
0.064151943 -0.001807097 0.029345781
0.065316811 -0.001814356 0.030101269
0.070829876 -0.0018397371 0.026441097
0.069088109 -0.0017714901 0.042156667
0.067001402 -0.0016962381 0.049267232
0.06873548 -0.0017183871 0.050176442
0.068070099 -0.0016807432 0.054455042
0.069929861 -0.0017056064 0.048168421
0.071104452 -0.0017133603 0.047332615
0.073113136 -0.0017407889 0.043418258
0.072562113 -0.0017073439 0.043491751
0.074803501 -0.0017396163 0.043731809
0.075318038 -0.0017314492 0.047665477
0.076400787 -0.0017363817 0.044043779
0.077614948 -0.0017441561 0.044853836
0.077754579 -0.0017278795 0.04521066
0.079414852 -0.0017453813 0.042047054
0.07961522 -0.0017307657 0.047538698
0.080679476 -0.0017350424 0.047346354
0.082043052 -0.0017455969 0.041882902
0.082796216 -0.0017430783 0.041408628
0.083079785 -0.0017308288 0.04418382
0.084569886 -0.001743709 0.045225263
0.085247509 -0.0017397451 0.042001188
0.08604984 -0.0017383805 0.038212389
0.087737717 -0.0017547542 0.040579855
0.088777713 -0.0017579745 0.040981561
0.087554231 -0.0017167496 0.044762164
0.088943347 -0.0017270553 0.047097236
0.090752833 -0.0017452468 0.041733921
0.090844922 -0.0017303795 0.040292948
0.092859395 -0.0017520642 0.04708162
0.093651988 -0.0017505044 0.041821718
0.09259887 -0.0017147938 0.045068532
0.0947567 -0.001738655 0.042475104
0.095513433 -0.0017366079 0.046022654
0.095582947 -0.0017222152 0.045875609
0.097775884 -0.0017459979 0.043802619
0.097424254 -0.0017243231 0.043914914
0.09832219 -0.0017249509 0.041798502
0.099496476 -0.0017303736 0.040786356
0.10000271 -0.0017241846 0.045819014
0.099694729 -0.0017041834 0.054145277
0.10199709 -0.0017287643 0.044587642
0.10085109 -0.0016949764 0.049045742
0.10444625 -0.0017407709 0.04380253
0.10373269 -0.0017145899 0.043678939
0.1076694 -0.0017650721 0.038352877
0.11060969 -0.0017840271 0.033523291
0.10553721 -0.0016885954 0.051448226
0.10690647 -0.0016969281 0.05411002
0.11184024 -0.0017612637 0.035962194
0.063628867 -0.00093571859 0.014763743
0.064309701 -0.00093202473 0.017257243
0.064343907 -0.00091919873 0.022607595
0.06461288 -0.00091004063 0.027809143
0.065533444 -0.00091018673 0.026020765
0.06951654 -0.00090281217 0.032716334
0.068449199 -0.00087755389 0.039595544
0.066760994 -0.00084507588 0.052713305
0.06756898 -0.00084461225 0.054601431
0.068428926 -0.0008448016 0.049555004
0.070449695 -0.00085914257 0.050486505
0.071347915 -0.00085961341 0.045255363
0.072407007 -0.00086198823 0.044373453
0.072714858 -0.00085546891 0.049217969
0.075214304 -0.00087458495 0.042373091
0.073359281 -0.00084321015 0.050668865
0.076301903 -0.00086706708 0.045592487
0.077144183 -0.00086678861 0.042806715
0.077739209 -0.00086376898 0.044092685
0.079312757 -0.00087156874 0.042499304
0.079539388 -0.00086455856 0.043213069
0.080967411 -0.00087061734 0.045992643
0.08187639 -0.00087102543 0.043426633
0.082554601 -0.00086899579 0.045799077
0.083325274 -0.00086797163 0.044705987
0.084972993 -0.00087601028 0.041717589
0.085074142 -0.00086810353 0.04055649
0.086525232 -0.00087399222 0.040888101
0.086301014 -0.00086301012 0.04474476
0.087369308 -0.00086504262 0.043843329
0.088989347 -0.00087244454 0.042257369
0.090148382 -0.00087522704 0.043200374
0.090004861 -0.00086543139 0.042678475
0.091434017 -0.00087080023 0.042652398
0.092048004 -0.00086837739 0.04352203
0.093003616 -0.00086919265 0.041492254
0.093839429 -0.00086888362 0.043797374
0.092897899 -0.0008522743 0.045887619
0.096678354 -0.00087889412 0.037580401
0.095668562 -0.00086187897 0.045241445
0.096533805 -0.00086190895 0.044319689
0.097750016 -0.00086504436 0.044549048
0.098998234 -0.00086840556 0.047264129
0.098708853 -0.00085833791 0.044888884
0.099860922 -0.00086087 0.046123862
0.10040086 -0.00085812696 0.0419963
0.1008938 -0.00085503224 0.045593947
0.10208297 -0.00085784006 0.045843422
0.103494 -0.00086244999 0.046839893
0.10388189 -0.00085852802 0.042115152
0.10707974 -0.00087770278 0.041782618
0.10408249 -0.00084619911 0.04930672
0.10541087 -0.00085008761 0.049784511
0.10505798 -0.00084046379 0.056151181
0.10576422 -0.00083939853 0.055762172
0.1103429 -0.00086884177 0.043052703
0.06387841 0 0.018466771
0.062145639 0 0.028145313
0.065176576 0 0.020997971
0.064502254 0 0.027473003
0.067417517 0 0.017163217
0.072401568 0 0.012891322
0.068954274 0 0.033315182
0.069140293 0 0.036244184
0.067479514 0 0.05134958
0.067985326 0 0.049722612
0.069503784 0 0.049650759
0.069916002 0 0.050677836
0.071090437 0 0.047452629
0.073379673 0 0.042082101
0.073374137 0 0.044184178
0.073122822 0 0.048572958
0.076780729 0 0.04378131
0.075819999 0 0.046521634
0.076847762 0 0.044235319
0.078274831 0 0.048399776
0.07944826 0 0.042428106
0.079386555 0 0.041525543
0.081867971 0 0.040314913
0.081932433 0 0.042928129
0.081557296 0 0.041385382
0.083069384 0 0.045085549
0.084226005 0 0.040011048
0.084523015 0 0.046242118
0.085640669 0 0.044273883
0.085715637 0 0.043940365
0.088760838 0 0.040840179
0.08889921 0 0.046818852
0.090452753 0 0.037886083
0.08991307 0 0.047942638
0.091694377 0 0.04213354
0.090942413 0 0.048213869
0.093293808 0 0.044578969
0.094329253 0 0.045681268
0.093231618 0 0.04445228
0.09528818 0 0.044823796
0.095577538 0 0.046440214
0.097132534 0 0.046386719
0.097756922 0 0.048844457
0.096271023 0 0.045340896
0.09918762 0 0.044209182
0.10065603 0 0.048747629
0.10146932 0 0.045297176
0.10361313 0 0.049103111
0.10026805 0 0.047947556
0.10306678 0 0.04613921
0.10521691 0 0.047391325
0.10689505 0 0.042342633
0.10426917 0 0.048747361
0.10412566 0 0.055375844
0.10417072 0 0.051611751
0.10572055 0 0.052691549
0.11401148 0 0.036752969
0.064409614 0.00094720017 0.013441265
0.064388476 0.00093316636 0.019756913
0.064966165 0.00092808803 0.017826587
0.064740762 0.00091184175 0.026272178
0.065840222 0.00091444753 0.025012583
0.07049378 0.00092754967 0.019696355
0.068677433 0.00089191471 0.032668412
0.069247454 0.00088778784 0.037704378
0.068065308 0.00086158619 0.048669457
0.066875398 0.00083594251 0.056969166
0.0692809 0.00085531978 0.051252246
0.068764746 0.00083859439 0.053568721
0.071050584 0.00085603108 0.050819755
0.072587468 0.0008641365 0.047643572
0.072730064 0.00085564784 0.04704693
0.07386598 0.00085890671 0.046426743
0.075002499 0.00086209772 0.044329286
0.075112306 0.00085354893 0.047379047
0.077504404 0.00087083597 0.041235387
0.07842987 0.00087144302 0.04304567
0.079393916 0.00087246054 0.042808473
0.080129825 0.00087097631 0.045994103
0.080807231 0.00086889492 0.04302308
0.081675522 0.00086888851 0.042904258
0.082898393 0.00087261468 0.045110911
0.083137438 0.00086601503 0.042547762
0.085013233 0.00087642513 0.04368493
0.085393362 0.00087136088 0.042996526
0.0860506 0.00086919795 0.043871254
0.08759059 0.00087590591 0.045312643
0.087566353 0.00086699356 0.043488622
0.087591164 0.00085873686 0.043368161
0.090294346 0.00087664416 0.041310817
0.090023279 0.00086560845 0.046384543
0.090827145 0.00086502044 0.043784767
0.093022645 0.00087757217 0.045455307
0.091963664 0.00085947342 0.041987002
0.093731351 0.00086788286 0.042949706
0.095405191 0.00087527692 0.044640392
0.095313773 0.00086648884 0.043718338
0.095264211 0.0008582361 0.046228558
0.096014276 0.00085727032 0.046269089
0.097531199 0.00086310797 0.041802853
0.098095752 0.00086048909 0.045223445
0.099510819 0.00086531148 0.044701338
0.098182991 0.00084640505 0.049848467
0.10109243 0.00086403784 0.046280205
0.10192896 0.00086380477 0.049009353
0.10279235 0.00086380128 0.045843422
0.10347997 0.00086233317 0.052750379
0.10390308 0.0008587031 0.042792171
0.1065532 0.00087338692 0.040756106
0.1045843 0.00085027883 0.053829432
0.10544697 0.00085037883 0.054560304
0.10456327 0.00083650619 0.05210048
0.107882 0.00085620634 0.055971533
0.11014362 0.00086727261 0.035799772
0.065328747 0.0019214337 0.0075741708
0.062302437 0.0018058678 0.026029855
0.065154769 0.0018615648 0.018354982
0.064249977 0.0018098586 0.02797696
0.065882832 0.0018300787 0.024820328
0.069893964 0.0018154277 0.031686127
0.06885004 0.0017653856 0.036411285
0.067629918 0.0017121499 0.049985081
0.067683168 0.0016920792 0.05295074
0.068525121 0.0016919783 0.051466942
0.070052311 0.0017085929 0.050581634
0.07042557 0.0016970016 0.048049062
0.07305298 0.0017393567 0.042415768
0.073226243 0.0017229704 0.043300897
0.074649699 0.0017360394 0.044566423
0.074981093 0.0017237033 0.043709278
0.077469848 0.0017606784 0.041256785
0.07687334 0.0017274908 0.044996649
0.078081168 0.001735137 0.043116689
0.079333693 0.0017435977 0.045447916
0.080681279 0.0017539408 0.03952843
0.080591105 0.0017331421 0.04456687
0.081831023 0.0017410856 0.04743883
0.082649685 0.0017399933 0.040578127
0.08364898 0.0017426871 0.043377429
0.084104292 0.0017341092 0.044300854
0.084881864 0.0017322829 0.042403936
0.086612374 0.0017497449 0.042024165
0.086134627 0.0017226925 0.043442935
0.087350622 0.0017297153 0.041028857
0.089669563 0.0017582267 0.043013275
0.089071073 0.0017295354 0.047002733
0.089967251 0.0017301395 0.042371243
0.090628192 0.0017262512 0.045247018
0.091359951 0.0017237727 0.042531431
0.09190613 0.0017178715 0.043777347
0.093399934 0.0017296284 0.047517389
0.094647683 0.0017366548 0.041322023
0.095416427 0.0017348441 0.042636186
0.097441651 0.0017557055 0.042514831
0.096572429 0.0017245077 0.039222687
0.098498426 0.001743335 0.041051388
0.099378407 0.0017434809 0.048248887
0.099044949 0.0017225209 0.042005271
0.10057335 0.0017340231 0.046779364
0.10139968 0.0017333279 0.045717984
0.10092743 0.0017106346 0.045570165
0.10281233 0.0017279384 0.04397282
0.10330389 0.0017217315 0.046886206
0.10417759 0.0017219437 0.047437489
0.10598306 0.0017374273 0.046308041
0.10446154 0.0016985616 0.049329609
0.10447834 0.0016851346 0.050086945
0.1050789 0.0016812624 0.054241776
0.10632025 0.0016876229 0.055133581
0.11335329 0.0017850912 0.0326612
0.12149264 0.0018983225 0.0056679845
0.06554848 0.0028918448 0.0062516034
0.063362859 0.0027549069 0.021078348
0.06570033 0.0028157285 0.017033368
0.064270318 0.0027156475 0.031170458
0.066771887 0.0027821623 0.021675467
0.068413988 0.0028115336 0.018378854
0.071142316 0.0027717785 0.023063749
0.069544539 0.0026747899 0.035094142
0.068403915 0.002597617 0.046921611
0.066103697 0.0024788887 0.05933547
0.067580171 0.0025029692 0.057203203
0.070776172 0.002589372 0.048597753
0.070350178 0.0025427775 0.048478246
0.07363835 0.0026299411 0.042844772
0.073757455 0.0026032042 0.04599607
0.073956497 0.0025798776 0.043373495
0.07518214 0.0025924875 0.044399768
0.076059029 0.0025929215 0.04447186
0.077285372 0.0026051248 0.043543726
0.078272738 0.0026090911 0.044091642
0.078926735 0.00260198 0.043045312
0.079597637 0.0025955751 0.045351267
0.080473915 0.0025959327 0.044566184
0.082398936 0.0026297532 0.039389312
0.083274029 0.0026297062 0.039438456
0.082412608 0.002575394 0.047408551
0.083620228 0.0025861927 0.041147768
0.086279325 0.002641204 0.047354311
0.086282954 0.0026146348 0.044414788
0.086653911 0.0025996172 0.044838339
0.08788076 0.0026103195 0.041950494
0.088499114 0.002602915 0.042398155
0.089021109 0.0025928477 0.04043594
0.090555117 0.0026121668 0.044424236
0.090298653 0.0025799617 0.043052465
0.092052095 0.002605248 0.038782269
0.093329184 0.0026167061 0.044412822
0.093322285 0.0025922854 0.041912675
0.095120817 0.0026180041 0.038991809
0.095880657 0.002614927 0.042682618
0.095340259 0.0025767637 0.044558853
0.095873944 0.0025680522 0.045939267
0.097296871 0.0025831028 0.0462614
0.098434411 0.0025903792 0.037693173
0.10029698 0.002616443 0.041910887
0.099749923 0.0025797393 0.048465282
0.099809699 0.002559223 0.044804394
0.10112612 0.002571003 0.048400044
0.10237966 0.0025809999 0.045795619
0.10444475 0.0026111186 0.042213351
0.10486817 0.0026000373 0.044938892
0.10502099 0.0025824832 0.042924762
0.10387939 0.0025336437 0.052219659
0.10449851 0.0025281897 0.054861903
0.1053102 0.0025274449 0.053635716
0.1055713 0.0025136024 0.053946376
0.12252415 0.0028716596 0.0052962601
0.062756211 0.0036380414 0.023625523
0.066363208 0.0037921835 0.013597578
0.064835861 0.0036527247 0.023461372
0.065811314 0.0036561841 0.028707922
0.066678584 0.0036536208 0.021161616
0.070219927 0.0036010218 0.034470975
0.068066962 0.0034464283 0.046513885
0.069682449 0.0033991439 0.046159714
0.070987932 0.0034211052 0.052083105
0.073631793 0.0035062758 0.042557448
0.072630487 0.0034179052 0.042130411
0.074447088 0.0034626552 0.046543866
0.074776262 0.0034379892 0.047163308
0.076345652 0.0034702572 0.040778935
0.076748759 0.0034493825 0.04670912
0.078094445 0.0034708641 0.043805182
0.078265034 0.0034402213 0.047443956
0.080569066 0.0035030029 0.042212874
0.081267588 0.00349538 0.042688549
0.081409663 0.003464241 0.042000145
0.083148323 0.003500982 0.043258041
0.083862305 0.0034942627 0.04012689
0.084595628 0.0034884796 0.042853445
0.085418604 0.0034864736 0.042520851
0.085331939 0.003447755 0.043703616
0.087823339 0.0035129336 0.04495573
0.087299772 0.0034574168 0.043368459
0.088527426 0.0034716637 0.039868563
0.089767344 0.0034861106 0.042915076
0.090424374 0.0034778605 0.041024327
0.09088508 0.003462289 0.040716171
0.091962755 0.0034702925 0.047268599
0.091619298 0.0034250205 0.045401484
0.093441173 0.0034607842 0.041864723
0.094766214 0.0034776591 0.046191543
0.094371907 0.0034317058 0.04505688
0.096355684 0.003472277 0.042748392
0.096601948 0.0034500696 0.046830744
0.096346751 0.0034105044 0.046894133
0.099762678 0.0035004448 0.04205507
0.098900013 0.0034400006 0.04573071
0.09991774 0.003445439 0.042748839
0.10025958 0.003427678 0.045552552
0.10279407 0.003484545 0.045615345
0.10108408 0.0033977842 0.045280397
0.1040432 0.0034681065 0.047632128
0.10387743 0.0034339644 0.044774592
0.10443545 0.0034241132 0.047496229
0.10424291 0.0033900132 0.055155933
0.10412091 0.003358739 0.056817621
0.1048498 0.0033551934 0.052726805
0.10638988 0.0033774567 0.053549856
0.063106887 0.0045729624 0.026532948
0.06590315 0.0047073676 0.011074752
0.065545902 0.0046159085 0.026702523
0.065360188 0.0045389016 0.024626732
0.066002466 0.0045207166 0.029558301
0.07035806 0.0045101321 0.030233115
0.068277761 0.0043213773 0.044981301
0.068047181 0.0042529488 0.050771147
0.068007722 0.0041980073 0.051439822
0.070224226 0.0042819646 0.050315648
0.071005844 0.0042774598 0.052607059
0.073063426 0.0043490133 0.040193379
0.07333824 0.0043140142 0.049572259
0.074245162 0.0043165791 0.045660436
0.075183727 0.0043209041 0.041942984
0.076961949 0.004372838 0.042040199
0.07730817 0.0043431558 0.04001835
0.078252956 0.0043473863 0.038212478
0.08018896 0.0044059865 0.040522486
0.079889059 0.0043417965 0.04240188
0.080602661 0.0043334761 0.041760981
0.081915207 0.0043571917 0.045132935
0.082312055 0.0043322132 0.043375522
0.082972184 0.0043214681 0.046647429
0.084875017 0.0043750009 0.037092835
0.085282862 0.0043511661 0.041903824
0.087304279 0.0044093067 0.043442041
0.086022831 0.004301141 0.044102758
0.087942302 0.0043535791 0.042752504
0.088934869 0.0043595522 0.044215828
0.08918114 0.0043291813 0.045275718
0.090415858 0.004346916 0.041684151
0.091588601 0.0043613617 0.04213044
0.092597567 0.0043678097 0.042340219
0.093003407 0.004345953 0.03830871
0.094786458 0.0043882616 0.044900984
0.094558552 0.0043375478 0.04054302
0.09530066 0.0043318481 0.042586535
0.096698798 0.0043558013 0.0448623
0.095961563 0.0042839982 0.046759069
0.098134406 0.00434223 0.045766354
0.097661138 0.004283383 0.048269421
0.1005619 0.0043722563 0.042073041
0.099921934 0.0043069795 0.045581967
0.10135932 0.0043315943 0.046370655
0.10115597 0.0042862697 0.047742844
0.10243756 0.0043040989 0.043853313
0.10336074 0.0043066973 0.046112508
0.10487042 0.0043334886 0.041388601
0.10572056 0.0043328102 0.044299126
0.10286393 0.0041814605 0.052939951
0.10554808 0.0042559705 0.048476607
0.10628746 0.0042514978 0.054192007
0.10577167 0.0041972878 0.050640792
0.12173793 0.0047928318 0.0065318346
0.063225009 0.0054978267 0.021821618
0.065926172 0.0056508151 0.014605701
0.065790914 0.0055597955 0.023339927
0.066191837 0.0055159866 0.025417984
0.066530056 0.0054682237 0.027494073
0.071475968 0.0054981513 0.025612324
0.069059901 0.0052450555 0.041558474
0.068695396 0.0051521547 0.045149624
0.068557255 0.0050783157 0.057365894
0.069712564 0.0051009189 0.054184228
0.069987744 0.0050593549 0.050360739
0.072289161 0.0051635117 0.049452484
0.07396441 0.0052210172 0.043487579
0.074155577 0.0051736445 0.043370038
0.075316027 0.0051942091 0.042585045
0.075413629 0.0051418385 0.046516657
0.076548204 0.0051605529 0.044540077
0.078068383 0.0052045584 0.047894955
0.07906647 0.0052131736 0.040330887
0.079580337 0.0051900218 0.040713042
0.080953494 0.0052228058 0.046059102
0.081276521 0.005187863 0.04123795
0.082512245 0.0052112998 0.040526807
0.082701989 0.0051688743 0.042163908
0.084194064 0.0052078799 0.040528238
0.08595328 0.0052624457 0.040907651
0.085567139 0.0051858872 0.045145065
0.086280309 0.0051768185 0.045000404
0.0883753 0.0052500176 0.042561948
0.088546336 0.0052086078 0.040740609
0.089269482 0.0052001639 0.041566372
0.090492725 0.005220734 0.0431934
0.091598041 0.005234174 0.039628714
0.092856966 0.0052560549 0.041608065
0.094015069 0.0052718725 0.03762424
0.094046004 0.0052247779 0.042639256
0.095132589 0.0052366559 0.043788791
0.095944278 0.0052333241 0.04413718
0.096082725 0.0051936605 0.041100919
0.097405158 0.0052181333 0.04276523
0.098011941 0.0052041737 0.047337353
0.097283714 0.0051201954 0.045171976
0.099905074 0.0052124388 0.041837335
0.10018368 0.0051819142 0.044292271
0.10092478 0.0051756296 0.046369195
0.10140119 0.0051559927 0.049191564
0.10205881 0.0051458222 0.046703696
0.10323133 0.0051615667 0.043705046
0.10546026 0.005229434 0.043581545
0.10355437 0.0050928378 0.05024609
0.10253097 0.0050015105 0.053987205
0.1044977 0.0050563402 0.057699531
0.10408004 0.0049958415 0.051280558
0.10777601 0.0051321909 0.047592014
0.12253118 0.0057888748 0.0068803132
0.064362518 0.006529531 0.019561797
0.064771742 0.0064771743 0.019073129
0.065208696 0.0064290268 0.022378534
0.066124432 0.0064287642 0.025128961
0.066882081 0.0064133499 0.02307874
0.072850078 0.0065378277 0.021590114
0.069208406 0.0061323904 0.04055205
0.069233149 0.0060579008 0.047682673
0.068370663 0.0059085758 0.052296519
0.069293559 0.0059153037 0.051960379
0.070703447 0.0059629413 0.052555561
0.071484454 0.0059570377 0.049140304
0.073794261 0.0060771741 0.039764673
0.074542269 0.0060673943 0.044989586
0.07557743 0.0060809432 0.044275314
0.076421991 0.0060790218 0.042442113
0.077096082 0.0060637365 0.04556191
0.078161716 0.0060792444 0.041397899
0.078690149 0.0060530882 0.043515772
0.080080152 0.006093055 0.045773685
0.080596924 0.0060664355 0.043895781
0.081797801 0.0060913255 0.043562889
0.082018822 0.0060434924 0.046053559
0.082556531 0.0060197474 0.044415057
0.08255288 0.0059574242 0.043583989
0.085340656 0.0060957614 0.043085188
0.085921258 0.0060752397 0.041829228
0.086797498 0.0060758246 0.046560109
0.087870434 0.0060900301 0.042678565
0.088326029 0.0060615903 0.041920573
0.089460686 0.0060798526 0.044682175
0.090047449 0.0060608857 0.04434827
0.091216862 0.0060811243 0.041231185
0.092790976 0.0061277063 0.042313695
0.093375012 0.0061086453 0.039177686
0.093292348 0.0060467259 0.040024281
0.094712242 0.0060824375 0.041810721
0.095546216 0.0060802135 0.044182539
0.095642209 0.0060314904 0.044788659
0.097842038 0.0061151274 0.043937802
0.097835876 0.0060606296 0.042782724
0.099913582 0.0061350446 0.042238712
0.10020455 0.0060994076 0.041671723
0.09864486 0.005952707 0.048881263
0.10098946 0.0060421042 0.043137431
0.10244621 0.0060773175 0.047669351
0.10145 0.0059676473 0.045019001
0.10448884 0.0060951822 0.046483099
0.10465845 0.0060546212 0.04133904
0.10229126 0.0058691711 0.052786738
0.10461298 0.0059535843 0.050768465
0.10384395 0.0058621583 0.053248435
0.10517456 0.0058897748 0.051045895
0.11001407 0.0061118929 0.042589337
0.12277757 0.0067672678 0.0058341026
0.066241547 0.0076801796 0.0052626729
0.064239144 0.0073416168 0.023059636
0.067332372 0.0075867469 0.015966803
0.065620303 0.0072911456 0.024503827
0.066502534 0.0072879489 0.025740534
0.071479276 0.0073312083 0.026280314
0.070202239 0.0071090874 0.034043014
0.06875179 0.0068751797 0.046556681
0.068919331 0.0068068481 0.049497813
0.069123939 0.0067437985 0.055230856
0.069768831 0.0067247064 0.051192224
0.070393711 0.0067041628 0.053266734
0.074373856 0.0069998922 0.043412387
0.073764943 0.0068618548 0.048277617
0.074832931 0.0068811891 0.044535428
0.077000156 0.0070000147 0.042916536
0.076790757 0.0069025401 0.043441385
0.077446297 0.0068841148 0.044013053
0.080141798 0.0070454325 0.040589124
0.079524525 0.0069151758 0.040353149
0.081101395 0.0069764643 0.042183727
0.081046641 0.0068975864 0.044676661
0.081958838 0.0069017969 0.04296717
0.084299996 0.0070249997 0.043606848
0.083727352 0.006905349 0.041449159
0.085162796 0.0069520655 0.040809512
0.08658535 0.006996796 0.042632222
0.08603663 0.0068829302 0.04423964
0.088559076 0.0070145805 0.03927201
0.09003339 0.0070614424 0.042202324
0.088465557 0.0068711112 0.045058012
0.090160087 0.0069353916 0.040782571
0.091280967 0.0069547407 0.04118219
0.091568828 0.0069108554 0.045187652
0.093081057 0.0069593308 0.040330291
0.095157087 0.007048673 0.041458637
0.093816929 0.0068856464 0.047526181
0.094319969 0.0068596336 0.046414316
0.096837834 0.0069793034 0.050661176
0.095760047 0.0068400037 0.044734299
0.098395146 0.0069660279 0.041372836
0.098184839 0.0068901642 0.046809942
0.098475292 0.0068504554 0.044810385
0.099211127 0.0068421466 0.050588936
0.099335223 0.0067921518 0.048799574
0.10171732 0.0068960893 0.04427588
0.10238437 0.0068829828 0.048265964
0.10332116 0.0068880771 0.044378936
0.10269108 0.0067894929 0.044558376
0.10287736 0.006746056 0.056796402
0.10326819 0.0067166304 0.054215997
0.1039767 0.006708174 0.051010072
0.10653751 0.0068184007 0.051067054
0.06452167 0.0082956431 0.024283409
0.067073219 0.0085022384 0.010347873
0.066169865 0.0082712332 0.023350656
0.066875607 0.0082449373 0.027058542
0.070103519 0.0080888672 0.029892951
0.072168812 0.0082217632 0.027606219
0.069212146 0.0077863662 0.043398052
0.068654478 0.0076282751 0.055111647
0.069012687 0.0075745629 0.054320306
0.070255749 0.0076180929 0.047464967
0.07073091 0.0075783115 0.055578798
0.072631583 0.0076904022 0.047369599
0.074012354 0.0077454788 0.044818372
0.075388834 0.0077988449 0.045938969
0.076451369 0.0078188898 0.043104857
0.076961637 0.0077826371 0.044962555
0.077431671 0.0077431663 0.050148517
0.078682669 0.0077818017 0.043392718
0.080296643 0.0078551061 0.042299777
0.081334762 0.0078711053 0.043369144
0.080914252 0.007747109 0.04526791
0.08227025 0.0077940235 0.043154806
0.083544597 0.0078323064 0.042253166
0.083539255 0.0077510648 0.042963743
0.08558213 0.007859583 0.044052154
0.086815357 0.0078923041 0.038369447
0.086446315 0.0077801677 0.042226613
0.088339746 0.0078718578 0.041492432
0.088811807 0.0078363363 0.041940272
0.088309139 0.0077163321 0.04479599
0.090983957 0.0078736115 0.046444446
0.090682082 0.0077727498 0.042925477
0.091245726 0.0077472785 0.043346852
0.0933915 0.0078553595 0.042118579
0.093970127 0.0078308433 0.042610109
0.094382882 0.0077930815 0.042206794
0.096145101 0.0078664171 0.042344511
0.096018024 0.0077852448 0.041260004
0.097826391 0.0078610489 0.043041408
0.097170532 0.0077392459 0.045219213
0.097645335 0.0077088419 0.046197951
0.098713018 0.0077253669 0.046261132
0.099831112 0.0077455165 0.045972764
0.099864319 0.0076818699 0.046316385
0.10179515 0.0077640363 0.047828704
0.10255322 0.0077561252 0.044313699
0.10459137 0.0078443522 0.042905331
0.10201535 0.0075879176 0.051138103
0.10265894 0.0075732004 0.058752805
0.10386521 0.007599893 0.053117901
0.10487419 0.0076118354 0.055595934
0.1060014 0.0076321 0.051553279
0.064047202 0.0091495998 0.023345321
0.065552317 0.0092327213 0.021054655
0.06733232 0.0093517117 0.021669447
0.065917462 0.0090297889 0.028016478
0.070600919 0.009540665 0.0095664561
0.071793549 0.0092043011 0.02984339
0.071838714 0.0090935081 0.026671767
0.0700785 0.0087598125 0.042606592
0.06972973 0.0086086085 0.045812219
0.069978297 0.0085339379 0.049898267
0.069508664 0.0083745373 0.054648459
0.070621654 0.0084073395 0.055337012
0.071781069 0.0084448308 0.052113146
0.075371459 0.0087641226 0.042646587
0.074752338 0.0085922228 0.047866285
0.076483719 0.0086913323 0.041602165
0.077153221 0.0086689014 0.045531243
0.078144513 0.0086827232 0.044222414
0.078878351 0.0086679505 0.043104976
0.079849422 0.0086792838 0.046408325
0.079761997 0.0085765589 0.043794185
0.080597334 0.008574184 0.044814348
0.082676932 0.0087028351 0.043792903
0.082879826 0.0086333146 0.043080628
0.084913701 0.0087539889 0.042487383
0.084503919 0.0086228484 0.046394289
0.085814632 0.0086681442 0.043432415
0.086051181 0.008605117 0.04865846
0.087928899 0.0087058311 0.043948799
0.088957481 0.0087213209 0.043426454
0.089514211 0.0086906999 0.044769913
0.089641333 0.0086193588 0.042831302
0.090355128 0.0086052502 0.042687207
0.09252733 0.0087289931 0.039078355
0.092478998 0.0086428961 0.043081969
0.093672559 0.0086733848 0.04361999
0.095332846 0.0087461323 0.045380384
0.094297186 0.0085724704 0.045774698
0.09523686 0.0085798968 0.044547141
0.097058386 0.0086659268 0.046091497
0.097297773 0.0086104218 0.042706013
0.10011941 0.0087824045 0.048610687
0.099691249 0.0086688045 0.041923344
0.098154984 0.0084616356 0.048405707
0.10094042 0.0086273858 0.048677504
0.10233462 0.0086724246 0.04427129
0.10293002 0.0086495811 0.04484883
0.10368183 0.0086401524 0.047503918
0.10141675 0.0083815493 0.053142488
0.10211275 0.0083698975 0.05287233
0.10394558 0.0084508602 0.054280341
0.10473856 0.0084466571 0.051424056
0.10715207 0.0085721649 0.045150369
0.12022506 0.0095416708 0.0094655156
0.067064978 0.010538783 0.0061721802
0.066144697 0.01024777 0.022037566
0.068062313 0.010398409 0.012381762
0.066692434 0.010049544 0.024992555
0.067669161 0.010058928 0.025940448
0.074649557 0.010527502 0.0075620711
0.071323983 0.0099311871 0.030736327
0.07117863 0.0097870622 0.037033349
0.069062397 0.0093788439 0.046119988
0.070262775 0.0094254939 0.050516099
0.069851041 0.0092573669 0.052639693
0.070747495 0.009264553 0.04850933
0.072627969 0.009398913 0.050273508
0.073870264 0.0094485218 0.046052575
0.074317567 0.0093964739 0.047196209
0.076106988 0.0095133735 0.046933472
0.076846577 0.0094978912 0.048241496
0.078257389 0.0095647909 0.041032225
0.079371028 0.0095942998 0.043958157
0.080205142 0.0095897457 0.041629463
0.08012145 0.0094767306 0.04471764
0.082070425 0.0096039856 0.046259373
0.082322501 0.0095320782 0.043102235
0.083927341 0.0096166749 0.043694377
0.085040599 0.0096437791 0.04265061
0.083877884 0.0094148638 0.042649835
0.086541541 0.0096157258 0.045204818
0.086560331 0.0095216362 0.044090301
0.087278835 0.0095056156 0.039927334
0.088686921 0.0095642749 0.044061691
0.088766947 0.0094799651 0.043161571
0.09080153 0.0096040079 0.038463205
0.091185287 0.0095527442 0.044854224
0.092284329 0.0095766755 0.040749282
0.092416637 0.0095007746 0.043456227
0.093768515 0.0095504969 0.044888377
0.094525747 0.009539295 0.040061206
0.095681392 0.009568139 0.043421
0.0958113 0.0094948132 0.046870261
0.094961934 0.0093266182 0.043576449
0.098259605 0.0095650945 0.045213997
0.097259827 0.0093847197 0.046239525
0.097253211 0.0093024811 0.045927733
0.099466473 0.009432165 0.048918009
0.10081795 0.00947861 0.048440576
0.10073484 0.0093905348 0.049249738
0.10271525 0.0094946865 0.044285268
0.10155977 0.0093096457 0.05063042
0.10125535 0.0092050312 0.052205801
0.10345098 0.0093275476 0.052682549
0.10378169 0.0092812898 0.051806778
0.10515102 0.0093279127 0.048719525
0.11998347 0.010474747 0.0061859488
0.066370174 0.011217494 0.018411398
0.067582496 0.01126375 0.015956014
0.066552117 0.010940073 0.029331803
0.067358449 0.010922991 0.025123566
0.068763681 0.011002189 0.02508828
0.074871302 0.011372856 0.013346076
0.072861493 0.010929224 0.027061909
0.070020527 0.010373412 0.043990165
0.070238352 0.010278783 0.050440997
0.070455484 0.010186335 0.047265083
0.071439087 0.010205584 0.052418917
0.070935488 0.010014421 0.055516452
0.073352739 0.010235266 0.050029874
0.076467969 0.010547305 0.040522575
0.075902723 0.010350372 0.043930173
0.07724373 0.010414885 0.04128927
0.078054026 0.010407203 0.046904325
0.078597642 0.010364524 0.04419288
0.07941822 0.010358898 0.044050097
0.080590799 0.010398813 0.046186864
0.080486447 0.010274866 0.043645561
0.082311258 0.010397212 0.043455124
0.082994238 0.01037428 0.045113802
0.083207726 0.010293739 0.045135498
0.086448066 0.010585478 0.043451995
0.085744947 0.010393326 0.047733992
0.086524919 0.010382989 0.042100549
0.088317446 0.010493161 0.043068498
0.088277332 0.010385568 0.042405009
0.089241251 0.010397038 0.042332351
0.091089882 0.010510371 0.041174114
0.089544989 0.010233713 0.046006709
0.091847219 0.010397798 0.041312158
0.092517547 0.0103758 0.043335497
0.09405458 0.010450508 0.040884078
0.09403228 0.010352177 0.043422222
0.095481068 0.010416117 0.046685666
0.095641926 0.010339668 0.045293182
0.097558759 0.010452724 0.044723928
0.098789938 0.010490967 0.047064453
0.09762089 0.010275884 0.043047726
0.097832814 0.010208642 0.048689574
0.10013214 0.010358497 0.045987815
0.10075652 0.010334002 0.044295609
0.10285975 0.010460313 0.045598567
0.10171434 0.010256909 0.048955947
0.10115377 0.010115377 0.051350981
0.10148165 0.010064295 0.051175565
0.10251244 0.010083191 0.057552934
0.10440547 0.010185899 0.049636185
0.10702106 0.010356876 0.046736956
0.065905035 0.012067119 0.014521539
0.067313954 0.01215391 0.021233082
0.06733489 0.011991143 0.021871299
0.067065112 0.011781708 0.025936663
0.0688124 0.011927483 0.026188582
0.070039444 0.011980431 0.023709863
0.074806638 0.012156079 0.018310815
0.072390884 0.01161829 0.036293387
0.070619844 0.011195828 0.042819083
0.071019806 0.011123584 0.050340682
0.070967808 0.010983112 0.053417027
0.071330495 0.010909369 0.051911652
0.073695704 0.011140049 0.050407439
0.074591897 0.011145916 0.04785642
0.076326579 0.011275518 0.042807847
0.076544389 0.011180641 0.046687901
0.077507742 0.011195562 0.04606849
0.078051031 0.011150146 0.043880552
0.079177372 0.011188107 0.048061877
0.080187343 0.011208983 0.042692989
0.081066072 0.011211266 0.04563579
0.082333349 0.011266669 0.04376027
0.082885705 0.011224105 0.042977065
0.083931237 0.011248516 0.047761917
0.085733972 0.011372874 0.043732941
0.085510232 0.011228615 0.042737365
0.087559178 0.011382692 0.044580728
0.087618664 0.01127765 0.045618027
0.08825279 0.011247904 0.041858613
0.089587301 0.011307135 0.041408539
0.089923829 0.011240479 0.043766409
0.090200745 0.011167712 0.044918656
0.092471235 0.011340812 0.043100059
0.092164315 0.011197533 0.043991804
0.093069129 0.011202765 0.042057872
0.094044678 0.011216337 0.047982067
0.095241427 0.011255805 0.044237673
0.095504627 0.011185226 0.045736194
0.096493416 0.011200129 0.048218548
0.097178951 0.011179879 0.043706298
0.098743059 0.011260173 0.047569424
0.097569801 0.01102963 0.048522025
0.099418774 0.011141759 0.045773774
0.099914335 0.011101592 0.049720734
0.10207291 0.011245321 0.044823676
0.10008736 0.010933912 0.051943302
0.10096439 0.010937809 0.055106729
0.10214496 0.010974252 0.054485351
0.10310964 0.010987093 0.055380255
0.10459149 0.011054385 0.051356941
0.066561408 0.012942496 0.019815952
0.069333747 0.013296882 0.010383219
0.068460882 0.012952058 0.022866488
0.068240784 0.012738279 0.030331224
0.068978146 0.0127065 0.027395844
0.074995816 0.013635603 0.0075878203
0.073468722 0.012698298 0.024822742
0.072533078 0.012383696 0.040021718
0.071761891 0.012104415 0.046183646
0.071412951 0.011902158 0.049190253
0.07213036 0.011880294 0.051096737
0.072926335 0.011871728 0.051237524
0.073316634 0.011798079 0.051854163
0.076069042 0.012101893 0.047327727
0.077083543 0.012125501 0.046089292
0.07731425 0.012026661 0.044186026
0.079001881 0.012154135 0.0439246
0.079220206 0.012055249 0.045349866
0.080098137 0.012057783 0.045348763
0.081868187 0.012193134 0.045204997
0.082107112 0.012099995 0.043709338
0.082617417 0.012048374 0.047572017
0.084211782 0.012154278 0.04294914
0.084654041 0.012093435 0.044913262
0.085275039 0.012059095 0.044082731
0.086624026 0.012127363 0.047273099
0.087134294 0.012078021 0.043889135
0.087751903 0.012044379 0.044429898
0.088954128 0.012090852 0.046008468
0.090247966 0.012148765 0.042701334
0.090936325 0.012124844 0.045198083
0.09205807 0.012158614 0.042625427
0.092862584 0.012150244 0.040832847
0.094199196 0.012211006 0.043254793
0.093902715 0.012060899 0.043298066
0.094910786 0.012079555 0.043975651
0.095842615 0.012088258 0.048457325
0.095749751 0.011968719 0.047088027
0.097549096 0.012085728 0.044828862
0.097579502 0.011983448 0.043885201
0.098666809 0.012011612 0.048307389
0.099526465 0.012011814 0.046706706
0.10161742 0.012159349 0.047073096
0.098181866 0.011648696 0.053400785
0.10019082 0.011787155 0.054345816
0.10085852 0.011766827 0.054472059
0.1008525 0.011668885 0.054107845
0.10301635 0.011821548 0.053673893
0.10527125 0.011982094 0.048067719
0.1186621 0.013397333 0.0085916221
0.069245592 0.014426166 0.0077241957
0.067144088 0.013796729 0.023522079
0.069847129 0.014158201 0.015602529
0.068324655 0.01366493 0.025752962
0.069618165 0.013740427 0.026100397
0.070925586 0.013816672 0.022234946
0.077690318 0.014387096 0.0099855661
0.073006466 0.013354841 0.0354577
0.071438737 0.012910614 0.042599857
0.071942754 0.01284692 0.051094294
0.072575018 0.012807355 0.048755825
0.072161779 0.012586357 0.053711325
0.074263453 0.012804044 0.050134867
0.074287131 0.012662579 0.050418198
0.077447452 0.013052942 0.040541768
0.077617913 0.012936318 0.047225982
0.077870443 0.012835788 0.046582699
0.079492025 0.012960657 0.042091697
0.080560438 0.012993619 0.044015408
0.080456011 0.012838725 0.046007872
0.081187665 0.012819105 0.048282504
0.083071098 0.012979859 0.045553356
0.084405638 0.013052419 0.042684913
0.085366026 0.013066229 0.048531532
0.085302897 0.012924681 0.049378842
0.085481621 0.012822243 0.044407874
0.087705702 0.0130256 0.04367274
0.087214448 0.012825654 0.047756314
0.087609403 0.012758651 0.046240598
0.090589911 0.013065853 0.045151055
0.090476856 0.012925265 0.044274807
0.091488369 0.012946468 0.041420192
0.092615388 0.012983465 0.046456963
0.092837945 0.012894159 0.046427906
0.094093457 0.012948641 0.04305926
0.096027374 0.013094641 0.044818014
0.095834568 0.012950617 0.043521017
0.097187556 0.013016191 0.045863569
0.097613819 0.012957587 0.047147304
0.098673657 0.012983376 0.045639634
0.099365719 0.012960747 0.044203937
0.10035319 0.012976705 0.046281397
0.098611787 0.012642536 0.048004985
0.098746113 0.012552472 0.053817183
0.10055085 0.012674477 0.054201096
0.10046492 0.012558115 0.051992804
0.10238972 0.012692941 0.052236885
0.1028656 0.01264741 0.052736908
0.067505345 0.014795691 0.018509001
0.069951437 0.015124634 0.012150139
0.068884179 0.014695291 0.02342698
0.069220431 0.014572723 0.025283903
0.070757724 0.014702904 0.023908168
0.074888922 0.014612473 0.023684025
0.073180035 0.014106994 0.04032889
0.072827652 0.013871934 0.043791026
0.071484208 0.013455851 0.04806
0.072549567 0.013497594 0.056589425
0.073728263 0.013559221 0.052440286
0.074704438 0.013582625 0.050770611
0.075365365 0.013548831 0.054574072
0.078006662 0.013867849 0.041158438
0.077949785 0.013705456 0.045081228
0.079566665 0.01383768 0.044938058
0.080017671 0.013766481 0.045791775
0.080995038 0.013786389 0.046406984
0.081743389 0.013767308 0.045883149
0.081965767 0.013660961 0.045833588
0.084598951 0.013954467 0.044694275
0.084035933 0.013720153 0.047461867
0.085242428 0.013776554 0.042631775
0.085290596 0.013646495 0.047997773
0.087685794 0.013890818 0.043337941
0.088549465 0.013890112 0.041658968
0.089236304 0.01386195 0.043120921
0.089986823 0.013844127 0.042599499
