ply
format ascii 1.0
comment PCL generated
element vertex 1296
property float x
property float y
property float z
element camera 0
property float view_px
property float view_py
property float view_pz
property float x_axisx
property float x_axisy
property float x_axisz
property float y_axisx
property float y_axisy
property float y_axisz
property float z_axisx
property float z_axisy
property float z_axisz
property float focal
property float scalex
property float scaley
property float centerx
property float centery
property int viewportx
property int viewporty
property float k1
property float k2
end_header
0.10935059 -0.11630927 0.0068129003
0.12338181 -0.11277869 0.0051916242
0.15346254 -0.11436381 0.011960983
0.1105472 -0.11449532 0.0056101382
0.11361267 -0.11460061 0.0059159696
0.14603759 -0.11293574 0.0075374246
0.14878576 -0.11354703 0.0053912997
0.15687366 -0.11590666 0.007299155
0.079380341 -0.1025701 0.036194593
0.078026287 -0.09970025 0.042385668
0.078676768 -0.099426679 0.041059256
0.076616451 -0.09577056 0.05543524
0.077728964 -0.096116461 0.057648957
0.080630705 -0.098643944 0.055767268
0.079948202 -0.096779399 0.053544492
0.081991844 -0.098219395 0.054612815
0.082741238 -0.098095283 0.04972136
0.085226685 -0.10001091 0.045861661
0.086360425 -0.10031766 0.041162044
0.097436108 -0.11205152 0.0086837411
0.10804272 -0.11093672 0.010367036
0.10950381 -0.11144192 0.0068996549
0.1159149 -0.1120186 0.007212013
0.15279122 -0.11484307 0.0057203472
0.15384035 -0.11268561 0.0065357685
0.077937916 -0.11106153 0.0087759495
0.07593628 -0.10065972 0.037464648
0.074205726 -0.097235091 0.053150862
0.073770262 -0.095566027 0.057164013
0.074168876 -0.09500283 0.059452683
0.077043951 -0.097588994 0.058368713
0.076693378 -0.09607742 0.054696202
0.076938696 -0.095337078 0.051439345
0.079071224 -0.096926011 0.055899769
0.079971753 -0.096987016 0.05573377
0.079792105 -0.095750526 0.05083406
0.080726884 -0.095863171 0.055309892
0.081535704 -0.095825464 0.053133398
0.084401906 -0.098181814 0.05273971
0.083890006 -0.096600607 0.054331392
0.084474631 -0.096301079 0.056286037
0.086423643 -0.097547479 0.056391895
0.086795323 -0.097006537 0.055700004
0.10974394 -0.11071512 0.008126229
0.10858442 -0.10858442 0.0059042871
0.1214722 -0.11167605 0.0054173172
0.16947186 -0.12150812 0.0086982548
0.073236912 -0.10092403 0.031525046
0.072601087 -0.098842435 0.042006403
0.07616657 -0.10246217 0.036465347
0.071363784 -0.094871856 0.049716741
0.073997527 -0.097229309 0.052497298
0.073058173 -0.094891652 0.055435747
0.074478418 -0.095637053 0.056051821
0.076380685 -0.096977726 0.05184719
0.076870337 -0.09651497 0.054459631
0.076266766 -0.094704874 0.056266695
0.078236066 -0.096094295 0.054359108
0.07839641 -0.095255852 0.052132457
0.079951778 -0.096112244 0.054143131
0.081135288 -0.096508287 0.060819298
0.081809089 -0.096296117 0.051479429
0.082739413 -0.096387155 0.062286615
0.08349172 -0.096271068 0.057752788
0.082551964 -0.094225973 0.053931355
0.084236115 -0.095186807 0.060679674
0.085694015 -0.095875479 0.053895205
0.08483205 -0.093980603 0.054002076
0.08849629 -0.097088158 0.058209449
0.086925194 -0.094447568 0.058677554
0.091283344 -0.09823826 0.039005101
0.10150614 -0.1062055 0.010427207
0.10718127 -0.10718127 0.012276053
0.10923135 -0.10827319 0.01122731
0.15863658 -0.11345528 0.015774876
0.073201679 -0.10121714 0.031743586
0.074298449 -0.1014808 0.033618629
0.072249927 -0.097493879 0.044312894
0.071123637 -0.094831519 0.053684831
0.072141878 -0.095057532 0.055201262
0.073717415 -0.096004076 0.053772092
0.073423795 -0.094522588 0.049401462
0.075091027 -0.0955704 0.054777086
0.074808463 -0.094140992 0.057575017
0.075988546 -0.094563521 0.051256984
0.078407228 -0.096501201 0.046321571
0.078738257 -0.095855266 0.048132658
0.07827989 -0.094272554 0.056290329
0.080351256 -0.095737673 0.050671846
0.079934865 -0.094238997 0.047897965
0.081579611 -0.095176212 0.053113133
0.082840472 -0.095650859 0.053428024
0.083616078 -0.095561229 0.052827984
0.084615923 -0.095727108 0.05359906
0.085823633 -0.096122466 0.054437548
0.085660316 -0.094989657 0.048451096
0.087135136 -0.095677793 0.056065291
0.087846212 -0.095522098 0.051383436
0.08633282 -0.092973806 0.053473294
0.089534119 -0.095503062 0.05840686
0.090726927 -0.095862411 0.058282316
0.094085164 -0.098481663 0.040758073
0.10707301 -0.10901979 0.009626627
0.10797462 -0.10797462 0.0078009069
0.15727884 -0.1114888 0.010229856
0.069097273 -0.098330736 0.036610156
0.074420244 -0.10325809 0.01765427
0.074130125 -0.10158573 0.026319534
0.070851743 -0.095909059 0.046574324
0.069454335 -0.092884712 0.053305328
0.072609387 -0.095948115 0.056666702
0.072357908 -0.094490908 0.056202561
0.072496474 -0.093571037 0.052815855
0.073769465 -0.094119668 0.05693087
0.07475815 -0.094297215 0.053983331
0.07549385 -0.094155259 0.055795193
0.077213779 -0.095230319 0.049497098
0.07791245 -0.095036067 0.047497988
0.078480713 -0.094688684 0.047886968
0.080396943 -0.095957637 0.056233257
0.080556922 -0.095125727 0.046806306
0.081599995 -0.095343158 0.048706323
0.0833278 -0.096347772 0.044627815
0.082497247 -0.094404072 0.048311561
0.083768182 -0.09488029 0.050092667
0.084017031 -0.094200917 0.053426117
0.085459121 -0.094859622 0.051203489
0.086191207 -0.09472499 0.053984106
0.085826419 -0.093399338 0.05386284
0.088399015 -0.095264956 0.052007794
0.087203339 -0.093072794 0.057358652
0.088392362 -0.093443356 0.051903188
0.089502722 -0.093724549 0.055266321
0.090002492 -0.09336707 0.057646632
0.091011629 -0.09353973 0.050653011
0.11201917 -0.10812286 0.0084934235
0.11394043 -0.1090292 0.0068584383
0.15814854 -0.11110436 0.0071605742
0.066858612 -0.09676905 0.041452944
0.070891708 -0.10127387 0.026035696
0.070822418 -0.097380832 0.042142481
0.068782195 -0.093407921 0.050317377
0.068686821 -0.092140853 0.053778112
0.070741296 -0.093753524 0.050571024
0.071337566 -0.093418241 0.050962329
0.071619168 -0.092683628 0.052297592
0.072882704 -0.093222067 0.052364796
0.073529474 -0.0929683 0.05323723
0.075355738 -0.09419468 0.052935213
0.076737359 -0.094843924 0.050264895
0.077617913 -0.094866335 0.046677619
0.078958318 -0.095444113 0.045666426
0.081607349 -0.09757401 0.046377987
0.081427775 -0.096312426 0.040777981
0.082993828 -0.097120441 0.03990826
0.083762191 -0.096987806 0.040712684
0.083812974 -0.096035697 0.043646872
0.086306937 -0.097873852 0.04018873
0.086729333 -0.097349256 0.04133442
0.085992977 -0.095547743 0.045017749
0.087305658 -0.096036218 0.038225859
0.087449282 -0.095241793 0.0469791
0.086268544 -0.093034707 0.050721079
0.088258505 -0.094256662 0.048638433
0.088608265 -0.093720287 0.055066496
0.088583335 -0.092801586 0.04988268
0.090552934 -0.093970031 0.058330029
0.090470888 -0.093007453 0.052648753
0.091662385 -0.093359835 0.0530276
0.092592895 -0.093442373 0.058068484
0.098394029 -0.098394029 0.034211159
0.10911857 -0.10622162 0.0065121651
0.11059944 -0.10487878 0.01102981
0.11658198 -0.10867812 0.0050668418
0.1659106 -0.11478093 0.0075101554
0.065626465 -0.095377132 0.038717359
0.072177216 -0.10351732 0.016248822
0.074558146 -0.10419023 0.0092274845
0.068564065 -0.094601057 0.044383198
0.068647742 -0.093532555 0.052519798
0.068861805 -0.092665896 0.055267572
0.070475183 -0.093680426 0.051848829
0.070267521 -0.092279032 0.058724105
0.070606276 -0.091620043 0.05496043
0.072025441 -0.092362039 0.05518809
0.073164999 -0.092732385 0.052396744
0.074105293 -0.092844568 0.043804139
0.076571509 -0.094844259 0.050504416
0.078028068 -0.095562465 0.04353112
0.078084238 -0.094568685 0.043371499
0.079361871 -0.09505982 0.045648187
0.080563128 -0.09544979 0.045211524
0.080836527 -0.094743885 0.048288167
0.082796022 -0.096008152 0.042296261
0.08288677 -0.095101669 0.044017434
0.084023193 -0.095401339 0.046493083
0.085575581 -0.09616226 0.051990449
0.085176967 -0.094737656 0.037191361
0.08669059 -0.095447212 0.041222483
0.08790151 -0.095812649 0.048268646
0.087755874 -0.094706833 0.041131437
0.089146413 -0.095264301 0.041542679
0.089317054 -0.094519995 0.049718142
0.088412106 -0.092662685 0.047978133
0.091151357 -0.094623797 0.051075935
0.090576857 -0.093140356 0.054534703
0.089750826 -0.091428407 0.051859885
0.093112767 -0.093974926 0.054630518
0.093547314 -0.093547314 0.05250442
0.092347763 -0.09150824 0.059000999
0.095951043 -0.094222195 0.051032335
0.10734747 -0.10174674 0.012426436
0.11239975 -0.105617 0.0056881309
0.11425368 -0.10553942 0.0084874928
0.064213656 -0.093717225 0.045618713
0.070671447 -0.10176688 0.012766957
0.068995535 -0.096772961 0.034170359
0.069712192 -0.096524574 0.036909163
0.068094216 -0.09309084 0.050609201
0.067875728 -0.09163224 0.050401628
0.069072187 -0.092096254 0.0540995
0.069855094 -0.092004269 0.056407779
0.069409527 -0.090316013 0.04963991
0.071734697 -0.092230327 0.05656305
0.072985731 -0.092734814 0.051853806
0.074349426 -0.093369044 0.04521209
0.076475799 -0.094935477 0.038530409
0.076293498 -0.093632929 0.044592351
0.076794602 -0.093188956 0.046573281
0.07976222 -0.095714658 0.046043873
0.079906769 -0.094834402 0.038109094
0.079776287 -0.093650423 0.044296294
0.081654362 -0.094824418 0.047467142
0.081145905 -0.093231462 0.047304749
0.082069822 -0.093300432 0.042666763
0.084139653 -0.094657108 0.04778263
0.083236121 -0.092675269 0.044799566
0.085003376 -0.093677193 0.04392758
0.085756123 -0.093552135 0.04507181
0.086357437 -0.093266033 0.03859216
0.088847972 -0.095005751 0.051725209
0.089630976 -0.094903395 0.043099314
0.089323133 -0.093659207 0.045680195
0.091148652 -0.094654374 0.048600435
0.090857968 -0.093453914 0.043870568
0.091223001 -0.092944197 0.055023283
0.092505738 -0.093370281 0.057453603
0.092552647 -0.092552647 0.053660244
0.091678917 -0.090837829 0.054903746
0.093447462 -0.091748416 0.052913785
0.093350381 -0.090827398 0.058886647
0.095006309 -0.091613226 0.052418083
0.11064622 -0.10213497 0.0073421001
0.11480502 -0.10419279 0.0066764653
0.15507634 -0.10805319 0.0061972737
0.064613387 -0.094707288 0.039771616
0.066737115 -0.096498258 0.030291766
0.067219071 -0.094637379 0.042177916
0.069514476 -0.096598037 0.029534966
0.068097338 -0.093415588 0.051032633
0.066841811 -0.090532586 0.055083513
0.06748645 -0.090263136 0.056701392
0.068762697 -0.090834677 0.057115108
0.069442362 -0.09061382 0.055239946
0.070937403 -0.091449425 0.055514723
0.072912596 -0.092876762 0.048261106
0.074049786 -0.093215615 0.042075783
0.075708486 -0.094195448 0.043855071
0.076205745 -0.093724318 0.044571757
0.076998398 -0.093623057 0.043259323
0.077578679 -0.093268752 0.040934443
0.07868062 -0.093542516 0.042894095
0.078577645 -0.092393503 0.042412221
0.080294766 -0.093386307 0.048876911
0.080794446 -0.092957057 0.046116114
0.082220204 -0.093591087 0.044001251
0.082184143 -0.092565298 0.045149416
0.084118091 -0.093756624 0.033694953
0.083674997 -0.092301294 0.045973241
0.085587487 -0.093447573 0.047713965
0.085443981 -0.092348546 0.041569442
0.086385675 -0.09243267 0.047226667
0.089131735 -0.094426692 0.042919993
0.087782107 -0.092085153 0.03690204
0.090541631 -0.094057813 0.04042533
0.090340868 -0.092946857 0.044515699
0.09237431 -0.094133824 0.039785415
0.09290985 -0.093786359 0.038963497
0.091882735 -0.091882735 0.045100182
0.092446916 -0.091590926 0.058753103
0.093378052 -0.091664702 0.053249836
0.093727618 -0.091171414 0.049278498
0.093272343 -0.089911178 0.059080422
0.095221013 -0.090970077 0.055246264
0.092583492 -0.087667562 0.058122039
0.11778702 -0.10415877 0.0056539774
0.16200556 -0.10902261 0.007104665
0.06252189 -0.092046112 0.042506278
0.065559126 -0.095195435 0.036080688
0.069665089 -0.097164467 0.025090039
0.067677803 -0.093166843 0.04682076
0.066136815 -0.089878231 0.053472817
0.066886477 -0.089746416 0.048423827
0.068415776 -0.090650909 0.051457644
0.068288483 -0.089365177 0.051712006
0.069858454 -0.090304822 0.055504203
0.071392313 -0.09117572 0.050601065
0.073290937 -0.092486173 0.04186666
0.073627748 -0.091818124 0.046511859
0.075093538 -0.092557155 0.04305023
0.075393014 -0.091858156 0.041275918
0.077226833 -0.093023233 0.04213202
0.076486252 -0.091095984 0.044370055
0.077452175 -0.091221452 0.044762582
0.079284288 -0.09235312 0.044947267
0.080342345 -0.092568345 0.045983016
0.080815524 -0.092112318 0.049271762
0.082355261 -0.092868693 0.042785764
0.082805716 -0.092393748 0.049197376
0.084371656 -0.093160369 0.04375124
0.084742971 -0.092605717 0.04276377
0.084249556 -0.091127068 0.044553161
0.086288735 -0.092389956 0.046730101
0.087645285 -0.092904001 0.045604438
0.087148324 -0.09146259 0.046884656
0.088277198 -0.091739044 0.043333203
0.089333937 -0.091935895 0.045779675
0.090750404 -0.092495605 0.049252033
0.092542246 -0.093423598 0.03967154
0.092588812 -0.092588812 0.03999117
0.094293147 -0.0934119 0.038643956
0.094773524 -0.09301845 0.044392765
0.093295671 -0.090727895 0.053577155
0.097760908 -0.094205968 0.036684126
0.095746651 -0.091433741 0.047842801
0.094129197 -0.089086562 0.053025275
0.096549951 -0.090568982 0.05592677
0.098141141 -0.091254041 0.055164933
0.11402445 -0.10242874 0.0082982183
0.11640695 -0.10369022 0.0059137642
0.11755414 -0.10383948 0.0054571033
0.15503082 -0.10534145 0.0054269731
0.16465653 -0.10977102 0.013116598
0.06305676 -0.093252957 0.041107446
0.064061165 -0.093422532 0.037070066
0.069520153 -0.099994734 0.011313885
0.07175231 -0.10045323 0.006824404
0.069239348 -0.095659629 0.033481091
0.066347517 -0.09047389 0.052020609
0.066415787 -0.089405872 0.055776507
0.067443416 -0.089639984 0.048753887
0.067655057 -0.088797264 0.053271711
0.069215097 -0.089723274 0.054196745
0.069662713 -0.089202255 0.052875996
0.072264932 -0.091419488 0.038950533
0.073713027 -0.092141278 0.044873804
0.073794074 -0.091157384 0.045799941
0.074249044 -0.090652905 0.046817362
0.075859316 -0.091554344 0.050072879
0.075713962 -0.090340525 0.046033382
0.076628834 -0.090404801 0.043127716
0.078835927 -0.091975242 0.050874531
0.079498664 -0.091729216 0.043775618
0.080548443 -0.091930285 0.037627846
0.081382036 -0.091882937 0.043477595
0.082068384 -0.091672122 0.043109953
0.083056264 -0.091799028 0.039753407
0.083373144 -0.091189377 0.046258658
0.083762117 -0.090670332 0.043776393
0.086711459 -0.092905134 0.040493131
0.086009726 -0.091222428 0.049877554
0.087398261 -0.091768175 0.043727785
0.08905077 -0.092577532 0.047324479
0.089706905 -0.092345342 0.045832127
0.088654876 -0.090376325 0.0459207
0.090719759 -0.091592066 0.048845887
0.091755554 -0.091755554 0.047057182
0.092400163 -0.09152846 0.039031684
0.094555378 -0.092787981 0.045814902
0.09399008 -0.09137924 0.047842205
0.095133528 -0.091642387 0.044186741
0.093335867 -0.088290684 0.054477841
0.09674634 -0.090699695 0.050846964
0.097248234 -0.090363406 0.052090228
0.095552854 -0.088009208 0.05528757
0.1011405 -0.09234567 0.0497756
0.11815432 -0.10253061 0.0083321631
0.065081589 -0.096692644 0.028836459
0.062838189 -0.092044674 0.035734475
0.064861029 -0.09368816 0.033673495
0.069612987 -0.096530013 0.022041559
0.06696891 -0.091641657 0.04687345
0.064742811 -0.087444842 0.054952085
0.066929944 -0.089239933 0.055020809
0.066755123 -0.087880164 0.055228263
0.067898884 -0.088268548 0.05425328
0.068449028 -0.087885179 0.054483473
0.070069186 -0.088868231 0.046516597
0.071327761 -0.089374542 0.048161328
0.073493995 -0.090992562 0.043789804
0.073439397 -0.089855261 0.04480949
0.074719884 -0.090358928 0.048855394
0.075868577 -0.090693474 0.038483292
0.076489687 -0.090396903 0.044882834
0.078065068 -0.091222107 0.045345247
0.078674369 -0.090912603 0.042093426
0.079754815 -0.091148354 0.038037837
0.080362201 -0.090844221 0.048340976
0.081488311 -0.09112671 0.037906677
0.081494056 -0.090163633 0.045828044
0.08289142 -0.090744287 0.047759444
0.083763666 -0.090743966 0.048515856
0.084808223 -0.090928406 0.040515482
0.086379014 -0.091667533 0.045914143
0.085650392 -0.089976162 0.044167399
0.088217355 -0.091746047 0.046230942
0.088407367 -0.091033325 0.044967026
0.08783593 -0.089558206 0.037103951
0.089861929 -0.090734378 0.045305848
0.091337368 -0.091337368 0.043242574
0.091357842 -0.090487763 0.042256862
0.092731908 -0.090982251 0.04765147
0.092934631 -0.090328984 0.050068766
0.093507417 -0.090044178 0.04914856
0.096749105 -0.092311069 0.038733959
0.098538034 -0.09316323 0.03544879
0.093015857 -0.087149993 0.058475733
0.095819034 -0.088974819 0.04868871
0.095406003 -0.087807298 0.054260224
0.096644819 -0.088167205 0.054818362
0.098327644 -0.088922389 0.053306043
0.099397294 -0.089114815 0.048999935
0.11601266 -0.10138921 0.009096235
0.15829097 -0.10353623 0.010024279
0.062124573 -0.091411874 0.040613741
0.064734571 -0.093910716 0.0308671
0.069175564 -0.098959491 0.013868272
0.06773223 -0.093018927 0.033534974
0.065180935 -0.088337317 0.051128745
0.065330543 -0.087390207 0.054775327
0.065629482 -0.08666458 0.057466835
0.066977456 -0.087325037 0.051618278
0.068281762 -0.087912776 0.053821206
0.069779746 -0.088732272 0.048233986
0.072565489 -0.09114933 0.045501202
0.071287654 -0.0884654 0.04575789
0.072832003 -0.089305907 0.042634875
0.073624693 -0.0892158 0.04696399
0.074619144 -0.089369439 0.051612407
0.075319447 -0.089171298 0.041648924
0.076264694 -0.089264363 0.046595275
0.076877318 -0.088970385 0.046756864
0.078003339 -0.089270487 0.048187375
0.079533324 -0.09002123 0.049085677
0.07964506 -0.089167833 0.046570659
0.080624573 -0.089293882 0.042813689
0.082986116 -0.090931602 0.042860448
0.083387457 -0.090409562 0.04513979
0.084938265 -0.09113168 0.043482333
0.085643187 -0.090940706 0.043941915
0.085645959 -0.090015657 0.041160315
0.087962098 -0.091516115 0.045479
0.087693982 -0.090324797 0.0486449
0.088469535 -0.090221405 0.042491883
0.090301111 -0.091186412 0.047856778
0.090296835 -0.090296835 0.044529527
0.091550253 -0.09066996 0.04397729
0.092161022 -0.090405576 0.045714676
0.09279681 -0.090170488 0.045710981
0.09283454 -0.089364082 0.039990872
0.095090628 -0.090688281 0.045223147
0.094538666 -0.089334704 0.049261391
0.095970191 -0.089862995 0.037340432
0.097385466 -0.090366691 0.050456703
0.094947621 -0.087317899 0.049126565
0.097815439 -0.089159206 0.051670849
0.095719442 -0.086483359 0.051934868
0.097009197 -0.086886503 0.054951608
0.096808739 -0.085959479 0.056349725
0.11154077 -0.098194011 0.013203591
0.11225497 -0.097985268 0.01133284
0.11644668 -0.099950068 0.0059653223
0.16164282 -0.10471202 0.0076268911
0.061349452 -0.090690494 0.034849286
0.063062064 -0.091890432 0.035091728
0.063800812 -0.091657504 0.032888174
0.070072465 -0.096586369 0.018238276
0.064942025 -0.088321149 0.048250526
0.065329254 -0.08767873 0.051158488
0.065610014 -0.086911969 0.055085987
0.066518947 -0.086986311 0.051624745
0.066984214 -0.086485952 0.055988997
0.067792334 -0.086435229 0.048701525
0.071811393 -0.090429164 0.039495438
0.070773162 -0.088034905 0.052504987
0.070242286 -0.086321846 0.042702734
0.072961599 -0.088596225 0.049607277
0.073111318 -0.087733582 0.052291989
0.073363796 -0.08701288 0.045048088
0.075538859 -0.088562801 0.043176055
0.076130576 -0.088242263 0.048471272
0.076242961 -0.087379575 0.048008204
0.079185955 -0.089744084 0.047245234
0.079741701 -0.089380808 0.038935632
0.079902917 -0.088588014 0.049227089
0.081774987 -0.089688696 0.048025787
0.08211837 -0.089107171 0.04673332
0.083117813 -0.089242287 0.041526526
0.084014364 -0.089265265 0.043138802
0.083828516 -0.088149577 0.045554459
0.086697526 -0.090236202 0.047599286
0.086544581 -0.089167148 0.044746459
0.086451754 -0.088180788 0.040127844
0.089226916 -0.090110354 0.045064181
0.088661432 -0.088661432 0.045199513
0.089964136 -0.089090697 0.038959622
0.091554351 -0.08979369 0.040060341
0.091497593 -0.088883378 0.044686884
0.093000807 -0.089491345 0.045691013
0.093566157 -0.089193903 0.049645007
0.093477339 -0.08828415 0.047992349
0.093900628 -0.087870315 0.047461033
0.097047739 -0.089989722 0.047226995
0.096540734 -0.088713102 0.046696305
0.097868398 -0.089130148 0.039756626
0.096324638 -0.086947903 0.053249836
0.097019516 -0.086806938 0.056839079
0.097482242 -0.086462513 0.053320289
0.098974153 -0.087028995 0.054606438
0.097030632 -0.084590808 0.056891173
0.15730907 -0.10091525 0.0058223903
0.066219166 -0.098354936 0.0059032738
0.061795417 -0.090454161 0.037645042
0.06387382 -0.092160806 0.03166154
0.06335789 -0.090128839 0.030553401
0.067171827 -0.091680467 0.025185257
0.064726479 -0.087164991 0.050744653
0.063665695 -0.084608361 0.054606736
0.065249547 -0.085587077 0.048492432
0.066520989 -0.086136155 0.057765633
0.067651175 -0.086490743 0.053048313
0.069581732 -0.087846942 0.051190346
0.07054159 -0.087959267 0.043579042
0.070585519 -0.086940698 0.043442965
0.071648739 -0.087187022 0.053924859
0.072609201 -0.087303922 0.049450308
0.072277047 -0.085882135 0.04377529
0.074859098 -0.08791592 0.048916787
0.075612172 -0.087779649 0.047296375
0.076041706 -0.08727514 0.042901963
0.078333452 -0.088895269 0.040846407
0.078206897 -0.087765522 0.040317595
0.078436844 -0.087056279 0.042883575
0.081307307 -0.089261286 0.040299565
0.08109194 -0.088067591 0.04228574
0.08201319 -0.088120557 0.044892162
0.083192237 -0.08844649 0.044914573
0.083685994 -0.088044643 0.039339811
0.086259574 -0.089816675 0.040400594
0.085985467 -0.088617682 0.043415755
0.085438028 -0.087164044 0.040540576
0.087816186 -0.088694349 0.04847014
0.0892075 -0.0892075 0.046031296
0.089489833 -0.088612482 0.044513196
0.090014622 -0.088266768 0.043134302
0.0905504 -0.087938376 0.043728769
0.090676531 -0.087222189 0.045926541
0.093228839 -0.088831261 0.047136605
0.093422472 -0.088183828 0.040424913
0.093523316 -0.087461621 0.038959712
0.09445139 -0.087519176 0.047396034
0.095568545 -0.087749302 0.042706192
0.096835203 -0.088111311 0.037770599
0.09752655 -0.087948047 0.04406926
0.095914148 -0.085728578 0.048945844
0.097034276 -0.085968964 0.057144076
0.097542718 -0.085667953 0.055035502
0.099048637 -0.086240619 0.054477245
0.098248735 -0.084813014 0.05780983
0.10299589 -0.088157497 0.0385153
0.061538208 -0.090497367 0.029953718
0.061955743 -0.089790933 0.033979386
0.063016459 -0.090023518 0.030933201
0.065153368 -0.091765314 0.018328577
0.064284533 -0.088061005 0.03639403
0.065400667 -0.088379279 0.033793598
0.064017087 -0.085356109 0.052892178
0.064957738 -0.085470706 0.047773331
0.06561815 -0.085218377 0.0526371
0.066477343 -0.085227363 0.048475474
0.067634664 -0.085613504 0.051265866
0.071219511 -0.089024395 0.040720105
0.069862373 -0.086249843 0.042048186
0.071662791 -0.087393649 0.047320068
0.071573913 -0.086233631 0.040339023
0.072815947 -0.08668565 0.044377506
0.073401436 -0.086354636 0.048805833
0.075180389 -0.087419055 0.040999383
0.075196721 -0.086433008 0.045123696
0.076914512 -0.087402858 0.047762632
0.077096261 -0.086625017 0.046674907
0.077959739 -0.086621925 0.046235353
0.079390444 -0.087242246 0.046327412
0.079892382 -0.086839549 0.042077422
0.081303909 -0.087423563 0.04173246
0.082530938 -0.087798871 0.048562467
0.082636543 -0.086985834 0.0435794
0.084457457 -0.087976523 0.042887807
0.083386637 -0.085965611 0.0405384
0.084065184 -0.085780807 0.042542189
0.086949259 -0.087827533 0.0479258
0.087192588 -0.087192588 0.042955279
0.088682748 -0.087804697 0.039460957
0.089199945 -0.087450929 0.044583946
0.090224303 -0.087596416 0.046670675
0.090302452 -0.086829282 0.04930535
0.092839584 -0.088418655 0.042489558
0.092922218 -0.087662473 0.04558152
0.093455821 -0.087341882 0.045806676
0.095045939 -0.088005498 0.046054244
0.094322778 -0.086534664 0.047307819
0.095589831 -0.086899847 0.047233641
0.097262651 -0.087624013 0.040967375
0.096506082 -0.086166151 0.044778556
0.098874375 -0.087499447 0.047649175
0.097887032 -0.085865818 0.053275585
0.096947491 -0.084302172 0.053059936
0.0990104 -0.085353792 0.052889884
0.099014908 -0.084628128 0.054950535
0.098710217 -0.083652727 0.054983616
0.11730675 -0.097755633 0.0076109767
0.060906146 -0.088672183 0.032517046
0.061946742 -0.088880107 0.030823022
0.064012267 -0.09053164 0.03368178
0.068021096 -0.093529023 0.016395718
0.065171964 -0.088383891 0.036134988
0.064178951 -0.085861027 0.037681133
0.064271763 -0.084838726 0.045771152
0.065901414 -0.085845262 0.047753781
0.064759277 -0.083261929 0.05790332
0.066900514 -0.084912196 0.048665762
0.067581035 -0.084690161 0.052783012
0.069851257 -0.086440936 0.0414868
0.070649773 -0.086349726 0.045997977
0.070846334 -0.085533984 0.04625538
0.071450472 -0.085224055 0.046071321
0.073641255 -0.086791478 0.043706506
0.073886149 -0.086055629 0.04639858
0.074295759 -0.085526519 0.045171022
0.076100461 -0.086597085 0.046793699
0.07676404 -0.086359553 0.047766238
0.07688196 -0.085520387 0.045682788
0.079882108 -0.087870322 0.041426897
0.079629384 -0.086629771 0.04179889
0.079533048 -0.085584477 0.041430831
0.082278177 -0.087586448 0.046513319
0.08191511 -0.086272299 0.045657963
0.082622238 -0.08610107 0.047917843
0.084283024 -0.086916879 0.037539065
0.084533885 -0.086276852 0.043649077
0.086126417 -0.087005258 0.045007348
0.086347885 -0.086347885 0.04056266
0.087850548 -0.086972043 0.039895952
0.088911742 -0.08715111 0.04569152
0.089190587 -0.086567335 0.045734704
0.08857657 -0.085136704 0.04352662
0.091432497 -0.087036707 0.043708265
0.09144526 -0.086219825 0.04602316
0.092371725 -0.086271711 0.044643492
0.094475657 -0.087412059 0.041706979
0.09431272 -0.086453326 0.04651463
0.093744472 -0.085144058 0.043328226
0.096774414 -0.087096974 0.04474324
0.096719451 -0.086263299 0.045790523
0.097742207 -0.086397134 0.040896118
0.099579722 -0.087242417 0.05023241
0.099097885 -0.086058699 0.046709955
0.098206535 -0.08454302 0.048892766
0.098766737 -0.0842923 0.0551292
0.099201828 -0.083940014 0.053568214
0.10108016 -0.084804542 0.05474025
0.1069802 -0.089000344 0.035302371
0.064297505 -0.094047084 0.015245199
0.060519382 -0.087219104 0.030338347
0.061965607 -0.088009119 0.033083379
0.067224041 -0.094113648 0.014853567
0.066047281 -0.088666201 0.029087484
0.064862072 -0.085898407 0.0443241
0.06389273 -0.083486497 0.048803389
0.065053158 -0.083884329 0.050389796
0.065526269 -0.083397068 0.05111298
0.066947088 -0.084113009 0.052114546
0.067692399 -0.083972849 0.04967171
0.07108099 -0.087074213 0.041975141
0.070166782 -0.084893145 0.046976715
0.070904948 -0.084740058 0.044701338
0.07236734 -0.085445769 0.045168132
0.072775654 -0.084904924 0.04575026
0.073473714 -0.084710866 0.039023459
0.074910454 -0.085363075 0.047074497
0.076077223 -0.085696176 0.042879432
0.076098233 -0.084745757 0.048418254
0.078650527 -0.086603947 0.04235065
0.077843472 -0.084762886 0.048068881
0.07904198 -0.085122123 0.041891426
0.081385002 -0.086692713 0.042979628
0.081485495 -0.085866436 0.04207924
0.081933178 -0.085419692 0.043350518
0.083451748 -0.086087063 0.048405945
0.084024899 -0.08577542 0.041897118
0.085771427 -0.086655669 0.040560156
0.085902721 -0.085902721 0.04579258
0.086589105 -0.085714459 0.041874796
0.087023921 -0.085283436 0.042634308
0.087229222 -0.084638245 0.045072287
0.088342234 -0.084877826 0.03863132
0.089287765 -0.084953405 0.048399568
0.090114847 -0.084915914 0.045615554
0.091856651 -0.085732877 0.049583405
0.093340039 -0.086295508 0.042350709
0.093502775 -0.085638046 0.046728045
0.094951712 -0.086159885 0.045371234
0.096428841 -0.086697489 0.048138022
0.096159697 -0.085669547 0.04057911
0.095959343 -0.084720857 0.047302097
0.098351903 -0.086057916 0.045032889
0.097658634 -0.084695101 0.038905412
0.099053733 -0.085151456 0.044041067
0.098731741 -0.084136613 0.045610666
0.097775064 -0.082603067 0.053517073
0.098815203 -0.082768284 0.053232402
0.10061038 -0.08355777 0.05445084
0.099671043 -0.082082033 0.050933689
0.11626834 -0.093395881 0.0061554909
0.059842695 -0.086637922 0.028846413
0.060958799 -0.086955927 0.034260839
0.063145526 -0.088769794 0.029314816
0.066671915 -0.088591442 0.025019407
0.064539999 -0.084599726 0.045701891
0.064212523 -0.083048195 0.046988308
0.064079598 -0.081785806 0.057993323
0.065840766 -0.082942255 0.053937286
0.066225879 -0.082357816 0.055683404
0.068309255 -0.083873384 0.043670148
0.069603331 -0.084394038 0.044255406
0.071270011 -0.08534804 0.039211571
0.071773387 -0.084902659 0.045376986
0.072204851 -0.084383979 0.043798983
0.072411053 -0.083617523 0.039342344
0.07380037 -0.08421924 0.044848323
0.075121358 -0.084729902 0.04331845
0.075281814 -0.083934896 0.041534781
0.077307872 -0.085214362 0.04304409
0.078044243 -0.085059457 0.038389057
0.078975134 -0.085117631 0.04568702
0.080343753 -0.085641146 0.040942311
0.080908194 -0.085305378 0.041846573
0.080734536 -0.084206991 0.042865217
0.082450427 -0.085081816 0.047903448
0.082416736 -0.084151819 0.040418059
0.084397614 -0.08527676 0.043720484
0.083932735 -0.083932735 0.049303174
0.084723584 -0.083859056 0.044549316
0.086693235 -0.084941857 0.043072939
0.088130735 -0.085486807 0.045214146
0.087729938 -0.084255487 0.046178699
0.089892037 -0.085485563 0.04484123
0.090289392 -0.085029818 0.043505043
0.091424331 -0.08527077 0.044491172
0.091291323 -0.084335789 0.046578437
0.093274832 -0.085355274 0.04886961
0.092767678 -0.084097795 0.038723946
0.094718084 -0.085070863 0.04310295
0.093695916 -0.083380766 0.038884044
0.096538804 -0.085129671 0.0415169
0.096169583 -0.084040083 0.047785193
0.095663667 -0.082851566 0.048716515
0.099202506 -0.085156128 0.046926409
0.098527245 -0.083834589 0.047376901
0.10011677 -0.084446326 0.037941664
0.098985024 -0.082771949 0.053134948
0.10015493 -0.083034426 0.056361526
0.098613761 -0.081063852 0.055550724
0.10168851 -0.082888953 0.054512918
0.060750287 -0.087045185 0.034854978
0.060559042 -0.085495114 0.030910343
0.068839625 -0.090528816 0.021226853
0.063815624 -0.082787834 0.046870917
0.06487792 -0.083043732 0.042231202
0.064921409 -0.082005985 0.056975812
0.065661632 -0.08186385 0.049794167
0.066525862 -0.081877984 0.051286727
0.069984406 -0.085044339 0.041178733
0.069008335 -0.082810007 0.049191922
0.070263028 -0.083274707 0.044794649
0.071650632 -0.083883666 0.043471336
0.071819887 -0.083068781 0.048612088
0.074134223 -0.084724821 0.042942405
0.074028268 -0.083608396 0.045871586
0.074363805 -0.083010755 0.043249279
0.076630004 -0.08455725 0.03770569
0.076482639 -0.08343561 0.046963871
0.077741191 -0.083855666 0.043115586
0.07885129 -0.08410804 0.047264218
0.078975543 -0.083314858 0.041196108
0.079605319 -0.083066419 0.045341015
0.082074523 -0.084722087 0.045271158
0.082674406 -0.084433429 0.036900759
0.082455851 -0.083323807 0.040231943
0.084565192 -0.084565192 0.0409033
0.08391089 -0.083045833 0.037903398
0.085566275 -0.08382003 0.048287779
0.085946694 -0.083342247 0.043718696
0.086196251 -0.082748398 0.047589123
0.088986792 -0.084581502 0.044130594
0.088026695 -0.082848653 0.047811836
0.089324802 -0.083254188 0.038144827
0.09124016 -0.084221691 0.043296397
0.091690056 -0.083830908 0.043638915
0.092484817 -0.083759829 0.045657426
0.093762763 -0.084123597 0.044781238
0.093449354 -0.083066083 0.045396954
0.093608387 -0.082444079 0.042297721
0.095588341 -0.083422557 0.049489349
0.095991939 -0.083020054 0.049047083
0.097406 -0.083490856 0.048490614
0.097523645 -0.082851946 0.048140466
0.098690145 -0.083107494 0.045527816
0.10005809 -0.08352676 0.038943887
0.10001701 -0.082772695 0.053939104
0.098492913 -0.080814697 0.043069065
0.10025959 -0.081567116 0.050929308
0.098481871 -0.07944756 0.058801919
0.1032542 -0.082603358 0.051068157
0.12007569 -0.093717612 0.0068168342
0.060450252 -0.085713044 0.035061508
0.060934622 -0.085129246 0.033526093
0.066706918 -0.086810365 0.022990853
0.064010404 -0.082175516 0.045845568
0.064077348 -0.081164636 0.051662236
0.064659812 -0.080824763 0.050239861
0.066056661 -0.081498474 0.056515515
0.066584863 -0.081096955 0.053226501
0.069732569 -0.083855622 0.040245712
0.069250874 -0.082235418 0.046633124
0.070551112 -0.082745142 0.045773536
0.070210628 -0.08134158 0.048032939
0.071994014 -0.082402788 0.046242625
0.07293915 -0.082490705 0.041872978
0.074043676 -0.082754701 0.047035128
0.07475362 -0.082576677 0.04466632
0.07533332 -0.082260527 0.049659103
0.076957874 -0.083079524 0.04617703
0.078185648 -0.083456598 0.042930126
0.079608344 -0.084031031 0.0403817
0.079049699 -0.082524404 0.046639949
0.080526963 -0.083152838 0.047472745
0.080832496 -0.082570828 0.045503825
0.082832947 -0.083714142 0.038470507
0.08313705 -0.08313705 0.047952801
0.083734214 -0.082861982 0.040832788
0.083619744 -0.081895627 0.041480482
0.087031528 -0.084367298 0.042773575
0.085935481 -0.082463339 0.041619539
0.087055013 -0.082702257 0.046484709
0.088510491 -0.083252437 0.040559083
0.088784181 -0.082691148 0.043415159
0.090794832 -0.083742805 0.04350546
0.090457186 -0.082629159 0.035681546
0.091273949 -0.082581192 0.03963846
0.093666419 -0.083946325 0.045934379
0.093437627 -0.082958639 0.04145205
0.094075039 -0.082751192 0.043952078
0.095326684 -0.083082892 0.044017434
0.095871985 -0.082798533 0.04153797
0.096608296 -0.082682781 0.042429
0.097341828 -0.082566731 0.050508082
0.097380936 -0.081868932 0.043154687
0.099993214 -0.083327681 0.046557873
0.10065584 -0.083150476 0.042803586
0.099546112 -0.081524827 0.046521991
0.10005984 -0.081245162 0.055576265
0.099477544 -0.080087855 0.057661802
0.099726714 -0.079613768 0.052495748
0.10329428 -0.081774637 0.054101646
0.063970409 -0.091109365 0.0075486302
0.059768826 -0.083854765 0.03465879
0.06107533 -0.084427662 0.034270525
0.066493116 -0.090584829 0.0087339878
0.066610843 -0.085772857 0.02655673
0.064291507 -0.081667587 0.050684124
0.063525185 -0.079618238 0.055147141
0.064455256 -0.079720967 0.052601755
0.066047445 -0.080629349 0.049264878
0.066347905 -0.079957731 0.052578747
0.069622844 -0.082842372 0.043508381
0.069996707 -0.082246132 0.048685879
0.070381552 -0.081677362 0.038716495
0.071646981 -0.082131907 0.047336996
0.072250038 -0.081825346 0.044917613
0.072782926 -0.081447557 0.046198934
0.074705966 -0.082616009 0.045409501
0.07524839 -0.082248241 0.040646523
0.074747197 -0.080761343 0.042786866
0.077591546 -0.082881883 0.046108872
0.076471955 -0.080768138 0.04694438
0.079144657 -0.082662195 0.044694036
0.079492673 -0.082113311 0.048148483
0.079903737 -0.081640773 0.047266334
0.081209347 -0.082082562 0.033995479
0.08295314 -0.08295314 0.041985959
0.082824089 -0.081952259 0.039372712
0.083595537 -0.081853963 0.038912296
0.084762402 -0.082140885 0.039907962
0.085640363 -0.082144842 0.04471314
0.087077834 -0.082679957 0.037763625
0.08777003 -0.082503833 0.043302506
0.087299667 -0.081249192 0.043554842
0.088836864 -0.081869267 0.042401016
0.090196222 -0.082315005 0.045186549
0.090570584 -0.081861876 0.03484863
0.092529617 -0.082836039 0.045387328
0.092040107 -0.08162047 0.040969521
0.092097513 -0.08090809 0.042921335
0.094149083 -0.08194457 0.048062533
0.09469486 -0.081663452 0.043397814
0.094647959 -0.080880985 0.045665145
0.096302465 -0.081553444 0.047173083
0.096565105 -0.08104571 0.042768687
0.097987793 -0.081511974 0.044894159
0.10014297 -0.082574032 0.049739391
0.099367045 -0.081221759 0.042551428
0.10140675 -0.082174435 0.049745172
0.099336818 -0.079809062 0.049576342
0.10003389 -0.079688013 0.050799638
0.10193579 -0.080520704 0.050789535
0.10277319 -0.080505662 0.054197907
0.061110649 -0.087435238 0.012436152
0.062162772 -0.087592997 0.012548745
0.060845751 -0.084457532 0.034630626
0.061215855 -0.08372169 0.03133589
0.063813165 -0.086009048 0.019984245
0.066497229 -0.084715649 0.030383527
0.06391944 -0.080331191 0.049191654
0.063892283 -0.079226427 0.048633099
0.065279827 -0.079881899 0.0492194
0.065723233 -0.079380006 0.053797722
0.066201352 -0.078932382 0.054450691
0.069927283 -0.082319468 0.040568858
0.069325216 -0.080590568 0.043068826
0.070258632 -0.080667324 0.047710538
0.071565777 -0.081166059 0.040909052
0.071341477 -0.07993684 0.045220971
0.073701426 -0.081598006 0.042336673
0.074523211 -0.081537157 0.043665618
0.074803412 -0.080892064 0.044225693
0.076454952 -0.081727713 0.041159451
0.077096075 -0.081476532 0.044739544
0.077648938 -0.081138782 0.044693917
0.079917498 -0.082581416 0.04063344
0.079349987 -0.081093945 0.044091761
0.080649711 -0.081526339 0.039478958
0.081710048 -0.081710048 0.042076528
0.082120657 -0.081247032 0.045180678
0.082356445 -0.080622628 0.043976218
0.083978131 -0.081353813 0.042518377
0.084167741 -0.080696903 0.042449057
0.086138181 -0.081743382 0.041986793
0.086180307 -0.080957256 0.042564064
0.08715234 -0.081051677 0.045010149
0.087578297 -0.080641396 0.046761185
0.08830706 -0.080515258 0.0411551
0.089786373 -0.081069253 0.046592712
0.089881271 -0.080374599 0.051448107
0.090668544 -0.080306433 0.042810142
0.093386322 -0.081933282 0.048443645
0.093565866 -0.081323601 0.04439193
0.093819484 -0.080789 0.044457376
0.094825223 -0.080905929 0.044430584
0.096590094 -0.081662536 0.045551091
0.095143035 -0.07971444 0.039766908
0.098090939 -0.081450514 0.044120103
0.099041246 -0.081511825 0.05020839
0.097663216 -0.079672627 0.04053992
0.10035205 -0.081154272 0.039187551
0.1012798 -0.081198461 0.042980671
0.099728562 -0.079271421 0.048939198
0.10127731 -0.07982026 0.050163478
0.1010647 -0.078983337 0.051659793
0.10157379 -0.078719683 0.055274516
0.10748155 -0.082609795 0.041291863
0.060357478 -0.08542905 0.018899053
0.062288966 -0.086827047 0.016944051
0.059597295 -0.081835091 0.032444
0.061053216 -0.082601413 0.028351009
0.06376636 -0.085021816 0.019690186
0.066579595 -0.083908528 0.029065758
0.063659146 -0.0791438 0.044422358
0.06463208 -0.079282023 0.051838964
0.064288661 -0.077823117 0.056374073
0.06583903 -0.078664817 0.057540774
0.066204548 -0.078087412 0.051070213
0.069623165 -0.081080146 0.042761087
0.069996469 -0.080495939 0.04213506
0.071608551 -0.081333175 0.042115659
0.07164178 -0.080378577 0.039438874
0.071398444 -0.07914044 0.047551304
0.073427282 -0.08042036 0.048250616
0.07287582 -0.07887736 0.038311899
0.074707694 -0.079919867 0.044202417
0.075427979 -0.079762921 0.045134068
0.076686569 -0.080172323 0.042810768
0.077152118 -0.079752751 0.046041459
0.078240648 -0.079979323 0.040143937
0.079803303 -0.080680259 0.042815298
0.080793232 -0.080793232 0.04782626
0.080949634 -0.080079205 0.04685083
0.083198018 -0.08142785 0.034638792
0.083125338 -0.080500335 0.046870619
0.083105296 -0.079642579 0.047586083
0.085664392 -0.081248701 0.043118834
0.087395087 -0.08204437 0.042355388
0.085086927 -0.07907068 0.044018805
0.088271379 -0.081209667 0.047689289
0.088142313 -0.080288053 0.040091842
0.087864488 -0.079250321 0.046505064
0.08995147 -0.080345005 0.043066323
0.091137767 -0.080621876 0.046589851
0.09022563 -0.07905484 0.044536263
0.092519552 -0.080299996 0.039308816
0.092715658 -0.079718135 0.044736743
0.093911096 -0.079998337 0.043261856
0.095186859 -0.080341205 0.045762867
0.096267045 -0.08051426 0.041740209
0.096745335 -0.080185324 0.042793125
0.097954847 -0.080462918 0.042376906
0.097848773 -0.079664491 0.041388065
0.098528907 -0.079514563 0.053729594
0.09888307 -0.079106465 0.044517547
0.10058172 -0.079771705 0.044740945
0.10058822 -0.079095013 0.051067114
0.099940412 -0.077919647 0.059075385
0.10046387 -0.077669546 0.047576606
0.10252861 -0.078605272 0.053043872
0.10268045 -0.078071088 0.044322312
0.060656674 -0.084919348 0.020224482
0.060973715 -0.084069826 0.020686418
0.060033802 -0.081538446 0.030254841
0.060782384 -0.081341133 0.031721175
0.063978076 -0.084376886 0.023148209
0.067475185 -0.085281149 0.018622458
0.065948062 -0.082209222 0.0299474
0.064199261 -0.078947738 0.045569152
0.064205498 -0.077902667 0.045970708
0.065850861 -0.078847744 0.046535403
0.065792605 -0.0777549 0.050885975
0.066890791 -0.078039259 0.051634341
0.067883924 -0.078195408 0.042923629
0.069874384 -0.079482123 0.047175825
0.069548219 -0.078134425 0.040784448
0.071669668 -0.079535849 0.049720824
0.071914576 -0.078846104 0.046853513
0.072418526 -0.078453407 0.042171359
0.074210361 -0.079448737 0.043967515
0.075547315 -0.079939604 0.043596983
0.075548179 -0.079021662 0.04015556
0.076818503 -0.079437323 0.045228124
0.077817895 -0.079566613 0.045856148
0.078364849 -0.079235569 0.042162567
0.079506591 -0.079506591 0.045646876
0.080546826 -0.079671316 0.044184446
0.081239544 -0.079492457 0.044787586
0.082467407 -0.079835474 0.04613167
0.083113201 -0.079613701 0.039109886
0.084237427 -0.079850063 0.041265607
0.085792676 -0.080485918 0.041312635
0.085870206 -0.07973662 0.043302417
0.086011812 -0.079061359 0.04103592
0.087398216 -0.079532377 0.041636914
0.087837629 -0.079140835 0.042721897
0.089092426 -0.079484418 0.044013202
0.089658909 -0.079213217 0.04560262
0.090632886 -0.079303779 0.042740703
0.092158623 -0.079870813 0.038960278
0.092035823 -0.079011895 0.044693947
0.09255971 -0.078719005 0.046186298
0.093797393 -0.079032987 0.052184403
0.094646432 -0.079016745 0.049233854
0.095513597 -0.079015799 0.043507159
0.096743375 -0.079312138 0.037052572
0.095537603 -0.077624306 0.045518577
0.097729787 -0.078702755 0.044939995
0.098023526 -0.078246854 0.051625699
0.09826795 -0.077759862 0.039776862
0.10111019 -0.079319201 0.046022117
0.099695556 -0.077540986 0.04628998
0.10063787 -0.07761056 0.0536654
0.10012012 -0.076562442 0.054932415
0.1010666 -0.076642171 0.05300191
0.10191067 -0.076643556 0.052054584
0.11811173 -0.087383479 0.0059685409
0.060677066 -0.084014401 0.018542945
0.061389461 -0.083712906 0.017643183
0.060556959 -0.081345171 0.036423475
0.06172011 -0.081688389 0.027301043
0.064473011 -0.084095232 0.015979916
0.066848092 -0.083560124 0.019194663
0.06670928 -0.082244314 0.030431569
0.065341756 -0.079469703 0.041260779
0.064168707 -0.077002451 0.046275556
0.06446705 -0.07634256 0.050911427
0.064962454 -0.075930141 0.056034058
0.06646058 -0.076685287 0.050188512
0.067873001 -0.077323683 0.046731114
0.069915287 -0.078654706 0.041151345
0.070510782 -0.078345321 0.045054227
0.071395837 -0.078361288 0.04584989
0.071385548 -0.077406019 0.042096704
0.073689565 -0.078953102 0.043125629
0.07369411 -0.078029066 0.041660249
0.074549802 -0.078017235 0.049534738
0.075906038 -0.078523494 0.043085873
0.077093482 -0.078845613 0.047624499
0.077118017 -0.077984519 0.044833332
0.079084918 -0.079084918 0.041696101
0.078833915 -0.077967614 0.043579578
0.080652177 -0.078898869 0.040074289
0.081998713 -0.079353593 0.047247112
0.082204357 -0.078706302 0.044253379
0.082792282 -0.078434803 0.039941221
0.084263727 -0.078997254 0.044530302
0.084685251 -0.07857395 0.042699933
0.086310834 -0.079265058 0.043069899
0.086547889 -0.078679904 0.042560279
0.087916516 -0.079124868 0.043576837
0.08749716 -0.07796777 0.043714017
0.088890269 -0.078432597 0.045836598
0.088741586 -0.077541195 0.046456516
0.090948582 -0.078705505 0.049220502
0.090692423 -0.07773637 0.047094107
0.091703743 -0.077861674 0.041191757
0.093413174 -0.078571826 0.048719227
0.093962647 -0.078302205 0.043489724
0.095358267 -0.078736186 0.040220976
0.096130379 -0.078652129 0.043735832
0.095893197 -0.077751242 0.044742614
0.097507179 -0.078353986 0.046505451
0.099204406 -0.079012364 0.042072028
0.098039828 -0.077399872 0.04674539
0.10008887 -0.078330427 0.049808919
0.099958733 -0.077554189 0.044350684
0.10122432 -0.077864863 0.04345274
0.1007621 -0.076852448 0.052045584
0.10021061 -0.075789548 0.056148022
0.10183607 -0.076377057 0.053599149
0.10249961 -0.076239385 0.055435181
0.11572959 -0.085374296 0.013228089
0.11842938 -0.086655647 0.0054928362
0.060785025 -0.083228722 0.014978468
0.062266823 -0.083965868 0.017863899
0.060344383 -0.080158956 0.036418855
0.061193127 -0.080091007 0.030979156
0.065721385 -0.080126062 0.030400395
0.066086307 -0.079482175 0.035237342
0.064474039 -0.076509193 0.050467998
0.065029532 -0.076153003 0.053816944
0.064396814 -0.074432679 0.054167658
0.066909775 -0.076345772 0.052833766
0.067820147 -0.076404974 0.051454037
0.070254944 -0.078158632 0.04320541
0.069619931 -0.076495975 0.046175063
0.070829414 -0.076875821 0.04372561
0.071901441 -0.07709913 0.047415078
0.073781125 -0.078172855 0.04564324
0.073404819 -0.076859161 0.044059306
0.075068772 -0.07768745 0.045645565
0.07581304 -0.077555872 0.042432487
0.076707706 -0.077579379 0.040060312
0.078906953 -0.078906953 0.044949204
0.07883735 -0.077961378 0.046344817
0.078334622 -0.076612979 0.038302571
0.080019899 -0.077410549 0.046784818
0.08115498 -0.077664442 0.040468335
0.082305953 -0.077927977 0.041096658
0.083825655 -0.078531399 0.036366522
0.083349407 -0.077271841 0.043022871
0.084874056 -0.077874132 0.03931579
0.086025305 -0.078125022 0.04202646
0.086471185 -0.077736713 0.042512298
0.087868221 -0.07820271 0.040985107
0.088562571 -0.078040279 0.038488567
0.089494549 -0.07808838 0.042994827
0.089535221 -0.077365384 0.043732107
0.090832114 -0.077731326 0.048737466
0.090507723 -0.076716073 0.037661791
0.092372574 -0.0775581 0.045683861
0.092572443 -0.0769995 0.041003495
0.094102696 -0.077547587 0.042061001
0.096308559 -0.078637257 0.040839225
0.095855668 -0.077555947 0.042446911
0.095902532 -0.07689482 0.040237844
0.098172843 -0.078012347 0.042739153
0.097489953 -0.076784119 0.04496178
0.098238669 -0.076695099 0.040483773
0.099360675 -0.076896518 0.051758945
0.10006119 -0.07677108 0.051038772
0.10205766 -0.077633597 0.048991412
0.10117614 -0.076310813 0.05447343
0.099940166 -0.074745163 0.052631795
0.10337348 -0.076668665 0.054904968
0.10322675 -0.075927109 0.05578202
0.11806201 -0.086127207 0.007507205
0.061175663 -0.082822435 0.020891249
0.062667467 -0.083556622 0.013757586
0.060005244 -0.078812853 0.029878795
0.062307138 -0.080632761 0.029561609
0.068806484 -0.082944795 0.011139214
0.067460068 -0.080222778 0.031176597
0.065042928 -0.076317035 0.043815911
0.065569989 -0.075923145 0.043211341
0.065997899 -0.075426161 0.05421862
0.065889783 -0.074337184 0.05087164
0.067563616 -0.075260736 0.048018545
0.070851736 -0.07793691 0.038364559
0.06944707 -0.075448669 0.042553067
0.071310639 -0.076528482 0.042836875
0.070586309 -0.074838489 0.044987798
0.072314061 -0.075757585 0.046693087
0.073189162 -0.075772308 0.046670526
0.075016476 -0.076761045 0.046577811
0.074974559 -0.075836338 0.042197585
0.076843731 -0.076843731 0.046880931
0.077672608 -0.076799884 0.041759551
0.078924134 -0.07717026 0.046996295
0.080045693 -0.077406816 0.04267025
0.080926046 -0.077407517 0.039092094
0.081044465 -0.076687232 0.044158816
0.082352646 -0.07709609 0.044344395
0.082363084 -0.076294228 0.046548307
0.08492732 -0.077850044 0.040354133
0.084792785 -0.076925412 0.042765945
0.084984146 -0.076312296 0.044757932
0.086732037 -0.077095143 0.041121095
0.087356582 -0.076873787 0.049937844
0.08782991 -0.07652507 0.041814983
0.090146095 -0.077773102 0.046321601
0.089002624 -0.076041073 0.043892413
0.091423385 -0.077358246 0.044882834
0.091939576 -0.077054121 0.039872527
0.092846014 -0.077079706 0.039941251
0.092537999 -0.076106012 0.042729259
0.094516024 -0.077013053 0.048116475
0.094668619 -0.07642971 0.043552577
0.095687725 -0.076550178 0.044860363
0.097908333 -0.07762102 0.047913641
0.097732075 -0.076789491 0.041128784
0.097888023 -0.076231383 0.049208969
0.098522216 -0.076052234 0.049751729
0.099989474 -0.076513685 0.036189348
0.10001035 -0.075869918 0.046342343
0.10039234 -0.075508766 0.043632805
0.099564314 -0.074251346 0.046511531
0.099764206 -0.073775209 0.057140797
0.10112631 -0.074159294 0.058429152
0.10261342 -0.074627943 0.047402322
0.11811921 -0.085200742 0.010296017
0.11869892 -0.084922813 0.0071407855
0.060640719 -0.081165269 0.019983917
0.062404297 -0.082260214 0.011976331
0.060031816 -0.077951759 0.030293852
0.062094983 -0.079445049 0.026684791
0.067880325 -0.07980524 0.023054212
0.065607637 -0.076104857 0.040790498
0.065603077 -0.075098261 0.053332567
0.065886892 -0.074443631 0.051341593
0.066247106 -0.073891006 0.051716685
0.067079984 -0.073872894 0.055811942
0.068772852 -0.074790478 0.041307688
0.070248924 -0.075452551 0.044865668
0.07156679 -0.075930618 0.050312996
0.071813993 -0.075274907 0.038516879
0.072938621 -0.075543575 0.048210651
0.073399343 -0.075126387 0.045270443
0.073534548 -0.074389599 0.044921756
0.075661026 -0.075661026 0.043873847
0.077148639 -0.076271951 0.042919904
0.077105053 -0.075372361 0.043061286
0.078502543 -0.075885788 0.044598907
0.079413339 -0.075922638 0.038596809
0.080714896 -0.076328218 0.04018116
0.081192762 -0.075954519 0.045761138
0.082519032 -0.076374002 0.044366419
0.082999371 -0.076009952 0.044598013
0.083983652 -0.076110184 0.042369604
0.084632248 -0.075907268 0.03845042
0.085877895 -0.076238543 0.04090929
