ply
format ascii 1.0
comment PCL generated
element vertex 1276
property float x
property float y
property float z
element camera 0
property float view_px
property float view_py
property float view_pz
property float x_axisx
property float x_axisy
property float x_axisz
property float y_axisx
property float y_axisy
property float y_axisz
property float z_axisx
property float z_axisy
property float z_axisz
property float focal
property float scalex
property float scaley
property float centerx
property float centery
property int viewportx
property int viewporty
property float k1
property float k2
end_header
0.0051993513 -0.0069324686 0.045595497
0.0061535588 -0.0070326389 0.045496106
0.0070137801 -0.0070137801 0.043153465
0.007881307 -0.0070056068 0.044930875
0.0087083429 -0.0069666747 0.045586377
0.0096160881 -0.0069935187 0.043243289
0.010416402 -0.006944268 0.046750098
0.011393657 -0.0070114811 0.047599494
0.012281855 -0.0070182029 0.039650708
0.013139662 -0.0070078196 0.041499138
0.014012337 -0.0070061684 0.047830254
0.014843087 -0.0069849817 0.043780982
0.01579123 -0.0070183249 0.044653207
0.016711721 -0.0070365141 0.043649375
0.017270098 -0.0069080391 0.049611032
0.018452182 -0.007029403 0.045562327
0.019198369 -0.0069812252 0.047187537
0.020026216 -0.00696564 0.045501143
0.020950822 -0.0069836075 0.047174037
0.02182501 -0.0069840029 0.047507554
0.022803547 -0.0070164762 0.043363243
0.023325257 -0.0069111874 0.049608886
0.023876809 -0.0068219453 0.052373618
0.024688141 -0.0068105217 0.054942399
0.025356047 -0.0067616124 0.056026608
0.026542982 -0.0068498016 0.052806735
0.028582007 -0.0071455017 0.041323185
0.029946437 -0.0072597424 0.031642258
0.030339427 -0.0071386886 0.036738247
-0.023262031 -0.0065133688 0.023852259
-0.022079356 -0.006439812 0.031183094
-0.022190014 -0.0067534824 0.012148827
-0.019826028 -0.0063082818 0.039957881
-0.017910948 -0.005970316 0.053284317
-0.01735737 -0.0060750796 0.054362804
-0.016264722 -0.0059922659 0.052030951
-0.015442254 -0.0060053212 0.053717911
-0.01467603 -0.0060430714 0.050190896
-0.014115333 -0.006175458 0.046297371
-0.012969388 -0.0060523809 0.050469011
-0.012163861 -0.0060819304 0.050644159
-0.01128646 -0.006077325 0.049697846
-0.010184347 -0.005940869 0.053626209
-0.0096165389 -0.0061196154 0.04707256
-0.0087672602 -0.0061370824 0.042565554
-0.0078290142 -0.0060892338 0.048614413
-0.0069965539 -0.0061219847 0.047105312
-0.0060834419 -0.0060834419 0.050838053
-0.0052625043 -0.0061395885 0.046670526
-0.0043608816 -0.0061052344 0.046403885
-0.0034751475 -0.006081508 0.048185319
-0.0026322058 -0.0061418135 0.044187129
-0.0017558067 -0.0061453236 0.047992051
-0.0008694373 -0.0060860608 0.047626704
0 -0.0061146729 0.047334194
0.00087894802 -0.0061526364 0.046358615
0.0017530023 -0.006135508 0.044894993
0.0026142823 -0.0060999924 0.046064794
0.0035031908 -0.006130584 0.043381423
0.0043995921 -0.006159429 0.04086861
0.0052336096 -0.0061058779 0.045451343
0.0060983761 -0.0060983761 0.045620203
0.0069863135 -0.0061130244 0.04444772
0.0078366948 -0.0060952068 0.044445336
0.0087989522 -0.0061592669 0.044174552
0.0096051414 -0.0061123632 0.043854743
0.01054413 -0.0061507421 0.046362311
0.011330028 -0.0061007845 0.045919925
0.012319961 -0.0061599803 0.045404255
0.013227094 -0.0061726435 0.045692623
0.013973028 -0.0061132 0.044006854
0.014870702 -0.0061232303 0.04846105
0.015721805 -0.0061140358 0.04838267
0.016438281 -0.0060562086 0.046550155
0.017670345 -0.0061846208 0.045667678
0.018100172 -0.0060333903 0.051579595
0.019076057 -0.0060696546 0.044438213
0.020176942 -0.0061408081 0.048765659
0.021086173 -0.0061501334 0.044036031
0.021871664 -0.0061240657 0.046609282
0.022763483 -0.0061286301 0.047794282
0.023198241 -0.0060143587 0.048856944
0.0238047 -0.005951175 0.054565459
0.024587018 -0.0059347977 0.054871976
0.025444772 -0.0059371134 0.050971031
0.026284184 -0.0059351381 0.054705679
0.027951311 -0.0061143492 0.044339359
0.030114252 -0.0063878717 0.026053846
0.030330513 -0.0062445174 0.035476387
-0.023132145 -0.0055517145 0.028769881
-0.022554953 -0.0056387382 0.01786831
-0.022302913 -0.0058181509 0.011491925
-0.019267008 -0.0052546384 0.043758214
-0.018065102 -0.0051614577 0.050363988
-0.017337369 -0.0052012107 0.051515222
-0.016279267 -0.005140821 0.054663956
-0.015564571 -0.0051881904 0.048774451
-0.014830921 -0.0052344427 0.050314784
-0.014035977 -0.0052634915 0.04464221
-0.013099685 -0.0052398741 0.050032377
-0.012248806 -0.0052494882 0.042798221
-0.011390693 -0.0052572428 0.044654369
-0.010513843 -0.0052569215 0.046973586
-0.0095666479 -0.0052181715 0.049000382
-0.008632916 -0.0051797498 0.044078827
-0.0078671845 -0.0052447896 0.047104746
-0.0070051281 -0.0052538463 0.045619905
-0.0060717408 -0.0052043488 0.045817107
-0.0052276039 -0.0052276039 0.048428118
-0.0043464275 -0.0052157133 0.043942869
-0.0034762642 -0.0052143959 0.048748195
-0.0026306666 -0.0052613332 0.045847207
-0.0017367342 -0.0052102022 0.046384424
-0.00087654497 -0.0052592698 0.043848574
0 -0.0052420935 0.048531085
0.00087258202 -0.0052354923 0.043921739
0.0017552683 -0.0052658049 0.042116672
0.0026206071 -0.0052412143 0.042359889
0.0034638273 -0.0051957406 0.046577781
0.0043708133 -0.0052449759 0.044308603
0.0052063898 -0.0052063898 0.047623396
0.0061259335 -0.0052507999 0.045719564
0.007041215 -0.005280911 0.044376373
0.0077349767 -0.0051566511 0.052054137
0.0088505074 -0.0053103045 0.03932476
0.0096517894 -0.0052646124 0.044782937
0.010546751 -0.0052733757 0.043804616
0.011404952 -0.005263824 0.042290002
0.012508131 -0.0053606271 0.040360957
0.013062216 -0.0052248864 0.044159114
0.014149045 -0.0053058919 0.042790264
0.014929296 -0.0052691633 0.04283458
0.015675301 -0.0052251006 0.047361344
0.016854346 -0.0053224252 0.043068558
0.0174214 -0.0052264202 0.045693904
0.018258169 -0.0052166199 0.044348568
0.019279061 -0.0052579259 0.04509747
0.019949563 -0.0052042338 0.047793746
0.020862089 -0.0052155224 0.045936644
0.021896889 -0.0052552531 0.045783579
0.022906771 -0.0052861781 0.045289576
0.023182753 -0.005151723 0.049856544
0.023740947 -0.0050873458 0.05554077
0.024415191 -0.0050514187 0.055871487
0.025783228 -0.0051566456 0.053429306
0.026435997 -0.0051166443 0.054002732
0.027588762 -0.0051728929 0.046893686
0.030394185 -0.0055262153 0.028947204
0.030391635 -0.0053632297 0.036887258
-0.02287888 -0.0045757755 0.030377388
-0.023416063 -0.0048783463 0.0095917284
-0.021427266 -0.0046581011 0.026003778
-0.019202041 -0.0043641003 0.048118651
-0.018251123 -0.004345505 0.050755441
-0.017216172 -0.004304043 0.054829657
-0.016118983 -0.0042418372 0.055445343
-0.015431349 -0.0042864857 0.054501563
-0.014697841 -0.0043228944 0.054434389
-0.013977976 -0.0043681171 0.047348678
-0.01314583 -0.004381943 0.04820627
-0.012288467 -0.004388738 0.043750286
-0.011347513 -0.0043644276 0.049409091
-0.01024654 -0.0042693918 0.056848019
-0.009560273 -0.0043455786 0.045954645
-0.0088587347 -0.0044293674 0.049224705
-0.0077906512 -0.0043281396 0.0512757
-0.0069878125 -0.0043673827 0.047669709
-0.0061666835 -0.0044047735 0.046257615
-0.0052237604 -0.0043531335 0.048502922
-0.0043633422 -0.0043633422 0.046187907
-0.0034985761 -0.0043732198 0.050017953
-0.0026100883 -0.0043501472 0.049702048
-0.0017253314 -0.0043133283 0.048898011
-0.00088126981 -0.0044063488 0.046045035
0 -0.0043182597 0.045630604
0.00088785467 -0.0044392729 0.041508794
0.0017547191 -0.0043867975 0.044800788
0.0026260014 -0.0043766689 0.04497081
0.0034878456 -0.0043598069 0.045043021
0.004381937 -0.004381937 0.040457129
0.0052149817 -0.004345818 0.043357581
0.0060975533 -0.0043553952 0.045428544
0.0070087826 -0.0043804892 0.042500377
0.0078619691 -0.0043677608 0.045033842
0.0087252501 -0.0043626251 0.047371775
0.0095823966 -0.004355635 0.043053538
0.010647304 -0.004436377 0.04461059
0.011522589 -0.0044317651 0.044680208
0.012294439 -0.0043908712 0.046967566
0.013261898 -0.0044206325 0.042405903
0.014055955 -0.0043924856 0.044302583
0.014713374 -0.004327463 0.049975365
0.015662681 -0.0043507451 0.048337549
0.016702181 -0.0043953108 0.041535318
0.017592503 -0.0043981257 0.044380128
0.018514521 -0.0044082189 0.045811355
0.01904132 -0.0043275729 0.051113874
0.019993648 -0.0043464452 0.04480058
0.02111258 -0.004398454 0.04781273
0.02181701 -0.0043634018 0.045541734
0.02298665 -0.0044205096 0.041153848
0.023124419 -0.0042822994 0.05319187
0.02391547 -0.0042706192 0.056467175
0.024458349 -0.0042169564 0.058038265
0.025650959 -0.0042751599 0.052871764
0.026484009 -0.0042716139 0.053591222
0.027595541 -0.0043118028 0.055039376
0.030335067 -0.0045962222 0.0231148
0.030345166 -0.0044625243 0.036183774
0.033752251 -0.0048217503 0.012585104
-0.023089467 -0.0036943145 0.029015094
-0.022611864 -0.0037686441 0.019159734
-0.020930847 -0.0036401472 0.031994343
-0.019080697 -0.0034692178 0.047779083
-0.017947314 -0.0034185359 0.051317006
-0.017216656 -0.0034433315 0.050544113
-0.01633467 -0.0034388779 0.054082662
-0.015478928 -0.0034397617 0.050824076
-0.014811132 -0.0034849723 0.045810014
-0.013936451 -0.0034841127 0.048349172
-0.013018248 -0.0034715328 0.046477199
-0.012282842 -0.0035093834 0.045579553
-0.011353376 -0.0034933467 0.047679722
-0.010483052 -0.0034943505 0.045977026
-0.009557859 -0.0034755853 0.051855862
-0.0087261051 -0.0034904422 0.046105236
-0.0077486266 -0.0034438344 0.047351509
-0.0069685015 -0.0034842507 0.05159685
-0.0060913232 -0.0034807562 0.046697855
-0.0052678022 -0.0035118682 0.043602705
-0.0043735248 -0.0034988199 0.046920836
-0.0034989184 -0.0034989184 0.045556426
-0.002622783 -0.0034970439 0.045240343
-0.0017559876 -0.0035119753 0.048167735
-0.00086867326 -0.003474693 0.048972994
0 -0.0035127513 0.047631741
0.00087428279 -0.0034971312 0.043704987
0.0017483053 -0.0034966106 0.04424113
0.0026211366 -0.003494849 0.043118596
0.0034930652 -0.0034930652 0.042654276
0.0044098003 -0.0035278406 0.040994734
0.0052059828 -0.0034706553 0.046748519
0.0061190617 -0.0034966068 0.045405388
0.0069802059 -0.0034901029 0.042525947
0.007970267 -0.0035423411 0.043303937
0.0087888865 -0.0035155548 0.042131066
0.0096590975 -0.003512399 0.042689025
0.010536441 -0.0035121469 0.045684457
0.011316142 -0.0034818898 0.043706447
0.012254689 -0.0035013396 0.045750201
0.013115126 -0.003497367 0.047549576
0.014039779 -0.0035099448 0.041501313
0.014880517 -0.0035012984 0.04347077
0.015611592 -0.0034692427 0.045268983
0.016694551 -0.0035146424 0.041000485
0.017494345 -0.003498869 0.045404434
0.018252915 -0.0034767457 0.044960231
0.018936044 -0.0034429173 0.047730386
0.020124413 -0.0034998979 0.048259318
0.020879457 -0.0034799096 0.045355201
0.021828271 -0.0034925232 0.04379037
0.023041081 -0.0035447816 0.039840788
0.023330381 -0.0034563525 0.046477288
0.023951901 -0.0034217001 0.052381426
0.024444927 -0.0033717139 0.057358772
0.025722817 -0.0034297088 0.052119315
0.02650171 -0.0034195753 0.052060813
0.02742905 -0.0034286312 0.048598439
0.030454224 -0.0036914211 0.025157154
0.030346012 -0.0035701189 0.033560216
0.032960225 -0.0037668829 0.010204434
-0.0227933 -0.0027351959 0.030281544
-0.022308521 -0.0027885651 0.026877761
-0.021142714 -0.0027577453 0.033626437
-0.019113259 -0.0026063535 0.050020576
-0.018181706 -0.0025973865 0.052073181
-0.017221903 -0.0025832858 0.052567005
-0.016248235 -0.002565511 0.052549064
-0.015334538 -0.0025557564 0.055162132
-0.014779353 -0.0026081209 0.049782902
-0.014031311 -0.002630871 0.044475347
-0.013121811 -0.002624362 0.046331972
-0.012211448 -0.0026167387 0.046994269
-0.011212606 -0.0025875245 0.048680246
-0.0104394 -0.0026098499 0.048196465
-0.0095580677 -0.0026067458 0.052905351
-0.0086982567 -0.0026094769 0.04410696
-0.0078343824 -0.0026114609 0.045865178
-0.0068842834 -0.0025816062 0.050744504
-0.0061085271 -0.0026179401 0.050137252
-0.0052975477 -0.0026487738 0.042311132
-0.004369657 -0.0026217944 0.046556056
-0.0034814354 -0.0026110765 0.04624027
-0.0026096702 -0.0026096702 0.053436011
-0.0017505386 -0.0026258079 0.043290943
-0.00086966797 -0.0026090038 0.049315542
0 -0.0026022438 0.050583929
0.00087180204 -0.0026154062 0.045291245
0.0017648063 -0.0026472094 0.043973833
0.0026197305 -0.0026197305 0.046021789
0.0034816791 -0.0026112595 0.04555741
0.0044236151 -0.002654169 0.045019627
0.0052467012 -0.0026233506 0.048627317
0.0061230371 -0.0026241587 0.03984639
0.0070154732 -0.0026308023 0.04394117
0.0078135338 -0.0026045113 0.052156091
0.0087579926 -0.0026273979 0.044692099
0.0096385237 -0.0026286882 0.046151966
0.010562267 -0.0026405668 0.043588936
0.011365509 -0.0026228097 0.045340657
0.012399986 -0.0026571399 0.041388094
0.013213206 -0.0026426413 0.043626636
0.014147313 -0.0026526211 0.045547664
0.014838382 -0.002618538 0.046152174
0.015690874 -0.0026151456 0.042078227
0.016734259 -0.0026422516 0.044168502
0.017296199 -0.00259443 0.046574682
0.018163804 -0.0025948291 0.048492849
0.01917889 -0.002615303 0.045296103
0.020005845 -0.0026094578 0.048723012
0.02097486 -0.0026218574 0.045137048
0.022008268 -0.0026409919 0.04418087
0.022693545 -0.0026184861 0.046534657
0.023495145 -0.0026105714 0.046405315
0.024313482 -0.0026050159 0.053428739
0.024401367 -0.0025242793 0.058479011
0.025592038 -0.0025592039 0.051488072
0.026496632 -0.0025641902 0.054931313
0.027204029 -0.0025503777 0.051978827
0.029893393 -0.0027175811 0.029800355
0.031079983 -0.0027423513 0.028943568
0.032818504 -0.0028130147 0.019097239
-0.022752577 -0.0018202062 0.033422172
-0.02238483 -0.0018654024 0.024808735
-0.020844821 -0.0018125931 0.033456504
-0.019192582 -0.0017447802 0.047878265
-0.018187104 -0.001732105 0.049540907
-0.017107682 -0.0017107682 0.05363965
-0.016351482 -0.0017212087 0.054742455
-0.015467446 -0.0017186052 0.053822935
-0.0147568 -0.001736094 0.047614962
-0.013970118 -0.0017462648 0.048887134
-0.013165887 -0.0017554516 0.044261038
-0.012209078 -0.001744154 0.045825034
-0.011265861 -0.0017332095 0.050484926
-0.010472475 -0.0017454124 0.045734942
-0.0094911708 -0.0017256674 0.050736308
-0.0087605678 -0.0017521136 0.043132335
-0.0078010373 -0.0017335638 0.050742626
-0.0069468166 -0.0017367041 0.048696965
-0.0061158771 -0.0017473935 0.042968482
-0.0051747188 -0.0017249063 0.050408334
-0.0043404601 -0.0017361841 0.047410369
-0.0035056341 -0.0017528171 0.043753356
-0.0026419046 -0.0017612699 0.044510394
-0.0017581268 -0.0017581268 0.046974421
-0.00087968132 -0.0017593626 0.045096874
0 -0.0017409539 0.044340909
0.00087955932 -0.0017591186 0.047974855
0.0017460538 -0.0017460538 0.045267135
0.0026139182 -0.0017426121 0.046705425
0.0034739291 -0.0017369646 0.047216564
0.0043913703 -0.0017565482 0.042435199
0.0052405642 -0.0017468547 0.044067651
0.0061376416 -0.001753612 0.04479745
0.0069965618 -0.0017491404 0.046355993
0.00780378 -0.0017341735 0.04632917
0.0087300893 -0.001746018 0.044668406
0.009551513 -0.0017366388 0.043934077
0.010575597 -0.0017625996 0.044808567
0.011410845 -0.0017555145 0.04451251
0.012332781 -0.001761826 0.04443565
0.013104649 -0.0017472866 0.042823046
0.014129014 -0.0017661267 0.043574333
0.014797188 -0.0017408457 0.044983238
0.015772255 -0.0017524729 0.045221955
0.016676659 -0.0017554378 0.0455091
0.017492563 -0.0017492564 0.044650972
0.018470978 -0.0017591408 0.046374589
0.019149721 -0.0017408837 0.047659099
0.019814342 -0.0017229862 0.050842196
0.020970803 -0.001747567 0.045210809
0.021857992 -0.0017486394 0.044863105
0.022812549 -0.0017548115 0.040109992
0.023497153 -0.0017405298 0.04711172
0.023911921 -0.0017079944 0.05138585
0.024311801 -0.0016766759 0.058431268
0.025700061 -0.0017133374 0.058177352
0.026677962 -0.0017211589 0.049558103
0.027251132 -0.0017031957 0.051858038
0.029819658 -0.0018072521 0.031526655
0.03119201 -0.0018348241 0.023889124
0.032691449 -0.0018680829 0.020725459
-0.022967311 -0.00091869239 0.029454619
-0.022323687 -0.00093015359 0.026245385
-0.021064837 -0.00091586245 0.028392047
-0.019278485 -0.0008762948 0.047878712
-0.018104158 -0.00086210272 0.053779453
-0.017134639 -0.00085673196 0.052568316
-0.016299559 -0.00085787149 0.050796211
-0.015433601 -0.0008574223 0.054968566
-0.014999279 -0.0008823105 0.04581219
-0.014039461 -0.00087746629 0.045573205
-0.013159611 -0.00087730744 0.043920189
-0.012178481 -0.00086989149 0.050822347
-0.011261214 -0.00086624722 0.047316343
-0.010464528 -0.00087204401 0.047368765
-0.0095730582 -0.00087027799 0.048420578
-0.0086820163 -0.00086820166 0.046156168
-0.0079020606 -0.00087800674 0.042818308
-0.00703223 -0.00087902875 0.04523471
-0.0060672835 -0.0008667548 0.047212154
-0.0052819503 -0.00088032504 0.045067936
-0.0044432357 -0.00088864722 0.044240326
-0.0035085939 -0.00087714847 0.045534164
-0.002613028 -0.00087100937 0.047315598
-0.0017581432 -0.00087907159 0.045828521
-0.00087048236 -0.00087048236 0.045438766
0 -0.00087097293 0.045633972
0.00088036025 -0.00088036025 0.042365611
0.0017431434 -0.00087157171 0.046901703
0.0026128453 -0.00087094842 0.046120524
0.0035327391 -0.00088318478 0.044168383
0.0044093975 -0.00088187947 0.039411426
0.0052962163 -0.00088270276 0.042336583
0.0062025669 -0.00088608102 0.044700354
0.0070663695 -0.00088329619 0.043869108
0.0079130325 -0.0008792259 0.044598341
0.0087051792 -0.00087051798 0.046741366
0.0096146278 -0.00087405706 0.046470076
0.010531814 -0.00087765121 0.046442389
0.01147354 -0.00088258 0.043391585
0.012294506 -0.00087817898 0.041730434
0.013049932 -0.00086999545 0.046503752
0.014061881 -0.00087886758 0.041868836
0.014905035 -0.00087676675 0.045324832
0.015828323 -0.00087935128 0.045295477
0.016576136 -0.00087242818 0.043438703
0.017441571 -0.00087207853 0.048524618
0.018344557 -0.00087355031 0.044134229
0.019005241 -0.00086387468 0.043105423
0.020228963 -0.00087952014 0.047092766
0.02096954 -0.00087373081 0.045211256
0.021633027 -0.00086532102 0.051801205
0.022648232 -0.00087108585 0.045902997
0.023594286 -0.00087386242 0.045579076
0.023951314 -0.00085540413 0.050510406
0.023998097 -0.00082752056 0.061278015
0.025382901 -0.00084609666 0.054262042
0.026393637 -0.00085140765 0.055832416
0.027368087 -0.00085525273 0.051688343
0.029320598 -0.00088850298 0.038430303
0.030981598 -0.00091122347 0.03288132
0.033072315 -0.00094492326 0.016206294
-0.023037367 0 0.028505355
-0.0220725 0 0.025855929
-0.021465337 0 0.025372714
-0.019115135 0 0.047489196
-0.01808759 0 0.050978571
-0.017138345 0 0.054712117
-0.016148012 0 0.054938048
-0.015489567 0 0.052069247
-0.014876083 0 0.051100194
-0.013958594 0 0.044671625
-0.013106641 0 0.049916118
-0.012222028 0 0.049774379
-0.011352358 0 0.043342978
-0.010509173 0 0.04327324
-0.0095871678 0 0.049932301
-0.0087094735 0 0.044327617
-0.007917447 0 0.045208067
-0.0069986004 0 0.049990028
-0.0061287563 0 0.045236975
-0.0052984282 0 0.045775324
-0.00437039 0 0.044752598
-0.0034768991 0 0.045144111
-0.0026549252 0 0.039754987
-0.0017468074 0 0.048243314
-0.00087877776 0 0.041999876
0 0 0.044756114
0.00087121676 0 0.048560828
0.0017647342 0 0.041365325
0.0026326086 0 0.047023088
0.0034768991 0 0.047534227
0.004424959 0 0.040752918
0.0052548964 0 0.04597044
0.0061449734 0 0.042627573
0.0070098178 0 0.04703936
0.0078669721 0 0.044354618
0.0087612867 0 0.043352306
0.0096910922 0 0.043763936
0.010452126 0 0.047100753
0.01138801 0 0.043367386
0.012382417 0 0.044728696
0.013102985 0 0.04491964
0.013902053 0 0.049448282
0.014780803 0 0.047152579
0.015879903 0 0.042615414
0.016732415 0 0.042781025
0.01749278 0 0.044554085
0.018375304 0 0.045084268
0.019324087 0 0.046515048
0.019897195 0 0.049454898
0.02087027 0 0.048960745
0.02194955 0 0.043743908
0.022513831 0 0.049359262
0.023436669 0 0.0403229
0.024074018 0 0.053868175
0.024410868 0 0.057872474
0.025523435 0 0.055989116
0.026365453 0 0.056221664
0.027107539 0 0.056064814
0.029517217 0 0.037385195
0.031089112 0 0.029576272
0.032740753 0 0.018320262
-0.023060115 0.00092240464 0.026728272
-0.02227548 0.00092814496 0.024273366
-0.021297256 0.00092596764 0.025859654
-0.019153919 0.00087063271 0.049729556
-0.018252488 0.00086916611 0.050369501
-0.017305156 0.00086525787 0.054102957
-0.016228966 0.00085415615 0.054255724
-0.015413865 0.00085632585 0.055918872
-0.014634731 0.00086086651 0.047396094
-0.014095026 0.00088093913 0.04623118
-0.013117567 0.00087450445 0.048624188
-0.012072692 0.00086233509 0.048677385
-0.011311126 0.00087008666 0.048583925
-0.01052962 0.00087746832 0.047222525
-0.0096360827 0.00087600754 0.047055215
-0.0088423304 0.0008842331 0.041816086
-0.0077901375 0.00086557091 0.051645309
-0.0070297914 0.00087872392 0.043844759
-0.0061671459 0.00088102085 0.041920304
-0.0052065928 0.00086776546 0.050116152
-0.0043965937 0.00087931874 0.045484096
-0.0034956676 0.0008739169 0.046509743
-0.002645588 0.00088186271 0.044730306
-0.0017508263 0.00087541313 0.042170048
-0.00087877497 0.00087877497 0.04799971
0 0.00085749733 0.051097393
0.00088109204 0.00088109204 0.044341177
0.0017568017 0.00087840087 0.045072466
0.0026382711 0.00087942375 0.043096215
0.0035156666 0.00087891665 0.045704901
0.0043600108 0.00087200222 0.048288763
0.0052003744 0.00086672907 0.04626292
0.0061534895 0.00087906996 0.044846654
0.0070410087 0.00088012608 0.04411301
0.0079075471 0.00087861635 0.044769019
0.0087917373 0.00087917375 0.046716988
0.0095482506 0.00086802279 0.044129521
0.010523769 0.00087698078 0.045199037
0.011411743 0.00087782647 0.047511369
0.012411385 0.00088652753 0.042388558
0.013044449 0.0008696299 0.050890893
0.014105749 0.00088160933 0.044768959
0.014659586 0.00086232857 0.045032382
0.01581626 0.00087868114 0.044613242
0.016521746 0.00086956559 0.047093093
0.017232077 0.00086160394 0.043896228
0.018347116 0.00087367214 0.049419582
0.019186065 0.00087209383 0.049437344
0.020004943 0.00086978008 0.047141492
0.0208965 0.00087068754 0.043385237
0.021724312 0.00086897245 0.045082629
0.02278745 0.00087644038 0.046487123
0.023776613 0.00088061526 0.048450559
0.023956425 0.00085558661 0.051434964
0.024772342 0.00085421867 0.055999219
0.025674762 0.00085582543 0.056061864
0.026261717 0.00084715214 0.054397672
0.027638441 0.00086370128 0.051809937
0.029513117 0.0008943369 0.036412746
0.030737843 0.00090405421 0.03327018
0.033274285 0.00095069391 0.01440832
-0.023306368 0.0018645094 0.0252918
-0.022057617 0.0018381348 0.02799806
-0.021658285 0.0018833291 0.01741004
-0.019388137 0.001762558 0.047391206
-0.018152578 0.001728817 0.049151182
-0.017225826 0.0017225827 0.053883225
-0.01630635 0.0017164579 0.057203114
-0.015375344 0.0017083717 0.05177623
-0.01472573 0.0017324388 0.046518415
-0.014087096 0.001760887 0.044402987
-0.013207016 0.0017609354 0.04409042
-0.01238141 0.0017687728 0.04414314
-0.011397376 0.0017534425 0.046340793
-0.010457847 0.0017429746 0.047246426
-0.0095119551 0.0017294465 0.04885897
-0.0086825443 0.0017365089 0.047984421
-0.0077050263 0.0017122282 0.046085328
-0.0070068035 0.0017517009 0.049794286
-0.0062042158 0.0017726332 0.04257834
-0.0052555623 0.0017518542 0.041141182
-0.0043700309 0.0017480124 0.04684937
-0.0034853916 0.0017426958 0.045021564
-0.0026128208 0.0017418806 0.045681059
-0.0017547122 0.0017547122 0.047828078
-0.0008747424 0.0017494848 0.04309687
0 0.0017746119 0.044584841
0.0008702912 0.0017405824 0.045779794
0.0017566633 0.0017566633 0.042291641
0.0026212351 0.00174749 0.04443723
0.0034646611 0.0017323305 0.047070235
0.0043017445 0.0017206979 0.049068689
0.0052127629 0.0017375876 0.043628722
0.00611417 0.0017469057 0.046163082
0.006999976 0.001749994 0.044527084
0.0079431338 0.0017651409 0.049889177
0.008752034 0.0017504068 0.043327391
0.0095763206 0.0017411492 0.043982834
0.010650198 0.001775033 0.043589592
0.011389454 0.0017522237 0.047584027
0.012226994 0.0017467134 0.043119371
0.013136639 0.0017515519 0.048769981
0.013803423 0.0017254279 0.044792891
0.014979461 0.0017622896 0.043789178
0.015743747 0.0017493054 0.050168127
0.016498448 0.0017366788 0.044485837
0.017624103 0.0017624104 0.047111303
0.018395534 0.0017519556 0.044620931
0.019160436 0.0017418578 0.045028925
0.020155968 0.0017526927 0.046848834
0.020932825 0.0017444021 0.045235127
0.021891464 0.0017513171 0.043329537
0.022776164 0.0017520126 0.043152332
0.023270477 0.001723739 0.047525406
0.023974936 0.0017124955 0.053307921
0.024412328 0.0016836087 0.055901378
0.025592437 0.0017061625 0.052242845
0.026274664 0.0016951396 0.052913845
0.027486473 0.0017179046 0.051882386
0.029863777 0.0018099259 0.031137705
0.03068798 0.0018051753 0.034241945
0.033365391 0.0019065939 0.0095487535
-0.023421628 0.0028105953 0.024269044
-0.022136154 0.0027670192 0.027048141
-0.022009369 0.0028707872 0.016046196
-0.019286042 0.0026299148 0.041740596
-0.018029543 0.0025756487 0.05287692
-0.017287673 0.0025931511 0.054296494
-0.015967038 0.0025211112 0.060734689
-0.015550532 0.0025917555 0.047657758
-0.01477728 0.0026077554 0.053389341
-0.014060555 0.0026363542 0.042306453
-0.013236056 0.0026472111 0.044089705
-0.012260076 0.002627159 0.047189295
-0.011382146 0.0026266491 0.0461694
-0.010381622 0.0025954056 0.050609976
-0.0096572964 0.0026338082 0.046005696
-0.0087372679 0.0026211804 0.046642661
-0.0078969253 0.0026323085 0.04640156
-0.0069896253 0.0026211094 0.049866676
-0.0062011322 0.0026576282 0.040943772
-0.0052606016 0.0026303008 0.046944618
-0.0043995325 0.0026397195 0.04248327
-0.0035314315 0.0026485736 0.04306978
-0.0026530214 0.0026530214 0.04504624
-0.0017595626 0.0026393437 0.04470551
-0.00087631406 0.0026289423 0.044925421
0 0.002596756 0.048608422
0.00087765552 0.0026329665 0.04453519
0.0017331004 0.0025996505 0.049485773
0.0026325346 0.0026325346 0.044265836
0.0035270415 0.0026452811 0.044264823
0.0043931305 0.0026358783 0.046287775
0.0053012054 0.0026506027 0.044749796
0.0061529092 0.0026369612 0.041455895
0.0070193741 0.0026322652 0.047623277
0.0079073496 0.0026357833 0.048303485
0.0087323915 0.0026197175 0.044180036
0.0095627615 0.0026080259 0.0455181
0.010507416 0.002626854 0.041467994
0.011297376 0.0026070867 0.046656966
0.012243866 0.0026236854 0.043459982
0.013098047 0.0026196095 0.045308322
0.01404106 0.0026326987 0.044182926
0.015000976 0.0026472309 0.041644156
0.015570268 0.0025950447 0.049826235
0.016616225 0.0026236146 0.0467996
0.017415559 0.002612334 0.04335925
0.017972 0.0025674286 0.049905509
0.019513739 0.0026609646 0.047536582
0.019970842 0.0026048922 0.046482891
0.021049358 0.0026311697 0.043968499
0.021752678 0.0026103212 0.05019331
0.022782136 0.002628708 0.042835236
0.023316106 0.0025906784 0.052853882
0.024328809 0.0026066583 0.05218789
0.024182679 0.0025016563 0.055486947
0.025506305 0.0025506304 0.055160612
0.02632891 0.0025479589 0.055441916
0.027513277 0.0025793696 0.048769653
0.030260367 0.0027509425 0.029095441
0.03067098 0.002706263 0.03441152
-0.023381565 0.0037410504 0.019813985
-0.022218931 0.0037031553 0.028070062
-0.021877283 0.0038047449 0.017336339
-0.019542782 0.0035532329 0.043834001
-0.018318126 0.003489167 0.048418701
-0.017210567 0.0034421135 0.055878609
-0.01633467 0.0034388779 0.052158087
-0.015444939 0.0034322087 0.05530715
-0.014708608 0.0034608492 0.050610334
-0.01407682 0.0035192049 0.045717239
-0.013009109 0.0034690958 0.048743784
-0.012258954 0.0035025582 0.043556541
-0.011411209 0.0035111413 0.049897999
-0.010482321 0.0034941069 0.043563634
-0.009658426 0.003512155 0.045565873
-0.0088108303 0.0035243321 0.040424377
-0.0078550577 0.0034911372 0.048107356
-0.0069685015 0.0034842507 0.047939211
-0.0061293035 0.0035024593 0.045673639
-0.0052736551 0.0035157702 0.044773221
-0.0043424312 0.0034739452 0.045311272
-0.0035001377 0.0035001377 0.04909268
-0.0026357695 0.0035143595 0.044020951
-0.0017642799 0.0035285598 0.042924136
-0.00087964832 0.0035185933 0.045631737
0 0.0035115317 0.042997837
0.00087848987 0.0035139595 0.046875566
0.0017475736 0.0034951472 0.042802215
0.0026310137 0.0035080183 0.045606196
0.0035174531 0.0035174531 0.041898251
0.0043826699 0.0035061361 0.046408683
0.0052908473 0.0035272315 0.04382214
0.0061331443 0.0035046539 0.049526542
0.0070084915 0.0035042458 0.043233097
0.0079351561 0.0035267361 0.043425858
0.0087187905 0.0034875162 0.043984056
0.0096557438 0.0035111797 0.042884111
0.010536441 0.0035121469 0.044587433
0.011442898 0.0035208918 0.047728479
0.012316111 0.003518889 0.044433981
0.013158996 0.0035090656 0.043576926
0.013936451 0.0034841127 0.047691196
0.014926084 0.0035120198 0.044908434
0.015755219 0.0035011598 0.046584696
0.01676861 0.0035302336 0.045117587
0.017394474 0.0034788949 0.045721084
0.018277209 0.0034813732 0.046689481
0.018831573 0.0034239225 0.050920486
0.020120215 0.0034991675 0.047455817
0.020861927 0.0034769881 0.047619283
0.021701997 0.0034723196 0.045591682
0.02269938 0.0034922124 0.043929487
0.023313956 0.0034539192 0.051490009
0.02368963 0.0033842328 0.054206103
0.024436109 0.0033704976 0.059158832
0.025722817 0.0034297088 0.051486969
0.026013624 0.0033565965 0.054614007
0.027903605 0.0034879507 0.043444425
0.030019077 0.0036386761 0.030917823
0.030595949 0.0035995236 0.031203002
-0.023960525 0.0047921049 0.015505135
-0.022174489 0.004619685 0.026000023
-0.021843072 0.0047484934 0.018407196
-0.019788669 0.0044974247 0.037525743
-0.018208928 0.0043354589 0.048709601
-0.017222263 0.0043055657 0.05478096
-0.016107412 0.0042387922 0.056371093
-0.015412711 0.0042813085 0.054087371
-0.014560109 0.0042823851 0.054361343
-0.013830788 0.0043221209 0.045886546
-0.01312481 0.0043749367 0.04525736
-0.012277377 0.0043847775 0.049234301
-0.011216799 0.0043141535 0.047897786
-0.010421326 0.0043422193 0.046682656
-0.0096340198 0.0043790997 0.047636837
-0.0087276883 0.0043638442 0.044543564
-0.0078219213 0.004345512 0.045545876
-0.0070560863 0.0044100541 0.045572668
-0.0060774968 0.0043410687 0.049135
-0.0052559492 0.0043799574 0.048454165
-0.0044115055 0.0044115055 0.045261204
-0.0035190615 0.0043988265 0.044872284
-0.0026020405 0.0043367343 0.048092455
-0.0017739855 0.0044349637 0.045825154
-0.00087389234 0.0043694614 0.045045108
0 0.0044164229 0.043386877
0.00086700264 0.0043350128 0.044923186
0.0017602064 0.0044005159 0.042337626
0.0026404511 0.0044007516 0.044604987
0.0034963812 0.0043704766 0.050066769
0.0043773646 0.0043773646 0.043724895
0.0052665574 0.0043887976 0.04504016
0.0060890182 0.0043492988 0.047623158
0.0070248758 0.0043905471 0.040647238
0.0078855585 0.004380866 0.045692205
0.0087855924 0.0043927962 0.04332453
0.0096112257 0.0043687387 0.046978563
0.010593918 0.0044141323 0.043147951
0.011337213 0.0043604667 0.044460893
0.012217662 0.0043634507 0.047503799
0.013223514 0.0044078375 0.04289332
0.013969203 0.0043653757 0.043059766
0.014766188 0.0043429965 0.046710283
0.015553045 0.0043202904 0.045754999
0.016493896 0.0043404987 0.046919048
0.017453663 0.0043634158 0.045330077
0.018238338 0.004342461 0.046736866
0.018963639 0.0043099178 0.048069924
0.020023048 0.0043528364 0.043899685
0.020965053 0.0043677189 0.048518717
0.021775935 0.0043551866 0.045517415
0.022853769 0.0043949555 0.044317663
0.023004517 0.0042600953 0.056379527
0.024026165 0.0042903866 0.050409317
0.024826925 0.0042805043 0.054170668
0.025470382 0.0042450638 0.054939002
0.026314408 0.0042442591 0.04945761
0.028472669 0.0044488544 0.041449726
0.029599147 0.0044847191 0.033055872
0.031349029 0.0046101511 0.026900887
-0.022213167 0.0055532916 0.025463551
-0.021698125 0.0056603802 0.020305634
-0.020124152 0.005488405 0.031120211
-0.018310592 0.0052315975 0.049073219
-0.01739339 0.0052180174 0.050346106
-0.016167028 0.0051053772 0.057733297
-0.015449457 0.005149819 0.053476453
-0.014693195 0.0051858332 0.051240653
-0.013883921 0.0052064704 0.047347039
-0.013369284 0.0053477134 0.044427216
-0.012204448 0.0052304775 0.046844065
-0.01134237 0.00523494 0.04872492
-0.010551139 0.0052755694 0.048484951
-0.0096256444 0.0052503515 0.045270443
-0.0087054465 0.0052232677 0.045492887
-0.0078079375 0.0052052918 0.047982454
-0.0070548691 0.0052911518 0.043498576
-0.0061447094 0.0052668937 0.044183403
-0.0052458928 0.0052458928 0.044672847
-0.0044098301 0.0052917963 0.04350391
-0.0035135753 0.0052703628 0.045675486
-0.0026195096 0.0052390192 0.047968864
-0.0017505127 0.0052515385 0.044140846
-0.00088239793 0.0052943877 0.042995036
0 0.0052088043 0.047604382
0.00086313189 0.0051787915 0.050042957
0.0017607555 0.0052822665 0.045799166
0.0026107302 0.0052214605 0.0456765
0.0034426113 0.0051639169 0.04131034
0.0043897117 0.0052676545 0.045064598
0.0052491846 0.0052491846 0.044038862
0.0061114253 0.0052383645 0.047767788
0.0070451158 0.0052838367 0.045522362
0.0078918701 0.005261247 0.045763761
0.0088078417 0.0052847052 0.042640418
0.0096484376 0.0052627842 0.044953585
0.010574541 0.0052872705 0.044633448
0.011420796 0.0052711363 0.043459982
0.012479126 0.0053481967 0.042944491
0.013031145 0.0052124579 0.045791924
0.014072042 0.0052770157 0.046859682
0.014796748 0.0052223816 0.044686347
0.015672011 0.0052240039 0.044584006
0.016610198 0.0052453256 0.046990544
0.017310577 0.005193173 0.047496289
0.018077889 0.0051651113 0.049462914
0.018956292 0.0051698983 0.047800422
0.020200158 0.0052696061 0.045237273
0.020841639 0.0052104099 0.04435426
0.022109862 0.0053063668 0.044712633
0.022304086 0.0051470967 0.0500108
0.023146622 0.0051436936 0.050245881
0.023688154 0.0050760331 0.058825076
0.024840185 0.0051393486 0.049036533
0.025473159 0.0050946316 0.054304779
0.026635742 0.0051553044 0.053516448
0.028642837 0.0053705322 0.034836024
0.02987886 0.0054325201 0.03504771
0.031872593 0.0056245751 0.019488513
-0.022667965 0.0066114897 0.022809148
-0.021683248 0.0065992489 0.019403994
-0.02038181 0.0064851218 0.026200294
-0.018456882 0.0061522936 0.045150429
-0.017398775 0.0060895709 0.048030227
-0.01641167 0.0060464041 0.050301433
-0.015093636 0.0058697471 0.060953379
-0.01457041 0.0059995805 0.050605118
-0.013970104 0.0061119208 0.052681535
-0.013023305 0.006077542 0.045083374
-0.012314843 0.0061574215 0.045574903
-0.011276954 0.006072206 0.044798732
-0.010495867 0.0061225886 0.047702938
-0.0096024601 0.0061106565 0.044220388
-0.0088659944 0.0062061963 0.044174552
-0.0078564426 0.0061105667 0.047834247
-0.0070428788 0.0061625186 0.045739949
-0.0060885623 0.0060885623 0.047009975
-0.0052548237 0.0061306278 0.047840923
-0.0043855705 0.006139799 0.044038594
-0.0035348916 0.0061860601 0.043430209
-0.002626902 0.0061294381 0.044845551
-0.0017627567 0.0061696484 0.042456418
-0.00087986252 0.0061590374 0.04823637
0 0.0061479607 0.044846803
0.00087925285 0.00615477 0.044505239
0.0017578796 0.0061525786 0.04382199
0.00262361 0.0061217565 0.046601295
0.0035007522 0.0061263163 0.045673639
0.0043182084 0.0060454919 0.04857412
0.005219711 0.0060896631 0.046743661
0.0061453129 0.0061453129 0.046571106
0.006992653 0.0061185714 0.04727596
0.0079321433 0.0061694449 0.045225531
0.0088519761 0.0061963839 0.042736232
0.0096299453 0.0061281472 0.047218829
0.010559486 0.0061597005 0.045777261
0.011432215 0.0061558075 0.04672429
0.012277311 0.0061386554 0.046232939
0.013094585 0.0061108065 0.046106905
0.013942814 0.0060999808 0.047491342
0.014906945 0.0061381538 0.043929219
0.015711939 0.0061101988 0.046701699
0.016499603 0.0060788011 0.046745032
0.017492546 0.0061223907 0.046544522
0.018161541 0.0060538463 0.049022555
0.019157751 0.0060956478 0.045899212
0.019908158 0.0060590045 0.045527577
0.021058422 0.0061420398 0.045813024
0.021935552 0.0061419546 0.044662148
0.022534125 0.0060668797 0.045166105
0.02296667 0.0059543215 0.057080895
0.023455607 0.0058639017 0.054370821
0.024380701 0.0058849966 0.058617681
0.025709234 0.005998821 0.050095528
0.026644086 0.0060164067 0.049016237
0.029361226 0.0064227679 0.026180655
0.029478641 0.0062530455 0.033685327
0.032342218 0.0066586919 0.010497153
-0.022490185 0.0074967281 0.018499643
-0.02136307 0.0074306331 0.024807721
-0.020775914 0.007554878 0.025127709
-0.018750066 0.0071428823 0.038719445
-0.01752826 0.0070113046 0.045373291
-0.016549742 0.006968312 0.049592704
-0.015224478 0.0067664352 0.060049176
-0.014603899 0.006872423 0.052137673
-0.013877837 0.0069389185 0.049511492
-0.013278562 0.0070818998 0.041547865
-0.012321943 0.0070411107 0.046157628
-0.011319991 0.0069661485 0.048038214
-0.010463201 0.0069754673 0.046628237
-0.0096529564 0.0070203324 0.047752887
-0.0086723855 0.0069379089 0.045757025
-0.0077414317 0.0068812729 0.045784146
-0.0070040282 0.0070040282 0.04790768
-0.0061497185 0.00702825 0.042107075
-0.0052253185 0.0069670915 0.046692759
-0.004364335 0.0069829361 0.045085013
-0.0034844945 0.006968989 0.045135051
-0.0026220237 0.0069920635 0.043916821
-0.0017614549 0.0070458194 0.044551492
-0.0008726276 0.0069810208 0.044795752
0 0.006993236 0.049843669
0.00087189599 0.0069751679 0.046941698
0.0017393865 0.0069575459 0.043405414
0.0026286077 0.0070096203 0.04450205
0.0034983933 0.0069967867 0.043867081
0.0043597631 0.006975621 0.04554829
0.0052556749 0.0070075663 0.046473294
0.0061714794 0.0070531191 0.045203537
0.006996714 0.006996714 0.047932029
0.0078621088 0.0069885412 0.049050957
0.0088223089 0.0070578475 0.042222261
0.0095302835 0.0069311159 0.047362834
0.010469782 0.0069798548 0.044532061
0.011275634 0.0069388519 0.046429604
0.012296354 0.0070264884 0.042112172
0.013052851 0.0069615208 0.049248189
0.01406789 0.0070339451 0.041616946
0.014919708 0.0070210393 0.041758835
0.015517171 0.006896521 0.047576487
0.016598335 0.0069887727 0.045939028
0.017395526 0.0069582104 0.044569552
0.018082704 0.0068886494 0.050237864
0.019203726 0.0069831735 0.044825733
0.020138204 0.0070045926 0.045525432
0.020985873 0.0069952914 0.046176076
0.021727659 0.0069528506 0.045584857
0.022162953 0.0068193707 0.05397287
0.022998445 0.0068143536 0.051847279
0.02390746 0.0068307025 0.050305873
0.024892688 0.0068669482 0.051829249
0.025346927 0.0067591807 0.052281767
0.027311744 0.0070481915 0.041817456
0.029072054 0.0072680134 0.032475144
0.029884282 0.0072446745 0.030645877
-0.023080464 0.0086551737 0.011537313
-0.021555109 0.0084346067 0.026510477
-0.020469498 0.0083738854 0.020792603
-0.019142823 0.0082040662 0.031241775
-0.01767467 0.0079536019 0.045419604
-0.016318634 0.0077298786 0.052244961
-0.015345346 0.0076726731 0.053566396
-0.01428112 0.0075605926 0.062781096
-0.013678286 0.0076940353 0.05011797
-0.013054899 0.0078329397 0.049391806
-0.012359671 0.0079455031 0.045619071
-0.011309094 0.0078293728 0.045086741
-0.010562088 0.0079215663 0.041312426
-0.0096598184 0.0079034874 0.049042225
-0.0087828385 0.0079045547 0.042049378
-0.0078660799 0.0078660799 0.047658801
-0.0069919545 0.0078659486 0.047758847
-0.0060836873 0.0078218831 0.051393747
-0.0052725845 0.007908877 0.040009737
-0.0043705036 0.0078669069 0.04788658
-0.0035055231 0.0078874268 0.044571847
-0.0026206046 0.0078618135 0.049205691
-0.0017478284 0.0078652278 0.044671059
-0.00087014289 0.0078312857 0.049255699
0 0.0078285662 0.046963751
0.00087325188 0.0078592664 0.044964045
0.0017653848 0.0079442309 0.045890242
0.0026383435 0.0079150302 0.047767073
0.0035160074 0.0079110162 0.043572187
0.0043366733 0.0078060115 0.050397962
0.0051720114 0.0077580167 0.047811806
0.006074727 0.0078103631 0.045103639
0.0070041437 0.0078796614 0.046856821
0.0078013563 0.0078013563 0.04551357
0.008758462 0.0078826156 0.044560164
0.0096155787 0.0078672916 0.048164725
0.010423892 0.0078179194 0.048210025
0.011294045 0.0078189541 0.046963334
0.01231532 0.0079169916 0.047568589
0.01309145 0.0078548696 0.044031084
0.013924855 0.0078327302 0.046195298
0.014732548 0.007799584 0.048042029
0.015668718 0.0078343591 0.044529021
0.016473664 0.0078033144 0.050052851
0.017193686 0.0077371588 0.048463762
0.018226208 0.0078112315 0.046436489
0.019228153 0.0078660622 0.044677287
0.020081148 0.0078578396 0.047008038
0.021311896 0.0079919612 0.042206138
0.021607867 0.0077788313 0.053418845
0.021983055 0.0076095192 0.053191394
0.023033356 0.0076777851 0.05233109
0.024096902 0.0077454327 0.051324874
0.024417065 0.0075777094 0.05564478
0.025706677 0.0077120028 0.048655927
0.0280338 0.0081388447 0.034376055
0.029008295 0.0081585823 0.030893505
0.030414 0.0082947277 0.024228662
-0.021502044 0.0093487147 0.02129963
-0.02027279 0.0092149042 0.025441438
-0.019878007 0.0094657168 0.018529683
-0.017637098 0.0088185491 0.043395638
-0.016403276 0.0086333025 0.049197495
-0.015566947 0.0086483043 0.051078707
-0.014374488 0.008455581 0.06092599
-0.013936698 0.0087104365 0.052746236
-0.012816562 0.0085443752 0.053750306
-0.01227024 0.008764457 0.046591073
-0.011409011 0.0087761618 0.045181543
-0.010437166 0.0086976383 0.052740276
-0.0096096452 0.0087360414 0.043189704
-0.0087646451 0.0087646451 0.0448744
-0.0078837117 0.0087596802 0.04677844
-0.0069257198 0.008657149 0.049974382
-0.0061238566 0.0087483665 0.048148304
-0.005248867 0.0087481113 0.04446891
-0.0044187009 0.0088374019 0.045323759
-0.0035265265 0.0088163158 0.043959677
-0.0026217289 0.0087390961 0.045301676
-0.0017406538 0.0087032691 0.042937279
-0.00087618688 0.0087618679 0.047594756
0 0.0087369038 0.041304171
0.00087344379 0.0087344376 0.050593793
0.0017497973 0.0087489858 0.044692785
0.0026337982 0.0087793274 0.044984668
0.0034919051 0.0087297624 0.044520468
0.0043641487 0.0087282974 0.04573822
0.0051856013 0.0086426688 0.044810206
0.0060743671 0.008677667 0.050269276
0.0069739874 0.0087174838 0.046488374
0.0078387372 0.0087097082 0.046510279
0.0088060824 0.0088060824 0.042339385
0.0096089756 0.0087354323 0.046382636
0.010588514 0.0088237617 0.039920807
0.011298921 0.0086914776 0.046814293
0.012243801 0.0087455716 0.044324905
0.013174735 0.008783157 0.043078214
0.013988349 0.0087427171 0.044657648
0.014839349 0.0087290285 0.042119592
0.015733555 0.0087408638 0.048058301
0.016571023 0.00872159 0.043254822
0.017316865 0.0086584324 0.047097176
0.018328672 0.0087279389 0.049647868
0.019180149 0.0087182494 0.043968618
0.01998478 0.0086890347 0.045812488
0.020857934 0.0086908061 0.047460824
0.021434724 0.0085738888 0.051298529
0.022033948 0.0084745958 0.052847624
0.023086185 0.0085504381 0.05483374
0.023947351 0.0085526248 0.05723238
0.024606043 0.0084848423 0.053574383
0.026128232 0.0087094102 0.046051443
0.028092436 0.009062076 0.030119807
0.029391576 0.0091848671 0.028728545
0.03185764 0.00965383 0.010133147
-0.021793155 0.010422813 0.015748531
-0.020504441 0.010252221 0.025853604
-0.01961978 0.010277027 0.023422331
-0.018186267 0.010002447 0.032702893
-0.016473923 0.0095375348 0.048999429
-0.015634978 0.0095547093 0.048469216
-0.01448639 0.0093735456 0.053321958
-0.013524564 0.0092981374 0.056786776
-0.012929929 0.0094819479 0.052284986
-0.012107402 0.009512959 0.048415512
-0.011374209 0.0096243303 0.046567559
-0.01047523 0.0096022943 0.044402242
-0.0096230907 0.0096230907 0.045989603
-0.0086744986 0.0095419483 0.047040701
-0.0077822837 0.0095116803 0.048042864
-0.0069642672 0.0095758671 0.048825413
-0.0061008446 0.009587042 0.04692632
-0.0052474258 0.0096202809 0.045441121
-0.0043659965 0.0096051916 0.047685534
-0.0034958208 0.0096135065 0.044712573
-0.0026255797 0.0096271262 0.043689549
-0.001752974 0.0096413568 0.04659155
-0.00087174086 0.0095891487 0.046299428
0 0.0096810348 0.041910976
0.00087753136 0.0096528446 0.047713548
0.0017510235 0.0096306289 0.045348138
0.0026365509 0.0096673528 0.043445766
0.0034885067 0.0095933927 0.047028661
0.0043617301 0.0095958058 0.044272512
0.0052880156 0.0096946955 0.046708822
0.0061332667 0.00963799 0.046731293
0.0070364205 0.0096750781 0.046314687
0.0078365793 0.0095780417 0.047555327
0.0087281195 0.0096009318 0.044310868
0.009660623 0.009660623 0.041968286
0.010511786 0.0096358033 0.044987142
0.011336194 0.0095921643 0.045763403
0.012096317 0.0095042484 0.044395059
0.013024035 0.0095509589 0.047777653
0.013901682 0.0095574055 0.044532925
0.014834236 0.009598623 0.046501428
0.015571409 0.009515861 0.048785836
0.016416084 0.0095040482 0.04454273
0.017192762 0.0094560189 0.048603833
0.018255893 0.0095626106 0.044531643
0.019094542 0.0095472708 0.045353353
0.020123433 0.0096242502 0.046758801
0.020526558 0.0094080055 0.052568555
0.021404427 0.0094179474 0.051051855
0.021869624 0.0092525333 0.05985111
0.022897491 0.0093286065 0.055657238
0.023847042 0.0093684811 0.051683307
0.025015216 0.0094885295 0.048148125
0.026569631 0.0097421976 0.036858171
0.028182916 0.010000389 0.027930111
0.029329387 0.010081977 0.028532237
-0.020551171 0.011209729 0.024050385
-0.019292446 0.011024254 0.027023822
-0.01887282 0.011323692 0.019698232
-0.016810503 0.010617159 0.042274773
-0.015647011 0.01043134 0.049488664
-0.01478038 0.010433209 0.049762011
-0.013381332 0.010035999 0.058146864
-0.012708829 0.010167062 0.053718567
-0.012132969 0.010399687 0.051140815
-0.011234809 0.010370593 0.047612011
-0.01052419 0.01052419 0.044252872
-0.0095279049 0.010394079 0.0534679
-0.0087098237 0.010451789 0.044916958
-0.0078700166 0.010493356 0.046187043
-0.0069481684 0.010422252 0.05298996
-0.0060935817 0.010446141 0.046849787
-0.0052273041 0.010454608 0.046437293
-0.0043769567 0.010504697 0.043294221
-0.0035211667 0.0105635 0.046098918
-0.0026433093 0.010573237 0.043296397
-0.0017387082 0.010432249 0.045783699
-0.0008730191 0.010476229 0.0474419
0 0.010490158 0.049148649
0.0008669853 0.010403824 0.048880309
0.0017612588 0.010567552 0.042955756
0.0026078387 0.010431355 0.043467015
0.003487281 0.010461843 0.043929279
0.0043851845 0.010524442 0.044951886
0.0052441237 0.010488247 0.046924829
0.0061170431 0.01048636 0.042974114
0.0069486555 0.010422983 0.046945095
0.0078415005 0.010455334 0.047088832
0.0087250564 0.010470067 0.048621476
0.0096163685 0.010490584 0.048813224
0.010476672 0.010476672 0.046762794
0.011302122 0.010432728 0.045906305
0.012296697 0.010540026 0.044879198
0.012986557 0.010389245 0.046361208
0.013945506 0.010459129 0.049547851
0.014705846 0.010380597 0.046839118
0.015553853 0.010369236 0.047345459
0.016506288 0.010425024 0.047583491
0.017105091 0.010263055 0.051497877
0.018300598 0.010457485 0.045161426
0.019434579 0.010600679 0.04359749
0.019856088 0.010359697 0.049018979
0.020411199 0.010205599 0.051907718
0.021276675 0.010212803 0.051826835
0.021861732 0.010090031 0.056635559
0.023102731 0.01026788 0.049596578
0.024117719 0.010336165 0.051485062
0.024919994 0.010311722 0.04867962
0.027320767 0.010928306 0.02693665
0.027896458 0.010798628 0.036046445
0.030297421 0.011361532 0.012248069
-0.020836059 0.012312217 0.01796338
-0.019394467 0.012006098 0.026072294
-0.01866075 0.012129487 0.023786992
-0.017385192 0.011895131 0.02978
-0.015729079 0.011359891 0.047366112
-0.014640525 0.011195695 0.049611986
-0.01389278 0.011287883 0.04871583
-0.012595478 0.01091608 0.065090597
-0.011977687 0.011122137 0.053621829
-0.011118323 0.011118323 0.052968442
-0.010444423 0.011314792 0.046783537
-0.0096564963 0.011412223 0.042327493
-0.0087743336 0.011406634 0.045400888
-0.0078951754 0.011404143 0.046768337
-0.0070841117 0.011511681 0.045454741
-0.0060914005 0.011312601 0.045749336
-0.0051969155 0.011259983 0.049992353
-0.004334568 0.011269877 0.048312187
-0.0034738455 0.011289998 0.049142331
-0.0026175079 0.011342534 0.04804644
-0.0017563677 0.01141639 0.046901524
-0.00087435264 0.011366584 0.045073628
0 0.011309577 0.046073198
0.00087886251 0.011425212 0.045439273
0.0017485671 0.011365686 0.047510922
0.0026357903 0.011421759 0.039124578
0.0035113848 0.011412001 0.04655844
0.0043796622 0.011387123 0.04333961
0.0052170246 0.011303553 0.046458066
0.0061246702 0.011374388 0.0461393
0.0069456762 0.011286723 0.048355013
0.0078101805 0.011281372 0.047012061
0.0087024439 0.011313177 0.047228575
0.0095137591 0.011243534 0.049199373
0.01042761 0.011296578 0.046198756
0.011321035 0.011321035 0.048923969
0.012180626 0.011310582 0.046361744
0.01302574 0.011288974 0.046674281
0.013852833 0.011255426 0.050006807
0.014669508 0.011217859 0.0470303
0.015681956 0.011325858 0.045831889
0.016440231 0.011248579 0.044730842
0.01720967 0.011186285 0.045309752
0.018346462 0.011357334 0.048566073
0.019229578 0.011362933 0.04580906
0.019672623 0.011119308 0.053566217
0.020622775 0.011170669 0.051076323
0.020843163 0.010838444 0.057102382
0.022275887 0.011137944 0.053930968
0.02311407 0.011128996 0.052632987
0.023845188 0.01107098 0.050800145
0.026144927 0.01172014 0.031413198
0.027185552 0.011780406 0.033206314
0.028297387 0.011866645 0.027075261
-0.019394115 0.012929409 0.021932006
-0.018524067 0.012966847 0.026414245
-0.017822055 0.01313204 0.021961808
