ply
format ascii 1.0
comment PCL generated
element vertex 1303
property float x
property float y
property float z
element camera 0
property float view_px
property float view_py
property float view_pz
property float x_axisx
property float x_axisy
property float x_axisz
property float y_axisx
property float y_axisy
property float y_axisz
property float z_axisx
property float z_axisy
property float z_axisz
property float focal
property float scalex
property float scaley
property float centerx
property float centery
property int viewportx
property int viewporty
property float k1
property float k2
end_header
0.0096563688 0.065838881 0.042439759
0.010562964 0.066018522 0.042604566
0.011168242 0.064432167 0.04578808
0.012043128 0.06451676 0.049569756
0.012731536 0.063657686 0.051457971
0.01366527 0.064055957 0.050782442
0.014285815 0.063025653 0.055615604
0.0152 0.06333334 0.051394731
0.015827678 0.062477682 0.057830572
0.01657735 0.062165063 0.055812508
0.017435489 0.062269606 0.054464936
0.01882161 0.064164586 0.049814045
0.020242853 0.066009305 0.038606018
0.021308087 0.066587776 0.035633117
0.022957081 0.066222355 0.036866426
0.023933124 0.066480897 0.036334306
0.025051484 0.067102194 0.036543548
0.026352605 0.068153284 0.02539438
-0.021883976 0.069299258 0.030115336
-0.020620203 0.068136327 0.032248795
-0.019907944 0.068772905 0.030267209
-0.019312037 0.069891177 0.025317729
-0.016871015 0.067484058 0.035663933
-0.016392034 0.069210812 0.028941303
-0.014662908 0.065551825 0.046756208
-0.013670547 0.064935096 0.051118523
-0.012707786 0.064386114 0.052895218
-0.011784525 0.063973136 0.05275619
-0.01101138 0.064374216 0.054700375
-0.010211102 0.064670317 0.050632805
-0.0093898093 0.064875051 0.049486578
-0.0085157696 0.064719848 0.052819341
-0.0076694828 0.064764522 0.048989445
-0.0071214424 0.067653701 0.036246866
-0.0061539798 0.066814639 0.043603629
-0.0051467461 0.065192118 0.047342896
-0.0043304279 0.065822504 0.043367177
-0.0034627591 0.065792426 0.046602994
-0.0026016168 0.065907627 0.042746276
-0.0017341978 0.065899521 0.04586193
-0.0008696228 0.066091329 0.045502871
0 0.065135464 0.044257015
0.00086411159 0.06567248 0.044113159
0.0017129922 0.065093704 0.051828235
0.0025901156 0.065616265 0.044902772
0.0034903139 0.066315964 0.042984962
0.0042804116 0.065062262 0.047560155
0.005163637 0.065406069 0.044731408
0.0060692886 0.065895133 0.045424432
0.0069225999 0.065764703 0.046476454
0.0078505883 0.066293858 0.041012198
0.0086283553 0.065575503 0.046639115
0.0094332844 0.065175422 0.045127124
0.010332535 0.065439388 0.047040105
0.011416903 0.066744968 0.042007178
0.012263115 0.066571191 0.04219535
0.012850558 0.065109499 0.04681316
0.013614999 0.064671248 0.051190317
0.014304755 0.063950673 0.051807702
0.015182318 0.064103127 0.056063235
0.015930768 0.063723072 0.054070354
0.016553063 0.062901638 0.05758211
0.017663755 0.063925967 0.054775268
0.018557763 0.06410864 0.052375466
0.019611891 0.064804509 0.047081321
0.02148786 0.068044893 0.034731895
0.023873182 0.072574474 0.010044932
0.024864718 0.072681487 0.0067673326
0.024107864 0.067859173 0.0353854
0.024792468 0.067293838 0.036168456
0.025394538 0.066551201 0.039293289
-0.021526761 0.069065027 0.032731503
-0.020730348 0.069401599 0.031947017
-0.019889584 0.069613546 0.03180784
-0.018717537 0.072062522 0.017702103
-0.017239405 0.069864959 0.031819582
-0.015642626 0.066915683 0.04388243
-0.014485301 0.065609887 0.051209509
-0.013494814 0.06494379 0.052435189
-0.01280156 0.065714672 0.049304634
-0.011797528 0.064886399 0.055723906
-0.011039761 0.065389358 0.051036537
-0.0102696 0.0658966 0.046755075
-0.009339394 0.06537576 0.052935302
-0.0087099764 0.067066818 0.042954296
-0.00786852 0.067319565 0.041639805
-0.0069285082 0.066686891 0.045473278
-0.0060811574 0.066892728 0.043511659
-0.0051752664 0.066415921 0.045908153
-0.0043251384 0.066607133 0.046723932
-0.0034554147 0.066516727 0.045839071
-0.002631133 0.067532413 0.041409343
-0.0017226205 0.066320889 0.047684908
-0.00086197664 0.066372201 0.045314252
0 0.066658258 0.044715613
0.00086101866 0.06629844 0.046751261
0.0017239377 0.066371597 0.043972641
0.0025921545 0.066531971 0.047588408
0.0034561332 0.066530563 0.048042417
0.0043041832 0.066284426 0.045742065
0.0051871203 0.066568047 0.044710785
0.0060870242 0.066957265 0.046720594
0.0068724747 0.066147566 0.045856386
0.0078281136 0.066973865 0.044201851
0.0085950484 0.066181876 0.049371123
0.0094532967 0.066173084 0.044938773
0.01044125 0.066998027 0.045629919
0.011124562 0.065891638 0.046536148
0.012104991 0.066577449 0.042439193
0.013205451 0.067787983 0.041358441
0.01384518 0.066629931 0.043723881
0.014501572 0.065683588 0.050754875
0.015286231 0.065391101 0.052472293
0.016059807 0.06508448 0.051868349
0.016791841 0.064648591 0.058010131
0.017611681 0.064576164 0.053458393
0.018291419 0.064019971 0.052997082
0.019206885 0.064301312 0.055189937
0.020831008 0.066832818 0.041840851
0.022634065 0.069712915 0.028830081
0.024645256 0.07028462 0.022894353
0.024580378 0.067596041 0.038206726
0.025531841 0.06779144 0.040111363
0.027310459 0.070096843 0.025748938
-0.022884887 0.071400844 0.027383
-0.021638628 0.070325539 0.031569183
-0.020768803 0.070433334 0.035828054
-0.020502204 0.07268963 0.015442342
-0.018210288 0.071020126 0.029768646
-0.016745215 0.068743519 0.035917878
-0.015294178 0.066274777 0.051993459
-0.014438906 0.066249095 0.053768873
-0.013500007 0.065812536 0.053415388
-0.012831477 0.066723682 0.052343816
-0.011821336 0.065861732 0.052276611
-0.011026837 0.066161022 0.050438464
-0.010373927 0.067430526 0.049939781
-0.0096969893 0.06876047 0.039246231
-0.0085952282 0.067042783 0.047313809
-0.0077657653 0.0673033 0.047268659
-0.0069721872 0.067978822 0.038917869
-0.0060649156 0.067580484 0.043084443
-0.0051983437 0.067578465 0.048184693
-0.0042982846 0.067053244 0.047492087
-0.003449972 0.067274451 0.043902606
-0.0026106942 0.067878045 0.044573873
-0.0017035031 0.066436619 0.048620224
-0.00086696073 0.067622937 0.045317024
0 0.06709563 0.044718683
0.00086444709 0.067426875 0.043090701
0.0017228938 0.06719286 0.04636994
0.0025792746 0.067061141 0.046058029
0.0034301032 0.066887014 0.04555437
0.0043162378 0.067333311 0.046678245
0.005172133 0.067237727 0.046556979
0.0060217716 0.067099743 0.045597702
0.0068903305 0.067180723 0.051794738
0.0076914513 0.066659242 0.04422915
0.0086030057 0.067103446 0.044274479
0.0094758701 0.067192532 0.046353638
0.010309318 0.067010567 0.046685457
0.011218135 0.067308806 0.047471493
0.012062502 0.067205369 0.049381673
0.012838653 0.066760994 0.04444918
0.013733475 0.066950694 0.04717204
0.014564957 0.066827446 0.043364316
0.015300636 0.066302761 0.049864918
0.016018251 0.06575913 0.05028978
0.016840212 0.065676831 0.056859314
0.017442822 0.064787626 0.053074926
0.018545855 0.06575349 0.057179689
0.019196576 0.06510143 0.057936758
0.020252068 0.065819219 0.052647173
0.022226296 0.06934604 0.03925854
0.025836194 0.071972251 0.0213992
0.025464585 0.068490952 0.038755536
0.026499175 0.068897851 0.035764337
-0.022344211 0.070607707 0.033149868
-0.021635609 0.071217209 0.032868087
-0.0209431 0.071934991 0.023890048
-0.017918501 0.070778079 0.033578515
-0.016208252 0.067392208 0.050003171
-0.01531924 0.067234449 0.051395237
-0.014266481 0.066297174 0.054460734
-0.013547197 0.066889286 0.053772777
-0.012796732 0.067396119 0.049091011
-0.011880207 0.067038313 0.053328067
-0.011161542 0.067827836 0.04811877
-0.010550566 0.069457896 0.039870769
-0.0094220638 0.067667551 0.04448998
-0.0086138956 0.068049774 0.049037725
-0.0077518714 0.068044208 0.048275024
-0.0069430582 0.068562701 0.043540657
-0.006048236 0.068258666 0.047011644
-0.0051768683 0.068162099 0.047204942
-0.0043183868 0.06823051 0.043952495
-0.0034741834 0.068615124 0.048212677
-0.0025891825 0.068181805 0.045079231
-0.0017183713 0.067875661 0.048142642
-0.00086750829 0.068533152 0.043477118
0 0.068056062 0.045487195
0.00086643157 0.068448089 0.04742521
0.0017361975 0.0685798 0.044074893
0.0026112555 0.068763062 0.043356448
0.0034538459 0.068213455 0.04215914
0.0043447055 0.068646349 0.046273321
0.005153541 0.067854956 0.045960814
0.0060687517 0.068490192 0.045336932
0.006859805 0.067740567 0.046602845
0.0077265739 0.067822151 0.044040769
0.0086635314 0.068441898 0.046238989
0.0094246957 0.067686446 0.049489081
0.010305888 0.067847095 0.044630378
0.011163098 0.067837283 0.048333973
0.012035887 0.067916788 0.043929905
0.013014628 0.068543702 0.046556383
0.013768123 0.067980103 0.045643479
0.014699322 0.068308614 0.043272138
0.015671 0.068778276 0.040733695
0.016129913 0.067066476 0.049931467
0.016764164 0.066218451 0.053295434
0.017817248 0.067026787 0.050923139
0.018391253 0.066041321 0.057869554
0.019250726 0.066122055 0.052319229
0.019938698 0.065631546 0.061245471
0.020945551 0.066187941 0.051539928
0.024088122 0.073190831 0.023975044
0.025857534 0.070439488 0.031242877
0.026649596 0.070177265 0.036320299
-0.022361919 0.07155814 0.03308633
-0.021635331 0.072117768 0.029748648
-0.019588124 0.074621424 0.017698795
-0.017379647 0.069518588 0.045721471
-0.016230026 0.068336949 0.051412791
-0.015250647 0.067780659 0.050653875
-0.014386622 0.06770175 0.052714288
-0.013575147 0.067875735 0.05281508
-0.012701893 0.067743428 0.05009535
-0.012001698 0.068581127 0.049382627
-0.011315477 0.069633707 0.042310923
-0.010288059 0.068587057 0.047143161
-0.0095950812 0.069782414 0.044133991
-0.0085583758 0.068467006 0.045140982
-0.0077885184 0.069231272 0.042298168
-0.0069053089 0.069053084 0.050095618
-0.0059951288 0.068515755 0.047108769
-0.0051679383 0.068905838 0.045006186
-0.0043082521 0.068932034 0.048355699
-0.0034548261 0.069096521 0.043597847
-0.0026044473 0.069451928 0.04182902
-0.0017383572 0.069534287 0.044699609
-0.00087080087 0.069664069 0.042284399
0 0.069712102 0.044102222
0.00087151839 0.069721468 0.042021334
0.0017243662 0.068974644 0.04383862
0.0026121603 0.069657609 0.043144375
0.0034012555 0.068025105 0.045152366
0.0043184157 0.06909465 0.04438588
0.0051894607 0.069192804 0.046249688
0.0060541346 0.069190107 0.044263124
0.0068837879 0.068837874 0.049067408
0.0077444031 0.06883914 0.046052158
0.0085900566 0.068720452 0.047029793
0.0095352521 0.069347285 0.041336745
0.010295947 0.068639651 0.049175173
0.011184959 0.068830512 0.045609713
0.012024286 0.068710208 0.046514332
0.012938508 0.069005378 0.045697689
0.013706109 0.068530545 0.045167655
0.014925892 0.070239484 0.042439044
0.015459236 0.068707712 0.047404438
0.016623806 0.069994971 0.040709764
0.016962804 0.067851216 0.051454514
0.017779913 0.067732997 0.053645641
0.018371982 0.06680721 0.054020882
0.019240184 0.066922374 0.056759626
0.019997962 0.066659875 0.056154758
0.020728193 0.066330217 0.054451585
0.022315782 0.068663947 0.045755297
0.025377268 0.0751919 0.011144698
0.027227182 0.075109459 0.014790952
0.026348911 0.070263758 0.035158128
0.0282018 0.072778836 0.02492097
-0.024248045 0.075541981 0.01829806
-0.02254949 0.073060341 0.029133469
-0.022738872 0.076743692 0.011526227
-0.018473219 0.071253844 0.037863314
-0.017124144 0.069352791 0.048946589
-0.016052062 0.068432465 0.054110199
-0.015182032 0.068319142 0.056265593
-0.014470021 0.068945393 0.053429246
-0.013511267 0.068400785 0.051666915
-0.012761157 0.068910249 0.050811708
-0.012122166 0.070135392 0.045775145
-0.011164803 0.069565311 0.044416934
-0.0103261 0.069701172 0.04628405
-0.0095385313 0.070238277 0.042487741
-0.0085118217 0.068945758 0.046553075
-0.0077761514 0.06998536 0.047774583
-0.006877115 0.069630787 0.045004517
-0.0060110539 0.069556475 0.047492325
-0.0052167107 0.070425592 0.045892715
-0.0043073646 0.069779307 0.045535713
-0.0034799285 0.070468552 0.04328993
-0.0026123319 0.070532963 0.042334646
-0.0017293893 0.070040263 0.043458819
-0.00086781016 0.070292622 0.040805757
0 0.0698862 0.045204431
0.00086219248 0.069837585 0.042287886
0.0017161223 0.06950295 0.045873195
0.0025630291 0.069201782 0.045848638
0.0034447897 0.069756985 0.042429417
0.0042816689 0.069363035 0.047376215
0.0051629301 0.069699556 0.044841021
0.0060156547 0.069609717 0.043620288
0.0069091418 0.069955058 0.045625955
0.007780991 0.070028923 0.04643622
0.0086086085 0.06972973 0.045525432
0.0094853016 0.06984631 0.045259714
0.010386314 0.070107624 0.044802547
0.011203629 0.069807224 0.045396537
0.012131365 0.070188612 0.046348512
0.012816699 0.069210172 0.046320587
0.013741535 0.069566518 0.047940582
0.014638526 0.069748268 0.047625333
0.015491541 0.069711931 0.044515729
0.016443379 0.070100717 0.045012265
0.017345 0.070247255 0.046773851
0.017797662 0.068648115 0.048296005
0.018548241 0.068291247 0.051894218
0.019241892 0.067764916 0.055562794
0.019989762 0.067465447 0.055865169
0.020886723 0.067672983 0.056214958
0.021639792 0.067416273 0.058830589
0.024085047 0.072255135 0.030245483
0.026674125 0.077164426 0.0094919205
0.026493592 0.071532696 0.036523968
0.027752275 0.072514005 0.032441258
-0.023847204 0.075210415 0.026134223
-0.022529561 0.073896959 0.030717105
-0.020203108 0.075302497 0.023309976
-0.018110937 0.070718899 0.050539315
-0.016991694 0.069665954 0.050688684
-0.016061233 0.069316909 0.052866548
-0.015346489 0.069911785 0.052920163
-0.014401069 0.069463983 0.051779836
-0.013614495 0.069774292 0.051283568
-0.013011904 0.071131743 0.046083093
-0.012081144 0.070760995 0.043818563
-0.011207471 0.070693284 0.041601121
-0.010366911 0.07084056 0.048554212
-0.0095016854 0.070830747 0.044712126
-0.0085769333 0.070330858 0.052047998
-0.007692806 0.070090018 0.049901098
-0.0068646758 0.070362926 0.045746982
-0.0060240026 0.070566885 0.047827452
-0.0051761749 0.070741057 0.046993136
-0.0043345261 0.071086235 0.044509977
-0.0034935181 0.071617126 0.045323491
-0.0025607008 0.06999249 0.045109421
-0.0017132522 0.070243336 0.048646271
-0.00086828182 0.071199112 0.044847697
0 0.070224591 0.044154942
0.00086702738 0.071096249 0.045301646
0.0017128937 0.070228644 0.046233088
0.0025707358 0.070266776 0.045085549
0.0034853946 0.071450591 0.044606745
0.0043049604 0.070601352 0.044008255
0.0052009015 0.071078993 0.042286634
0.0060148048 0.070459142 0.048496366
0.0068847421 0.070568606 0.045579761
0.0077589145 0.070692338 0.044598073
0.0085781273 0.070340648 0.049110025
0.0095568597 0.071242049 0.042681932
0.010299561 0.07038033 0.047240674
0.011212903 0.070727549 0.046090811
0.011983358 0.070188247 0.047710896
0.013036976 0.071268804 0.041212142
0.013627865 0.069842815 0.04810819
0.01459384 0.070393816 0.044665784
0.015374417 0.070039019 0.050747991
0.016375272 0.070672221 0.046016574
0.017195737 0.070502527 0.045557797
0.017981905 0.070215061 0.046244174
0.018586438 0.069276728 0.055495441
0.019364195 0.069037572 0.052315176
0.020267678 0.069247901 0.056124181
0.020976415 0.06880264 0.052371711
0.021509912 0.067838952 0.058372736
0.023156028 0.070325717 0.049065351
0.024336765 0.071271956 0.040332824
0.027147278 0.076761276 0.0133228
0.026968608 0.073714197 0.033908874
0.027181162 0.071898557 0.036070734
-0.023454364 0.074873552 0.028885961
-0.023008609 0.076388583 0.027031094
-0.021430369 0.077335678 0.019504219
-0.019606868 0.073971368 0.035675108
-0.017771445 0.070239522 0.052780122
-0.017240925 0.07154984 0.046894968
-0.016123565 0.070434518 0.053174496
-0.01519827 0.070080914 0.055351496
-0.014368608 0.070152618 0.051921308
-0.013666956 0.070897333 0.047129899
-0.013154937 0.072790653 0.039115429
-0.012151196 0.072039232 0.04766345
-0.01119185 0.071455657 0.046760261
-0.010285879 0.071144 0.046739876
-0.0094168978 0.071054779 0.048342586
-0.0086180568 0.071529873 0.046841532
-0.0077969818 0.071905501 0.042379439
-0.0069247955 0.071844757 0.043957472
-0.0060415003 0.071634933 0.044508636
-0.0051886593 0.071776457 0.046277404
-0.0043419353 0.072076127 0.047066987
-0.0034719703 0.072043382 0.044059336
-0.0025793153 0.071361057 0.047594637
-0.0017331816 0.071927041 0.049314797
-0.0008582999 0.07123889 0.047142029
0 0.071843661 0.047285467
0.00086498668 0.071793891 0.043607563
0.0017143156 0.071144097 0.047547549
0.0025952558 0.07180208 0.045134872
0.0034724481 0.072053298 0.043390691
0.0043037278 0.071441881 0.044726789
0.005193674 0.071845829 0.047065467
0.006057797 0.071828164 0.045941383
0.0069171549 0.071765482 0.04333666
0.0077932212 0.071870819 0.045244545
0.0086216377 0.071559593 0.044716746
0.0095199682 0.071832493 0.045692712
0.010391867 0.071877077 0.043660522
0.011225984 0.071673587 0.044970036
0.012086873 0.071657889 0.042651236
0.013025168 0.072072603 0.043936282
0.013657411 0.070847824 0.044719696
0.014616045 0.071360692 0.047602445
0.015606249 0.071962155 0.046046674
0.01635926 0.071464136 0.044538677
0.017283861 0.071728021 0.046632558
0.018193413 0.071907297 0.039042503
0.018620556 0.070250288 0.047002405
0.019493122 0.070344746 0.050811082
0.020196181 0.069845125 0.050231814
0.021107614 0.070077278 0.052631974
0.021713104 0.069314912 0.059273452
0.02256557 0.069368236 0.051400304
0.024801774 0.073519543 0.035285771
0.026280751 0.075217329 0.030777514
0.026783857 0.074102007 0.032177329
0.027319131 0.073144771 0.03800568
-0.023707462 0.076593339 0.02999118
-0.022620417 0.076004602 0.02818504
-0.022946894 0.080314137 0.0076251328
-0.021108624 0.077092364 0.027073026
-0.018963914 0.072407678 0.04898116
-0.017770093 0.071080372 0.05039385
-0.016891398 0.07094387 0.054619908
-0.016050965 0.070962161 0.051621944
-0.015293702 0.071370617 0.050936103
-0.014640171 0.072339669 0.050607532
-0.013912003 0.073038019 0.04212147
-0.013083964 0.073270202 0.04460609
-0.012064138 0.072384834 0.045516491
-0.011239761 0.072626144 0.045520186
-0.010386676 0.072706729 0.046215504
-0.0094443448 0.07212045 0.047650367
-0.0085707968 0.0719947 0.046555638
-0.0078097312 0.072890826 0.046462834
-0.006876946 0.072207935 0.046298146
-0.0060326336 0.072391607 0.044987559
-0.0051516974 0.072123766 0.049476326
-0.0043251454 0.07266245 0.04374972
-0.0034525718 0.072504006 0.044180542
-0.0025789212 0.07220979 0.046472877
-0.0017228869 0.072361253 0.046043903
-0.00086270424 0.072467156 0.04633078
0 0.072838314 0.045901239
0.00085739332 0.072021037 0.04461211
0.0017228869 0.072361253 0.047213495
0.0025928845 0.072600767 0.046258062
0.0034110406 0.071631856 0.044275999
0.0043358859 0.072842889 0.044728309
0.0051835598 0.07256984 0.043342531
0.0060276217 0.072331458 0.044223875
0.0069494951 0.072969705 0.044508249
0.007739929 0.072239339 0.046486706
0.0085880971 0.072140023 0.04490912
0.0095847668 0.073192768 0.04135108
0.010344445 0.072411112 0.046000779
0.011173079 0.072195277 0.0436593
0.012080003 0.072480015 0.0474011
0.01284513 0.071932726 0.046967596
0.01375363 0.072206557 0.045031309
0.01460267 0.072154365 0.048914224
0.015498663 0.0723271 0.045236796
0.016448501 0.072719686 0.045637101
0.01714173 0.071995266 0.047801346
0.017980346 0.071921386 0.04545933
0.018890502 0.072127379 0.045715719
0.01956974 0.071472086 0.053431094
0.020363403 0.071271919 0.051064551
0.021149218 0.071061373 0.053868473
0.021583065 0.069729909 0.055980414
0.022510929 0.070034005 0.055042654
0.024256004 0.07276801 0.044460356
0.025713569 0.074480675 0.03150028
0.026799107 0.075037502 0.032161295
0.027311087 0.074004233 0.039510041
-0.023559339 0.077020921 0.030547529
-0.022716183 0.077235021 0.025741935
-0.022262283 0.078845583 0.023197323
-0.020830907 0.076983787 0.029131711
-0.018808918 0.072670825 0.048861146
-0.017896229 0.072437115 0.05196479
-0.016831648 0.071534507 0.053734511
-0.016153805 0.072267026 0.04978469
-0.015314946 0.07232058 0.052292794
-0.01451223 0.072561145 0.051845342
-0.01390689 0.073880352 0.045366168
-0.01313905 0.074454613 0.042175591
-0.012066393 0.073260248 0.045493513
-0.011322433 0.074031293 0.04382804
-0.010425071 0.073844261 0.046883702
-0.0095431991 0.073742904 0.042880356
-0.0086857202 0.07382863 0.047915488
-0.0078090047 0.073751718 0.044101894
-0.0069731772 0.074090004 0.041814238
-0.0060216533 0.07312008 0.047755808
-0.0052242372 0.074010029 0.043225199
-0.0042865798 0.072871856 0.049166739
-0.0034785005 0.073918134 0.045589566
-0.002586564 0.073285982 0.047308236
-0.0017313204 0.073581114 0.045161784
-0.00086805376 0.073784567 0.046712905
0 0.073581994 0.041798413
0.00086411723 0.073449962 0.045400769
0.0017291732 0.07348986 0.044732362
0.0025656298 0.072692841 0.046902627
0.0035083208 0.074551821 0.04265523
0.0042606364 0.072430827 0.050860465
0.0051884549 0.073503114 0.043845415
0.0060696602 0.073703021 0.044058412
0.0068629761 0.072919123 0.047109574
0.0078444248 0.074086241 0.042575389
0.0086916834 0.073879309 0.04395628
0.0094310502 0.072876297 0.048270196
0.010328489 0.073160134 0.046979129
0.011185261 0.073134407 0.045449525
0.012072234 0.073295705 0.045207411
0.013004048 0.073689602 0.042557091
0.01374955 0.073044486 0.045962155
0.014530464 0.072652318 0.046672761
0.015602389 0.073677957 0.045881331
0.016365491 0.073214039 0.045590281
0.016979389 0.072162405 0.044584155
0.018246472 0.073854767 0.044126004
0.019225584 0.074280672 0.041285396
0.019537963 0.072205514 0.048139989
0.020397445 0.072240956 0.053706318
0.020811137 0.070757866 0.055032045
0.021731606 0.07104563 0.056047469
0.022832224 0.071879223 0.054824531
0.023962228 0.072742477 0.050697833
0.025959438 0.076088004 0.031032264
0.027060451 0.07667128 0.028647482
0.027354514 0.075004309 0.037610829
0.030119194 0.080004111 0.015412539
-0.025946017 0.082642868 0.0083277822
-0.023650985 0.078230187 0.027533531
-0.022811726 0.078472331 0.028251737
-0.022183817 0.07949201 0.02101931
-0.020319264 0.075976372 0.037711501
-0.018771835 0.073380806 0.052241236
-0.017808346 0.072929412 0.04896158
-0.017083865 0.073460624 0.051873207
-0.016203275 0.073341139 0.052212715
-0.015291058 0.073057279 0.051551461
-0.014793405 0.074837223 0.043718487
-0.013831173 0.074342556 0.045819551
-0.013036731 0.074743919 0.041034132
-0.012066908 0.074125297 0.047090828
-0.011206663 0.074136384 0.045426279
-0.010310346 0.073890813 0.047431856
-0.0096399309 0.075366735 0.04145208
-0.0086407606 0.074310541 0.044958889
-0.0077358237 0.073920093 0.046987802
-0.0070077605 0.075333424 0.042174339
-0.0060394392 0.074198827 0.046110153
-0.0052086939 0.074657947 0.042249411
-0.0043451912 0.074737288 0.044444382
-0.0034802998 0.074826449 0.041989654
-0.0026120679 0.074879281 0.042705864
-0.0017340127 0.07456255 0.046760142
-0.00086302002 0.074219719 0.044185281
0 0.074830025 0.045139253
0.00086516608 0.074404284 0.046402901
0.0017270977 0.074265197 0.046497881
0.0025857792 0.07412567 0.043540418
0.0034624168 0.074441962 0.044016391
0.0043055513 0.074055485 0.044396728
0.0052702082 0.075539649 0.045110524
0.006045281 0.074270599 0.048351288
0.0068704374 0.073857203 0.045345157
0.0077894628 0.074432649 0.04555741
0.0085352762 0.073403373 0.049607366
0.0095324274 0.07452625 0.044646204
0.010439056 0.074813239 0.046740621
0.01115554 0.073798187 0.041446149
0.01200435 0.073741011 0.045613289
0.013034943 0.074733675 0.045013607
0.013757786 0.0739481 0.044080168
0.014785305 0.074796245 0.046672761
0.015403617 0.073595062 0.047525495
0.01638996 0.074186139 0.044352233
0.017298218 0.074382342 0.046538234
0.018085897 0.07406605 0.046770722
0.018866125 0.073749401 0.045216978
0.01983192 0.074154131 0.049448729
0.020187104 0.072337121 0.051512778
0.020992441 0.072213992 0.051814675
0.021865949 0.072325826 0.054448307
0.02251064 0.071700558 0.055177331
0.023458784 0.07205198 0.05419293
0.026101444 0.077404283 0.02954179
0.027765494 0.079594418 0.023733944
0.027449341 0.076149784 0.032360762
0.029970773 0.080546446 0.016141683
-0.026075548 0.084021203 0.0053745508
-0.023655832 0.079156049 0.029208094
-0.022874329 0.079602666 0.025905907
-0.022356555 0.081042513 0.018700629
-0.019977693 0.075567789 0.046068072
-0.018701959 0.073957749 0.051524192
-0.017852904 0.073962033 0.050340652
-0.017094109 0.07435938 0.05225113
-0.01613499 0.073881269 0.05078119
-0.015328178 0.074086197 0.050382018
-0.01488496 0.076175965 0.041981429
-0.013828806 0.075194128 0.044867158
-0.012944266 0.075076744 0.047848433
-0.012040677 0.074824199 0.048948288
-0.011111852 0.074363932 0.044378579
-0.010490845 0.076058626 0.044643939
-0.0095707504 0.075695932 0.041478336
-0.0086154537 0.07495445 0.045150101
-0.0077945557 0.075347371 0.044461697
-0.006931229 0.075377114 0.042795926
-0.0060955388 0.075758837 0.04275018
-0.0052027879 0.075440422 0.046350271
-0.0043495013 0.075681329 0.044087797
-0.0034673023 0.075413823 0.043755352
-0.002613758 0.075798981 0.04218334
-0.0017182218 0.074742652 0.046140194
-0.00086763891 0.075484589 0.043113828
0 0.074966446 0.04687953
0.00085500744 0.074385643 0.044114798
0.0017309724 0.075297303 0.044877052
0.0025767579 0.074725986 0.046234846
0.0034582459 0.075216852 0.042706788
0.0043197125 0.075162999 0.046113491
0.005176336 0.075056873 0.045897514
0.0060392413 0.075059138 0.04472807
0.0068716574 0.074729271 0.04994449
0.0077784727 0.075191908 0.043556243
0.0086071147 0.074881896 0.047056198
0.009490164 0.075058572 0.047672689
0.010210689 0.074027494 0.049146414
0.011230301 0.075156637 0.043211311
0.012189903 0.075751543 0.045327753
0.012846914 0.074512102 0.045681119
0.013887865 0.07551527 0.043152511
0.014584385 0.074637733 0.046005785
0.015426753 0.074562639 0.046048582
0.016224327 0.074290335 0.046162575
0.017072685 0.07426618 0.049870729
0.017837912 0.073899917 0.041700602
0.018958509 0.074972287 0.049786896
0.019909279 0.075309008 0.044235855
0.020253802 0.073420033 0.051248372
0.021177899 0.073699079 0.053334266
0.021642897 0.072420463 0.054325163
0.022547225 0.072652169 0.053127587
0.023714701 0.073684961 0.056970835
0.025203837 0.075611509 0.042102784
0.028187996 0.081745185 0.012787879
0.02742604 0.076969855 0.038261592
0.029512493 0.080237091 0.017677844
-0.026111737 0.08510492 0.0066553056
-0.023628086 0.079971984 0.02821824
-0.022746531 0.080067784 0.024085432
-0.022768686 0.083485179 0.01162833
-0.019656871 0.075208895 0.048898131
-0.018645132 0.074580528 0.051759005
-0.017924797 0.075113431 0.052788615
-0.017035246 0.074955083 0.046894521
-0.016004521 0.074126199 0.053086668
-0.015475475 0.075657882 0.046405345
-0.014778078 0.076498285 0.045362979
-0.013969176 0.076830469 0.043153822
-0.013080351 0.07673806 0.040325046
-0.012001073 0.075435318 0.046018332
-0.011284029 0.076384194 0.0455935
-0.01038823 0.076180354 0.041715801
-0.0096377917 0.077102333 0.042099625
-0.0087359818 0.07687664 0.040411532
-0.0077690575 0.075964123 0.045462549
-0.0069595268 0.076554798 0.040368199
-0.0060448442 0.075992323 0.045300156
-0.0051439824 0.075445071 0.046707153
-0.0043195435 0.076023966 0.04382664
-0.003480976 0.076581471 0.046019197
-0.002582917 0.075765565 0.043376118
-0.0017418603 0.07664185 0.043376803
-0.00086724578 0.076317623 0.043258071
0 0.075453162 0.044901818
0.00086891319 0.076464362 0.044877857
0.0017151815 0.075467989 0.046616375
0.0025872046 0.075891338 0.044066936
0.0034314313 0.075491488 0.047567487
0.0043275822 0.076165445 0.043540806
0.0051747072 0.075895704 0.044182509
0.0060740202 0.076359108 0.045014352
0.0068337782 0.07517156 0.044869453
0.007792634 0.076194644 0.043747902
0.0086020315 0.075697877 0.044007331
0.0094806319 0.075845055 0.045457125
0.010381801 0.076133206 0.04435876
0.01116951 0.075608991 0.045141101
0.012051067 0.075749561 0.043685287
0.012891104 0.075627804 0.047085553
0.013709254 0.075400896 0.044296324
0.014564651 0.075393483 0.046743393
0.015474405 0.075652644 0.048047423
0.016285958 0.075429693 0.048755974
0.016957922 0.07461486 0.049345136
0.017983498 0.075359412 0.046270281
0.018660832 0.074643329 0.049404144
0.019830547 0.075873397 0.042215049
0.020417338 0.074863575 0.05186376
0.020773096 0.073121294 0.053330332
0.021840258 0.073920868 0.05408299
0.022651028 0.073825568 0.05198282
0.023469485 0.07376124 0.051926821
0.024966804 0.075761333 0.046215355
0.028732844 0.084283002 0.0081011057
0.027548034 0.078200862 0.029548287
0.029831564 0.082036801 0.015745074
-0.023638846 0.080917582 0.026112527
-0.023964364 0.085313134 0.0088401437
-0.022192014 0.082295381 0.02253142
-0.019703947 0.076245703 0.051415861
-0.018739937 0.075811557 0.052516341
-0.017796785 0.07542447 0.049931347
-0.01704769 0.075862221 0.048058867
-0.016140699 0.075606428 0.05408141
-0.015548678 0.076879576 0.044382989
-0.014739972 0.077168085 0.04300794
-0.013861907 0.077106848 0.045034289
-0.012931603 0.076727509 0.043206453
-0.012157981 0.077290021 0.042853266
-0.011202296 0.076692641 0.046854436
-0.010404176 0.077164307 0.040813267
-0.0095312698 0.077116638 0.044457406
-0.0087397089 0.077783413 0.043103546
-0.0078062015 0.077194661 0.042534709
-0.0070296503 0.078204855 0.03977564
-0.0060599875 0.077048413 0.043967038
-0.0051801926 0.076839522 0.045730352
-0.0043568439 0.077551827 0.044446319
-0.0034462877 0.0766799 0.045947313
-0.0026274442 0.077947512 0.039615512
-0.0017183248 0.07646545 0.047805965
-0.00086351507 0.076852836 0.043425739
0 0.076784194 0.047830343
0.00086393167 0.07688991 0.044211388
0.0017127299 0.076216482 0.047996461
0.0025965541 0.077031106 0.043829441
0.0034648569 0.077093065 0.044923633
0.004325896 0.077000946 0.04263702
0.0051984042 0.077109657 0.046277851
0.0060687358 0.077159643 0.041800797
0.0068496959 0.076202862 0.045107633
0.0077328309 0.076469108 0.044724524
0.008608209 0.076613061 0.046745062
0.0094618937 0.076555319 0.044148028
0.010425595 0.077323161 0.045525223
0.011134239 0.076226711 0.043903768
0.012063875 0.076691777 0.044376105
0.012918219 0.076648101 0.043872654
0.01374486 0.076455779 0.042298436
0.014544855 0.076146588 0.047646552
0.015514428 0.076710224 0.045810103
0.016062751 0.075241305 0.047279596
0.017067904 0.075952165 0.050793529
0.018020228 0.076371439 0.049883783
0.018669328 0.075525917 0.046905696
0.020042917 0.07755737 0.043880552
0.020333886 0.075404823 0.047249407
0.021161715 0.075335696 0.049809039
0.021844232 0.074774489 0.0565494
0.022530096 0.074265867 0.054663748
0.023546956 0.074845687 0.052635878
0.024867618 0.076317862 0.047212332
0.0278327 0.082570337 0.0152677
0.028597035 0.082101159 0.021176249
0.030322928 0.08433564 0.013481945
-0.02372664 0.082130685 0.02688235
-0.0217498 0.081561752 0.026605248
-0.019720808 0.077168383 0.049274087
-0.018651573 0.076301895 0.049732119
-0.017807294 0.076316968 0.05187726
-0.017170541 0.077267438 0.049910903
-0.016022602 0.075896539 0.052388757
-0.015704086 0.07852044 0.041696906
-0.014785688 0.078277178 0.044292688
-0.013804127 0.077648215 0.040516436
-0.013048677 0.078292064 0.044467598
-0.012094081 0.077747673 0.045636684
-0.01115305 0.077213421 0.042952836
-0.010450729 0.078380473 0.042171121
-0.0096184304 0.078696251 0.041674435
-0.0086440677 0.077796616 0.042414486
-0.0078694895 0.078694902 0.04241693
-0.0068788803 0.077387407 0.046130419
-0.0061038095 0.078477554 0.042040288
-0.0052081272 0.078121915 0.047371477
-0.0043554166 0.078397505 0.04161498
-0.00347943 0.078287177 0.040259808
-0.0025864267 0.077592805 0.04461512
-0.0017132455 0.077096052 0.045424819
-0.0008644234 0.077798106 0.04371196
0 0.077129088 0.04459253
0.00086014019 0.07741262 0.041998655
0.0017333523 0.078000858 0.047257036
0.0025951713 0.077855147 0.04494825
0.0034642017 0.077944539 0.043353081
0.0043325154 0.077985279 0.042780846
0.0051610172 0.077415265 0.043493271
0.0060142926 0.077326626 0.045799375
0.0069416882 0.078093998 0.04841435
0.0077806357 0.077806361 0.044367671
0.0085750809 0.077175736 0.044151068
0.0095255431 0.077936269 0.045194924
0.01031444 0.077358305 0.046404868
0.011196336 0.077513099 0.042429566
0.012045804 0.077437319 0.047991067
0.012805235 0.076831408 0.048105836
0.013692848 0.077022277 0.047292978
0.014570466 0.077137761 0.046907932
0.015425948 0.077129751 0.044145465
0.016059861 0.076073028 0.049393743
0.016754616 0.075395778 0.049910903
0.017813532 0.076343708 0.046696693
0.018850217 0.077114522 0.045668989
0.019897033 0.077857956 0.044237405
0.020408608 0.076532289 0.047889471
0.021390967 0.07700748 0.04926008
0.021570234 0.074666195 0.05777809
0.022481287 0.074937627 0.054777265
0.023482958 0.075480938 0.056525081
0.024520595 0.076098397 0.049679548
0.02693513 0.080805391 0.029973418
0.028916569 0.083951332 0.017795712
0.030367611 0.085408904 0.010983855
-0.024030197 0.084105693 0.022500724
-0.021728167 0.082385972 0.033998519
-0.019710233 0.077983968 0.049271405
-0.018742142 0.077524319 0.04975298
-0.017761579 0.076966844 0.053535789
-0.016972478 0.077224784 0.051166862
-0.016100893 0.077114806 0.050673872
-0.015764082 0.079696193 0.040747911
-0.014716147 0.078774668 0.043033272
-0.013832833 0.078674242 0.046720982
-0.012841135 0.077902891 0.046582669
-0.012051811 0.078336768 0.045683473
-0.011253668 0.078775682 0.045710921
-0.010442972 0.079192542 0.040817201
-0.0095053846 0.078635462 0.04203248
-0.0086727059 0.078921624 0.043604255
-0.0078053409 0.078920677 0.046769023
-0.0069070444 0.078567632 0.044393599
-0.0060892915 0.079160795 0.043301731
-0.0051632356 0.078309074 0.046038091
-0.0043456424 0.0790907 0.04213956
-0.0035191756 0.080061249 0.044471294
-0.0025709446 0.077985324 0.044662446
-0.0017328956 0.078846753 0.040834159
-0.00086966617 0.07913962 0.045091599
0 0.078398615 0.043688536
0.00086282869 0.078517415 0.043188989
0.0017344414 0.078917086 0.046541899
0.0026023369 0.078937553 0.041451871
0.0034475937 0.078432754 0.045470089
0.0042757862 0.077819318 0.045992076
0.0051921285 0.07874728 0.044444829
0.006071398 0.07892818 0.045108914
0.0068970579 0.07845404 0.046747625
0.0078106909 0.078974769 0.043154955
0.0086435806 0.078656591 0.046433538
0.009402087 0.07778091 0.047001243
0.010363097 0.078586832 0.043669879
0.011179504 0.078256533 0.047517449
0.011971116 0.077812254 0.047180921
0.012867873 0.078065097 0.045418143
0.013553363 0.077084757 0.048431993
0.014427317 0.077228583 0.047880739
0.015415528 0.077934064 0.046070069
0.016011745 0.076687828 0.049105883
0.016891714 0.076857306 0.046653539
0.018216716 0.078939103 0.044391453
0.018607607 0.076967835 0.052864015
0.019674733 0.07784351 0.044617355
0.020847816 0.07904797 0.04332906
0.02127713 0.077448756 0.046123952
0.021743812 0.076103345 0.055088758
0.022608608 0.076199383 0.056646407
0.023541804 0.076510869 0.055474579
0.024314836 0.076298274 0.050886601
0.027207127 0.082528286 0.030123413
0.028516982 0.08371114 0.020442277
-0.023795156 0.084198244 0.023105294
-0.024075622 0.088598289 0.0064771175
-0.021622436 0.08288601 0.032769889
-0.019576743 0.078306973 0.047630966
-0.01880379 0.078634039 0.050366879
-0.017768156 0.077841446 0.051750124
-0.017087922 0.078604445 0.05004701
-0.016239913 0.078635365 0.051406205
-0.015696762 0.080227897 0.039680928
-0.014743491 0.079788305 0.044909894
-0.013891835 0.079878055 0.04253912
-0.012979363 0.079606757 0.045013368
-0.011966283 0.078635573 0.048390627
-0.011202005 0.079275727 0.04297772
-0.010314706 0.079079412 0.043361038
-0.0096459398 0.080675133 0.040987939
-0.0086466111 0.079548821 0.047786564
-0.0078000329 0.07973367 0.04503262
-0.0070587168 0.081175245 0.04056707
-0.0060198549 0.079118095 0.044941843
-0.0051960819 0.07967326 0.044135511
-0.0043679411 0.080370121 0.045444191
-0.0034649733 0.07969439 0.043211132
-0.0025822052 0.079187624 0.042498946
-0.0017478794 0.080402456 0.042048007
-0.00086158741 0.079266042 0.044282734
0 0.080315948 0.041525543
0.00087406643 0.080414109 0.040669709
0.0017135328 0.078822508 0.045114249
0.0026041321 0.079860054 0.043853819
0.0034528514 0.07941559 0.044375837
0.0043094126 0.079293199 0.042496979
0.0051743351 0.07933981 0.044016659
0.0060410663 0.079396874 0.04572615
0.0068091834 0.07830561 0.047815412
0.0078374613 0.080116279 0.04313153
0.0086050266 0.079166248 0.046194434
0.009461673 0.079133995 0.043340266
0.010301876 0.078981049 0.051510572
0.011148728 0.078898691 0.04532969
0.0119879 0.078777634 0.044494629
0.013028355 0.079907246 0.047032475
0.013587814 0.078129932 0.0448668
0.014585025 0.078930721 0.050704718
0.015442434 0.078928001 0.049132138
0.016025621 0.077597745 0.05183363
0.017207816 0.079155959 0.046557039
0.017756939 0.077792302 0.049210101
0.018728074 0.078317404 0.045667201
0.019700924 0.078803696 0.048081875
0.020496253 0.078568973 0.050115883
0.021178124 0.077935494 0.049989998
0.021924786 0.077580012 0.054442197
0.022726059 0.077436939 0.05289197
0.023628674 0.077637076 0.051697642
0.024623146 0.078114808 0.053514659
0.027018184 0.082855761 0.028115779
0.028007446 0.083118871 0.027210057
-0.024185918 0.086511165 0.021693856
-0.0232918 0.086645491 0.018590748
-0.021351634 0.08273758 0.034649253
-0.019770617 0.079942062 0.049170375
-0.018631717 0.078761347 0.054158658
-0.017836904 0.078992002 0.049278051
-0.017001452 0.079056755 0.050067067
-0.016006703 0.078348599 0.052873135
-0.015737297 0.081309371 0.040300012
-0.014772742 0.080815591 0.045312524
-0.013832949 0.080404021 0.043394148
-0.013049706 0.080908179 0.043611765
-0.012044488 0.080009818 0.045277506
-0.011124096 0.079580076 0.044046432
-0.010518495 0.081518337 0.04452461
-0.0094865272 0.080204278 0.042865276
-0.0086115897 0.080087788 0.046501637
-0.007817666 0.080782555 0.044271648
-0.0069460617 0.080747969 0.042183697
-0.0060477294 0.08034841 0.04320696
-0.0051971516 0.080555849 0.04653421
-0.0043162536 0.080282323 0.046321929
-0.0034732874 0.08075393 0.042403519
-0.0026123242 0.080982052 0.042499423
-0.0017260151 0.080259703 0.045659631
-0.00086236192 0.080199659 0.045398742
0 0.080525778 0.043498337
0.0008625401 0.080216229 0.047132909
0.0017497715 0.081364371 0.043972939
0.0026433261 0.08194311 0.040670186
0.0034222133 0.079566456 0.045206666
0.0042954679 0.079895712 0.045086682
0.0051864618 0.080390163 0.044562638
0.0060123964 0.079878986 0.042684406
0.0069213589 0.080460802 0.048644274
0.0077385758 0.079965293 0.042039067
0.0085611213 0.079618432 0.046335399
0.0094088111 0.079547226 0.048351049
0.010355357 0.080254018 0.047611654
0.011155736 0.079806417 0.04715696
0.011929809 0.079248019 0.049100101
0.012799538 0.079357132 0.046223253
0.013701913 0.07964237 0.047002375
0.014521552 0.079441436 0.046546817
0.015421161 0.07967601 0.045663863
0.016251313 0.0795459 0.048933744
0.01702518 0.07916709 0.046768844
0.017880499 0.079185069 0.044793934
0.018866569 0.079754137 0.045689702
0.019724246 0.079754561 0.048174143
0.020753987 0.080421701 0.043281943
0.021185815 0.078811236 0.053092718
0.021599963 0.077261411 0.05645141
0.022491228 0.077469781 0.055755168
0.023607474 0.078410544 0.055888325
0.024369176 0.078149423 0.050049275
0.026761765 0.08296147 0.029545754
0.028111501 0.0843345 0.02797693
-0.024576118 0.088852115 0.011966467
-0.023264132 0.087473139 0.018770099
-0.021668371 0.084867783 0.034250945
-0.019586584 0.080049515 0.049901813
-0.018634463 0.079619981 0.050809383
-0.01782207 0.079774983 0.054349035
-0.017002728 0.079912826 0.049043357
-0.016096996 0.079637766 0.049831718
-0.015781965 0.082416937 0.041724741
-0.014666774 0.081098631 0.044362277
-0.013984734 0.082160316 0.04204151
-0.013009563 0.0815266 0.043563962
-0.011934006 0.080128327 0.048218668
-0.01131693 0.081830114 0.043381274
-0.010360305 0.081155725 0.044357568
-0.0096079018 0.082103886 0.040088296
-0.0086548887 0.081355952 0.045455217
-0.0077855643 0.081315897 0.043178946
-0.0069403164 0.081548721 0.04251644
-0.0061108521 0.082060009 0.045058489
-0.0051501147 0.080685131 0.044253051
-0.0043613464 0.081993312 0.041809112
-0.0034777739 0.081727684 0.047460884
-0.0025772222 0.080752961 0.045087606
-0.00173883 0.081725009 0.041740477
-0.00086574256 0.081379801 0.04311794
0 0.081385627 0.041266084
0.00086758262 0.081552766 0.043189198
0.0017293328 0.081278645 0.043663651
0.0025966319 0.08136113 0.044446528
0.0034523697 0.081130691 0.046986014
0.0043040696 0.080916516 0.045583993
0.0051458413 0.08061818 0.044585407
0.0060398099 0.081106015 0.045200944
0.0068690996 0.080711924 0.0456025
0.0078144055 0.081617132 0.039784461
0.0086139422 0.080971062 0.048446029
0.009315487 0.079605073 0.049700975
0.010292665 0.080625877 0.045496792
0.011219749 0.08112742 0.044093251
0.012021212 0.080713853 0.046225429
0.013081636 0.081978254 0.041713178
0.0135349 0.079517536 0.049870908
0.014545786 0.080429643 0.04412505
0.015362466 0.080226213 0.047512531
0.016120655 0.079754822 0.04807657
0.016963597 0.079728909 0.04731214
0.018074786 0.080906183 0.044887751
0.018768776 0.080193862 0.047063321
0.019744705 0.080695756 0.043975234
0.020624489 0.080779247 0.046007574
0.021034887 0.079091176 0.050764561
0.021738989 0.078594804 0.053031743
0.022633947 0.078799672 0.053402543
0.023589484 0.079193264 0.054436177
0.024247564 0.078595549 0.052792788
0.027826844 0.087190777 0.019488961
0.028499693 0.08641842 0.025002003
-0.023366643 0.08879324 0.019233346
-0.021784218 0.086229198 0.023547679
-0.019587925 0.080906644 0.046983421
-0.018841721 0.081361979 0.051136523
-0.017828302 0.08065185 0.050242454
-0.016958874 0.080554649 0.053234994
-0.016085763 0.080428809 0.053762615
-0.015619533 0.082436427 0.042009592
-0.014661608 0.081932515 0.042843789
-0.013762565 0.081715234 0.049179107
-0.012982735 0.082223989 0.044274718
-0.01226186 0.083205476 0.045061201
-0.011188043 0.081758775 0.04615581
-0.010424964 0.082530968 0.040822238
-0.0095757851 0.082699962 0.044881403
-0.0086494572 0.082169853 0.045856863
-0.0078207133 0.082551979 0.042134672
-0.0069848364 0.08294493 0.044794083
-0.0061153248 0.082993694 0.040216804
-0.0051575569 0.081661314 0.046553642
-0.004365433 0.082943231 0.044799209
-0.0034575579 0.082116999 0.04197666
-0.0026325537 0.083364204 0.039889336
-0.0017320438 0.082272083 0.044208765
-0.00086235144 0.081923388 0.043900669
0 0.082402676 0.044304222
0.00086869916 0.082526423 0.042690456
0.0017338237 0.082356624 0.042476475
0.0025837896 0.081820004 0.043401301
0.0034689477 0.082387507 0.047268242
0.0042402656 0.08056505 0.044799238
0.0052301632 0.082810916 0.044204563
0.0060742181 0.082435817 0.044321507
0.0068685804 0.081564389 0.048352927
0.0077518537 0.081825122 0.046832085
0.0086488649 0.082164221 0.041207105
0.0093774721 0.08098726 0.046897739
0.010388673 0.082243666 0.043929517
0.01118496 0.081736244 0.043285906
0.012051851 0.081780411 0.042191505
0.012977398 0.082190193 0.044345915
0.01363452 0.080954954 0.043298513
0.014647502 0.08185368 0.048391879
0.015462709 0.081608742 0.045921326
0.016167959 0.08083979 0.047717869
0.0169091 0.080318227 0.04894489
0.017795956 0.080505505 0.046971947
0.01866317 0.080590963 0.048482567
0.019758221 0.081610039 0.045704007
0.020429634 0.080867305 0.049109012
0.021128276 0.080287449 0.048746645
0.021769982 0.079544164 0.056317806
0.022543026 0.079318047 0.054319978
0.023554809 0.079918101 0.053151101
0.024699153 0.080911018 0.050561994
0.02752381 0.087158732 0.021489859
-0.023064982 0.088569529 0.021376789
-0.022286216 0.089144863 0.021024734
-0.019816542 0.082712524 0.052095532
-0.01884805 0.082246035 0.048005253
-0.017701376 0.08092057 0.051422119
-0.016963536 0.081424974 0.052897036
-0.016068822 0.081189841 0.051173657
-0.015497711 0.082654469 0.046677351
-0.014817504 0.08367531 0.047250867
-0.013747225 0.082483344 0.044482738
-0.012972748 0.08302559 0.046667278
-0.012074921 0.082799457 0.045059472
-0.011190978 0.082641073 0.042360723
-0.010325206 0.082601652 0.050993055
-0.0096290614 0.084035449 0.040944219
-0.0086736213 0.083266772 0.03928706
-0.0077666854 0.082844652 0.045596421
-0.00693679 0.083241478 0.041686177
-0.0060670553 0.083205327 0.039340407
-0.0051898616 0.083037786 0.048258454
-0.004333918 0.083211228 0.043445885
-0.0034724444 0.083338663 0.041952968
-0.0025862441 0.082759812 0.04449147
-0.0017303545 0.083057016 0.042025596
-0.00087152916 0.083666801 0.042690039
0 0.083678424 0.041290849
0.00086488848 0.083029293 0.044492513
0.0017206307 0.082590275 0.045488209
0.0025933587 0.08298748 0.044349164
0.0034347365 0.082433671 0.042806745
0.0043247286 0.083034791 0.043849081
0.0051887943 0.083020709 0.042329907
0.0060031479 0.082328878 0.044581085
0.0069173458 0.083008148 0.04476878
0.0076642539 0.081752047 0.049295336
0.0085835252 0.082401842 0.046755642
0.0095918989 0.083711118 0.040944248
0.010261909 0.082095273 0.045801312
0.011113937 0.082072154 0.042526603
0.012126357 0.083152167 0.047998637
0.012848318 0.082229234 0.046999127
0.013690348 0.082142085 0.045525491
0.014583856 0.082355887 0.04400447
0.015376161 0.082006194 0.046203464
0.016256755 0.082139395 0.048946679
0.016860489 0.080930352 0.050078064
0.017879197 0.081733465 0.044955879
0.018854562 0.082274452 0.044879138
0.019591881 0.081774801 0.045346767
0.020297389 0.081189558 0.050786108
0.021304298 0.0818085 0.050423652
0.021445425 0.079183102 0.058392733
0.022635784 0.080482781 0.052680165
0.023763521 0.081474923 0.053783745
0.02465269 0.081608899 0.048522651
0.027513674 0.088043757 0.021075666
-0.023607891 0.091598615 0.011332959
-0.023082839 0.093293138 0.0092995763
-0.019852914 0.083727501 0.044729352
-0.018645974 0.082211792 0.051907122
-0.017823052 0.082325526 0.05160597
-0.017137377 0.083116278 0.045503974
-0.016193528 0.082672216 0.052304745
-0.015535784 0.083720617 0.04747963
-0.014636958 0.083516762 0.047460854
-0.01397531 0.084725313 0.042894214
-0.012919176 0.083544008 0.043419212
-0.011963577 0.082890496 0.047971368
-0.011233887 0.083822079 0.045108497
-0.010439453 0.084385574 0.042458177
-0.0094880443 0.083667301 0.04231891
-0.0086651286 0.084051743 0.046349883
-0.0078811646 0.084941447 0.038769245
-0.0069048749 0.083721608 0.043463528
-0.0060851667 0.084323019 0.046499044
-0.0051861936 0.083843462 0.043301255
-0.0043335231 0.084070347 0.044061095
-0.0034875316 0.084572636 0.042711228
-0.0026007697 0.084091559 0.04294914
-0.0017223762 0.083535247 0.047595561
-0.0008747658 0.084852278 0.041836143
0 0.084180012 0.041954726
0.00086321059 0.08373142 0.045936763
0.0017256946 0.083696187 0.046671152
0.002584415 0.083562754 0.043162465
0.0034590892 0.083882906 0.04664579
0.0043361895 0.084122077 0.044250697
0.0051893932 0.083895192 0.040954888
0.0060304198 0.083564393 0.043702453
0.0068873377 0.083508968 0.043463528
0.0077969199 0.084033467 0.041826218
0.0085857455 0.083281733 0.048695803
0.0094873933 0.083661556 0.043977559
0.010301557 0.083270922 0.044803798
0.011227727 0.083776116 0.043734401
0.011985964 0.083045602 0.045365483
0.012879204 0.083285518 0.045740604
0.013728983 0.083231956 0.045925945
0.014418542 0.082270503 0.043387353
0.015605051 0.084093891 0.043809146
0.016207023 0.082741112 0.048232168
0.016975202 0.082329728 0.047421634
0.017942362 0.082876615 0.046800435
0.018880302 0.083244964 0.045705706
0.019746769 0.083279856 0.043333054
0.020565562 0.083119147 0.048935205
0.021128062 0.081976883 0.053257912
0.021716179 0.081018053 0.055378914
0.02256866 0.081079997 0.053761929
0.023619268 0.081823885 0.054131627
0.025046701 0.083776891 0.043127805
0.028233893 0.091289587 0.013664186
-0.022738988 0.092850871 0.012510568
-0.019999295 0.085214384 0.040469885
-0.018567627 0.082710333 0.053296715
-0.017684896 0.082529508 0.053729326
-0.017070757 0.083646707 0.05084908
-0.016206715 0.083592527 0.050878555
-0.015354336 0.083595835 0.04847005
-0.014737199 0.084955618 0.042249978
-0.01389343 0.085097253 0.045165718
-0.012916196 0.084385812 0.042944491
-0.012079348 0.084555432 0.046807319
-0.011213582 0.084533155 0.046645314
-0.010314819 0.084237695 0.041747093
-0.0096649379 0.086105809 0.043454945
-0.0085879164 0.08416158 0.045825928
-0.00781109 0.085054092 0.0420627
-0.0070449114 0.086300157 0.03948316
-0.0060078856 0.084110394 0.045382738
-0.005177883 0.084572084 0.041784078
-0.0043434678 0.085131966 0.043633044
-0.0034585211 0.084733769 0.041478544
-0.0025784874 0.084230587 0.044535279
-0.0017470889 0.08560735 0.044867635
-0.00087112398 0.085370146 0.04022485
0 0.085213684 0.042949289
0.00086674141 0.084940657 0.039822161
0.0017143976 0.084005475 0.046052098
0.002598386 0.084880613 0.047070056
0.0034779457 0.085209668 0.04292357
0.0043094163 0.084464565 0.043941021
0.0051729088 0.084490843 0.046853095
0.0060667461 0.084934436 0.045666993
0.0068431133 0.083828136 0.045736015
0.007868642 0.085680768 0.043673247
0.0085843643 0.08412677 0.043504983
0.0095112473 0.084736563 0.042057753
0.010343236 0.084469758 0.047903746
0.011147402 0.084034257 0.043993384
0.012003112 0.084021777 0.044037253
