ply
format ascii 1.0
comment PCL generated
element vertex 1330
property float x
property float y
property float z
element camera 0
property float view_px
property float view_py
property float view_pz
property float x_axisx
property float x_axisy
property float x_axisz
property float y_axisx
property float y_axisy
property float y_axisz
property float z_axisx
property float z_axisy
property float z_axisz
property float focal
property float scalex
property float scaley
property float centerx
property float centery
property int viewportx
property int viewporty
property float k1
property float k2
end_header
0.14585771 0.072928853 0.0051959455
0.067205206 0.074023128 0.0053628087
0.063795619 0.069263816 0.022032857
0.065652341 0.070275746 0.013643891
0.064160652 0.066797391 0.037972599
0.065504491 0.067274876 0.038192064
0.067257762 0.068154536 0.032708377
0.073042996 0.073042996 0.0053233504
0.078231834 0.071633972 0.013406336
0.075178832 0.068018943 0.034543931
0.07134635 0.063792028 0.04836604
0.072618842 0.064174786 0.053054422
0.072259456 0.063123204 0.057058394
0.073274724 0.063282713 0.057849318
0.074434206 0.063561797 0.054917157
0.075105458 0.063422382 0.055333406
0.076299466 0.063722633 0.052054197
0.077333935 0.063884556 0.055532664
0.078860827 0.064445406 0.050527543
0.080999359 0.065488845 0.04508388
0.082177013 0.065741614 0.047346294
0.082257867 0.065120809 0.046131045
0.083515458 0.065434799 0.045802623
0.083850086 0.065026604 0.04810676
0.08442767 0.064813159 0.04749769
0.085127473 0.064696878 0.04879719
0.086458139 0.065057606 0.048676252
0.085971743 0.06405738 0.048020691
0.087888688 0.064849906 0.047272652
0.08883483 0.064917758 0.050471961
0.089514166 0.064791203 0.049885273
0.09164013 0.065704241 0.047490269
0.092064701 0.065391749 0.04514429
0.093037643 0.065470934 0.045533776
0.094850928 0.066134587 0.047126234
0.094339006 0.065179676 0.047259152
0.09379036 0.064216822 0.050882429
0.094996601 0.064461984 0.051913351
0.094134159 0.063311473 0.056821644
0.094952926 0.063301951 0.061031193
0.095757708 0.063283354 0.051699221
0.095017776 0.062253021 0.058049262
0.097256616 0.063175239 0.060406625
0.10047465 0.064712487 0.050493866
0.10277836 0.065639965 0.038661927
0.14212303 0.072008997 0.0062955916
0.063219771 0.0705496 0.0202609
0.063709214 0.070080139 0.021574527
0.064248182 0.068709865 0.031084925
0.064278275 0.067800365 0.036871195
0.065898113 0.06856966 0.034475356
0.06869404 0.070525885 0.024638116
0.076399721 0.072626896 0.0060370862
0.075847983 0.071223103 0.022728175
0.073590487 0.068270691 0.036328942
0.070963435 0.065049812 0.044263333
0.071494184 0.064765319 0.057089865
0.071538813 0.064052194 0.061232895
0.072074763 0.063790306 0.055885524
0.073551454 0.064357527 0.055342346
0.074260883 0.064248182 0.057326436
0.07494089 0.064116091 0.053274453
0.076951936 0.065113172 0.054415494
0.079250507 0.066329226 0.0462569
0.080406047 0.066572748 0.043827385
0.080552571 0.065984555 0.051131845
0.080811568 0.065499902 0.046695858
0.082171567 0.065908447 0.047020048
0.08250156 0.065490931 0.05109483
0.083300076 0.065450065 0.046176344
0.083388656 0.064857841 0.051852345
0.08505556 0.065492779 0.051939309
0.086385362 0.065858148 0.048631877
0.086266205 0.065122522 0.052019179
0.087617412 0.065500401 0.050967306
0.088573121 0.065578178 0.051447988
0.089731149 0.065802842 0.048425794
0.090224661 0.065540552 0.048976362
0.091715157 0.066000625 0.048252016
0.0924225 0.065893814 0.051186085
0.09237019 0.065252334 0.050159991
0.095913552 0.067139484 0.046753258
0.096180409 0.066719741 0.045568854
0.094386846 0.064890958 0.051521629
0.095782481 0.065267712 0.052666187
0.095490769 0.064498156 0.0568766
0.094855323 0.063511826 0.053083181
0.095671982 0.063506395 0.059153199
0.095855065 0.063084103 0.06077221
0.097099781 0.063361719 0.060732514
0.10374694 0.067130372 0.046163142
0.13829544 0.074466772 0.005355835
0.062368624 0.07050366 0.023225754
0.06574066 0.073253877 0.01347205
0.066451401 0.073002949 0.017239988
0.063340724 0.068619125 0.03380546
0.065100692 0.069559641 0.033013582
0.065558963 0.069102682 0.034765959
0.071903266 0.074779391 0.006921947
0.075151898 0.075151898 0.0053608716
0.074847057 0.072975881 0.013436884
0.071586937 0.068935566 0.038859487
0.072768502 0.069218814 0.036658555
0.069994509 0.065777972 0.050457686
0.070655935 0.065609075 0.055849493
0.069584765 0.063854247 0.062782466
0.071728438 0.065056026 0.055794716
0.072684184 0.065165132 0.055251867
0.073631912 0.06526465 0.053562641
0.074456774 0.065254256 0.057534784
0.076853603 0.066606447 0.049744338
0.07852295 0.067305379 0.039531827
0.078286141 0.066373035 0.049061954
0.07967037 0.066820309 0.048732549
0.080039956 0.066416137 0.049103051
0.081074804 0.066566676 0.047397912
0.082398072 0.066948436 0.046276927
0.081821308 0.065794453 0.049279004
0.083514236 0.066470519 0.051020592
0.083754927 0.065988727 0.053201973
0.085151799 0.066418402 0.048405766
0.08636497 0.066697702 0.050399721
0.085997365 0.065762691 0.05125317
0.087656669 0.066380784 0.046767205
0.08899869 0.066749014 0.050010502
0.089107685 0.066194281 0.048474103
0.090412386 0.06652987 0.049974382
0.091730855 0.066869222 0.050754815
0.091719903 0.066242151 0.046373695
0.092519015 0.066206262 0.049721837
0.095229879 0.067526639 0.04751873
0.094606712 0.066480391 0.047004253
0.096860148 0.067456178 0.039565086
0.095506355 0.065924741 0.048514038
0.09544944 0.065307513 0.053232461
0.095291235 0.064632319 0.057460755
0.096825883 0.065107055 0.058989525
0.094905131 0.063270085 0.057133496
0.097580291 0.064502224 0.062844872
0.098650165 0.064661451 0.060666412
0.10956817 0.07121931 0.0262025
0.061758045 0.071748316 0.022162318
0.06339404 0.072581582 0.024654269
0.062734604 0.06980329 0.036350042
0.06453748 0.070811957 0.036405563
0.064589471 0.069898188 0.034317464
0.066583022 0.071081869 0.02815789
0.073925816 0.073925816 0.013061076
0.06945011 0.068581983 0.045011789
0.070313983 0.068577841 0.04017958
0.069989555 0.067428961 0.044664651
0.070439562 0.067044884 0.05212301
0.068896465 0.064795479 0.060605109
0.070653342 0.065666042 0.054508656
0.07218428 0.066308811 0.053475022
0.073114514 0.066391341 0.056233197
0.074421994 0.066810653 0.050287336
0.076555826 0.067954049 0.049163043
0.07710287 0.067679182 0.046053559
0.077047817 0.066887662 0.050116509
0.078632116 0.067521058 0.050020248
0.079249501 0.067319468 0.048757315
0.080124609 0.067338765 0.047448903
0.081304148 0.067610815 0.050965488
0.080751315 0.066451602 0.047444046
0.082275845 0.06700816 0.048954368
0.083283141 0.067136414 0.049462318
0.084143437 0.067144759 0.047644198
0.084753647 0.06695538 0.051660925
0.086590439 0.067729153 0.048170805
0.086793758 0.067222618 0.046889633
0.08822111 0.067664735 0.052198291
0.088814542 0.067464896 0.05249235
0.089396678 0.067260355 0.053921223
0.090433754 0.067398742 0.054468095
0.090860717 0.067084074 0.048950255
0.092147812 0.067404419 0.051349342
0.092856184 0.067299433 0.05353722
0.093802989 0.067367598 0.049692512
0.094571516 0.067307658 0.04735297
0.095822684 0.067589216 0.049353868
0.097099513 0.06788373 0.044019312
0.098297365 0.068118349 0.049660325
0.096010961 0.065955356 0.056261152
0.096830301 0.065944768 0.056132883
0.097460508 0.065806665 0.057867527
0.098859966 0.066185907 0.060266167
0.097172186 0.064509265 0.059169978
0.10293718 0.067766979 0.053529918
0.13969246 0.076108307 0.0059969425
0.061981995 0.072919995 0.024888575
0.064678505 0.074989565 0.017167449
0.06507773 0.074374549 0.01402539
0.063278481 0.071299694 0.034565985
0.06347315 0.070525728 0.036247343
0.064761505 0.070971504 0.030676007
0.071062461 0.076824278 0.009083569
0.0715499 0.072455592 0.025123954
0.069596522 0.069596522 0.042151272
0.070110649 0.069245085 0.039598107
0.070072778 0.068363674 0.04874745
0.067372695 0.064937532 0.063348532
0.069770023 0.066447638 0.057485223
0.070750341 0.066588551 0.057410389
0.072392762 0.067342103 0.059254318
0.07249096 0.066658348 0.053002954
0.076388761 0.069444329 0.046617299
0.076099768 0.068404287 0.048673272
0.077046715 0.06848596 0.047176957
0.078260712 0.068800621 0.049580157
0.07836026 0.068139352 0.048084348
0.079164706 0.068098672 0.04789573
0.079907514 0.068006389 0.051389337
0.080470659 0.067764767 0.047751188
0.082346253 0.068621881 0.05030939
0.082972147 0.068430632 0.050188661
0.083820961 0.068425275 0.045881987
0.084749736 0.068484627 0.049458802
0.085052267 0.068041809 0.051475018
0.085595958 0.067798778 0.046291858
0.087571204 0.068683296 0.051160961
0.087208182 0.06773451 0.052453101
0.088377006 0.067982316 0.048830271
0.089314058 0.068048805 0.047875017
0.090006821 0.067929678 0.047175288
0.091494612 0.068407178 0.04490307
0.092537388 0.068546206 0.051811963
0.09244328 0.067848273 0.046928167
0.094294623 0.068577908 0.046506792
0.09463831 0.068207793 0.050193489
0.095799476 0.068428196 0.046587467
0.096743874 0.068491243 0.048839986
0.098831505 0.069355436 0.045607358
0.096914843 0.067419022 0.050803661
0.098055035 0.067624159 0.055256933
0.097706638 0.066807956 0.056715488
0.098335169 0.066667907 0.057919145
0.098816536 0.066431284 0.063827664
0.099649869 0.066433243 0.057728112
0.10732171 0.070956506 0.034943998
0.13995406 0.078847356 0.0059630275
0.13954198 0.07646136 0.005088985
0.063997641 0.077370279 0.0077372789
0.061796505 0.073610537 0.028154492
0.062288765 0.072076999 0.031383246
0.062467061 0.071265236 0.03596282
0.06419342 0.072217599 0.032487273
0.068072289 0.075532258 0.016919196
0.070904709 0.072699763 0.034617364
0.069808088 0.070680693 0.037697971
0.069266103 0.069266103 0.049709111
0.067191139 0.066371724 0.06166181
0.068094842 0.066453993 0.058306098
0.071394689 0.068844877 0.052330822
0.071329251 0.067972578 0.051930934
0.072188266 0.067991264 0.052396625
0.075101681 0.069922253 0.046455503
0.074734077 0.068789318 0.046502292
0.075420253 0.06864091 0.045941502
0.077531196 0.06977807 0.04841578
0.077874333 0.069316708 0.050117284
0.077718131 0.068425737 0.049088329
0.079838216 0.069536507 0.046708345
0.079624481 0.068612583 0.050993025
0.080771066 0.068867959 0.047193795
0.081582516 0.068835251 0.050588846
0.082116403 0.068571426 0.048677266
0.083930716 0.069371305 0.047906518
0.084619053 0.069233768 0.048297882
0.084160209 0.068169765 0.046993643
0.08726202 0.069982409 0.047315031
0.087495878 0.069482021 0.048470616
0.08754456 0.068845719 0.046495587
0.089324638 0.069570147 0.04936403
0.08951664 0.069055691 0.04688102
0.090812191 0.069394216 0.049004942
0.091434672 0.0692169 0.050756127
0.092639096 0.069479316 0.046427131
0.09264072 0.068843096 0.049632281
0.094245777 0.069399163 0.050340444
0.093686752 0.068366006 0.050932139
0.095653132 0.06917771 0.053228736
0.09536624 0.068359867 0.049831748
0.097586378 0.069337688 0.045563877
0.098498754 0.069377378 0.045626879
0.098124541 0.06851799 0.052587867
0.097246252 0.067324318 0.053863674
0.099151663 0.068061732 0.061200202
0.098950014 0.067352526 0.059002846
0.099674337 0.067280173 0.061693013
0.10547143 0.070604838 0.04515034
0.11399794 0.075687155 0.019193202
0.14248905 0.079052128 0.005942136
0.061451454 0.075209245 0.024026006
0.062536389 0.075411528 0.020834804
0.061830573 0.072430104 0.035583764
0.062316246 0.07197088 0.035522044
0.066238359 0.075438134 0.021671414
0.069405042 0.077961832 0.006468147
0.074930228 0.078772806 0.0076039433
0.070421889 0.073096141 0.03277126
0.067969762 0.069669008 0.049192965
0.068730451 0.069578983 0.053904325
0.065454759 0.065454759 0.067770362
0.070565 0.069714822 0.051371425
0.070373349 0.068697795 0.054810435
0.071121849 0.068611667 0.051345199
0.074758336 0.07128121 0.043627799
0.073800959 0.069559529 0.049541831
0.075028025 0.069912486 0.04769513
0.075691521 0.069738261 0.050472349
0.076271795 0.069492079 0.050283223
0.077445455 0.069786012 0.046922266
0.078427151 0.069902457 0.052934796
0.078506567 0.069220848 0.053069919
0.080145635 0.069914281 0.049455851
0.081070751 0.069976866 0.052082241
0.08208061 0.07011053 0.04181993
0.083470792 0.070562944 0.045865148
0.083829299 0.070142888 0.048093438
0.084097214 0.069656275 0.047137797
0.085032277 0.069726467 0.050035357
0.086191058 0.069976903 0.049659014
0.086793564 0.069775216 0.046547502
0.087987535 0.070048332 0.051408917
0.088368565 0.069675222 0.045845121
0.08977931 0.070113368 0.04780829
0.090678662 0.070147648 0.05055511
0.090947688 0.069698229 0.046734393
0.092889883 0.070527501 0.046867907
0.093233787 0.070139177 0.050394535
0.093403406 0.069628 0.048171878
0.093996003 0.069438487 0.051623672
0.094532177 0.069211058 0.051706791
0.094952114 0.068903312 0.04819718
0.097410932 0.070067517 0.049294382
0.098573141 0.070286945 0.045514256
0.098140135 0.069374926 0.045990676
0.098908797 0.069320694 0.054666221
0.098930858 0.068748564 0.057132632
0.098373123 0.067786522 0.058104545
0.10097053 0.068996526 0.063522071
0.099748477 0.067598149 0.060249716
0.11021116 0.074076355 0.027952731
0.14101654 0.080862634 0.0054346621
0.061046861 0.075625218 0.020573705
0.063291229 0.077252537 0.018186331
0.063631728 0.076542519 0.021946728
0.061804995 0.073283069 0.034648657
0.064303517 0.075171724 0.030069828
0.068700083 0.079195932 0.0069146156
0.071445487 0.07602533 0.021581173
0.067961782 0.071402892 0.04295516
0.067262426 0.069784768 0.054138035
0.067549787 0.069217689 0.055049926
0.068946823 0.069787644 0.055375308
0.069730215 0.069730215 0.050925791
0.069951884 0.069119126 0.053474456
0.071823463 0.0701335 0.047766984
0.073507033 0.070942834 0.050758183
0.073466316 0.070088558 0.04921478
0.075043932 0.070780076 0.048186183
0.074960075 0.069906592 0.048325151
0.076503448 0.070553176 0.049396545
0.077875637 0.071029432 0.051888525
0.077907972 0.070286542 0.04736495
0.07910309 0.07059738 0.048271388
0.08093933 0.071467705 0.047128558
0.080988526 0.070758402 0.046824127
0.082812123 0.071597986 0.048960805
0.082800657 0.070850052 0.048027813
0.083818555 0.070989184 0.047745824
0.085011512 0.071272276 0.048763663
0.085491337 0.07095781 0.048968166
0.086455293 0.071047418 0.047804385
0.087515339 0.071213461 0.050094068
0.088387884 0.071225189 0.047425181
0.089109786 0.07111647 0.048161328
0.089810528 0.070993088 0.051440597
0.08971779 0.070250727 0.053143829
0.090985939 0.070577882 0.047244102
0.093277097 0.071685173 0.045345485
0.092461377 0.07040637 0.051109582
0.093468152 0.070525974 0.048149705
0.094796896 0.070884168 0.049134016
0.093540721 0.069320358 0.049587131
0.095929369 0.0704614 0.055264354
0.096691005 0.070397839 0.048857719
0.09754324 0.070400774 0.046251982
0.10026713 0.071742862 0.048312902
0.098930746 0.070181638 0.050807208
0.09838485 0.069202907 0.054766327
0.099317364 0.069271773 0.059064001
0.10031965 0.069387764 0.055542201
0.10020185 0.068733506 0.0588485
0.10910725 0.074228704 0.038832307
0.12696795 0.081064157 0.0058030486
0.06120652 0.076736532 0.021694332
0.065093733 0.080409907 0.0064515769
0.061444905 0.074802496 0.031233013
0.062404908 0.07488589 0.03213796
0.064526945 0.076341741 0.02850309
0.072270043 0.078840055 0.014027268
0.069285013 0.074614629 0.033082992
0.067225486 0.071480267 0.051512003
0.067112915 0.070468567 0.054510206
0.067621604 0.070126109 0.056849778
0.068769753 0.070447065 0.056706101
0.068633743 0.069460653 0.054082632
0.071160555 0.071160555 0.05379951
0.071893334 0.07104753 0.048117995
0.072703481 0.071012698 0.052135378
0.074045599 0.071492307 0.051152319
0.074592248 0.071201697 0.048186511
0.075137064 0.070915885 0.048908502
0.076335847 0.071246788 0.053685546
0.076868542 0.070955575 0.049650401
0.077881612 0.071109302 0.04755196
0.080012478 0.072269335 0.051041424
0.080474488 0.071913376 0.046920091
0.080585673 0.0712547 0.04710415
0.082421541 0.072118856 0.048891157
0.082637563 0.071562432 0.050304323
0.084683135 0.072585553 0.048512459
0.084678531 0.071848452 0.05038774
0.085798793 0.072070986 0.047206163
0.087005518 0.072361022 0.049728364
0.087987952 0.072460666 0.04523012
0.087505959 0.07136409 0.048606515
0.089049898 0.071924917 0.054893404
0.089258641 0.071406916 0.047255039
0.090435006 0.071665481 0.048035771
0.091227509 0.071617857 0.050824255
0.091781698 0.071385764 0.047585905
0.093122117 0.071763836 0.046865106
0.093982376 0.071768358 0.048288584
0.094369225 0.071414545 0.049479693
0.096198045 0.072148532 0.051751047
0.096105807 0.071441486 0.050338268
0.096619949 0.07119365 0.05341047
0.098773003 0.072147243 0.053123802
0.09950155 0.072052844 0.047142476
0.098871611 0.070984744 0.047433317
0.099266283 0.070664138 0.058341533
0.099326141 0.070112571 0.061076462
0.10006048 0.070042334 0.057990164
0.10084815 0.07001029 0.059347868
0.10519938 0.072432362 0.044189513
0.11707433 0.079953209 0.010719955
0.061637789 0.078197196 0.020647764
0.061601378 0.075885758 0.03244099
0.062394839 0.075765163 0.031698912
0.063448042 0.07595893 0.024493098
0.072531462 0.081120715 0.0083971918
0.068885922 0.076042905 0.032096922
0.067281626 0.073319726 0.046424806
0.066568173 0.071623988 0.054180682
0.066958494 0.071143396 0.059798568
0.06834697 0.071722127 0.056003004
0.068060204 0.070550211 0.054432869
0.069837563 0.071520388 0.055389106
0.072176278 0.073035516 0.042859852
0.072007403 0.072007403 0.04629609
0.073305771 0.07245338 0.049261808
0.073497176 0.071807593 0.051640958
0.074679367 0.072133482 0.050985396
0.075453512 0.072062343 0.04958424
0.076493017 0.072243407 0.049698681
0.077324241 0.072225943 0.048694968
0.078454442 0.072485082 0.052300602
0.079103209 0.072298631 0.049086034
0.080058843 0.072393633 0.048246145
0.081590153 0.07300172 0.048661798
0.082203686 0.072784513 0.047845781
0.083217233 0.072922319 0.048492819
0.0839094 0.072778568 0.046865255
0.084385596 0.072452277 0.042966783
0.086041771 0.073135503 0.045422375
0.086700894 0.072966099 0.048106521
0.086842246 0.07236854 0.048565149
0.088673688 0.073177315 0.046269923
0.088568777 0.072387941 0.048670769
0.089076802 0.072109796 0.047787219
0.091432571 0.073318578 0.050253123
0.090758353 0.072097756 0.05165419
0.09190648 0.072333805 0.049754769
0.093417391 0.072848424 0.047511548
0.093006745 0.071868844 0.047044814
0.094720922 0.07253404 0.048972905
0.095824227 0.072723746 0.051864803
0.095333084 0.071710728 0.051694393
0.096705623 0.072105072 0.050719589
0.097828746 0.072308205 0.051330477
0.097917445 0.071749851 0.04734993
0.10023434 0.072819822 0.051608652
0.09964598 0.071778886 0.052790046
0.098571107 0.070407934 0.058276206
0.10125696 0.071723677 0.05997768
0.099749394 0.070071891 0.058565319
0.10214527 0.071166784 0.053885251
0.12077205 0.082124993 0.0050650239
0.062264811 0.081132941 0.012406111
0.061209023 0.078566805 0.020731598
0.064997382 0.082202569 0.01136145
0.061039433 0.076078132 0.035599172
0.062125307 0.076325379 0.035960823
0.065209769 0.078986488 0.02556169
0.07084734 0.081238277 0.0076461732
0.067448787 0.076323621 0.032681346
0.068572253 0.076587193 0.035479009
0.065923862 0.072685279 0.052187502
0.065837152 0.07167083 0.052117079
0.066822574 0.071834266 0.057077885
0.067167073 0.071313195 0.055905312
0.068788856 0.072144404 0.054102242
0.070753723 0.073311083 0.051178843
0.070531987 0.072211318 0.051154345
0.072478183 0.073330872 0.049962223
0.073455535 0.073455535 0.046670794
0.07351198 0.072667018 0.048280388
0.074914716 0.07321211 0.051450074
0.075815901 0.073260315 0.048954219
0.076660097 0.073252976 0.048859388
0.077403098 0.07315018 0.051697224
0.078410931 0.073297173 0.050507069
0.078810699 0.072878711 0.049341202
0.080850124 0.073969267 0.047525555
0.080872074 0.073210508 0.04803431
0.082147159 0.073590159 0.051281601
0.081640936 0.072382689 0.049536645
0.083652973 0.073409751 0.046888977
0.085446216 0.074225999 0.047187358
0.08586131 0.073840722 0.04871282
0.086401947 0.073569976 0.045745164
0.087083682 0.073423497 0.045950413
0.088148788 0.073599957 0.045993298
0.088544302 0.073219329 0.047214568
0.089937478 0.073663078 0.051575303
0.090471245 0.073401198 0.050390691
0.091011159 0.073149152 0.046784908
0.092509992 0.073665366 0.049454302
0.092832848 0.073244259 0.048640966
0.094494924 0.073877849 0.047229618
0.095320858 0.073852196 0.04964003
0.094497174 0.072560325 0.048988253
0.096235842 0.073241442 0.051715821
0.095730171 0.072217494 0.049018681
0.097789027 0.073129192 0.050158352
0.099886984 0.074054144 0.052007496
0.10068995 0.074011408 0.04952091
0.099592231 0.072584167 0.053979456
0.099130921 0.071640834 0.058615118
0.099479489 0.07129363 0.058073163
0.099792458 0.070926867 0.059292376
0.10370034 0.073100239 0.055756658
0.11705653 0.081844404 0.009750843
0.12607166 0.082764603 0.0055411756
0.14309397 0.083714843 0.0058121681
0.06118137 0.080648169 0.016399831
0.062238 0.080816507 0.016511083
0.062646553 0.080150731 0.021512389
0.060911495 0.076801449 0.032385081
0.062830031 0.078088745 0.029623449
0.06461022 0.079170272 0.023012787
0.067594424 0.078409523 0.029444158
0.066978805 0.076673098 0.03864035
0.066103309 0.074688159 0.043893337
0.064799912 0.072276823 0.05576694
0.066386722 0.073109426 0.055531144
0.067098089 0.072969176 0.051014781
0.067772835 0.072793052 0.056976378
0.069181077 0.073399432 0.051855326
0.07087373 0.074289329 0.048093587
0.072178692 0.074756503 0.048327357
0.071609236 0.073294163 0.051594287
0.072626896 0.073471397 0.048886836
0.073810317 0.073810317 0.05352515
0.075072542 0.07421945 0.04867515
0.075871788 0.074166805 0.045925826
0.076842308 0.074280895 0.052233756
0.077486753 0.074080735 0.047065288
0.078629106 0.074355781 0.049459159
0.080220141 0.075044647 0.05324465
0.080532067 0.074534997 0.044947118
0.081102625 0.074272931 0.04717499
0.082268454 0.074555784 0.047984838
0.082309626 0.0738241 0.048631191
0.084407128 0.074932858 0.047955424
0.083953984 0.073777743 0.049573511
0.085819483 0.074662946 0.043549299
0.086050235 0.074122474 0.048916101
0.087159283 0.074341737 0.047986299
0.087112084 0.073580109 0.050269932
0.089768574 0.075094864 0.047769129
0.089518189 0.074172214 0.049380243
0.089473657 0.073435925 0.050966173
0.091294087 0.074229769 0.049206465
0.092353337 0.074395746 0.04846257
0.093227401 0.074410856 0.048939914
0.094474733 0.074720919 0.051395893
0.095268629 0.074670009 0.046970844
0.096234739 0.074753769 0.048803777
0.096371405 0.074197449 0.051323444
0.095717013 0.073047198 0.053541183
0.098184198 0.074278481 0.054126769
0.099433608 0.074575201 0.051707476
0.099522516 0.07400392 0.045143366
0.10131473 0.07469815 0.050083548
0.098688833 0.072150655 0.061493695
0.099144019 0.071879417 0.054249078
0.10036732 0.07216493 0.060635537
0.10236242 0.072996147 0.057534546
0.11224946 0.079395965 0.021866262
0.061856475 0.082475297 0.015356779
0.062005553 0.081440121 0.016855329
0.061851729 0.080043413 0.024062872
0.060921106 0.077696487 0.033707529
0.062600948 0.07869833 0.031064212
0.065044083 0.080618024 0.018025398
0.067665733 0.079394452 0.028702974
0.067496821 0.078154206 0.030938834
0.066083521 0.075524017 0.05044955
0.065305717 0.07367824 0.059459418
0.065563411 0.073032662 0.057234019
0.066867985 0.073554792 0.056272745
0.067488015 0.073320314 0.056877643
0.070118383 0.075248986 0.045569628
0.070872113 0.075141519 0.049773723
0.070966475 0.074345827 0.053856909
0.073184207 0.075767174 0.044781327
0.073222138 0.074924976 0.049981356
0.074493118 0.075349361 0.047416896
0.074988991 0.074988991 0.046391875
0.07628458 0.07542745 0.050698072
0.076688901 0.074984699 0.046437919
0.077659823 0.075099602 0.047623247
0.078974925 0.075541228 0.049759954
0.078635707 0.07440798 0.051894188
0.079324573 0.0742613 0.051472008
0.082048953 0.076003239 0.049634516
0.081815884 0.074997894 0.047195733
0.083016552 0.075313985 0.048375368
0.083814926 0.075262383 0.049738765
0.083689116 0.074390322 0.045636088
0.085916065 0.07560613 0.050886661
0.086346619 0.0752327 0.047643155
0.086798184 0.074884705 0.047685325
0.088425614 0.07554809 0.04763484
0.088614047 0.074981116 0.049708217
0.088917121 0.074521013 0.047856301
0.090841569 0.075415641 0.050111055
0.091662556 0.075386025 0.049159378
0.092625454 0.075472586 0.049337238
0.093871981 0.075786546 0.045854509
0.093441829 0.074753463 0.049599469
0.094865046 0.075208321 0.047246903
0.096162289 0.075556085 0.051927954
0.096110605 0.074847192 0.049277842
0.096828289 0.074744642 0.052413702
0.097807042 0.074843653 0.050408274
0.097411558 0.07389842 0.05170542
0.099722385 0.075004868 0.047801405
0.10005049 0.074613921 0.054202408
0.098879538 0.073120996 0.055905551
0.099446133 0.072927162 0.060532212
0.099565908 0.072411567 0.057111263
0.1011575 0.072966069 0.058420151
0.1124062 0.080420695 0.029179096
0.11864325 0.08419843 0.0077059269
0.061208032 0.082538106 0.019039154
0.061517186 0.081716858 0.013627708
0.060813814 0.079594553 0.028959304
0.061161224 0.078889109 0.030896455
0.062507272 0.079473533 0.02813825
0.067987971 0.08522436 0.005395472
0.06878607 0.081626132 0.026580602
0.067142181 0.078627028 0.036447585
0.065013893 0.07514593 0.051500231
0.06523145 0.074430756 0.056973428
0.065977938 0.074329577 0.055732131
0.067016296 0.074555628 0.05519262
0.06721729 0.073856041 0.055844486
0.070949055 0.077005677 0.045499861
0.070424676 0.075515613 0.05023852
0.071518317 0.075775355 0.044990212
0.072503231 0.07591515 0.048232108
0.073155113 0.075707033 0.052705586
0.074465662 0.076177515 0.044644952
0.075524747 0.07638298 0.045716703
0.075790644 0.075790644 0.046321869
0.076948561 0.076093569 0.047112197
0.078482673 0.076757774 0.045763195
0.078069754 0.075524002 0.049200654
0.079929613 0.076491773 0.047549695
0.080320969 0.076048575 0.051399797
0.080999881 0.075884096 0.04550457
0.082225613 0.076229997 0.052364588
0.082014389 0.07525032 0.049185276
0.083183132 0.075543866 0.048880368
0.084598221 0.076052941 0.049362391
0.085884877 0.076437533 0.052873582
0.085930154 0.075720623 0.047688842
0.087562211 0.076402314 0.04625237
0.087935843 0.075983398 0.04890424
0.088600166 0.075821295 0.048760504
0.090519831 0.076726332 0.052906454
0.090729497 0.076178543 0.050316781
0.091099709 0.075774513 0.047200143
0.092418186 0.076159425 0.052466899
0.092753641 0.075734623 0.048753977
0.093863808 0.075944349 0.050241888
0.095507167 0.076577812 0.049981266
0.094816178 0.075345002 0.052453667
0.096258029 0.075813845 0.051893085
0.096800528 0.075572342 0.056310266
0.096210547 0.074458599 0.05304262
0.09867274 0.075705804 0.054520786
0.09826088 0.074745446 0.052814603
0.1002785 0.075633787 0.048410654
0.098926693 0.073987186 0.061068386
0.099473253 0.073775992 0.059885919
0.099856071 0.073447853 0.059458226
0.10284841 0.075028755 0.06024012
0.10885992 0.078768559 0.032311797
0.12366185 0.08531709 0.0052685738
0.061125871 0.08335346 0.016304106
0.06357006 0.085392617 0.0099806488
0.060291439 0.079797499 0.034014821
0.060255226 0.078593776 0.034939975
0.063365668 0.081470154 0.029765606
0.067785084 0.081342101 0.027409554
0.066418573 0.078653581 0.042886317
0.065065995 0.076051168 0.051988184
0.064983673 0.074981168 0.054653347
0.066931605 0.076251201 0.055796951
0.067094013 0.075480774 0.052221626
0.068832628 0.076480709 0.05429852
0.070200019 0.077048801 0.048813194
0.070911296 0.076891765 0.045641661
0.071907662 0.077043921 0.050818324
0.071688868 0.075905859 0.051003516
0.073448256 0.076864459 0.048556656
0.073597424 0.07613527 0.049044818
0.07520479 0.076913998 0.045158327
0.07644023 0.077299111 0.045554191
0.077720024 0.077720024 0.048761696
0.077100493 0.076253235 0.04931742
0.078713708 0.07700254 0.046180636
0.080115736 0.07753136 0.046829432
0.080509245 0.077083327 0.050724387
0.08118467 0.076911792 0.04691875
0.082128502 0.076995477 0.050137132
0.082500875 0.076547213 0.046590149
0.084139168 0.077270672 0.04913348
0.084887691 0.077170625 0.05079481
0.085229091 0.076706178 0.050766408
0.086645409 0.07720878 0.04916665
0.087276869 0.077009007 0.050547272
0.087190561 0.076185927 0.047310412
0.088567823 0.076645233 0.053418279
0.089464068 0.076683491 0.046679169
0.090757467 0.077058226 0.048241317
0.091793366 0.077209376 0.052587271
0.092167139 0.076805949 0.047999769
0.092431784 0.076319821 0.04716593
0.094626173 0.077421412 0.049688309
0.094949871 0.076986387 0.052092552
0.095624007 0.076840721 0.055388778
0.096119657 0.076555483 0.052853853
0.095752992 0.07559447 0.054838151
0.097605594 0.076386996 0.053932875
0.098464727 0.07639505 0.053898573
0.098747924 0.075959943 0.047983348
0.100924 0.076975934 0.053920716
0.099707521 0.075409047 0.057085007
0.09895172 0.074213788 0.056339622
0.10071845 0.074914552 0.060045302
0.10144164 0.074834004 0.057815939
0.11069902 0.080999285 0.030746162
0.062252231 0.085832626 0.013830066
0.062125351 0.084379211 0.0145289
0.060602896 0.081100941 0.031955779
0.061724644 0.081404969 0.031474054
0.064969502 0.084460355 0.01730144
0.069530725 0.084363952 0.020189703
0.065028898 0.077863552 0.046301544
0.064510234 0.076239362 0.05364415
0.065642454 0.076582864 0.057031423
0.065969817 0.07599055 0.055487782
0.066811807 0.07599844 0.055906057
0.068934008 0.077444389 0.047527403
0.06952785 0.07715895 0.047691852
0.071382523 0.078262761 0.0451985
0.071337216 0.077281982 0.052190006
0.07193397 0.07701166 0.048066199
0.07381577 0.078107387 0.047623843
0.074586757 0.078016035 0.047391027
0.07529401 0.077860855 0.05139029
0.076457836 0.078175992 0.049365699
0.076974533 0.077829801 0.0475519
0.077774048 0.077774048 0.047109604
0.07910572 0.078245878 0.047410101
0.079459988 0.077751175 0.047222912
0.079585575 0.077045612 0.05137074
0.081478886 0.078048199 0.049675167
0.08184208 0.077579476 0.048328489
0.083323181 0.078169174 0.049806595
0.083869666 0.077878982 0.05035758
0.083494164 0.076747164 0.04780978
0.084717922 0.077093311 0.049331188
0.086053357 0.077533223 0.049164832
0.087067857 0.077678189 0.044267088
0.088827357 0.078478545 0.044726074
0.088906661 0.07779333 0.04861927
0.089316092 0.077407286 0.046839893
0.090315074 0.077534646 0.052615017
0.090922244 0.077326395 0.051847428
0.092294648 0.077766784 0.052437395
0.092648402 0.077348672 0.055600733
0.093555316 0.077395767 0.050260633
0.093500756 0.076653779 0.051102251
0.094901621 0.077107571 0.049992383
0.095307276 0.07675188 0.047462106
0.095901102 0.076552637 0.052977622
0.096753709 0.07656163 0.055234164
0.097393632 0.076403625 0.049386263
0.099434666 0.077338077 0.05477491
0.10116379 0.07801614 0.05423674
0.099012509 0.075715452 0.05456695
0.1004229 0.076154038 0.05966711
0.099129841 0.074552201 0.056662381
0.10144714 0.075669587 0.057810158
0.11383867 0.084222108 0.023737341
0.062045015 0.086486995 0.011522889
0.061703458 0.084727138 0.015670717
0.061097067 0.082660735 0.030180156
0.061708204 0.082277611 0.02557379
0.06714946 0.08825358 0.0064435899
0.067652807 0.082987443 0.026913255
0.064825989 0.078473568 0.050180435
0.064705729 0.077310748 0.054340214
0.064797491 0.076427817 0.056861401
0.066013619 0.076876625 0.05683589
0.066921487 0.076959722 0.054920226
0.069280468 0.078688927 0.046429902
0.069615759 0.078105487 0.049974561
0.070001319 0.077591822 0.045873851
0.070987038 0.07774771 0.04822731
0.0723911 0.078352727 0.044922203
0.073302172 0.07841628 0.048413306
0.073652789 0.07788571 0.048598796
0.075454302 0.07888405 0.049736738
0.076206252 0.078775004 0.047435254
0.076297298 0.077992789 0.048107743
0.07841482 0.079276517 0.049034536
0.078776732 0.078776732 0.045877963
0.079014689 0.078165069 0.048125833
0.080568127 0.07885392 0.049444318
0.080991387 0.078433767 0.047959
0.081994332 0.078577906 0.050085723
0.083285913 0.078992829 0.047837853
0.083883196 0.078747496 0.045684636
0.084606528 0.078624249 0.051667213
0.085713707 0.07885661 0.048820913
0.086271532 0.078583971 0.047777891
0.08717037 0.078624256 0.052179784
0.08801613 0.078616351 0.049383372
0.08883132 0.078581557 0.048801839
0.08957883 0.078488126 0.053056628
0.090445943 0.078500256 0.047409952
0.091183625 0.078400873 0.050648004
0.092464976 0.078766458 0.051376343
0.09227585 0.077884205 0.047439933
0.094114028 0.078713551 0.052278578
0.095077097 0.078802638 0.051741809
0.094166607 0.077351145 0.049370944
0.09785524 0.079669759 0.052365333
0.09613993 0.077586614 0.050248444
0.09673129 0.077385038 0.052253783
0.09877082 0.078335471 0.052678049
0.099123932 0.077943608 0.051615715
0.098936297 0.077136777 0.052313447
0.099546976 0.07696069 0.059105545
0.099653982 0.076401383 0.058656216
0.09956307 0.075700849 0.059848785
0.10312686 0.077767797 0.056938261
0.11260566 0.084225371 0.023566157
0.13033552 0.088821255 0.0051255822
0.062966496 0.087401249 0.015896797
0.061434995 0.084021389 0.030070245
0.061594456 0.083018616 0.033408612
0.065753028 0.087357603 0.016533703
0.066473216 0.082426779 0.032788187
0.064946949 0.079474553 0.04954645
0.064626493 0.078055374 0.051626205
0.064876959 0.077353299 0.055687666
0.066139959 0.077860966 0.054309607
0.06682083 0.077679217 0.052979112
0.070437983 0.080873244 0.045985788
0.069101453 0.078371152 0.04647696
0.070553891 0.079054363 0.047619402
0.071223371 0.078854449 0.049388915
0.071868554 0.078632653 0.052273124
0.072273798 0.078156553 0.04792282
0.074539155 0.079679795 0.05061844
0.074678831 0.078921951 0.04994294
0.075985521 0.079400599 0.044601023
0.077557467 0.080142714 0.050472736
0.076991335 0.078683451 0.051003575
0.078074425 0.078923061 0.046132177
0.07981921 0.07981921 0.050023794
0.081288025 0.080423258 0.047982752
0.080751315 0.079051286 0.048396975
0.082806677 0.080218971 0.046983033
0.082513765 0.079111144 0.048599064
0.083867967 0.079588987 0.049589247
0.0850714 0.079915553 0.048499495
0.085190363 0.079227038 0.047941595
0.086477377 0.079627685 0.048722029
0.085890666 0.078312077 0.053075075
0.086789936 0.078363732 0.051362574
0.088893302 0.079491131 0.052898973
0.088868111 0.078711756 0.049807042
0.09045428 0.079360835 0.050260872
0.091333568 0.079383381 0.049449533
0.091946073 0.079175785 0.053096086
0.092503868 0.078925319 0.04895404
0.095302731 0.080574125 0.050806105
0.09453845 0.07920789 0.050752133
0.095690809 0.079457544 0.051935643
0.095644102 0.078715943 0.052017927
0.09522979 0.077687465 0.052672148
0.097300313 0.078686349 0.056253493
0.097520597 0.078184612 0.049930692
0.098665982 0.078426808 0.051383883
0.10033432 0.07907705 0.057766795
0.099639155 0.077869251 0.061494321
0.099199995 0.076879993 0.061134905
0.10051235 0.077253297 0.0601376
0.10329714 0.078742899 0.053630263
0.11450842 0.086579539 0.01483804
0.12098792 0.090740941 0.0059812963
0.12606835 0.089498915 0.005092442
0.062139634 0.08718098 0.017059922
0.06061339 0.083789095 0.028765708
0.061916716 0.08435031 0.033812106
0.062940486 0.084520087 0.029515237
0.069098674 0.087773986 0.015539408
0.066639036 0.083520927 0.035386652
0.064632691 0.079940431 0.050850689
0.063855149 0.077953041 0.056149304
0.065342635 0.078746252 0.056474358
0.065699391 0.078173958 0.054653645
0.067498326 0.079310536 0.053696632
0.069749445 0.080943801 0.044214129
0.069985874 0.08022771 0.044845581
0.071559459 0.081043243 0.042450637
0.070692107 0.079107836 0.053619653
0.072008245 0.079632647 0.046014041
0.074254066 0.081161425 0.045596659
0.074686565 0.08069583 0.046573102
0.075160265 0.080284826 0.047083974
0.076492608 0.080789946 0.046851575
0.07669194 0.080100462 0.046085685
0.077541344 0.080097653 0.048078924
0.079274908 0.080998272 0.048957735
0.079599477 0.080455385 0.044902772
0.080527261 0.080527261 0.045434624
0.0815989 0.080739968 0.05054608
0.082097307 0.080386952 0.04466939
0.083518371 0.080935329 0.052340209
0.083931521 0.080505744 0.049378455
0.084524117 0.080255218 0.044919312
0.086276248 0.081099667 0.047155172
0.085669525 0.079732031 0.051255941
0.086116165 0.079361953 0.04786247
0.087978229 0.080290809 0.049424291
0.088404171 0.079903774 0.052756369
0.089057408 0.079727583 0.052840739
0.090992182 0.080691181 0.051223397
0.09134765 0.080249332 0.049148142
0.092096843 0.08015836 0.052838951
0.092743672 0.079980776 0.052899033
0.094168603 0.080471352 0.050871581
0.09430518 0.079862043 0.051299006
0.094409943 0.079236917 0.051290303
0.095471963 0.079419158 0.049152374
0.09636756 0.079460971 0.052553505
0.097526431 0.079717264 0.052474707
0.098762751 0.080031879 0.049242437
0.099917926 0.080275938 0.052636385
0.099636689 0.079371601 0.05776006
0.098828316 0.078066066 0.054871887
0.10111853 0.079209521 0.059872985
0.099110708 0.076995097 0.057533205
0.10294603 0.079319075 0.053193241
0.118493 0.090555631 0.01196447
0.13217139 0.091353752 0.0050942302
0.062062629 0.087999247 0.015153497
0.062216192 0.08691968 0.024582714
0.061354194 0.08447317 0.032881021
0.062533736 0.084867209 0.026224107
0.066062711 0.084810235 0.033304036
0.065018438 0.082356691 0.039686322
0.064580001 0.080725007 0.048419714
0.06464681 0.079759046 0.055069357
0.065239169 0.079457961 0.054905117
0.065475255 0.078736067 0.057490528
0.068277217 0.0810792 0.052549601
0.068863243 0.080765538 0.049545348
0.069184922 0.080153257 0.049964547
0.070463978 0.080651537 0.049243242
0.071205877 0.08053045 0.04903391
0.072404191 0.080922328 0.04533869
0.073180541 0.080838971 0.051541626
0.073268078 0.080005378 0.045944571
0.075227283 0.081211269 0.048915178
0.075481586 0.080570236 0.050421417
0.077297762 0.081592076 0.047173798
0.078295946 0.081737518 0.048980057
0.078673437 0.081238873 0.04564333
0.079874627 0.081592359 0.048373818
0.080821507 0.081681311 0.050384164
0.081308477 0.081308477 0.049293816
0.082125865 0.081270389 0.045662433
0.082493991 0.080793083 0.051203907
0.083089687 0.080546126 0.04607448
0.085067555 0.081630483 0.048771471
0.085348733 0.081081294 0.052641124
0.085548699 0.080466591 0.048048705
0.087174945 0.081192352 0.049288273
0.087997139 0.081162408 0.052597851
0.088716589 0.08103919 0.050336033
0.090797141 0.082149796 0.050122887
0.090390339 0.081010215 0.046807617
0.091115512 0.080896944 0.052888662
0.092575394 0.081432059 0.050607979
0.092645213 0.080745824 0.048696697
0.094207719 0.081361212 0.049125761
0.094592974 0.080957949 0.04966855
0.094469786 0.080130622 0.050599635
0.096624643 0.081233107 0.047936946
0.09700834 0.080840282 0.053601027
0.096483752 0.079703964 0.054527134
0.098519519 0.080684088 0.053053796
0.098798081 0.080220662 0.050920159
0.098219275 0.079074837 0.057730258
0.099211328 0.079202324 0.062137842
0.099754319 0.078972168 0.056425154
0.10048516 0.078893311 0.061897188
0.10620285 0.082698941 0.042814821
0.11862791 0.091623187 0.0062065125
0.062655836 0.089775525 0.014653593
0.062372949 0.088055924 0.022369653
0.060549863 0.084243283 0.029611737
0.063133627 0.086583264 0.030605286
0.06632857 0.089683704 0.012503594
0.069576904 0.09149839 0.0075660348
0.065158613 0.084530085 0.036763787
0.065744124 0.084152475 0.041414499
0.063986428 0.080824956 0.054690272
0.064629495 0.080577031 0.052568287
0.06461747 0.079529189 0.059978247
0.066097401 0.080320895 0.057948381
0.066656999 0.079988398 0.053568631
0.069744691 0.082660377 0.046214104
0.070000865 0.081952222 0.047751009
0.070001237 0.080965281 0.050332487
0.070918418 0.081049614 0.053352714
0.07201457 0.081334099 0.047985107
0.072876424 0.081350423 0.04988876
0.074444756 0.082145937 0.051534981
0.075105034 0.081932768 0.048703223
0.076018535 0.081997521 0.047821224
0.07768359 0.082862489 0.045758247
0.077163279 0.081403017 0.052797794
0.078918599 0.082349844 0.045549333
0.080305032 0.08289551 0.046589762
0.080109842 0.081814304 0.052114278
0.080765463 0.081615627 0.051508933
0.082580768 0.082580768 0.046815902
0.082981661 0.082126185 0.046952218
0.084509276 0.082784601 0.050294966
0.085341759 0.08275564 0.049252689
0.085470311 0.082051493 0.048879683
0.086701199 0.082409061 0.049911797
0.087656878 0.082500592 0.048249185
0.087198019 0.081271939 0.050844401
0.089135818 0.082279213 0.053160489
0.089397803 0.081735134 0.049131155
0.089934729 0.081450321 0.047816306
0.09103664 0.081677727 0.052883625
0.092179663 0.08193747 0.048080862
0.09207157 0.081090555 0.048900247
0.094542429 0.082509756 0.049626827
0.09393955 0.08124502 0.049482137
0.09518262 0.081585102 0.051190943
0.097071394 0.082467727 0.05173102
0.095758945 0.080639116 0.04689914
0.097910754 0.081734195 0.054361552
0.098520957 0.081534579 0.052067369
0.099447086 0.081597604 0.047266424
0.098618634 0.080232106 0.059934258
0.097871862 0.078955449 0.058688045
0.099552155 0.079641722 0.058240026
0.10230506 0.081167653 0.056859374
0.11125194 0.087542504 0.024170339
0.11930709 0.093117729 0.0051353574
0.15870328 0.095820844 0.0080301762
0.062600739 0.089298114 0.017376006
0.061887372 0.087001093 0.030974597
0.062914647 0.087181725 0.029770494
0.065106086 0.088947758 0.019574225
0.06577003 0.086212061 0.033967346
0.066556111 0.086079232 0.037520707
0.063782871 0.081407085 0.053541303
0.064149901 0.080812208 0.057432145
0.065385737 0.081313029 0.057103992
0.065417439 0.080322675 0.054168731
0.067453384 0.081787236 0.055889279
0.068684451 0.082251757 0.044444472
0.069609843 0.082343347 0.047980547
0.070589691 0.082496382 0.050026059
0.07176239 0.082868472 0.050606251
0.071190894 0.081241369 0.048144609
0.073614836 0.083030686 0.051787257
0.074227616 0.082759529 0.047865897
0.074931525 0.082594976 0.048931658
0.076868936 0.083778508 0.05117771
0.076396123 0.082338035 0.048627883
0.078042805 0.083188482 0.046705246
0.078716166 0.082994215 0.050683141
0.079944342 0.083382808 0.04600957
0.080158778 0.082717031 0.048573613
0.081226423 0.082936458 0.049771935
0.081599876 0.082449868 0.048775822
0.083322905 0.083322905 0.048864841
0.084429815 0.08356829 0.049022675
0.084006712 0.082309604 0.04523924
0.086028956 0.083448082 0.052446544
0.086404666 0.082982689 0.04924041
0.086289786 0.082059897 0.048131257
0.089134805 0.08394248 0.048609704
0.088717625 0.082746245 0.051523358
0.088759139 0.081996538 0.050873399
0.091510795 0.083741009 0.04581669
0.091436028 0.0828906 0.048221409
0.092464805 0.083047092 0.047803015
0.093215138 0.082952917 0.051188499
0.093994662 0.082886197 0.052875072
0.093521319 0.081725836 0.053826988
0.095830172 0.082995772 0.048579276
0.095689774 0.082140774 0.05017218
0.096606702 0.082200438 0.05461821
0.097911507 0.082586229 0.057209283
0.098958559 0.082749821 0.050100654
0.099167913 0.082216129 0.053579926
0.099104449 0.081467211 0.058398873
0.097346202 0.079349421 0.058497787
0.10012794 0.080936752 0.06087184
0.10210694 0.081854321 0.053532153
0.11648233 0.092613004 0.018089831
0.12086488 0.095316201 0.0055187345
0.15989901 0.097548455 0.0067880154
0.064023949 0.092269808 0.015613258
0.061582729 0.087465324 0.030279726
0.062887661 0.088042721 0.03010416
0.064485461 0.0890081 0.021127433
0.068088569 0.090171337 0.022360265
0.065994672 0.086233035 0.037383288
0.064203314 0.082788475 0.051880777
0.064549066 0.082153358 0.055770218
0.064845629 0.08147271 0.057747334
0.065730371 0.081538938 0.05581376
0.067597397 0.082806811 0.055788577
0.068740577 0.083167613 0.049766034
0.069704704 0.08330562 0.051392585
0.070377208 0.083095983 0.048419297
0.070460282 0.082203664 0.051831722
0.071974955 0.08298289 0.050646931
0.073748782 0.084039308 0.046888947
0.073748171 0.083072647 0.047909111
0.075185932 0.083729781 0.05027163
0.076028153 0.083716393 0.043786258
0.077562287 0.084456705 0.04425019
0.078221038 0.084238037 0.05285579
0.078465663 0.08358299 0.050516665
0.079825386 0.08411707 0.047417074
0.081450127 0.084916085 0.04810819
0.08129172 0.083858825 0.049352318
0.082552046 0.084271878 0.04957974
0.083998851 0.084864818 0.048699826
0.083582088 0.083582088 0.045055151
0.084462717 0.083609551 0.050258994
0.085763536 0.084048264 0.048159242
0.086479798 0.083911091 0.044221014
0.087134317 0.083717279 0.048932999
0.088151552 0.083872348 0.046813816
0.088693552 0.08357662 0.048923045
0.089368023 0.083410151 0.048848838
0.090160415 0.083355851 0.051298022
0.090926774 0.083278716 0.047622234
0.092111886 0.083582997 0.051901966
0.092865497 0.083493747 0.04816094
0.09330222 0.083123788 0.05133611
0.094264597 0.083224595 0.050824612
0.094121099 0.082355954 0.049901962
0.096342064 0.083553292 0.050762147
0.097004071 0.083389461 0.051073074
0.097793683 0.083337225 0.0480977
0.099024862 0.083658926 0.05192095
0.097448781 0.081623763 0.054759204
0.096814647 0.080405384 0.060622394
0.097842962 0.080576554 0.060492277
0.10030686 0.081917264 0.057291567
0.10366864 0.083963029 0.047435194
0.11860299 0.095271252 0.0063826144
0.14589439 0.09660574 0.0063091218
0.16179553 0.099723026 0.010519475
0.063817032 0.092910089 0.010021418
0.062035359 0.089007258 0.028604686
0.063313767 0.089543767 0.027542949
0.065438926 0.09124583 0.02440533
0.066254601 0.08745607 0.033565491
0.065228999 0.084969357 0.051129878
0.064087264 0.082397915 0.056832761
0.064863741 0.08232706 0.056830972
0.065872684 0.082549319 0.055736005
0.066550903 0.082356751 0.055664361
0.069840625 0.085360765 0.048646361
0.070089459 0.0846202 0.047184229
0.070212752 0.083747737 0.048137009
0.071361274 0.084104359 0.053635567
0.07170824 0.083519012 0.053053439
0.073030092 0.084069528 0.048323005
0.074014552 0.084223464 0.051612079
0.07444635 0.083752148 0.048877656
0.07578519 0.084300384 0.047163874
0.077602588 0.085362852 0.050910443
0.078319766 0.085205019 0.04780975
0.078321323 0.08428055 0.048501551
0.08035586 0.085540108 0.04875353
0.080488466 0.084769771 0.045704156
0.081685275 0.085124657 0.04374209
0.08261729 0.08519908 0.047684759
0.082505211 0.08420635 0.047267258
0.083818346 0.084673643 0.049844354
0.084336616 0.084336616 0.051359415
0.08457765 0.083731875 0.048316926
0.086995669 0.085272983 0.044932663
0.087702028 0.085122555 0.049779534
0.087145247 0.083760969 0.046673417
0.089230098 0.084940188 0.050158888
0.089090474 0.083999589 0.048363358
0.090488069 0.08451245 0.051889211
0.092164643 0.085273832 0.052752465
0.092006221 0.084339038 0.042140305
0.092079155 0.083631523 0.053650975
0.094201557 0.084781408 0.050347567
0.094327793 0.08413019 0.051117182
0.095522396 0.084434979 0.052593797
0.096083656 0.084179491 0.048862457
0.096015304 0.08338172 0.051296502
0.097852498 0.084238239 0.052609891
0.097088024 0.082859606 0.054764539
0.09718328 0.082232006 0.057098478
0.09750133 0.081801966 0.057608157
0.098379292 0.081844963 0.058116972
0.099741749 0.082286946 0.058624804
0.11122036 0.090998478 0.030576736
0.16019484 0.099743962 0.0089679658
0.063469417 0.091984659 0.023127437
0.063118525 0.090169325 0.032052934
0.064813964 0.091287278 0.017559081
0.067434877 0.089913175 0.03226608
0.064223804 0.084505007 0.054754287
0.063742064 0.082781903 0.053683817
0.0654618 0.083925381 0.055566639
0.065367326 0.082743451 0.057075679
0.066838555 0.083548203 0.061091751
0.069904685 0.086302087 0.048363537
0.06916032 0.084341854 0.05042991
0.071559474 0.086216234 0.049176961
0.07115075 0.084703274 0.055158854
0.071805857 0.084477484 0.052212536
0.073452272 0.085409626 0.053160191
0.074159384 0.085240677 0.051698893
0.075402491 0.08568465 0.048271745
0.076545611 0.086006306 0.047391951
0.076700978 0.08522331 0.048616499
0.077403449 0.085058734 0.050394058
0.079265609 0.086158268 0.048867077
0.079007007 0.08495377 0.047803074
0.080199704 0.085318834 0.049254596
0.081535816 0.085827179 0.047084212
0.081055932 0.084433265 0.050700277
0.083744116 0.086334147 0.046527058
0.084465623 0.086189419 0.047238439
0.083982423 0.084830731 0.048800111
0.085968085 0.085968085 0.048267215
0.086553007 0.085696049 0.047665745
0.085603602 0.083925098 0.050027758
0.08913663 0.086540416 0.048989236
0.088697791 0.085286342 0.053939909
0.089601271 0.085334547 0.044851363
0.091082111 0.085926525 0.050004452
0.091237977 0.085269138 0.049242169
0.092067063 0.085247278 0.045390427
0.093755506 0.086014226 0.050899416
0.094326109 0.085751012 0.050983101
0.094168507 0.084836498 0.051409125
0.094779797 0.084624819 0.054643065
0.095889509 0.084857978 0.052121967
0.096840568 0.084947869 0.052089632
0.097877979 0.08511129 0.05258131
0.095919013 0.082688808 0.056465954
0.097004123 0.082909502 0.060914487
0.098092817 0.083129503 0.062649965
0.098501973 0.082774773 0.057790011
0.10362063 0.086350523 0.050118864
0.11515078 0.095165938 0.0075606108
0.1520879 0.09749224 0.0059311092
0.16233346 0.10209652 0.0072413385
0.065424524 0.095766336 0.0089097917
0.063114934 0.091065831 0.026135892
0.063448898 0.0902583 0.029877543
0.06818594 0.091823734 0.024104267
0.064461075 0.085665375 0.046676219
0.065209277 0.085534245 0.055884808
0.064468399 0.083478317 0.057881832
