ply
format ascii 1.0
comment PCL generated
element vertex 1254
property float x
property float y
property float z
element camera 0
property float view_px
property float view_py
property float view_pz
property float x_axisx
property float x_axisy
property float x_axisz
property float y_axisx
property float y_axisy
property float y_axisz
property float z_axisx
property float z_axisy
property float z_axisz
property float focal
property float scalex
property float scaley
property float centerx
property float centery
property int viewportx
property int viewporty
property float k1
property float k2
end_header
0.016242418 -0.0097161317 0.045371756
0.016743507 -0.010896435 0.044481385
0.017914392 -0.010513261 0.045813818
0.018142408 -0.011636431 0.039644144
0.018845599 -0.011911028 0.046127699
0.020659273 -0.011656877 0.050234672
0.020659273 -0.011975092 0.05019984
0.021697242 -0.011975092 0.05159086
0.022895681 -0.011074454 0.058143884
0.022823919 -0.012826147 0.051105719
0.025845574 -0.013359865 0.034935575
0.026616585 -0.012367601 0.030456722
0.026618965 -0.01324976 0.030673694
0.027166776 -0.013267348 0.0363013
-0.021889701 0.0016952665 0.03001586
-0.022237316 0.00053774985 0.028448196
-0.020791685 0.000986767 0.027415067
-0.016568642 4.3182168e-05 0.049990341
-0.015795376 -0.00093492959 0.051551916
-0.014610663 -0.0016900208 0.055243514
-0.014056819 -0.0011961589 0.0526595
-0.012816554 -0.00085909967 0.051964246
-0.012178481 -0.00063716015 0.050822347
-0.012927331 -0.0017554516 0.043920189
-0.011240593 -0.001744154 0.045705117
-0.010274393 -0.0023515909 0.045798235
-0.0095373727 -0.0025327692 0.045874063
-0.007997632 -0.0025524227 0.046333417
-0.0077410629 -0.0030980238 0.047730021
-0.0071583921 -0.0034807562 0.04720068
-0.0060779629 -0.0029954622 0.04653449
-0.0051385909 -0.0034988199 0.04653449
-0.0047402158 -0.0041866503 0.045407604
-0.0034353579 -0.0043133283 0.049530901
-0.0025204436 -0.0047453716 0.043473098
-0.0021647103 -0.004884827 0.044093344
-0.00081656926 -0.0048604114 0.046384424
-0.00040435046 -0.0049838321 0.046045035
0.00086582382 -0.0051354761 0.046330277
0.0014373213 -0.0051497286 0.045682538
0.0017806892 -0.0064084097 0.044815984
0.003298454 -0.0057698153 0.04699241
0.0038784607 -0.0057698153 0.045974799
0.0043144776 -0.0076410035 0.044345465
0.0054870457 -0.0061058779 0.044847336
0.0068890089 -0.0074752159 0.043256517
0.0070187715 -0.0074752159 0.043807119
0.0079635307 -0.0070056068 0.044191502
0.0087083429 -0.0076027289 0.046063419
0.0094370395 -0.0081935013 0.044502109
0.010911867 -0.008103041 0.041282725
0.011548281 -0.0079971515 0.045292523
0.012009041 -0.0089030564 0.043459568
0.013677155 -0.0083268723 0.046687096
0.013939684 -0.0091199214 0.046390206
0.014358066 -0.0095492499 0.044982091
0.015666738 -0.0090167532 0.048185982
0.016242418 -0.009367004 0.04479041
0.01713419 -0.0095323119 0.044878654
0.017895311 -0.009515617 0.047385566
0.018501302 -0.010708236 0.044895858
0.019196264 -0.010708236 0.044996656
0.02085872 -0.010446143 0.052547809
0.021080898 -0.010954557 0.050342113
0.022086341 -0.010857232 0.053445701
0.022364216 -0.011946672 0.055118293
0.023018138 -0.011446426 0.054881375
0.024901483 -0.01135299 0.044280469
0.026616585 -0.012367601 0.030563161
0.026616585 -0.012734732 0.030563161
0.02750086 -0.012182923 0.036793064
-0.021667963 0.0021617832 0.030305441
-0.021598402 0.00092596764 0.025976166
-0.021345697 0.0024737627 0.023806617
-0.019742681 0.0022763871 0.03001586
-0.016568642 4.9740309e-05 0.049990341
-0.015447835 0 0.052162245
-0.014610663 -0.0008574223 0.05392018
-0.013997538 -0.00049318746 0.050709277
-0.013285609 -0.00056951493 0.0526595
-0.012178481 -0.00058061257 0.051789571
-0.011593634 -0.00018360093 0.045705117
-0.011146792 -0.00021743658 0.042493273
-0.0095373727 -0.0017454124 0.045734942
-0.0090885097 -0.0016429651 0.044496737
-0.0081632677 -0.0013436584 0.046771571
-0.0078567173 -0.0020078502 0.043282244
-0.0064020678 -0.0016228691 0.047344986
-0.0060731014 -0.0019493857 0.044053674
-0.0052975477 -0.0025368668 0.042424601
-0.0042200908 -0.0029401053 0.047410369
-0.0029551983 -0.0027283372 0.043473098
-0.0019662604 -0.003474693 0.049048483
-0.0014986768 -0.0030645579 0.045304153
-0.00088126981 -0.0038383331 0.047078703
0.0003086552 -0.0042800861 0.044883285
0.00055021048 -0.0034403726 0.046330277
0.0014385954 -0.0051013418 0.042159185
0.0023028105 -0.0047724303 0.04497081
0.0034878456 -0.0048787971 0.044341866
0.0038648471 -0.0057698153 0.046098866
0.0049247341 -0.0048699826 0.042029552
0.0052063898 -0.0052063898 0.049870543
0.0069863135 -0.0062119737 0.043800883
0.0073278993 -0.0061130244 0.043466881
0.0087083429 -0.0068408214 0.046122536
0.0092155486 -0.0061412198 0.041931998
0.0098792966 -0.0067357118 0.043228138
0.010725133 -0.0067896671 0.047599494
0.011330028 -0.0070114811 0.046265207
0.012923453 -0.0081246607 0.044747204
0.013012095 -0.007937246 0.044686347
0.014714941 -0.0081264079 0.041803729
0.014778334 -0.0087901466 0.045128025
0.015454881 -0.0087497458 0.046039343
0.016671721 -0.008490175 0.044878878
0.017232947 -0.0090495367 0.04479041
0.0183415 -0.010480857 0.043960568
0.019282803 -0.0092488257 0.0437329
0.020245515 -0.0094127841 0.040647928
0.020126024 -0.010470685 0.047381312
0.022086341 -0.0095759323 0.052547809
0.022086341 -0.010861153 0.053817868
0.023222916 -0.010640787 0.054904431
0.023995258 -0.010141756 0.053313065
0.024817687 -0.0092848577 0.049447779
0.026616585 -0.012308038 0.030221477
0.027885253 -0.011443072 0.027516577
0.027523557 -0.011579247 0.0363013
0.029585933 -0.0097723026 0.013207532
-0.022021011 0.0029434795 0.027762493
-0.021355873 0.0032377583 0.02799806
-0.020611836 0.0024737627 0.021831028
-0.018157363 0.00086301751 0.037858255
-0.015664568 0.0017083717 0.052069247
-0.015153795 4.3182168e-05 0.050530069
-0.014420956 0.00088271941 0.052296109
-0.013570156 0.00088271941 0.0526595
-0.012702925 -1.7661136e-05 0.051789571
-0.011988134 0 0.044329315
-0.011466282 0.00017760321 0.046058208
-0.010509173 -0.00021743658 0.041903105
-0.0098319435 -0.00058712065 0.047030617
-0.0091248006 -0.0011758488 0.045466952
-0.0079798624 -0.0012305118 0.047344986
-0.0076777274 -0.00076859444 0.041348517
-0.0062393993 -0.0014614838 0.044819172
-0.0057248026 -0.0018960908 0.047143962
-0.0049419994 -0.0017473935 0.042311132
-0.0036655888 -0.0026110765 0.046050832
-0.0028838962 -0.0025833063 0.042465385
-0.0023970793 -0.0024303831 0.044061061
-0.0018148546 -0.0027545835 0.041849729
-0.00068395352 -0.0029096922 0.042260114
0.00044280157 -0.0026154062 0.046260975
0.00099167973 -0.0039186035 0.044127796
0.0019539329 -0.0030297246 0.044522658
0.0026260014 -0.0034101643 0.045923196
0.0034638273 -0.0039587291 0.045807682
0.0041307658 -0.0050073625 0.043323349
0.0052149817 -0.0051951241 0.043800883
0.0054661087 -0.0052013919 0.044003047
0.0070825294 -0.0043713432 0.044175748
0.0081542432 -0.0047761649 0.047457479
0.0082366653 -0.0060952068 0.044930875
0.0092834812 -0.0056954846 0.044782937
0.010106036 -0.0061496976 0.048267234
0.010909788 -0.0062150015 0.043804616
0.011691988 -0.0058051744 0.045707908
0.012019143 -0.0078887492 0.041282725
0.013110356 -0.0075916611 0.044736397
0.01437488 -0.0065181283 0.043926589
0.014846012 -0.0079070209 0.04313425
0.016164765 -0.0069492278 0.045210231
0.016603287 -0.0080987383 0.046514478
0.017422847 -0.0083507923 0.043649375
0.018628836 -0.007833695 0.045319065
0.019409269 -0.0081422217 0.045319065
0.019700386 -0.0094338171 0.044596784
0.020672135 -0.0081526656 0.04802404
0.021569636 -0.010088434 0.050637718
0.022037344 -0.010088434 0.050764114
0.02313854 -0.0096158395 0.053158607
0.023995258 -0.010372188 0.053769663
0.024587328 -0.010220125 0.05302766
0.027770609 -0.010402211 0.027815389
0.029612131 -0.009774182 0.021538649
0.027451647 -0.011856428 0.030673694
0.029626185 -0.0097723026 0.013823614
-0.021899614 0.0041221771 0.028201735
-0.021339364 0.0038045309 0.026000023
-0.020558601 0.0038047449 0.01741004
-0.016635668 0.0017927313 0.047391206
-0.015664568 0.0017083717 0.05177623
-0.014876083 0.0017083717 0.051100194
-0.014420956 0.0018060948 0.052296109
-0.013497258 0.00060305884 0.051100194
-0.012333989 0.00032301061 0.050709277
-0.011783925 0.0013660789 0.042883739
-0.011594153 0.00016240473 0.044814665
-0.01052962 0.00087600754 0.047675807
-0.0094731627 0.00060780905 0.048986357
-0.0090885097 -0.001475245 0.044496737
-0.007917447 0.00042558089 0.044690367
-0.0076988367 -0.00075825187 0.041348517
-0.0064659016 -0.001018572 0.045067936
-0.0053742118 -0.00088864722 0.044240326
-0.0050809546 -0.0015061869 0.042465385
-0.0040456178 -0.0015061869 0.042465385
-0.0029465873 -0.00087907159 0.046073169
-0.0022615343 -0.0017528171 0.04352944
-0.0015041663 -0.002486981 0.043349709
-0.00068395352 -0.0023220677 0.04186241
0.0003086552 -0.0026154062 0.045617782
0.0009674154 -0.0026902854 0.04254299
0.0021674493 -0.0027895309 0.046055365
0.0024495476 -0.0038792156 0.044208903
0.0035851477 -0.0033084936 0.043907981
0.0043808427 -0.0033084936 0.045653168
0.0049127489 -0.0043417597 0.041953743
0.0064212186 -0.0043553952 0.045428544
0.0070255622 -0.0043677608 0.045306556
0.0078619691 -0.0048403256 0.043867931
0.009055417 -0.0044031423 0.048354801
0.0095594022 -0.0052628084 0.042867985
0.010739909 -0.005213839 0.046362311
0.011263905 -0.0055023022 0.046362311
0.011263905 -0.0059974734 0.048071619
0.013139662 -0.006453956 0.042392224
0.013931036 -0.0056126686 0.044006854
0.014197473 -0.0068523041 0.044071816
0.01524431 -0.0066976771 0.041894834
0.016164765 -0.0069492278 0.045210231
0.016671721 -0.007166056 0.044878878
0.017628826 -0.0077093691 0.044878878
0.018557087 -0.0072074095 0.048327256
0.018275417 -0.009462866 0.040841866
0.020276813 -0.0074303299 0.04802404
0.021742869 -0.0082080122 0.042553671
0.022134572 -0.0085438099 0.050193138
0.022712694 -0.0086878277 0.052100189
0.023029007 -0.0093678115 0.053158607
0.02313854 -0.009741283 0.052875102
0.025015501 -0.0080753602 0.055456758
0.027471021 -0.009656718 0.041323185
0.029573044 -0.0093948934 0.012661425
0.028351046 -0.0096150059 0.036301415
0.029585933 -0.0093948934 0.015407627
-0.021603663 0.0039883694 0.028070062
-0.021179199 0.0037068804 0.024234982
-0.016287442 0.0026791012 0.048947141
-0.015375344 0.002327553 0.052158087
-0.014748547 0.0027713515 0.0526108
-0.014559349 0.0017324388 0.04722999
-0.013781388 0.0014523526 0.052906532
-0.012260076 0.0017534425 0.046340793
-0.012020493 0.0017687728 0.045377035
-0.011351306 0.0017450231 0.042839237
-0.010359627 0.0010090377 0.041789137
-0.0095416401 0.00041996432 0.046058208
-0.00841254 0.0010624495 0.045774769
-0.0079020606 -4.61163e-05 0.041516926
-0.0068228738 0.0011652297 0.041372754
-0.0065264003 -3.909925e-05 0.04104723
-0.0053742118 -0.00014641881 0.044959031
-0.0048606494 -3.909925e-05 0.040945753
-0.0036576688 -4.7918176e-05 0.044752598
-0.0028574532 -0.00087714847 0.046102956
-0.0021716105 -0.0013800561 0.043242883
-0.00098239398 -0.00060645957 0.045214564
-0.00063341914 -0.0021912367 0.042684745
0.001184228 -0.0015342289 0.042684745
0.0013334478 -0.0015506371 0.042515207
0.0018921196 -0.0028416002 0.044476897
0.0030568603 -0.0018201768 0.043944716
0.0037637758 -0.0029650778 0.045699738
0.0042425394 -0.0034385095 0.043323349
0.0055100042 -0.0032915603 0.046592269
0.0066841468 -0.0031465702 0.042553637
0.0069962642 -0.0035423411 0.043201026
0.0080772862 -0.003520438 0.043891236
0.0084737986 -0.0047973027 0.043867931
0.0095823966 -0.004355635 0.042689025
0.010242143 -0.0049756793 0.042930771
0.011522589 -0.004436377 0.044288665
0.012293875 -0.0049569299 0.043854807
0.013062216 -0.0052870922 0.043957047
0.013557188 -0.0058690002 0.042790264
0.014772438 -0.0047370046 0.045791052
0.014843087 -0.0061027389 0.043508716
0.016225532 -0.0065506101 0.045359995
0.017346352 -0.006081786 0.046626221
0.018085457 -0.0059269164 0.04784403
0.018557087 -0.0069812252 0.048039608
0.019530458 -0.00696564 0.044975407
0.020276813 -0.0074303299 0.047854431
0.022009663 -0.0081957392 0.040822141
0.022536626 -0.0077571576 0.050322823
0.022239678 -0.0090902559 0.052100189
0.0231429 -0.0084565254 0.053031292
0.023836792 -0.0084267501 0.050550804
0.025142871 -0.0089532547 0.050475679
0.026253439 -0.0079967687 0.044957876
0.033337831 -0.0083285412 0.0052689537
0.027967842 -0.010015572 0.027516577
0.029585933 -0.0093948934 0.013823614
-0.021179199 0.0055532916 0.025790393
-0.02070274 0.0057511209 0.02209032
-0.016184695 0.0041919276 0.051480111
-0.015330387 0.0036648293 0.052341484
-0.014729939 0.0027333666 0.050535746
-0.014132004 0.0021717879 0.047424816
-0.012755049 0.0031877421 0.053584374
-0.012422636 0.0024143287 0.044114146
-0.011665987 0.0022379579 0.042883739
-0.011015638 0.0023115887 0.044561636
-0.010509173 0.0015212726 0.042883739
-0.0095161675 0.0013900949 0.042775676
-0.008084273 0.0019898601 0.04640156
-0.0075726369 0.00073351245 0.041176602
-0.0063555664 0.0010630973 0.043844759
-0.005685715 0.001294882 0.042333879
-0.0053650551 0.0011652297 0.041920304
-0.0048606494 0.0006725553 0.039869536
-0.003716527 4.4430402e-05 0.043729275
-0.002645588 0.00033095106 0.04494936
-0.0012582168 0.00044044107 0.043520194
-0.00090136379 -0.00060645957 0.045406472
0.00050715194 0 0.0396243
0.00058671832 -0.00092561281 0.04691837
0.0015888875 -0.00096837245 0.04254299
0.0026326086 -0.00087157171 0.047216564
0.0030793417 -0.0017043315 0.043342277
0.0040652407 -0.0019647623 0.047016326
0.0048220349 -0.002000846 0.042901807
0.0057029268 -0.002000846 0.043541163
0.0065716803 -0.0031295829 0.041506387
0.0080262721 -0.002447119 0.044668406
0.0079605412 -0.0031456128 0.040914994
0.0084737986 -0.0036088079 0.043867931
0.0096590975 -0.0038464805 0.043519702
0.010711461 -0.0035121469 0.045437902
0.011294569 -0.0044726096 0.042868908
0.012346581 -0.0034141557 0.044032451
0.012807707 -0.0049569299 0.042626161
0.014149045 -0.0052047567 0.04283458
0.014443569 -0.0053058919 0.042962391
0.015672013 -0.0066573336 0.041106515
0.016611548 -0.0054324046 0.046200395
0.017681576 -0.0048007593 0.044348568
0.017628826 -0.0068369051 0.045667678
0.019072939 -0.0057091261 0.048186284
0.020015575 -0.0057159266 0.048179932
0.020162109 -0.0072119953 0.044975407
0.021864951 -0.0061686877 0.042027209
0.021382034 -0.007767003 0.045697864
0.022789199 -0.0075198729 0.048856944
0.023952968 -0.0068105217 0.055142399
0.024273396 -0.0076647154 0.053135678
0.025219845 -0.0078243185 0.050550804
0.026381023 -0.0068696262 0.045304455
0.029585933 -0.0084590362 0.013207532
0.029585933 -0.0080575161 0.018732846
0.029585933 -0.0084590362 0.013152685
-0.020899834 0.0064126886 0.025858665
-0.019551791 0.0060089333 0.026130501
-0.016077913 0.0048578605 0.050301433
-0.015613958 0.003606854 0.05030968
-0.014200643 0.0037832826 0.052155089
-0.013326026 0.0042632706 0.049513716
-0.012755049 0.0030695191 0.052121684
-0.012025779 0.0035389562 0.041848205
-0.011665987 0.0035025582 0.043563634
-0.011222498 0.0020138565 0.041207738
-0.0095535759 0.003253154 0.044023417
-0.0090990588 0.0026338082 0.045789238
-0.0085557867 0.0013503495 0.042320073
-0.0072013768 0.0026576282 0.041382417
-0.0066972757 0.0021395204 0.041372754
-0.0060373768 0.0012989345 0.041651972
-0.0053650551 0.0017518542 0.041852601
-0.0035916716 0.0010672621 0.045144111
-0.0026549252 0.0012308497 0.041141182
-0.0022063414 0.0017418806 0.045690157
-0.0015940117 0.00094546104 0.041224517
-0.00095790625 0.0004710177 0.040581115
-4.5212917e-05 -7.6267868e-05 0.043607157
0 -0.00073703739 0.045018308
0.0015888875 -0.00071560475 0.04266908
0.002336937 -0.0013037755 0.043209393
0.0030725524 -0.0010868156 0.041545998
0.004619766 -0.00011067837 0.045918249
0.0053471252 -0.00094074215 0.04398844
0.0054497346 -0.0017565482 0.042738575
0.0068445588 -0.0016372977 0.041506387
0.007294565 -0.0025511102 0.042525947
0.0082985265 -0.002447119 0.044408429
0.0096146278 -0.0011654539 0.046530709
0.010562267 -0.0026405668 0.043028068
0.01059028 -0.003512399 0.043028068
0.011886708 -0.0026426413 0.043706447
0.012511674 -0.0034349933 0.044969976
0.013261898 -0.0041956138 0.041388094
0.014341629 -0.003271108 0.045908399
0.01493676 -0.0042539109 0.046363264
0.01622878 -0.0042836461 0.045796927
0.016729053 -0.0044440073 0.045693904
0.016741678 -0.0048007593 0.042517643
0.01801182 -0.0057588685 0.04784403
0.018557087 -0.006081786 0.047960177
0.019286156 -0.0060696546 0.044975407
0.020630255 -0.0059673637 0.044036031
0.021734364 -0.0056721237 0.042027209
0.021871664 -0.0064276103 0.046020508
0.022789199 -0.0061240657 0.047794282
0.024062049 -0.0070379018 0.055974647
0.024400555 -0.0073594386 0.053192373
0.025222521 -0.0067589069 0.054705679
0.026207995 -0.007668566 0.04859525
0.028665164 -0.0063878717 0.027258784
0.029585933 -0.0080575161 0.015407627
0.030748025 -0.0083285412 0.0078126388
-0.020790448 0.007727772 0.02129963
-0.01616532 0.0059740534 0.049301837
-0.015253611 0.0048578605 0.049513716
-0.014200643 0.0046948977 0.05288922
-0.013744842 0.0042632706 0.050675217
-0.01249605 0.0038907188 0.050178364
-0.012557335 0.0048034387 0.040489495
-0.011607466 0.0035304718 0.043360282
-0.0097782165 0.0040919976 0.045911562
-0.0096572964 0.0028861053 0.045885283
-0.0089178635 0.003253154 0.044958014
-0.0080857268 0.003253154 0.044798855
-0.0072013768 0.0026713978 0.040791672
-0.0062011322 0.0017726332 0.041516926
-0.0055598463 0.0018203313 0.042602412
-0.0046270341 0.0027870629 0.045679078
-0.0033724234 0.0019622198 0.043551292
-0.0031589791 0.0023670988 0.042622831
-0.0022338126 0.001316499 0.045446966
-0.001115635 0.0010939379 0.041860126
-0.00050163269 0.0023645097 0.04309687
0 0.00044044107 0.043813389
0.0011762008 0.00015446963 0.040886909
0.0024477784 0.00091806747 0.043561649
0.0021990605 -0.00025713679 0.04271061
0.003218892 -0.00045400899 0.041892968
0.0044570789 -0.00011067837 0.045387514
0.0054497346 -0.00047302246 0.040752918
0.0062025669 -0.00088608102 0.044042565
0.0066752061 -0.00098603219 0.044639677
0.0077337357 -0.00088329619 0.04290713
0.0087612867 -0.00093493424 0.043662209
0.009551513 -0.0013649028 0.045153338
0.010508306 -0.0019551814 0.041252166
0.011365509 -0.0017464625 0.04451251
0.012254689 -0.0032415502 0.045445759
0.012562409 -0.0021997951 0.04197209
0.013570763 -0.0025340773 0.045524877
0.014341629 -0.0026526211 0.045775373
0.015064039 -0.0037930666 0.043776441
0.0157497 -0.0043327468 0.046803452
0.016729053 -0.0044176076 0.045842212
0.017592503 -0.0043981257 0.044601589
0.018085457 -0.0050479323 0.04784403
0.019062445 -0.0055350326 0.044916637
0.020210296 -0.0042676181 0.042298272
0.021436334 -0.0045846459 0.051197309
0.021733928 -0.0052970536 0.042288892
0.022465438 -0.0049867332 0.041227765
0.022906771 -0.006192537 0.044665035
0.023952968 -0.0060074194 0.053187199
0.024995685 -0.005951175 0.05466643
0.025783228 -0.0058630905 0.053783759
0.026163774 -0.007224489 0.048932482
0.0295619 -0.0057094647 0.026909396
0.029474333 -0.0066367947 0.017487014
-0.020229056 0.0080257133 0.021831028
-0.016013445 0.005395602 0.048516843
-0.01457041 0.0059740534 0.049919825
-0.014018927 0.0052603395 0.051176473
-0.013130106 0.005860013 0.04931565
-0.01249605 0.0055648275 0.050675217
-0.012557335 0.0059508085 0.039935447
-0.011221739 0.0052242912 0.044266965
-0.010574391 0.0051480737 0.042312037
-0.0088762064 0.0044573406 0.044266965
-0.0084711574 0.0038709065 0.047287785
-0.0076604122 0.0037489058 0.042020701
-0.0072013768 0.0030468123 0.042399004
-0.0066972757 0.0038259514 0.040791672
-0.005197545 0.0036459961 0.046604674
-0.0043118228 0.0034615025 0.043758042
-0.0034651854 0.004866132 0.039818946
-0.0029589348 0.0023670988 0.043770023
-0.0017958977 0.0021935068 0.042924136
-0.00090829702 0.0027007838 0.044363998
-0.00035454123 0.0017794474 0.042171814
0.00044040382 0.001503747 0.041648746
0.0011762008 0.0026583516 0.041073985
0.0024477784 0.0014924072 0.043316077
0.0030874817 0.001182695 0.04032525
0.0041519105 0.0007321898 0.039949436
0.0042648315 -4.2497617e-05 0.044110622
0.0058864993 0.00058589317 0.042627573
0.0062916763 0.00024202012 0.042862542
0.0068445588 -0.00098114833 0.041130569
0.0077337357 -0.00093493424 0.04269265
0.0088245133 -2.874434e-05 0.043763936
0.0096146278 -0.0011654539 0.046470076
0.010741197 -0.00085388683 0.041494198
0.011410845 -0.0012945102 0.044458084
0.012294506 -0.0021348651 0.041579291
0.013880223 0 0.049026486
0.013409016 -0.0017974395 0.043626636
0.014307867 -0.0026426413 0.04347077
0.015828323 -0.0017408457 0.045032624
0.015929991 -0.003572447 0.04347077
0.017441571 -0.002158622 0.048524618
0.018470978 -0.0025725435 0.047143072
0.018667677 -0.0036941897 0.049898561
0.019539304 -0.0033541778 0.044632543
0.020015575 -0.0044098063 0.047793746
0.021086173 -0.0047933422 0.043648589
0.021948978 -0.0043002777 0.045789234
0.023330381 -0.0041213091 0.04789092
0.023371609 -0.0050217994 0.04789092
0.024480384 -0.0047649457 0.052266262
0.02521841 -0.0053711692 0.050971031
0.025444772 -0.0055049136 0.050314046
0.026482098 -0.0051134122 0.051001195
0.0295619 -0.0057094647 0.026626613
0.029695826 -0.005162396 0.025234867
-0.020170322 0.0094657168 0.020477872
-0.020100432 0.0094657168 0.017390355
-0.015665963 0.0072538466 0.048994049
-0.014290093 0.007053283 0.053377926
-0.013883921 0.0059740534 0.049301837
-0.013130106 0.0058736252 0.04931565
-0.012341529 0.0055005923 0.052348565
-0.012212407 0.0066034105 0.039935447
-0.010963421 0.0061106565 0.044334605
-0.010574391 0.0054644626 0.042316124
-0.0094256597 0.0058127139 0.042400926
-0.0087276883 0.0045483005 0.044277672
-0.0080962926 0.0038259514 0.043603916
-0.0067028403 0.00565639 0.043077134
-0.0064252997 0.0037489058 0.041662831
-0.0052253082 0.0040558362 0.045273535
-0.0043893931 0.0041182935 0.043039031
-0.0037059505 0.0042841379 0.041687943
-0.0026700604 0.0031401941 0.042307287
-0.001673446 0.0036296705 0.044830382
-0.00097914785 0.0030477638 0.044925421
-1.0220101e-05 0.0031164624 0.040879842
0.00044040382 0.0029622987 0.040864184
0.0016966015 0.0023025647 0.044265836
0.0024477784 0.00174749 0.043803491
0.0027109459 0.002428992 0.042291641
0.0043931305 0.0024468675 0.045498762
0.0052127629 0.0021618991 0.042076677
0.0057802708 0.0018990624 0.040275212
0.0062916763 0.00024202012 0.043365616
0.007387206 0.00030946417 0.043350492
0.0081405379 0.00045797008 0.043216828
0.0084517747 -0.00057154079 0.04163241
0.010383662 0.00087917375 0.046716988
0.010508306 -0.00094112009 0.041110843
0.011410845 -0.00088258 0.044728696
0.01234293 -0.0006253086 0.046264134
0.013102985 -0.0004600198 0.045515068
0.014426306 -0.0012224428 0.045375176
0.014769639 -0.0013440996 0.046390109
0.015772255 -0.002008046 0.044907562
0.016648114 -0.0017554378 0.044907562
0.017096382 -0.0024898893 0.044604555
0.017643631 -0.0027139448 0.043729529
0.019001041 -0.0018567368 0.046548355
0.019539304 -0.0033541778 0.04480058
0.020210296 -0.0039578639 0.042636402
0.021426991 -0.0031186529 0.04379037
0.022198781 -0.0032407497 0.045972496
0.023041081 -0.0037352848 0.041153848
0.024425911 -0.0037960783 0.051118836
0.024264487 -0.0050514187 0.054565459
0.025650959 -0.0047649457 0.053429306
0.026434954 -0.0041524144 0.053456608
0.026595945 -0.0051728929 0.048016392
0.0295619 -0.0057094647 0.026626613
0.029695826 -0.005162396 0.025234867
-0.019895259 0.010422813 0.017390355
-0.015397992 0.0072538466 0.049197495
-0.014504297 0.0069455705 0.049919825
-0.013384941 0.0076557957 0.053377926
-0.013326026 0.0064929621 0.048865616
-0.012135141 0.005860013 0.048865616
-0.011673412 0.0070818998 0.040637724
-0.010574391 0.0058127139 0.043957297
-0.010562088 0.0067160027 0.041312426
-0.0094256597 0.0060333377 0.042400926
-0.0081361895 0.0052232677 0.047023468
-0.0067522693 0.0058548842 0.042107075
-0.0067028403 0.0052911518 0.043006599
-0.0055906419 0.005818191 0.039735075
-0.0043855705 0.0052668937 0.044038594
-0.0041032596 0.0042995922 0.042179644
-0.0034651854 0.0043723867 0.041673772
-0.0023167958 0.0052943877 0.043123852
-0.0017642799 0.0035285598 0.042839505
-0.00032158731 0.0039463942 0.040581238
0.00086700264 0.0047777221 0.045737587
0.00087765552 0.0028887789 0.043431409
0.0015329067 0.0030059887 0.040528677
0.0026167375 0.0029622987 0.042002112
0.0036416641 0.0026971011 0.040275212
0.004881233 0.0025661364 0.041790813
0.0051051863 0.0022797419 0.041790813
0.0058755437 0.0020310557 0.04250782
0.006999976 0.0023940876 0.045007832
0.007708509 0.00090887386 0.043575261
0.0081405379 0.00045797008 0.043216828
0.0091955494 0.0010318066 0.043327391
0.0097341463 0.0008532363 0.043596011
0.01177004 0.00066203461 0.038713604
0.01213818 0.00087782647 0.046983927
0.012108524 -0.00044063386 0.047405817
0.01329004 1.2947246e-05 0.043388583
0.014150687 1.2947246e-05 0.042108797
0.014905035 -0.00069562811 0.044515315
0.016326051 -0.00079092756 0.039886359
0.017020542 -0.00098449551 0.047673754
0.017140727 -0.0019848517 0.041895822
0.018593326 -0.0017492564 0.045280281
0.019001041 -0.0022795834 0.045854524
0.019621419 -0.0023324937 0.045259371
0.020868018 -0.0019062012 0.042410832
0.021828271 -0.0026409919 0.04477213
0.02265444 -0.0035132654 0.041490216
0.023094796 -0.0029588304 0.043674055
0.023843266 -0.0037500919 0.048404597
0.024744224 -0.0039717299 0.050983313
0.025372682 -0.0037960783 0.051118836
0.026142377 -0.0034195753 0.052053735
0.026513571 -0.0046876851 0.050484207
0.029519387 -0.0021504723 0.016644899
0.030417245 -0.0032545645 0.022488117
-0.019855523 0.011300048 0.01796338
-0.018280543 0.0092776194 0.022051822
-0.015444802 0.0083574643 0.045967523
-0.013522938 0.0087118149 0.05015514
-0.013522938 0.0076940353 0.049511492
-0.01226829 0.0080622695 0.052566275
-0.012251422 0.0078823715 0.052566275
-0.011673412 0.0070818998 0.040637724
-0.010562088 0.0067160027 0.042127851
-0.0096529564 0.0078660799 0.047711462
-0.0089810658 0.0072941026 0.042978618
-0.0078950003 0.0077010673 0.043253001
-0.0070548691 0.0063442029 0.04510387
-0.006117668 0.0064128689 0.039737787
-0.0046946406 0.0063110813 0.04350391
-0.0044098301 0.0061860601 0.044038594
-0.0034312969 0.0057719401 0.040973604
-0.0026220237 0.0061696484 0.043320201
-0.0025161039 0.0054229591 0.039818946
-0.00087389234 0.0045137722 0.045045108
-0.00043790601 0.0055106338 0.043259971
0.00039812177 0.0031164624 0.040528677
0.0015329067 0.0044660713 0.039923567
0.0021550655 0.0037884724 0.042337626
0.0026167375 0.0035174531 0.042270843
0.0036020339 0.0035174531 0.042455632
0.004881233 0.0030098259 0.041589618
0.0051423437 0.0028445194 0.041237883
0.0061529092 0.0022797419 0.041395042
0.0071245357 0.0032115616 0.045041285
0.007708509 0.00090887386 0.043212224
0.0094051389 0.0028388761 0.041873954
0.0094940616 0.0020937084 0.042039119
0.010523769 0.0019517486 0.046401877
0.011241257 0.001775033 0.044407543
0.011861838 0.001338087 0.038935531
0.012979157 0.00022808835 0.044794261
0.013805875 0.00088652753 0.041862633
0.014105927 1.2947246e-05 0.04151981
0.014757566 -0.00042610615 0.040148597
0.01629021 0.00010927976 0.042108797
0.017024286 -0.0013949983 0.041020457
0.01801841 9.1703376e-05 0.045816347
0.019005241 -0.00079534203 0.04339271
0.019130796 -0.0017895401 0.045296103
0.019826178 -0.001806125 0.046646617
0.020970803 -0.0022961814 0.045059208
0.021426991 -0.0021191032 0.045789234
0.022458514 -0.0019717775 0.043055579
0.023374483 -0.0019504286 0.046405315
0.023400001 -0.0026184861 0.046462856
0.025376763 -0.0016909835 0.053732157
0.025592038 -0.0034195753 0.051786326
0.026482098 -0.0030831513 0.050887085
0.027216151 -0.0034286312 0.048684187
0.029479716 -0.0028130147 0.017888246
-0.019166984 0.011323692 0.019698232
-0.017978305 0.011388599 0.019035645
-0.014249604 0.010414773 0.050385486
-0.01431326 0.0090142004 0.046591073
-0.013401989 0.0080500375 0.05015514
-0.01226829 0.0088834949 0.052280515
-0.011593498 0.0082922466 0.050111026
-0.011094201 0.0087761618 0.045505073
-0.010137429 0.0094582886 0.045734346
-0.009239764 0.0073941709 0.042978618
-0.007971935 0.0078391805 0.044984754
-0.007971935 0.0076321475 0.043347105
-0.0061551249 0.0065293415 0.041510526
-0.0057480708 0.0077545792 0.048964728
-0.0054243207 0.0075966399 0.039821126
-0.0038713263 0.0057719401 0.039045684
-0.0036405176 0.0061860601 0.04376217
-0.0029202402 0.006145447 0.040163342
-0.0027215956 0.005818191 0.039125461
-0.00067625218 0.0066205338 0.046231922
-0.00043790601 0.0057478826 0.042136922
0.00058554206 0.0053857132 0.040181991
0.0017475736 0.0044005159 0.043132521
0.0018919318 0.0043688118 0.040479101
0.0029285674 0.0049301255 0.040479101
0.0036506348 0.0047961087 0.0396244
0.0046069976 0.0040628682 0.042481255
0.0054130084 0.0036018607 0.043724895
0.0064562634 0.0035540261 0.042023029
0.006838602 0.0025393527 0.041184485
0.0079392493 0.0030823126 0.041530132
0.0086087212 0.0028388761 0.041083869
0.0094772317 0.0020937084 0.042180687
0.010461919 0.002626854 0.042180687
0.011297376 0.0019517486 0.046670079
0.012091191 0.0018845904 0.043796849
0.012817372 0.0023855511 0.039238617
0.013615936 0.00099378498 0.043702509
0.014150687 -2.8622802e-05 0.040262047
0.015837334 0.0021411683 0.045264456
0.016202278 0.00087868114 0.044462543
0.016865185 0.00050445972 0.043153092
0.017766088 -0.0001661703 0.041265205
0.018519135 -0.00078263832 0.043852843
0.019678697 9.1703376e-05 0.04622462
0.020028107 -0.0010519638 0.047543097
0.021032676 -0.0012050269 0.042368867
0.021838307 -0.0010492578 0.04263268
0.021959927 -0.0019226829 0.042970229
0.023472302 -0.0015630489 0.048050135
0.024339329 -0.0011643793 0.047852404
0.024755223 -0.0025641902 0.056118209
0.025899004 -0.0019810367 0.049950175
0.027218189 -0.0017211589 0.051075097
0.02763512 -0.0029974799 0.046599478
0.029613351 -0.00044040964 0.017311763
-0.014349185 0.0098384656 0.043395638
-0.013466096 0.0097329114 0.050385486
-0.013231454 0.0096051488 0.050269652
-0.011309094 0.0089463275 0.045166969
-0.011388788 0.0098918928 0.050708301
-0.01047523 0.0094680674 0.045749255
-0.010137429 0.0094582886 0.045734346
-0.0087828385 0.0092024105 0.041608952
-0.0087150829 0.0079015074 0.042049378
-0.007510541 0.0078659486 0.04686784
-0.0069662258 0.0080313878 0.043233465
-0.0060411715 0.0075966399 0.040765829
-0.0060411715 0.00702825 0.040494688
-0.0036405176 0.0078093181 0.044303708
-0.0025161039 0.0077652894 0.037531286
-0.0024863565 0.0064063179 0.041738518
-0.0016873335 0.0074310242 0.044392128
-0.0010853857 0.0064063179 0.041816302
-0.00019586785 0.0061797267 0.042136922
0.00062590674 0.006310604 0.0412593
0.0015989691 0.0056364629 0.040720113
0.0026107302 0.0061217565 0.0456765
0.0031408174 0.0057725562 0.039763052
0.0034426113 0.0049301255 0.040399946
0.0049034776 0.0051404424 0.043724895
0.0057919435 0.0050477744 0.044272847
0.0064562634 0.0038933479 0.041125253
0.0073486939 0.00458821 0.043674659
0.0080903694 0.0042290892 0.041861519
0.0089880209 0.0035946146 0.039667167
0.00967965 0.003176922 0.041274048
0.010397404 0.003176922 0.041216128
0.011772357 0.0026534684 0.040123172
0.013098047 0.0030508749 0.046064161
0.013306648 0.0026009828 0.041444488
0.013805875 0.0019245355 0.04178774
0.014991067 0.0023125596 0.041444488
0.015443511 0.0013784654 0.042758163
0.016679868 0.0013771644 0.043153092
0.017204177 0.0012056937 0.043160707
0.017647289 -0.00018561166 0.040898319
0.018865235 0.0011691588 0.040893923
0.019678697 0.00097342627 0.045267615
0.020248951 -5.9300335e-05 0.044724874
0.021387931 -2.4497509e-05 0.043224599
0.02194955 -0.00014345883 0.043032452
0.022800218 -0.00042648986 0.04049151
0.023594286 0.00025637727 0.045902997
0.024683252 -0.00017196988 0.050288349
0.025592038 -0.00068115629 0.052892245
0.026341461 -0.0017247358 0.050898135
0.027218189 -0.0016524084 0.051075097
0.028639127 -0.00088850298 0.039639715
-0.014937131 0.010612991 0.038766742
-0.01299927 0.0096333325 0.052041285
-0.012653306 0.0099821175 0.052280515
-0.012005597 0.010238779 0.048992898
-0.011300892 0.010109169 0.049128097
-0.01056864 0.0096243303 0.046567559
-0.0089940354 0.0092024105 0.041312426
-0.0089940354 0.0099360151 0.043189704
-0.0087150829 0.0086167781 0.041608952
-0.0071288189 0.0090169106 0.044602085
-0.0065003633 0.0090169106 0.04479114
-0.0060411715 0.0075966399 0.040458839
-0.0048728315 0.0096092727 0.041108992
-0.0036405176 0.0078093181 0.043959677
-0.0029766932 0.008030084 0.040009737
-0.0024943594 0.0081822034 0.038871653
-0.0017614549 0.0070119817 0.043401264
-0.0010876008 0.0064063179 0.040163342
0.00010674447 0.0076561449 0.041728947
0.0009090536 0.0063322377 0.040165156
0.0015989691 0.0060959952 0.042601537
0.002957508 0.0072494294 0.043119133
0.0033453959 0.0057725562 0.037962504
0.0038314231 0.0060879719 0.040858153
0.0038314231 0.0057725562 0.037962504
0.0055087223 0.0051600691 0.043606691
0.0070451158 0.0058321469 0.044400517
0.0077639967 0.0051866388 0.040723506
0.0080903694 0.0044448548 0.041530132
0.0093310969 0.0048320396 0.044504531
0.010339431 0.0047449805 0.042901278
0.010593918 0.0042801835 0.043147951
0.012526686 0.0042774882 0.040626585
0.012243477 0.0030363984 0.040514044
0.012817372 0.0029658303 0.039871238
0.014926084 0.0036004814 0.044988237
0.014991067 0.0023125596 0.041644156
0.015000976 0.0023125596 0.041396704
0.017137073 0.0034788949 0.045684289
0.01697287 0.001442041 0.042246591
0.018495355 0.0029980205 0.042246591
0.019054566 0.0022973022 0.042636536
0.019360725 0.00094768731 0.042573046
0.021752678 0.0021900833 0.051477157
0.021446519 0.00058465428 0.043376543
0.022149494 0.00023176405 0.042066272
0.023432221 0.00096091256 0.0403229
0.023979824 0 0.049748197
0.025235705 -7.2246417e-05 0.05248886
0.025430504 -0.00017196988 0.052768037
0.026045097 -0.0012945943 0.04943284
0.027151357 -0.00072574359 0.050081093
-0.012658887 0.011287883 0.048670094
-0.012252339 0.011287883 0.048665091
-0.011350069 0.011386902 0.052306205
-0.011234809 0.010238779 0.048596669
-0.010110172 0.010113687 0.050604999
-0.009079542 0.011102926 0.042494707
-0.009079542 0.00973331 0.04269528
-0.0085042054 0.0097218566 0.04169821
-0.0071288189 0.010164838 0.044501975
-0.0061551249 0.0083586667 0.042107075
-0.0056725694 0.0093874494 0.041951522
-0.0042917021 0.0088576293 0.043052878
-0.0042422824 0.0081822034 0.039873108
-0.0026217289 0.0094517078 0.045603909
-0.0024527549 0.0085506663 0.039873108
-0.0010876008 0.0084665157 0.04055883
0 0.0083256513 0.041364722
1.6845064e-05 0.0077711944 0.041728947
0.0011744539 0.0077544996 0.037733499
0.0022574994 0.0091329664 0.040163178
0.002957508 0.0069967867 0.043246727
0.0038314231 0.0067479787 0.037962504
0.0046936963 0.0075698011 0.043244965
0.0038314231 0.0057725562 0.037962504
0.006318368 0.006776988 0.041527756
0.0064232019 0.0061232243 0.043674659
0.0076853633 0.0052869138 0.039840996
0.0085583916 0.0056938771 0.042093981
0.009434795 0.0056052092 0.042342693
0.0098826615 0.0043694507 0.041095961
0.011254141 0.0053337421 0.04317829
0.01195398 0.0039012283 0.040705692
0.012652132 0.003999982 0.040705692
0.013530158 0.0044078375 0.043059766
0.013969203 0.0041601695 0.04289332
0.015379099 0.0038554454 0.042783521
0.016057983 0.0038554454 0.042815272
0.016748114 0.0030184358 0.041217849
0.018249776 0.003276058 0.042064212
0.01846331 0.0036562784 0.042077146
0.019054566 0.0022013057 0.043724287
0.020701792 0.0034603453 0.043968499
0.0207674 0.0018161517 0.047370464
0.022149494 0.00071746483 0.040774826
0.02278745 0.00087644038 0.045972604
0.022238947 0.0017199144 0.043152332
0.024042331 0.00075598061 0.049580947
0.025172118 0.00085698953 0.050866213
0.025430504 -0.00017196988 0.052768037
0.026451813 3.2440759e-05 0.047959581
0.027019415 0.00070689619 0.048769653
0.029519387 0.00057183579 0.017311763
-0.01641375 0.014556654 0.020036966
-0.013351722 0.012521663 0.046651144
-0.012252339 0.011541445 0.048670094
-0.011241697 0.011406424 0.051769026
-0.010258563 0.011404675 0.054075889
-0.0092446953 0.010994569 0.052261148
-0.0087098237 0.011485232 0.045319825
-0.0086756134 0.011412223 0.042655747
-0.0076201214 0.011404143 0.045739178
-0.0070122816 0.010035999 0.042927541
-0.0060914005 0.011511681 0.045447662
-0.0052122548 0.010504697 0.04308546
-0.0042422824 0.0094860885 0.040280577
-0.0034345519 0.010462913 0.04089506
-0.0024516946 0.010433305 0.040510673
-0.0016461853 0.0094153993 0.037115157
-0.00062655658 0.0093175359 0.044563215
0.00040011108 0.0085633313 0.04354082
0.00048586354 0.0082131289 0.043369517
0.0020580024 0.0091329664 0.040006351
0.0020567775 0.0077544996 0.037962504
0.0031408174 0.0085343178 0.040006351
0.0039337864 0.0086184461 0.040163178
0.0046340078 0.0082978578 0.040991906
0.0048690084 0.0073798313 0.038275022
0.0063457582 0.0068943053 0.043725636
0.0075044902 0.0070280312 0.04076831
0.0085437261 0.0063007902 0.041323133
0.0088078417 0.0059086494 0.042222261
0.0092667732 0.0052869138 0.040057458
0.010609729 0.0066347551 0.039689325
0.011290684 0.0053481967 0.043081604
0.01199127 0.0054048188 0.040027291
0.013345741 0.0066489521 0.043735262
0.013617888 0.0043653757 0.04266984
0.014954761 0.0054416424 0.043060921
0.015379099 0.0039264001 0.042814177
0.016057983 0.0038343121 0.042089473
0.016982175 0.003615757 0.041950032
0.017826103 0.0036562784 0.042036105
0.018395534 0.0028593347 0.043724287
0.020023048 0.0036895648 0.042771809
0.019632781 0.0014461316 0.044928234
0.020984381 0.0026544761 0.0463765
0.022437811 0.0030715773 0.041147362
0.022626866 0.0023700884 0.040355485
0.023372579 0.0011472553 0.045972604
0.024638264 0.0023505432 0.052537244
0.024459563 0.001107221 0.046297811
0.02585664 0.00085698953 0.050866213
0.026806585 0.0015129084 0.049580947
0.027417995 0.00037747994 0.043236546
0.029519387 0.0007623455 0.016206294
-0.013785575 0.013422157 0.038185265
-0.012114355 0.01288005 0.049783409
-0.011234809 0.012143716 0.047373634
-0.010260392 0.012441494 0.052250102
-0.009451896 0.011364212 0.051749356
-0.0092937294 0.012314637 0.049696743
-0.0086756134 0.011447329 0.042655747
-0.0082593821 0.011412223 0.041877728
-0.0063443976 0.011958539 0.045447662
-0.0059249029 0.010454448 0.046411783
-0.0048991442 0.010433305 0.040840078
-0.0037136348 0.011289842 0.042345159
-0.0035502287 0.010462913 0.042530216
-0.0024527549 0.0094860885 0.040280577
-0.002188137 0.011199627 0.042359896
-0.0010716296 0.010330696 0.040313199
-0.00031153066 0.0096810348 0.04123354
0.00023677759 0.010144075 0.040642995
0.0013226867 0.0096673528 0.043045446
0.0025149374 0.0093206894 0.039763052
0.0032145334 0.0093206894 0.040049363
0.0045311013 0.0083408393 0.042130705
0.0048935004 0.0085855462 0.040991906
0.005421333 0.0082978578 0.040253773
0.0071135499 0.0074581639 0.040777445
0.0076922667 0.0088002989 0.041762471
0.0089027397 0.0088060824 0.042722832
0.0086114798 0.0062729307 0.039689325
0.010588514 0.007422233 0.039704677
0.010199033 0.0056052092 0.042876247
0.012214907 0.0066082329 0.040939488
0.01240206 0.0066082329 0.041138366
0.012337165 0.005709813 0.038457587
0.014200009 0.0060405559 0.040298212
0.014851473 0.0061754156 0.040456012
0.015688226 0.0054416424 0.043287653
0.016163185 0.0047603212 0.043484166
0.017692022 0.0060090329 0.041962355
0.01716483 0.0024509868 0.043153092
0.019274943 0.0051243715 0.043305717
0.019784529 0.0037575178 0.044180349
0.020489136 0.0035577752 0.043070342
0.021241272 0.0035577752 0.043411896
0.022160739 0.0038536412 0.046445079
0.022626866 0.0023700884 0.040210281
0.023372579 0.001723739 0.046487123
0.024495639 0.0024751013 0.050654218
0.025399428 0.0023357645 0.052398536
0.026274664 0.0025330409 0.052107111
0.026723884 0.0015129084 0.050081093
-0.012346702 0.01355855 0.045135088
-0.01104423 0.014721052 0.047489222
-0.0098474585 0.01288005 0.049292404
-0.0095367888 0.012314637 0.049696743
-0.0091544241 0.012861084 0.049292404
-0.0082593821 0.01193757 0.041142706
-0.0070204916 0.012839654 0.044998862
-0.0070991991 0.01193757 0.041142706
-0.0059249029 0.011958539 0.044833947
-0.004334568 0.012239862 0.048312187
-0.0037136348 0.011858996 0.041636359
-0.0035502287 0.010504697 0.043014411
-0.0024516946 0.011289842 0.040596642
-0.0017580325 0.010522611 0.040313199
-0.0010716296 0.010330696 0.040313199
0.00010815635 0.010330696 0.040408731
0.0018013767 0.0095512243 0.037529606
0.0022487901 0.010039289 0.040408731
0.0025149374 0.010058167 0.039603043
0.0031554033 0.0089737494 0.040006351
0.0041976878 0.010274325 0.03944746
0.0052064932 0.0095158452 0.043421868
0.0057080574 0.0085855462 0.042457536
0.0072405413 0.0092842318 0.044539481
0.0076922667 0.0088158986 0.043182645
0.0086114798 0.0070280312 0.038882911
0.0093072597 0.0084828287 0.042281136
0.010565691 0.006933149 0.039689325
0.011226892 0.0076254057 0.040462978
0.011737037 0.0078855241 0.040839843
0.011307266 0.0069808736 0.037313551
0.012902524 0.0066082329 0.041477732
0.01432773 0.0069928872 0.043929219
0.01426219 0.0061754156 0.040298212
0.015379099 0.0060082553 0.040562693
0.01673596 0.0069346577 0.042167984
0.01748424 0.0058975192 0.040133227
0.018529247 0.0043678209 0.045736901
0.018786652 0.0044376934 0.046689481
0.019995615 0.0043528364 0.044927165
0.020419616 0.0044402843 0.042670697
0.021417191 0.0041722739 0.043411896
0.022215948 0.0044031823 0.040029757
0.023604056 0.0040838327 0.051172372
0.024026165 0.0040838327 0.051465161
0.025058452 0.0039126338 0.047754757
0.025592437 0.0025330409 0.052227829
0.025894411 0.0022557755 0.047754757
0.026858516 0.0022557755 0.046297811
-0.011291472 0.014655864 0.042737212
-0.010790236 0.014703464 0.047558241
-0.010412293 0.013705243 0.045319825
-0.0094896611 0.013306725 0.049292404
-0.0076991692 0.013622005 0.054897662
-0.0070049539 0.014110358 0.051167503
-0.0076020807 0.014139444 0.03762842
-0.0063443976 0.012306812 0.044774208
-0.005274348 0.012306812 0.040968489
-0.0045034532 0.012992588 0.045200761
-0.0038004555 0.011858996 0.040594384
-0.0025912642 0.012325957 0.047084875
-0.0017889258 0.010659754 0.040510673
-0.0014508292 0.01134701 0.040304981
0 0.012473606 0.044826061
0.00010815635 0.011233472 0.042462025
0.0010805868 0.011421759 0.040642995
0.0017612588 0.011438978 0.042955756
0.0026357903 0.010277804 0.039178256
0.003459292 0.010277804 0.039441805
0.004584102 0.010992266 0.039603043
0.0050756661 0.0097990148 0.040049363
0.0068616495 0.010062959 0.043395929
0.0063908682 0.0097990148 0.040290724
0.0077068731 0.0088158986 0.042339385
0.0087581454 0.0098844646 0.040290724
0.0092902454 0.0084141279 0.042339385
0.010115398 0.0088237617 0.038655251
0.011226892 0.0084828287 0.041523375
0.011737037 0.0078855241 0.041138366
0.012337165 0.0077545415 0.039191391
0.013658201 0.00773437 0.044200607
0.01432773 0.0070339451 0.042981502
0.014952713 0.0070210393 0.041024342
0.016070601 0.0071036033 0.0405236
0.016817469 0.0060405559 0.040298212
0.01748424 0.0063378103 0.040534586
0.019157751 0.0063384399 0.045005903
0.020125642 0.0062157884 0.04061085
0.020393306 0.0060962769 0.046943668
0.02101738 0.006167341 0.040778667
0.021589642 0.0044402843 0.044727482
0.022201521 0.0042265058 0.041982811
0.023313956 0.0040838327 0.051641315
0.023598233 0.0035405364 0.047525406
0.024948079 0.0035405364 0.048104759
0.025393389 0.0030642778 0.050654218
0.026551414 0.0034317188 0.052309684
-0.010790236 0.015332885 0.047489222
-0.0093692215 0.014617356 0.048608597
-0.0091544241 0.01444337 0.048675507
-0.0082701072 0.013614975 0.048583828
-0.0076417211 0.01361176 0.048095703
-0.0070204916 0.013129828 0.046827029
-0.005274348 0.013789868 0.04337129
-0.0045444006 0.01364552 0.045200761
-0.0045034532 0.012791633 0.044236008
-0.0032140575 0.012352665 0.042130776
-0.0028051222 0.012855869 0.043534383
-0.0015530209 0.011361427 0.039944783
-0.00092000514 0.01320197 0.043710168
-0.00032597315 0.012411656 0.042769358
0.00046793744 0.012523894 0.044276394
0.0016923174 0.012819273 0.046277333
0.0024839779 0.011050958 0.039178256
0.0029654626 0.011756304 0.042434096
0.003459292 0.011181034 0.039441805
0.0045439121 0.010992266 0.042432144
0.0054802666 0.010633785 0.040091582
0.0062918086 0.010362666 0.043259595
0.0072405413 0.010062959 0.043259595
0.0082103498 0.010472847 0.041762471
0.0087887906 0.0097190905 0.039449692
0.0094952174 0.0091477036 0.041523375
0.010115398 0.0095765842 0.038052175
0.011226892 0.0084357467 0.041728441
0.011983557 0.0087237675 0.039920807
0.013019867 0.0091020539 0.044759776
0.01409094 0.0083998274 0.040262498
0.014024645 0.0074610384 0.039043162
0.015112618 0.0074610384 0.0405236
0.016068298 0.0072470997 0.044435322
0.017324187 0.0071036033 0.040133227
0.018170085 0.0077854851 0.044074386
0.018389441 0.0062440801 0.043496449
0.019386562 0.0063708946 0.045201074
0.020354625 0.0065908711 0.047239318
0.020532165 0.0056454241 0.040778667
0.021935552 0.0061419546 0.044712633
0.023397986 0.0058032498 0.049479038
0.023754517 0.0054617613 0.050245881
0.024892688 0.0057867798 0.051481631
0.024562635 0.0042713429 0.050893225
0.02585341 0.0041154772 0.047363192
0.027125359 0.0046865838 0.042166214
-0.010899801 0.018112056 0.037638664
-0.010156698 0.015509569 0.042751241
-0.0085901525 0.014617356 0.048583828
-0.0068729101 0.015414508 0.052028224
-0.0069120303 0.013678359 0.051625997
-0.0067661479 0.014222957 0.050691351
-0.0058911797 0.014894088 0.042785775
-0.0051052663 0.013755189 0.044796217
-0.0034807797 0.015804667 0.047846109
-0.0033221925 0.013479897 0.046041399
-0.0023983177 0.013479897 0.047084875
-0.00093573332 0.013997929 0.047256723
-0.00091297086 0.013135659 0.04079131
-0.00026631355 0.012523894 0.043339327
0.0010805868 0.013135659 0.040839408
0.0018889457 0.013080238 0.043258242
0.0024914332 0.011534593 0.039178256
0.0034392364 0.012819273 0.045649529
0.0043609403 0.011756304 0.042921785
0.0050756661 0.010992266 0.039603043
0.0061170431 0.012167742 0.043589536
0.0057589784 0.011043036 0.03970395
0.0080838408 0.01048636 0.041912183
0.0085413158 0.011138477 0.041912183
0.0088060824 0.0097190905 0.041912183
0.0097631672 0.010849786 0.04010639
0.010588514 0.010528282 0.040295105
0.011226892 0.0088237617 0.039920807
0.012168925 0.010528282 0.041202717
0.01240206 0.0076845735 0.041347452
0.014138057 0.0097394474 0.04237821
0.014634743 0.0087290285 0.040489405
0.01574401 0.0093882158 0.04454273
0.016457021 0.0082473643 0.042528052
0.017573409 0.0097911377 0.045466609
0.018053405 0.0078112315 0.04652065
0.019180149 0.0077854851 0.044558007
0.019922148 0.0079768589 0.043888792
0.020994909 0.0070939176 0.040611595
0.02101738 0.0078776386 0.040611595
0.022169549 0.0057947747 0.052755732
0.023659851 0.0061555998 0.047571026
0.023580644 0.0058693998 0.053230491
0.024291299 0.0051436936 0.050686426
0.025176637 0.005482398 0.050893225
0.025935881 0.0050514764 0.047166843
-0.0088192709 0.01582488 0.041374415
-0.0077049211 0.016226927 0.050211936
-0.0073383451 0.016200839 0.050187677
-0.0066190856 0.016226927 0.049351454
-0.0057391794 0.015328869 0.055553857
-0.0054540653 0.014222957 0.049488951
-0.0039645545 0.016699545 0.044899344
-0.0040075546 0.015589225 0.042228293
-0.0034681591 0.014894088 0.042340901
-0.0020399196 0.0148302 0.044148266
-0.00086872524 0.014819494 0.045922522
-0.00092000514 0.013101798 0.042806424
0.00046793744 0.014225341 0.04398964
0.0017677173 0.013252277 0.040839408
0.0018889457 0.013080238 0.042818978
0.0025331175 0.013924008 0.042280268
0.003466171 0.012757428 0.045271579
0.0043609403 0.012672773 0.043398738
0.0050426684 0.013272517 0.042556819
0.0061029005 0.01208859 0.039190874
0.0067349863 0.012911098 0.03970395
0.0078415005 0.011731119 0.047016088
0.0087438393 0.010849786 0.039506793
0.0099762473 0.012911098 0.04010639
0.0099115409 0.010528282 0.039758794
0.01108557 0.011110254 0.043515604
0.011757635 0.011420425 0.044132385
0.012168925 0.0091680605 0.039489415
0.014106551 0.011014968 0.045765642
0.01413466 0.01083651 0.044752255
0.01485299 0.0092052016 0.044873551
0.016301587 0.0098475991 0.041615672
0.016844966 0.0098475991 0.042228676
0.016872484 0.0085413978 0.042228676
0.018222518 0.0083620409 0.04225181
0.019228153 0.0092133442 0.045275237
0.019922148 0.0081110001 0.043101087
0.020864271 0.0090512745 0.040950414
0.021374553 0.0069528506 0.045000795
0.022434428 0.0064289258 0.049253698
0.023083784 0.0068193707 0.053927824
0.023951318 0.0069144331 0.049523022
0.023979709 0.0057137059 0.046579562
0.025709234 0.0068669482 0.050861005
0.026910201 0.0070481915 0.036858171
