ply
format ascii 1.0
comment PCL generated
element vertex 1597
property float x
property float y
property float z
element camera 0
property float view_px
property float view_py
property float view_pz
property float x_axisx
property float x_axisy
property float x_axisz
property float y_axisx
property float y_axisy
property float y_axisz
property float z_axisx
property float z_axisy
property float z_axisz
property float focal
property float scalex
property float scaley
property float centerx
property float centery
property int viewportx
property int viewporty
property float k1
property float k2
end_header
149.33009 54.688194 220.51596
149.92918 54.970261 219.58305
150.44255 54.691086 220.5665
150.96071 54.411835 221.54871
151.59042 54.974152 219.65213
152.1441 54.975273 219.6723
152.66701 54.695747 220.65039
153.25139 54.977226 219.70836
153.80498 54.978065 219.72426
154.33505 54.698288 220.6983
154.91211 54.979485 219.75179
155.46565 54.980049 219.76343
156.00293 54.700012 220.73334
156.57268 54.980927 219.78241
157.08052 53.859146 223.62891
157.6167 53.017807 226.51436
158.1871 53.017929 226.51904
158.75334 52.737442 227.48209
159.31918 51.615318 231.32321
159.90033 52.176193 229.40381
160.4749 52.456459 228.44276
161.04465 52.736633 227.48026
161.60957 53.016724 226.5163
162.16969 53.296722 225.55092
162.73773 53.296104 225.54393
163.30579 53.295403 225.53543
163.87387 53.294601 225.5255
164.44199 53.293701 225.51411
164.98769 53.57325 224.54169
165.55342 53.572182 224.52744
166.1192 53.571014 224.51172
166.68501 53.569748 224.49457
167.31505 53.007263 226.39456
167.85126 53.286377 225.4151
168.49347 52.723679 227.31172
169.0667 52.722023 227.28844
169.68173 52.439674 228.2226
170.21329 52.718422 227.23744
170.78667 52.716484 227.2097
171.26204 53.275665 225.26338
171.93359 52.712296 227.14984
172.56102 52.429436 228.07597
173.19334 52.146454 229.00034
173.65445 52.705315 227.04884
174.28934 52.422134 227.97006
174.73848 52.98085 226.01642
175.30995 52.978134 225.97697
175.88152 52.975327 225.93604
176.73642 51.849586 229.72232
177.46432 51.28508 231.59167
178.27766 50.43969 234.41548
178.94946 50.155617 235.32341
179.38466 50.713699 233.36018
179.72734 51.552521 230.44005
180.05557 52.391304 227.5197
180.36935 53.230095 224.59912
181.02953 52.945587 225.50044
181.69466 52.660927 226.39984
182.36476 52.376137 227.29721
183.13731 51.810333 229.14735
184.01961 50.963463 231.94948
184.50722 51.240028 230.93141
185.40918 50.392807 233.72827
186.11145 50.107246 234.61453
186.59944 50.383476 233.59175
187.08272 50.659637 232.56795
187.67577 50.654732 232.49599
188.15204 50.93071 231.46996
188.6236 51.206635 230.4429
189.09044 51.482498 229.41487
189.55255 51.758286 228.38593
190.26328 51.471786 229.25859
190.72084 51.747398 228.22716
191.43675 51.460617 229.09601
192.02373 51.454872 229.01231
192.74728 51.167793 229.87695
193.61472 50.599312 231.68883
194.49207 50.030632 233.49759
195.09193 50.024292 233.40565
196.13043 49.173897 236.15733
196.58942 49.448578 235.11288
196.59064 50.567276 231.22464
197.03293 50.841904 230.17964
197.78236 50.553619 231.02751
198.69524 49.983719 232.81929
199.45731 49.695053 233.66177
200.71419 48.561691 237.33841
201.16241 48.835655 236.28419
201.94226 48.546394 237.11858
202.04486 49.383369 234.17331
202.9982 48.812241 235.94804
203.25961 49.367516 233.94588
204.75702 47.950928 238.54388
205.01648 48.505974 236.53871
205.81488 48.215744 237.35942
206.24786 48.488907 236.2946
207.0517 48.198357 237.11079
207.48029 48.471336 236.0434
208.28955 48.18045 236.85509
208.90887 48.17131 236.72452
209.52847 48.162025 236.59222
210.14833 48.152626 236.4581
210.56598 48.425156 235.38438
211.38892 48.133446 236.18445
212.21706 47.84153 236.9816
213.0504 47.549408 237.77579
214.10132 46.974876 239.50258
215.16241 46.400055 241.22522
215.79913 46.389511 241.07489
216.21637 46.661179 239.98883
217.29568 46.085678 241.70172
217.93579 46.074715 241.54506
218.34904 46.346077 240.45451
218.98732 46.334915 240.29465
219.85803 46.041077 241.06361
219.79565 46.87738 238.10892
220.19289 47.14856 237.01508
221.06461 46.854355 237.77829
221.94159 46.559952 238.53822
223.06839 45.982574 240.22238
223.71146 45.97052 240.04826
225.10332 45.109756 242.6506
226.25845 44.531532 244.32135
227.16945 44.235947 245.06259
227.82881 44.22319 244.87627
228.2291 44.493362 243.76459
228.88669 44.480446 243.57491
229.01579 45.03373 241.53934
229.13528 45.587128 239.50468
229.24513 46.140633 237.47093
230.43292 45.561043 239.11685
231.08226 45.547882 238.91986
231.73192 45.534653 238.72081
232.94073 44.95443 240.35451
234.44174 44.090439 242.89957
235.38931 43.793205 243.6062
235.76843 44.063026 242.4791
236.72168 43.765587 243.17989
237.38835 43.751724 242.96353
238.05533 43.737823 242.74504
238.12878 44.291542 240.7009
239.09079 43.993843 241.39072
240.36006 43.412102 242.98676
241.63968 42.830147 244.57726
242.62263 42.532036 245.25378
244.22987 41.665665 247.74139
245.54045 41.08316 249.3149
245.91779 41.353043 248.16553
246.29031 41.623093 247.0157
246.65805 41.893311 245.86549
247.02095 42.163719 244.71487
247.37898 42.434319 243.56389
248.05927 42.420685 243.31375
248.41005 42.691681 242.16118
249.08807 42.678368 241.90762
250.10088 42.380615 242.55026
251.11877 42.082954 243.18878
252.1418 41.785378 243.82327
253.85434 40.918449 246.24451
254.54776 40.905815 245.97435
255.24115 40.893448 245.70201
256.28427 40.596481 246.32001
256.98001 40.584633 246.0424
257.6756 40.573112 245.76265
258.72839 40.276947 246.37022
259.78601 39.981064 246.97366
260.48602 39.970589 246.68558
261.91556 39.39032 248.16805
262.2525 39.665802 246.98848
262.95398 39.656654 246.69324
263.655 39.648033 246.39597
264.7305 39.354713 246.97882
265.05548 39.632454 245.79559
266.5148 39.054993 247.25233
267.21848 39.048714 246.94522
267.92139 39.043121 246.63628
267.84854 39.60894 244.57233
268.15479 39.890205 243.38655
267.67017 40.743042 240.45258
63.078941 49.69133 215.26355
64.080681 49.976601 214.6617
65.07827 50.262527 214.05614
63.758858 48.853493 218.7171
64.762909 49.140717 218.11061
66.523582 49.993599 215.73918
67.135918 49.999298 216.00456
68.875221 50.853035 213.6201
70.599991 51.7071 211.22754
71.569244 51.996559 210.59659
72.165909 52.00396 210.84775
73.128342 52.294136 210.21027
73.360207 52.019936 211.34492
73.2369 51.463821 213.36897
74.197632 51.755035 212.72513
74.087303 51.199768 214.7507
73.987183 50.644943 216.7785
75.298767 51.219208 215.23607
75.90464 51.229301 215.476
76.165245 50.957565 216.6091
77.116577 51.250191 215.95018
77.722572 51.260948 216.18443
78.328545 51.271873 216.41681
79.269783 51.564873 215.74831
80.538712 52.139778 214.17609
80.806702 51.869217 215.30072
82.390633 52.725891 212.81824
82.658409 52.455544 213.9391
83.57653 52.748718 213.25266
84.169266 52.760262 213.46703
85.397255 53.334991 211.86864
85.984634 53.346565 212.07741
87.197189 53.921089 210.46994
87.77916 53.932648 210.67322
88.976265 54.50695 209.05672
90.163124 55.081062 207.43494
90.431763 54.811211 208.53986
90.705177 54.541458 209.64465
91.876305 55.11528 208.01228
91.561455 54.283333 210.94055
92.13929 54.294861 211.12997
93.29715 54.86837 209.48798
93.006523 54.036835 212.41893
93.300911 53.767403 213.52002
94.165314 54.059731 212.78651
94.744293 54.071106 212.96754
95.045326 53.801659 214.06551
95.901398 54.093681 213.32416
96.479523 54.104874 213.49974
97.597733 54.677246 211.83147
97.902588 54.407631 212.92369
98.477364 54.418571 213.09306
99.314545 54.7099 212.33749
99.105537 53.879326 215.27438
99.684395 53.890106 215.43985
100.00769 53.620453 216.52887
100.84122 53.911392 215.76543
101.91981 54.482399 214.0721
102.49252 54.492714 214.22911
103.06496 54.502945 214.38432
103.63711 54.513069 214.53781
103.96856 54.243004 215.61899
104.06677 53.692924 217.62971
105.11638 54.26284 215.91856
105.92283 54.552536 215.13445
106.72406 54.842049 214.34737
107.74812 55.411228 212.62476
108.08533 55.140671 213.69753
108.4272 54.870094 214.76982
109.215 55.158951 213.97292
109.56128 54.888237 215.04305
109.91221 54.61747 216.11272
110.90755 55.185555 214.37344
111.68198 55.473782 213.56697
112.03461 55.202728 214.63219
112.18605 54.652107 216.63474
113.16069 55.219444 214.88437
113.5224 54.948181 215.94691
113.88879 54.676888 217.00888
114.45589 54.684906 217.13033
115.21634 54.972168 216.30963
115.39825 54.421318 218.3093
116.15579 54.708305 217.48485
117.09442 55.274361 215.71579
117.65546 55.281742 215.82816
118.57895 55.84737 214.05298
119.49243 56.412754 212.27431
120.04305 56.419678 212.38004
120.2455 55.868328 214.37292
120.80059 55.875088 214.47647
121.01732 55.3237 216.46896
121.24361 54.772301 218.46173
121.80789 54.778839 218.56235
122.53375 55.064217 217.7148
122.9359 54.791595 218.75887
123.49962 54.797798 218.85478
124.37206 55.36161 217.05348
124.77853 55.088707 218.09372
125.04013 54.536934 220.08186
125.45846 54.263939 221.12099
126.17087 54.548409 220.26053
126.59373 54.275246 221.2973
127.30094 54.559433 220.43301
128.14052 55.122147 218.61597
129.10515 55.963341 215.84508
129.52495 55.68972 216.87544
129.94946 55.416039 217.90498
130.37871 55.142303 218.93369
130.81267 54.868492 219.96158
131.12856 54.316063 221.94113
131.81512 54.599228 221.06189
132.37877 54.603729 221.13365
133.17328 55.165123 219.297
133.73181 55.169373 219.36519
134.51152 55.730446 217.5238
134.95673 55.456017 218.54277
135.40666 55.181519 219.56084
135.96472 55.185364 219.62309
136.52266 55.18911 219.68388
137.08051 55.192764 219.74318
137.83043 55.75304 217.88969
138.19586 55.19976 219.85736
138.7534 55.20311 219.91226
139.31084 55.20636 219.9657
139.95457 55.487831 219.06105
140.25748 54.655998 221.9818
140.81949 54.658974 222.0313
141.30229 54.383598 223.03654
141.78986 54.108154 224.04071
142.28217 53.832634 225.04381
142.85112 53.835266 225.088
143.48946 54.116035 224.17268
144.12286 54.396675 223.25555
144.55756 53.842598 225.21165
145.06404 53.566658 226.20842
145.69484 53.847008 225.28671
146.20604 53.570892 226.28085
146.6671 53.016541 228.23276
147.40031 53.852913 225.38826
148.06888 54.410988 223.50073
148.63239 54.412651 223.52992
149.19583 54.414238 223.55766
149.80208 54.693848 222.62437
150.2822 54.138985 224.56851
150.84795 54.140289 224.592
151.41365 54.141502 224.61403
151.97932 54.142624 224.63461
152.54498 54.143661 224.65373
153.16725 54.700806 222.75113
153.72801 54.701637 222.76721
154.28876 54.702385 222.78189
154.87054 54.98114 221.83475
155.42883 54.981697 221.84648
155.95461 54.426003 223.77759
156.51768 54.426399 223.78651
157.04652 53.592453 226.67548
157.61685 53.592659 226.68159
158.19374 53.870865 225.72571
158.75748 53.592812 226.68944
159.32256 52.758507 229.57286
159.89877 53.314514 227.65202
160.47151 53.31427 227.65085
161.05527 52.757759 229.56924
161.62494 53.035416 228.60457
162.17944 53.591072 226.67796
162.74982 53.590462 226.67093
163.33537 53.311668 227.62285
163.89061 53.588959 226.65248
164.48105 53.309982 227.60138
165.05391 53.30899 227.58846
165.62682 53.307922 227.57405
166.1725 53.584869 226.59801
166.74304 53.583611 226.58073
167.40991 52.747894 229.442
167.95328 53.024567 228.46159
168.60265 52.466743 230.35941
169.22238 52.186935 231.29561
169.84698 51.907036 232.23007
170.38814 52.183334 231.24382
170.92448 52.459557 230.25627
171.35802 53.292053 227.34891
172.0343 52.733574 229.23657
172.66646 52.453163 230.16319
173.24724 52.450836 230.12917
173.76938 52.726624 229.13492
174.409 52.4459 230.05658
174.86292 52.999756 228.10123
175.43913 52.997063 228.06152
175.94705 53.27253 227.06224
176.87505 51.878296 231.80916
177.60767 51.318687 233.67961
178.35005 50.758942 235.54774
178.94608 50.755638 235.49896
179.30072 51.587219 232.57727
179.72383 52.140434 230.61218
180.13734 52.693619 228.64644
180.62903 52.968391 227.63647
181.29637 52.68631 228.53795
181.96866 52.404106 229.43741
182.74095 51.843346 231.2906
183.4256 51.56086 232.18576
184.11523 51.278221 233.07887
184.60518 51.552376 232.05994
185.5094 50.712517 234.85883
186.1068 50.707954 234.79118
186.70432 50.703285 234.72194
187.30197 50.698509 234.65109
187.89977 50.693626 234.57867
188.3808 50.967201 233.55141
188.85713 51.240707 232.52315
189.45052 51.235535 232.44655
189.91985 51.508881 231.41605
190.63773 51.224831 232.28859
191.23157 51.219315 232.2072
192.08858 50.65625 234.02689
192.55368 50.929192 232.99063
193.15047 50.923309 232.90405
193.88623 50.638527 233.76616
194.62704 50.353561 234.6259
195.37292 50.068459 235.48323
196.41611 49.225433 238.2365
197.02844 49.218811 238.13947
197.18796 50.048805 235.19566
197.79337 50.042023 235.09647
198.39899 50.03511 234.99561
199.16312 49.749084 235.84021
199.77159 49.741905 235.73558
201.03313 48.61837 239.41446
201.48615 48.889908 238.35884
202.27072 48.603165 239.19321
202.54877 49.153656 237.19005
203.33624 48.866615 238.02051
203.77795 49.13781 236.96022
205.10449 48.012718 240.61708
205.3688 48.562897 238.60971
206.35475 47.995857 240.373
206.795 48.266571 239.30615
207.41832 48.257835 239.18018
207.85173 48.528404 238.11124
208.66574 48.240005 238.92284
208.89969 48.789864 236.91122
209.51915 48.780708 236.7791
210.33888 48.491859 237.58426
210.55646 49.04158 235.57097
211.58414 48.472809 237.30997
212.62195 47.903748 239.04497
213.46005 47.61412 239.839
214.30341 47.324272 240.63011
215.36673 46.75444 242.35388
215.78854 47.023796 241.26807
216.2057 47.293121 240.18149
217.50696 46.442741 242.83006
218.37407 46.151886 243.60646
218.79219 46.420822 242.51418
219.66489 46.129639 243.28545
220.54285 45.838234 244.05354
220.72247 46.387009 242.02582
221.12953 46.655663 240.92891
222.25047 46.083641 242.62007
222.89772 46.071831 242.44885
223.78976 45.77961 243.20389
224.44019 45.767517 243.02803
225.34036 45.474922 243.77705
226.24588 45.182106 244.52274
227.15669 44.889107 245.26497
227.81595 44.876434 245.07896
228.47557 44.863663 244.89091
229.3974 44.570152 245.62419
229.53149 45.118507 243.58594
230.45654 44.824738 244.31438
230.84824 45.092361 243.19687
231.50711 45.079163 242.99922
232.4407 44.785004 243.71918
232.82594 45.052528 242.59766
233.20654 45.320084 241.4756
234.42801 44.744568 243.10513
235.65982 44.168762 244.72943
236.04144 44.436134 243.60104
236.99707 44.141174 244.30208
237.6662 44.127304 244.08521
238.63004 43.8321 244.77956
238.70856 44.380814 242.7325
239.97491 43.804108 244.33339
240.94971 43.508629 245.01791
241.92981 43.213058 245.69855
243.22217 42.635811 247.28444
244.52487 42.058372 248.86465
245.21399 42.044083 248.62437
246.21782 41.748116 249.28836
247.22696 41.45208 249.94838
246.96335 42.283287 246.98549
247.9729 41.987411 247.64101
248.66321 41.973404 247.38965
249.68071 41.677544 248.03799
249.05554 42.791824 244.17712
250.07083 42.496262 244.82199
250.75667 42.482864 244.56364
251.77975 42.187462 245.20129
252.46829 42.174355 244.93762
254.5256 41.032402 248.2567
255.2243 41.019531 247.98476
256.2702 40.724548 248.60487
257.67087 40.147324 250.11411
258.02472 40.417572 248.94034
258.37338 40.688194 247.76645
259.07422 40.67672 247.48265
259.77484 40.665588 247.19676
260.47522 40.654846 246.90874
262.26996 39.796562 249.28001
262.60992 40.069252 248.09862
264.05423 39.494308 249.57236
264.76331 39.485245 249.27188
265.84683 39.193924 249.85229
266.5574 39.185921 249.54677
268.40726 38.330017 251.88141
269.12408 38.323181 251.56871
269.07028 38.882759 249.49713
269.00568 39.443138 247.42809
268.93024 40.004318 245.36169
268.45142 40.849251 242.42288
63.867683 50.852409 213.70627
65.255539 51.415855 212.22461
65.470398 51.139404 213.3712
64.14917 49.742981 218.03519
64.385399 49.46788 219.18744
66.52948 50.59391 215.93346
67.142342 50.599953 216.19888
68.882042 51.446663 213.81209
70.234238 52.013649 212.30173
71.57682 52.580971 210.7854
71.805946 52.308662 211.92328
73.502075 53.15654 209.51045
73.368889 52.60508 211.53365
73.606384 52.333969 212.66937
73.849106 52.063255 213.80534
74.097023 51.7929 214.94156
73.997261 51.243179 216.97081
74.958664 51.532974 216.32057
75.567291 51.543266 216.56134
75.830658 51.27417 217.69609
76.784653 51.564499 217.0372
77.733612 51.854935 216.37444
78.677513 52.145439 215.70786
79.616333 52.436005 215.03743
80.882774 53.006004 213.46251
81.808846 53.296593 212.78357
83.057487 53.866493 211.19829
83.320381 53.598572 212.31786
84.233505 53.889214 211.62859
84.821289 53.900681 211.84091
85.72654 54.191299 211.14517
85.996307 53.923798 212.25992
87.521431 54.7724 209.74268
87.790802 54.504959 210.85367
88.680199 54.795425 210.14513
89.564362 55.085808 209.43298
89.838051 54.818489 210.54018
90.416634 54.830025 210.73491
91.292549 55.120239 210.01468
90.982826 54.295753 212.94669
91.565628 54.307327 213.13753
93.018448 55.15451 210.57979
92.730431 54.330383 213.5136
93.312424 54.34185 213.69884
94.17672 54.63166 212.96432
94.755646 54.642975 213.14511
94.779053 54.097626 215.16309
95.912613 54.665413 213.50124
96.218048 54.398346 214.59755
97.608711 55.243919 212.0065
97.645897 54.698578 214.02174
97.957909 54.431419 215.11488
98.274597 54.164268 216.20767
98.595963 53.897133 217.30008
98.921982 53.629997 218.39212
99.507904 53.640732 218.55766
100.34627 53.929214 217.79462
101.42961 54.495293 216.10094
102.0072 54.505615 216.25903
102.58448 54.515839 216.41539
103.64713 55.081268 214.711
103.97853 54.813591 215.79266
104.07672 54.268318 217.80467
105.36153 55.110756 215.16037
106.16537 55.397861 214.37465
106.96399 55.684772 213.58597
107.75739 55.9715 212.79434
108.09452 55.703304 213.86766
108.43633 55.435081 214.94049
109.00338 55.444111 215.07774
109.35204 55.175789 216.149
109.92104 55.184631 216.28348
110.70297 55.470535 215.47942
111.47972 55.756252 214.67255
111.83474 55.487595 215.73888
112.19441 55.218887 216.80469
113.16887 55.781219 215.05266
113.53052 55.512321 216.11572
113.89682 55.243378 217.17827
114.46381 55.251316 217.2995
115.41765 55.81292 215.53668
115.40598 54.989983 218.47884
116.16336 55.274437 217.65347
117.1018 55.835487 215.8828
117.66273 55.842793 215.99496
118.40475 56.126698 215.16187
119.3205 56.687122 213.38206
119.87345 56.693993 213.48808
120.25224 56.424118 214.53764
120.80724 56.430798 214.64099
121.0239 55.884212 216.63481
121.58339 55.89072 216.73596
122.14268 55.897129 216.83554
122.86352 56.179913 215.98628
123.2607 55.909592 217.03009
123.66257 55.639233 218.07317
124.22356 55.645222 218.16696
124.78437 55.651096 218.25923
125.04592 55.104149 220.24866
125.61127 55.109856 220.33862
126.46577 55.668076 218.52684
127.02591 55.673519 218.61299
127.72569 55.955124 217.74673
128.28307 55.960331 217.82947
129.11017 56.517876 216.00754
129.52988 56.246632 217.03848
129.95432 55.975323 218.06863
130.25583 55.427803 220.05054
130.69214 55.156395 221.07935
130.88762 54.332687 224.01379
131.57892 54.613373 223.13435
132.26523 54.893929 222.25278
133.06204 55.450401 220.41489
133.62289 55.454605 220.48328
134.40489 56.010769 218.64063
134.85245 55.738739 219.66049
135.30473 55.46664 220.67946
135.86511 55.470444 220.7419
136.42538 55.474155 220.80286
136.98555 55.477768 220.86232
137.73776 56.033131 219.00758
138.10556 55.484695 220.97685
138.66542 55.488014 221.03189
139.314 55.767109 220.1284
139.87125 55.770222 220.1803
140.34444 55.497383 221.18823
140.90393 55.500317 221.23743
141.38423 55.227322 222.2431
141.94598 55.230072 222.28958
142.43336 54.956924 223.29294
142.92554 54.683701 224.2952
143.56133 54.961983 223.37895
144.1252 54.964355 223.41978
144.55981 54.415131 225.37721
145.12839 54.417343 225.41544
145.69691 54.419472 225.45216
146.20802 54.145752 226.44698
146.72392 53.871979 227.44057
147.34961 54.149551 226.51338
148.02049 54.702744 224.62451
148.63397 54.98011 223.69373
149.19734 54.981659 223.72144
149.80348 55.258812 222.78741
150.28352 54.708801 224.73289
150.84918 54.710083 224.75638
151.37921 54.4356 225.73897
151.94722 54.436714 225.7596
152.5152 54.437737 225.77878
153.13979 54.98999 223.87483
153.70288 54.990822 223.89095
154.28943 55.26722 222.94469
154.87114 55.543522 221.99686
155.42934 55.544086 222.00853
155.93878 54.717598 224.90218
156.53185 55.269287 222.9888
157.05818 54.442627 225.87982
157.62599 54.442833 225.88593
158.20038 54.718605 224.92931
158.76578 54.718628 224.9325
159.32243 53.340332 229.74049
159.89856 53.891479 227.81824
160.47429 53.615585 228.77832
161.06036 53.063957 230.69812
161.63237 53.339172 229.73276
162.17888 54.165611 226.84352
162.7619 53.889359 227.79767
163.34978 53.613007 228.75027
163.92493 53.612206 228.74026
164.50011 53.611328 228.72876
165.0753 53.610359 228.71579
165.65053 53.609291 228.70135
166.19853 53.883827 227.72453
166.71208 54.43396 225.78563
167.34433 53.881248 227.68842
167.91728 53.879822 227.66815
168.52719 53.602608 228.60695
169.142 53.325279 229.54408
169.80344 52.772125 231.43987
170.34207 53.046021 230.45305
170.87592 53.319847 229.46495
171.30696 54.145073 226.55565
171.9807 53.591515 228.44487
172.66418 53.037819 230.33211
173.24487 53.035522 230.29814
173.88431 52.757355 231.22209
174.46756 52.75486 231.18498
174.79675 53.855469 227.30986
175.4364 53.577026 228.22931
175.94424 53.850098 227.22939
176.73048 53.019753 230.06271
177.45813 52.465096 231.93501
178.27119 51.63443 234.76324
178.78664 51.907066 233.7567
179.29733 52.179634 232.74901
179.80327 52.452133 231.74019
180.30447 52.724548 230.73027
180.88867 52.72097 230.67644
181.47299 52.717293 230.62105
182.15001 52.437546 231.52083
182.73697 52.43364 231.46216
183.32404 52.429634 231.40192
184.01111 52.149521 232.29607
184.60085 52.145294 232.23247
185.50493 51.31282 235.03357
186.1022 51.308319 234.96602
186.69962 51.303711 234.89691
187.40918 51.022896 235.78076
187.89485 51.294182 234.75389
188.25891 51.84153 232.772
188.85204 51.836533 232.69714
189.4453 51.831413 232.62067
189.91454 52.102402 231.58955
190.63229 51.820869 232.46294
191.22601 51.815414 232.3817
191.95139 51.5336 233.25089
192.41399 51.804192 232.2144
193.14456 51.522095 233.07968
193.88019 51.23983 233.94263
194.47964 51.233772 233.85258
195.22293 50.95121 234.71118
196.26347 50.115646 237.4671
196.72472 50.385574 236.42113
197.0303 50.931908 234.4252
197.93997 50.372238 236.22394
198.70375 50.088867 237.07112
199.47263 49.805328 237.9158
200.2466 49.521606 238.75792
201.18886 48.96109 240.54453
201.47861 49.506897 238.54132
202.09494 49.499344 238.4305
202.54099 49.768372 237.37218
203.50128 49.207153 239.14882
203.76993 49.752731 237.14272
205.09622 48.637543 240.80269
205.36046 49.18293 238.79402
206.16345 48.897736 239.61563
206.60115 49.166153 238.54871
207.22188 49.157562 238.42342
207.65274 49.425812 237.35446
208.65671 48.863022 239.10887
208.89061 49.408073 237.09601
209.50995 49.399017 236.9641
210.52948 48.835625 238.71001
210.95187 49.103378 237.63419
211.77939 48.816727 238.43507
212.81944 48.252647 240.1712
213.45004 48.242805 240.02805
214.08095 48.232826 239.88304
215.14162 47.668045 241.60916
215.77806 47.657722 241.45929
216.19513 47.924698 240.37222
217.274 47.359268 242.08856
218.36308 46.793526 243.80064
218.78111 47.060127 242.70786
219.42407 47.049088 242.54726
220.53143 46.482681 244.24922
220.94551 46.748978 243.15189
221.35498 47.015236 242.05385
222.4782 46.448196 243.74615
223.36974 46.158661 244.5042
223.77774 46.424606 243.40091
224.42804 46.412628 243.22531
225.07867 46.400536 243.04771
225.47778 46.666321 241.94113
226.38098 46.376015 242.68651
227.28952 46.085526 243.42844
227.94405 46.072937 243.2421
229.12259 45.503906 244.90204
229.51849 45.769257 243.78671
230.44339 45.478058 244.51617
230.29642 46.299965 241.55423
231.22203 46.008575 242.2796
232.15298 45.717018 243.00137
233.08926 45.42527 243.71954
233.47235 45.690384 242.59624
234.97792 44.841248 245.14496
235.64598 44.827599 244.9348
236.02759 45.092575 243.80594
236.98312 44.80014 244.50806
237.65222 44.786339 244.29144
238.32162 44.772484 244.07274
238.99138 44.758591 243.85185
240.2601 44.186813 245.45375
240.93549 44.172791 245.22684
241.61121 44.158745 244.9978
243.20779 43.307426 247.49629
244.201 43.014084 248.16931
244.88763 42.999855 247.93019
245.57452 42.985657 247.68884
246.89554 42.412895 249.25807
246.94907 42.95739 247.19949
247.95865 42.663933 247.85609
248.32452 42.929367 246.70128
249.33957 42.635986 247.35159
249.37125 43.181267 245.29239
250.38913 42.888062 245.93733
251.07764 42.874535 245.67827
252.10333 42.581459 246.31595
253.13419 42.288467 246.94952
254.51227 41.715759 248.47597
255.21117 41.702759 248.20421
256.25726 41.410095 248.82532
257.65808 40.837646 250.33629
258.01227 41.105247 249.16188
259.0708 40.813164 249.77142
259.77698 40.801384 249.48572
260.483 40.789955 249.19786
261.18881 40.778877 248.90788
263.3537 39.647469 252.16742
264.06906 39.63707 251.86902
265.5238 39.066597 253.34013
266.98822 38.49649 254.8049
268.08731 38.207092 255.37964
269.19092 37.91819 255.9502
270.29901 37.629814 256.51654
270.26416 38.183212 254.43753
269.4487 39.298241 250.60229
268.99988 40.133667 247.65224
268.14529 41.250397 243.82993
267.26984 42.367996 240.01479
65.442627 52.559517 210.39104
66.430717 52.840721 209.78123
66.250801 52.289337 211.80428
64.92527 50.905518 216.47008
64.774147 50.355507 218.50208
66.535728 51.194405 216.12608
67.527008 51.478409 215.50833
68.889168 52.040443 214.00241
70.241722 52.602806 212.49051
71.584648 53.165474 210.97258
71.814194 52.895882 212.11119
72.779816 53.181664 211.47307
73.014923 52.912849 212.61026
73.975983 53.199234 211.96649
74.216522 52.931122 213.10214
74.106926 52.386055 215.13065
74.360291 52.118683 216.26772
74.969086 52.128891 216.51021
75.577927 52.139313 216.75084
75.84153 51.872795 217.88623
77.13842 52.437881 216.32874
77.744751 52.448837 216.56267
79.026474 53.013985 214.99554
79.962852 53.302109 214.32321
81.226814 53.867195 212.74559
82.150429 54.155334 212.06471
83.068886 54.443466 211.3801
83.331909 54.178047 212.50024
84.245056 54.466248 211.80997
84.832893 54.477745 212.02206
85.42054 54.489273 212.23232
86.323097 54.777443 211.53276
87.220413 55.065536 210.82957
87.492348 54.800598 211.94203
88.384216 55.088638 211.23332
89.57589 55.652954 209.60971
89.547081 55.111748 211.62961
90.128143 55.123306 211.82494
90.708946 55.134834 212.01842
90.699402 54.593994 214.03941
91.577217 54.881699 213.31531
93.029846 55.721436 210.75505
92.741928 54.90464 213.69089
93.608917 55.192039 212.95796
93.905518 54.927406 214.05905
94.486862 54.938698 214.24039
94.790367 54.674095 215.34013
95.923767 55.236893 213.67651
96.501755 55.247948 213.85158
97.619614 55.810318 212.17979
97.656822 55.269825 214.19629
97.968796 55.005043 215.28993
98.022812 54.464722 217.30794
98.086472 53.924484 219.32703
98.675087 53.935287 219.49483
99.773743 54.496819 217.80714
100.60947 54.7827 217.04242
101.69016 55.343731 215.34631
102.76064 55.90448 213.64572
103.08513 55.63924 214.72939
103.65707 55.649174 214.88242
103.9884 55.383858 215.9646
104.08657 54.843407 217.97786
105.1358 55.403301 216.26329
106.17484 55.962925 214.54443
106.74288 55.972301 214.68822
107.5386 56.256512 213.89627
108.10362 56.265633 214.03604
108.44535 55.999763 215.10942
108.79174 55.733864 216.18231
109.14279 55.467934 217.25468
109.71414 55.476727 217.38951
110.49838 55.760113 216.5851
111.27744 56.043316 215.77788
111.84309 56.051693 215.90659
112.40848 56.059952 216.03365
113.17696 56.342678 215.21924
113.7394 56.350666 215.34251
114.30159 56.35857 215.46411
115.05952 56.640812 214.6427
116.00583 57.197308 212.87672
116.17784 56.655941 214.87689
116.92526 56.937717 214.04863
117.48141 56.944977 214.16121
118.03734 56.952126 214.27223
118.41178 56.684872 215.32613
119.14854 56.96608 214.48958
119.70383 56.972885 214.59592
120.25891 56.979591 214.70065
120.8138 56.986187 214.80386
121.53752 57.266796 213.9588
122.08956 57.273136 214.05849
122.80557 57.553444 213.20901
123.3548 57.559551 213.30519
123.74457 57.291512 214.34831
124.29587 57.297428 214.44186
124.6926 57.029266 215.48317
125.24599 57.034985 215.5741
125.50018 56.492771 217.56361
125.91102 56.224442 218.60274
126.61586 56.50378 217.73946
127.17345 56.509132 217.82509
127.59111 56.240547 218.86078
128.01347 55.971901 219.89568
128.71039 56.250759 219.02521
129.26979 56.255711 219.10515
129.69901 55.986824 220.13655
130.13295 55.717865 221.16713
130.69678 55.722546 221.24321
131.01497 55.179771 223.22572
131.58339 55.18428 223.29942
132.15169 55.18869 223.37161
133.06625 56.013851 220.57765
133.62701 56.018009 220.64592
134.40887 56.569237 218.80174
134.85634 56.29958 219.82225
135.52007 56.576962 218.92978
136.0755 56.580685 218.99158
136.63083 56.584312 219.0519
137.18604 56.587833 219.11078
137.83722 56.86475 218.21114
138.29616 56.594601 219.22415
138.85107 56.597843 219.27864
139.31711 56.327541 220.28946
139.96063 56.604038 219.38327
140.51527 56.606991 219.43343
141.06984 56.609859 219.4821
141.46609 56.065842 221.44664
142.10202 56.341915 220.53403
142.58449 56.07114 221.53761
142.99988 55.526936 223.49936
143.63315 55.802734 222.58215
144.19452 55.805069 222.62274
144.62663 55.260658 224.58136
145.1927 55.262825 224.61937
145.81845 55.538223 223.69583
146.26732 54.993599 225.65117
146.78072 54.722214 226.64529
147.45638 55.270611 224.75673
148.07224 55.545609 223.82678
148.63554 55.547234 223.8559
149.24406 55.822025 222.9227
149.84769 56.096722 221.98781
150.32523 55.551548 223.93456
150.85039 55.279556 224.91908
151.38034 55.007484 225.90236
151.98141 55.281822 224.96158
152.51614 55.00959 225.94209
153.14064 55.556961 224.03674
153.70364 55.557777 224.05286
154.29012 55.83173 223.10587
154.87172 56.105595 222.1573
155.44849 56.37936 221.20723
155.98792 56.106609 222.17923
156.53217 55.833759 223.14993
157.05843 55.014397 226.04305
157.62614 55.01461 226.0491
158.19386 55.014717 226.05374
158.75742 54.741539 227.01884
159.32231 53.921837 229.90645
159.89769 54.741318 227.02087
160.47092 54.467873 227.98163
161.04898 54.194321 228.94092
161.61606 54.467125 227.97487
162.15764 55.286285 225.08359
162.74849 54.739235 227.00041
163.33386 54.46534 227.95375
163.88893 54.737785 226.98201
164.45918 54.736931 226.97061
165.02945 54.735977 226.95779
165.62459 54.461693 227.90511
166.17009 54.73381 226.92772
166.74046 54.732597 226.91046
167.34296 54.458023 227.85321
167.88132 54.729889 226.87164
168.4518 54.728394 226.85005
169.02234 54.726814 226.82697
169.59291 54.725159 226.8024
170.25186 54.176811 228.69823
170.73421 54.721542 226.74893
171.25594 54.992897 225.75931
171.92715 54.444244 227.65012
172.55428 54.168785 228.57851
173.13002 54.16655 228.54486
173.8232 53.617523 230.42999
174.40393 53.615074 230.39307
174.73065 54.705994 226.5154
175.36778 54.430023 227.43579
175.87311 54.700714 226.43539
176.44446 54.697937 226.39316
177.2355 53.874832 229.22678
178.11678 52.778122 233.01668
178.70534 52.774971 232.9686
179.21352 53.045158 231.96049
179.88274 52.768349 232.86787
180.47159 52.7649 232.8152
181.06055 52.761337 232.761
181.6496 52.75769 232.70523
182.23877 52.753922 232.64795
182.82805 52.750061 232.5891
183.32001 53.019646 231.57181
183.90709 53.015594 231.51012
184.49429 53.011444 231.44687
185.39578 52.186371 234.25046
186.09767 51.908325 235.13914
186.69498 51.903793 235.07011
187.29242 51.899147 234.9995
187.77557 52.168076 233.97232
188.13713 52.710632 231.98946
188.847 52.431999 232.86938
189.44016 52.426964 232.79303
189.90932 52.69558 231.76132
190.75351 52.142769 233.58897
191.34958 52.137375 233.50752
191.94579 52.131874 233.42445
192.67606 51.852409 234.29219
193.13873 52.120537 233.25349
193.87421 51.840797 234.11728
194.47356 51.834824 234.02739
194.92944 52.102676 232.98494
195.96492 51.274582 235.7439
196.56969 51.268219 235.64828
196.87277 51.809769 233.65149
197.77983 51.255112 235.45222
198.69685 50.700226 237.24966
199.30731 50.693329 237.14662
200.07869 50.412163 237.99008
201.18149 49.582504 240.72646
201.47116 50.123512 238.72198
202.25542 49.841843 239.55817
202.70381 50.108498 238.49887
203.66637 49.552238 240.27667
203.93741 50.092987 238.26886
204.91022 49.536362 240.04132
205.35223 49.802597 238.97646
206.15506 49.519974 239.79897
206.40747 50.060471 237.78793
207.02563 50.052017 237.66335
207.64403 50.043457 237.53694
208.45525 49.760216 238.35092
208.88165 50.025932 237.27892
209.6983 49.742371 238.08826
210.52017 49.458603 238.89479
210.94247 49.724007 237.81847
211.76982 49.439919 238.62029
213.01698 48.606102 241.297
213.64992 48.596329 241.15352
214.49539 48.311577 241.94597
215.34607 48.026642 242.73538
215.98485 48.016396 242.58516
216.40431 48.280983 241.49702
217.26334 47.995529 242.27905
218.12762 47.709862 243.05798
218.54311 47.974159 241.96533
219.18347 47.96328 241.8056
220.05617 47.677101 242.57695
220.93413 47.390732 243.34511
221.58044 47.379395 243.1783
222.94534 46.542046 245.80276
223.59976 46.530342 245.63008
224.01018 46.793884 244.52565
224.16913 47.33284 242.49147
224.56783 47.596375 241.38643
224.96191 47.859894 240.28075
225.60567 47.847824 240.10147
226.76337 47.284416 241.7729
227.6721 46.996384 242.51385
228.58617 46.708138 243.25137
229.2413 46.695465 243.06122
230.16356 46.406876 243.79247
230.28342 46.945656 241.75204
230.93713 46.932755 241.55644
232.13968 46.367828 243.20125
233.07584 46.078636 243.92046
233.45889 46.341377 242.79669
234.6825 45.775818 244.42909
235.63223 45.486153 245.13811
235.72708 46.02494 243.09145
236.39075 46.011353 242.87889
237.05478 45.997711 242.66422
238.30765 45.431305 244.27721
238.97736 45.41748 244.05661
240.24594 44.850693 245.66032
241.2231 44.560181 246.34612
241.90129 44.546127 246.11649
242.88663 44.25544 246.79536
243.87726 43.964638 247.47032
243.9377 44.503937 245.41446
244.93143 44.21312 246.08412
246.24734 43.645409 247.65695
246.29599 44.185059 245.59891
247.30054 43.894165 246.25835
247.98593 43.880219 246.00931
248.99847 43.589333 246.66156
249.6868 43.575508 246.40717
250.70726 43.284668 247.05219
251.06389 43.54821 245.89169
252.08969 43.25753 246.53041
253.12065 42.966911 247.16496
254.49881 42.399033 248.69318
255.19794 42.385918 248.42165
256.59131 41.818161 249.93954
257.64517 41.527924 250.55644
257.99963 41.792892 249.38141
258.349 42.05822 248.20624
259.05045 42.046341 247.9227
259.392 42.312424 246.74625
260.45288 42.02356 247.34921
262.61298 40.901817 250.61409
263.32367 40.891228 250.31784
264.77377 40.325462 251.79271
266.23355 39.760025 253.2612
267.32809 39.472809 253.8389
268.04984 39.463959 253.52902
269.53082 38.899818 254.98166
269.49161 39.447975 252.90315
268.67188 40.552803 249.06693
269.38104 40.546494 248.75352
268.52972 41.652939 244.9268
268.05002 42.482201 241.98401
64.267654 52.32019 213.20985
65.263809 52.599388 212.60278
65.867798 52.603889 212.87155
64.930832 51.507942 216.66171
64.780281 50.963181 218.69536
66.542305 51.795067 216.31705
67.534019 52.076927 215.69856
68.521187 52.3592 215.07617
69.87661 52.916946 213.56377
71.963089 54.025154 210.27089
72.190529 53.758209 211.40918
72.788582 53.766701 211.65851
73.386879 53.775528 211.90602
73.985382 53.784668 212.15173
73.868439 53.244286 214.18048
74.472244 53.254051 214.42459
74.723389 52.98925 215.56128
74.97963 52.72477 216.69809
75.936409 53.01004 216.04214
76.542953 53.020752 216.27969
77.49218 53.306267 215.61697
78.43634 53.591858 214.95036
80.050728 54.426598 212.47926
80.309357 54.163185 213.60565
81.903427 54.997787 211.12314
82.491936 55.009003 211.34259
83.08033 55.020309 211.56013
83.018372 54.48307 213.58586
84.579193 55.31739 211.08365
84.524429 54.780418 213.10834
85.114639 54.792023 213.31921
86.019676 55.077759 212.61958
86.919487 55.363434 211.91626
87.193985 55.10099 213.03012
88.088318 55.386585 212.32129
89.587402 56.21991 209.78467
89.861191 55.957474 210.89287
90.739731 56.242752 210.17332
90.720497 55.706608 212.19415
91.30101 55.718075 212.38551
91.881241 55.7295 212.57504
92.75119 56.014507 211.84563
92.465874 55.205101 214.78427
93.620247 55.763523 213.13249
93.91684 55.501293 214.23407
94.498123 55.51252 214.41515
95.356636 55.797058 213.67339
96.484886 56.354759 212.00648
97.057816 56.365643 212.17979
98.170517 56.922909 210.50479
97.935211 56.113979 213.44507
97.979599 55.578392 215.46321
98.558777 55.589092 215.63155
98.617462 55.053604 217.65044
98.943405 54.791206 218.74347
100.03938 55.347683 217.05338
100.8725 55.630978 216.28696
102.20068 56.459812 213.65952
103.26601 57.015469 211.95587
104.07593 57.298073 211.1781
104.63786 57.307747 211.32826
104.71898 56.771919 213.33994
104.57191 55.963505 216.28476
105.38068 56.245689 215.50012
106.18421 56.527691 214.71249
106.75215 56.536968 214.85605
107.54771 56.818626 214.06316
108.11263 56.827644 214.20273
108.2313 56.291721 216.2126
108.8006 56.300594 216.35001
108.93353 55.764679 218.36008
109.9384 56.318016 216.6198
110.29378 56.054287 217.69051
111.07515 56.334976 216.88292
111.85135 56.615486 216.07254
112.62237 56.895798 215.25946
113.38824 57.175945 214.44359
113.9481 57.183811 214.56612
114.30936 56.919514 215.62863
115.26308 57.471233 213.8642
116.20674 58.022717 212.09607
116.18523 57.214169 215.04013
116.93252 57.493404 214.21098
117.86081 58.044353 212.4351
118.04436 57.507626 214.43427
118.41873 57.242748 215.48866
119.33414 57.793205 213.70567
119.71053 57.52813 214.75743
120.2655 57.534752 214.86201
120.99173 57.812962 214.0181
121.71287 58.091022 213.17171
122.42892 58.368908 212.32294
122.81166 58.103378 213.36835
123.52246 58.380993 212.51567
123.75047 57.843731 214.50806
124.30167 57.849567 214.60147
124.69832 57.583763 215.64336
125.40353 57.860905 214.78378
125.65523 57.323475 216.77419
126.21061 57.32893 216.86234
126.91045 57.605713 215.99747
127.32088 57.339535 217.03412
127.87578 57.344681 217.11774
128.15587 56.807007 219.10512
128.71533 56.811981 219.18649
129.14218 56.545551 220.21962
129.96382 57.092945 218.39095
130.39281 56.826321 219.42145
130.95169 56.830894 219.49677
131.3877 56.564121 220.52527
131.82841 56.297298 221.55287
132.15599 55.759209 223.53488
132.95496 56.30582 221.69431
133.51804 56.309929 221.76277
134.19159 56.585079 220.8736
134.752 56.588978 220.9388
135.41805 56.863884 220.04581
136.07913 57.138668 219.15079
136.53345 56.871162 220.16827
137.18947 57.14571 219.26984
137.93658 57.691189 217.41165
138.29941 57.152378 219.38303
138.76303 56.884537 220.39571
139.40897 57.158669 219.4904
139.87723 56.890678 220.50063
140.4342 56.893597 220.55092
140.99109 56.896427 220.59976
141.4688 56.628212 221.60648
142.02794 56.630867 221.65262
142.51276 56.362499 222.65704
143.00232 56.094063 223.66037
143.6355 56.367382 222.74243
144.19678 56.369682 222.78296
144.75797 56.371895 222.82204
145.31911 56.374016 222.85965
145.82045 56.105179 223.85657
146.38388 56.107132 223.89143
146.94727 56.10899 223.92487
147.56308 56.381615 222.99565
148.22408 56.924992 221.10339
148.8277 57.197403 220.17067
149.33598 56.928047 221.15938
149.93468 57.200275 220.22354
150.40732 56.659935 222.17142
150.96555 56.661163 222.19452
151.48816 56.391499 223.17815
152.04874 56.392551 223.19849
152.54782 55.851929 225.14163
153.14148 56.123619 224.19702
153.70439 56.124424 224.2131
154.29077 56.395931 223.26541
154.8723 56.667355 222.31615
155.46762 57.209469 220.40291
156.00456 56.939133 221.37555
156.54631 56.668713 222.34688
157.08147 56.127426 224.27942
157.65327 56.398403 223.32285
158.20708 56.127731 224.29004
158.76572 55.856979 225.2558
159.32744 55.315357 227.18279
159.89615 55.856773 225.2578
160.46445 55.585754 226.21927
161.0376 55.314648 227.17926
161.59975 55.58503 226.21257
162.14676 56.126106 224.28189
162.72237 55.85474 225.23753
163.30281 55.583279 226.19167
163.87053 55.58252 226.18181
164.41829 55.852478 225.20805
165.00606 55.580742 226.15773
165.59868 55.308918 227.1058
166.16891 55.3078 227.09007
166.70955 55.577415 226.1107
167.3416 55.034492 228.0163
167.91437 55.033104 227.99611
168.48718 55.031624 227.97444
169.02071 55.300911 226.98947
169.67468 54.757561 228.88841
170.25006 54.755821 228.8622
170.82547 54.753967 228.83455
171.30296 55.293797 226.88264
171.97649 54.750031 228.77475
172.49826 55.018799 227.78154
173.12775 54.745705 228.70906
173.82082 54.201591 230.5956
174.46252 53.928261 231.51939
174.79163 55.00946 227.63889
175.49699 54.465019 229.52017
175.93874 55.004242 227.55865
176.51242 55.001488 227.51631
177.15936 54.727669 228.43227
177.96246 53.911751 231.26561
178.46805 54.179665 230.25859
179.04933 54.176491 230.20967
179.63072 54.173233 230.15924
180.2975 53.898827 231.06609
180.96924 53.62429 231.97095
181.55577 53.620705 231.91551
182.14241 53.617004 231.85854
182.72916 53.61322 231.80002
183.31602 53.609329 231.73997
184.00287 53.334198 232.63574
184.59239 53.330101 232.5723
185.39145 52.783539 234.42099
185.98608 52.77919 234.35393
186.58086 52.774727 234.28529
187.06378 53.041397 233.25909
187.54198 53.307991 232.23189
188.01547 53.574509 231.20375
188.84204 53.027138 233.03986
189.3134 53.293465 232.00887
189.90416 53.288422 231.93134
190.87477 52.469223 234.71461
191.47314 52.463882 234.63297
191.94026 52.72982 233.59622
192.67039 52.452873 234.4648
193.26927 52.447205 234.3783
193.86832 52.441422 234.29018
194.46754 52.435532 234.20039
194.92336 52.701035 233.15736
195.81259 52.151871 234.9673
196.41481 52.145607 234.87227
196.8663 52.410812 233.82509
197.77319 51.86113 235.62738
198.69005 51.311218 237.42641
199.14214 51.57608 236.37422
200.07161 51.025795 238.16783
201.01108 50.475288 239.95805
201.29825 51.01152 237.95277
202.0799 50.73243 238.79025
202.52576 50.996765 237.73088
203.31277 50.717361 238.56406
203.57884 51.253387 236.55589
204.36877 50.973709 237.38516
204.98358 50.965782 237.26646
205.96407 50.413803 239.03564
206.21397 50.949539 237.02386
207.01715 50.669205 237.84377
208.01555 50.116615 239.60425
208.63901 50.107964 239.47528
208.67781 50.915565 236.51765
209.6893 50.362427 238.27025
210.3111 50.353432 238.13643
210.73085 50.616539 237.0601
211.55557 50.335045 237.86342
212.80003 49.508728 240.54308
213.22066 49.771439 239.46133
214.06102 49.489342 240.25584
214.90662 49.207047 241.04735
215.75745 48.924545 241.83588
216.17435 49.186821 240.74783
217.25281 48.631439 242.46761
217.8924 48.620926 242.31194
218.30531 48.882912 241.21942
218.94308 48.8722 241.06055
220.27699 48.043236 243.7009
220.68845 48.304886 242.60324
222.04283 47.475327 245.2347
223.41243 46.645378 247.86035
224.07169 46.633705 247.6866
223.99832 47.440666 244.71942
224.65086 47.428871 244.54369
224.55586 48.236 241.57851
225.20166 48.224113 241.40082
225.33926 48.758316 239.36559
226.75104 47.926834 241.96654
227.40036 47.914566 241.78214
228.3118 47.628937 242.52141
228.96432 47.616409 242.33224
230.15065 47.057098 243.98946
230.5397 47.317665 242.87128
231.19582 47.304802 242.67522
232.4007 46.74485 244.32108
233.06252 46.731712 244.11935
233.44553 46.992073 242.99512
234.10558 46.978813 242.78998
235.05017 46.691795 243.50163
235.42676 46.952087 242.37341
236.37704 46.664841 243.07922
237.04102 46.651276 242.86484
237.99953 46.363762 243.56398
238.96338 46.076103 244.25931
240.23184 45.514297 245.86487
240.90718 45.500366 245.63855
241.8871 45.212296 246.32239
242.87234 44.924118 247.00229
243.86295 44.635826 247.67828
243.92349 45.170212 245.6212
244.60287 45.156197 245.38307
246.233 44.319122 247.86653
246.60114 44.57943 246.71426
247.60822 44.290947 247.37384
248.62057 44.002426 248.02936
249.63818 43.713867 248.68082
250.0022 43.974541 247.52142
251.02524 43.686066 248.16653
251.38457 43.947044 247.00458
251.73898 44.208252 245.84229
252.42801 44.194893 245.57924
253.45917 43.906822 246.2126
254.49544 43.618828 246.8418
255.8839 43.055992 248.36342
257.28247 42.493179 249.87889
257.28259 43.030632 247.80965
257.62723 43.293427 246.63588
257.96674 43.556595 245.46193
257.94135 44.095322 243.39636
259.35468 43.533661 244.89488
261.14264 42.69693 247.2766
262.21094 42.410927 247.87312
264.02359 41.5746 250.24011
265.47873 41.013847 251.71239
266.5687 40.728851 252.29301
268.04062 40.168854 253.7536
269.14221 39.884735 254.32472
269.48352 40.15213 253.1277
268.66449 41.246758 249.28822
269.37433 41.240021 248.97475
268.9137 42.060646 246.02345
268.82962 42.606506 243.95454
66.236168 54.278664 209.00635
66.83004 54.282875 209.27232
67.03672 54.014832 210.41716
65.707497 52.656158 215.0887
65.935379 52.389359 216.23914
67.309929 52.941376 214.73895
67.919189 52.948288 215.00233
68.904243 53.22834 214.3781
70.2575 53.78141 212.86302
71.971367 54.607361 210.45396
71.463539 53.797913 213.37108
72.432266 54.079231 212.7323
73.033371 54.08828 212.9808
73.994942 54.370102 212.33528
73.878334 53.834793 214.36546
74.837639 54.117111 213.71523
75.08654 53.854866 214.85153
75.690704 53.865227 215.09178
76.294914 53.875793 215.33011
77.244286 54.158768 214.66833
78.531235 54.713982 213.10353
79.467949 54.997055 212.43306
80.737152 55.552238 210.85768
81.325996 55.563286 211.0807
82.579903 56.11842 209.49583
83.163467 56.129562 209.71321
83.419334 55.868896 210.83357
83.355026 55.336555 212.85968
84.268188 55.619854 212.16745
84.21608 55.087868 214.19432
84.491318 54.827812 215.31438
85.716347 55.38282 213.70615
86.618622 55.666058 213.00273
86.895699 55.406113 214.11795
88.099945 55.960762 212.49699
89.598885 56.786663 209.95784
90.175148 56.79805 210.15286
90.751152 56.80941 210.34605
91.029442 56.549454 211.45276
91.902367 56.832069 210.72684
91.89267 56.300934 212.74852
92.472572 56.312263 212.93593
92.764732 56.052441 214.04013
93.916466 56.605831 212.38579
93.928093 56.074936 214.40729
94.789276 56.357044 213.66714
95.645172 56.639 212.92361
96.495789 56.920788 212.17674
97.068634 56.93158 212.34984
97.911163 57.21307 211.59712
97.945923 56.68222 213.61534
98.255325 56.422146 214.70924
98.569412 56.162079 215.8028
99.148193 56.172585 215.96912
99.726685 56.183022 216.13359
100.55994 56.463848 215.36803
101.13535 56.474037 215.52827
102.46083 57.295376 212.89771
103.27585 57.575611 212.12204
103.84044 57.585335 212.27435
104.64745 57.865238 211.49326
104.96877 57.604473 212.57382
105.05699 57.073471 214.58701
105.86067 57.353031 213.80011
106.4263 57.36227 213.94455
106.99165 57.371407 214.08728
107.55673 57.38044 214.22833
108.34694 57.659363 213.43158
108.68607 57.39817 214.50536
109.02985 57.136944 215.57867
109.37828 56.875679 216.65152
110.16249 57.154079 215.84692
110.51532 56.892673 216.91757
111.29408 57.170784 216.10851
111.8595 57.178959 216.23683
112.63039 57.456738 215.42279
113.19284 57.464657 215.5473
113.75506 57.472469 215.67017
114.11867 57.210548 216.73378
115.27057 58.026886 214.02541
116.40751 58.842918 211.31233
116.38353 58.041592 214.25784
117.31677 58.58773 212.48294
118.23999 59.133633 210.7045
118.23495 58.33223 213.64928
118.78799 58.339058 213.75792
119.69833 58.884495 211.97237
119.89345 58.35239 213.97052
120.44586 58.358887 214.07451
121.34093 58.903816 212.28157
121.71909 58.640804 213.32973
122.43502 58.916168 212.48007
123.14587 59.191364 211.62807
123.69001 59.197258 211.72307
123.91552 58.664768 213.71632
124.46417 58.670494 213.80919
124.70396 58.137951 215.8019
125.40904 58.412575 214.94148
125.81015 58.148983 215.98169
126.21596 57.885326 217.02119
126.91566 58.159603 216.15546
127.46819 58.164745 216.24011
127.88081 57.900852 217.27623
128.29816 57.636902 218.31155
128.7202 57.37289 219.3461
129.2794 57.377708 219.4258
129.96848 57.651276 218.54964
130.52496 57.655865 218.62602
131.0813 57.660351 218.70091
131.63751 57.664742 218.77431
132.19359 57.669033 218.84622
132.39595 56.866932 221.78458
133.07449 57.13982 220.89818
133.74806 57.412586 220.00969
134.41664 57.685211 219.11914
134.86395 57.420315 220.14084
135.52747 57.692726 219.24677
136.186 57.964996 218.35071
136.73871 57.968502 218.4106
137.29132 57.971909 218.46906
137.84381 57.97522 218.52605
138.3026 57.709843 219.54028
139.03972 58.250168 217.67677
139.58951 58.253193 217.72919
140.13921 58.256126 217.78018
140.77275 58.527515 216.87016
141.23836 58.261719 217.87788
141.70871 57.995853 218.88461
142.18384 57.729923 219.8903
142.58949 57.195415 221.85539
143.00475 56.66087 223.81976
143.70721 57.200211 221.94029
144.33296 57.47094 221.01962
144.88924 57.473099 221.0583
145.44545 57.475174 221.09554
146.0016 57.477158 221.13135
146.50038 57.210613 222.12733
147.00395 56.943996 223.12215
