ply
format ascii 1.0
comment PCL generated
element vertex 1596
property float x
property float y
property float z
element camera 0
property float view_px
property float view_py
property float view_pz
property float x_axisx
property float x_axisy
property float x_axisz
property float y_axisx
property float y_axisy
property float y_axisz
property float z_axisx
property float z_axisy
property float z_axisz
property float focal
property float scalex
property float scaley
property float centerx
property float centery
property int viewportx
property int viewporty
property float k1
property float k2
end_header
87.837181 56.792294 211.55795
89.033798 57.341843 209.93266
90.220139 57.891171 208.30209
90.488968 57.63348 209.40964
91.062439 57.644741 209.60173
91.635643 57.655983 209.79198
91.913673 57.398399 210.89734
91.611633 56.603394 213.83798
92.483879 56.8834 213.10739
92.488647 56.357327 215.13144
93.357803 56.637165 214.39636
94.221672 56.916862 213.65782
95.080246 57.196381 212.91592
95.933533 57.475754 212.17062
96.781532 57.754948 211.42204
97.079376 57.497261 212.5181
97.65184 57.507893 212.68915
98.491455 57.786716 211.93292
99.060829 57.797138 212.09966
99.367393 57.539291 213.19157
99.678635 57.281448 214.28313
100.25206 57.291698 214.44597
100.57014 57.033802 215.53609
101.39801 57.311905 214.76637
101.97053 57.32185 214.92397
102.54275 57.331707 215.07979
103.60493 57.877201 213.37038
104.17161 57.886768 213.52139
104.49781 57.628437 214.60379
105.06638 57.63784 214.75201
105.63466 57.647129 214.89856
105.73711 57.120972 216.91336
106.07947 56.862503 217.99333
106.6543 56.87159 218.13661
107.6796 57.415672 216.40456
108.47185 57.691967 215.60583
109.25891 57.968079 214.80423
110.04076 58.244007 213.9998
110.81744 58.51976 213.19254
111.16282 58.260586 214.26199
111.93405 58.536037 213.45035
112.49199 58.54401 213.5768
113.04966 58.551872 213.70166
113.81033 58.826859 212.88292
114.16429 58.56728 213.94649
114.91956 58.841965 213.1235
115.47383 58.849358 213.24139
116.02787 58.856647 213.35771
116.39071 58.596756 214.41702
117.32378 59.137913 212.64055
117.50255 58.610828 214.64279
117.87453 58.350735 215.69937
118.61353 58.624477 214.86226
119.16869 58.63113 214.96967
119.72365 58.637684 215.0755
120.2784 58.644123 215.17979
121.00436 58.917282 214.33415
121.04941 58.123081 217.2814
121.60846 58.129257 217.38194
122.16731 58.13533 217.48093
122.56435 57.874569 218.5285
123.12526 57.880447 218.62485
123.84276 58.152893 217.76868
124.40088 58.158535 217.86153
124.95883 58.16407 217.95285
125.5166 58.16951 218.04265
126.22122 58.44141 217.17839
126.92081 58.713161 216.31189
127.47323 58.71825 216.39636
127.88578 58.456722 217.43304
128.16576 57.928658 219.42294
128.72501 57.933498 219.50404
129.2841 57.938232 219.58368
129.97305 58.209293 218.70673
130.52943 58.213818 218.78297
131.21082 58.484631 217.90202
131.6418 58.222569 218.93105
132.19778 58.226803 219.00285
132.75363 58.230934 219.07318
133.54019 58.767582 217.22816
133.97795 58.505188 218.25221
134.75215 59.041569 216.40277
135.30023 59.045269 216.46638
135.74249 58.782619 217.48666
136.2928 58.78616 217.54762
136.84299 58.789581 217.60721
137.29463 58.526733 218.62418
137.84703 58.529991 218.68111
138.30576 58.267006 219.69592
138.95157 58.536247 218.7906
139.41493 58.273094 219.80304
139.96939 58.276016 219.85439
140.52374 58.278831 219.90434
141.15953 58.547684 218.99231
141.63223 58.284222 219.99986
142.18636 58.286774 220.04547
142.7404 58.289242 220.08968
143.29437 58.291622 220.1324
143.84828 58.293915 220.17371
144.53607 58.828209 218.29033
145.08501 58.830299 218.32848
145.63388 58.832321 218.36516
146.12296 58.568226 219.36258
146.61682 58.30407 220.35887
147.11548 58.039841 221.35405
147.67137 58.041534 221.38551
148.22722 58.043148 221.41554
148.78302 58.04467 221.44418
149.24834 57.514164 223.39722
149.76608 57.249569 224.38623
150.32901 57.250847 224.41092
150.85393 56.986095 225.39738
151.38364 56.721264 226.3826
151.98442 56.988247 225.43971
152.51891 56.723259 226.4222
153.14313 57.256008 224.51268
153.70587 57.256783 224.52873
154.29207 57.523407 223.57965
154.87341 57.789955 222.62898
155.41261 57.524544 223.60443
155.95662 57.259064 224.57854
156.54692 57.791267 222.65962
157.08192 57.259689 224.59488
157.64456 57.259884 224.60086
158.21378 57.525917 223.64145
158.77399 57.525936 223.64459
159.3342 57.525875 223.6463
159.89243 58.323505 220.75459
160.45155 57.791428 222.68144
161.00388 58.057045 221.7149
161.58302 57.258873 224.60283
162.14569 57.2584 224.59737
162.72112 56.991909 225.55437
163.25592 57.523129 223.61829
163.8338 57.256466 224.5724
164.35657 57.787537 222.63364
164.9817 56.988808 225.51231
165.54692 56.987823 225.4982
166.16663 56.454849 227.40984
166.73674 56.453678 227.39268
167.33894 56.186459 228.33755
167.84258 56.71706 226.39066
168.44728 56.449665 227.3325
168.93892 56.980118 225.38319
169.58786 56.446556 227.28511
170.15822 56.444881 227.2592
170.72862 56.443108 227.23186
171.29909 56.441254 227.20303
171.9724 55.907265 229.09795
172.54782 55.905216 229.06593
173.12329 55.903076 229.03242
173.81615 55.368759 230.9218
174.64087 54.302185 234.73314
175.23106 54.299721 234.69424
175.82133 54.297157 234.65382
176.34335 54.560585 233.65038
176.93137 54.557854 233.60707
177.22679 55.619465 229.71762
177.65411 56.148834 227.75012
178.30588 55.879753 228.66422
178.88213 55.876701 228.61586
179.45848 55.873554 228.56599
180.03491 55.870319 228.51463
180.78685 55.33461 230.38161
181.45847 55.064949 231.28648
182.04248 55.061378 231.22992
182.62662 55.057724 231.1718
183.40564 54.521461 233.03011
183.79523 55.050095 231.05101
184.3797 55.046143 230.98831
185.17363 54.509483 232.84045
185.8703 54.238983 233.73206
186.24341 54.767334 231.74863
186.83081 54.762962 231.67947
187.53275 54.492111 232.56583
187.88925 55.020294 230.57974
188.59389 54.749222 231.46268
189.0602 55.010857 230.43115
189.89407 54.473099 232.26616
190.6113 54.201607 233.14281
191.20459 54.196465 233.06204
191.79807 54.191216 232.97971
192.65932 53.652786 234.80473
193.25797 53.647278 234.71848
193.99548 53.375084 235.5844
194.59692 53.369324 235.49455
194.91142 53.896706 233.49699
195.50836 53.890785 233.40463
195.80861 54.418098 231.40607
196.40103 54.411995 231.31125
196.99365 54.405777 231.2148
198.05371 53.599197 233.97003
198.65405 53.592682 233.86908
199.89711 52.518829 237.5676
200.50763 52.511963 237.46167
201.11838 52.50499 237.35403
201.56137 52.764778 236.29575
202.17012 52.757591 236.18518
202.60623 53.017235 235.12482
203.38828 52.742859 235.95894
204.3532 52.201309 237.73756
205.14796 51.926537 238.56595
206.31314 51.117455 241.28404
206.56784 51.643555 239.26883
206.81297 52.169662 237.25386
207.23856 52.428604 236.18382
207.85194 52.420303 236.05728
208.27069 52.679108 234.98526
209.0795 52.403313 235.79895
210.09332 51.860023 237.55249
210.71271 51.851158 237.41783
211.12764 52.109528 236.3398
211.74512 52.100449 236.20209
212.57256 51.823784 237.00313
213.40521 51.546928 237.80119
214.24307 51.269875 238.5963
215.52026 50.457497 241.26599
216.37354 50.179962 242.05396
217.01009 50.169853 241.90126
217.4225 50.427299 240.80965
218.05724 50.416969 240.65381
218.69226 50.406532 240.49602
219.79135 49.860359 242.20668
220.43201 49.849586 242.04385
221.54662 49.302917 243.74689
222.43219 49.023888 244.51218
223.08128 49.012619 244.34157
223.24225 49.537247 242.30511
223.8871 49.525803 242.13193
224.03391 50.050453 240.09555
224.42279 50.30703 238.98982
225.06125 50.295395 238.81274
226.21338 49.747162 240.49078
226.59837 50.003479 239.38052
227.76364 49.454811 241.05106
229.20334 48.637474 243.64308
229.85852 48.625008 243.45171
230.24498 48.880913 242.33336
231.7132 48.062737 244.91122
232.1004 48.318451 243.78874
232.75955 48.305557 243.58836
233.69815 48.023903 244.3078
234.64214 47.742073 245.02364
235.30737 47.728821 244.8154
236.2596 47.446678 245.52463
236.63899 47.702103 244.39261
237.30533 47.688637 244.17799
237.97203 47.675117 243.96124
238.34247 47.930565 242.82602
239.60559 47.37886 244.43678
240.27585 47.36515 244.21275
240.94643 47.351402 243.98654
241.61732 47.337646 243.75812
242.28856 47.32386 243.52757
242.33673 47.848717 241.4724
242.68936 48.104401 240.3289
244.30409 47.282478 242.8228
245.29576 46.999229 243.49205
246.29272 46.715919 244.15729
246.9707 46.702126 243.91179
248.62933 45.879471 246.38152
248.98602 46.135323 245.22395
250.33342 45.582153 246.77783
252.02548 44.759087 249.22874
252.72217 44.745338 248.96555
253.41904 44.731705 248.70009
254.45796 44.44828 249.33252
255.15759 44.434906 249.06158
254.81631 45.231789 246.09398
256.20752 44.678757 247.61588
256.20068 45.206261 245.54692
257.24747 44.923653 246.16527
257.22797 45.451843 244.09703
258.63681 44.899452 245.60312
259.69345 44.617493 246.21083
261.84906 43.52475 249.48743
262.55585 43.513535 249.19359
263.63214 43.232292 249.7865
264.7132 42.95137 250.37517
265.04941 43.211777 249.18602
265.00293 43.74324 247.11127
266.08539 43.463646 247.69264
266.79004 43.455101 247.38628
267.87897 43.176468 247.96037
268.58499 43.169006 247.64899
269.68018 42.891502 248.21585
270.3873 42.885277 247.89955
65.852547 55.175201 210.24843
66.840355 55.448078 209.63492
67.823792 55.721447 209.01756
66.876144 54.655762 212.81157
68.246002 55.198013 211.30789
68.465347 54.937057 212.45384
69.445724 55.212234 211.82764
70.421455 55.487732 211.19754
72.138046 56.299046 208.78661
71.988518 55.771927 210.81514
73.320282 56.315987 209.28381
73.181267 55.78965 211.31297
73.05249 55.263744 213.3445
73.294113 55.005821 214.48462
74.613899 55.550797 212.94078
75.213371 55.560871 213.18245
76.165512 55.838593 212.52553
77.462746 56.383804 210.96696
79.097496 57.196346 208.50383
79.336777 56.939594 209.63174
80.266159 57.217571 208.95839
80.510345 56.961182 210.08449
81.096985 56.972141 210.30806
81.013496 56.448997 212.33684
81.937401 56.727314 211.65401
82.196182 56.471584 212.77826
82.787277 56.482983 212.99611
82.728287 55.960594 215.02663
83.968887 56.505932 213.42607
84.879311 56.784286 212.72906
86.101883 57.329334 211.11839
86.999298 57.607487 210.41313
88.203835 58.152218 208.79248
88.468445 57.896873 209.90437
89.35257 58.174778 209.18913
90.231422 58.452568 208.47032
90.500282 58.197289 209.57835
91.373573 58.474926 208.85419
91.646889 58.219685 209.96022
91.924919 57.9645 211.06606
91.915321 57.443092 213.09018
92.784981 57.72052 212.35779
93.361977 57.731606 212.54207
93.938683 57.742638 212.7245
94.797447 58.019695 211.98344
95.371048 58.03054 212.16147
95.944344 58.041325 212.33766
96.517342 58.05204 212.51204
97.090027 58.062664 212.68465
97.392509 57.807358 213.7809
98.501892 58.349483 212.09828
99.336105 58.625584 211.33784
99.902588 58.63578 211.50186
100.20882 58.380219 212.59245
101.03467 58.65591 211.82462
100.83524 57.869061 214.77266
101.15544 57.613464 215.86221
101.73035 57.623371 216.02022
102.30494 57.633167 216.17648
102.87923 57.642857 216.33101
103.45323 57.652447 216.4838
104.02693 57.661938 216.63483
104.83801 57.936607 215.84975
105.64384 58.211094 215.06166
105.74628 57.689743 217.07764
106.54907 57.96397 216.28552
107.11887 57.972878 216.42737
107.91371 58.24678 215.63
108.70335 58.520489 214.82977
109.48779 58.794014 214.02666
110.26704 59.067348 213.22076
110.82563 59.075569 213.35188
111.17093 58.818748 214.42186
111.73146 58.826767 214.55032
112.29173 58.834679 214.67714
112.85176 58.842487 214.80234
113.61474 59.114956 213.98328
113.77034 58.59301 215.9911
114.92695 59.394665 213.28084
115.28526 59.137276 214.34282
116.03503 59.409145 213.51472
116.3978 59.151608 214.57455
117.33069 59.687782 212.79654
117.50942 59.165508 214.79997
118.0649 59.172287 214.91035
118.98247 59.707962 213.12469
119.71133 59.978943 212.28331
120.0826 59.720871 213.33577
120.63235 59.727177 213.43896
121.18192 59.733368 213.54066
121.39343 59.210743 215.53986
121.44803 58.423782 218.48923
122.33731 58.958408 216.68774
122.57021 58.435696 218.68626
123.13103 58.441498 218.78244
123.8484 58.711422 217.92545
124.56071 58.981186 217.06613
125.26797 59.250801 216.20448
125.82078 59.256119 216.29335
126.5204 59.525463 215.42754
127.215 59.79467 214.55942
127.62032 59.53553 215.59706
127.75098 58.748211 218.5426
128.17059 58.489017 219.57942
128.72974 58.49379 219.6604
129.28874 58.498466 219.73987
130.10754 59.031006 217.9064
130.66139 59.035446 217.98222
131.34023 59.30373 217.1002
131.76871 59.044025 218.12946
132.32216 59.048172 218.20087
132.87549 59.052223 218.27078
133.6595 59.583935 216.42398
134.20773 59.587757 216.49042
134.75584 59.591496 216.55537
135.30383 59.595135 216.6189
135.74603 59.334873 217.63976
136.29623 59.338348 217.70067
136.84633 59.341728 217.76015
137.2979 59.081257 218.77771
137.94621 59.348221 217.87476
138.40244 59.087601 218.88992
138.95456 59.090633 218.94388
139.41785 58.829865 219.95691
139.97221 58.832729 220.00822
140.4426 58.571827 221.01903
140.99921 58.574528 221.06767
141.47667 58.31348 222.07622
142.11218 58.579678 221.1606
142.7428 58.845757 220.24316
143.36848 59.111732 219.3239
143.85049 58.850357 220.3271
144.60515 59.643368 217.48003
145.08702 59.381817 218.48041
145.69795 59.647396 217.55443
146.12482 59.122116 219.51508
146.6759 59.123932 219.54907
147.11719 58.598526 221.5078
147.62053 58.336628 222.50244
148.17871 58.338219 222.53256
148.73685 58.339729 222.56128
149.24973 58.077606 223.55214
149.7674 57.815414 224.54181
150.33023 57.816669 224.56645
150.85506 57.554333 225.55354
151.38469 57.291912 226.5394
151.95226 57.292931 226.55991
152.51979 57.293873 226.57896
153.14392 57.821751 224.66809
153.70657 57.822517 224.6841
154.31618 58.350204 222.76996
154.87396 58.350807 222.78299
155.41307 58.087814 223.75909
155.95702 57.824753 224.73386
156.51958 57.825104 224.74272
157.05933 57.298374 226.67935
157.61772 57.035072 227.65002
158.20067 57.562168 225.72537
158.76563 57.562191 225.72852
159.33234 57.82563 224.76556
159.8929 58.615967 221.87189
160.45128 58.352257 222.83539
161.00352 58.615444 221.86818
161.57468 58.088066 223.79347
162.13484 58.087593 223.78806
162.70776 57.823536 224.74579
163.25523 58.086414 223.77293
163.85059 57.558678 225.69223
164.3757 58.0849 223.75212
164.98076 57.556988 225.66835
165.5459 57.556011 225.65425
166.16551 57.027905 227.56726
166.73552 57.02676 227.55014
167.33765 56.761993 228.49568
167.87567 57.024216 227.51152
168.51959 56.49572 229.41791
168.97668 57.284878 226.50325
169.62794 56.756191 228.40643
170.20062 56.754524 228.38048
170.77338 56.752769 228.35306
171.34616 56.750935 228.32414
172.02179 56.221832 230.22032
172.59953 56.219803 230.1882
173.17735 56.21769 230.15462
173.75522 56.215485 230.11954
174.51634 55.42231 232.97105
175.16508 55.156258 233.89507
175.75284 55.153755 233.85486
176.27237 55.414799 232.851
176.99933 54.884781 234.73198
177.22398 56.200386 229.87787
177.65123 56.724937 227.90907
178.22488 56.722034 227.86247
178.79863 56.71904 227.81438
179.37247 56.715954 227.76482
180.11691 56.185291 229.63538
180.78346 55.91824 230.54295
181.45497 55.651058 231.44861
182.03889 55.647545 231.39211
182.71788 55.380135 232.29399
183.49919 54.848793 234.15346
183.99094 55.108765 233.13223
184.58017 55.104836 233.06911
185.27417 54.836937 233.96332
185.97314 54.568909 234.85539
186.3486 55.092445 232.87044
186.93834 55.088112 232.80112
187.41386 55.347626 231.77246
187.76788 55.871025 229.78542
188.58917 55.33849 231.6266
189.0554 55.597767 230.5945
189.64099 55.592972 230.51796
190.35324 55.324039 231.39606
191.07051 55.054947 232.27194
191.66142 55.049797 232.19002
192.52008 54.516357 234.01688
193.38867 53.982697 235.84077
193.98981 53.977135 235.75267
194.59114 53.971474 235.66295
195.04912 54.229874 234.61789
195.5024 54.48822 233.57191
195.8026 55.010735 231.57214
196.39491 55.004715 231.47746
196.83414 55.262867 230.42899
197.58012 54.992348 231.28323
198.33119 54.721664 232.13506
199.40854 53.922073 234.88634
200.17467 53.651001 235.73236
200.7804 53.64418 235.62575
201.38635 53.637238 235.51747
201.99252 53.63018 235.4075
202.59894 53.622993 235.29587
203.38083 53.351166 236.13084
204.34557 52.814583 237.91106
205.14017 52.542374 238.74026
205.93993 52.269966 239.56683
206.37471 52.526695 238.49782
206.80484 52.783363 237.42804
206.85042 53.569412 234.46664
207.45877 53.561287 234.34129
208.06738 53.553017 234.21425
208.67627 53.544647 234.08542
209.68498 53.006432 235.84158
210.7038 52.467957 237.5939
211.32333 52.459076 237.45766
211.73601 52.715019 236.3779
212.77289 52.175934 238.12099
213.60783 51.901596 238.91943
214.23346 51.892143 238.77483
215.51041 51.087234 241.44687
216.36353 50.812263 242.23575
216.778 51.067451 241.14497
216.96346 51.58783 239.1158
218.27374 50.781914 241.77269
218.91113 50.771545 241.61455
220.01248 50.230362 243.32626
220.65547 50.219666 243.16302
222.48264 48.881714 247.67091
222.89946 49.136017 246.56667
223.7951 48.859268 247.32832
223.71927 49.644524 244.35611
224.61563 49.367531 245.11383
224.52069 50.152885 242.14294
224.91449 50.407036 241.0354
225.30365 50.661148 239.92725
226.97128 49.586349 243.46481
227.36368 49.840195 242.35199
228.27463 49.562271 243.09425
229.45499 49.018257 244.76015
230.37912 48.739891 245.49474
230.77049 48.993355 244.37447
231.70035 48.714684 245.10347
231.81345 49.234146 243.05637
232.47 49.221405 242.85704
233.12695 49.208572 242.65562
234.0658 48.929398 243.37401
235.01001 48.650032 244.08875
235.95958 48.370499 244.79977
236.62549 48.357201 244.5876
237.58331 48.077377 245.29196
238.84055 47.530884 246.91045
239.51506 47.51725 246.68936
240.78809 46.970337 248.29861
241.46832 46.956497 248.07149
241.84482 47.20932 246.92763
242.21664 47.462204 245.78331
242.27464 47.981995 243.72563
242.32291 48.501961 241.66927
242.67557 48.755234 240.52528
243.97348 48.207718 242.11148
244.6434 48.194038 241.87335
246.27872 47.379173 244.35822
246.95676 47.365387 244.11302
248.61525 46.550148 246.58525
248.97206 46.803535 245.42717
250.31943 46.25528 246.98283
251.34279 45.974236 247.62874
252.70822 45.425812 249.17328
253.74457 45.144722 249.80992
255.12799 44.596199 251.34322
255.4884 44.850174 250.17068
255.4969 45.371971 248.09894
256.19434 45.358925 247.82474
256.18781 45.881386 245.75449
256.88022 45.868835 245.47787
257.21558 46.124275 244.30417
257.54584 46.380058 243.13034
258.95728 45.832687 244.63492
260.74332 45.01757 247.02498
261.44287 45.006302 246.73438
262.5119 44.727409 247.33134
264.70236 43.644836 250.5899
265.03906 43.90255 249.40007
265.37033 44.160759 248.21028
266.45572 43.883308 248.79135
267.54572 43.606285 249.36819
268.25537 43.597885 249.05766
268.96448 43.59005 248.74512
270.06277 43.314598 249.31155
271.16537 43.039719 249.87387
66.250496 56.025692 209.54759
67.626625 56.561928 208.05069
68.605515 56.833099 207.43042
67.268143 55.512001 212.10904
67.870285 55.518738 212.37256
68.853149 55.791309 211.74838
69.453621 55.798862 212.00737
70.054428 55.806805 212.26462
71.773766 56.610985 209.85245
72.367599 56.619507 210.10294
72.961655 56.628353 210.35161
72.825516 56.107121 212.38322
72.6996 55.586319 214.41716
72.583878 55.065933 216.45337
74.266464 55.871235 214.01451
74.868652 55.881462 214.25705
75.823463 56.156853 213.60022
77.473373 56.962196 211.14252
78.760582 57.502541 209.57646
79.002571 57.24836 210.7059
79.934547 57.523968 210.03259
80.181412 57.270126 211.16022
80.77066 57.28117 211.38455
80.689873 56.763016 213.41557
81.616325 57.03894 212.7327
81.877724 56.785725 213.85843
82.47139 56.797169 214.07697
82.73996 56.544209 215.20163
83.980484 57.084602 213.59937
84.571014 57.096115 213.81123
86.113373 57.900578 211.289
87.010735 58.176231 210.58278
87.590492 58.18758 210.78542
88.170006 58.198921 210.98616
88.749252 58.210255 211.18503
89.633026 58.48563 210.46698
90.209229 58.496864 210.66127
91.084938 58.772034 209.93697
91.955368 59.047073 209.20912
91.936104 58.530361 211.23305
92.511147 58.541447 211.41994
93.375687 58.816235 210.685
93.373032 58.299709 212.70906
93.664864 58.046986 213.81285
94.526009 58.321545 213.07162
95.102036 58.332367 213.25014
95.67775 58.343109 213.42686
96.253159 58.353771 213.60178
97.100594 58.627804 212.84944
97.403023 58.374855 213.9462
98.244873 58.648628 213.18878
99.081436 58.922222 212.42813
99.650307 58.932369 212.59265
99.958969 58.679207 213.68443
101.04459 59.215569 211.98659
101.10016 58.69912 214.00607
100.91288 57.919662 216.95767
101.49014 57.929501 217.11617
102.06712 57.939243 217.27286
102.88882 58.211838 216.49469
103.22014 57.958405 217.58105
104.0363 58.230701 216.79808
104.84724 58.502827 216.01204
105.88809 59.03756 214.28731
105.98801 58.520973 216.30385
106.78821 58.79261 215.51019
107.58318 59.064068 214.71359
108.14766 59.072689 214.85233
108.93468 59.343807 214.05063
109.71651 59.61475 213.24602
110.49315 59.885506 212.43863
111.26462 60.15609 211.62843
111.39194 59.639076 213.63889
111.73936 59.384529 214.7083
112.09146 59.129936 215.77722
112.44822 58.87532 216.84557
113.21596 59.145313 216.02672
113.37642 58.628231 218.03682
114.53773 59.422508 215.32536
115.29248 59.692009 214.49904
116.23546 60.223553 212.72464
116.59569 59.968338 213.78448
117.71442 60.761646 211.058
118.07422 60.506218 212.11472
118.43869 60.250736 213.1709
119.3512 60.78138 211.38275
120.07504 61.049774 210.53958
120.26511 60.532009 212.54047
120.98611 60.800167 211.69377
121.53069 60.806221 211.79442
121.73726 60.288338 213.79393
121.78695 59.508553 216.74435
122.50717 59.776299 215.89156
122.576 58.996521 218.84233
123.13671 59.002232 218.93842
123.85395 59.269642 218.0806
124.72041 59.798664 216.26773
125.27328 59.804001 216.358
125.97538 60.070953 215.49326
126.67245 60.337769 214.62624
127.21996 60.342758 214.71124
127.6252 60.085995 215.7494
127.89549 59.567543 217.74185
128.44983 59.572308 217.82349
128.86922 59.315369 218.85939
129.29332 59.058384 219.89447
130.11197 59.585995 218.05954
130.53821 59.328831 219.09201
131.09427 59.333126 219.16656
131.65018 59.337322 219.23965
132.20598 59.341423 219.31126
132.87944 59.606892 218.42342
133.66331 60.133675 216.5752
134.32442 60.398872 215.68294
134.87001 60.402538 215.74751
135.30739 60.144707 216.76984
135.7495 59.886829 217.79126
136.19635 59.628891 218.81177
136.74878 59.632225 218.87144
137.30112 59.635494 218.92961
137.85333 59.638653 218.98639
138.49904 59.903046 218.08098
138.9575 59.644726 219.09557
139.59818 59.908897 218.18686
140.14761 59.911697 218.23764
140.61307 59.653149 219.24863
141.16476 59.655792 219.29675
141.63731 59.397114 220.3055
142.19127 59.39959 220.35098
142.81935 59.663193 219.43263
143.44254 59.926689 218.51247
143.92204 59.667706 219.51608
144.67418 60.453381 216.66681
145.08902 59.933037 218.63077
145.63773 59.934998 218.66736
146.18637 59.936867 218.70255
146.67766 59.677494 219.69994
147.11887 59.15691 221.65996
147.62213 58.897419 222.65521
148.23029 59.160126 221.72128
148.73828 58.900467 222.71399
149.25108 58.640747 223.70547
149.81146 58.642075 223.7314
150.37181 58.643311 223.75592
150.93211 58.644474 223.77896
151.45683 58.384449 224.76526
152.05263 58.646534 223.82083
152.61284 58.647446 223.83963
153.22963 59.170456 221.92715
153.81085 59.432278 220.97798
154.38722 59.694012 220.0273
154.91663 59.433514 221.00523
155.45084 59.172943 221.98187
155.97362 58.651218 223.92238
156.53369 58.651558 223.93121
157.05954 57.868622 226.83434
157.63583 58.129868 225.87512
158.20071 58.129971 225.87971
158.76559 58.129993 225.88284
159.33223 58.391003 224.91924
159.8927 59.174076 222.02356
160.44794 59.173851 222.02243
160.99219 59.695694 220.08928
161.54262 59.695324 220.08534
162.08272 59.955944 219.11478
162.65623 59.433254 221.03856
163.22426 59.171562 221.99559
163.8147 58.648701 223.91629
164.37486 58.647907 223.90521
164.97983 58.124863 225.82278
165.56969 57.862812 226.7737
166.1644 57.60067 227.72305
166.76398 57.33844 228.67081
167.33636 57.337215 228.65219
167.90878 57.335915 228.6321
168.48126 57.334534 228.61053
168.97517 57.855316 226.65852
169.54289 57.853771 226.63426
170.11067 57.852146 226.60855
170.6785 57.850437 226.58139
171.24637 57.848644 226.55276
171.96844 57.063282 229.41447
172.54369 57.061295 229.38255
173.1752 56.798038 230.31281
173.69435 57.057045 229.3143
174.45293 56.27121 232.16798
175.09917 56.007629 233.09291
175.81618 55.482731 234.97897
176.40634 55.480156 234.93715
177.13805 54.955009 236.81917
177.51378 55.735985 233.88644
177.95065 56.255676 231.91563
178.37793 56.775314 229.94411
178.87601 57.033634 228.93376
179.36935 57.291885 227.92235
179.94319 57.288754 227.87135
180.6048 57.02422 228.78009
181.18126 57.020882 228.72592
181.94284 56.494751 230.59181
182.52435 56.491219 230.5341
183.49542 55.442039 234.31615
184.08685 55.438251 234.25438
184.78062 55.172943 235.15089
185.2701 55.43037 234.12625
185.96896 55.164841 235.0191
186.34435 55.683575 233.0329
186.82208 55.940796 232.00496
187.40942 55.936443 231.93448
187.88016 56.193516 230.90431
188.58453 55.927452 231.78879
189.05069 56.184361 230.75615
189.63617 56.179634 230.67972
190.22182 56.174801 230.60175
190.93652 55.908253 231.47873
191.5249 55.903194 231.39728
192.381 55.374706 233.22595
193.24698 54.846031 235.05164
193.98422 54.578865 235.91917
194.58545 54.57328 235.82957
194.89983 55.091087 233.82956
195.35059 55.347088 232.78348
195.64828 55.864841 230.78284
196.08723 56.120754 229.73543
196.5215 56.376621 228.68718
197.26248 56.108665 229.54308
198.16666 55.578655 231.3486
199.08081 55.048439 233.15083
200.00491 54.517998 234.94975
200.77356 54.249313 235.79453
201.54729 53.980461 236.63676
201.98544 54.235504 235.5766
202.59174 54.228424 235.46512
203.54872 53.697037 237.24995
204.51572 53.165421 239.03125
205.31262 52.895721 239.86086
205.74951 53.1502 238.7926
206.36679 53.142403 238.67068
206.60936 53.658974 236.65379
207.0323 53.913277 235.58327
207.45061 54.167526 234.51199
208.25394 53.897026 235.33022
208.86516 53.888725 235.20108
209.67639 53.617889 236.01425
210.69501 53.084427 237.76811
211.31441 53.075653 237.63206
211.51987 53.591782 235.60938
212.76369 52.795174 238.29654
213.38641 52.785995 238.15454
214.00946 52.776688 238.01074
215.06674 52.241936 239.74548
216.13419 51.706924 241.47603
216.54611 51.959816 240.38539
216.95341 52.212677 239.29405
218.4903 51.151413 242.89108
219.35931 50.878281 243.66974
220.23363 50.604935 244.44528
220.64473 50.857254 243.34573
222.23483 49.79464 246.9221
222.64908 50.046677 245.81801
223.54208 49.77253 246.58133
223.21964 50.813698 242.67451
224.35751 50.276222 244.36722
224.26007 51.05439 241.39511
224.90291 51.043007 241.21916
225.29202 51.294777 240.1106
226.95935 50.229919 243.65125
227.61072 50.218063 243.46724
228.52399 49.942665 244.20978
229.44263 49.667084 244.94885
230.10008 49.6548 244.75731
230.48891 49.90596 243.63734
231.14462 49.893517 243.44244
231.52672 50.144623 242.32057
231.90421 50.395721 241.19814
232.55605 50.383095 240.99855
233.48975 50.106575 241.71947
234.4288 49.829887 242.43675
235.94624 49.025223 244.99245
236.61208 49.012009 244.78056
237.27827 48.998726 244.56653
238.53287 48.457298 246.18759
239.50131 48.179703 246.88542
240.17612 48.166084 246.66246
240.54977 48.416611 245.52119
241.52682 48.138718 246.20999
241.5896 48.653549 244.15166
241.95171 48.904236 243.00807
242.62071 48.890587 242.77679
242.66183 49.405838 240.71967
243.64304 49.127792 241.3967
244.62956 48.849655 242.06976
245.94308 48.306816 243.64799
246.61861 48.293114 243.40393
248.6012 47.220627 246.7869
248.9581 47.47155 245.62836
250.63718 46.663422 248.09122
251.32883 46.649635 247.83267
252.69424 46.106125 249.37897
253.73064 45.827477 250.01659
254.77225 45.548836 250.65002
255.13031 45.800354 249.47792
255.48346 46.052101 248.30559
256.53046 45.773827 248.93025
256.52673 46.291237 246.8577
256.86743 46.543785 245.68359
256.84604 47.061943 243.61368
257.17407 47.31517 242.44031
258.58313 46.772636 243.94754
259.63766 46.495621 244.55597
261.06418 45.953384 246.05164
262.13101 45.676804 246.65054
263.94696 44.869438 249.0239
264.65375 44.858955 248.72382
265.3602 44.848892 248.42165
266.06625 44.839279 248.11736
267.15417 44.564445 248.69611
268.24664 44.290062 249.27057
268.56897 44.547638 248.07516
269.66531 44.274307 248.64345
270.76602 44.001534 249.20755
67.434296 57.397594 207.08127
68.413086 57.666115 206.46188
69.387413 57.935066 205.83868
68.045609 56.626438 210.51883
69.025917 56.896339 209.89453
69.621376 56.903667 210.15303
70.217194 56.911369 210.40984
70.43811 56.65657 211.55374
72.155151 57.453533 209.13821
72.376587 57.19939 210.27856
72.603256 56.945625 211.41922
73.200279 56.954937 211.66702
73.434799 56.70182 212.80716
73.674454 56.449028 213.94749
75.349571 57.246937 211.50316
76.299461 57.519676 210.84531
77.244316 57.792511 210.18355
78.534134 58.327896 208.6187
79.466339 58.600834 207.9482
80.048439 58.611431 208.17506
80.63047 58.622162 208.40004
80.532494 58.108433 210.42941
81.456741 58.381691 209.74849
81.036186 57.60619 212.6839
81.295341 57.35532 213.81114
82.219116 57.628803 213.12447
83.137672 57.902237 212.43402
83.076454 57.389637 214.46609
84.3144 57.925034 212.86124
84.90242 57.936474 213.07198
85.807518 58.209774 212.36934
86.707344 58.482971 211.66304
87.914177 59.017826 210.03987
89.11071 59.552471 208.41135
89.989677 59.82526 207.69246
90.253838 59.574715 208.80162
90.220467 59.062683 210.82727
90.796333 59.073826 211.01947
91.371925 59.08493 211.20981
91.652458 58.834572 212.31743
92.229958 58.845634 212.50487
93.386635 59.37925 210.84904
93.671272 59.128826 211.95276
93.675827 58.61721 213.97856
94.536842 58.889229 213.23637
95.112793 58.89996 213.41466
95.688431 58.910614 213.59114
96.263748 58.921185 213.76581
97.111069 59.192677 213.01251
97.683273 59.20303 213.18285
98.522491 59.474209 212.42377
99.356422 59.745201 211.66147
99.660385 59.494404 212.75406
100.22885 59.504356 212.91658
100.79703 59.514229 213.07733
101.10999 59.263317 214.16748
100.92271 58.4911 217.12102
101.49989 58.500843 217.27925
101.82927 58.249928 218.36893
102.40829 58.259499 218.52434
102.74449 58.008484 219.61252
103.56545 58.278313 218.82991
104.61877 58.808353 217.10846
105.89703 59.598488 214.44629
106.22958 59.347012 215.52693
107.25734 59.876339 213.79407
108.04724 60.145168 212.99535
108.60667 60.15361 213.13269
109.38863 60.422108 212.32887
110.16539 60.690437 211.5222
110.93697 60.958569 210.71277
111.48795 60.966476 210.8418
111.61277 60.454216 212.85291
111.95767 60.201984 213.92224
112.51527 60.209671 214.04814
112.45587 59.437469 217.00291
113.22346 59.704926 216.18318
113.38388 59.192635 218.19446
114.54498 59.979481 215.4808
115.2996 60.24646 214.65359
116.43573 61.032776 211.93156
116.98431 61.039616 212.04478
117.90952 61.56575 210.26222
118.45277 61.572315 210.37135
118.81228 61.31913 211.42708
119.53864 61.585129 210.58507
120.2599 61.850971 209.74059
120.44748 61.337963 211.74223
120.99216 61.34404 211.84422
121.70794 61.609512 210.99431
121.74315 60.836918 213.94545
121.95926 60.323826 215.94641
122.67691 60.58902 215.09239
122.74327 59.816444 218.04463
123.30144 59.822063 218.14012
124.1728 60.346279 216.32813
125.03423 60.870304 214.51299
125.58212 60.875515 214.60234
126.42862 61.3992 212.78183
126.97131 61.404171 212.86743
127.51386 61.40905 212.95155
127.77209 60.895382 214.94485
128.03989 60.38171 216.93814
128.59171 60.386375 217.01933
129.00858 60.131786 218.05542
129.56253 60.136288 218.13397
130.24626 60.399807 217.25401
130.7975 60.404091 217.32928
131.09845 59.890118 219.31854
131.65428 59.894257 219.39154
132.20998 59.898293 219.46306
132.64775 59.643211 220.49176
133.55173 60.424122 217.68375
134.21513 60.686848 216.79103
134.9841 61.208427 214.93675
135.31088 60.694 216.91916
135.8586 60.697449 216.98106
136.30295 60.441864 218.00191
136.85286 60.445148 218.0612
137.30428 60.189426 219.07996
137.95239 60.451439 218.17551
138.59558 60.713333 217.26915
138.9604 60.198517 219.24568
139.60098 60.460217 218.33624
140.15033 60.462982 218.38693
140.6996 60.465645 218.43625
141.24878 60.468235 218.48412
141.87692 60.729549 217.56786
142.34691 60.473148 218.57561
142.89586 60.475487 218.61922
143.44473 60.477737 218.66141
143.99355 60.4799 218.70219
144.67619 60.9995 216.81433
145.09097 60.483986 218.77954
145.6396 60.485909 218.81609
146.18816 60.487736 218.85126
146.6221 59.972042 220.81352
147.12051 59.715019 221.81053
147.62372 59.457924 222.8064
148.23177 59.71817 221.8718
148.69208 59.202225 223.82986
149.25243 59.203609 223.85719
149.81273 59.204906 223.88309
150.33261 58.947445 224.87268
150.93321 59.207268 223.93059
151.52895 59.466991 222.98691
152.11981 59.726635 222.0416
152.70584 59.986191 221.09473
153.31531 60.504311 219.18074
153.86331 60.505028 219.1963
154.4113 60.505676 219.21046
154.91714 59.988941 221.15474
155.45128 59.730778 222.13203
155.99022 59.472549 223.108
156.53398 59.214241 224.08263
157.05975 58.438564 226.98773
157.64496 58.956036 225.0619
158.21393 59.214775 224.10052
158.7739 59.214798 224.10364
159.33386 59.214733 224.10535
159.89186 59.990528 221.20772
160.44766 59.73167 222.17253
160.98636 60.507317 219.27213
161.53429 60.506943 219.26825
162.08223 60.5065 219.26294
162.64291 60.247326 220.22214
163.20845 59.988068 221.1799
163.79639 59.470066 223.10197
164.39401 58.951973 225.02245
164.97891 58.692451 225.97559
165.54388 58.691505 225.96155
166.13609 58.431812 226.91162
166.7628 57.913349 228.82565
167.33511 57.912151 228.80704
167.90746 57.91087 228.78699
168.51671 57.650814 229.73071
169.01297 58.166752 227.77734
169.54132 58.423943 226.78793
170.10901 58.42234 226.76227
170.6302 58.679375 225.77031
171.19559 58.677616 225.74187
171.81239 58.417042 226.67654
172.43408 58.156361 227.60953
173.00447 58.154343 227.57643
173.57491 58.152229 227.5419
174.32855 57.373718 230.39795
175.03329 56.853848 232.2877
175.74779 56.333851 234.17532
176.40375 56.072521 235.09724
177.06461 55.811085 236.0173
177.511 56.326004 234.04602
178.02336 56.582039 233.03693
178.45299 57.096867 231.06393
178.79263 57.870495 228.12769
179.28348 58.126381 227.11588
179.85481 58.123314 227.06517
180.33858 58.379059 226.05104
180.90768 58.375824 225.9976
181.75438 57.595722 228.82704
182.42587 57.333324 229.73112
183.29701 56.552891 232.55518
183.98328 56.290226 233.45471
184.6745 56.02742 234.35223
185.3707 55.764496 235.24767
185.96483 55.760452 235.18109
186.44963 56.015354 234.15331
186.81781 56.52924 232.16516
187.29074 56.784027 231.13568
187.75896 57.038754 230.10526
188.57997 56.516102 231.9493
188.92444 57.02977 229.95792
189.63142 56.765984 230.83977
190.21696 56.761227 230.7619
190.80266 56.756367 230.68246
191.3885 56.7514 230.6015
192.24202 56.227879 232.43196
193.10542 55.704178 234.25945
193.97873 55.180275 236.08394
194.57983 55.174774 235.99448
195.03763 55.428471 234.9483
195.49075 55.682102 233.90131
195.79082 56.195042 231.89909
196.23213 56.448582 230.85077
196.51552 56.961472 228.84807
197.25635 56.696045 229.70476
198.16037 56.171005 231.51176
199.07436 55.645748 233.31549
199.99829 55.120277 235.11591
200.7668 54.854126 235.96152
201.54039 54.587799 236.80458
201.97845 54.840508 235.74391
202.58463 54.833519 235.6326
203.36623 54.566772 236.46924
204.68591 53.520805 240.15094
205.30502 53.513321 240.03221
205.92436 53.505722 239.91174
206.35896 53.757774 238.84174
206.60147 54.269569 236.82365
207.02434 54.52153 235.75264
207.44255 54.773438 234.68088
208.24573 54.505501 235.49995
208.65956 54.757233 234.42575
209.46819 54.488991 235.24031
210.07982 54.480545 235.10786
210.89636 54.21196 235.91733
211.09685 54.723373 233.89455
212.33551 53.934296 236.58507
212.95319 53.925308 236.44441
213.5712 53.916183 236.30197
214.62334 53.386528 238.03944
215.46626 53.116837 238.8325
215.8707 53.367523 237.74313
216.49484 53.357841 237.59222
218.02649 52.30658 241.19345
218.66115 52.296494 241.03638
219.75961 51.765404 242.75195
220.16568 52.015465 241.65323
221.51387 51.223389 244.29788
221.68146 51.733765 242.25993
222.56439 51.462387 243.02673
222.4762 52.233376 240.05409
223.35983 51.961739 240.81706
223.50156 52.472107 238.77853
224.13683 52.460976 238.60487
224.51842 52.710548 237.49789
226.43451 51.394897 241.9744
227.08078 51.383247 241.79205
227.98892 51.110519 242.53699
229.16638 50.576599 244.207
230.08771 50.303436 244.94427
230.20752 50.813347 242.89679
230.86064 50.801056 242.7029
230.96625 51.311058 240.65575
231.33868 51.559898 239.53442
232.26439 51.286179 240.26073
233.4769 50.750946 241.90674
233.84796 50.99958 240.77997
235.0737 50.463928 242.41791
236.30983 49.928009 244.05058
236.97345 49.914879 243.83763
237.9314 49.640091 244.54189
239.48764 48.841888 247.07939
239.86343 49.090034 245.93906
240.23456 49.338226 244.79823
240.60103 49.586479 243.65688
240.65631 50.096634 241.59988
241.01093 50.345062 240.45848
242.29541 49.80777 242.05692
242.33409 50.318199 239.99948
243.62927 49.780685 241.59006
244.29669 49.767128 241.35341
245.60759 49.229317 242.93425
246.60477 48.953491 243.60039
248.26051 48.153137 246.07849
248.61499 48.401672 244.92039
250.29144 47.601006 247.38663
250.98062 47.587257 247.12932
252.34351 47.048721 248.6783
253.71669 46.510071 250.22119
254.75836 46.233879 250.85561
255.11661 46.48288 249.68303
256.5105 45.944214 251.21133
256.86642 46.193573 250.03517
256.51361 46.968651 247.06197
256.85455 47.218651 245.88731
257.19043 47.468948 244.71249
256.80228 48.245308 241.74678
257.48495 48.233437 241.46808
258.89667 47.695923 242.9738
259.95129 47.421532 243.58093
261.3804 46.884323 245.07506
262.81943 46.347298 246.56279
263.89368 46.073608 247.15506
265.34982 45.537079 248.63104
265.29694 46.053589 246.55307
266.38022 45.781021 247.13474
267.85284 45.245628 248.59685
268.17322 45.500458 247.40181
269.26758 45.229279 247.97192
270.36633 44.958618 248.53786
68.618263 58.754951 204.6089
68.809464 58.500027 205.75159
69.7817 58.766758 205.12659
68.437958 57.470604 209.80933
68.26796 56.956718 211.84225
68.868813 56.964317 212.10294
69.847725 57.232742 211.4733
70.071526 56.980614 212.61897
72.163963 58.030796 209.31151
72.755867 58.039608 209.56078
73.347961 58.048714 209.8082
73.575073 57.797798 210.94768
73.807358 57.547222 212.08736
74.044754 57.296959 213.22723
75.717407 58.087524 210.77957
76.664917 58.357845 210.1198
77.607376 58.628254 209.45612
78.544754 58.89872 208.78859
79.477036 59.169239 208.11719
80.059258 59.179886 208.34386
81.326225 59.710381 206.76286
81.563293 59.461319 207.88771
81.805267 59.212444 209.01259
81.717262 58.70401 211.04327
81.971489 58.455509 212.16913
82.890236 58.726421 211.47964
83.476433 58.737705 211.69496
84.062416 58.749016 211.90839
85.937302 59.798286 208.47835
86.193008 59.550014 209.59564
87.088013 59.820621 208.88847
87.977737 60.091122 208.17769
88.862183 60.361519 207.46329
90.051079 60.891052 205.83049
90.615234 60.901985 206.02371
90.87439 60.65374 207.13165
90.836067 60.146477 209.1568
91.706604 60.416496 208.42889
91.977425 60.168388 209.53552
91.958252 59.661369 211.56181
92.825378 59.931194 210.82759
93.397507 59.94202 211.01135
93.682121 59.69397 212.11554
93.686699 59.187183 214.14252
94.547592 59.456654 213.39937
94.843742 59.20863 214.50198
95.69902 59.477859 213.75366
96.823746 60.005493 212.0759
97.938202 60.532871 210.39334
98.233093 60.284519 211.48878
99.0672 60.553051 210.72731
99.631241 60.563007 210.89166
99.670341 60.056156 212.91379
99.71907 59.549393 214.93698
100.54945 59.817509 214.16776
101.1197 59.827221 214.32722
101.18484 59.320454 216.35004
102.00935 59.588188 215.57417
102.58116 59.597637 215.7291
103.15266 59.606979 215.88229
103.23888 59.100178 217.90416
104.29478 59.625359 216.18349
105.10294 59.89233 215.39503
106.37604 60.674934 212.72931
106.93619 60.683594 212.87144
107.72623 60.949982 212.0735
108.28336 60.958397 212.21167
108.84022 60.966694 212.34822
109.39681 60.974895 212.48309
110.17342 61.240665 211.67558
110.94485 61.50626 210.86526
111.71111 61.771683 210.05219
111.83344 61.264179 212.06387
112.1758 61.014259 213.13316
112.52284 60.764301 214.20192
112.66898 60.256809 216.21439
113.02779 60.006798 217.28268
113.59189 60.014145 217.40521
114.75034 60.793556 214.6888
115.6981 61.315311 212.91397
116.82913 62.094162 210.18871
117.37271 62.100834 210.30078
118.29286 62.621941 208.5157
118.64517 62.371132 209.57198
119.00215 62.120255 210.62776
119.72594 62.383705 209.78444
120.0874 62.132698 210.8381
120.45355 61.881634 211.89122
121.17184 62.144714 211.04245
121.71378 62.150581 211.14233
121.91781 61.642242 213.14383
122.13142 61.133926 215.14552
122.84651 61.39658 214.29027
123.07195 60.888176 216.29112
123.62513 60.893654 216.38567
124.49147 61.41288 214.57138
125.19366 61.675014 213.70802
125.73903 61.680126 213.79686
126.58293 62.198853 211.97452
127.27003 62.460552 211.1044
127.80762 62.465313 211.18765
128.20299 62.213192 212.22543
128.46344 61.704254 214.21884
128.87067 61.452034 215.25555
129.01308 60.686325 218.20555
129.43459 60.434044 219.24141
129.99072 60.438396 219.31873
130.29176 59.929314 221.31068
130.85248 59.933521 221.38568
131.29044 59.680992 222.41792
131.85332 59.685028 222.49026
132.53384 59.945564 221.60181
133.44009 60.719147 218.79204
134.10583 60.979389 217.8989
134.98759 61.752628 215.08328
135.42239 61.499531 216.10648
135.96761 61.502911 216.16801
136.30623 60.993187 218.15016
136.95686 61.252914 217.24811
137.40579 60.999557 218.26718
138.05138 61.259075 217.36177
138.50494 61.005589 218.37845
138.87215 60.49559 220.35646
139.51505 60.754837 219.44652
140.06673 60.757557 219.49739
140.61832 60.760204 219.54683
141.25128 61.01915 218.63171
141.80031 61.021603 218.67812
142.34924 61.023987 218.72307
142.82391 60.76992 219.73038
143.51869 61.284855 217.84485
143.99564 61.030628 218.8495
144.67819 61.545341 216.96031
145.09291 61.034645 218.92676
145.51723 60.523903 220.89246
146.07054 60.52573 220.92787
146.50925 60.014866 222.89169
147.06729 60.016548 222.92453
147.67772 60.274429 221.9908
148.28326 60.532211 221.05539
148.78871 60.277355 222.04919
149.38934 60.534977 221.11067
149.85675 60.02372 223.06752
150.37415 59.768661 224.05762
150.97224 60.026031 223.11476
151.52994 60.027061 223.13628
152.15385 60.540508 221.22424
152.76808 61.053852 219.3105
153.34435 61.310871 218.36124
153.91574 61.567814 217.41045
154.43535 61.312206 218.39082
154.93872 60.800304 220.3363
155.45172 60.288334 222.28062
155.99059 60.03252 223.25723
156.53427 59.77663 224.23248
157.08278 59.52066 225.20641
157.65408 59.777058 224.24582
158.22055 60.033375 223.28375
158.77803 60.033394 223.28687
159.33551 60.033329 223.28856
159.89233 60.289425 222.32219
160.44434 60.545429 221.35446
160.98602 61.057583 219.41873
161.53387 61.057217 219.41486
162.09206 60.800552 220.37614
162.65508 60.543808 221.33597
163.23808 60.03075 223.26082
163.83076 59.517601 225.18413
164.41316 59.260601 226.13942
164.97801 59.25975 226.12682
165.5181 59.515072 225.14647
166.10782 59.25782 226.09731
166.67276 59.256733 226.08038
167.26979 58.999306 227.02814
167.80276 59.254322 226.04227
168.40469 58.996727 226.98695
168.89363 59.507858 225.03261
169.45636 59.506374 225.00862
170.01913 59.504814 224.9832
170.58197 59.503178 224.95633
171.14484 59.501453 224.92802
171.75914 59.243332 225.86356
172.37833 58.985126 226.79733
173.00241 58.726803 227.72942
173.63138 58.468391 228.65973
174.38733 57.697189 231.51759
175.03094 57.438553 232.44406
175.74533 56.923435 234.33305
176.33289 56.920959 234.29147
176.99124 56.661991 235.21245
177.36203 57.428513 232.27629
177.94501 57.425785 232.23061
178.37215 57.93581 230.25656
178.87009 58.189354 229.24507
179.36328 58.442841 228.23248
179.93694 58.439812 228.18161
180.42305 58.693161 227.1667
181.08455 58.433479 228.07544
181.75099 58.173683 228.98224
182.42238 57.913761 229.88705
183.29338 57.140675 232.71312
183.97954 56.880493 233.61342
184.56848 56.876732 233.55057
185.26213 56.61631 234.44701
185.96077 56.355751 235.34138
186.33604 56.864891 233.35274
186.81361 57.117374 232.32367
187.40076 57.113159 232.25337
187.75459 57.622162 230.26266
188.45631 57.361118 231.14896
188.91988 57.613316 230.11551
189.37872 57.865459 229.08113
189.83286 58.117542 228.04585
190.41116 58.112808 227.96751
191.12091 57.851208 228.84517
192.10316 57.075878 231.63493
192.96399 56.557133 233.4642
193.83472 56.0382 235.2905
194.71533 55.519077 237.11374
195.17548 55.770405 236.06667
195.63095 56.021667 235.01874
196.08173 56.272865 233.96996
196.37706 56.78096 231.96573
196.50961 57.546021 229.00722
196.93904 57.797112 227.95717
197.99609 57.02005 230.71983
198.90747 56.499794 232.52544
199.66586 56.236385 233.3752
200.76013 55.458607 236.12674
201.53358 55.194824 236.97061
201.80128 55.702335 234.95819
202.57762 55.43829 235.79829
203.53426 54.91687 237.58614
204.67853 54.137978 240.32031
205.47758 53.873322 241.15117
205.91675 54.1231 240.08145
206.53622 54.115486 239.95941
206.5937 54.879829 236.99171
207.01648 55.129463 235.9202
207.4346 55.379044 234.84793
208.23763 55.113647 235.66789
208.45415 55.620529 233.64726
209.26016 55.35487 234.46323
209.86922 55.346584 234.33148
210.68314 55.080574 235.14235
210.88112 55.587254 233.11897
212.3266 54.547997 236.75554
212.94417 54.539124 236.61508
213.34761 54.787842 235.53073
214.39709 54.263229 237.27034
215.45676 53.738342 239.00586
216.08292 53.728859 238.85641
216.70941 53.719246 238.70514
218.24324 52.677864 242.3087
218.65103 52.925819 241.21269
219.0542 53.173714 240.11604
219.45276 53.421577 239.01872
220.08336 53.411316 238.85748
220.47516 53.659058 237.75827
221.34557 53.390434 238.52931
221.73311 53.638016 237.42758
222.36261 53.627327 237.25938
222.99243 53.616508 237.08925
224.37714 52.830612 239.71542
224.50714 53.336174 237.67528
226.4229 52.032906 242.15552
227.32802 51.762932 242.90408
228.23849 51.492729 243.64929
228.89038 51.480888 243.46176
229.80905 51.210335 244.20074
229.65744 51.974136 241.22508
230.03407 52.220749 240.10591
230.40608 52.467346 238.98616
231.04987 52.455162 238.79146
231.69403 52.442894 238.59471
232.90137 51.912773 240.24394
233.55127 51.900223 240.04156
234.48793 51.628616 240.75954
235.71887 51.097816 242.39549
236.66879 50.825821 243.10529
237.91803 50.294518 244.73143
239.77048 49.244621 248.19058
240.44768 49.231125 247.96742
240.82382 49.476852 246.82445
241.19531 49.722626 245.681
241.25568 50.227821 243.62115
240.99741 50.992592 240.6476
242.28174 50.460304 242.24773
242.63452 50.706352 241.10242
243.6156 50.433334 241.78146
244.28299 50.41983 241.54507
245.91534 49.627319 244.03824
246.59093 49.613678 243.79475
247.91995 49.080513 245.36658
248.60114 49.066833 245.11679
250.27747 48.273575 247.58548
251.30087 47.999908 248.23439
252.66626 47.466255 249.78412
254.38116 46.672447 252.23184
255.08621 46.658669 251.96222
254.75861 47.425392 248.98393
255.45639 47.412003 248.71268
255.80496 47.658989 247.53897
255.093 48.687042 243.6676
255.77844 48.674362 243.39462
256.10699 48.922256 242.22229
256.07104 49.430862 240.15373
257.11087 49.158524 240.77229
258.5202 48.625839 242.2807
260.30661 47.832733 244.67575
261.73846 47.300255 246.17038
263.92444 46.246704 249.44035
265.00659 45.975159 250.03027
266.09351 45.703918 250.61589
266.42581 45.954483 249.42194
267.51709 45.684021 250.00113
268.22824 45.674759 249.6906
268.55173 45.926826 248.49371
269.64908 45.657768 249.06342
270.35864 45.650078 248.74686
68.62413 59.323204 204.77858
69.206039 59.329136 205.03825
70.95163 60.10989 202.64159
69.215691 58.568047 208.21068
69.806511 58.57534 208.46866
70.397675 58.583008 208.72495
70.611496 58.333042 209.86873
70.830627 58.083466 211.01291
72.172913 58.608055 209.48317
72.394989 58.359127 210.62479
72.989861 58.368389 210.87317
73.584854 58.377911 211.11971
73.092308 57.614365 214.05121
73.695007 57.624447 214.2971
75.727737 58.665447 210.95045
76.675369 58.933372 210.28979
77.970398 59.458977 208.72552
79.605209 60.242085 206.25475
80.182602 60.252548 206.48112
80.75988 60.263119 206.70567
81.679436 60.531216 206.02469
81.914131 60.284588 207.14908
82.491028 60.295437 207.368
82.063316 59.534565 210.3045
82.315147 59.288475 211.4299
82.901581 59.299686 211.64691
83.487808 59.310947 211.862
83.749062 59.065159 212.9854
85.304054 59.847584 210.46426
