ply
format ascii 1.0
comment PCL generated
element vertex 1596
property float x
property float y
property float z
element camera 0
property float view_px
property float view_py
property float view_pz
property float x_axisx
property float x_axisy
property float x_axisz
property float y_axisx
property float y_axisy
property float y_axisz
property float z_axisx
property float z_axisy
property float z_axisz
property float focal
property float scalex
property float scaley
property float centerx
property float centery
property int viewportx
property int viewporty
property float k1
property float k2
end_header
255.6691 114.81222 239.46225
257.44901 114.76132 241.97948
258.11398 114.76169 241.70993
259.53839 114.72791 243.2881
260.2095 114.72832 243.01173
260.112 114.76289 240.8871
260.39191 114.78039 239.68623
261.05682 114.78083 239.40593
75.426003 116.05861 198.83951
75.201065 116.02879 200.91536
76.141685 116.0429 200.22543
75.928726 116.01309 202.30269
76.485855 116.01258 202.53262
77.042587 116.01208 202.76056
77.973976 116.02625 202.05968
78.154793 116.01113 203.21063
79.080254 116.02532 202.50385
80.000237 116.03953 201.79309
80.914711 116.05374 201.07846
81.098885 116.03866 202.22379
81.647568 116.03824 202.43626
82.195793 116.03783 202.64691
82.033951 116.00809 204.72531
82.938652 116.02235 203.99837
83.488091 116.02197 204.20435
84.037094 116.02158 204.40849
84.585648 116.0212 204.61081
85.475983 116.03551 203.87181
85.681435 116.02047 205.00998
86.565872 116.03479 204.26552
87.110176 116.03444 204.45967
88.31842 116.06345 202.76585
88.197464 116.03375 204.84267
88.740479 116.03342 205.03148
89.607758 116.04778 204.27286
90.147423 116.04745 204.45734
90.686668 116.04713 204.64011
91.859909 116.07619 202.92465
92.708069 116.09058 202.15323
92.926422 116.07558 203.27829
93.459091 116.07528 203.45256
93.991356 116.07497 203.62521
95.132744 116.10408 201.89154
94.147949 116.0303 206.82483
94.986305 116.0447 206.04097
96.41394 116.08852 203.34454
96.941856 116.08823 203.50819
97.177055 116.07326 204.62643
98.576355 116.1171 201.91676
98.810837 116.10212 203.03181
98.765015 116.07243 205.10519
99.011169 116.05745 206.22079
99.541931 116.05718 206.37634
99.79483 116.04221 207.49092
100.32739 116.04194 207.64403
100.85962 116.04168 207.79556
101.66167 116.05614 206.98283
102.45847 116.07059 206.16718
103.25003 116.08506 205.34863
104.03639 116.09953 204.52718
104.55724 116.09928 204.66832
105.33563 116.11376 203.8419
105.59806 116.09879 204.94612
106.11804 116.09856 205.08278
106.63776 116.09832 205.21794
107.40523 116.11281 204.38301
107.43079 116.08311 206.45316
107.95214 116.08289 206.58455
108.47324 116.08265 206.71446
108.99408 116.08242 206.84294
109.75047 116.09692 205.99829
110.50174 116.11143 205.15099
111.24787 116.12594 204.3011
111.98889 116.14046 203.44865
112.72481 116.15498 202.59361
113.00842 116.14002 203.68524
113.51786 116.13981 203.80145
113.80836 116.12486 204.89192
114.53609 116.13938 204.02971
114.83105 116.12444 205.11852
115.76492 116.15371 203.27516
116.0619 116.13876 204.36177
116.57011 116.13856 204.46971
117.07813 116.13836 204.57632
117.58595 116.13816 204.68155
117.89433 116.12321 205.76529
118.40422 116.12302 205.86832
118.91394 116.12283 205.97
119.2315 116.10788 207.05162
119.7433 116.10769 207.15109
120.44206 116.12225 206.267
120.58168 116.09255 208.3287
121.27771 116.10712 207.44145
121.78886 116.10693 207.53558
122.29985 116.10675 207.62839
122.63568 116.09181 208.7043
123.1488 116.09164 208.79488
123.49161 116.0767 209.86942
124.00686 116.07652 209.95776
124.52198 116.07635 210.04478
125.36281 116.10569 208.15742
126.03334 116.12029 207.25409
126.6989 116.13488 206.34866
127.04816 116.11995 207.41658
127.55539 116.11979 207.49588
127.7608 116.0901 209.5508
128.12419 116.07517 210.61708
128.49229 116.06025 211.68279
129.15233 116.07486 210.76884
129.80742 116.08947 209.85291
130.3188 116.08932 209.9252
130.69371 116.0744 210.98677
131.34126 116.08902 210.06596
131.85234 116.08887 210.13443
132.49246 116.1035 209.2101
133.00095 116.10336 209.27568
133.63365 116.118 208.34787
134.13954 116.11786 208.41061
134.52585 116.10296 209.46486
134.9169 116.08805 210.51842
135.65672 116.11747 208.59138
136.05002 116.10257 209.64272
136.44804 116.08767 210.6933
136.95828 116.08755 210.7491
137.36339 116.07265 211.79797
137.77322 116.05775 212.8461
138.48854 116.08719 210.90891
138.9985 116.08708 210.95966
139.60382 116.10175 210.01382
140.11125 116.10164 210.06187
140.61861 116.10153 210.10866
141.12592 116.10143 210.15421
141.63316 116.10133 210.1985
142.14037 116.10123 210.24161
142.5665 116.08635 211.28004
143.076 116.08626 211.32082
143.50925 116.07139 212.35735
144.09485 116.08608 211.39868
144.60422 116.08599 211.43576
145.04454 116.07113 212.46912
145.55621 116.07104 212.50389
146.06784 116.07097 212.5374
146.51765 116.05611 213.5677
147.091 116.07082 212.60075
147.71649 116.10031 210.63406
148.22319 116.10024 210.66235
148.62549 116.07061 212.68649
149.13692 116.07054 212.71263
149.50618 116.02612 215.73381
149.97978 116.01128 216.75664
150.45816 115.99643 217.77844
151.06186 116.02596 215.80196
151.58037 116.0259 215.82219
152.13423 116.04064 214.8419
152.6503 116.0406 214.85956
153.16635 116.04055 214.87595
153.68239 116.04051 214.89113
154.17264 116.02568 215.90462
154.71442 116.04044 214.91772
155.18848 116.01083 216.92853
155.69069 115.99601 217.93852
156.19769 115.98119 218.9474
156.69572 115.95159 220.95486
157.21472 115.93678 221.96138
157.77441 115.98112 218.96724
158.29997 115.98111 218.97131
158.82555 115.98109 218.97412
159.35466 116.01067 216.97592
159.87543 116.01066 216.97623
160.40225 115.98107 218.97504
160.92783 115.98106 218.97282
161.46123 115.96628 219.96921
161.979 115.98107 218.9646
162.50461 115.98108 218.9586
163.04524 115.96629 219.9511
163.5907 115.95152 220.94226
164.12114 115.95153 220.9324
164.67383 115.93675 221.9209
165.23134 115.92199 222.90797
165.73961 115.9368 221.89462
166.2431 115.95161 220.88011
166.74182 115.96643 219.86449
167.26999 115.96646 219.84703
167.76155 115.98128 218.82907
168.28737 115.98132 218.80917
168.81322 115.98135 218.78798
169.3391 115.98139 218.76555
169.81879 115.99622 217.74303
170.43959 115.9667 219.71558
171.01901 115.95196 220.68781
171.54984 115.95201 220.66002
172.13654 115.93728 221.6293
172.66985 115.93733 221.59883
173.14255 115.95218 220.56902
173.61049 115.96703 219.53821
174.13911 115.96709 219.50415
174.6678 115.96716 219.46887
175.19653 115.96723 219.43225
175.87064 115.93774 221.38884
176.40428 115.93781 221.34933
177.01546 115.9231 222.30539
177.55162 115.92319 222.26311
178.33467 115.87892 225.20895
178.87817 115.87901 225.16344
179.50882 115.86432 226.11264
180.05486 115.86441 226.06425
180.50906 115.87929 225.01884
180.86423 115.90895 222.97713
181.49997 115.89427 223.92062
182.04149 115.89437 223.86731
182.6846 115.8797 224.80746
183.22868 115.87981 224.75125
183.87918 115.86514 225.68794
184.42583 115.86525 225.62878
184.97258 115.86537 225.56831
185.51941 115.86549 225.50647
186.1823 115.85083 226.4364
186.96851 115.8214 228.3573
187.64365 115.80676 229.2831
187.95409 115.83643 227.2301
188.50623 115.83657 227.16086
188.80241 115.86625 225.10695
189.2195 115.88116 224.0442
189.63187 115.89607 222.98076
190.31006 115.88144 223.89803
191.13087 115.85204 225.8036
191.96146 115.82264 227.70648
192.3743 115.83755 226.6375
193.07228 115.82294 227.54654
193.48055 115.83786 226.47548
194.03386 115.83801 226.39233
194.58731 115.83817 226.3078
195.2955 115.82356 227.20975
195.85165 115.82373 227.12202
196.56737 115.80913 228.01997
197.28807 115.79453 228.91573
198.01376 115.77994 229.80923
198.74446 115.76534 230.70049
199.48016 115.75076 231.58946
200.22087 115.73618 232.47617
200.79263 115.73636 232.37589
201.01183 115.76606 230.30569
201.75789 115.75149 231.18707
202.14655 115.76643 230.09946
202.89781 115.75186 230.97699
203.28198 115.76681 229.88728
204.03848 115.75224 230.76094
204.80005 115.73769 231.63217
205.17995 115.75264 230.53893
205.35939 115.78235 228.46454
206.12399 115.76779 229.33076
206.89366 115.75324 230.1945
207.26224 115.7682 229.09761
208.24274 115.73891 230.93587
209.23318 115.70962 232.77051
209.81284 115.70983 232.6465
210.60555 115.6953 233.49791
211.61864 115.66602 235.32315
211.98862 115.68099 234.2169
212.35397 115.69596 233.11017
213.15988 115.68143 233.95258
214.19594 115.65218 235.76646
214.33218 115.68189 233.68181
215.37856 115.65264 235.49019
215.97029 115.65288 235.34961
216.5623 115.65311 235.20738
216.91736 115.66809 234.09216
217.50749 115.66833 233.94722
217.8558 115.68331 232.83052
218.68871 115.66882 233.6524
219.27975 115.66906 233.50249
219.62164 115.68404 232.38263
220.46284 115.66956 233.19762
221.3093 115.65508 234.00966
221.90411 115.65533 233.85234
222.49927 115.65559 233.69331
223.88016 115.61167 236.42761
224.74765 115.59721 237.22749
225.35371 115.59748 237.06056
226.22934 115.58302 237.85487
227.11026 115.56857 238.646
227.72238 115.56886 238.47237
228.0583 115.58385 237.33601
229.22687 115.5547 239.07977
229.84265 115.55499 238.89995
229.89081 115.58471 236.80086
230.50247 115.585 236.6188
231.4035 115.57058 237.39214
231.43558 115.6003 235.29269
232.04602 115.6006 235.10582
233.24971 115.57148 236.82697
233.86598 115.57178 236.6348
233.57855 115.61622 233.58055
234.79602 115.58711 235.29214
235.1048 115.60213 234.14323
235.71793 115.60246 233.94501
236.33151 115.60278 233.74486
238.20093 115.54429 237.34019
238.82547 115.54462 237.13283
240.08817 115.51556 238.81886
241.04001 115.50121 239.55267
242.32123 115.47218 241.22873
242.30756 115.50193 239.11874
243.27095 115.4876 239.84296
243.57715 115.50266 238.67657
244.5466 115.48835 239.3949
245.52161 115.47404 240.10931
246.16327 115.47443 239.8791
246.46404 115.48952 238.70699
247.79214 115.46055 240.35117
248.43794 115.46096 240.1136
249.08427 115.46138 239.87386
249.37962 115.47649 238.69588
250.73264 115.44757 240.32294
251.02655 115.4627 239.14149
251.31593 115.47783 237.95976
252.3241 115.46362 238.64215
253.70209 115.43475 240.25154
254.72403 115.42057 240.92448
255.75159 115.40641 241.59311
256.41296 115.40693 241.32924
257.82358 115.37813 242.91736
258.49112 115.37868 242.64676
259.53864 115.36458 243.29893
260.20978 115.36516 243.02257
260.88141 115.36575 242.74382
260.7793 115.39567 240.61887
261.44678 115.39629 240.33749
75.035248 116.56944 199.76756
74.812874 116.54431 201.84454
75.75605 116.55585 201.15565
75.162933 116.51852 204.15784
75.725166 116.51785 204.38985
76.286995 116.51721 204.61986
77.223465 116.52881 203.92102
77.409378 116.51596 205.07401
78.33992 116.52759 204.36923
79.264969 116.53923 203.66046
79.819588 116.53865 203.87872
80.373756 116.53809 204.09509
81.287369 116.54977 203.37663
82.19548 116.56148 202.65433
82.743286 116.56094 202.8631
83.290642 116.56041 203.06999
83.487785 116.54763 204.21179
84.036781 116.54712 204.41595
84.585342 116.54662 204.61826
85.475693 116.55838 203.8792
85.341415 116.53336 205.95786
86.565582 116.55742 204.2729
87.444588 116.56921 203.5248
88.318138 116.58102 202.77315
88.197197 116.55602 204.85001
88.41301 116.54328 205.98372
89.607483 116.5674 204.28017
90.147148 116.56696 204.46465
90.686409 116.56652 204.6474
91.85965 116.59067 202.93187
93.022522 116.61482 201.21129
92.926163 116.58984 203.28549
93.149101 116.57713 204.41054
93.376625 116.56443 205.53552
94.218239 116.57632 204.75572
93.543159 116.52674 208.73839
94.686264 116.55094 207.00214
95.819077 116.57515 205.26111
96.646774 116.58707 204.47081
96.884453 116.57439 205.58983
98.286232 116.61093 202.88081
98.523193 116.59826 203.99664
98.479836 116.57327 206.07082
99.010933 116.57291 206.22795
99.821678 116.58487 205.42358
99.794586 116.55988 207.49811
100.6022 116.57185 206.68988
100.85938 116.55918 207.80276
101.66142 116.57115 206.99001
102.45822 116.58314 206.1743
103.2498 116.59512 205.3557
103.51064 116.58247 206.46381
104.29669 116.59447 205.64084
105.07756 116.60647 204.815
105.59783 116.60615 204.95313
106.11781 116.60583 205.0898
107.1385 116.63018 203.28889
107.90106 116.6422 202.45267
108.16731 116.62957 203.55232
108.92445 116.6416 202.71194
109.19508 116.62897 203.80995
109.47035 116.61633 204.90773
109.98605 116.61604 205.03355
110.73487 116.62809 204.18565
111.01674 116.61546 205.28091
111.76021 116.62752 204.429
112.27252 116.62724 204.54857
112.56102 116.61461 205.64133
113.07533 116.61433 205.75864
113.80815 116.62641 204.89885
114.3196 116.62614 205.01283
114.83084 116.62587 205.12543
115.5533 116.63796 204.25929
116.06169 116.6377 204.36864
116.36334 116.62508 205.45496
117.07792 116.63719 204.58318
117.58575 116.63694 204.6884
117.89413 116.62433 205.77217
118.60086 116.63644 204.89485
119.10815 116.63619 204.99605
119.42329 116.62359 206.07722
119.93266 116.62335 206.17621
120.629 116.63548 205.29163
120.95091 116.62288 206.37021
121.64209 116.63502 205.48203
121.96853 116.62242 206.55888
122.29967 116.60983 207.63527
122.6355 116.59723 208.71121
123.14862 116.597 208.80179
123.49142 116.58441 209.87637
124.17444 116.59657 208.97897
124.85249 116.60873 208.07941
125.68848 116.63327 206.19119
126.35419 116.64544 205.28702
127.01491 116.65762 204.3808
127.35934 116.64504 205.44795
127.70848 116.63246 206.51462
127.76064 116.59512 209.55771
127.97559 116.57016 211.61287
128.49213 116.56997 211.68976
129.00856 116.56978 211.76535
129.80725 116.59436 209.8598
130.45743 116.60657 208.94185
130.96629 116.60638 209.01254
131.47507 116.60621 209.08194
131.98373 116.60603 209.15007
132.49231 116.60587 209.21695
133.00079 116.6057 209.28253
133.6335 116.61792 208.35469
134.26131 116.63015 207.42499
134.52571 116.60521 209.47173
135.03384 116.60505 209.53226
135.65659 116.61729 208.59821
136.16216 116.61714 208.65598
136.55779 116.6046 209.70633
137.17307 116.61685 208.76772
137.57336 116.60431 209.8161
137.87575 116.57938 211.85841
138.48842 116.59164 210.91577
138.99838 116.59151 210.96652
139.60371 116.60378 210.02068
140.20416 116.61604 209.07312
140.70912 116.61592 209.11967
141.39047 116.6406 207.17297
141.80469 116.62808 208.21288
142.30708 116.62797 208.25555
142.72842 116.61546 209.29361
143.15451 116.60294 210.33086
143.50916 116.57803 212.36427
144.02097 116.57793 212.40277
144.60413 116.59023 211.44264
145.04445 116.57773 212.47601
145.55612 116.57764 212.51079
146.00357 116.56513 213.54218
146.51758 116.56505 213.5746
147.03154 116.56496 213.60582
147.60245 116.57729 212.63747
148.16853 116.58961 211.6676
148.6776 116.58954 211.69485
149.13686 116.57706 212.71951
149.60088 116.56458 213.74318
150.06969 116.5521 214.76584
150.50069 116.52722 216.78651
151.10197 116.55197 214.80984
151.61809 116.55192 214.82999
152.13419 116.55186 214.84886
152.65025 116.55181 214.8665
153.13573 116.53935 215.88237
153.65417 116.53931 215.8976
154.17259 116.53926 215.91159
154.71439 116.55164 214.9247
155.20941 116.53919 215.93582
155.72781 116.53915 215.94609
156.23003 116.52672 216.9549
156.72325 116.50186 218.96236
157.24883 116.50184 218.96896
157.7744 116.50182 218.9743
158.29996 116.5018 218.97841
158.82553 116.50179 218.98123
159.35287 116.51419 217.98288
159.87666 116.50177 218.98308
160.40527 116.48936 219.98206
160.93867 116.47694 220.97974
161.46906 116.47694 220.97621
161.99945 116.47695 220.97142
162.52986 116.47696 220.96536
163.06029 116.47697 220.95804
163.57329 116.4894 219.94966
164.10133 116.48942 219.9398
164.62941 116.48944 219.92871
165.15749 116.48947 219.91634
165.65857 116.50191 218.90314
166.18428 116.50194 218.88829
166.71002 116.50198 218.87218
167.20157 116.51443 217.85547
167.72496 116.51447 217.83691
168.20935 116.52692 216.81793
168.73041 116.52697 216.79697
169.25148 116.52702 216.77473
169.86507 116.50225 218.74893
170.39101 116.50231 218.72395
171.0701 116.46514 221.69357
171.65677 116.4528 222.66417
172.19244 116.45287 222.63486
172.72815 116.45294 222.60426
173.14261 116.47783 220.57619
173.6736 116.47791 220.54327
174.13919 116.49039 219.51129
174.73573 116.47807 220.47359
175.19661 116.49056 219.43938
175.87073 116.46584 221.39607
176.40437 116.46593 221.35654
177.09302 116.44122 223.30954
177.5517 116.45373 222.27031
178.25249 116.42902 224.21974
178.79358 116.42913 224.17442
179.42184 116.41684 225.12392
179.87598 116.42936 224.07979
180.41727 116.42947 224.0305
180.86433 116.44199 222.98441
181.40337 116.44212 222.93269
182.0416 116.42985 223.87462
182.68472 116.41757 224.8148
183.43666 116.39291 226.7476
183.98564 116.39305 226.68958
184.42596 116.40559 225.63617
184.9727 116.40573 225.57568
185.51953 116.40588 225.51387
186.18243 116.39363 226.44383
186.85025 116.38139 227.37189
187.52298 116.36916 228.29802
187.83102 116.3941 226.24524
188.25513 116.40666 225.18433
188.67453 116.41922 224.1226
189.35008 116.407 225.04295
189.89772 116.40717 224.97021
190.58075 116.39495 225.88684
191.40639 116.37035 227.79184
192.24179 116.34576 229.69408
192.51697 116.37072 227.63467
193.07245 116.37091 227.55403
193.62805 116.3711 227.47195
193.88428 116.39607 225.41116
194.4353 116.39627 225.327
195.14108 116.38408 226.22935
195.69481 116.38428 226.14201
196.56754 116.35973 228.02751
197.1264 116.35994 227.93655
197.84969 116.34778 228.83052
198.57797 116.33562 229.72221
199.31123 116.32346 230.61162
200.22105 116.29893 232.48386
200.96678 116.28679 233.36829
201.18839 116.31178 231.29758
201.93689 116.29964 232.17857
202.50919 116.29987 232.07384
202.89801 116.31249 230.98468
203.28218 116.32511 229.89496
204.0387 116.31299 230.76866
204.80026 116.30087 231.63991
205.18015 116.31349 230.54663
205.1638 116.35085 227.49164
206.12419 116.32638 229.33846
206.89388 116.31428 230.20226
207.46555 116.31454 230.08441
208.24295 116.30245 230.94362
209.44136 116.26564 233.75638
210.02344 116.26592 233.63187
210.60576 116.2662 233.50578
211.61885 116.24178 235.33107
212.20654 116.24207 235.20073
212.79448 116.24236 235.06883
213.60527 116.23031 235.91016
214.64621 116.20591 237.72298
215.0148 116.21857 236.61084
215.83862 116.20653 237.44446
216.20288 116.21919 236.33015
216.79733 116.21951 236.18733
217.15483 116.23218 235.07149
217.74744 116.2325 234.92598
218.34033 116.23283 234.77878
218.93353 116.23315 234.62991
219.28 116.24583 233.51048
219.87138 116.24616 233.35892
220.71504 116.23416 234.17329
221.56395 116.22217 234.98471
222.41811 116.21018 235.79312
223.01819 116.21053 235.6328
224.14221 116.18623 237.40085
225.27643 116.16193 239.16441
225.88742 116.1623 238.99615
226.22958 116.175 237.86311
227.38217 116.15073 239.61661
227.72264 116.16344 238.48064
228.05856 116.17614 237.34428
228.94806 116.16421 238.12791
229.56137 116.1646 237.94881
229.89108 116.17732 236.80913
230.21625 116.19004 235.66907
230.82584 116.19044 235.48593
230.56151 116.22779 232.43143
232.0463 116.19126 235.11409
233.24997 116.16706 236.8353
233.86626 116.16749 236.64314
233.57884 116.20484 233.58882
235.10017 116.16836 236.25313
234.79874 116.2057 233.19972
235.7182 116.19385 233.95331
236.64314 116.18199 234.7034
238.51508 116.13326 238.29805
239.14209 116.13373 238.08986
240.72614 116.09732 240.72285
241.683 116.08552 241.455
242.32153 116.08601 241.23738
242.63422 116.09881 240.07251
243.92899 116.07475 241.7402
244.2402 116.08755 240.57204
244.8808 116.08807 240.34608
245.85832 116.07632 241.05963
246.5025 116.07687 240.82855
246.80579 116.08969 239.6555
248.13641 116.0657 241.29881
248.43826 116.07854 240.12236
249.08459 116.07912 239.88261
250.08301 116.06744 240.5768
251.08704 116.05578 241.26688
251.38348 116.06866 240.08446
252.03453 116.06927 239.83495
253.04778 116.05765 240.51541
254.06665 116.04604 241.19167
255.45789 116.0222 242.7939
256.49054 116.01063 243.46056
256.78516 116.02357 242.26643
258.19836 115.99979 243.85362
258.86844 116.00051 243.58199
259.53906 116.00125 243.30801
259.82819 116.01424 242.10757
260.49725 116.01501 241.82991
260.00549 116.05249 238.78403
260.2782 116.06551 237.58394
73.863663 117.06553 202.53546
74.424522 117.06468 202.77235
75.755516 117.08345 201.16173
74.014297 117.02382 206.93546
74.964333 117.03281 206.24573
75.908867 117.04182 205.55191
76.472809 117.04105 205.78101
76.663795 117.03046 206.93611
77.969429 117.04935 205.30432
78.897018 117.05844 204.59653
79.454178 117.05772 204.8158
80.373291 117.06684 204.10118
81.286919 117.07597 203.38268
81.837685 117.07529 203.59428
82.742836 117.08447 202.86913
83.290215 117.0838 203.07599
83.137573 117.06346 205.1546
83.689095 117.06281 205.3597
84.240181 117.06218 205.56291
85.133049 117.07141 204.82475
85.680733 117.07079 205.02341
86.565178 117.08005 204.27888
87.444191 117.08932 203.53076
88.317741 117.0986 202.7791
88.196793 117.07829 204.856
88.412613 117.06784 205.98975
89.282394 117.07715 205.2319
89.824577 117.07659 205.41722
90.366325 117.07604 205.60081
91.542068 117.09527 203.88608
92.392731 117.10462 203.11542
92.925789 117.1041 203.29138
93.458466 117.10358 203.46567
93.683502 117.09318 204.58986
94.522629 117.10257 203.80925
94.147324 117.07238 206.83807
95.285484 117.09168 205.10019
96.116028 117.1011 204.31227
96.646423 117.10062 204.47668
96.884102 117.09023 205.59573
98.285889 117.11949 202.88661
98.235451 117.09921 204.96022
98.479492 117.08884 206.07671
99.29306 117.0983 205.2746
100.10133 117.10777 204.46948
100.3493 117.0974 205.58267
100.60187 117.08704 206.69577
101.13165 117.08661 206.84657
101.39096 117.07626 207.95862
101.92255 117.07583 208.10704
102.98427 117.09526 206.32565
103.51033 117.09485 206.46962
104.29639 117.10437 205.64661
105.07725 117.1139 204.82077
105.85291 117.12344 203.99213
106.37045 117.12305 204.12813
107.1382 117.13261 203.29459
107.65274 117.13223 203.42702
107.67584 117.11196 205.49664
108.4379 117.12153 204.65749
108.47272 117.10126 206.72731
108.75531 117.09095 207.82692
109.51416 117.10053 206.98277
110.26787 117.11012 206.13602
110.55463 117.09982 207.23247
111.30298 117.10941 206.38167
111.82018 117.10907 206.50238
112.33715 117.10873 206.62164
112.63274 117.09843 207.71474
113.37043 117.10805 206.856
113.88675 117.10772 206.97105
114.61671 117.11736 206.10789
115.13019 117.11703 206.21965
115.43447 117.10674 207.30788
115.94997 117.10643 207.41737
116.66941 117.11608 206.5466
117.3838 117.12575 205.67345
117.69461 117.11547 206.75774
118.60062 117.13512 204.90045
119.1079 117.13483 205.00168
119.61503 117.13454 205.10152
119.74286 117.1143 207.16368
120.62877 117.13397 205.29723
120.58125 117.10374 208.34134
121.27728 117.11345 207.45404
121.60857 117.10319 208.53181
121.94455 117.09293 209.60912
122.46024 117.09266 209.70145
123.321 117.11237 207.82254
123.66138 117.10212 208.89673
124.34198 117.11185 207.99889
125.18295 117.13158 206.11272
125.8512 117.14133 205.21019
126.51448 117.15108 204.30562
127.01471 117.15085 204.38632
127.35913 117.14061 205.45355
127.55502 117.12038 207.50835
127.76044 117.10016 209.56339
127.82696 117.06992 212.60748
128.34592 117.06969 212.68472
128.86476 117.06947 212.76065
129.66588 117.08926 210.85541
130.31845 117.09904 209.93779
130.82974 117.09883 210.00882
131.34093 117.09863 210.07852
131.85201 117.09842 210.14699
132.49213 117.10823 209.2226
133.00061 117.10803 209.28819
133.63333 117.11785 208.36032
134.26114 117.12767 207.43059
134.64505 117.11748 208.48459
135.15077 117.11729 208.54485
135.77112 117.12714 207.61049
136.27428 117.12696 207.66795
136.6675 117.11678 208.71808
137.17293 117.11661 208.77333
137.57321 117.10643 209.82175
137.97826 117.09624 210.86945
138.48828 117.09609 210.92143
139.09608 117.10596 209.97705
139.69901 117.11582 209.03094
140.11101 117.10566 210.07434
140.709 117.11554 209.12529
141.2139 117.1154 209.17064
141.63293 117.10524 210.21098
142.14014 117.10511 210.25406
142.64729 117.10498 210.2959
142.99719 117.08481 212.3302
143.50905 117.08469 212.36995
143.94705 117.07454 213.40567
144.46123 117.07442 213.4431
144.90636 117.06429 214.47684
145.48944 117.0742 213.51421
145.93929 117.06407 214.54578
146.51749 117.074 213.58034
147.03145 117.0739 213.61154
147.60237 117.08383 212.64316
148.11388 117.08375 212.67174
148.57315 117.07363 213.69768
149.03722 117.06351 214.72261
149.55344 117.06344 214.74771
150.06961 117.06336 214.77158
150.5432 117.05326 215.79324
151.14209 117.07325 213.81642
151.69357 117.08322 212.83723
152.16949 117.07313 213.85527
152.65021 117.06303 214.87224
153.13568 117.05295 215.88814
153.65413 117.0529 215.90338
154.17256 117.05286 215.91737
154.69098 117.05281 215.93011
155.20938 117.05277 215.94159
155.72778 117.05273 215.95186
156.24617 117.0527 215.96088
156.737 117.03261 217.96835
157.26018 117.03259 217.97491
157.77437 117.02253 218.98016
158.29994 117.02251 218.98425
158.82552 117.0225 218.98708
159.35286 117.03252 217.98869
159.87604 117.03252 217.98898
160.40527 117.01244 219.98793
160.93326 117.01244 219.98569
161.46124 117.01245 219.98219
161.99947 117.00243 220.97731
162.52988 117.00243 220.97125
163.04527 117.01249 219.9641
163.55589 117.02254 218.95573
164.08154 117.02257 218.94595
164.58498 117.03263 217.93518
165.10826 117.03266 217.92293
165.60454 117.04272 216.90981
166.15489 117.03273 217.89462
166.67824 117.03278 217.87857
167.20161 117.03282 217.8613
167.72501 117.03287 217.84274
168.28746 117.0229 218.8221
168.73045 117.04301 216.80275
169.25154 117.04308 216.78052
169.86513 117.02308 218.75479
170.39108 117.02315 218.72983
171.01913 117.00316 220.70087
171.65685 116.98317 222.67014
172.19252 116.98325 222.64082
172.66998 116.99337 221.61194
173.08205 117.01352 219.58397
173.61064 117.01361 219.55122
174.07382 117.02374 218.51938
174.66797 117.0138 219.48187
175.1967 117.01391 219.44525
175.79816 117.00398 220.40468
176.32941 117.0041 220.36533
176.93817 116.99419 221.32162
177.47194 116.9943 221.27953
178.17032 116.97437 223.2292
178.70901 116.9745 223.18408
179.24779 116.97463 223.13766
179.69711 116.98479 222.09395
180.4174 116.96489 224.03651
180.95877 116.96503 223.98589
181.59692 116.95515 224.92918
182.23997 116.94529 225.8707
182.88791 116.93542 226.81038
183.54074 116.92557 227.74823
183.98579 116.93575 226.69565
184.31735 116.95596 224.64822
184.86169 116.95612 224.58801
185.5197 116.94628 225.51993
185.95065 116.95647 224.46355
186.49525 116.95666 224.39928
187.16077 116.94683 225.32629
187.70798 116.94702 225.259
188.25531 116.94721 225.1904
188.80273 116.94741 225.12041
189.61115 116.9276 227.03186
190.1636 116.9278 226.95847
190.71619 116.92802 226.88371
191.40657 116.91822 227.798
192.3821 116.88842 230.6904
192.80219 116.89865 229.62033
193.36249 116.89888 229.53899
193.92293 116.89912 229.45619
194.33374 116.90936 228.3833
194.58769 116.9296 226.32144
195.1413 116.92984 226.2355
195.85204 116.92009 227.1357
196.72719 116.90034 229.02089
197.28847 116.9006 228.92953
198.01418 116.89087 229.82309
198.74487 116.88113 230.71443
199.31148 116.88141 230.61794
200.04977 116.87169 231.50511
200.79306 116.86198 232.38994
201.18863 116.87225 231.30391
201.75833 116.87254 231.20108
202.3282 116.87283 231.0968
202.89825 116.87313 230.99101
203.28242 116.88342 229.90126
203.85043 116.88372 229.79297
204.80052 116.86406 231.64629
205.18042 116.87436 230.55295
205.35986 116.89463 228.47852
205.92624 116.89495 228.36469
206.49283 116.89527 228.24934
207.26273 116.88562 229.11163
208.03769 116.87598 229.97137
209.02573 116.85637 231.80666
209.81332 116.84674 232.66075
210.60605 116.83712 233.51224
211.18861 116.83748 233.3846
211.98914 116.82787 234.23132
212.79478 116.81827 235.07538
213.38298 116.81864 234.94183
214.19647 116.80906 235.78098
215.01511 116.79948 236.61742
215.60901 116.79987 236.47791
216.20319 116.80025 236.33675
216.79765 116.80065 236.19392
217.39241 116.80106 236.04948
217.74774 116.81142 234.93254
218.0985 116.82178 233.81517
218.68927 116.82219 233.66695
219.28033 116.8226 233.51703
220.12122 116.81308 234.33377
221.2193 116.79362 236.11525
221.81871 116.79405 235.95836
222.41844 116.79449 235.79977
223.01852 116.79494 235.63945
223.88074 116.78546 236.44246
224.48398 116.78592 236.27798
225.35431 116.77644 237.07549
226.22995 116.76699 237.86986
227.65421 116.73768 240.58574
227.72301 116.75802 238.48743
228.33553 116.75851 238.31197
228.94844 116.75901 238.1347
228.99867 116.77936 236.03662
229.60744 116.77986 235.85713
229.93013 116.79029 234.7178
230.8262 116.78088 235.49268
230.85333 116.80124 233.39461
232.34061 116.77203 236.0766
233.25037 116.76266 236.84212
234.16556 116.7533 237.6042
233.27783 116.80337 232.64209
235.10057 116.76431 236.25993
235.10547 116.78468 234.15831
235.7186 116.78525 233.9601
236.64354 116.77592 234.71019
238.51547 116.73694 238.30495
238.82617 116.74744 237.14819
240.40771 116.71838 239.7821
241.36209 116.70911 240.51517
242.32196 116.69987 241.24443
242.961 116.70051 241.02472
243.92943 116.69128 241.74728
244.57202 116.69195 241.52254
245.21515 116.69263 241.2957
245.8588 116.69331 241.06673
246.84189 116.68414 241.77643
247.14769 116.6947 240.60242
247.79295 116.69542 240.36702
248.43875 116.69614 240.12947
249.08508 116.69688 239.88974
249.38046 116.70747 238.7117
250.73347 116.68853 240.33888
251.38397 116.6893 240.0916
252.03503 116.69009 239.8421
253.40994 116.6712 241.45483
254.43137 116.66218 242.13014
255.45842 116.65318 242.80116
256.49109 116.6442 243.46786
257.15753 116.64507 243.20195
258.94766 116.61647 245.71539
259.24594 116.6272 244.51552
259.53964 116.63794 243.31537
259.82877 116.64869 242.11491
260.11328 116.65945 240.91418
259.61896 116.68983 237.86929
260.27881 116.6908 237.59114
73.08226 117.58353 204.38141
73.648239 117.58253 204.62045
74.984337 117.59631 203.01193
73.630913 117.55843 207.86404
74.583496 117.56485 207.17535
75.530579 117.5713 206.48257
76.097076 117.57037 206.71271
76.290611 117.56205 207.86884
77.968803 117.58337 205.30902
78.528931 117.58249 205.53122
79.453568 117.58904 204.82048
80.010284 117.58819 205.03783
81.286324 117.6022 203.38731
81.479752 117.59395 204.53285
82.032608 117.59314 204.74353
82.585037 117.59235 204.95233
82.787216 117.58412 206.09608
82.993996 117.5759 207.23984
83.894867 117.58258 206.50626
85.132492 117.59671 204.82941
85.340462 117.58852 205.96855
86.564644 117.60269 204.28351
87.443657 117.60944 203.53537
88.317223 117.61619 202.78368
88.196281 117.60057 204.86061
88.739288 117.59988 205.04945
89.281883 117.5992 205.23653
89.824066 117.59853 205.42184
90.365837 117.59786 205.60544
90.907181 117.59721 205.78729
91.448128 117.59656 205.96744
92.300888 117.6034 205.19588
93.148262 117.61026 204.42101
93.683029 117.60964 204.59444
94.217415 117.60903 204.76619
93.844589 117.58595 207.79588
94.68544 117.59284 207.01271
95.520966 117.59975 206.2263
96.351151 117.60667 205.43674
97.176018 117.6136 204.644
98.575333 117.63556 201.93408
98.52243 117.61999 204.00697
99.04892 117.61944 204.16425
99.575096 117.6189 204.31989
100.10092 117.61836 204.47398
100.34888 117.61031 205.58722
100.87651 117.60978 205.73891
101.13123 117.60174 206.85114
101.66068 117.60122 207.00041
101.92214 117.59318 208.11163
102.98386 117.60773 206.33018
103.77268 117.61478 205.50934
104.29601 117.61429 205.65111
105.07687 117.62135 204.82524
105.59714 117.62087 204.96339
106.37006 117.62795 204.13261
106.63686 117.61994 205.23521
107.40433 117.62704 204.40019
107.42989 117.61148 206.47049
108.19438 117.61858 205.63193
108.23166 117.60303 207.70238
108.75496 117.60259 207.83144
109.278 117.60216 207.95906
110.50089 117.62441 205.16812
110.78519 117.61642 206.26404
111.30263 117.61601 206.38615
111.81982 117.6156 206.50687
112.33681 117.6152 206.62613
112.6324 117.60722 207.71922
113.3701 117.6144 206.86047
114.10271 117.62158 205.99924
115.0441 117.63635 204.15869
115.55271 117.63598 204.26936
116.06113 117.6356 204.37866
116.36277 117.62766 205.46504
116.87323 117.62729 205.57213
117.58519 117.63452 204.69844
117.89357 117.62658 205.78226
118.60031 117.63382 204.90489
118.91319 117.62589 205.98695
119.61473 117.63313 205.10594
119.74257 117.61761 207.16814
120.44134 117.62488 206.28397
120.76568 117.61695 207.36305
121.45928 117.62422 206.47528
121.78815 117.6163 207.55263
122.12172 117.60839 208.62949
122.63499 117.60808 208.72139
123.49333 117.62298 206.84204
123.8313 117.61507 207.91582
124.50948 117.62238 207.01755
125.1827 117.6297 206.11713
125.85095 117.63702 205.21458
126.51424 117.64436 204.30997
127.01447 117.64408 204.3907
127.35889 117.6362 205.45793
127.55478 117.6207 207.51277
127.60935 117.59758 210.55637
127.67829 117.57446 213.60088
128.19966 117.5742 213.6785
128.57732 117.56631 214.7444
129.38326 117.58131 212.83981
130.17944 117.5963 210.93254
130.82953 117.60368 210.01324
131.20676 117.59582 211.07394
131.72025 117.59558 211.14275
132.36279 117.60298 210.21864
132.87369 117.60275 210.28453
133.50882 117.61016 209.35696
134.13904 117.61758 208.42749
134.64485 117.61736 208.48901
135.15059 117.61716 208.54926
135.65625 117.61696 208.60826
136.04955 117.60912 209.65962
136.55745 117.60893 209.71642
137.06529 117.60874 209.77193
137.57306 117.60855 209.82617
137.97809 117.60073 210.87389
138.58836 117.60819 209.93098
139.09592 117.60802 209.98149
139.69885 117.61549 209.03534
140.01782 117.60004 211.07442
140.61823 117.60752 210.12556
141.12553 117.60737 210.17113
141.46117 117.59193 212.20799
141.97318 117.59177 212.25148
142.56615 117.59927 211.29701
142.91844 117.58384 213.33157
143.43271 117.5837 213.37148
143.94693 117.58357 213.41019
144.46111 117.58344 213.44759
144.83725 117.56802 215.47896
145.42273 117.57555 214.51645
145.87498 117.56778 215.5482
146.4556 117.57531 214.58289
147.03136 117.58286 213.61604
147.65926 117.59805 211.64929
148.16837 117.59795 211.67773
148.67743 117.59785 211.70496
149.08691 117.58246 213.72839
149.60072 117.58237 213.75339
150.06953 117.57463 214.77609
150.54312 117.5669 215.79781
151.10184 117.57448 214.8201
151.65573 117.58206 213.84097
152.13406 117.57433 214.85913
152.61717 117.56662 215.87619
153.13564 117.56656 215.89267
153.6259 117.55885 216.90749
154.14673 117.5588 216.92154
154.69093 117.56641 215.93465
155.2513 117.58167 213.94664
155.76489 117.58163 213.95682
156.26231 117.57394 214.96558
156.75075 117.5586 216.97304
157.24878 117.54327 218.9794
157.76538 117.53558 219.98468
158.29335 117.53557 219.9888
158.81715 117.5279 220.99159
159.35107 117.54321 218.99324
159.87666 117.5432 218.99355
160.40527 117.53554 219.99255
160.93867 117.52789 220.99028
161.46126 117.53555 219.98683
162.0097 117.52025 221.9819
162.52989 117.52792 220.97592
163.06032 117.52795 220.96857
163.57333 117.53562 219.96014
164.10139 117.53565 219.95032
164.60724 117.54334 218.93947
165.15755 117.53573 219.92683
165.65863 117.54343 218.9136
166.18436 117.54347 218.89873
166.74194 117.53587 219.8821
167.2359 117.54357 218.86526
167.76169 117.54363 218.84662
168.28752 117.54369 218.82672
168.73051 117.55907 216.80731
169.20778 117.5668 215.78607
169.81897 117.55157 217.7605
170.34251 117.55164 217.73564
170.96819 117.53642 219.70685
171.60349 117.52121 221.67628
172.13676 117.5213 221.64709
172.67007 117.5214 221.61664
173.14279 117.52916 220.58673
173.6738 117.52927 220.55383
174.20483 117.52937 220.51964
174.73593 117.52949 220.48416
175.26707 117.52961 220.44739
175.87094 117.52209 221.40666
176.40459 117.52222 221.36714
177.01578 117.5147 222.32327
177.47208 117.52248 221.28418
178.08818 117.51498 222.23735
178.62447 117.51513 222.19243
179.24792 117.50764 223.14235
179.69727 117.51543 222.09865
180.41754 117.50031 224.04124
181.05322 117.49284 224.98613
181.79051 117.47772 226.92451
182.33925 117.4779 226.87051
183.09113 117.4628 228.80481
183.64485 117.46299 228.74762
184.09232 117.47082 227.69476
184.42628 117.48629 225.64703
184.86188 117.49413 224.59279
185.40631 117.49433 224.5312
185.83485 117.50217 223.47508
186.37706 117.50238 223.4111
187.16096 117.48734 225.33107
187.70819 117.48756 225.26381
188.25551 117.48778 225.19516
188.80293 117.48801 225.12517
189.48093 117.48061 226.04526
190.03098 117.48086 225.97218
190.58115 117.4811 225.89775
191.4068 117.4661 227.80284
192.38232 117.44348 230.69531
192.94493 117.44375 230.61501
193.50766 117.44402 230.53328
194.07053 117.44429 230.45013
194.48375 117.45219 229.37688
194.89229 117.46009 228.3029
195.45073 117.46038 228.21622
196.00931 117.46067 228.12813
196.72745 117.45335 229.02577
197.28874 117.45365 228.93445
198.01445 117.44635 229.828
198.57846 117.44666 229.73338
199.31175 117.43937 230.62286
200.05005 117.43208 231.51006
200.6194 117.43241 231.4102
201.18893 117.43275 231.30887
201.93742 117.42548 232.18991
202.50974 117.42583 232.08517
203.08223 117.42618 231.97896
203.46881 117.43414 230.88872
204.03926 117.43449 230.77995
204.60989 117.43486 230.66971
204.98737 117.44283 229.57681
205.36017 117.45079 228.4834
206.12479 117.44358 229.34972
206.69382 117.44396 229.2339
207.46616 117.43676 230.09572
208.24356 117.42957 230.95496
209.23404 117.4148 232.78978
210.02408 117.40763 233.64339
210.81923 117.40047 234.49435
211.40424 117.40089 234.36618
212.2072 117.39375 235.21237
213.01529 117.38661 236.05589
213.82852 117.37949 236.8967
214.64691 117.37237 237.73477
215.0155 117.38039 236.62257
215.83931 117.37329 237.45622
216.20358 117.38133 236.34189
216.56323 117.38937 235.22707
217.15555 117.38985 235.08321
217.74815 117.39034 234.93768
218.34106 117.39083 234.79048
218.93427 117.39133 234.64163
219.5278 117.39184 234.4911
220.12164 117.39234 234.3389
221.47169 117.37021 237.0881
221.81914 117.37829 235.96353
222.41887 117.37882 235.80493
223.01895 117.37936 235.64461
223.8812 117.37237 236.44766
224.22017 117.38046 235.31877
225.08804 117.37348 236.11696
226.23041 117.35899 237.87509
227.383 117.3445 239.62869
227.72348 117.35262 238.49268
228.336 117.35322 238.31723
229.22797 117.3463 239.1002
229.56223 117.35443 237.96086
229.89194 117.36257 236.82117
230.2171 117.37071 235.68105
231.11566 117.36383 236.45522
231.14526 117.37949 234.35635
232.04716 117.37262 235.12607
232.95447 117.36577 235.89236
233.86716 117.35892 236.65526
233.88113 117.3746 234.55423
235.40497 117.35278 237.2179
235.71873 117.36097 236.06731
236.33684 117.36167 235.86748
237.26678 117.35489 236.61597
238.51604 117.34064 238.31032
239.14307 117.34137 238.10211
240.40828 117.32715 239.78749
241.04131 117.32791 239.57362
242.32254 117.31373 241.24988
242.96158 117.31451 241.03017
243.60115 117.31531 240.80838
244.57262 117.30865 241.528
245.88351 117.29455 243.18633
246.1958 117.30285 242.01387
247.52036 117.28878 243.66345
247.83118 117.2971 242.48761
248.48151 117.29797 242.2504
248.78586 117.3063 241.07295
249.43475 117.3072 240.83231
249.73262 117.31554 239.65327
251.0882 117.30159 241.27957
251.74124 117.30253 241.03131
252.39484 117.30347 240.78082
253.41064 117.29702 241.46037
254.43207 117.29058 242.13567
255.45912 117.28416 242.80672
256.49182 117.27777 243.47345
257.53009 117.27141 244.13582
258.57404 117.26506 244.79381
258.86978 117.27354 243.59496
259.91989 117.26724 244.24614
260.21158 117.27575 243.04462
260.49866 117.28427 241.84282
260.78113 117.2928 240.64076
262.61774 117.27182 243.12215
72.691055 118.11619 205.30528
73.647392 118.11999 204.62369
74.983513 118.12878 203.01515
73.630081 118.10285 207.86732
74.962837 118.11168 206.25375
75.907402 118.11556 205.55991
76.096283 118.10951 206.71599
76.289825 118.10348 207.87213
77.968033 118.11739 205.31227
78.528175 118.11638 205.53448
79.087875 118.11537 205.75475
80.009544 118.11938 205.04108
81.285591 118.12843 203.39055
81.836388 118.12747 203.60214
82.386734 118.12653 203.81186
83.288948 118.13063 203.08385
83.835884 118.12972 203.28889
83.687836 118.11877 205.36763
84.583687 118.12291 204.63217
85.816307 118.1321 202.95345
86.019241 118.12621 204.09081
86.563995 118.12535 204.28674
87.108307 118.12451 204.4809
88.316597 118.13379 202.78687
88.525345 118.12792 203.91977
89.065865 118.12711 204.10774
89.930656 118.13139 203.34816
90.790047 118.13567 202.58511
90.684921 118.12476 204.66118
90.906578 118.11893 205.79056
91.447533 118.11816 205.97069
92.300301 118.1225 205.19913
93.14769 118.12685 204.42422
93.682457 118.12612 204.59767
94.216843 118.1254 204.76942
94.146301 118.11451 206.84595
94.98468 118.1189 206.06197
95.817719 118.12331 205.2748
96.055771 118.11753 206.39551
97.175484 118.12707 204.64722
98.574799 118.14174 201.93727
98.521896 118.13087 204.01019
98.193604 118.11488 207.04303
99.292114 118.12447 205.28238
99.540413 118.11872 206.39717
99.79332 118.11297 207.51186
100.60095 118.11748 206.70355
101.40334 118.122 205.89226
101.93032 118.1214 206.04086
102.72469 118.12595 205.2244
103.51382 118.1305 204.40506
103.77222 118.12479 205.51254
104.29552 118.12422 205.65434
105.07639 118.12881 204.82848
105.34129 118.12311 205.93343
106.36961 118.13287 204.13579
106.88689 118.13232 204.27034
107.40388 118.1318 204.40337
107.42944 118.12096 206.47371
108.19395 118.1256 205.63515
107.99052 118.10959 208.67621
108.27803 118.10391 209.77705
109.04176 118.10857 208.93408
110.03374 118.11842 207.11609
110.09201 118.10758 209.18613
110.84525 118.11227 208.33646
111.1413 118.10661 209.43239
111.6656 118.10613 209.55336
111.96851 118.10049 210.64812
112.71352 118.1052 209.79103
113.66975 118.11512 207.95505
114.61601 118.12505 206.11555
115.12949 118.12462 206.22729
115.64276 118.12418 206.33768
116.36241 118.12895 205.46822
116.66873 118.12334 206.55426
117.38313 118.12813 205.68106
117.89322 118.12772 205.78546
118.59996 118.13252 204.90807
119.10727 118.13213 205.00926
119.4224 118.12653 206.09052
119.74223 118.12094 207.17134
120.44101 118.12577 206.28716
120.76535 118.12019 207.36626
121.27667 118.11981 207.4617
121.9677 118.12466 206.57214
122.29884 118.11909 207.64864
122.80971 118.11874 207.74008
123.49303 118.12361 206.84525
124.00117 118.12327 206.93364
124.67696 118.12816 206.03493
125.34776 118.13306 205.13408
125.85066 118.13273 205.21776
126.51395 118.13764 204.31314
127.01419 118.13733 204.39384
127.20294 118.12656 206.4489
127.40124 118.11579 208.50415
127.60907 118.10502 210.55965
127.67802 118.08901 213.60417
128.19939 118.08871 213.68179
128.57706 118.08318 214.7477
129.24181 118.08813 213.83307
130.04042 118.09833 211.92612
130.55653 118.09805 211.99779
131.07254 118.09779 212.06819
131.45691 118.09227 213.12857
132.23341 118.1025 211.2135
132.87346 118.1075 210.28778
133.50859 118.1125 209.36018
134.01691 118.11225 209.42325
134.52515 118.11201 209.48503
134.9162 118.10653 210.53868
135.42667 118.1063 210.59824
135.82478 118.10082 211.65021
136.55725 118.11111 209.71965
136.85016 118.10039 211.76355
137.36275 118.10018 211.81834
137.7726 118.09471 212.86655
138.28745 118.09451 212.91905
138.80223 118.09431 212.97028
139.50781 118.10464 211.0294
140.01765 118.10446 211.07767
140.61806 118.10954 210.12881
141.12538 118.10937 210.17438
141.46101 118.09867 212.21124
141.88962 118.09323 213.25125
142.40399 118.09307 213.29367
142.83969 118.08765 214.33176
143.35637 118.08749 214.37186
143.79919 118.08208 215.40797
144.31818 118.08192 215.44576
144.76813 118.07652 216.47987
145.22282 118.07111 217.51308
145.74649 118.07098 217.54738
146.33189 118.07612 216.58235
146.91246 118.08127 215.61575
147.48819 118.08643 214.64763
148.0591 118.09159 213.67801
148.57297 118.09148 213.70546
149.03703 118.08611 214.73042
149.55325 118.08601 214.75554
150.06946 118.08591 214.7794
150.54305 118.08055 215.80112
151.10176 118.08575 214.82339
151.65567 118.09094 213.84427
152.13399 118.08559 214.86243
152.65009 118.08553 214.88007
153.16614 118.08546 214.89648
153.68219 118.0854 214.91164
154.17245 118.08006 215.92523
154.71426 118.08529 214.93825
155.23027 118.08524 214.94971
155.72771 118.07993 215.95975
156.26228 118.08517 214.96889
156.77827 118.08514 214.97659
157.29425 118.08511 214.98311
157.80125 118.07981 215.98828
158.31964 118.07979 215.99232
158.83385 118.0745 216.99509
159.35463 118.07449 216.99664
159.87479 118.07977 215.99696
160.39922 118.06921 217.99597
160.92241 118.06921 217.99376
161.43779 118.0745 216.99036
161.98927 118.05868 219.98544
162.51729 118.0587 219.97942
163.0303 118.064 218.97223
163.59079 118.05347 220.96338
164.10143 118.05879 219.9537
164.6295 118.05883 219.94258
165.18222 118.0536 220.9299
165.71274 118.05364 220.9162
166.21384 118.05898 219.90167
166.742 118.05904 219.88548
167.23596 118.06438 218.86864
167.76176 118.06444 218.84999
168.2876 118.06451 218.83008
168.81346 118.06459 218.80891
169.29552 118.06995 217.78745
169.95775 118.05421 220.7606
170.48851 118.0543 220.73538
171.07034 118.04913 221.70758
171.60358 118.04922 221.67969
172.1927 118.04406 222.64894
172.67018 118.04945 221.62004
173.1429 118.05484 220.59012
173.6739 118.05496 220.55721
174.27042 118.04981 221.52089
174.80391 118.04995 221.48524
175.26721 118.05535 220.45081
175.94373 118.04495 222.40741
176.4798 118.0451 222.36769
177.09338 118.03999 223.32368
177.63196 118.04015 223.28117
178.25288 118.03504 224.23395
178.70932 118.04047 223.19223
179.42226 118.03012 225.13817
179.78691 118.04082 223.09804
180.60152 118.02522 226.03621
181.24202 118.02015 226.98067
181.88741 118.01508 227.92334
182.53769 118.01003 228.86417
183.29439 117.99971 230.79797
183.95685 117.99467 231.73485
184.30521 118.00541 229.68692
184.644 118.01615 227.63863
184.97325 118.02689 225.59003
185.40652 118.03237 224.53468
185.83507 118.03786 223.47852
186.37729 118.0381 223.41454
187.16119 118.02785 225.33456
187.83162 118.02285 226.25964
188.38136 118.02311 226.19072
188.93121 118.02337 226.12041
189.6116 118.01839 227.04018
190.03122 118.02392 225.97568
190.58141 118.02419 225.90128
191.26938 118.01924 226.8159
192.1024 118.00905 228.71863
192.66019 118.00935 228.63902
193.36301 118.00441 229.54741
193.92346 118.00472 229.46465
194.48404 118.00504 229.38042
195.04475 118.00537 229.29477
195.45102 118.01093 228.21977
196.16661 118.00603 229.11925
196.88719 118.00114 230.01653
197.28905 118.00672 228.93797
198.01477 118.00184 229.83157
198.91217 117.99174 231.70894
199.6503 117.98689 232.59761
200.05038 117.99249 231.51364
200.61974 117.99287 231.41379
201.18927 117.99326 231.31245
201.93777 117.98843 232.19353
202.51009 117.98882 232.08878
203.26624 117.98402 232.96553
203.65527 117.98964 231.87485
204.41664 117.98485 232.74767
204.99214 117.98528 232.63647
205.37447 117.99091 231.5426
205.94795 117.99135 231.42888
206.71986 117.98659 232.29373
207.29617 117.98704 232.17641
207.87273 117.98749 232.0576
208.44949 117.98795 231.93721
209.23444 117.98322 232.79341
210.23489 117.97331 234.62463
210.60683 117.979 233.52092
211.40466 117.9743 234.36981
212.42534 117.96442 236.19203
213.01573 117.96494 236.05957
213.60638 117.96545 235.92549
214.64735 117.95561 237.73846
215.01596 117.96133 236.62625
215.60986 117.96188 236.48674
216.4364 117.95724 237.31818
217.03333 117.9578 237.17479
217.63054 117.95837 237.02975
218.22804 117.95895 236.88301
218.58371 117.96469 235.76439
218.93477 117.97044 234.64532
219.28123 117.97619 233.52579
220.12213 117.97163 234.34258
221.22025 117.96192 236.12411
221.81964 117.96254 235.96722
222.41939 117.96317 235.80862
223.01949 117.9638 235.64832
223.88171 117.95929 236.45135
224.2207 117.96509 235.32245
225.08859 117.9606 236.12067
226.50017 117.94586 238.84193
227.65523 117.93627 240.59482
227.99817 117.94211 239.45811
228.61317 117.94281 239.28197
229.50763 117.9384 240.06425
229.28128 117.95449 237.00508
229.89252 117.95522 236.82489
230.50418 117.95596 236.64282
231.40524 117.95158 237.41628
231.43732 117.96256 235.31662
232.34171 117.95821 236.08557
233.2515 117.95388 236.85112
234.46561 117.94447 238.56754
234.18314 117.96056 235.51143
235.70947 117.94608 238.17435
235.71939 117.95708 236.07106
236.95523 117.94773 237.77342
237.89015 117.94349 238.52028
238.83057 117.93926 239.26357
239.77644 117.93505 240.00314
241.04668 117.92579 241.6869
241.36334 117.93176 240.52435
242.32324 117.9276 241.25368
242.96231 117.92854 241.03397
243.6019 117.92947 240.81223
244.90474 117.92031 242.47531
246.21817 117.91118 244.13278
246.53296 117.91722 242.95941
247.86005 117.90813 244.60812
247.83197 117.91924 242.49147
248.13832 117.9253 241.31526
248.78665 117.92634 241.07678
249.08655 117.93242 239.89902
249.73343 117.93348 239.6571
251.44308 117.91949 242.2186
252.09866 117.9206 241.96939
252.75482 117.92172 241.71793
