ply
format ascii 1.0
comment PCL generated
element vertex 1596
property float x
property float y
property float z
element camera 0
property float view_px
property float view_py
property float view_pz
property float x_axisx
property float x_axisy
property float x_axisz
property float y_axisx
property float y_axisy
property float y_axisz
property float z_axisx
property float z_axisy
property float z_axisz
property float focal
property float scalex
property float scaley
property float centerx
property float centery
property int viewportx
property int viewporty
property float k1
property float k2
end_header
152.16937 106.38718 213.48068
152.68309 106.38725 213.49828
153.22736 106.44727 212.51692
153.73863 106.44733 212.53197
154.19835 106.32745 214.54153
154.73778 106.38745 213.55632
155.23044 106.32752 214.56573
155.70932 106.20762 216.57199
156.23015 106.20763 216.58107
156.75096 106.20765 216.58887
157.24902 106.08772 218.59172
157.77463 106.08772 218.59708
158.30681 106.14768 217.60298
158.82584 106.0877 218.604
159.35321 106.14764 217.60736
159.87642 106.14761 217.60767
160.40266 106.08762 218.60492
160.9337 106.0276 219.60085
161.46173 106.02755 219.59735
161.98976 106.0275 219.59258
162.51781 106.02744 219.5865
163.04587 106.02736 219.57919
163.57394 106.02728 219.57063
164.14168 105.90726 221.55676
164.67458 105.90717 221.54553
165.23213 105.84709 222.5309
165.74045 105.90695 221.51921
166.27341 105.90683 221.50414
166.71091 106.08662 218.49467
167.20248 106.14646 217.47964
167.76256 106.08635 218.45859
168.24937 106.14618 217.44118
168.69 106.26598 215.42537
169.25256 106.20584 216.40042
169.77371 106.20567 216.37686
170.10034 106.4454 212.36401
170.56091 106.5052 211.34152
170.96329 106.62497 209.3213
171.30023 106.80471 206.30371
171.8558 106.74454 207.27173
172.23425 106.86429 205.24919
172.72925 106.86408 205.21844
173.15884 106.92384 204.19046
173.65154 106.92362 204.15747
174.07399 106.98338 203.12755
174.70972 106.86317 205.08344
175.3551 106.74294 207.03743
176.01015 106.62271 208.98946
176.51511 106.62244 208.94952
177.51385 106.26223 214.87715
178.79559 105.72202 223.78493
179.6852 105.48173 227.71571
180.41512 105.3614 229.65514
181.15474 105.24107 231.5923
181.52679 105.36071 229.55229
181.50241 105.72034 223.53781
182.04401 105.71997 223.48439
182.78874 105.59959 225.4157
183.43924 105.5392 226.35188
184.09465 105.4788 227.28624
184.75496 105.41837 228.2187
185.19785 105.47796 227.16527
185.63599 105.53754 226.11099
186.18541 105.53709 226.04736
186.97173 105.41661 227.96469
187.16373 105.59619 224.92517
187.83426 105.5357 225.8483
188.5097 105.47519 226.76944
189.06204 105.47469 226.69867
189.48404 105.53419 225.63687
190.29993 105.41362 227.54224
190.9903 105.35304 228.45596
191.41022 105.41252 227.3903
192.24577 105.29189 229.28885
192.94859 105.23126 230.19667
193.51141 105.23066 230.11472
194.22174 105.17001 231.01863
194.93704 105.10933 231.92038
195.50513 105.10868 231.83342
195.76411 105.22812 229.77267
196.32764 105.22745 229.68361
196.73187 105.28683 228.60768
197.29327 105.28613 228.51607
197.69055 105.34548 227.43848
198.41656 105.28469 228.32855
198.97844 105.28395 228.2326
199.71204 105.22312 229.11858
200.27669 105.22234 229.01932
201.19431 105.10139 230.88354
201.76413 105.10059 230.78044
202.69666 104.97958 232.63905
203.4554 104.91863 233.51324
204.03308 104.91776 233.40433
204.42242 104.97697 232.3136
205.18904 104.91595 233.18187
205.57393 104.97513 232.08908
206.14998 104.97419 231.9745
206.72626 104.97323 231.85841
207.30273 104.97225 231.74077
207.87946 104.97124 231.62163
208.66193 104.91011 232.47766
209.44952 104.84894 233.33118
210.24222 104.78773 234.18205
211.04002 104.72651 235.0303
211.41235 104.78554 233.92651
212.21555 104.72426 234.77052
212.80368 104.7231 234.63821
213.39209 104.72192 234.5043
214.20581 104.66056 235.34125
214.7972 104.65934 235.20351
215.38885 104.6581 235.06415
216.2132 104.59664 235.89391
217.51242 104.41479 238.66116
218.11475 104.41346 238.5145
218.71736 104.4121 238.3661
219.32028 104.41072 238.21603
220.16818 104.34911 239.03198
220.0329 104.52831 235.97653
220.38231 104.58708 234.85608
220.97916 104.58562 234.70108
221.0674 104.7046 232.61395
221.66 104.7031 232.45683
222.25294 104.70158 232.29796
222.84624 104.70004 232.13742
224.23282 104.5177 234.86276
225.36777 104.39556 236.62044
226.24371 104.33364 237.41241
227.12495 104.27168 238.2012
227.73737 104.26996 238.02704
228.90344 104.14763 239.76917
229.24243 104.20614 238.63153
230.14008 104.14404 239.40874
231.04309 104.08188 240.18266
231.95148 104.01969 240.9532
232.28717 104.07811 239.80959
232.61835 104.13651 238.66553
233.82698 104.01389 240.3828
233.86008 104.13259 238.28256
234.78056 104.07023 239.04057
234.80212 104.18893 236.94038
235.726 104.1265 237.69373
236.04247 104.18481 236.54361
237.59012 104.00153 239.18979
238.21895 103.99937 238.98407
239.16217 103.93679 239.72389
239.79446 103.93458 239.51334
240.10832 103.99276 238.3549
240.73911 103.9905 238.14116
241.04645 104.04866 236.98122
241.67572 104.04636 236.76425
242.63445 103.98357 237.48761
243.59869 103.92075 238.20715
243.56657 104.03932 236.10094
244.87085 103.91594 237.75519
246.52472 103.73201 240.34254
247.51118 103.66901 241.04643
248.15918 103.66649 240.80933
248.80771 103.66395 240.57007
249.45676 103.66138 240.3286
249.75473 103.71936 239.15073
251.4648 103.53509 241.70551
252.12053 103.53246 241.45547
253.136 103.46922 242.13446
253.43359 103.52714 240.94862
254.09091 103.52446 240.69182
254.01514 103.64299 238.57611
255.40717 103.51907 240.17134
255.32224 103.63763 238.05508
256.72546 103.51364 239.64165
257.38541 103.51093 239.37335
258.80493 103.38688 240.94905
259.85306 103.32346 241.5961
260.13742 103.38139 240.39655
261.19159 103.31796 241.03673
262.25134 103.25451 241.67238
74.237877 106.46792 201.21574
74.408203 106.41172 202.37202
74.968605 106.41377 202.60751
73.997505 106.18301 206.52908
74.567329 106.1851 206.76485
74.759056 106.12901 207.92274
76.080917 106.24746 206.3053
76.647003 106.24954 206.53406
78.322891 106.42608 203.97932
79.615601 106.54441 202.34477
80.532745 106.60457 201.63348
81.081932 106.60657 201.84848
81.630692 106.60856 202.06161
81.106773 106.43622 205.06921
81.662239 106.43822 205.28149
82.569672 106.49829 204.55782
83.471619 106.55833 203.83035
84.715416 106.67642 202.16324
85.259094 106.67833 202.36427
85.460022 106.62217 203.5013
84.985977 106.44992 206.51575
85.201118 106.39378 207.65463
85.755623 106.39566 207.85294
87.638748 106.62961 204.28384
88.512115 106.68944 203.53273
89.707321 106.80723 201.83495
90.567352 106.86698 201.07596
91.421967 106.92669 200.31355
91.311905 106.81243 202.3849
90.89418 106.64021 205.40446
91.120537 106.58395 206.53256
91.351486 106.52768 207.66057
91.587006 106.4714 208.78851
91.82711 106.41512 209.91635
93.595856 106.64849 206.29083
94.135017 106.65009 206.46303
95.573334 106.82541 203.77687
96.104294 106.82694 203.94339
96.929764 106.88635 203.15453
96.872711 106.77203 205.22609
97.40506 106.77351 205.38849
97.362144 106.65919 207.4614
98.183716 106.71851 206.66528
98.434975 106.66206 207.78111
99.250916 106.72132 206.98032
99.506439 106.66483 208.09441
99.766548 106.60835 209.20834
100.30391 106.60969 209.36171
100.84094 106.61101 209.51352
101.64538 106.67014 208.70198
103.24034 106.90273 205.00017
104.55253 107.07742 202.25453
104.80831 107.0208 203.35851
105.3266 107.02197 203.49788
106.10002 107.08094 202.67065
105.60338 106.85087 206.66939
106.3787 106.90981 205.83983
106.65271 106.85313 206.94153
107.17696 106.85422 207.07538
106.97142 106.68196 210.11252
107.7432 106.74081 209.27637
108.27156 106.74186 209.40701
109.03549 106.80065 208.56607
109.79428 106.85942 207.72252
110.54794 106.91816 206.87631
111.06798 106.91912 206.99933
111.36171 106.86232 208.09331
112.10735 106.92099 207.24107
112.4055 106.86416 208.33334
113.14581 106.92279 207.47713
113.66472 106.92367 207.59303
114.39729 106.98225 206.73238
115.12479 107.04081 205.86925
115.6382 107.04163 205.97989
115.73824 106.92699 208.04262
116.25612 106.92779 208.15154
117.17725 107.04398 206.30356
117.29131 106.92933 208.36517
117.80862 106.93007 208.46994
118.71461 107.0462 206.6149
119.41872 107.10459 205.73625
119.73863 107.04759 206.81566
120.25039 107.04827 206.91405
121.13144 107.16431 205.04887
121.63802 107.16495 205.14363
121.6048 106.99255 208.18306
121.94086 106.9355 209.25899
122.63171 106.99379 208.36864
123.14494 106.99438 208.45943
123.31764 106.87964 210.51634
124.33876 107.05321 207.65289
125.0145 107.11142 206.75475
125.35941 107.05431 207.82436
125.86952 107.05484 207.90814
126.3795 107.05536 207.99063
126.73367 106.99821 209.05792
127.09256 106.94106 210.12465
127.75786 106.9992 209.2171
128.41821 107.05731 208.3075
128.78157 107.00014 209.37106
129.29326 107.00059 209.44612
129.66364 106.94339 210.50818
130.03871 106.88618 211.56963
130.5549 106.8866 211.64149
131.20496 106.94465 210.7227
131.58696 106.88742 211.78128
132.10284 106.88781 211.84926
132.74536 106.94582 210.92567
133.25865 106.94618 210.99072
133.52802 106.83129 213.03627
134.04594 106.83165 213.09937
134.56378 106.83199 213.16119
135.08153 106.83232 213.22173
135.48692 106.77502 214.27296
136.11679 106.83295 213.33893
136.84924 106.94848 211.41055
137.25682 106.89116 212.45824
137.66913 106.83383 213.50517
138.28667 106.89172 212.56474
138.8015 106.89198 212.61609
139.22081 106.83463 213.65994
139.17972 106.48925 219.67294
139.52992 106.37429 221.71048
140.33081 106.54735 218.77542
141.11722 106.72038 215.83778
141.97255 106.951 211.90279
143.29466 107.52721 201.99463
144.25423 107.87299 196.06232
144.72768 107.87317 196.09917
145.12727 107.81574 197.13043
145.53163 107.75831 198.16093
145.87177 107.64327 200.18654
146.35466 107.64342 200.21942
146.83751 107.64357 200.25111
147.19675 107.52852 202.27451
147.56555 107.41346 204.29732
148.17189 107.52878 202.33263
148.60481 107.4713 203.35677
149.04253 107.41382 204.37999
149.53479 107.41393 204.40518
150.02702 107.41402 204.42915
150.42928 107.29893 206.44661
150.79852 107.12626 209.46071
151.18214 106.95358 212.47421
151.65572 106.89606 213.49184
152.09869 106.78095 215.5061
152.61719 106.78101 215.52386
153.16626 106.83866 214.54251
153.71051 106.8963 213.55975
154.19839 106.83875 214.57166
154.73781 106.89638 213.5863
155.25143 106.89641 213.5977
155.70934 106.72367 216.60237
156.23016 106.72369 216.61145
156.75096 106.7237 216.61926
157.26039 106.66611 217.62411
157.76566 106.55094 219.62605
158.30679 106.66611 217.63351
158.82999 106.66609 217.63634
159.3532 106.66607 217.63789
159.87639 106.66604 217.63817
160.40262 106.60842 218.63556
160.92824 106.60838 218.63335
161.46169 106.55074 219.62817
161.97948 106.60828 218.62509
162.51775 106.55063 219.61732
163.04579 106.55056 219.61
163.57385 106.55048 219.60143
164.12177 106.49281 220.58972
164.65225 106.49272 220.57852
165.2074 106.43504 221.56412
165.74034 106.43494 221.55031
166.24387 106.49242 220.53732
166.74261 106.5499 219.52319
167.27081 106.54977 219.50571
167.79904 106.54964 219.48692
168.28827 106.6071 218.46931
168.77272 106.66455 217.45061
169.29623 106.66441 217.42825
169.77354 106.72185 216.4073
170.19745 106.83688 214.38818
170.61179 106.9519 212.3683
171.01654 107.06693 210.34767
171.41174 107.18195 208.32632
171.91385 107.18176 208.29758
172.35536 107.23917 207.2711
172.7921 107.29658 206.24373
173.22409 107.35397 205.21542
173.65131 107.41137 204.18625
174.07378 107.46876 203.15622
174.63681 107.41093 204.11673
175.20471 107.3531 205.07564
175.77747 107.29525 206.033
176.35509 107.2374 206.98878
176.93758 107.17953 207.94295
177.94838 106.8336 213.86919
178.81393 106.60286 217.80264
179.60928 106.42973 220.7388
180.41914 106.25658 223.67236
181.2435 106.0834 226.60324
181.40535 106.31354 222.57591
182.04364 106.25558 223.51616
182.78836 106.13999 225.44775
183.43886 106.08201 226.38409
184.09425 106.02401 227.31856
184.86331 105.90838 229.24358
185.30859 105.96561 228.18977
185.86273 105.96519 228.12698
186.41695 105.96478 228.06281
186.97127 105.96436 227.99725
187.16327 106.13683 224.95732
187.83379 106.07875 225.8806
188.25797 106.13593 224.82111
188.80547 106.13547 224.75096
189.48354 106.07735 225.66919
190.29941 105.96157 227.57491
190.98976 105.90341 228.4888
191.68507 105.84525 229.40059
192.52544 105.72942 231.29877
193.23306 105.67121 232.20604
193.80072 105.67065 232.12343
194.22113 105.72773 231.05196
194.93642 105.66948 231.95387
195.35228 105.72654 230.88025
195.60886 105.84126 228.81964
196.32698 105.78297 229.71686
196.7312 105.84 228.64082
197.45445 105.78168 229.53439
198.01842 105.78101 229.44096
198.58255 105.78033 229.3461
199.14684 105.77964 229.24976
199.88284 105.72124 230.13547
200.44989 105.72051 230.03581
201.19351 105.66208 230.91728
201.94215 105.60362 231.7964
202.87708 105.48744 233.65489
203.8219 105.37124 235.51009
204.40442 105.37041 235.40024
204.7986 105.42728 234.30853
205.57004 105.36871 235.17598
205.76639 105.48328 233.10269
206.54068 105.42467 233.96661
206.92355 105.48148 232.87115
207.30176 105.5383 231.77507
207.87845 105.53736 231.65594
208.66092 105.47868 232.51219
209.44849 105.41996 233.36586
210.24115 105.36122 234.21693
210.82607 105.3602 234.08997
211.41124 105.35916 233.96146
212.2144 105.30035 234.80562
212.58234 105.35703 233.6996
213.16829 105.35593 233.56628
213.97954 105.29704 234.40396
214.79597 105.23812 235.23892
215.3876 105.23695 235.09959
216.21191 105.17799 235.9295
217.27626 105.06119 237.72694
218.1134 105.00214 238.55064
218.716 105.00087 238.4023
219.31889 104.99958 238.25226
220.16676 104.94045 239.06839
220.52567 104.99693 237.94707
220.63042 105.11121 235.85863
221.22971 105.10983 235.70303
221.32037 105.22411 233.61501
221.91542 105.22269 233.45728
222.25142 105.27911 232.33377
223.10652 105.21981 233.13661
223.96692 105.16048 233.9364
225.09937 105.04324 235.6951
225.97279 104.98383 236.48795
227.12325 104.86649 238.23828
227.7356 104.86488 238.06412
228.625 104.80535 238.84738
229.24062 104.80369 238.66887
229.85666 104.80199 238.48853
230.75714 104.74236 239.26337
231.94957 104.62478 240.9912
231.99623 104.73883 238.89191
232.61639 104.73703 238.70331
233.82498 104.61932 240.42096
233.85806 104.73335 238.32047
235.07748 104.61556 240.03122
235.40295 104.67161 238.88167
236.02786 104.66967 238.68275
236.04034 104.78366 236.5816
237.27904 104.66572 238.27899
237.59393 104.7217 237.12566
238.53212 104.66167 237.86732
239.15938 104.65961 237.65848
240.10605 104.5995 238.39368
240.73679 104.59738 238.17998
241.36804 104.59524 237.96425
241.67337 104.65112 236.80304
242.96098 104.53283 238.46919
243.9277 104.47255 239.18808
243.8981 104.58643 237.08073
245.20485 104.46802 238.73447
246.86118 104.29146 241.32146
247.50861 104.28912 241.08659
248.15659 104.28675 240.84956
248.80508 104.28436 240.61035
249.80319 104.22384 241.30424
250.1037 104.27954 240.12535
251.46208 104.16081 241.74634
252.11778 104.15834 241.49635
253.13324 104.09769 242.17561
253.43082 104.15335 240.98969
254.08813 104.15084 240.73294
254.37917 104.20651 239.54547
255.40436 104.14578 240.21262
256.06323 104.14324 239.94901
256.72263 104.1407 239.68307
257.38254 104.13815 239.41484
258.04297 104.1356 239.14427
259.46805 104.01654 240.71596
259.36523 104.13049 238.59616
260.41428 104.06968 239.23871
262.24841 103.89229 241.71489
74.63044 107.0543 200.33063
75.186096 107.05618 200.5659
75.356079 107.00227 201.72031
75.148018 106.89262 203.79704
75.329987 106.83877 204.9528
75.51664 106.78493 206.10869
76.833397 106.89838 204.4888
77.394386 106.90031 204.71545
79.065163 107.06944 202.15819
79.985245 107.12705 201.44958
80.534828 107.12892 201.66643
81.084007 107.13079 201.88136
81.632759 107.13264 202.09442
80.751427 106.91172 206.03473
81.309418 106.9136 206.24789
82.219337 106.97113 205.52496
83.123779 107.02864 204.79825
84.370071 107.14178 203.1317
85.605865 107.25488 201.45956
85.461975 107.14535 203.53371
85.327713 107.03584 205.60971
85.540337 106.98197 206.74776
85.757545 106.9281 207.88579
87.308357 107.09668 205.2576
88.843697 107.2652 202.62231
89.709122 107.32246 201.86659
90.569115 107.37968 201.10742
91.101456 107.38129 201.28983
90.993896 107.27174 203.36226
91.21315 107.21776 204.48967
91.751778 107.21934 204.66946
91.97773 107.16534 205.7959
92.208252 107.11134 206.92232
92.750664 107.11288 207.09863
94.207085 107.28098 204.42088
94.741257 107.28246 204.59145
95.574883 107.33942 203.80798
96.403175 107.39636 203.02132
96.636398 107.34226 204.13928
96.874207 107.28815 205.2572
96.826691 107.17854 207.33044
97.363602 107.17991 207.49271
98.18515 107.23673 206.6964
98.436401 107.18258 207.81233
99.532349 107.29482 206.05296
99.78537 107.24063 207.16646
100.04301 107.18644 208.27977
100.57788 107.18768 208.4324
101.11243 107.18891 208.58347
101.64666 107.19012 208.73296
103.24158 107.41303 205.03053
104.29094 107.52503 203.24771
104.28882 107.41531 205.31639
105.06989 107.47183 204.49243
105.59032 107.47292 204.63092
105.60452 107.36317 206.69971
106.1293 107.36423 206.83649
106.90187 107.42066 206.00462
107.42365 107.42168 206.13782
107.45883 107.3119 208.20633
108.46642 107.42365 206.39978
108.74914 107.36924 207.49817
109.50816 107.42557 206.65587
110.49542 107.53723 204.84015
111.24174 107.5935 203.99202
111.52592 107.53902 205.08527
112.04083 107.53989 205.20566
112.5555 107.54074 205.32466
112.62758 107.43088 207.38959
113.14668 107.43171 207.50687
113.66557 107.43253 207.62274
114.39812 107.48866 206.76192
115.1256 107.54476 205.89864
115.63899 107.54552 206.00926
115.94561 107.49094 207.09534
116.66519 107.547 206.22633
117.17799 107.54771 206.33282
117.49133 107.4931 207.41632
118.20306 107.5491 206.5417
119.10417 107.66039 204.68538
119.6114 107.66103 204.78546
120.11845 107.66167 204.88422
120.62535 107.66229 204.98163
121.13208 107.6629 205.0777
121.45634 107.60821 206.15413
121.78529 107.5535 207.23016
122.11894 107.49879 208.30569
122.45727 107.44407 209.38081
123.14552 107.49991 208.48856
123.4884 107.44518 209.56186
124.33931 107.55626 207.68184
125.01505 107.61205 206.78352
125.52286 107.61255 206.86821
125.70951 107.5025 208.92252
126.53811 107.61352 207.03363
126.73416 107.50346 209.0869
127.24631 107.50391 209.16714
127.75832 107.50436 209.24606
128.56711 107.61532 207.34892
128.78201 107.50523 209.40001
129.4373 107.5609 208.48695
129.80525 107.50605 209.54877
130.17792 107.45119 210.61002
130.41893 107.34108 212.65974
131.20534 107.45196 210.75171
131.58734 107.39708 211.81039
132.10321 107.39743 211.87837
132.61899 107.39778 211.94501
133.13467 107.39812 212.01036
133.52835 107.34322 213.06546
133.92677 107.2883 214.11984
134.44701 107.28861 214.18195
135.08185 107.34415 213.25089
135.48723 107.28922 214.30226
136.1171 107.34474 213.36806
136.84953 107.45548 211.43939
137.2571 107.40052 212.48721
137.77205 107.40078 212.54111
138.38718 107.45626 211.60028
138.99744 107.51173 210.6577
139.41193 107.45674 211.7012
139.27299 107.07039 218.70866
139.80205 107.07061 218.75757
140.50748 107.18127 216.81601
141.20325 107.29193 214.87231
142.13957 107.56824 209.94156
143.45686 108.12064 200.03165
144.17578 108.28646 197.08429
144.72783 108.34184 196.12573
145.12743 108.28678 197.15714
145.6032 108.28693 197.19183
145.94092 108.17664 199.21756
146.4214 108.17677 199.25026
146.77345 108.06647 201.2746
147.19688 108.01139 202.30183
147.62508 107.95629 203.3282
148.22899 108.06683 201.36311
148.55035 107.90131 204.3812
148.99045 107.84619 205.40469
149.48511 107.84629 205.42996
149.93236 107.79117 206.45142
150.29442 107.62562 209.46683
150.67087 107.46007 212.48166
151.14204 107.40493 213.50052
151.54245 107.23936 216.51389
152.028 107.18422 217.53084
152.5513 107.18428 217.54878
153.13573 107.29475 215.56941
153.65421 107.29479 215.58469
154.14688 107.23962 216.59685
154.71446 107.35007 214.61325
155.2305 107.3501 214.62471
155.70937 107.23971 216.63153
156.23016 107.23972 216.64061
156.75098 107.23973 216.64842
157.24902 107.12931 218.65179
157.76564 107.0741 219.65559
158.3002 107.1293 218.66127
158.82162 107.07407 219.66255
159.35139 107.12926 218.66563
159.87636 107.18445 217.66748
160.40259 107.1292 218.66498
160.92276 107.18437 217.66429
161.45381 107.12912 218.65927
161.96919 107.18428 217.65608
162.50505 107.12901 218.64848
163.04573 107.07374 219.63956
163.59122 107.01846 220.6293
164.14151 106.96317 221.61766
164.67439 106.96309 221.60646
165.23193 106.90778 222.5921
165.76726 106.90769 222.57825
166.27319 106.9628 221.56506
166.74249 107.07312 219.55275
167.27069 107.07301 219.53529
167.76228 107.1281 218.51871
168.28815 107.12798 218.49878
168.73116 107.23827 216.48232
169.25226 107.23814 216.46005
169.77341 107.238 216.43649
170.1973 107.34828 214.41713
170.61162 107.45856 212.39699
171.01637 107.56884 210.37607
171.46741 107.62389 209.35138
171.91367 107.67895 208.32571
172.29453 107.78922 206.30249
172.72885 107.84425 205.27512
173.28935 107.78884 206.23953
173.78682 107.78865 206.20624
174.14383 107.8989 204.17975
174.6366 107.89869 204.14435
175.27956 107.78802 206.09908
175.85471 107.73257 207.05641
176.27496 107.78757 206.02159
177.18417 107.51118 210.95642
178.28688 107.12432 217.87773
179.07494 106.95836 220.81624
179.87749 106.79237 223.75217
180.69455 106.62638 226.6855
181.33749 106.57085 227.6281
181.40503 106.84673 222.60622
182.14244 106.73593 224.54015
182.78802 106.68037 225.47849
183.33456 106.68003 225.42194
183.98755 106.62444 226.35683
184.86293 106.45836 229.2749
185.3082 106.51324 228.22095
186.08948 106.40237 230.14215
186.64851 106.40198 230.07745
187.20764 106.40158 230.01134
187.40446 106.56693 226.97043
188.07979 106.51126 227.89328
188.38315 106.62135 225.84251
189.0611 106.56566 226.76231
189.74397 106.50996 227.68007
190.43179 106.45423 228.59583
191.12454 106.3985 229.50951
191.68456 106.39802 229.43221
192.3848 106.34225 230.34209
193.23251 106.2312 232.23813
193.80016 106.23068 232.15552
194.22058 106.28542 231.08394
194.93584 106.2296 231.98601
195.50388 106.22904 231.89905
195.91747 106.28375 230.82428
196.48338 106.28317 230.73482
197.04945 106.28258 230.64394
197.61566 106.28197 230.55159
198.01776 106.33664 229.47295
198.58188 106.33601 229.3781
199.31528 106.28007 230.26584
199.88214 106.2794 230.16766
200.44917 106.27873 230.06801
201.36917 106.16743 231.9324
202.12021 106.1114 232.81125
202.87631 106.05537 233.68773
203.82111 105.94398 235.54323
204.2175 105.99854 234.45244
204.79776 105.99776 234.34157
205.56918 105.94164 235.2092
205.95891 105.99615 234.11523
206.53979 105.99533 233.99976
206.92265 106.04982 232.90417
207.50153 106.04897 232.78609
207.87753 106.10344 231.68889
208.45441 106.10255 231.56819
209.23953 106.0463 232.42258
210.24014 105.93466 234.25037
210.82506 105.93372 234.12344
211.4102 105.93275 233.99495
212.21335 105.8764 234.83931
212.3611 105.98614 232.75929
212.94458 105.98512 232.62656
213.75337 105.9287 233.46498
214.33983 105.92764 233.32848
214.92654 105.92656 233.19032
215.97833 105.81467 234.99266
216.80536 105.75815 235.82054
217.40028 105.757 235.6757
217.99551 105.75583 235.52921
218.83324 105.69922 236.34972
219.43152 105.69801 236.19923
220.03012 105.69676 236.04707
220.12997 105.80636 233.95969
220.97632 105.74966 234.7715
221.319 105.80379 233.6494
222.17091 105.74704 234.45651
222.76874 105.7457 234.29643
223.89056 105.63342 236.06165
224.75833 105.57657 236.85963
225.63135 105.51968 237.65443
226.50969 105.46275 238.44611
227.66504 105.35031 240.19539
227.73398 105.45976 238.09972
228.89998 105.34725 239.84253
229.23892 105.40118 238.70471
229.85493 105.3996 238.52443
231.03946 105.28697 240.25665
232.23431 105.1743 241.9841
231.99442 105.33919 238.92809
232.61456 105.33751 238.73955
233.8231 105.22472 240.45752
233.55971 105.38961 237.4034
234.7766 105.27676 239.11523
235.40102 105.27497 238.9183
236.02588 105.27316 238.71942
236.34479 105.3269 237.56827
237.58591 105.21389 239.26521
237.90329 105.26759 238.11098
239.15784 105.1545 239.79985
239.47366 105.20816 238.64243
240.7417 105.09498 240.32312
241.69885 105.03736 241.05312
242.33757 105.03534 240.83485
242.32397 105.14455 238.72739
243.28766 105.08685 239.44948
244.25684 105.02912 240.16768
244.22974 105.13832 238.05923
245.20251 105.08054 238.77237
246.18082 105.02271 239.48158
246.82318 105.02054 239.24861
247.12206 105.07404 238.07619
248.10951 105.01614 238.77621
248.75348 105.01391 238.53676
249.04637 105.06738 237.36063
250.75128 104.89794 239.91838
251.40189 104.89565 239.67041
252.77145 104.78185 241.28343
253.06647 104.83527 240.09842
254.08551 104.77717 240.77237
254.00974 104.88636 238.65619
255.40169 104.77245 240.25217
256.06058 104.77008 239.98865
257.46884 104.6561 241.57391
257.37988 104.76532 239.45464
258.79932 104.65131 241.03111
259.08325 104.70473 239.83374
258.97787 104.81402 237.71477
259.63715 104.81165 237.43831
261.07642 104.69759 238.99797
74.24205 107.52904 201.28194
74.412392 107.4774 202.43842
74.587486 107.4258 203.59505
75.150063 107.42757 203.82953
75.332031 107.37601 204.98538
75.518684 107.32445 206.14137
77.210556 107.48625 203.59569
77.76899 107.48803 203.82129
78.697083 107.54312 203.11743
79.619682 107.59819 202.40965
80.171799 107.59993 202.62743
80.361031 107.54838 203.77377
80.914825 107.55012 203.98872
80.395973 107.39201 206.99908
81.311356 107.44704 206.27977
82.221245 107.50202 205.55666
83.125664 107.55699 204.82973
84.719238 107.71842 202.22661
85.607681 107.77332 201.49037
85.12149 107.61525 204.50285
85.329521 107.56367 205.64098
85.542137 107.51208 206.77913
85.424583 107.4073 208.85803
87.310112 107.62173 205.28854
88.845421 107.78291 202.65277
89.7108 107.83764 201.89688
90.57077 107.89234 201.13751
91.747566 108.00018 199.42955
91.63501 107.89532 201.5005
91.532021 107.79046 203.57318
92.382889 107.84507 202.8044
92.603828 107.79336 203.92932
92.519608 107.6885 206.00348
93.366768 107.74305 205.22884
94.818176 107.90382 202.54901
95.347359 107.90518 202.71794
96.176003 107.95963 201.93271
97.296646 108.06716 200.19102
97.522415 108.01534 201.30681
97.460388 107.91042 203.37733
97.69783 107.85859 204.49373
98.227303 107.85984 204.6537
98.756424 107.86107 204.81206
99.285217 107.86229 204.96884
99.81366 107.86348 205.12402
100.06421 107.8116 206.23688
99.769165 107.65359 209.2695
100.57913 107.7078 208.46211
101.11365 107.70894 208.61314
101.91557 107.7631 207.80055
103.24274 107.9233 205.05962
104.29206 108.03043 203.27647
104.55028 107.97844 204.3813
105.32886 108.03249 203.55652
106.10222 108.0865 202.72896
105.85856 107.92844 205.7627
106.63138 107.98242 204.93216
107.15096 107.98338 205.06615
107.17905 107.87832 207.13451
107.21666 107.77325 209.20389
108.46738 107.93315 206.42851
108.98836 107.93404 206.55725
109.27325 107.88194 207.65491
110.49634 108.04173 204.8685
111.24262 108.09554 204.02022
111.29829 107.99042 206.08566
111.81562 107.99122 206.20662
112.33272 107.99201 206.32616
112.62841 107.93983 207.41806
112.71001 107.83469 209.48401
113.45006 107.8884 208.62605
114.18503 107.94209 207.76561
114.91492 107.99575 206.90269
115.43073 107.99646 207.01381
116.15291 108.05009 206.14655
116.66589 108.05076 206.25438
116.97697 107.99848 207.33885
117.09345 107.89327 209.40146
117.81001 107.94684 208.52766
118.52154 108.00039 207.65154
119.22803 108.05392 206.77307
119.73993 108.0545 206.87273
120.4388 108.108 205.99014
120.94794 108.10857 206.08665
121.27463 108.05621 207.16365
121.42611 107.95094 209.22249
121.94204 107.95148 209.31635
122.28278 107.8991 210.392
122.97345 107.95251 209.50005
123.14854 107.84722 211.55785
124.17204 108.00639 208.69398
124.85017 108.05976 207.79594
125.3604 108.06023 207.88097
125.8705 108.06068 207.96472
126.69667 108.16689 206.07513
126.8903 108.06155 208.1283
127.40001 108.06197 208.20815
128.06047 108.11526 207.29953
128.71597 108.16853 206.38889
128.92845 108.06317 208.43987
129.29408 108.01067 209.50273
129.66444 107.95818 210.56502
129.90073 107.8528 212.61563
130.28291 107.80029 213.67703
130.93777 107.85351 212.75862
131.45615 107.85384 212.82817
132.10356 107.90704 211.9062
132.74606 107.96022 210.98233
133.25932 107.96053 211.04739
133.65059 107.90797 212.10229
134.04657 107.85541 213.15651
134.56439 107.8557 213.21831
134.96744 107.80312 214.27081
135.37523 107.75053 215.32256
135.89761 107.7508 215.38104
136.74232 107.90961 212.45982
137.15228 107.85701 213.50803
137.77229 107.9101 212.56883
138.38742 107.96317 211.62785
138.99765 108.01624 210.68513
139.03041 107.75222 215.70488
138.99411 107.43536 221.71994
139.80226 107.5941 218.78603
140.41946 107.64714 217.8389
141.20343 107.80586 214.90024
142.30658 108.17594 207.97864
143.61905 108.70452 198.06702
144.25455 108.81036 196.11438
144.80418 108.86334 195.15549
145.27518 108.86349 195.19098
145.74612 108.86362 195.2253
146.01004 108.70523 198.24713
146.42152 108.65252 199.27605
146.83777 108.5998 200.30412
147.19699 108.49424 202.32803
147.5658 108.38868 204.35136
148.2291 108.54729 201.38916
148.55045 108.38889 204.40762
148.93835 108.2833 206.42847
149.43541 108.28339 206.45387
149.88506 108.23064 207.47556
150.24951 108.07222 210.49146
150.67094 107.96662 212.50909
151.10194 107.86102 214.52589
151.50475 107.70259 217.53972
151.95731 107.59698 219.55486
152.4854 107.59704 219.57295
153.04405 107.64992 218.59161
153.62607 107.75562 216.61069
154.12114 107.70282 217.62302
154.69112 107.80851 215.63924
155.23051 107.86137 214.65237
155.72795 107.80855 215.66103
156.24635 107.80856 215.67006
156.76476 107.80857 215.67781
157.28314 107.80857 215.68437
157.78358 107.7029 217.68678
158.30678 107.7029 217.69083
158.82161 107.59722 219.69084
159.35136 107.65003 218.6938
159.87758 107.59717 219.69272
160.40558 107.59714 219.69176
160.92815 107.64993 218.6909
161.45375 107.64989 218.68745
161.96915 107.70267 217.68413
162.505 107.64979 218.67668
163.03064 107.64973 218.66939
163.57372 107.59683 219.6593
164.10178 107.59676 219.64944
164.65208 107.54385 220.63666
165.20721 107.49094 221.62253
165.74014 107.49085 221.60872
166.24365 107.54359 220.59547
166.77423 107.54349 220.57919
167.27058 107.59622 219.5636
167.76218 107.64895 218.54692
168.28801 107.64883 218.52698
168.77246 107.70155 217.50803
169.29596 107.70142 217.48566
169.81949 107.70129 217.46201
170.29443 107.75399 216.4397
170.66252 107.91236 213.42174
171.01622 108.07074 210.40327
171.41141 108.17627 208.38141
171.73877 108.33463 205.36197
172.17307 108.38731 204.33569
172.60258 108.43999 203.30852
173.15825 108.38698 204.27335
173.71878 108.33396 205.23665
174.14363 108.38662 204.20619
174.70906 108.33359 205.16681
175.35442 108.22769 207.1216
175.77701 108.28033 206.08771
176.35461 108.22728 207.04373
177.75992 107.64571 217.95026
179.04881 107.1698 226.8611
179.68433 107.11669 227.80855
180.5932 106.90501 231.73796
181.3376 106.79903 233.67555
181.43152 107.06303 228.65187
181.30801 107.43274 221.64134
182.043 107.32674 223.57578
182.7877 107.22072 225.50793
183.43817 107.16756 226.44453
184.09355 107.11437 227.37932
184.86258 107.00832 229.30489
185.41901 107.00798 229.24323
186.20268 106.90189 231.16444
186.76411 106.90154 231.09943
187.08887 107.00691 229.04997
187.52487 107.05941 227.9915
188.07938 107.05903 227.92322
188.38274 107.16438 225.87222
188.93263 107.16399 225.8018
189.61308 107.1107 226.72002
190.29848 107.0574 227.63623
190.9888 107.00409 228.5504
191.54639 107.00365 228.47343
192.38431 106.89742 230.37256
193.08951 106.84406 231.28046
193.79964 106.7907 232.18623
194.22005 106.84309 231.11456
194.9353 106.7897 232.01674
195.50333 106.78918 231.92986
196.0715 106.78865 231.84151
196.63983 106.78812 231.75169
197.36774 106.73466 232.64622
198.10065 106.68118 233.53851
198.50999 106.73351 232.45854
198.91466 106.78584 231.3779
199.65288 106.73232 232.26498
200.22458 106.7317 232.16597
200.62247 106.784 231.08215
201.36848 106.73044 231.96355
202.29832 106.62393 233.82498
202.87558 106.62325 233.71916
203.63669 106.56963 234.59337
204.21674 106.56893 234.48404
204.797 106.56821 234.37323
205.37746 106.56747 234.26083
205.76472 106.61967 233.16722
206.34317 106.61891 233.05226
206.72357 106.67108 231.95703
207.09933 106.72324 230.86125
207.67355 106.72244 230.74268
208.24799 106.72163 230.62256
208.82266 106.72079 230.50089
210.02881 106.56105 233.30621
210.61127 106.56017 233.17986
211.19395 106.55928 233.05191
212.21236 106.45242 234.87155
212.58026 106.50446 233.76532
212.94356 106.5565 232.65857
213.75232 106.50256 233.49718
214.11127 106.55457 232.38838
214.69553 106.55357 232.25085
215.51245 106.49956 233.08287
216.5694 106.39251 234.88269
217.16185 106.39144 234.73849
218.23407 106.28433 236.53142
219.0742 106.2302 237.35146
219.91956 106.17604 238.16856
220.27597 106.22791 237.04767
220.62778 106.27977 235.92632
221.22702 106.27858 235.77078
221.8266 106.27737 235.61354
222.4265 106.27614 235.45459
222.76738 106.32794 234.32957
223.88919 106.22056 236.09509
224.7569 106.1662 236.89323
225.89667 106.05873 238.65051
226.77744 106.0043 239.4417
227.66351 105.94984 240.22968
228.00662 106.00152 239.09399
228.89841 105.947 239.87694
229.23735 105.99864 238.73901
229.57175 106.05028 237.60068
230.4697 105.99568 238.37663
231.37303 105.94105 239.14929
231.4147 106.04575 237.05101
232.32135 105.99107 237.81914
233.52739 105.88322 239.53821
233.55795 105.98788 237.43803
234.47586 105.93311 238.19742
235.39917 105.8783 238.95331
236.32794 105.82346 239.70569
236.3429 105.92808 237.60326
237.58401 105.82001 239.30057
237.90134 105.87143 238.14621
238.84198 105.81647 238.88748
239.47168 105.81467 238.67793
240.42078 105.75964 239.41269
241.37537 105.70458 240.14369
242.0116 105.70271 239.92639
242.3219 105.75403 238.76328
243.61444 105.64565 240.42839
244.58612 105.59046 241.14597
244.22757 105.74823 238.09529
245.2003 105.69301 238.80862
246.17857 105.63775 239.51805
246.13794 105.74226 237.40839
246.43176 105.79352 236.23775
247.76068 105.68491 237.87636
248.75116 105.62955 238.5735
249.39563 105.62746 238.33192
251.10301 105.46542 240.88921
252.11279 105.40997 241.57306
253.1282 105.35448 242.25275
253.42575 105.40564 241.06667
254.08304 105.40346 240.81007
254.00726 105.50797 238.69366
255.3992 105.39906 240.29001
256.05807 105.39687 240.02654
257.46631 105.2879 241.61223
257.75433 105.33906 240.41737
258.79681 105.28344 241.06955
259.46277 105.28122 240.79466
258.97537 105.43923 237.75288
259.24747 105.49046 236.55606
261.07388 105.328 239.03653
73.853531 108.00858 202.23207
74.414276 108.01019 202.46942
74.974678 108.01181 202.70476
75.151955 107.96249 203.86055
75.714127 107.96413 204.09302
75.898262 107.91486 205.24802
76.837303 107.96741 204.552
77.025688 107.91815 205.70515
77.958839 107.9707 205.00314
78.518959 107.97234 205.22581
79.443649 108.02486 204.51692
79.637955 107.97559 205.66531
80.556717 108.02808 204.95059
80.040405 107.8771 207.96228
81.313164 107.98043 206.31021
82.22303 108.03288 205.5869
83.127426 108.0853 204.85979
84.373657 108.18854 203.19255
85.609367 108.29173 201.51979
85.807762 108.24241 202.65616
85.67099 108.14229 204.73169
85.881088 108.09298 205.86899
85.42627 107.94207 208.88818
86.647263 108.04517 207.20177
87.528069 108.09743 206.4527
88.730667 108.20044 204.75656
89.598122 108.25264 203.99959
91.104607 108.40635 201.34857
91.316765 108.35695 202.47534
91.850761 108.35831 202.65506
92.384354 108.35965 202.83308
92.605293 108.31023 203.9581
92.521042 108.21007 206.03252
93.675476 108.31284 204.30739
94.819565 108.41557 202.57739
95.348724 108.41682 202.74628
96.477165 108.51949 201.00824
97.297958 108.5714 200.21887
97.523712 108.52188 201.33476
97.46167 108.42166 203.40553
97.40918 108.32144 205.47772
98.515991 108.42397 203.72548
98.75766 108.37443 204.84024
99.286423 108.37555 204.99699
100.09488 108.42731 204.1935
100.62051 108.4284 204.34633
100.59562 108.32814 206.4178
101.67078 108.43051 204.64738
101.92527 108.38089 205.75706
102.71977 108.43255 204.94226
103.50905 108.48418 204.12453
104.55589 108.58643 202.34039
104.5513 108.48612 204.40889
105.32986 108.53769 203.58394
105.84779 108.53861 203.72173
105.60658 108.38766 206.75645
106.13132 108.38857 206.89319
106.90384 108.44006 206.061
107.17997 108.39032 207.16217
106.97442 108.23937 210.20044
108.70898 108.49321 205.48668
109.22751 108.49403 205.61478
109.27412 108.39365 207.6824
110.49716 108.5462 204.89561
111.24344 108.59755 204.04716
110.84212 108.39599 208.05728
111.3643 108.39674 208.17937
112.10988 108.44804 207.32663
112.40799 108.39819 208.4192
112.71077 108.34833 209.51146
113.45079 108.39959 208.65338
114.18575 108.45083 207.79274
114.91561 108.50204 206.9297
115.43141 108.50269 207.04079
116.15358 108.55388 206.17336
116.87069 108.60504 205.30354
116.97762 108.50455 207.36575
117.09409 108.40406 209.4286
117.61378 108.40465 209.53378
118.1333 108.40522 209.63759
118.84464 108.45632 208.75992
119.36136 108.45686 208.86053
119.87793 108.45741 208.95976
120.39432 108.45792 209.05765
120.72826 108.40791 210.13611
121.06688 108.35789 211.21413
121.58765 108.35839 211.30884
121.93323 108.30836 212.38545
122.62872 108.35934 211.49422
122.97884 108.3093 212.56898
123.83697 108.41077 210.68967
124.51993 108.46172 209.7923
125.19791 108.51265 208.89279
125.71042 108.51306 208.97691
126.69708 108.66497 206.10133
127.0464 108.61486 207.16818
127.55369 108.61524 207.24762
128.06085 108.61562 207.32578
128.71634 108.66647 206.41501
129.07484 108.61633 207.47821
129.29445 108.51569 209.52919
129.66479 108.46554 210.5916
129.90106 108.36489 212.64246
130.28326 108.31473 213.70395
130.67018 108.26456 214.7648
131.32492 108.31536 213.84496
131.97473 108.36614 212.92319
132.61963 108.41692 211.99947
133.1353 108.4172 212.06483
133.65088 108.41747 212.12889
134.04686 108.36726 213.18321
134.56467 108.36752 213.245
135.0824 108.36777 213.30547
135.60004 108.36802 213.3647
136.11761 108.36826 213.42265
136.74257 108.41895 212.48636
137.25757 108.41917 212.54149
137.77251 108.41939 212.59535
138.38763 108.47007 211.65425
138.90002 108.47027 211.70531
138.74431 108.11719 218.71422
138.90129 107.91552 222.7419
139.71182 108.0671 219.80783
140.33142 108.11774 218.86079
141.1178 108.26931 215.92197
142.55698 108.82457 205.01874
143.6192 109.17796 198.09158
144.17609 109.22856 197.13429
144.80432 109.32961 195.17969
145.2753 109.32973 195.21515
145.67485 109.2794 196.24565
146.01016 109.17859 198.2717
146.42165 109.12825 199.30072
146.83788 109.0779 200.32892
147.13531 108.92662 203.34987
147.5659 108.87626 204.37662
148.11522 108.92681 203.40825
148.49596 108.82599 205.43011
148.88626 108.72516 207.45134
149.43549 108.77569 206.47939
149.88513 108.7253 207.50121
150.20461 108.52356 211.51517
150.67101 108.47317 212.53531
151.10201 108.37231 214.55235
151.50479 108.22101 217.56656
151.95735 108.12015 219.58194
152.48544 108.12019 219.60002
153.0441 108.17069 218.61856
153.59793 108.22118 217.63571
154.0954 108.17075 218.64822
154.66777 108.27168 216.66428
155.23053 108.37261 214.67882
155.72797 108.32217 215.68759
156.24637 108.32218 215.69661
156.75098 108.27174 216.70302
157.27177 108.27173 216.70958
157.79256 108.27173 216.71489
158.30676 108.22127 217.71765
158.82994 108.22125 217.72044
159.35489 108.27168 216.7233
159.87631 108.22121 217.72231
160.40251 108.17072 218.72006
160.92812 108.17068 218.71786
161.45372 108.17065 218.71437
161.97932 108.1706 218.70961
162.51758 108.1201 219.70224
163.04561 108.12004 219.69495
163.59108 108.06953 220.68494
164.12154 108.06947 220.67503
164.65201 108.06939 220.66385
165.18251 108.06932 220.6514
165.71303 108.06924 220.63766
166.21414 108.11961 219.62437
166.77412 108.06906 220.60638
167.27048 108.11942 219.59068
167.76207 108.16978 218.57388
168.2879 108.16967 218.55394
168.81377 108.16956 218.53273
169.33968 108.16944 218.51027
169.8656 108.16932 218.48651
170.39157 108.1692 218.46149
170.71341 108.3709 214.44553
171.01608 108.57262 210.42929
171.35541 108.72386 207.41
171.68037 108.87511 204.39034
172.11226 108.92543 203.36409
172.53937 108.97575 202.33693
173.09264 108.92513 203.30205
173.65074 108.8745 204.26567
174.14345 108.87433 204.23151
174.63622 108.87416 204.19615
175.27914 108.77304 206.1514
175.69934 108.82333 205.11755
176.35442 108.7222 207.06944
178.08882 107.96493 221.95866
179.64139 107.35904 233.85519
180.20662 107.3588 233.80638
181.12993 107.15666 237.73503
181.88875 107.05545 239.67157
181.61987 107.50948 230.66887
181.40445 107.91302 222.66298
182.24097 107.76133 225.59123
182.78741 107.76105 225.53606
183.43788 107.7103 226.47282
183.98689 107.71001 226.41467
184.75351 107.60874 228.34074
185.30753 107.60844 228.27937
186.20235 107.45666 231.19337
186.64778 107.50682 230.13643
187.0885 107.55697 229.07866
187.4037 107.65761 227.02869
188.07899 107.60677 227.95181
188.38235 107.7074 225.90059
188.93224 107.70704 225.83015
189.48224 107.70667 225.75838
190.29807 107.60529 227.66489
190.98837 107.55439 228.57919
191.68365 107.50349 229.49146
192.38387 107.45256 230.40161
193.08904 107.40163 231.30968
193.94411 107.30017 233.20378
194.21957 107.40074 231.1438
194.78503 107.40028 231.05873
195.19846 107.45033 229.98517
195.91638 107.39933 230.88426
196.32526 107.44936 229.80855
197.04832 107.39833 230.70401
197.77637 107.3473 231.59721
198.34515 107.34677 231.50307
199.08076 107.2957 232.39215
199.65228 107.29515 232.29466
200.39551 107.24406 233.17955
200.79582 107.29401 232.09523
201.54424 107.24288 232.9763
202.11887 107.24228 232.87242
202.69368 107.24166 232.76707
203.636 107.13995 234.62357
204.40213 107.08875 235.4955
204.79628 107.13863 234.40344
205.18578 107.18851 233.31079
205.5706 107.23838 232.21754
205.95079 107.28824 231.12378
206.32632 107.3381 230.02942
207.09854 107.28681 230.89125
207.67276 107.28607 230.77269
208.45271 107.23476 231.62993
209.02982 107.23399 231.50778
210.23837 107.08147 234.31299
210.61038 107.13124 233.21037
211.19307 107.13042 233.08244
211.99371 107.07899 233.92766
212.57935 107.07814 233.79602
212.94261 107.12786 232.68919
213.52631 107.12698 232.55492
214.11029 107.12608 232.41904
214.69453 107.12516 232.28154
215.27905 107.12422 232.14244
216.09869 107.07266 232.9724
216.68623 107.07169 232.82944
217.75351 106.96945 234.62384
218.58873 106.91781 235.44527
219.42915 106.86614 236.26379
220.02774 106.86507 236.11174
220.62662 106.864 235.95795
221.22583 106.8629 235.80246
221.82538 106.86179 235.64523
222.68216 106.81 236.45142
223.28485 106.80884 236.29008
224.41156 106.70633 238.05461
225.28416 106.65446 238.85158
226.16208 106.60255 239.6454
226.50684 106.65197 238.51253
227.66212 106.54933 240.26247
227.73103 106.64941 238.16634
228.62033 106.5974 238.95013
229.23587 106.59606 238.77177
229.85184 106.5947 238.59155
230.4682 106.59332 238.40952
231.08496 106.59192 238.2256
231.41315 106.64122 237.0838
232.31976 106.58906 237.85213
233.52576 106.48613 239.57152
233.5563 106.58611 237.47112
234.77313 106.48312 239.18362
235.39749 106.48158 238.98677
235.71838 106.53078 237.83664
236.34119 106.52921 237.6367
237.58223 106.42608 239.3343
238.21094 106.42445 239.1288
239.15402 106.37202 239.86942
239.78622 106.37035 239.6591
240.73779 106.31786 240.39322
241.69485 106.26534 241.12358
242.33354 106.2636 240.90546
242.97273 106.26183 240.68526
243.94136 106.20923 241.40598
244.91553 106.15659 242.12285
244.55951 106.30727 239.07095
245.19824 106.30544 238.84326
245.49857 106.35444 237.67403
245.79437 106.40344 236.50449
246.08566 106.45245 235.33469
247.41202 106.34882 236.97458
248.74901 106.24516 238.60858
249.74504 106.19234 239.30183
251.4549 106.0377 241.85863
252.11055 106.03571 241.60887
253.48511 105.93188 243.22066
253.42349 106.03171 241.10262
254.08075 106.02969 240.84608
254.73856 106.02766 240.5873
256.13556 105.92375 242.18196
257.17139 105.87075 242.84341
258.2128 105.81773 243.50047
258.50592 105.86662 242.3035
258.79443 105.91553 241.10625
259.07834 105.96447 239.90871
258.2038 106.16639 235.94597
259.24512 106.11339 236.59238
260.29205 106.06038 237.23428
73.464867 108.49294 203.18105
74.416016 108.54295 202.49895
74.976425 108.54442 202.73422
75.153702 108.49738 203.89012
75.715889 108.49888 204.12251
76.277672 108.50038 204.35295
77.589287 108.59888 202.73
77.400024 108.50338 204.80789
78.330612 108.55337 204.10471
78.520691 108.50638 205.25507
79.810341 108.60481 203.61623
80.002098 108.55783 204.76373
81.278236 108.65622 203.11612
81.114265 108.56078 205.19351
81.669701 108.56224 205.40553
81.872345 108.51526 206.55031
82.429413 108.51672 206.75955
83.333336 108.56658 206.03043
84.231796 108.61642 205.29753
84.782516 108.61784 205.49931
85.672546 108.66763 204.76001
86.219887 108.66901 204.95723
86.097298 108.5736 207.03481
87.313255 108.67174 205.34628
88.189034 108.72146 204.59529
88.73214 108.72278 204.7845
89.924286 108.82082 203.08279
91.428238 108.96719 200.4305
91.957626 108.96844 200.6102
92.169373 108.92132 201.73534
92.700455 108.92255 201.91251
92.918884 108.87541 203.03676
93.141914 108.82828 204.16096
93.984047 108.8778 203.38437
94.820847 108.92729 202.60445
95.95459 109.02507 200.86934
96.478394 109.02619 201.03497
96.704498 108.97899 202.15253
96.640335 108.88348 204.22435
96.878098 108.83628 205.34253
96.830559 108.74078 207.41646
97.942276 108.83842 205.66542
98.188889 108.79118 206.78177
99.005058 108.8405 205.98189
99.815964 108.88979 205.17892
100.34402 108.89078 205.33247
100.32161 108.79523 207.40486
101.12658 108.84447 206.59576
101.65614 108.84541 206.74532
101.91769 108.7981 207.85564
102.4491 108.79903 208.00279
103.50574 108.89642 206.22107
104.03162 108.8973 206.36378
104.55719 108.89817 206.505
105.33789 108.94726 205.67906
105.35453 108.85164 207.74918
105.88171 108.85247 207.88649
106.90471 108.94972 206.08725
106.93523 108.85408 208.15669
107.46159 108.85487 208.28954
108.95052 109.04846 204.5433
109.70483 109.09741 203.70079
109.74655 109.00174 205.76746
110.73131 109.09885 203.95026
111.24419 109.09954 204.07285
110.84286 108.90747 208.08345
111.36504 108.90816 208.20549
111.88698 108.90882 208.32611
112.4087 108.90948 208.4453
112.71146 108.86195 209.53766
113.45146 108.91075 208.67941
113.97253 108.91138 208.79433
114.49339 108.91198 208.90785
114.80504 108.86441 209.99669
115.74106 108.96132 208.15343
116.46301 109.01004 207.28448
116.37309 108.86612 210.3262
116.69611 108.81851 211.412
117.4175 108.8672 210.53889
117.74501 108.81958 211.62289
118.46118 108.86824 210.74605
118.98276 108.86874 210.84756
119.50416 108.86923 210.94772
120.02539 108.86972 211.04648
120.36417 108.82204 212.12596
120.70763 108.77437 213.20499
121.41068 108.82296 212.31761
122.10873 108.87153 211.42798
122.45657 108.82383 212.5038
122.97928 108.82425 212.59488
123.8374 108.92091 210.71529
124.52035 108.96943 209.81778
125.19832 109.01794 208.91814
125.87132 109.06644 208.01639
126.53937 109.11491 207.11253
126.89108 109.06715 208.1799
127.24751 109.01938 209.24672
127.75951 109.01972 209.32561
128.27138 109.02005 209.40318
128.78314 109.02037 209.47946
129.00757 108.92447 211.53136
129.52393 108.92477 211.60576
129.9014 108.87697 212.66798
130.41995 108.87726 212.74011
130.80444 108.82944 213.80077
131.32521 108.82971 213.87064
131.84587 108.82999 213.93916
132.49318 108.87835 213.01563
132.7626 108.78241 215.06342
133.2854 108.78265 215.12836
133.80811 108.7829 215.192
134.33072 108.78313 215.25436
134.96796 108.83146 214.32317
135.60028 108.87977 213.39015
136.11783 108.87998 213.44806
136.63531 108.88019 213.50471
137.15273 108.88039 213.56007
137.77271 108.92867 212.62064
138.38782 108.97694 211.6794
138.90021 108.97713 211.73047
138.83994 108.68877 217.7459
139.45966 108.73703 216.80132
140.16512 108.83337 214.86029
140.86092 108.92969 212.9171
141.63284 109.0741 209.97665
143.0576 109.60316 199.07088
143.70035 109.69946 197.11949
144.17622 109.69958 197.15762
144.80444 109.79586 195.20274
145.27542 109.79597 195.2382
145.74635 109.79608 195.27255
146.07927 109.70002 197.29863
146.42174 109.60396 199.32425
146.77379 109.50789 201.34933
147.07362 109.36375 204.37079
147.62537 109.41191 203.40363
148.00133 109.31583 205.42667
148.38687 109.21976 207.44904
148.78198 109.12367 209.47072
149.28622 109.12374 209.49651
149.74306 109.07573 210.51875
