ply
format ascii 1.0
comment PCL generated
element vertex 1597
property float x
property float y
property float z
element camera 0
property float view_px
property float view_py
property float view_pz
property float x_axisx
property float x_axisy
property float x_axisz
property float y_axisx
property float y_axisy
property float y_axisz
property float z_axisx
property float z_axisy
property float z_axisz
property float focal
property float scalex
property float scaley
property float centerx
property float centery
property int viewportx
property int viewporty
property float k1
property float k2
end_header
97.196091 175.96393 204.22878
96.62706 176.97813 208.10034
97.745712 176.45212 206.42236
98.578545 176.18303 205.66595
98.860046 176.42723 206.76064
99.687241 176.15849 205.99922
101.58118 174.86426 201.51988
102.38779 174.59619 200.7491
103.18909 174.32832 199.97517
103.46404 174.57323 201.05978
104.00171 174.56192 201.21262
104.02797 175.06306 203.22823
104.56999 175.05191 203.37914
105.11172 175.04088 203.52834
105.40504 175.28598 204.61017
106.19429 175.01918 203.82176
106.97827 174.75261 203.03035
107.035 175.25386 205.04485
107.33955 175.49922 206.12335
108.59158 174.72154 203.45126
108.89556 174.96716 204.5265
109.43495 174.95715 204.6626
110.65892 174.18037 201.9787
111.41615 173.91518 201.16969
111.49815 174.41681 203.17982
112.03152 174.40738 203.30826
112.78302 174.14265 202.49332
113.31339 174.13354 202.61806
113.8435 174.12456 202.74124
114.58437 173.86035 201.9193
115.11153 173.85167 202.0388
115.43234 174.09834 203.10144
115.75784 174.34506 204.16365
116.28919 174.33667 204.27966
116.6216 174.58354 205.34041
117.15494 174.57535 205.45387
118.07562 174.05719 203.6712
118.41226 174.30435 204.72842
118.94246 174.29657 204.83684
119.8453 173.77902 203.04611
120.18619 174.02649 204.09984
120.53178 174.27399 205.15305
121.2402 174.01187 204.30521
121.59029 174.25955 205.3564
121.94507 174.50729 206.40703
122.30455 174.75508 207.45708
122.838 174.74823 207.55447
123.37126 174.74147 207.65039
124.23311 174.22552 205.8389
124.76111 174.21909 205.931
125.44843 173.95816 205.06787
125.81657 174.20654 206.11087
126.18944 174.45497 207.15323
126.71919 174.44896 207.23993
127.39851 174.18857 206.36978
127.92548 174.1828 206.45322
128.59715 173.92273 205.57903
129.12138 173.91721 205.65921
129.64546 173.9118 205.73799
129.89432 174.41522 207.72992
130.55807 174.15565 206.84895
131.08415 174.15054 206.92383
131.61009 174.14557 206.99733
132.26369 173.88641 206.11073
132.91229 173.62741 205.22208
133.31003 173.87701 206.25002
133.59201 174.38086 208.23679
134.11974 174.37639 208.30359
134.76297 174.11784 207.40871
135.40123 173.85945 206.51187
136.03452 173.6012 205.61307
136.66281 173.34309 204.71231
137.18025 173.3392 204.77101
137.59409 173.58948 205.78999
137.91162 174.09384 207.77002
138.3374 174.34424 208.78757
138.86414 174.34067 208.84181
139.29701 174.5912 209.85736
139.73463 174.84181 210.87199
140.4438 174.33058 208.99638
141.14317 173.81952 207.11844
141.58054 174.0704 208.12897
142.18597 173.81352 207.211
142.62804 174.06458 208.21922
142.92128 174.82352 211.15486
143.30336 175.32857 213.12595
143.91092 175.07205 212.2027
144.44403 175.06952 212.24245
144.90999 175.32094 213.24576
145.51007 175.06476 212.31786
146.043 175.0625 212.3535
146.6357 174.80653 211.42236
147.05127 175.3121 213.3862
147.69643 174.80252 211.48647
148.27928 174.54688 210.55069
148.90741 174.03754 208.64729
149.33488 174.54344 210.60638
149.95323 174.03433 208.6998
150.3903 174.54037 210.65668
150.91795 174.53899 210.67981
151.36948 175.04518 212.63463
151.97314 174.53647 210.722
152.4675 174.78908 211.70779
153.02823 174.5343 210.75882
153.49899 175.04083 212.70894
154.03131 175.03996 212.72411
154.54007 175.29291 213.70491
155.09587 175.03851 212.75038
155.60945 175.29163 213.72858
156.16039 175.03741 212.77126
156.69261 175.037 212.77965
157.21341 175.29039 213.75389
157.74805 175.29016 213.75961
158.26949 175.79744 215.69849
158.80894 175.79738 215.70149
159.34666 176.05113 216.67043
159.89055 176.81239 219.57253
160.44586 177.32004 221.50594
160.98886 176.81293 219.56889
161.53802 176.81332 219.56496
162.0872 176.81383 219.55965
162.59813 176.05327 216.65135
163.14008 176.05394 216.64334
163.71725 176.56216 218.56821
164.24406 176.3093 217.59027
164.76607 176.05652 216.61105
165.30812 176.05756 216.5975
165.87747 176.31244 217.5495
166.42201 176.31367 217.53311
166.96657 176.315 217.51538
167.61479 177.07771 220.39618
168.16669 177.07924 220.37535
168.71863 177.08087 220.35313
169.18701 176.57503 218.39679
169.73421 176.57683 218.37196
170.18817 176.07112 216.41345
170.82875 176.58072 218.3181
171.42758 176.83662 219.25494
172.13914 177.6003 222.1216
172.6963 177.60262 222.08919
173.31227 177.85889 223.02078
173.81081 177.60756 222.02007
174.24095 177.10243 220.05305
174.72751 176.85124 219.05026
175.34619 177.10791 219.97598
175.75717 176.60298 218.00606
176.37843 176.85986 218.92877
177.08035 177.37082 220.81393
177.63574 177.37401 220.76877
178.2718 177.63129 221.68602
178.82982 177.6347 221.63777
179.47334 177.89223 222.55148
180.03397 177.89587 222.50012
180.50441 177.6456 221.48427
181.06282 177.64944 221.43021
181.8116 178.1615 223.29967
182.47263 178.41966 224.20442
183.03865 178.42387 224.14522
183.60478 178.42819 224.08449
184.17104 178.43262 224.02229
184.63013 178.18301 222.99742
185.08447 177.93347 221.97159
185.75839 178.19238 222.8661
186.4373 178.45145 223.75858
187.0042 178.45644 223.68887
187.57123 178.46152 223.61766
188.13841 178.46674 223.54497
188.58142 178.21777 222.51166
189.14647 178.22319 222.43625
189.58246 177.97438 221.40088
190.40863 178.48874 223.239
191.11063 178.74893 224.11646
191.95416 179.26372 225.9491
192.94658 180.03317 228.73582
193.67104 180.29395 229.60544
194.25674 180.30042 229.5164
194.98888 180.56152 230.3817
195.57739 180.56827 230.28909
195.8638 180.06598 228.28458
196.60139 180.32751 229.14429
196.87598 179.82532 227.13853
197.45795 179.83249 227.04073
198.20102 180.09447 227.89481
198.78583 180.10191 227.79333
199.53668 180.36429 228.64296
200.46092 180.88162 230.44229
201.05374 180.88956 230.33461
201.4736 180.64278 229.27396
202.06444 180.65096 229.16342
202.29935 180.14941 227.15042
202.88574 180.15779 227.03752
203.28938 179.91132 225.9735
204.43011 180.68506 228.70471
205.02216 180.69392 228.58583
205.80479 180.95804 229.41327
206.78542 181.47754 231.18549
207.58087 181.74213 232.00697
208.18381 181.75171 231.87924
208.787 181.76144 231.74979
209.39047 181.77132 231.61856
209.78912 181.52599 230.54077
210.18314 181.28072 229.46233
210.78253 181.29095 229.32697
211.38225 181.30132 229.18985
212.41222 181.82288 230.93616
213.45239 182.34476 232.67841
214.0629 182.35574 232.53365
214.67371 182.36688 232.38707
215.7346 182.88959 234.11919
215.8963 182.3896 232.08849
216.27826 182.1454 230.99744
217.12021 182.41293 231.78259
217.49786 182.16893 230.6891
218.10817 182.18091 230.53215
219.43808 182.961 233.18283
220.29875 183.22948 233.95604
220.67532 182.98602 232.85573
221.29446 182.99873 232.68932
221.91397 183.01161 232.52103
222.28166 182.76839 231.41769
223.40875 183.2941 233.11115
224.03183 183.30746 232.9364
224.6553 183.32097 232.75969
225.27911 183.33463 232.58104
226.43263 183.86143 234.25963
226.79506 183.6189 233.14671
228.23148 184.40292 235.74586
229.41113 184.93071 237.41113
230.87582 185.71561 239.99799
231.52446 185.73061 239.80063
232.73282 186.25943 241.45137
233.38725 186.27481 241.24829
234.04208 186.2903 241.04309
234.12292 185.79187 238.99033
235.06323 186.06458 239.70444
235.71674 186.08037 239.49368
236.37064 186.09628 239.28084
237.0249 186.11229 239.06581
237.67957 186.12842 238.84868
239.24146 186.91684 241.38281
239.59962 186.67586 240.24185
240.87512 187.20743 241.84872
241.8512 187.48175 242.5347
242.52032 187.4986 242.30241
243.5047 187.77325 242.98134
244.49449 188.04807 243.65627
245.16971 188.06523 243.41548
246.16776 188.34033 244.08322
247.4962 188.8736 245.65674
248.17996 188.89104 245.40643
248.53394 188.65039 244.2459
248.88312 188.40961 243.08496
250.23297 188.94341 244.64191
250.58014 188.70251 243.4774
250.92245 188.46149 242.31258
252.28821 188.99554 243.85693
253.319 189.2713 244.49292
254.35504 189.54712 245.12465
255.0459 189.56433 244.85193
256.44275 190.09882 246.37529
256.78339 189.85716 245.19781
258.19308 190.39166 246.71155
258.17075 189.89075 244.63448
259.59058 190.42514 246.13956
260.28931 190.44157 245.85023
262.09244 191.23491 248.23744
261.6864 190.47371 245.26485
262.01147 190.23021 244.07806
262.70706 190.24548 243.78099
264.15903 190.77899 245.259
264.47821 190.53436 244.06793
266.32559 191.32677 246.42264
268.18774 192.11905 248.76859
267.73383 191.35431 245.80069
268.82816 191.62689 246.36969
269.92691 191.89905 246.9344
69.499733 179.16867 201.75194
69.684303 179.42099 202.89359
69.874458 179.67279 204.03589
70.45668 179.66241 204.29439
71.423325 179.39005 203.66573
71.622414 179.6405 204.80637
72.584778 179.36752 204.1721
73.918816 178.83282 202.6451
73.74749 179.34369 204.67151
74.700546 179.06999 204.02762
75.64875 178.79614 203.37978
75.859451 179.04468 204.51421
76.439095 179.03171 204.75478
77.018822 179.01852 204.99353
77.239906 179.26624 206.12663
77.822243 179.25266 206.3627
79.465477 178.45607 203.90215
80.391289 178.18152 203.23218
80.963409 178.1678 203.45862
82.919617 177.1109 200.07816
84.168449 176.57584 198.49245
84.384125 176.82289 199.61061
85.281616 176.5486 198.92056
86.509827 176.01385 197.32155
86.394196 176.52116 199.34131
86.288467 177.02823 201.36308
87.177689 176.754 200.66277
87.735832 176.74017 200.86768
87.970459 176.98657 201.98058
88.851433 176.71257 201.272
90.045349 176.17862 199.64813
90.281784 176.42502 200.75642
90.836197 176.41138 200.95128
91.079666 176.65767 202.05858
91.327881 176.9039 203.16582
91.886513 176.89029 203.35692
93.051109 176.3573 201.71246
93.904732 176.08429 200.98053
94.753044 175.81148 200.2451
95.004852 176.05792 201.34499
95.847542 175.78539 200.60435
95.522598 176.55072 203.54437
95.212395 177.31578 206.48746
95.773613 177.3027 206.66568
96.617569 177.03047 205.91867
96.333969 177.7952 208.86507
97.455338 177.26407 207.18954
98.290833 176.99234 206.43488
99.121002 176.72083 205.67693
99.945862 176.44954 204.9157
101.30155 175.66069 202.29533
101.84525 175.6488 202.4549
102.38863 175.63705 202.61278
102.9317 175.62541 202.76894
103.47446 175.61389 202.92343
103.76131 175.86113 204.00778
104.55908 175.59122 203.22734
105.10094 175.58006 203.37677
105.64249 175.56905 203.52455
106.18373 175.55815 203.67067
106.96789 175.289 202.88019
106.78395 176.05341 205.8291
107.32928 176.04279 205.97154
108.34583 175.51582 204.23863
108.41908 176.02194 206.25154
108.96354 176.01173 206.38908
110.19272 175.22734 203.70872
111.18092 174.70142 201.96245
111.48882 174.94981 203.03204
112.02231 174.94029 203.16071
112.55553 174.93089 203.28777
113.08849 174.92163 203.41327
113.6212 174.91249 203.5372
114.36469 174.64569 202.71674
115.10301 174.3791 201.89357
115.63004 174.37042 202.01173
115.95316 174.61955 203.07291
116.48218 174.61108 203.18854
116.81221 174.86035 204.24826
117.34321 174.85211 204.3614
117.87398 174.84398 204.47299
118.21316 175.09348 205.53024
118.74594 175.08556 205.6393
119.46497 174.82037 204.79872
119.99485 174.81274 204.9043
120.52453 174.80525 205.00836
121.23311 174.54056 204.16135
121.58327 174.79062 205.21201
121.93814 175.04071 206.26213
122.29771 175.29088 207.31166
122.83127 175.28394 207.40923
123.53151 175.01994 206.55342
124.39108 174.49904 204.74297
124.91676 174.49252 204.83479
125.76131 173.97203 203.01886
126.12465 174.22284 204.06053
126.49272 174.47371 205.10155
126.86549 174.72464 206.14195
127.54251 174.46173 205.2722
128.06717 174.45592 205.35536
128.73653 174.19333 204.48157
129.116 174.44463 205.51741
129.78017 174.18231 204.64006
129.88908 174.9474 207.58705
130.55298 174.68532 206.70685
130.94647 174.93689 207.73917
131.73546 174.41833 205.89777
132.25894 174.41341 205.96959
132.90765 174.1519 205.08173
133.18254 174.66054 207.06773
133.46701 175.1692 209.05362
133.99727 175.16464 209.1208
134.5274 175.16019 209.18657
135.17065 174.89925 208.29108
136.03049 174.12531 205.47327
136.65892 173.86469 204.57326
137.17645 173.86075 204.63203
137.48686 174.36992 206.61145
137.8069 174.87912 208.59052
138.13654 175.38837 210.56923
138.76445 175.12827 209.66232
139.19983 175.38116 210.67754
139.82269 175.12131 209.76735
140.44063 174.86156 208.85533
141.22662 174.08916 206.0161
141.57756 174.59885 207.98872
142.26477 174.0831 206.10835
142.62524 174.59294 208.07913
142.91855 175.35916 211.01288
143.3007 175.86908 212.98271
143.90837 175.61008 212.06017
144.37204 175.86382 213.06409
144.90761 175.86133 213.10269
145.50781 175.60266 212.17551
145.97856 175.85666 213.1758
146.51395 175.85448 213.21027
146.99185 176.10863 214.20824
147.63954 175.59413 212.31001
148.27751 175.07976 210.40985
148.90573 174.56549 208.50777
149.33328 175.07626 210.46562
149.99704 174.30603 207.59482
150.38889 175.07317 210.51601
150.91663 175.07175 210.53915
151.40628 175.3266 211.52682
151.972 175.06918 210.58141
152.46643 175.32422 211.56654
152.99646 175.32318 211.58441
153.49811 175.57838 212.56711
154.00455 175.83368 213.54858
154.53935 175.83289 213.56248
155.09526 175.57602 212.60861
155.6463 175.31927 211.65331
156.19249 175.06259 210.69652
156.69226 175.57449 212.63791
157.21313 175.83032 213.61153
157.74786 175.83009 213.61725
158.27599 176.08609 214.58821
158.80896 176.34219 215.55786
159.35027 176.08607 214.59286
159.88873 176.59851 216.52641
160.43689 177.11104 218.45854
160.97821 176.85521 217.48943
161.53056 177.11179 218.45215
162.08775 177.36844 219.41342
162.61153 176.85672 217.4736
163.17117 177.11357 218.43204
163.73569 177.37051 219.38904
164.28503 177.37141 219.37811
164.78952 176.86003 217.43303
165.35893 177.11728 218.38574
165.87866 176.86224 217.40443
166.45299 177.11969 218.35422
167.0322 177.37724 219.30243
167.65082 177.89111 221.2151
168.16827 177.63646 220.22824
168.79907 178.15054 222.13762
169.31419 177.89609 221.14806
169.78029 177.38547 219.19164
170.2834 177.13116 218.19977
170.87985 177.38943 219.13747
171.42972 177.39156 219.10823
172.03357 177.65005 220.04271
172.58598 177.65237 220.01053
173.25598 178.1674 221.90656
173.87456 178.42627 222.83589
174.30721 177.91629 220.86995
174.92834 178.17537 221.79625
175.55441 178.43457 222.72078
175.90186 177.66847 219.78754
176.52808 177.92789 220.7092
177.15923 178.18741 221.62901
177.56084 177.67789 219.65677
178.27518 178.19403 221.53671
178.91629 178.45393 222.45135
179.56236 178.71397 223.36415
180.03766 178.46123 222.34993
180.50818 178.20856 221.33466
180.97397 177.95596 220.31844
181.72046 178.47296 222.18672
182.37918 178.7336 223.09099
183.04289 178.9944 223.99327
183.71158 179.25536 224.8936
184.38524 179.51645 225.79185
184.74197 179.00787 223.8064
184.97939 178.24274 220.86034
185.651 178.50415 221.75441
186.32761 178.7657 222.64638
186.77515 178.51405 221.61751
187.33742 178.51918 221.5468
188.14365 179.03787 223.39214
188.46242 178.52977 221.40092
188.89836 178.27847 220.36763
189.588 178.54083 221.24902
190.41432 179.0602 223.08572
190.98238 179.06606 223.00528
191.96019 179.84268 225.79361
192.95279 180.61958 228.57822
193.39458 180.36905 227.53496
194.11937 180.63249 228.40221
194.99551 181.15311 230.22238
195.43541 180.90292 229.1747
195.56827 180.13873 226.21725
196.45476 180.65985 228.03108
196.72696 180.1528 226.0269
197.30661 180.16003 225.92932
198.04739 180.42455 226.78304
198.6299 180.43207 226.68184
199.37846 180.69695 227.53105
200.13214 180.96202 228.37775
200.72018 180.97 228.27081
201.30847 180.97812 228.1622
201.89697 180.98639 228.05199
202.3076 180.73738 226.99036
203.07468 181.0033 227.82654
203.84692 181.26942 228.66011
204.80978 181.79327 230.43935
205.40688 181.80234 230.31932
206.19461 182.06911 231.14488
206.98752 182.33612 231.96776
207.5903 182.34567 231.84154
208.39114 182.61307 232.65938
209.19717 182.88069 233.47441
209.80573 182.89076 233.34192
210.20941 182.64319 232.26353
210.81607 182.65352 232.12804
211.21294 182.4061 231.04774
211.81772 182.41669 230.90929
212.63783 182.68539 231.71095
213.68069 183.21239 233.451
214.07385 182.96548 232.36469
214.68481 182.97675 232.2179
215.74594 183.50452 233.94838
216.1351 183.25797 232.85777
216.28975 182.75319 230.8282
217.36424 183.28163 232.55013
217.74448 183.03534 231.45642
218.35742 183.0475 231.29861
219.4503 183.57675 233.0105
220.31117 183.84782 233.78278
220.68782 183.60202 232.68286
221.30711 183.61488 232.5162
221.92676 183.6279 232.34763
222.29456 183.38234 231.24474
223.16714 183.65436 232.00476
223.78789 183.6678 231.83043
224.92842 184.19916 233.51483
225.03047 183.69513 231.47597
226.18173 184.22699 233.15358
226.80893 184.24109 232.96999
227.97594 184.77356 234.63927
229.42554 185.56557 237.23026
231.43996 186.87648 241.66652
231.81653 186.63245 240.54219
233.02763 187.16644 242.19044
233.68469 187.18199 241.98627
234.34216 187.19769 241.77997
234.71277 186.95398 240.64952
235.3685 186.96985 240.43979
236.02463 186.98581 240.22792
236.38634 186.7422 239.0943
236.74341 186.49858 237.96024
237.09581 186.25491 236.82568
238.95529 187.31067 240.27609
239.61581 187.32721 240.05263
240.89151 187.86386 241.65773
242.17764 188.40083 243.25716
243.16179 188.67798 243.93727
243.52141 188.43494 242.78792
244.1938 188.45206 242.54994
244.86653 188.46924 242.30975
245.53958 188.48645 242.06735
246.86311 189.0246 243.64091
247.54181 189.04196 243.39212
248.22083 189.05936 243.14114
248.90009 189.07675 242.88789
250.25003 189.61554 244.44304
250.59708 189.37219 243.27896
250.2587 188.60699 240.30777
251.96227 189.40681 242.75473
252.64511 189.42401 242.48924
254.02396 189.96323 244.02242
254.71216 189.98036 243.75043
256.81241 191.04205 247.0699
256.7999 190.5367 244.99451
258.2095 191.07611 246.5065
258.18686 190.57016 244.43073
259.96976 191.37085 246.82838
259.93939 190.86429 244.75125
261.7399 191.66492 247.13713
262.07242 191.41922 245.94987
263.1463 191.69644 246.54272
263.09744 191.18832 244.46431
264.5517 191.72667 245.93962
264.49207 191.21759 243.86133
265.95575 191.75537 245.32805
267.42905 192.29288 246.78821
267.35794 191.78229 244.70818
268.05823 191.79501 244.39523
269.15143 192.06923 244.96147
69.491241 179.73569 201.57881
70.066895 179.72653 201.83826
70.254044 179.98112 202.97868
71.219864 179.70691 202.35246
71.413055 179.96056 203.49187
72.756248 179.4216 201.97426
74.089729 178.88245 200.45055
75.413429 178.34319 198.92079
75.23159 178.85938 200.94148
76.174324 178.58356 200.29414
76.374451 178.83516 201.42546
76.579811 179.0864 202.55714
76.426537 179.60098 204.58253
77.006073 179.58789 204.82143
77.226936 179.83817 205.95393
78.165321 179.56116 205.29375
79.452354 179.02068 203.73212
80.729256 178.48029 202.1646
81.647362 178.20335 201.49071
82.906448 177.66318 199.91248
83.81176 177.38634 199.22995
84.370857 177.3727 199.44614
85.268364 177.09592 198.75702
86.160652 176.81921 198.06418
86.714294 176.80553 198.27292
86.605911 177.3176 200.29247
87.164253 177.30373 200.49945
87.722382 177.28989 200.70464
88.280304 177.27602 200.90794
89.158821 176.99954 200.19945
90.350357 176.46063 198.5764
90.584236 176.70953 199.68335
91.136162 176.69588 199.87755
91.377083 176.94466 200.98352
91.31456 177.45567 203.00385
91.567528 177.70425 204.11053
92.734818 177.16617 202.46863
92.989731 177.41479 203.57251
93.845703 177.13924 202.84061
94.696365 176.86386 202.10521
96.127991 176.06477 199.5274
95.800453 176.83751 202.46471
95.775787 177.34814 204.48398
96.046463 177.59686 205.58275
96.321831 177.84555 206.68134
96.321289 178.3559 208.70314
97.442863 177.81969 207.02931
98.278519 177.54538 206.27563
99.381973 177.0098 204.59288
100.20449 176.73598 203.83189
101.55795 175.93962 201.21315
101.83363 176.18903 202.30023
102.64027 175.91588 201.52963
103.18095 175.90419 201.68535
103.97951 175.63144 200.90921
104.00578 176.14226 202.92253
105.05441 175.60875 201.2108
105.34071 175.85861 202.29134
105.3835 176.36943 204.30446
105.92735 176.35837 204.45148
106.9574 175.82571 202.72836
106.77344 176.59743 205.67542
107.31889 176.58672 205.81812
108.57146 175.79398 203.1506
108.8756 176.04431 204.2249
109.64608 175.77347 203.42397
110.41135 175.50282 202.62016
111.3973 174.97188 200.87485
111.47938 175.48315 202.88263
111.79202 175.73398 203.95137
112.32784 175.72443 204.07925
113.29544 175.19431 202.32346
113.61224 175.4454 203.38863
113.93373 175.69656 204.45338
114.88577 175.16708 202.68947
115.41538 175.15826 202.80838
115.53735 175.66986 204.81343
116.07141 175.66121 204.93034
116.60523 175.65269 205.04572
117.13881 175.64432 205.15955
117.67216 175.63605 205.27184
118.01389 175.88785 206.32906
118.54926 175.87981 206.43881
119.27088 175.61203 205.59958
119.80334 175.60428 205.70581
120.3356 175.59665 205.81052
121.22591 175.0696 204.0159
121.57616 175.32202 205.06607
122.10535 175.31479 205.16582
122.29077 175.82703 207.16469
122.9938 175.56033 206.31161
123.69174 175.29384 205.45619
124.54904 174.76796 203.64682
125.07239 174.7614 203.73834
125.75511 174.49544 202.87595
125.80432 175.26758 205.82283
126.48669 175.00186 204.95757
126.85956 175.25516 205.99742
127.38692 175.24911 206.08253
128.06148 174.98384 205.21175
128.87589 174.45938 203.38391
129.11052 174.9724 205.37407
129.77484 174.70755 204.49748
130.15897 174.9614 205.53067
130.68295 174.95607 205.60686
131.20682 174.95085 205.68161
131.73053 174.94574 205.75496
132.25412 174.94073 205.82693
132.77756 174.93585 205.89748
133.05493 175.44931 207.8826
133.22137 176.22189 210.82587
133.87469 175.95815 209.93517
134.40738 175.95358 210.00131
135.05318 175.69012 209.10687
135.80479 175.16779 207.25095
136.4382 174.90462 206.35223
136.85474 175.15956 207.37173
137.27603 175.41455 208.39035
137.70209 175.66965 209.40816
138.13289 175.92477 210.42505
138.76091 175.66217 209.51888
139.19638 175.91748 210.53351
139.91074 175.39624 208.66249
140.43739 175.39288 208.71278
141.13702 174.87192 206.8376
141.49045 175.38646 208.80922
142.18021 174.86575 206.93042
142.54318 175.38043 208.90015
142.91579 175.89514 210.86932
143.37241 176.15112 211.87483
144.04973 175.63091 209.98959
144.43909 176.14583 211.95599
145.03946 175.88458 211.03084
145.63492 175.62344 210.104
146.10091 175.87988 211.10338
146.69139 175.61896 210.17349
147.10468 176.13426 212.13466
147.74765 175.61485 210.2375
148.32828 175.35426 209.30293
148.85387 175.35245 209.33141
149.33165 175.60942 210.32333
149.95021 175.09047 208.4194
150.34454 175.8649 211.33876
150.8343 176.1221 212.32719
151.29083 176.63803 214.27969
151.86392 176.37813 213.33522
152.39891 176.37695 213.35461
152.93388 176.37587 213.37263
153.44044 176.6335 214.35486
154.02969 176.11537 212.43895
154.56216 176.11458 212.45282
155.09462 176.11388 212.4653
155.62706 176.11327 212.47646
156.17577 175.85414 211.52039
156.67804 176.37091 213.46051
157.20143 176.62918 214.43353
157.73866 176.62894 214.43929
158.26271 177.146 216.37558
158.80478 177.14594 216.37865
159.3486 176.88737 215.41431
159.88959 177.40469 217.34653
160.43408 177.40494 217.34543
160.97859 177.40524 217.34293
161.53102 177.66428 218.30498
162.08832 177.92339 219.26559
162.59941 177.14818 216.36116
163.17192 177.66609 218.28487
163.73653 177.92551 219.24118
164.28596 177.92639 219.23022
164.81299 177.66876 218.25217
165.38492 177.92847 219.20413
165.87987 177.4124 217.2578
166.42459 177.41367 217.24139
167.00146 177.67368 218.189
167.61778 178.19244 220.10042
168.20685 178.45268 221.0448
168.84018 178.97168 222.95273
169.39963 178.97348 222.92873
169.87065 178.45802 220.97336
170.37869 178.20131 219.98186
170.88193 177.94467 218.9892
171.4319 177.94684 218.95995
171.98192 177.9491 218.92928
172.532 177.95145 218.89719
173.19971 178.47139 220.79202
173.75476 178.47395 220.75677
174.18265 177.95912 218.79243
174.733 177.96188 218.75467
175.3519 178.22351 219.67897
175.83392 177.9677 218.67488
176.45784 178.22957 219.59596
177.16243 178.75041 221.4782
177.5641 178.23602 219.50719
178.27858 178.75713 221.38574
178.83679 178.76065 221.33736
179.3951 178.76428 221.28751
179.86562 178.50912 220.27429
180.42169 178.51294 220.22174
180.97787 178.51688 220.16774
181.72452 179.03882 222.03467
182.28577 179.043 221.97723
182.94717 179.3063 222.87904
183.61356 179.56973 223.77884
184.28491 179.83331 224.67659
184.74661 179.57896 223.65257
185.09383 179.0656 221.66798
185.76801 179.32954 222.56097
186.33255 179.33453 222.49287
186.78018 179.08051 221.46455
187.34258 179.08569 221.39377
188.02704 179.35019 222.27957
188.4678 179.09644 221.24767
188.90382 178.84276 220.21487
189.72285 179.36691 222.05264
190.4201 179.63199 222.93076
190.98828 179.63794 222.8502
191.82973 180.16267 224.68028
192.8201 180.94701 227.46315
193.1181 180.43469 225.46544
194.12592 181.21945 228.24257
194.85593 181.48563 229.10667
195.29347 181.23306 228.05992
195.87755 181.24005 227.96622
196.46179 181.24718 227.87088
196.73407 180.73532 225.86789
197.47238 181.00223 226.72279
198.21579 181.26933 227.57526
198.63742 181.01733 226.5217
199.38615 181.28477 227.37009
199.97166 181.29269 227.26503
200.5574 181.30075 227.15837
200.97012 181.04913 226.10004
201.72954 181.31726 226.94009
202.31596 181.32573 226.82851
203.4444 182.114 229.56104
203.85562 181.86292 228.49655
205.00421 182.65178 231.22189
205.41592 182.40099 230.15402
206.01341 182.41029 230.03207
206.61116 182.41975 229.90843
207.59985 182.9496 231.67429
208.20306 182.95943 231.54614
209.20709 183.48981 233.30537
210.01852 183.76025 234.1167
210.42477 183.51035 233.03819
211.24171 183.78119 233.84488
211.64362 183.53149 232.76392
212.04088 183.28189 231.68231
212.86366 183.55325 232.48248
213.69168 183.82486 233.27972
214.30496 183.83615 233.13393
214.91853 183.8476 232.98628
216.20735 184.64111 235.65338
216.37411 184.13162 233.62375
216.99115 184.14357 233.46997
217.60852 184.15567 233.31436
218.22623 184.16792 233.15688
218.84427 184.18033 232.99753
219.94235 184.71475 234.70645
220.56606 184.72754 234.54201
220.94528 184.47946 233.44189
221.81453 184.7536 234.2074
222.43929 184.76686 234.03719
222.81213 184.51907 232.93335
223.9447 185.05505 234.62204
224.57306 185.06879 234.44531
225.46156 185.34406 235.19627
225.56862 184.8353 233.15707
226.72513 185.37236 234.83154
227.09021 185.12521 233.71877
228.52972 185.92441 236.31229
229.71234 186.46246 237.97336
231.45493 187.52426 241.47981
231.83156 187.27789 240.35587
233.04291 187.81696 242.00235
233.98239 188.09454 242.72078
234.64249 188.11041 242.51335
235.01566 187.86441 241.38252
235.67401 187.88046 241.17166
236.33275 187.89661 240.95866
236.40216 187.3885 238.90576
236.75928 187.14252 237.77211
237.11169 186.89647 236.63794
238.9715 187.96228 240.08513
239.63211 187.97891 239.86136
241.21545 188.78314 242.37932
241.88434 188.80011 242.14854
243.49109 189.60504 244.65425
243.53818 189.09694 242.59239
244.52818 189.37691 243.26523
245.20348 189.39423 243.02383
245.55646 189.14867 241.87086
246.55496 189.42892 242.53427
247.55884 189.70929 243.19356
247.90759 189.46364 242.03575
248.91705 189.74414 242.68869
250.26709 190.28793 244.24207
250.61404 190.04214 243.07846
250.61575 189.53279 241.01183
251.63618 189.81335 241.65196
252.31641 189.83047 241.38718
254.04068 190.63812 243.81926
254.72876 190.65521 243.54701
256.8291 191.72682 246.86324
257.5275 191.74388 246.58244
258.58398 192.02454 247.19499
258.20288 191.24973 244.22487
259.98575 192.05779 246.62006
259.22351 191.01819 242.75923
261.01883 191.82602 245.14476
262.08755 192.10576 245.741
262.78778 192.12115 245.44363
263.11185 191.87201 244.25592
264.56583 192.41512 245.72957
264.50571 191.90086 243.65273
265.58551 192.179 244.23293
266.66989 192.45677 244.80885
266.98169 192.20528 243.61523
268.07001 192.48212 244.18494
269.16266 192.75848 244.75044
69.48307 180.30261 201.40407
69.666588 180.56049 202.54413
69.855751 180.81778 203.68489
71.210274 180.27469 202.17769
72.171173 179.99791 201.54836
73.12748 179.72083 200.91519
74.45816 179.17699 199.39198
75.402596 178.89941 198.75002
74.846367 179.68713 201.65762
75.41993 179.67526 201.90167
75.993721 179.6631 202.14398
76.201317 179.9169 203.27609
76.05024 180.43652 205.30115
77.354767 179.89127 203.75394
77.572845 180.14418 204.88484
78.508583 179.86484 204.22455
79.439301 179.58543 203.56035
80.36496 179.306 202.89227
80.588165 179.55817 204.01787
81.854843 179.01288 202.44437
83.111343 178.46771 200.86502
83.67543 178.45395 201.08336
84.916542 177.909 199.49449
85.811371 177.62975 198.80357
86.701012 177.35056 198.1089
86.261482 178.13295 201.03276
86.822319 178.11902 201.24095
87.382965 178.10507 201.44728
87.943405 178.09113 201.65178
88.824516 177.81204 200.94518
89.700356 177.53311 200.23494
90.255074 177.51932 200.43211
90.809555 177.50554 200.62747
91.674568 177.22694 199.9082
91.917732 177.47813 201.01276
92.165657 177.72925 202.11723
93.63134 176.92154 199.55997
93.878723 177.17278 200.66081
94.429062 177.15938 200.84447
95.274818 176.88156 200.10843
95.822067 176.86838 200.28772
95.496948 177.64842 203.22389
95.474762 178.16388 205.24277
96.033646 178.15065 205.42073
96.309052 178.40173 206.51886
96.589157 178.6528 207.61674
97.430283 178.37567 206.86736
97.990433 178.36278 207.03891
99.369759 177.55811 204.43361
100.19244 177.28171 203.6736
101.27802 176.74165 201.9838
101.82193 176.72957 202.14388
102.89191 176.19009 200.44626
103.16953 176.44203 201.5302
103.96824 176.1667 200.75502
103.99452 176.68237 202.76715
105.04337 176.1438 201.0571
105.32976 176.39601 202.13715
105.6208 176.64824 203.2169
106.16231 176.63712 203.36346
106.94679 176.36279 202.57487
107.00362 176.87852 204.58585
107.3084 177.13098 205.66295
108.32539 176.59389 203.93324
108.63207 176.84654 205.00771
109.17432 176.83615 205.14505
109.9447 176.56284 204.34341
110.70987 176.28973 203.53891
111.24635 176.27982 203.67018
111.56155 176.53294 204.73901
112.09996 176.52324 204.86769
113.2863 175.72522 202.17372
113.81679 175.71591 202.29749
114.13589 175.96947 203.36118
115.08568 175.435 201.59828
115.61295 175.42612 201.71683
115.52878 176.20517 204.66327
116.26423 175.93385 203.83669
116.79572 175.92528 203.95171
117.32697 175.91682 204.06519
117.66409 176.17094 205.12241
118.19733 176.16272 205.23337
118.73035 176.1546 205.3428
119.44969 175.88429 204.50391
119.79575 176.13878 205.55708
120.50975 175.86877 204.7142
121.03947 175.86121 204.81708
121.39226 176.11597 205.86719
121.92401 176.10861 205.96756
122.28375 176.36349 207.01605
122.81757 176.35637 207.11391
123.5181 176.08728 206.25975
124.54251 175.29434 203.50137
125.06596 175.28769 203.59303
125.74883 175.0192 202.73148
125.95522 175.53668 204.72424
126.32588 175.79227 205.76462
126.70128 176.04791 206.80434
127.38101 175.77992 205.93658
128.05569 175.5121 205.0666
128.72534 175.24445 204.19441
129.24747 175.23872 204.2746
129.76944 175.23312 204.35336
130.15364 175.48935 205.386
130.54257 175.74564 206.41794
131.20172 175.47865 205.53717
131.59525 175.73512 206.56697
132.37709 175.20679 204.72604
132.77278 175.46346 205.75336
133.1732 175.72017 206.77991
133.45782 176.23853 208.76334
133.98828 176.23383 208.83073
134.40294 176.49075 209.85493
134.93559 176.48625 209.9198
135.6898 175.95892 208.06557
136.32576 175.69324 207.16792
136.63884 176.21198 209.1465
137.16862 176.20793 209.20543
137.59718 176.46538 210.22289
138.0305 176.7229 211.23947
138.66107 176.45776 210.33429
139.09904 176.71545 211.34859
139.81598 176.18924 209.4792
140.43413 175.92451 208.56865
141.04733 175.65991 207.65625
141.48738 175.918 208.66524
142.25894 175.13109 205.82605
142.5403 175.9119 208.75632
142.98981 176.17023 209.76201
143.44409 176.42863 210.76672
144.04713 176.16469 209.84526
144.43657 176.68448 211.81039
145.03705 176.42075 210.88599
145.56789 176.4183 210.923
146.09868 176.41597 210.9586
146.68927 176.15257 210.02942
147.10263 176.67274 211.98933
147.6907 176.40955 211.05727
148.27386 176.14647 210.12354
148.80196 176.14464 210.15221
149.28226 176.40399 211.1436
149.90334 175.88013 209.24118
150.34306 176.40079 211.19435
150.87341 176.39932 211.2177
151.28954 177.18121 214.13335
151.82707 177.17992 214.15424
152.36458 177.17873 214.17375
152.87126 177.43869 215.15671
153.38275 177.69873 216.13841
154.00291 176.91464 213.25903
154.5379 176.91382 213.27298
155.07286 176.9131 213.28554
155.62651 176.65143 212.3316
156.17531 176.38986 211.37622
156.69153 176.65048 212.34984
157.22403 176.65013 212.35689
157.75652 176.6499 212.36259
158.28241 176.91078 213.33224
158.81313 177.17177 214.30057
159.3522 176.91077 213.33688
159.88844 177.43298 215.26781
160.42819 177.43321 215.26669
160.96796 177.43353 215.26422
161.51564 177.69499 216.22562
162.06819 177.95656 217.18561
162.60007 177.69614 216.21371
163.18787 178.48001 219.10129
163.7726 179.00293 221.02202
164.30695 178.74278 220.04584
164.83647 178.48273 219.06839
165.38606 178.48384 219.05463
165.90839 178.22395 218.07451
166.45563 178.22525 218.05797
167.03502 178.48773 219.00484
167.65387 179.01143 220.91484
168.24545 179.27414 221.85843
168.84193 179.53696 222.80042
169.40147 179.53877 222.77634
169.87257 179.01845 220.82227
170.33403 178.49817 218.86722
170.83495 178.23912 217.87531
171.33107 177.98015 216.88222
171.8224 177.72125 215.88799
172.47804 178.24597 217.78358
173.14343 178.77081 219.67715
173.69617 178.77341 219.642
174.31262 179.03734 220.56865
174.93398 179.30139 221.4935
175.49178 179.30432 221.45374
176.04967 179.30736 221.41252
176.68097 179.57178 222.33235
177.24144 179.57504 222.28804
177.802 179.57841 222.24228
178.52388 180.10449 224.11879
178.9234 179.58548 222.14636
179.65518 180.11185 224.01913
180.04518 179.59299 222.0446
180.60622 179.59689 221.99153
181.07462 179.33954 220.9762
181.72862 179.60504 221.88092
182.28999 179.60928 221.82343
182.95151 179.87509 222.72444
183.51555 179.87958 222.66374
184.28952 180.40715 224.52051
184.85866 180.41191 224.45625
185.20837 179.89372 222.47261
185.88512 180.1602 223.36455
186.33757 179.90372 222.33769
186.90237 179.90891 222.26801
187.46732 179.91418 222.19679
188.39825 180.70451 224.99635
188.72203 180.1868 223.00694
189.16302 179.93079 221.97409
189.98709 180.45996 223.80971
190.55766 180.46591 223.73022
190.99426 180.21021 222.69345
191.97246 181.00171 225.47746
192.5484 181.00809 225.39264
192.98308 180.75273 224.35156
193.84474 181.28305 226.17261
194.57001 181.55173 227.03662
195.15158 181.55865 226.94473
195.73332 181.56572 226.85127
196.46895 181.83488 227.70895
196.8974 181.58023 226.6595
197.63832 181.84972 227.51315
198.38434 182.11942 228.36436
198.97198 182.1272 228.26198
199.55986 182.13513 228.15797
200.14795 182.14317 228.05234
200.73627 182.15138 227.94507
201.32481 182.1597 227.83612
201.91359 182.16817 227.72551
202.68079 182.4391 228.56168
203.81439 183.23495 231.29103
204.23061 182.9816 230.22607
204.82773 182.99074 230.10735
205.42509 183.00003 229.98691
206.02272 183.00946 229.86479
206.42767 182.75648 228.7955
207.41415 183.29134 230.56027
208.41074 183.82649 232.32123
209.41745 184.36197 234.07837
210.23154 184.63504 234.88821
211.05084 184.90837 235.69522
211.87537 185.18192 236.49931
212.0746 184.66719 234.47548
212.4769 184.41531 233.3932
213.30481 184.68938 234.19131
214.13797 184.96367 234.98643
214.31621 184.44914 232.96049
214.92993 184.46072 232.81262
215.99402 184.99869 234.53923
215.93088 184.22116 231.57382
216.31313 183.96994 230.48412
217.15565 184.2453 231.26642
218.23842 184.78421 232.98129
219.09402 185.06009 233.75668
220.19482 185.59964 235.46327
220.82117 185.61264 235.29791
221.44786 185.62576 235.13062
222.07491 185.63907 234.9614
222.7023 185.6525 234.79025
223.33008 185.66611 234.61719
223.95822 185.67984 234.44212
224.84406 185.9575 235.19478
225.4754 185.97157 235.01508
225.58249 185.45801 232.97704
226.47443 185.73621 233.72231
227.1044 185.75064 233.53738
228.27438 186.29337 235.20247
229.7271 187.10057 237.78781
231.19519 187.90826 240.36656
231.5694 187.65947 239.24377
232.77846 188.20358 240.88927
233.71561 188.4837 241.60742
234.94302 189.02849 243.24324
235.60614 189.04468 243.03259
236.55952 189.32552 243.73958
237.22592 189.34198 243.52382
237.00793 188.56451 240.55147
236.77521 187.78679 237.58189
237.42763 187.80316 237.36465
238.68535 188.34937 238.9765
239.34351 188.36604 238.75325
240.92456 189.17776 241.26952
241.90105 189.45981 241.95235
243.50803 190.27229 244.45549
243.87015 190.02448 243.30609
244.54514 190.04181 243.06657
245.22046 190.0592 242.82484
245.89606 190.0766 242.58087
246.89717 190.35944 243.24226
247.90363 190.64243 243.89958
247.92456 190.1288 241.83553
248.93405 190.4118 242.48743
250.28418 190.96063 244.03902
250.96889 190.97809 243.77872
250.97293 190.46384 241.71237
251.99588 190.74693 242.35045
253.02405 191.03008 242.98436
253.70935 191.0472 242.71507
254.39474 191.06418 242.4436
256.49268 192.14563 245.75757
257.8996 192.69498 247.26932
258.24213 192.44556 246.09015
258.94025 192.46213 245.8046
260.72812 193.27765 248.19521
260.33627 192.49454 245.22691
261.4024 192.77682 245.82544
262.47342 193.05894 246.41968
263.17584 193.0742 246.12108
262.75012 192.28908 243.15805
263.82275 192.57014 243.74481
263.75702 192.05057 241.6716
264.0643 191.79718 240.48492
265.5242 192.34384 241.94754
266.21643 192.35632 241.63992
266.90805 192.36826 241.33035
267.99258 192.64664 241.89851
71.446053 179.52339 196.83414
71.224823 180.05341 198.84756
71.014259 180.58278 200.86401
71.974236 180.30423 200.23706
72.161469 180.56343 201.37274
73.117409 180.2841 200.74037
74.447807 179.73552 199.21877
76.145058 178.91785 196.8046
75.209282 179.98216 200.5954
75.780014 179.97052 200.83847
76.35099 179.95859 201.07985
76.922195 179.94637 201.31944
76.765709 180.47119 203.341
78.065071 179.9212 201.79338
78.636688 179.90829 202.02768
79.56472 179.62671 201.3652
80.133926 179.61349 201.59489
81.054436 179.33177 200.92575
80.57489 180.1232 203.84477
81.495354 179.8412 203.17197
82.410721 179.5592 202.49532
83.32093 179.27724 201.81488
83.887352 179.26337 202.03259
85.12587 178.71344 200.44264
86.020569 178.43166 199.7509
86.247963 178.68567 200.86502
87.137291 178.40392 200.16771
88.021385 178.12227 199.46669
88.576767 178.10841 199.6696
89.13195 178.09454 199.87068
90.005333 177.81314 199.16052
90.241646 178.06686 200.26738
90.796143 178.05304 200.46301
91.661263 177.7719 199.74472
91.596054 178.29282 201.76175
91.846481 178.54628 202.86661
93.314919 177.73099 200.31268
93.264 178.25168 202.32945
93.819427 178.23808 202.51505
94.670349 177.95758 201.78165
95.222694 177.94418 201.96283
95.193237 178.46461 203.97987
95.461769 178.71808 205.07872
95.735008 178.97151 206.17738
96.296181 178.95824 206.35461
96.857048 178.94504 206.53003
97.695831 178.66539 205.78087
98.529297 178.38596 205.02838
99.9039 177.57384 202.42398
100.45103 177.56136 202.5885
101.26609 177.28265 201.82549
101.81012 177.27045 201.98581
102.35382 177.25836 202.14445
102.6365 177.51257 203.22932
103.44035 177.23454 202.45656
103.7274 177.48889 203.53949
104.52568 177.21121 202.76193
105.31868 176.93376 201.98129
105.6098 177.18835 203.06056
106.15143 177.17712 203.20737
106.93608 176.90021 202.41972
107.2338 177.15503 203.49602
107.77454 177.14418 203.63788
108.5509 176.8678 202.84331
108.62177 177.38846 204.85202
108.9332 177.64352 205.92563
109.70624 177.36757 205.12553
110.24805 177.35732 205.25984
110.7896 177.3472 205.39253
111.55193 177.07184 204.58513
112.30904 176.79669 203.77495
113.27707 176.25648 202.02235
114.02132 175.98183 201.20612
114.54921 175.97258 201.32794
115.28557 175.6983 200.50685
115.8105 175.68936 200.62505
115.92764 176.21069 202.62659
116.45702 176.20192 202.7428
116.78731 176.45827 203.80101
117.31868 176.44971 203.91467
117.46196 176.97112 205.91595
118.18927 176.69786 205.0825
118.72242 176.68965 205.19209
119.44193 176.41678 204.35406
119.97218 176.40886 204.46014
120.50222 176.40108 204.56471
121.03206 176.3934 204.66777
121.38493 176.65053 205.71733
121.74251 176.9077 206.76634
122.10479 177.16495 207.81476
122.97997 176.62857 206.01447
123.51126 176.62149 206.11052
124.53588 175.82108 203.35435
125.22152 175.54987 202.49548
125.90208 175.27885 201.63432
126.10608 175.80121 203.62544
126.62912 175.79483 203.71292
126.84743 176.31726 205.70363
127.37503 176.31107 205.78902
127.75507 176.56927 206.8261
128.42973 176.29901 205.95546
128.81433 176.55739 206.99039
129.34373 176.55164 207.07039
129.87297 176.54599 207.14896
130.40207 176.54047 207.2261
130.93102 176.53505 207.30177
131.3295 176.79385 208.33168
131.98849 176.52457 207.44888
132.64249 176.25543 206.56396
133.16846 176.2505 206.63367
133.45313 176.7737 208.61586
134.10185 176.50494 207.72606
134.51416 176.76428 208.74939
135.15778 176.49579 207.85617
136.0181 175.69962 205.04468
136.43005 175.95927 206.06381
136.74078 176.48289 208.04085
137.16467 176.74268 209.05858
137.59332 177.00252 210.07547
137.92802 177.52628 212.05098
138.46489 177.52242 212.10655
139.09549 177.2549 211.20073
139.81253 176.72372 209.33279
140.34183 176.72026 209.38345
140.95758 176.45314 208.47203
141.56839 176.18616 207.55878
142.25597 175.65558 205.68259
142.69594 175.91629 206.68826
143.06383 176.44073 208.65448
143.51578 176.70157 209.65839
144.04449 176.69882 209.6994
144.50359 176.95981 210.70113
144.96744 177.22089 211.70183
145.56554 176.95477 210.77661
146.03412 177.21603 211.7749
146.68712 176.68652 209.88383
147.15802 176.94797 210.87952
147.74376 176.68231 209.94801
148.272 176.68034 209.97809
148.85037 176.4149 209.04344
149.28058 176.94026 210.99756
149.90176 176.41147 209.09648
150.34158 176.937 211.04837
150.91251 176.67197 210.10794
151.36435 177.19766 212.05763
151.8615 177.45988 213.04234
152.39668 177.45868 213.06181
152.90103 177.72107 214.04404
153.4102 177.98357 215.02504
154.00208 177.45563 213.11192
154.56068 177.1913 212.1615
155.09334 177.19057 212.17403
155.62596 177.18994 212.1852
156.19113 176.66241 210.26596
156.69116 177.18896 212.20346
157.22375 177.18863 212.21053
157.75633 177.18837 212.21625
158.28232 177.45171 213.18523
158.81731 177.45166 213.18823
159.35056 177.71518 214.15451
159.88864 177.97881 215.11945
160.42848 177.97903 215.11835
160.97934 178.50635 217.04515
161.52405 178.50677 217.04123
162.06877 178.50729 217.03592
162.61349 178.50792 217.02922
163.18863 179.03564 218.9502
163.75586 179.29999 219.90514
164.32794 179.56442 220.85855
164.83754 179.03842 218.91727
165.41209 179.30307 219.86781
165.90964 178.77724 217.92403
166.45697 178.77853 217.90746
167.03647 179.04349 218.85361
167.65543 179.5721 220.76225
168.21013 179.57373 220.74123
168.8437 180.10257 222.64642
169.44518 180.368 223.58606
169.87453 179.57922 220.66957
170.38275 179.31767 219.67932
170.88617 179.05621 218.68788
171.43634 179.05843 218.65855
171.9326 178.79713 217.66466
172.59322 179.3268 219.55858
173.20479 179.59297 220.48766
173.82126 179.85928 221.41498
174.37903 179.86205 221.37805
174.93686 179.86491 221.33966
175.49477 179.8679 221.29984
176.05275 179.87099 221.25858
176.61081 179.87418 221.21584
177.24475 180.1412 222.13327
177.80542 180.14462 222.08745
178.44681 180.41191 223.00137
179.01009 180.41557 222.95239
179.74445 180.94691 224.8235
180.22485 180.68701 223.81058
180.79086 180.69101 223.75696
181.26421 180.43129 222.74174
181.73279 180.17163 221.72552
182.29427 180.17593 221.66795
182.7558 179.91647 220.64954
183.52007 180.44881 222.50739
184.18927 180.71741 223.40388
184.75609 180.7222 223.33981
185.10342 180.19916 221.3577
185.89011 180.73215 223.20714
186.45732 180.7373 223.13853
187.02469 180.74258 223.06844
187.71172 181.01202 223.95386
188.64771 181.80984 226.75066
188.97643 181.28734 224.76184
189.54924 181.29314 224.68498
190.38078 181.82738 226.51811
190.9588 181.83348 226.43748
191.26865 181.31126 224.44513
192.25192 182.11029 227.22627
192.69385 181.85254 226.18623
192.98956 181.33054 224.19133
193.70747 181.60153 225.05724
194.43045 181.87273 225.92079
195.0097 181.87971 225.82916
195.89166 182.41566 227.64087
196.62988 182.68744 228.49733
197.21706 182.69492 228.39967
197.80441 182.70253 228.3004
198.392 182.71028 228.19949
198.81628 182.45358 227.14656
199.56779 182.72618 227.99278
199.98763 182.4697 226.93744
200.74448 182.74265 227.77951
201.50645 183.01579 228.61903
202.44934 183.55389 230.40411
202.86765 183.29794 229.34259
204.00394 184.10135 232.0692
204.78899 184.3754 232.89775
205.20804 184.11987 231.83113
205.62241 183.86441 230.76375
206.22264 183.87399 230.6409
206.63017 183.61871 229.57161
207.22847 183.62854 229.44583
208.22282 184.16873 231.20573
209.22729 184.70923 232.96175
210.44473 185.5152 235.65646
211.26669 185.79117 236.46199
212.30165 186.33264 238.20616
212.50589 185.81317 236.18237
212.91324 185.55905 235.09943
213.31595 185.30499 234.01579
214.14931 185.58188 234.80998
214.32759 185.06256 232.7852
215.16406 185.3398 233.57513
216.0058 185.61731 234.36201
216.39775 185.36377 233.27219
216.32501 184.57892 230.30925
217.40024 185.12262 232.02615
218.48572 185.66666 233.73871
219.34399 185.94522 234.51248
220.44754 186.4899 236.21672
221.5614 187.03497 237.91647
222.19571 187.0484 237.74692
222.83035 187.062 237.57541
223.46538 187.07573 237.40192
224.35316 187.35577 238.1568
224.73651 187.10364 237.04907
225.37265 187.11783 236.86969
226.00912 187.13216 236.68829
226.12125 186.61386 234.64996
227.01836 186.89478 235.39275
227.11871 186.3765 233.35406
228.28896 186.92429 235.0174
229.74194 187.73909 237.60022
230.93547 188.28769 239.2527
231.30722 188.03647 238.13112
233.07385 189.1192 241.62007
234.01367 189.40201 242.33636
234.95891 189.68503 243.04893
235.90955 189.96829 243.75781
237.15556 190.51884 245.38196
237.24216 190.00134 243.32779
237.61404 189.75085 242.19214
237.08878 188.69867 238.30626
237.44377 188.44791 237.17212
238.70169 188.99918 238.78215
239.35992 189.01595 238.55858
240.63365 189.56775 240.15915
241.91782 190.11984 241.75404
243.83768 191.20749 245.16603
244.2023 190.95734 244.01616
245.51523 191.51028 245.59465
246.51836 191.79572 246.25859
247.2041 191.81342 246.01064
247.23956 191.29526 243.94669
248.2486 191.58084 244.60202
248.93259 191.59845 244.34821
249.28395 191.3479 243.1881
250.30127 191.63358 243.83383
251.6618 192.18756 245.3775
250.98975 191.13179 241.50815
252.01265 191.41736 242.14519
252.69519 191.43448 241.87889
253.72595 191.72003 242.50856
254.76181 192.00552 243.13396
257.56866 193.63422 248.23593
258.62744 193.91994 248.84775
259.33304 193.9368 248.56113
260.03854 193.95343 248.27226
261.10727 194.23869 248.8732
260.35165 193.17908 245.015
261.78592 193.73271 246.50252
262.85919 194.01718 247.09474
263.19031 193.76317 245.90718
263.14001 193.23952 243.83302
264.59338 193.7921 245.30342
264.53217 193.2674 243.22948
265.22754 193.28064 242.92468
266.69464 193.83209 244.38239
267.39389 193.84439 244.07137
268.87482 194.395 245.51845
269.97141 194.67569 246.08023
70.256096 180.89279 199.29399
70.433479 181.15634 200.43011
70.227356 181.69092 202.44722
71.191933 181.4101 201.82324
71.76786 181.40044 202.07796
73.107582 180.84735 200.56393
74.437691 180.29405 199.0439
75.381508 180.01193 198.40358
75.198402 180.54361 200.41991
75.397255 180.80344 201.55095
75.601456 181.06287 202.6824
75.810921 181.32188 203.81429
76.38961 181.3094 204.05544
78.052811 180.48344 201.61844
78.983139 180.19963 200.95972
79.552101 180.18669 201.19138
80.12114 180.17355 201.4212
80.690216 180.16026 201.64923
80.212883 180.95917 204.56712
81.135811 180.67467 203.89629
82.053627 180.39018 203.22165
82.966331 180.1057 202.54317
83.196518 180.36234 203.66322
84.440125 179.80734 202.077
85.006256 179.79333 202.2912
85.572235 179.7793 202.5036
86.138054 179.76523 202.71416
87.68187 178.94043 200.20514
88.563293 178.65633 199.50238
89.439461 178.37233 198.79597
89.991913 178.35851 198.99457
90.228172 178.61467 200.10092
90.469246 178.87073 201.20723
91.026047 178.85681 201.40219
91.274193 179.11275 202.50751
91.833 179.09886 202.69969
92.998306 178.54568 201.06218
93.250687 178.80164 202.16382
93.806175 178.78796 202.34967
94.657219 178.50488 201.61729
94.916313 178.76083 202.716
