ply
format ascii 1.0
comment PCL generated
element vertex 1597
property float x
property float y
property float z
element camera 0
property float view_px
property float view_py
property float view_pz
property float x_axisx
property float x_axisy
property float x_axisz
property float y_axisx
property float y_axisy
property float y_axisz
property float z_axisx
property float z_axisy
property float z_axisz
property float focal
property float scalex
property float scaley
property float centerx
property float centery
property int viewportx
property int viewporty
property float k1
property float k2
end_header
214.10558 111.12598 232.5938
215.14955 111.05787 234.4017
215.97124 111.02361 235.23366
216.56328 111.02321 235.09131
217.63013 110.95506 236.88904
218.22766 110.95464 236.7422
219.3098 110.88646 238.533
219.91286 110.88602 238.38158
221.01033 110.81781 240.16525
221.61893 110.81734 240.00914
222.47983 110.78299 240.81845
222.83713 110.8164 239.69174
223.18985 110.84979 238.56456
223.53799 110.88319 237.43695
223.88159 110.91657 236.30893
224.48488 110.91606 236.14433
225.08853 110.91554 235.978
226.23093 110.84721 237.73485
226.56857 110.88057 236.60178
227.17581 110.88002 236.4294
228.06001 110.84556 237.21559
228.94958 110.81107 237.99858
229.56293 110.81049 237.81934
230.46071 110.77599 238.59648
231.36386 110.74146 239.37032
231.69443 110.77477 238.22726
232.02046 110.80806 237.08388
232.63591 110.80742 236.89536
232.95538 110.84071 235.7505
234.46594 110.73827 238.42
235.08768 110.73761 238.22421
236.31764 110.66907 239.93071
236.94528 110.66837 239.72946
237.88226 110.63374 240.47675
237.57928 110.73485 237.42166
238.83109 110.66624 239.11385
239.46065 110.66551 238.90468
240.40955 110.63083 239.64067
241.36395 110.59613 240.37297
242.32388 110.56142 241.10152
243.28931 110.52669 241.82625
244.26028 110.49194 242.5472
244.90543 110.49116 242.32141
246.88666 110.35448 245.86148
247.87932 110.31969 246.56895
248.87755 110.2849 247.27245
249.19847 110.31804 246.09334
250.20285 110.28322 246.79063
249.48036 110.4183 242.79662
250.83231 110.34949 244.4269
251.14029 110.38263 243.24448
252.15193 110.34779 243.93098
253.16916 110.31293 244.61328
254.19202 110.27808 245.29138
254.49715 110.31121 244.10187
256.25458 110.20833 246.63481
256.19406 110.27548 244.51094
256.86252 110.27462 244.24619
257.90332 110.23974 244.90675
258.57541 110.23888 244.63626
258.49414 110.30607 242.51216
259.54163 110.2712 243.16362
260.21271 110.27036 242.88708
260.11514 110.3376 240.76323
260.39499 110.37082 239.56265
261.44955 110.33598 240.20251
73.863457 112.27105 202.4276
74.424263 112.27151 202.66458
74.214172 112.20882 204.74417
73.248474 112.08299 208.67267
73.443214 112.05192 209.83443
74.020256 112.05244 210.07082
74.596863 112.05296 210.30521
76.290665 112.1482 207.75514
77.968819 112.24343 205.19699
78.896385 112.27552 204.48981
80.548325 112.37074 201.91772
80.735023 112.33969 203.06372
81.286224 112.34021 203.27733
81.836983 112.34074 203.48904
81.677643 112.27815 205.5677
81.527969 112.21558 207.64828
82.437271 112.24766 206.92191
82.646568 112.21664 208.06622
83.2052 112.21716 208.27238
84.105614 112.24923 207.53758
85.340286 112.31284 205.85913
85.890053 112.31335 206.05699
86.774094 112.34539 205.31126
87.32048 112.34589 205.50464
88.196129 112.37792 204.75269
88.739166 112.37841 204.94162
89.281776 112.3789 205.12881
89.179581 112.31633 207.20657
90.046043 112.34834 206.44499
89.955498 112.28577 208.52347
90.818642 112.31776 207.75757
90.739746 112.25519 209.83675
91.289864 112.25565 210.01685
92.454056 112.31913 208.293
92.998398 112.31957 208.46808
93.542351 112.32001 208.64146
94.385712 112.35195 207.85966
95.521034 112.41537 206.12041
96.056412 112.41579 206.28645
97.468483 112.5107 203.5835
97.995697 112.51109 203.74405
98.809982 112.54297 202.94569
98.47924 112.44887 205.97636
99.292816 112.48074 205.17485
99.541138 112.44962 206.28926
100.34912 112.48147 205.48314
101.15184 112.51331 204.674
102.4945 112.60812 201.93867
102.74152 112.57697 203.04689
103.26083 112.57729 203.19197
103.51463 112.54614 204.29919
104.0358 112.54646 204.44193
103.77578 112.45234 207.4782
104.04588 112.42117 208.58559
104.83139 112.45295 207.76007
105.10582 112.42178 208.86572
105.88585 112.45354 208.03592
106.41267 112.45383 208.17159
106.93921 112.4541 208.30579
107.22234 112.4229 209.40797
108.47288 112.51757 206.62953
108.7555 112.48636 207.72878
109.51436 112.51807 206.88518
109.80138 112.48686 207.98268
110.32394 112.4871 208.10747
110.6178 112.45587 209.20387
110.91631 112.42464 210.29996
111.21945 112.3934 211.39572
111.96957 112.42508 210.54172
112.93332 112.4882 208.70988
113.02194 112.4255 210.77776
113.54781 112.4257 210.89362
114.49631 112.48881 209.05429
115.01689 112.489 209.16628
115.33071 112.45773 210.25482
115.85332 112.45791 210.36455
116.17406 112.42663 211.4518
116.89799 112.45825 210.57977
117.22321 112.42696 211.66524
117.94191 112.45857 210.78946
118.46359 112.45872 210.89226
119.17467 112.49033 210.01231
119.69359 112.49047 210.11186
120.02763 112.45917 211.19237
120.91322 112.52219 209.32419
121.24936 112.49088 210.40245
121.94508 112.52245 209.51295
122.28577 112.49113 210.58942
122.97633 112.52269 209.6964
123.15138 112.45992 211.75594
123.67149 112.46004 211.84515
124.02612 112.4287 212.91873
124.54836 112.42881 213.00569
125.07048 112.42891 213.09129
125.59245 112.42901 213.17558
126.1143 112.4291 213.25851
126.63603 112.42919 213.34013
127.00679 112.39784 214.40848
127.53069 112.39793 214.48781
128.20049 112.42944 213.57704
129.00896 112.4924 211.67508
129.24289 112.4296 213.72836
129.90271 112.46111 212.81224
130.55759 112.49261 211.89415
130.93964 112.46124 212.95506
131.19487 112.39843 215.00613
131.97617 112.46136 213.0927
132.49429 112.46142 213.15956
132.7637 112.39861 215.20862
133.28647 112.39866 215.2735
133.92863 112.43015 214.34476
134.44881 112.43019 214.40677
135.19826 112.49311 212.48166
135.71347 112.49315 212.54053
136.22859 112.49319 212.59811
136.74364 112.49323 212.65445
137.57376 112.58757 209.7276
138.49203 112.71333 205.80377
139.49123 112.87053 200.88223
140.36847 112.99629 196.95181
141.13098 113.09061 194.01324
141.59993 113.09064 194.05763
142.15944 113.1221 193.10551
142.53766 113.09069 194.14301
142.92062 113.05927 195.17981
143.22495 112.99643 197.21187
143.53883 112.93359 199.24358
143.86229 112.87074 201.27489
144.1953 112.80788 203.30579
144.75928 112.83933 202.3459
145.03282 112.74505 205.37227
145.18275 112.58791 210.39272
145.68962 112.58791 210.42719
146.06808 112.52506 212.45531
146.27075 112.36791 217.47559
146.91307 112.43078 215.5119
147.60275 112.52508 212.54851
148.05966 112.49365 213.57512
148.52133 112.46223 214.60074
149.08734 112.49366 213.62883
149.60115 112.49366 213.65384
149.98 112.39937 216.67308
150.50095 112.39937 216.69591
150.98169 112.36794 217.71619
151.54277 112.39936 216.73784
151.9929 112.33649 218.75465
152.58452 112.39935 216.77472
153.0748 112.36792 217.79033
153.59802 112.36791 217.80571
154.14702 112.39934 216.82065
154.69119 112.43076 215.83423
155.16763 112.36789 217.84431
155.69083 112.36788 217.85464
156.214 112.36787 217.86375
156.73717 112.36786 217.8716
157.26033 112.36784 217.87819
157.79247 112.39926 216.88405
158.31323 112.39925 216.88809
158.8298 112.36781 217.89038
159.3512 112.33636 218.89145
159.87613 112.36777 217.89226
160.39929 112.36775 217.8913
160.92247 112.36774 217.88908
161.44565 112.36772 217.88562
161.99951 112.2734 220.87924
162.54253 112.24195 221.8726
163.06032 112.27336 220.86584
163.59074 112.27334 220.85722
164.10135 112.30475 219.84805
164.60718 112.33616 218.83766
165.28061 112.14754 224.82057
165.76665 112.21037 222.8083
166.2431 112.27322 220.79503
166.70999 112.33606 218.78079
167.1673 112.3989 216.76555
167.50514 112.55604 211.7529
167.9361 112.61887 209.73616
168.44032 112.61884 209.71582
168.94458 112.61881 209.69431
169.35641 112.68166 207.67467
169.71004 112.77592 204.65598
170.30446 112.71302 206.62781
170.74821 112.74442 205.60373
171.24304 112.74438 205.57663
171.67966 112.77579 204.55052
172.2328 112.74432 205.51886
172.7908 112.71284 206.48567
173.35364 112.68137 207.45099
173.9892 112.61845 209.412
175.26671 112.27261 220.34439
175.87054 112.24113 221.30319
176.62938 112.14677 224.25369
177.32523 112.08385 226.20529
178.19049 111.95805 230.14743
178.25229 112.14661 224.12555
178.87807 112.11512 225.07613
179.50871 112.08363 226.02495
180.05475 112.08356 225.97653
180.69275 112.05207 226.92201
181.24133 112.052 226.87068
181.8867 112.0205 227.81284
182.43785 112.02043 227.75861
182.98906 112.02036 227.70299
183.6443 111.98885 228.64009
184.09175 112.02022 227.58769
184.53447 112.05158 226.53444
185.19478 112.02007 227.46696
185.97356 111.9571 229.39061
186.53012 111.95702 229.32626
187.08678 111.95693 229.26056
187.64354 111.95684 229.19347
188.44681 111.89386 231.10872
188.88298 111.92521 230.04666
189.44246 111.92511 229.97511
190.13249 111.89357 230.8931
190.69461 111.89346 230.81839
191.39211 111.86192 231.73262
192.09454 111.83036 232.64473
192.80194 111.7988 233.55478
193.22928 111.83012 232.4841
193.94176 111.79855 233.39056
194.36453 111.82988 232.31773
194.93236 111.82975 232.23241
195.19598 111.89252 230.16991
195.91383 111.86093 231.06989
196.32266 111.89224 229.99353
196.88622 111.89211 229.90317
197.44992 111.89195 229.81137
198.34232 111.8289 231.68996
198.74449 111.8602 230.60893
199.64931 111.79713 232.48257
200.22092 111.79697 232.38371
200.96666 111.76535 233.26764
201.54103 111.76517 233.16539
202.29439 111.73354 234.04504
203.05276 111.7019 234.92229
203.63254 111.70171 234.81465
204.02643 111.73297 233.72346
204.60416 111.73277 233.61325
205.1821 111.73257 233.50153
205.76022 111.73235 233.38824
206.73013 111.66922 235.23372
207.31355 111.66899 235.11646
207.89719 111.66876 234.99759
208.48103 111.66853 234.87718
208.85959 111.69975 233.77707
209.23349 111.73098 232.67639
209.81317 111.73073 232.55235
210.81873 111.66753 234.37988
211.61902 111.6358 235.22766
212.42442 111.60406 236.07277
213.01483 111.60378 235.94023
213.60548 111.60349 235.80606
214.19641 111.6032 235.67029
214.78761 111.60291 235.53288
215.37907 111.6026 235.39384
216.2032 111.57081 236.22531
217.03249 111.53901 237.05397
217.86696 111.5072 237.87973
218.46693 111.50686 237.73232
219.30937 111.47503 238.55295
219.91241 111.47468 238.40155
220.76282 111.44283 239.21692
221.61847 111.41097 240.02933
222.22737 111.41059 239.87149
222.83664 111.4102 239.71196
223.18935 111.4413 238.58472
223.79684 111.4409 238.42233
224.14288 111.47198 237.29356
225.01288 111.44008 238.09225
225.35471 111.47115 236.96132
226.49957 111.40771 238.71768
226.29636 111.50178 235.6601
227.17523 111.46983 236.44963
227.78284 111.46938 236.27547
228.66991 111.4374 237.05927
229.56232 111.40542 237.8398
230.74411 111.34191 239.57535
231.36322 111.34142 239.39098
231.98276 111.34091 239.20474
232.60272 111.3404 239.0166
232.92918 111.3714 237.87128
233.54755 111.37087 237.68011
234.76416 111.30729 239.39461
235.08698 111.33827 238.24507
236.01305 111.30619 238.99959
236.63818 111.30563 238.79915
237.88152 111.24199 240.49791
237.88989 111.30448 238.3924
239.14417 111.24081 240.08397
240.09256 111.20868 240.82211
241.04645 111.17653 241.55655
241.68449 111.17592 241.34081
242.64691 111.14375 242.06862
243.61484 111.11156 242.79265
244.25943 111.11092 242.56897
244.57318 111.14184 241.40022
246.21799 111.04651 243.99948
247.20561 111.01429 244.70888
248.19879 110.98206 245.41431
248.17322 111.04452 243.29759
249.51399 110.98071 244.9362
249.13297 111.07473 241.88129
250.48238 111.01091 243.51271
250.43629 111.07337 241.39555
251.79691 111.00954 243.01875
253.1682 110.94568 244.63586
253.83191 110.94498 244.38133
254.49619 110.94429 244.12453
256.2536 110.84883 246.65776
256.19308 110.91132 244.53378
257.2308 110.87903 245.19781
258.27417 110.84674 245.85751
258.94879 110.84605 245.58603
258.87009 110.90857 243.46078
260.29959 110.8447 245.03595
260.21173 110.90724 242.91014
260.49875 110.9382 241.70866
260.78113 110.96917 240.50697
261.83826 110.93694 241.14587
73.473709 112.77461 203.36563
74.037056 112.77493 203.6037
74.21479 112.7461 204.76212
73.249107 112.62981 208.6909
73.824013 112.63017 208.92825
74.020897 112.60138 210.0891
74.972588 112.63091 209.39691
76.663834 112.71875 206.84557
77.599442 112.74828 206.14326
79.264465 112.83612 203.57785
80.913879 112.92395 201.00447
80.735641 112.86604 203.0811
81.286819 112.86642 203.29471
82.194939 112.89596 202.57288
81.678261 112.80892 205.58516
80.823975 112.69276 209.53674
82.088097 112.75143 207.87578
82.299896 112.7227 209.0211
83.205795 112.75224 208.28989
84.106201 112.78176 207.55501
85.340874 112.84042 205.87633
85.553413 112.81168 207.01518
86.439949 112.84119 206.27023
86.988831 112.84157 206.46449
88.196678 112.9002 204.76965
88.739708 112.90057 204.95857
89.931686 112.95918 203.255
89.502296 112.87218 206.2774
89.726868 112.84344 207.40901
89.638809 112.78557 209.48848
90.189735 112.78593 209.67203
90.115814 112.72806 211.75299
90.980621 112.75752 210.98434
92.147301 112.81609 209.26111
92.694115 112.81643 209.43697
93.240547 112.81676 209.6111
94.386154 112.8753 207.87646
95.224159 112.90472 207.09135
95.762016 112.90504 207.25813
96.884201 112.96355 205.51155
97.416359 112.96384 205.67358
98.52298 113.02234 203.91925
98.479637 112.96443 205.99278
99.293213 112.99381 205.19116
99.541534 112.965 206.30563
100.07197 112.96527 206.45969
100.60208 112.96554 206.61217
101.67706 113.02398 204.83971
102.2016 113.02424 204.98766
102.72583 113.02448 205.13411
103.24976 113.02473 205.27901
103.77338 113.02497 205.42238
103.7761 112.96703 207.49443
104.56189 112.99635 206.67035
105.08707 112.99657 206.80989
105.61198 112.99679 206.94791
106.13663 112.997 207.08441
106.41295 112.96813 208.18774
106.69391 112.93925 209.29085
106.97948 112.91038 210.39372
107.75107 112.93965 209.55598
108.27927 112.93984 209.68633
109.043 112.9691 208.84384
109.10155 112.91113 210.91455
109.63144 112.91131 211.04106
110.16109 112.91148 211.16612
110.46446 112.88257 212.26341
110.99608 112.88273 212.38612
111.96978 112.94102 210.5578
112.7148 112.97025 209.70116
112.80586 112.91225 211.76968
113.548 112.94147 210.90965
114.49649 112.99973 209.07016
115.01707 112.99987 209.18213
115.53745 112.99999 209.29272
116.05762 113.00012 209.40192
116.37592 112.97118 210.48875
117.09741 113.00035 209.61615
117.02652 112.91328 212.66119
117.55324 112.91338 212.76631
118.27176 112.94255 211.88907
118.98524 112.97171 211.00951
119.50659 112.97181 211.10953
120.21247 113.00096 210.22583
120.91334 113.03011 209.33987
121.24949 113.00114 210.41815
121.9452 113.03028 209.52861
122.11086 112.97224 211.58923
122.63124 112.97232 211.68115
122.98131 112.94334 212.75668
123.50383 112.94341 212.84628
123.86087 112.91441 213.92039
124.38553 112.91448 214.00771
125.07056 112.9436 213.1071
125.75063 112.97272 212.20436
125.95871 112.91466 214.2617
126.48285 112.91471 214.34366
126.85603 112.8857 215.41245
127.38234 112.88576 215.49214
127.90853 112.8858 215.57048
128.72182 112.94395 213.6691
129.24295 112.944 213.74409
129.76399 112.94404 213.81781
130.55765 113.00219 211.90973
130.9397 112.97317 212.9707
131.32646 112.94415 214.03102
131.97623 112.97323 213.10831
132.36763 112.94421 214.16667
132.76375 112.91518 215.22438
133.1646 112.88615 216.28137
133.80917 112.91523 215.35283
134.21466 112.88619 216.40782
134.85425 112.91527 215.4761
135.37668 112.91528 215.53581
136.00888 112.94436 214.60068
136.6362 112.97343 213.66376
137.46873 113.0606 210.73692
138.28677 113.14777 207.80731
139.39102 113.32211 201.89139
140.17282 113.40928 198.95567
141.03557 113.52551 195.02235
141.59995 113.55457 194.07175
142.06883 113.55457 194.11499
142.44945 113.52552 195.1528
142.83482 113.49647 196.18985
143.22496 113.46742 197.22617
143.70085 113.46742 197.26544
144.0195 113.40932 199.29652
144.27151 113.32216 202.32385
144.75928 113.32216 202.36053
145.10422 113.26405 204.39012
145.11377 113.06068 211.40514
145.55646 113.03162 212.4371
145.93971 112.9735 214.4657
146.27075 112.88634 217.49129
146.73492 112.85728 218.52089
147.48878 112.9735 214.55975
147.9505 112.94444 215.5867
148.46916 112.94443 215.61443
148.98779 112.94442 215.64093
149.50639 112.94441 215.66617
149.93501 112.8863 217.68727
150.45836 112.88629 217.71021
151.02187 112.91533 216.73311
151.58054 112.94437 215.75458
152.02827 112.88626 217.77147
152.65047 112.97341 214.79227
153.13593 112.94434 215.8078
153.62619 112.91528 216.82222
154.09546 112.85716 218.83476
154.66782 112.91525 216.84909
155.14665 112.85714 218.85934
155.67224 112.85712 218.86975
156.19781 112.85711 218.87888
156.72339 112.8571 218.88675
157.24895 112.85709 218.89336
157.77451 112.85707 218.89873
158.31979 112.94422 215.90413
158.83397 112.91515 216.90649
159.35295 112.88608 217.90762
159.87549 112.91512 216.90834
160.39626 112.91511 216.90741
160.92787 112.85698 218.90431
161.46127 112.82791 219.90038
162.00972 112.76978 221.89467
162.54251 112.76977 221.88858
163.06029 112.79881 220.88174
163.59071 112.79879 220.87312
164.08151 112.85688 218.86449
164.69606 112.74064 222.85075
165.30521 112.65346 225.83603
165.79366 112.71155 223.82358
166.27251 112.76964 221.81009
166.74179 112.82774 219.79562
167.09882 112.97299 214.7832
167.50511 113.06014 211.76817
167.89703 113.14729 208.75244
168.35744 113.17632 207.73352
168.8569 113.17631 207.7122
169.2177 113.26345 204.69415
169.66138 113.29249 203.67236
170.30443 113.2053 206.64273
170.85506 113.17622 207.61485
171.35469 113.17619 207.58749
171.85435 113.17617 207.55893
172.47536 113.11803 209.52466
172.9799 113.11801 209.49336
173.54996 113.08893 210.45828
174.12486 113.05984 211.42168
175.40718 112.74018 222.35457
176.01584 112.7111 223.31306
176.70441 112.65295 225.26668
177.48012 112.56574 228.21483
178.27032 112.47854 231.16049
178.33452 112.65285 225.138
178.87802 112.65282 225.09245
179.50867 112.62373 226.04132
180.1442 112.59463 226.98848
180.6927 112.59459 226.93851
181.14697 112.6236 225.89209
181.69324 112.62357 225.83966
182.23955 112.62352 225.78586
182.78595 112.62348 225.73074
183.33244 112.62344 225.67429
184.09169 112.56527 227.60428
184.64316 112.56522 227.54462
185.1947 112.56517 227.48355
185.85992 112.53606 228.41426
186.64603 112.47788 230.33586
186.96832 112.53595 228.28477
187.52266 112.53589 228.21797
188.20032 112.50677 229.14175
188.75728 112.50671 229.0719
189.18631 112.53571 228.00928
190.00195 112.47752 229.91901
190.69452 112.44838 230.83536
191.25674 112.44831 230.75926
191.95677 112.41917 231.67183
192.52165 112.4191 231.59256
193.22917 112.38995 232.50124
193.79674 112.38988 232.41879
194.51175 112.36073 233.32355
195.082 112.36064 233.23785
195.19585 112.44775 230.1869
195.75912 112.44765 230.09944
196.16553 112.47662 229.02338
196.72665 112.47652 228.93343
197.44978 112.44736 229.82841
198.34218 112.38912 231.70717
198.91104 112.38902 231.61166
199.81827 112.33076 233.48506
200.39229 112.33065 233.38579
201.14044 112.30146 234.26936
201.54086 112.33041 233.1828
202.2942 112.30121 234.06252
202.69014 112.33015 232.97385
203.63235 112.27187 234.83224
204.02625 112.3008 233.741
204.60397 112.30066 233.6308
205.18188 112.30051 233.51906
205.76003 112.30036 233.40582
206.53415 112.27113 234.27126
207.31334 112.2419 235.13419
207.89696 112.24173 235.01534
208.6839 112.21249 235.87369
209.06487 112.24139 234.77298
209.23326 112.29936 232.69406
210.0233 112.2701 233.54718
210.60564 112.26991 233.42104
211.18822 112.26971 233.29332
211.98874 112.24043 234.13962
212.57426 112.24023 234.00818
213.16003 112.24002 233.87514
213.9711 112.21072 234.7144
214.78731 112.18141 235.55096
215.37878 112.18118 235.41196
216.20288 112.15186 236.2435
217.03217 112.12254 237.07222
217.62938 112.12229 236.92708
218.2269 112.12204 236.78029
219.06686 112.09269 237.60159
219.42284 112.12151 236.48164
220.5154 112.06306 238.26694
221.36858 112.03368 239.08006
221.97504 112.03339 238.92293
222.83624 112.00401 239.73067
223.18893 112.0328 238.60338
224.05576 112.0034 239.40637
224.40425 112.03218 238.27687
225.2767 112.00276 239.07498
225.35428 112.06064 236.98
226.49911 112.0021 238.73651
226.2959 112.08908 235.67873
227.17477 112.05963 236.46835
227.78236 112.05928 236.29422
228.94849 112.0007 238.03795
229.84335 111.97122 238.81786
231.31161 111.88351 241.51126
231.64917 111.91224 240.36775
232.27118 111.91185 240.18079
232.60217 111.94057 239.03578
232.92862 111.96928 237.8904
233.25056 111.99799 236.74466
234.46466 111.93934 238.46008
234.785 111.96804 237.31131
236.01245 111.90936 239.01897
236.63759 111.90893 238.81857
238.18976 111.8211 241.4682
238.51196 111.84978 240.31155
239.14352 111.84932 240.10364
240.09192 111.81972 240.84187
240.72694 111.81925 240.62907
241.04114 111.84792 239.46768
241.99854 111.81829 240.19734
243.28778 111.75952 241.86795
243.92987 111.75903 241.64519
244.90384 111.72939 242.36339
246.55115 111.64144 244.96201
247.20486 111.64093 244.72935
247.85913 111.64041 244.49452
247.83105 111.6982 242.3786
248.82532 111.66853 243.0798
248.43924 111.75548 240.02652
249.78357 111.69664 241.65999
250.08398 111.72528 240.48033
251.44206 111.66644 242.10468
252.45422 111.63674 242.78915
253.47198 111.60705 243.46942
254.49538 111.57735 244.14549
256.25278 111.48931 246.67897
256.55902 111.51796 245.48474
257.22998 111.51744 245.21901
258.27335 111.48774 245.87883
258.57361 111.5164 244.68057
258.86926 111.54508 243.48199
259.53986 111.54459 243.20789
260.21094 111.54411 242.93143
260.11337 111.60201 240.8073
260.78036 111.60155 240.5282
261.05811 111.63029 239.3262
72.693481 113.25627 205.22264
73.261925 113.25645 205.46286
73.444763 113.22989 206.62346
72.86689 113.14987 209.63115
73.444344 113.15009 209.86954
73.643776 113.12357 211.03145
74.973076 113.17728 209.41359
76.291794 113.23099 207.78961
77.229927 113.25796 207.08826
78.897491 113.33841 204.52357
80.549416 113.41886 201.95097
80.736115 113.39237 203.09708
81.647186 113.41936 202.37802
82.195412 113.41961 202.58871
81.678734 113.33968 205.60121
81.17675 113.25977 208.61757
82.438347 113.31348 206.95547
82.994896 113.31375 207.16251
83.551003 113.31401 207.36768
84.448898 113.341 206.63176
85.001595 113.34127 206.83234
84.87944 113.28809 208.91316
86.10569 113.3418 207.22797
86.657074 113.34206 207.42308
87.53772 113.36903 206.67268
88.412933 113.396 205.91875
89.607399 113.44969 204.21588
89.502708 113.39651 206.293
89.727272 113.37005 207.42467
89.956413 113.34358 208.55626
90.504845 113.34383 208.73897
90.428421 113.29066 210.81923
91.290733 113.3176 210.04967
92.147667 113.34455 209.27675
92.389725 113.31808 210.40463
93.240906 113.34501 209.62671
94.386513 113.39864 207.89188
95.22451 113.42556 207.10667
95.467514 113.39908 208.22864
96.592178 113.45269 206.48264
96.836929 113.42619 207.60211
97.661087 113.45309 206.80655
97.91008 113.4266 207.92424
98.446121 113.42679 208.08293
98.701843 113.40028 209.19958
99.794724 113.45386 207.43509
100.05225 113.42735 208.54932
101.13214 113.48091 206.77809
101.93173 113.50777 205.96498
102.19074 113.48125 207.07523
102.45437 113.45472 208.1853
103.24811 113.48157 207.3662
103.51605 113.45503 208.47453
104.30428 113.48187 207.65103
105.0873 113.50871 206.82474
105.61221 113.50885 206.96272
106.13684 113.50899 207.09921
106.16513 113.45575 209.17099
106.44852 113.42919 210.27478
106.49341 113.37595 212.34795
107.26988 113.40276 211.51134
107.80297 113.40288 211.64287
108.57159 113.42967 210.80148
109.10172 113.42979 210.92946
109.86252 113.45657 210.08336
110.38972 113.45668 210.20784
110.69066 113.4301 211.30461
111.21983 113.43019 211.42673
112.19109 113.48365 209.5977
112.71494 113.48373 209.71587
113.23857 113.48382 209.83258
113.97584 113.51058 208.97141
114.70804 113.53734 208.10774
115.0172 113.51073 209.19673
115.53757 113.5108 209.3073
116.05774 113.51087 209.41649
116.17434 113.45758 211.48244
116.89825 113.48432 210.61028
117.22346 113.4577 211.69585
117.55334 113.43108 212.78104
118.27185 113.45782 211.90372
118.98534 113.48454 211.02406
119.50668 113.48459 211.1241
120.02785 113.48463 211.22275
120.73114 113.51135 210.33714
121.0697 113.48472 211.41597
121.59039 113.48476 211.51056
121.93591 113.45811 212.58797
122.63132 113.48483 211.69566
122.98138 113.45818 212.77126
123.67165 113.48489 211.8754
124.02628 113.45824 212.94911
124.54851 113.45826 213.03604
125.07062 113.45828 213.12164
125.75068 113.48498 212.21884
126.11443 113.45832 213.28883
126.48289 113.43166 214.35825
126.85607 113.40501 215.42708
127.38238 113.40502 215.50677
128.05458 113.43171 214.59621
128.57825 113.43172 214.67285
129.10179 113.43172 214.74821
129.62524 113.43173 214.82225
130.28494 113.45841 213.90466
130.80577 113.45841 213.97571
131.32649 113.45842 214.0455
132.10538 113.51176 212.13141
132.74782 113.53844 211.20639
133.1367 113.51176 212.26323
133.53033 113.48509 213.31938
134.28717 113.53844 211.39743
134.56595 113.48508 213.44409
135.1983 113.51175 212.51146
135.48895 113.4584 214.55696
136.11876 113.48506 213.62152
136.52875 113.45838 214.67194
137.36369 113.53839 211.74518
138.28677 113.64508 207.82127
139.19054 113.75177 203.89412
139.97716 113.83178 200.95869
140.84471 113.93847 197.02556
141.32088 113.93846 197.07065
141.88759 113.96512 196.11905
142.36124 113.96511 196.16158
142.83482 113.9651 196.20297
143.14154 113.91174 198.2355
143.70085 113.93839 197.27863
144.0981 113.91171 198.31325
144.2715 113.80499 202.33733
144.75928 113.80498 202.37405
145.24701 113.80496 202.40956
145.18275 113.59155 210.42198
145.42326 113.48483 214.44611
145.9397 113.48482 214.47997
146.33252 113.43145 216.50804
146.7943 113.40475 217.53755
147.48877 113.48476 214.57404
148.11423 113.5381 212.60657
148.52133 113.48473 214.63049
148.98778 113.45804 215.65526
149.459 113.43135 216.67902
149.89001 113.37798 218.70036
150.41577 113.37796 218.7234
151.02185 113.4313 216.74751
151.6183 113.48463 214.76999
152.06363 113.43127 216.78693
152.68343 113.51128 213.80742
153.16649 113.48459 214.82294
153.65436 113.45789 215.83737
154.12122 113.40453 217.84998
154.6678 113.43118 216.86348
155.14664 113.37782 218.87387
155.6908 113.40448 217.88481
156.21397 113.40446 217.89389
156.73714 113.40445 217.90173
157.28305 113.45779 215.90915
157.80142 113.45777 215.91443
158.32635 113.48444 214.91882
158.8423 113.48442 214.9216
159.35826 113.48441 214.92314
159.87485 113.45772 215.92308
160.39926 113.40434 217.92142
160.92786 113.37766 218.91884
161.46909 113.32429 220.91458
161.98926 113.35095 219.91019
162.51724 113.35094 219.90416
163.01521 113.40428 217.8978
163.53844 113.40427 217.8893
164.06166 113.40426 217.87956
164.71826 113.24418 223.86493
165.28056 113.21749 224.85165
165.73958 113.29751 221.83987
166.24307 113.32417 220.82559
166.67813 113.4042 217.81192
166.99612 113.56425 211.80028
167.46848 113.59093 210.78325
167.89702 113.64427 208.76631
168.35742 113.67094 207.74731
168.85689 113.67093 207.726
169.17145 113.77763 203.70917
169.61272 113.8043 202.68744
170.25339 113.72425 205.65814
170.80161 113.69756 206.63045
171.29883 113.69756 206.60323
171.91258 113.64419 208.57071
172.47534 113.61749 209.53859
172.97989 113.61749 209.50732
173.54994 113.5908 210.47232
174.12485 113.5641 211.43578
175.3369 113.2973 221.37222
175.94315 113.27061 222.33095
176.62932 113.21725 224.2849
177.2477 113.19055 225.24014
178.19043 113.05714 230.1795
178.25223 113.2172 224.15678
178.96268 113.16383 226.10355
179.59573 113.13714 227.05231
180.23366 113.11044 227.9993
180.78458 113.11043 227.94911
181.24126 113.13708 226.90239
181.7899 113.13707 226.84972
182.33864 113.13705 226.79573
182.98897 113.11035 227.73485
183.43634 113.13702 226.68365
184.09164 113.11031 227.61957
184.53436 113.13697 226.56619
185.19467 113.11028 227.49886
185.74631 113.11024 227.43645
186.53 113.05686 229.35849
187.08665 113.05684 229.29279
187.52261 113.0835 228.23335
188.20026 113.05679 229.1572
188.63161 113.08344 228.09564
189.18626 113.0834 228.02469
189.87146 113.05669 228.94345
190.69446 113.0033 230.85098
191.12141 113.02995 229.78445
191.95671 112.97655 231.68752
192.52159 112.9765 231.60828
193.08659 112.97646 231.52757
193.65173 112.97643 231.44548
194.21701 112.97638 231.36195
194.63266 113.00301 230.28862
194.89143 113.05634 228.22661
195.60445 113.0296 229.1275
196.00844 113.05624 228.05177
196.72658 113.0295 228.94907
197.28786 113.02944 228.85767
198.17781 112.97602 230.73695
198.57758 113.00264 229.65625
199.31085 112.97589 230.54535
200.04913 112.94914 231.43219
200.61848 112.94907 231.33231
201.188 112.94901 231.23091
201.93649 112.92225 232.11162
202.5088 112.92217 232.00684
203.26494 112.8954 232.88319
203.84003 112.89532 232.77498
204.41533 112.89523 232.66525
205.18175 112.86846 233.53523
205.75987 112.86836 233.422
206.3382 112.86827 233.30722
207.11496 112.84148 234.17073
207.69615 112.84138 234.0524
208.27754 112.84128 233.9325
208.65366 112.86785 232.83278
209.02513 112.89443 231.73253
209.81273 112.86762 232.58624
210.60545 112.84081 233.43739
210.97275 112.86738 232.33347
211.98856 112.81387 234.15605
212.57405 112.81374 234.0246
213.15982 112.8136 233.8916
213.74585 112.81345 233.75699
214.78709 112.75992 235.56758
215.37854 112.75977 235.42857
216.20264 112.73292 236.26019
216.79712 112.73276 236.11736
217.62912 112.70589 236.94391
218.22664 112.70572 236.79712
218.82445 112.70555 236.64865
219.66718 112.67867 237.46777
220.51511 112.65179 238.28397
221.11877 112.6516 238.12915
221.97473 112.62469 238.94003
222.83594 112.59779 239.74789
223.18864 112.62429 238.62056
224.05545 112.59737 239.42361
224.66571 112.59716 239.2588
225.54063 112.57023 240.05638
225.62064 112.62341 237.96054
226.76794 112.56977 239.71655
226.5672 112.64966 236.65788
227.44853 112.6227 237.4469
228.05859 112.62246 237.27209
229.22717 112.56879 239.01529
230.12451 112.54181 239.79456
231.59521 112.4614 242.48741
231.93527 112.48785 241.34315
232.55974 112.48757 241.15546
233.18465 112.48729 240.96587
233.22214 112.54044 238.86346
233.54654 112.56686 237.71692
234.46423 112.53986 238.47783
234.78455 112.56628 237.32896
235.70811 112.53925 238.08447
236.63712 112.51221 238.83643
237.8804 112.45845 240.53555
238.20013 112.48486 239.37971
238.82916 112.48454 239.17261
240.0914 112.43075 240.86005
240.72641 112.43041 240.64725
241.04059 112.45681 239.48584
242.32182 112.40301 241.16129
242.96088 112.40266 240.9415
243.60043 112.40231 240.71962
244.24054 112.40196 240.49568
245.8828 112.32139 243.09633
246.19508 112.34777 241.92416
247.18069 112.32067 242.63251
247.48901 112.34705 241.45782
248.13678 112.34669 241.22139
248.43863 112.37307 240.04514
250.13197 112.29247 242.61552
250.43491 112.31886 241.43489
252.14957 112.23824 243.99329
253.52336 112.18437 245.60982
254.18961 112.18401 245.35437
254.85638 112.18365 245.09665
256.61633 112.10303 247.62939
256.55835 112.15618 245.5042
257.59863 112.12907 246.16743
257.90088 112.15549 244.97049
258.19858 112.18192 243.77322
258.86862 112.18159 243.5015
259.53918 112.18127 243.22742
259.82828 112.20773 242.02719
260.11273 112.23419 240.82672
261.16687 112.20714 241.46928
261.44717 112.23363 240.26617
72.693794 113.79625 205.23778
73.26226 113.79628 205.47794
73.830345 113.79632 205.71609
73.249931 113.72341 208.72292
74.205009 113.7478 208.03561
74.77697 113.74787 208.26985
76.098648 113.79659 206.64876
77.409752 113.84532 205.02155
77.600281 113.8211 206.17447
78.897835 113.86984 204.53831
80.549751 113.94291 201.9655
80.736465 113.9187 203.11162
82.007401 113.96745 201.45979
82.553101 113.96758 201.66953
82.03389 113.89475 204.68124
81.881691 113.84624 206.76123
82.788467 113.8707 206.03362
82.995239 113.84652 207.17714
83.896088 113.87096 206.44391
84.791458 113.89542 205.70699
85.341644 113.89555 205.90662
85.21698 113.84707 207.98666
86.440704 113.89583 206.30043
86.989578 113.89597 206.49464
87.538025 113.89611 206.68706
88.413231 113.92056 205.93303
89.28302 113.945 205.17551
89.180817 113.89652 207.2536
89.407867 113.87234 208.38617
89.956703 113.87248 208.5706
90.190414 113.84831 209.70218
90.428711 113.82413 210.83363
91.291008 113.84857 210.064
92.147934 113.873 209.291
92.389992 113.84882 210.41891
93.241158 113.87325 209.64093
94.086975 113.89767 208.85963
94.630135 113.89779 209.02963
95.172928 113.8979 209.19792
96.300049 113.94662 207.45256
96.547287 113.92243 208.5728
97.373901 113.94684 207.77791
97.625366 113.92264 208.89641
98.163879 113.92274 209.05579
98.142075 113.87424 211.13293
99.51741 113.94724 208.4093
100.32749 113.97162 207.60204
100.85973 113.97171 207.75363
101.66178 113.99609 206.94113
102.45859 114.02047 206.1257
102.98497 114.02055 206.27124
103.51102 114.02063 206.41528
104.0368 114.0207 206.55779
104.82011 114.04507 205.73289
105.34283 114.04514 205.87173
105.86529 114.0452 206.00906
106.38745 114.04526 206.14493
106.66132 114.02102 207.24774
106.69424 113.97249 209.31938
106.9798 113.94825 210.42238
107.5107 113.9483 210.55478
107.80309 113.92406 211.65659
108.5717 113.94839 210.81514
109.10184 113.94843 210.94308
109.86263 113.97277 210.09692
110.38982 113.97281 210.22139
110.91679 113.97284 210.34438
111.21992 113.94858 211.44034
112.41234 114.02148 208.63622
112.71503 113.99722 209.72926
113.45494 114.02154 208.86998
114.18977 114.04585 208.00819
115.13094 114.09445 206.16684
115.64421 114.09447 206.27722
116.15729 114.09448 206.38625
116.46604 114.07021 207.47252
116.57778 114.02164 209.53758
117.09757 114.02164 209.64398
117.22351 113.97307 211.70927
117.55338 113.94878 212.79453
118.2719 113.97308 211.91713
118.98538 113.99737 211.0374
119.31958 113.97308 212.11945
120.21259 114.02166 210.25356
120.54889 113.99736 211.33334
121.06973 113.99736 211.42926
121.59042 113.99735 211.52383
122.28597 114.02163 210.63278
122.63133 113.99733 211.70892
122.9814 113.97303 212.78456
123.67168 113.99731 211.88863
124.02629 113.973 212.96243
124.3856 113.94869 214.03571
125.07063 113.97297 213.13492
125.75069 113.99725 212.23206
125.95877 113.94864 214.28961
126.4829 113.94862 214.37158
126.85608 113.92431 215.44048
127.23395 113.89999 216.50879
127.90857 113.92426 215.5985
128.57825 113.94852 214.68617
128.9606 113.92421 215.75121
129.62523 113.94848 214.83554
130.28494 113.97274 213.91789
130.80576 113.97272 213.98897
131.45802 113.99698 213.06769
132.2345 114.04554 211.1532
132.7478 114.04551 211.21942
133.26102 114.04549 211.28438
133.65222 114.02116 212.34029
134.16766 114.02113 212.40298
134.68301 114.0211 212.4644
135.1983 114.02107 212.52452
135.60121 113.99674 213.57677
136.33847 114.0453 211.64732
136.74365 114.02098 212.6973
137.57378 114.09383 209.76984
138.28674 114.14239 207.834
139.19052 114.23954 203.90662
139.8793 114.2881 201.96591
140.74927 114.38525 198.03278
141.22783 114.38522 198.07806
141.79695 114.40948 197.12663
142.36122 114.43375 196.17357
142.83481 114.43372 196.21495
143.22493 114.4094 197.25139
143.78183 114.43366 196.29424
144.17668 114.40934 197.32875
144.42387 114.33643 200.35611
144.83305 114.3121 201.38942
145.38977 114.33636 200.4276
145.45871 114.19056 206.44551
145.42325 113.99615 214.45918
145.87549 113.97183 215.49068
146.20892 113.89891 218.51682
146.55675 113.82599 221.54254
147.26082 113.89885 218.57942
148.05963 114.02031 213.61772
148.5213 113.99599 214.64354
148.98775 113.97166 215.66838
149.36423 113.89874 218.68933
149.84502 113.87442 219.71234
150.37317 113.8744 219.73549
150.94148 113.89867 218.75845
151.58051 113.97154 215.78201
152.06361 113.94722 216.80006
152.68341 114.02009 213.8204
153.19705 114.02007 213.83673
153.65433 113.97145 215.85045
154.14697 113.94713 216.86382
154.66779 113.94711 216.87662
155.12566 113.8742 219.88663
155.69078 113.92278 217.89799
156.21396 113.92276 217.9071
156.7509 113.94704 216.91534
157.27167 113.94702 216.92188
157.80141 113.97131 215.92752
158.31319 113.94699 216.93124
158.83394 113.94698 216.93404
159.35292 113.92267 217.93527
159.87608 113.92265 217.93559
160.40228 113.89834 218.93434
160.93327 113.87403 219.93181
161.46126 113.87402 219.9283
161.98924 113.87401 219.92355
162.51724 113.874 219.9175
163.00017 113.94689 216.91144
163.53842 113.92258 217.90251
164.14096 113.82538 221.89081
164.78493 113.70387 226.87689
165.30518 113.72816 225.86473
165.82065 113.75246 224.85133
166.24306 113.84966 220.83902
166.58264 113.99545 214.82758
166.89343 114.14125 208.8158
167.39522 114.14125 208.79799
167.81895 114.18985 206.78111
168.31599 114.18985 206.76108
168.76921 114.21415 205.74115
169.17143 114.26275 203.72156
169.61272 114.28705 202.69977
170.25337 114.21415 205.67062
170.74817 114.21415 205.64476
171.29883 114.18985 206.61581
171.85434 114.16556 207.5854
172.41469 114.14126 208.5535
172.91684 114.14126 208.52238
173.54994 114.09267 210.48514
174.12483 114.06837 211.44868
175.12613 113.89827 218.39403
175.79782 113.84968 220.35042
176.47919 113.80108 222.30484
177.2477 113.72819 225.25391
178.03067 113.65529 228.20053
178.25221 113.75249 224.17049
178.96266 113.7039 226.11736
179.59572 113.67961 227.06619
180.23364 113.65532 228.01326
180.78456 113.65532 227.96307
181.33554 113.65533 227.91154
181.88661 113.65533 227.85864
182.43774 113.65534 227.80441
182.98895 113.65535 227.74881
183.43633 113.67966 226.69756
184.09164 113.65536 227.63356
184.53436 113.67966 226.58012
185.19466 113.65537 227.51283
185.74631 113.65538 227.45044
186.52998 113.60679 229.3726
187.08664 113.60679 229.3069
187.64339 113.6068 229.23981
188.20026 113.6068 229.17136
188.7572 113.6068 229.1015
189.31427 113.6068 229.03026
189.87144 113.6068 228.9576
190.56158 113.58251 229.87442
190.98613 113.60681 228.80815
191.819 113.55821 230.7117
192.24138 113.58251 229.64294
192.94406 113.5582 230.55247
193.6517 113.53391 231.45987
194.21698 113.53391 231.37633
194.63261 113.5582 230.30295
195.04356 113.58249 229.22888
195.759 113.55818 230.12949
196.16539 113.58247 229.05328
197.04538 113.53387 230.93716
197.77335 113.50956 231.83151
198.5063 113.48524 232.72363
199.07758 113.48523 232.62775
199.649 113.48521 232.5304
200.22061 113.4852 232.43158
200.79237 113.48518 232.33127
201.18794 113.50946 231.24545
202.11523 113.46084 233.10979
202.50873 113.48512 232.02144
203.26486 113.46079 232.89787
203.65388 113.48506 231.80743
204.60376 113.43643 233.6617
205.18167 113.4364 233.55
205.7598 113.43636 233.43677
206.3381 113.43633 233.32202
207.11487 113.41199 234.18559
207.49539 113.43625 233.08789
208.07436 113.43621 232.96852
208.44803 113.46046 231.86926
209.02502 113.46042 231.7473
209.81262 113.43607 232.60114
210.60533 113.41171 233.45232
211.40317 113.38735 234.30089
212.64153 113.31438 237.09819
213.23434 113.31432 236.96513
213.82744 113.31425 236.83046
214.19576 113.33849 235.72012
214.78694 113.33842 235.58278
215.37839 113.33834 235.44379
216.20248 113.31396 236.27547
216.56215 113.33819 235.16089
217.62897 113.28949 236.95927
218.22647 113.28941 236.8125
218.58212 113.31362 235.69412
219.17778 113.31352 235.5446
220.26788 113.26482 237.33083
220.61957 113.28902 236.2086
221.21864 113.28892 236.05339
222.07248 113.2645 236.86327
222.67467 113.26439 236.70395
223.53654 113.23997 237.50839
224.4037 113.21554 238.30977
225.01187 113.21541 238.14392
225.3537 113.23959 237.01283
226.4985 113.19084 238.76967
226.56696 113.23933 236.6736
227.17415 113.2392 236.5013
228.05832 113.21474 237.28789
229.2269 113.16597 239.03122
230.12424 113.14151 239.81059
231.31091 113.09273 241.54515
231.64848 113.11688 240.4016
232.55943 113.09241 241.17169
233.18433 113.09224 240.98212
232.92789 113.16502 237.92409
233.24982 113.18917 236.77826
234.4639 113.14036 238.49397
234.78421 113.16451 237.34511
235.70776 113.14001 238.10068
236.94313 113.09118 239.80435
238.1889 113.04235 241.50282
238.19977 113.09081 239.39612
238.8288 113.09061 239.18904
239.77467 113.06609 239.92828
240.4072 113.0659 239.71637
240.71887 113.09002 238.55576
242.32144 113.01685 241.17799
242.96048 113.01664 240.95825
243.60004 113.01643 240.7364
244.24011 113.01623 240.51247
245.2146 112.99169 241.22874
245.52185 113.01582 240.05829
246.50243 112.99128 240.76854
246.80571 113.0154 239.59564
248.13635 112.96653 241.23845
248.78465 112.96632 240.99986
250.13152 112.91745 242.63274
250.78598 112.91724 242.38792
252.14909 112.86837 244.01068
253.16629 112.84383 244.69342
253.83002 112.84364 244.439
254.49426 112.84344 244.18225
256.25165 112.77024 246.71623
256.19116 112.81873 244.59192
256.85962 112.81856 244.32727
257.90039 112.79404 244.98825
258.19812 112.81823 243.79094
258.86816 112.81808 243.51924
259.53876 112.81793 243.24522
259.82782 112.84214 242.04495
259.34317 112.91505 238.99886
260.39215 112.89061 239.64365
260.27771 112.9392 237.52203
73.47464 114.38003 203.41058
74.038017 114.37991 203.64859
73.830528 114.336 205.72969
73.63282 114.29211 207.81306
74.2052 114.29202 208.0493
74.777161 114.29195 208.28354
76.098839 114.33569 206.66231
77.037422 114.35754 205.96271
77.600479 114.3575 206.18793
78.898041 114.40127 204.55161
80.549957 114.46695 201.97859
80.736671 114.44502 203.12477
82.007607 114.48882 201.47279
82.553307 114.48881 201.6825
82.388931 114.44499 203.75969
81.881912 114.37927 206.77446
82.438896 114.37927 206.98335
82.648186 114.35738 208.12787
83.551552 114.37929 207.39546
84.107201 114.3793 207.59875
85.002136 114.40121 206.85992
85.217171 114.37932 207.99982
86.106201 114.40124 207.25551
86.657585 114.40126 207.45058
87.538223 114.42318 206.70003
88.413429 114.4451 205.94591
89.283211 114.46703 205.18831
89.180992 114.42324 207.26654
89.727737 114.42326 207.45186
89.956879 114.40137 208.58354
89.875885 114.35759 210.66409
90.116669 114.33571 211.79643
90.67173 114.33572 211.97809
91.533623 114.35765 211.20665
91.780647 114.33576 212.33621
92.63678 114.35768 211.55972
93.487549 114.3796 210.77995
94.035683 114.37962 210.95143
94.58342 114.37963 211.12126
96.007828 114.44535 208.42125
96.257538 114.42346 209.54228
97.374023 114.46727 207.79051
97.625481 114.44538 208.90906
98.164001 114.44539 209.06841
98.422173 114.42349 210.18591
99.239998 114.4454 209.38229
99.777481 114.4454 209.53688
100.31464 114.4454 209.68987
101.39174 114.4892 207.91611
101.92334 114.4892 208.06456
102.18942 114.46729 209.17538
103.24835 114.51109 207.3922
103.77658 114.51109 207.53535
104.56235 114.53297 206.71106
105.34291 114.55487 205.88393
106.11829 114.57676 205.05402
106.63801 114.57674 205.18922
106.90941 114.55482 206.29147
107.18546 114.53291 207.39346
107.22299 114.48908 209.46501
107.75143 114.48906 209.59677
108.04138 114.46713 210.69803
108.80755 114.48901 209.85591
109.10188 114.46709 210.95541
110.32449 114.53277 208.16371
110.38986 114.48893 210.23363
111.14285 114.5108 209.38277
111.89073 114.53268 208.52931
112.63352 114.55454 207.67331
112.93377 114.53261 208.7659
113.88753 114.57638 206.9299
114.40363 114.57634 207.04361
115.13097 114.59821 206.17871
115.64423 114.59817 206.28911
115.95074 114.57623 207.37631
116.26192 114.55428 208.46317
116.57779 114.53233 209.54964
116.89832 114.51038 210.63573
117.22351 114.48843 211.72141
117.55338 114.46648 212.8067
118.2719 114.48833 211.92924
118.79582 114.48829 212.0311
119.13245 114.46633 213.11365
120.21257 114.53201 210.26558
120.73116 114.53195 210.36238
121.42944 114.55381 209.47441
121.94528 114.55376 209.56808
122.63599 114.57561 208.67613
122.97652 114.55365 209.75146
123.15155 114.50978 211.81148
123.83941 114.53164 210.91507
124.1916 114.50967 211.98849
124.71143 114.50961 212.075
125.23111 114.50956 212.1602
125.90875 114.53142 211.25685
126.11441 114.48754 213.31413
126.48287 114.46557 214.38368
126.85604 114.4436 215.45262
127.38235 114.44354 215.53229
128.20056 114.4873 213.63257
128.72182 114.48725 213.70886
129.24295 114.48719 213.78384
129.90276 114.50905 212.86742
130.42126 114.50899 212.93948
130.93968 114.50893 213.01019
131.58952 114.53078 212.08859
132.3636 114.57455 210.17361
132.8745 114.5745 210.23953
133.5096 114.59635 209.31218
133.896 114.57439 210.36755
134.40662 114.57433 210.42964
134.80006 114.55236 211.48337
135.31294 114.55231 211.54321
135.60118 114.50842 213.58868
136.33844 114.55219 211.6591
136.74361 114.53023 212.70912
137.46869 114.57401 210.77571
138.18407 114.61778 208.84004
139.09024 114.70539 204.91269
139.78143 114.74917 202.97209
140.65379 114.83678 199.03894
141.22778 114.85866 198.08907
141.88754 114.90244 196.14191
142.36118 114.9024 196.18443
142.83478 114.90235 196.22581
143.3083 114.90231 196.26605
143.86281 114.92418 195.30862
144.33385 114.92413 195.34636
144.50005 114.83643 199.37033
144.90681 114.81446 200.40352
145.53253 114.85826 198.44426
145.66565 114.74863 203.4648
145.48979 114.5294 213.47351
145.74709 114.44168 217.49796
146.08533 114.37589 220.52457
146.37856 114.28816 224.54877
147.03287 114.33196 222.584
147.89584 114.46344 216.62431
148.52127 114.50724 214.65536
149.03751 114.50721 214.68173
149.41158 114.44141 217.70274
149.84499 114.39754 219.72444
150.33057 114.37558 220.74646
150.94145 114.41939 218.77052
151.54271 114.4632 216.79294
152.06358 114.46317 216.812
152.61743 114.48506 215.8306
153.13588 114.48504 215.84708
153.62613 114.46309 216.86169
154.14696 114.46307 216.87575
154.64438 114.44112 217.88805
155.12563 114.39725 219.89871
155.6722 114.41916 218.90958
156.19777 114.41914 218.91873
156.72333 114.41911 218.92659
157.26027 114.44102 217.9335
157.80139 114.48485 215.93938
158.31975 114.48483 215.94342
158.83392 114.4629 216.94595
159.35469 114.46288 216.94749
159.87608 114.44095 217.94757
160.40529 114.39709 219.94612
160.92241 114.44093 217.9444
161.45341 114.419 218.94067
161.96878 114.44092 217.93622
162.47935 114.46283 216.93054
162.98514 114.48475 215.92371
163.55585 114.41898 218.91412
164.20042 114.28745 224.90169
164.85159 114.17783 229.88789
165.37906 114.19975 228.8755
165.84767 114.26553 225.86314
166.24306 114.37514 220.85118
166.51898 114.55052 212.84088
166.85921 114.66014 207.82811
167.35858 114.66015 207.81039
167.77994 114.70399 205.79352
168.31599 114.68208 206.77249
168.72539 114.72594 204.75366
169.12521 114.76979 202.73412
169.56409 114.79173 201.71236
170.20235 114.72597 204.68353
170.69473 114.72598 204.65776
171.18715 114.726 204.6308
171.7961 114.68217 206.59877
172.35405 114.66026 207.56708
172.85381 114.66028 207.5361
173.4845 114.61646 209.49915
174.05699 114.59455 210.46289
174.98563 114.46304 216.41151
175.65253 114.41922 218.36838
176.40414 114.35349 221.32018
177.17023 114.28774 224.26959
178.03069 114.20008 228.21318
178.3345 114.26587 225.17926
179.04736 114.22206 227.12605
179.76991 114.17825 229.07071
180.32315 114.17827 229.02165
180.69269 114.22215 226.98021
181.24126 114.22218 226.92888
181.78992 114.22221 226.87622
182.33864 114.22224 226.82222
182.88745 114.22227 226.76688
183.33241 114.24422 225.71585
184.09166 114.20041 227.64622
184.53438 114.22237 226.59273
185.30583 114.17856 228.51909
185.85988 114.17859 228.45642
186.64598 114.13479 230.3784
187.20505 114.13483 230.31242
187.76421 114.13486 230.24507
188.20026 114.15681 229.18414
188.63161 114.17877 228.12247
189.18625 114.1788 228.05153
189.74103 114.17884 227.97925
190.42874 114.15696 228.89642
190.85088 114.17892 227.83041
191.68134 114.13512 229.73441
192.24139 114.13515 229.65582
192.94408 114.11327 230.56541
193.50679 114.1133 230.48369
194.06964 114.11334 230.40053
194.63263 114.11338 230.31592
195.04358 114.13533 229.24181
195.759 114.11345 230.14247
196.3224 114.11349 230.05359
197.2048 114.06969 231.93719
197.77335 114.06973 231.84465
198.50629 114.04784 232.73682
198.91087 114.06979 231.65517
199.649 114.0479 232.54359
200.2206 114.04794 232.44478
200.61841 114.06989 231.35997
201.18793 114.06992 231.25861
202.29401 114.0042 234.1067
202.68994 114.02615 233.01787
203.26485 114.02618 232.91116
203.83994 114.0262 232.80296
204.60373 114.00432 233.67508
204.99072 114.02625 232.58202
205.75977 114.00436 233.45016
206.14229 114.02631 232.35501
206.7184 114.02632 232.23923
207.29471 114.02634 232.12189
207.66815 114.04828 231.02412
208.03696 114.07021 229.92583
208.81702 114.04832 230.78282
209.81258 114.0045 232.61456
210.39246 114.00452 232.48898
211.40311 113.9607 234.31445
212.42377 113.91689 236.13618
