ply
format ascii 1.0
comment PCL generated
element vertex 1592
property float x
property float y
property float z
element camera 0
property float view_px
property float view_py
property float view_pz
property float x_axisx
property float x_axisy
property float x_axisz
property float y_axisx
property float y_axisy
property float y_axisz
property float z_axisx
property float z_axisy
property float z_axisz
property float focal
property float scalex
property float scaley
property float centerx
property float centery
property int viewportx
property int viewporty
property float k1
property float k2
end_header
130.57455 82.449913 442.59787
131.83554 82.616264 440.67831
133.02905 82.699585 439.75015
134.21739 82.782883 438.81876
135.34853 82.783165 438.87933
136.47961 82.783424 438.93701
137.61066 82.783661 438.99179
138.74164 82.783905 439.04355
139.87259 82.784119 439.09244
141.04266 82.867325 438.14261
142.09773 82.7015 440.17734
143.19708 82.618668 441.2135
144.33299 82.61882 441.25092
145.43996 82.535965 442.28146
146.57838 82.536095 442.31308
147.74057 82.619217 441.34546
148.8976 82.702316 440.37482
150.03082 82.702408 440.39749
151.14792 82.619476 441.4137
152.25661 82.453529 443.42355
153.37553 82.287567 445.43054
154.51311 82.204605 446.43817
155.66165 82.20462 446.44638
156.81018 82.204628 446.45163
157.96016 82.370621 444.46085
159.10172 82.453598 443.46371
160.24257 82.453568 443.46011
161.37645 82.536522 442.45703
162.49568 82.702469 440.45459
163.62886 82.702393 440.44229
164.76207 82.702301 440.42706
165.89528 82.702194 440.40891
167.02852 82.702072 440.38782
168.16177 82.701942 440.36389
169.31999 82.61879 441.33316
170.45587 82.618637 441.30331
171.62183 82.535446 442.2666
172.76033 82.535263 442.23077
173.96922 82.369049 444.18384
175.15068 82.28582 445.13779
176.297 82.285583 445.0929
177.48624 82.202332 446.04053
178.63521 82.202065 445.98956
179.78424 82.201782 445.93567
180.88275 82.2845 444.88345
182.08246 82.201172 445.81885
183.23166 82.200844 445.75598
184.32266 82.283524 444.69525
185.53026 82.200142 445.62131
186.80644 82.033737 447.53857
187.96106 82.033348 447.46344
189.11574 82.032936 447.38531
190.41267 81.866478 449.29218
191.71997 81.699997 451.19534
193.03761 81.533493 453.09467
194.4444 81.283943 455.98364
195.78532 81.117401 457.875
197.13663 80.950821 459.76254
198.58479 80.701202 462.63882
200.04846 80.451553 465.51071
201.52766 80.201889 468.37799
202.92818 80.035217 470.2486
204.14558 80.034561 470.13141
205.3631 80.033905 470.01096
206.37694 80.19928 467.90466
207.48511 80.281601 466.78729
208.69531 80.280884 466.65808
209.68645 80.446198 464.54468
210.55527 80.69455 461.43903
211.63832 80.776794 460.3118
212.71637 80.859039 459.18195
213.78944 80.941246 458.04959
214.98 80.940399 457.90366
216.29575 80.856476 458.74319
217.4892 80.855576 458.59064
218.68283 80.854645 458.43488
219.7439 80.936752 457.28824
220.93532 80.935776 457.12646
222.12692 80.934769 456.96146
223.17825 81.0168 455.80664
224.36768 81.015747 455.63562
225.70294 80.93161 456.44724
226.89537 80.930496 456.26944
228.088 80.929352 456.08838
229.4342 80.845108 456.88879
230.47394 80.926987 455.71661
231.35025 81.091911 453.55814
232.37756 81.173737 452.38156
233.5636 81.172455 452.18558
234.41743 81.337311 450.02118
235.59885 81.335968 449.81967
236.95189 81.251511 450.59647
238.13638 81.250107 450.38794
239.14459 81.331772 449.19537
240.32707 81.330299 448.9808
241.69154 81.245697 449.74277
242.87717 81.244156 449.52109
244.06308 81.242584 449.29617
245.43877 81.157867 450.04626
246.43582 81.239334 448.83636
247.62265 81.237656 448.60147
248.80981 81.235939 448.36325
250.39697 81.067932 450.07431
251.79237 80.982994 450.80411
252.98831 80.981155 450.5542
254.1846 80.979279 450.30093
255.38126 80.977356 450.04422
256.36548 81.058548 448.81055
257.77567 80.973396 449.5206
258.75549 81.054512 448.28125
259.95105 81.052444 448.01138
260.92389 81.133484 446.76691
262.34338 81.048157 447.46146
263.31183 81.129135 446.21118
264.96829 80.960541 447.86694
266.16849 80.958252 447.5791
267.8414 80.789536 449.22412
269.0477 80.78714 448.92798
270.73709 80.618309 450.56207
271.70557 80.699036 449.29126
273.40891 80.530083 450.91489
274.12662 80.693939 448.67267
275.33783 80.69133 448.35797
276.29523 80.771896 447.07608
277.50485 80.769196 446.75482
278.45541 80.849686 445.46774
279.92563 80.763657 446.10129
281.13681 80.760818 445.76901
282.61588 80.674683 446.39297
283.83072 80.671753 446.05258
285.31873 80.58551 446.66699
286.8125 80.499207 447.27606
288.03424 80.496124 446.92291
289.25653 80.492996 446.56598
291.04559 80.323227 448.11621
292.27429 80.32 447.75003
293.50354 80.316727 447.38
295.02435 80.230095 447.9592
296.55106 80.143402 448.53293
297.49121 80.223328 447.19815
299.02438 80.136528 447.76245
300.26196 80.133026 447.37125
301.80426 80.046135 447.92508
303.04572 80.042557 447.52502
304.59717 79.955559 448.0683
305.84253 79.951889 447.65939
307.08856 79.948181 447.24643
308.6525 79.861053 447.77402
310.22235 79.773872 448.29578
311.47559 79.770058 447.86868
312.4043 79.849625 446.49551
313.98401 79.762329 447.00214
314.90875 79.841873 445.62241
315.82892 79.921394 444.24045
317.41586 79.834015 444.73264
319.00873 79.746613 445.21866
320.60754 79.659164 445.69858
321.86859 79.655159 445.23694
323.47662 79.567673 445.70535
324.74158 79.563644 445.2341
326.35876 79.47612 445.69092
327.62762 79.472092 445.21002
328.89703 79.468071 444.7247
330.52661 79.380524 445.1644
332.8866 79.125916 447.45432
336.72272 78.537102 453.44263
340.96417 77.864639 460.33807
345.61899 77.108521 468.13718
350.3222 76.352295 475.91232
353.94714 75.846695 480.89432
355.71341 75.758972 481.24878
357.48541 75.67131 481.59619
359.64673 75.500084 482.85623
361.81906 75.328918 484.1069
363.61346 75.241425 484.43066
365.02194 75.23764 483.8309
366.4306 75.233948 483.2262
367.4426 75.314026 481.70251
368.84888 75.310593 481.08908
371.05969 75.140007 482.29422
372.87634 75.0532 482.57922
375.10571 74.882889 483.76624
376.52515 74.880081 483.12723
377.94434 74.877457 482.48334
378.94766 74.95871 480.92892
380.78174 74.872841 481.18109
-40.930405 80.16124 439.35443
-39.639938 80.163483 439.93744
-39.161819 80.003792 442.33636
-37.865753 80.006348 442.91284
-36.569626 80.009064 443.4848
-35.273529 80.011894 444.05228
-33.977478 80.014854 444.61517
-32.68158 80.017914 445.17358
-31.385849 80.021088 445.72745
-30.090347 80.024345 446.27679
-28.79512 80.027687 446.82159
-27.500198 80.031105 447.36182
-25.446396 80.196548 446.05429
-23.780609 80.281052 445.66068
-22.494812 80.284622 446.18408
-20.837845 80.369202 445.7782
-19.186646 80.453812 445.36563
-17.54126 80.538429 444.94653
-16.26535 80.54213 445.44894
-14.98996 80.545853 445.9469
-13.356812 80.630508 445.51038
-12.085205 80.634254 445.99857
-10.814133 80.638016 446.4823
-9.1933441 80.722672 446.02863
-7.9261322 80.726425 446.50272
-7.3496704 80.56842 448.84262
-6.0784149 80.572174 449.31003
-4.8077545 80.575935 449.77307
-3.2006378 80.660522 449.29391
-1.9339294 80.66423 449.74753
-0.004196167 80.829613 448.31711
1.2559509 80.833282 448.76031
2.5154419 80.836914 449.19937
3.774292 80.84053 449.63422
5.3537598 80.924927 449.12137
6.9273071 81.009277 448.6026
8.4949341 81.09359 448.07794
10.056671 81.177856 447.54739
11.301743 81.18129 447.95813
12.546204 81.184692 448.36481
13.790024 81.188065 448.76749
14.730347 81.110626 450.11575
16.275757 81.194679 449.56082
17.517715 81.197937 449.95148
19.054001 81.281891 449.38614
19.999741 81.204323 450.72101
21.819321 81.368912 449.19244
22.766479 81.291267 450.52032
24.287262 81.375023 449.93533
25.802231 81.458725 449.34491
27.032135 81.46167 449.70593
27.984833 81.383881 451.02072
29.490234 81.467438 450.41656
30.447037 81.389572 451.72528
31.677338 81.392365 452.07181
33.173256 81.475761 451.4541
34.399864 81.478455 451.79242
35.625916 81.481094 452.12708
36.851471 81.483704 452.45801
38.076523 81.486259 452.78519
39.554207 81.569412 452.14465
40.775642 81.571877 452.46384
42.244553 81.654938 451.8139
43.462402 81.657303 452.12518
44.922554 81.740265 451.46603
46.136894 81.742546 451.76941
47.588326 81.825409 451.10114
48.564224 81.746994 452.36542
50.009575 81.829758 451.68878
50.989822 81.751274 452.94717
52.201973 81.753357 453.23279
53.413719 81.755394 453.5148
54.625053 81.757385 453.7934
55.616631 81.678772 455.04074
57.046532 81.761269 454.34006
58.042526 81.682587 455.58157
59.254898 81.684433 455.8468
60.675911 81.7668 455.13394
61.884964 81.768562 455.39172
63.093658 81.770294 455.64606
64.503258 81.852539 454.92072
65.907326 81.934738 454.19095
67.109848 81.936356 454.43393
68.312027 81.937927 454.67361
69.322998 81.858932 455.88821
70.52713 81.860443 456.12167
71.730972 81.861923 456.35175
73.117653 81.943901 455.59866
74.318314 81.945305 455.82162
75.696678 82.027206 455.06046
76.894196 82.028549 455.27625
77.918617 81.949341 456.47043
78.947937 81.870102 457.6622
79.982155 81.79084 458.85156
81.186363 81.792068 459.05548
82.39032 81.793259 459.25616
83.594025 81.794426 459.45358
84.64016 81.715057 460.6319
86.000748 81.796669 459.8385
87.051567 81.717255 461.01114
88.107323 81.63781 462.1813
89.315056 81.63884 462.36313
90.378098 81.559341 463.52798
91.446091 81.479843 464.69025
92.519035 81.400307 465.85004
93.460167 81.240257 467.99469
94.545593 81.16069 469.14972
95.504379 81.00061 471.29019
96.860352 81.081955 470.46368
98.337471 81.243744 468.64459
99.680244 81.325035 467.80991
101.01771 81.406296 466.97134
102.34985 81.487518 466.129
103.67673 81.568733 465.28271
104.88468 81.569435 465.423
106.31458 81.731064 463.57892
107.51711 81.731735 463.71219
108.6136 81.651917 464.83337
109.81843 81.652542 464.9606
111.12389 81.733612 464.09299
112.3259 81.734192 464.21362
113.52778 81.734756 464.33105
114.8226 81.81575 463.45297
116.02168 81.816284 463.56387
117.22066 81.816788 463.6716
118.50488 81.897728 462.7832
119.86665 82.059113 460.89786
121.29829 82.300919 458.01505
122.71442 82.542709 455.12787
124.03999 82.704018 453.23035
125.42772 82.945763 450.3349
126.66006 83.026581 449.42392
127.8872 83.107391 448.50958
129.17395 83.268623 446.59723
130.45036 83.42984 444.68124
131.65677 83.51059 443.75659
132.97221 83.752213 440.83838
134.1631 83.832939 439.90686
135.2968 83.833191 439.96762
136.47986 83.913879 439.02985
137.61089 83.914108 439.08456
138.74187 83.914322 439.13638
139.83105 83.834084 440.18109
140.96451 83.834259 440.2272
142.02469 83.673553 442.26251
143.12915 83.593269 443.29907
144.27017 83.593422 443.33661
145.38225 83.513107 444.36755
146.57849 83.674118 442.40643
147.74068 83.754669 441.4386
148.89769 83.835205 440.46771
150.01224 83.754837 441.487
151.1319 83.674469 442.50342
152.24312 83.513641 444.51373
153.36459 83.352806 446.52118
154.50473 83.2724 447.52905
155.65582 83.272415 447.53729
156.8069 83.272415 447.54254
157.95871 83.352844 446.54813
159.10539 83.433266 445.55069
160.25134 83.433228 445.54715
161.39035 83.513626 444.54382
162.52423 83.593994 443.53769
163.65298 83.674377 442.52856
164.80597 83.593842 443.50992
165.92963 83.674194 442.49506
167.06798 83.67408 442.47388
168.20636 83.67395 442.4498
169.34476 83.673813 442.42276
170.4557 83.754105 441.39645
171.62164 83.6735 442.35995
172.79276 83.59288 443.3204
174.0042 83.431808 445.2738
175.1882 83.351151 446.22791
176.33707 83.350937 446.18283
177.52885 83.270256 447.13071
178.72581 83.189568 448.07529
179.83195 83.269745 447.02557
180.9836 83.26947 446.96854
182.13528 83.26918 446.90851
183.28703 83.268875 446.84552
184.43884 83.268555 446.77951
185.59073 83.268219 446.71057
186.80608 83.187416 447.63339
188.02661 83.106598 448.55283
189.25238 83.025757 449.46899
190.55443 82.864456 451.37595
191.86684 82.703133 453.27917
193.26581 82.461334 456.17242
194.68028 82.219513 459.0614
196.02888 82.058121 460.95264
197.38786 81.896706 462.83997
198.8437 81.654816 465.71628
200.22601 81.493362 467.59531
201.61868 81.331879 469.47028
202.92755 81.250832 470.34879
204.04817 81.330688 469.23953
205.16377 81.410538 468.12762
206.17245 81.570831 466.02148
207.17101 81.73111 463.91324
208.26643 81.810913 462.79382
209.24728 81.971153 460.68118
210.21797 82.131378 458.56653
211.40804 82.130653 458.43008
212.59824 82.129898 458.29053
213.7886 82.129128 458.1478
215.10159 82.047852 458.99112
216.29486 82.047028 458.8418
217.4883 82.046188 458.68924
218.6819 82.045319 458.53351
219.74294 82.124916 457.38672
220.93433 82.124001 457.22498
222.26381 82.042572 458.04718
223.17723 82.202591 455.90509
224.36664 82.201599 455.7341
225.55624 82.200584 455.55994
226.89426 82.119049 456.36823
227.93608 82.198479 455.20193
229.27968 82.116882 456.00302
230.3168 82.196259 454.83105
231.349 82.27562 453.65674
232.37628 82.35495 452.47998
233.56232 82.353752 452.28406
234.58237 82.433029 451.10214
235.59747 82.512299 449.91779
236.9505 82.430481 450.69498
238.13498 82.429169 450.48648
238.96658 82.588867 448.31277
240.32558 82.506958 449.07922
241.5083 82.505547 448.86145
242.87561 82.423561 449.61993
244.06146 82.422089 449.39502
245.43713 82.340027 450.14548
246.62622 82.33847 449.91351
247.81558 82.336884 449.67813
248.80807 82.415817 448.46246
250.59499 82.172493 451.15054
251.99294 82.090233 451.8801
253.19144 82.088493 451.62976
254.39026 82.086716 451.37598
255.58946 82.0849 451.11884
256.57626 82.163628 449.88446
257.98898 82.081161 450.59427
258.97137 82.159821 449.35419
259.94894 82.238434 448.11185
261.14484 82.23645 447.83862
262.56689 82.153809 448.53287
263.5379 82.23233 447.28189
265.1969 82.069 448.93753
266.39966 82.066833 448.6492
268.07513 81.903381 450.29413
269.04523 81.98175 449.02966
270.73459 81.818199 450.66428
271.45911 81.977112 448.427
273.15979 81.813461 450.05179
273.87482 81.972305 447.80991
275.08344 81.969833 447.496
276.03815 82.047974 446.21475
277.24512 82.045425 445.89429
278.45261 82.042847 445.57013
279.92273 81.959541 446.20398
281.13385 81.956863 445.8718
282.88025 81.79277 447.45639
284.09766 81.789993 447.11536
285.58823 81.706474 447.72934
286.80933 81.703598 447.38007
288.03101 81.700684 447.02704
289.2533 81.697723 446.67026
291.04227 81.533287 448.22101
292.55658 81.449509 448.80988
293.78845 81.446404 448.43921
295.60278 81.281784 449.97134
296.54755 81.359314 448.63879
297.48767 81.436836 447.30392
298.72192 81.433571 446.91763
299.95685 81.430267 446.5274
301.49646 81.346146 447.08246
303.04196 81.261978 447.63181
304.59335 81.17775 448.17542
306.15067 81.093475 448.71335
307.39929 81.089966 448.29962
308.64856 81.086418 447.88181
310.21832 81.002014 448.40393
311.47156 80.998398 447.97705
312.40027 81.075584 446.60379
313.65216 81.071915 446.16953
314.57422 81.149078 444.79065
315.82477 81.14537 444.34894
317.41165 81.060791 444.84149
319.00452 80.976166 445.328
320.60327 80.891518 445.80832
321.86432 80.887733 445.34677
323.12598 80.883942 444.88095
324.03931 80.961044 443.4772
325.29956 80.957245 443.00381
327.26898 80.791611 444.38934
328.89264 80.706879 444.83582
330.52225 80.622147 445.27591
332.8822 80.375519 447.56671
337.44809 79.643173 455.41187
341.69482 78.991653 462.30722
345.98468 78.340057 469.18103
350.31763 77.68837 476.03314
353.94254 77.198563 481.01669
355.33063 77.194656 480.4494
357.10001 77.109818 480.79828
360.02579 76.782013 483.89999
362.20081 76.616249 485.15018
363.6091 76.612579 484.55554
364.6261 76.690033 483.03934
366.03223 76.686569 482.43594
366.64474 76.845291 479.99905
368.04584 76.842087 479.38812
370.2514 76.67691 480.59619
372.87256 76.430801 482.70544
375.10211 76.265884 483.89304
376.11151 76.344315 482.34586
378.354 76.179733 483.51764
378.94464 76.33963 481.05594
380.36066 76.337608 480.40366
-41.339188 81.340942 440.37418
-40.454865 81.264557 441.86755
-39.564972 81.188362 443.35873
-38.669693 81.112312 444.84787
-36.967194 81.193283 444.50931
-35.66832 81.195938 445.07782
-33.973938 81.277122 444.72672
-32.677933 81.279999 445.28494
-30.991882 81.361374 444.9213
-30.086563 81.286026 446.38788
-28.791245 81.289169 446.93246
-27.114029 81.370766 446.55188
-25.062912 81.5308 445.24274
-23.776642 81.534119 445.77045
-22.490814 81.537483 446.29376
-21.205429 81.540894 446.81253
-19.551575 81.622696 446.4007
-17.903519 81.704529 445.98224
-16.624924 81.708023 446.48553
-15.346878 81.71154 446.98438
-13.71106 81.793404 446.54849
-12.436798 81.796944 447.03754
-10.810089 81.878807 446.58981
-9.5396423 81.882355 447.06906
-8.2697906 81.88591 447.54395
-7.3456421 81.811172 448.94989
-6.0743713 81.81472 449.41708
-4.4640198 81.89653 448.94281
-2.8595734 81.978325 448.46228
-1.5955048 81.981827 448.91473
-0.00028991699 82.063568 448.42288
1.2598267 82.067032 448.86594
2.5192719 82.070465 449.30484
3.7780914 82.073875 449.73953
5.3575134 82.155487 449.22638
6.6124115 82.158844 449.65179
8.4986115 82.318588 448.18213
9.7469482 82.321877 448.59766
10.994598 82.325127 449.00916
12.241653 82.328346 449.41653
13.793518 82.409714 448.87091
14.733826 82.334686 450.21927
16.27916 82.41597 449.66397
17.521072 82.419037 450.0545
19.057312 82.500229 449.4888
20.003021 82.425072 450.82376
21.822525 82.58432 449.29468
23.056763 82.587227 449.66788
24.57486 82.668221 449.08179
25.805283 82.671036 449.44656
27.035141 82.673828 449.80743
28.264435 82.676559 450.16452
29.493164 82.67926 450.51782
30.721336 82.681931 450.86728
31.948959 82.68454 451.21301
33.442215 82.765213 450.59424
34.929726 82.845825 449.97025
35.889572 82.770226 451.26556
37.112473 82.772675 451.59561
38.334869 82.775085 451.922
39.556755 82.777451 452.24475
40.778145 82.77977 452.56381
42.246986 82.860107 451.9136
43.710159 82.940399 451.25842
45.167648 83.020638 450.5983
46.379326 83.022781 450.90097
47.828102 83.102928 450.23178
48.801384 83.026962 451.49548
50.244087 83.107018 450.8179
51.221695 83.030975 452.07581
52.431206 83.032928 452.36072
53.415771 82.956833 453.61337
54.62706 82.95871 453.89188
55.837967 82.960556 454.16681
57.048454 82.962357 454.43835
58.258583 82.964127 454.70636
59.468338 82.965851 454.97089
60.677704 82.967545 455.23203
62.093132 83.047195 454.51434
63.299202 83.048813 454.76807
64.504936 83.0504 455.01834
65.908981 83.129929 454.28824
67.111443 83.131439 454.53122
68.313599 83.132927 454.77078
69.515434 83.134369 455.00699
70.716949 83.135788 455.23987
71.732437 83.059204 456.44888
73.119072 83.138519 455.69559
74.31971 83.139832 455.91843
75.698036 83.219086 455.15698
76.895515 83.220337 455.37271
77.919922 83.143616 456.56702
79.119446 83.144814 456.77661
80.151047 83.068031 457.96573
81.352646 83.069176 458.16916
82.554001 83.070297 458.36929
83.755096 83.071381 458.56622
84.798622 82.994507 459.74432
86.001831 82.995537 459.93512
87.052628 82.91861 461.10791
88.257973 82.919601 461.29254
89.316063 82.842636 462.45996
90.523544 82.843567 462.63858
91.588951 82.766556 463.80063
92.659286 82.689514 464.96024
93.597832 82.534546 467.10483
94.680656 82.457474 468.25967
95.636833 82.30246 470.40021
96.732162 82.225357 471.55023
98.085358 82.304047 470.71994
99.309372 82.30481 470.87485
100.65451 82.383446 470.03708
101.99435 82.462067 469.19534
103.21274 82.462753 469.3399
104.43095 82.463425 469.48129
105.87109 82.619873 467.63797
107.08389 82.620499 467.77234
108.29654 82.621109 467.90353
109.50905 82.621689 468.03149
110.72144 82.622253 468.15631
111.93369 82.622803 468.27789
113.14583 82.623337 468.3963
114.4509 82.701736 467.51898
115.75072 82.780121 466.638
117.04531 82.85849 465.7533
118.42 83.014725 463.87177
119.94989 83.326721 459.99915
121.45916 83.638687 456.12177
122.87014 83.872749 453.23358
124.19055 84.0289 451.33521
125.50061 84.185043 449.43307
126.66042 84.185379 449.5162
127.82014 84.185707 449.59631
129.04462 84.263901 448.67859
130.32616 84.419968 446.76248
131.53766 84.498138 445.83789
132.80112 84.654175 443.91467
134.05423 84.810188 441.98795
135.19304 84.810425 442.04892
136.43066 84.966415 440.11548
137.56424 84.966629 440.17029
138.69775 84.966827 440.2222
139.83124 84.96701 440.27118
140.92551 84.889297 441.31342
141.98825 84.733704 443.34918
143.09525 84.655975 444.38605
144.20735 84.578232 445.4201
145.35345 84.578354 445.45486
146.52589 84.656342 444.49008
147.69319 84.734314 443.52219
148.85532 84.812286 442.55115
149.99365 84.812355 442.57397
151.11584 84.734543 443.59064
152.22963 84.578842 445.60135
153.36464 84.500999 446.61234
154.50475 84.423141 447.62048
155.64998 84.345284 448.62561
156.80362 84.345291 448.63095
157.95726 84.345276 448.63324
159.10905 84.423141 447.63556
160.25572 84.500977 446.63507
161.39726 84.578812 445.63156
162.52415 84.734512 443.62823
163.66501 84.734436 443.61584
164.82054 84.656479 444.59735
165.94676 84.734268 443.58228
167.08766 84.734169 443.56107
168.22859 84.734055 443.53693
169.34462 84.811798 442.51321
170.48303 84.811661 442.48322
171.68158 84.655754 444.44339
172.82518 84.655586 444.40744
174.03918 84.499649 446.36121
175.22574 84.421585 447.31537
176.41747 84.343491 448.26645
177.57149 84.343277 448.2182
178.72557 84.343048 448.16702
179.8797 84.342804 448.11285
181.03387 84.342545 448.05576
182.18811 84.34227 447.99557
183.34242 84.341988 447.9325
184.49678 84.34169 447.86639
185.71204 84.263496 448.79236
186.9325 84.18528 449.71509
188.15816 84.107048 450.63446
189.38904 84.028809 451.55045
190.6962 83.87265 453.45749
192.08737 83.638596 456.35498
193.41782 83.482407 458.25427
194.8374 83.248299 461.14352
196.19113 83.092072 463.03482
197.55521 82.935822 464.92206
198.92967 82.779549 466.80539
200.22546 82.701149 467.69168
201.52649 82.622742 468.57431
202.73859 82.622192 468.46082
203.85405 82.699539 467.35193
204.86516 82.854767 465.24832
205.86612 83.009979 463.14258
206.85695 83.165176 461.03476
208.0517 83.164551 460.90723
209.13698 83.241814 459.78568
210.21725 83.319061 458.6615
211.29256 83.396286 457.53482
212.59749 83.317673 458.38565
213.66794 83.394867 457.25323
214.97833 83.316216 458.09711
216.16901 83.315445 457.94812
217.48744 83.236748 458.7847
218.68103 83.235931 458.62903
219.74203 83.313019 457.48209
220.7981 83.390091 456.33264
222.12497 83.311295 457.15552
223.0358 83.466248 455.0134
224.2226 83.465317 454.8428
225.26398 83.542305 453.6828
226.5968 83.463409 454.4921
227.78424 83.46241 454.31195
229.12523 83.383453 455.11368
230.47159 83.304466 455.91138
231.66486 83.303383 455.72079
232.69727 83.380219 454.54303
233.72476 83.457039 453.36288
234.74734 83.533829 452.18036
235.59622 83.688553 450.01291
236.7778 83.68734 449.80823
237.78568 83.764069 448.61859
238.96523 83.762802 448.40784
240.14505 83.761513 448.19385
241.32513 83.760193 447.97659
242.87413 83.602905 449.71561
244.05997 83.601517 449.49081
245.43559 83.522118 450.24152
246.62463 83.52066 450.00958
247.81398 83.519173 449.77432
249.00366 83.517654 449.53577
250.59329 83.360123 451.24731
251.99121 83.280533 451.97714
252.98466 83.356888 450.75122
254.38846 83.277229 451.47321
255.5876 83.275528 451.21606
256.57437 83.351791 449.98163
257.7717 83.350014 449.71829
258.96939 83.348206 449.45148
260.16748 83.346359 449.18127
261.36594 83.344475 448.90759
262.56482 83.342552 448.63043
263.53577 83.418625 447.37933
265.1947 83.260567 449.03549
266.16394 83.336563 447.77808
267.83673 83.178391 449.42413
268.8042 83.254318 448.16025
270.49091 83.096054 449.79602
271.4567 83.171906 448.52567
273.15732 83.013535 450.15103
273.87234 83.167374 447.90887
275.08087 83.165054 447.59503
276.03558 83.240761 446.31363
277.24249 83.238358 445.99326
278.70947 83.157822 446.63184
279.92001 83.155334 446.30347
281.13107 83.152817 445.97134
283.14481 82.915924 448.51694
284.36478 82.9133 448.17526
285.5853 82.910629 447.82993
287.0816 82.829796 448.439
288.30585 82.827042 448.0853
289.53064 82.824234 447.72784
291.03912 82.743256 448.32245
292.55341 82.662231 448.91174
293.78522 82.659302 448.54117
295.30853 82.578171 449.1203
296.25064 82.65332 447.78845
297.48425 82.650269 447.40622
298.71851 82.647179 447.02011
299.95337 82.644058 446.63004
301.49295 82.562698 447.18542
302.73169 82.559502 446.78656
304.2804 82.478058 447.33139
305.83502 82.396576 447.87051
307.08099 82.393257 447.45782
308.96204 82.233459 448.93127
310.53439 82.15184 449.45291
311.46771 82.226654 448.08194
313.04669 82.144958 448.59344
314.3038 82.141479 448.1575
315.23117 82.21624 446.77676
316.15387 82.290993 445.39365
317.74341 82.209198 445.88565
319.00049 82.20565 445.43378
320.25824 82.202087 444.97766
321.17297 82.27681 443.58145
322.77563 82.194939 444.05261
324.03525 82.191353 443.58368
325.64709 82.109451 444.04327
327.26486 82.027534 444.49649
329.24548 81.867279 445.87424
330.51813 81.863678 445.38388
332.87805 81.625046 447.67548
337.44388 80.916245 455.52289
341.69055 80.285706 462.42017
345.2399 79.811813 467.4447
349.94037 79.102737 475.22543
353.56262 78.628738 480.21161
354.56982 78.703461 478.72314
356.33398 78.621445 479.07471
359.25446 78.30426 482.17972
361.42416 78.143936 483.43271
363.21606 78.06208 483.75845
364.62204 78.058731 483.16016
366.02823 78.055481 482.55685
367.03775 78.130791 481.03418
368.44159 78.127777 480.42224
370.64996 77.968002 481.62973
372.86902 77.808334 482.82764
374.69116 77.727272 483.10605
375.698 77.803299 481.55988
377.93805 77.644104 482.73352
378.52618 77.798981 480.27267
380.35797 77.718658 480.52667
-40.925003 82.677505 439.57428
-40.043152 82.603561 441.06653
-39.562073 82.453926 443.46729
-38.263077 82.456131 444.04471
-36.96405 82.458473 444.61761
-35.66507 82.460938 445.186
-33.970566 82.539337 444.83447
-32.674515 82.542007 445.39264
-30.988388 82.620598 445.02863
-29.695419 82.623444 445.57654
-28.40271 82.626373 446.1199
-27.110352 82.629372 446.65875
-25.059189 82.784004 445.34903
-23.39595 82.8629 444.95346
-22.487045 82.790268 446.39981
-20.830017 82.869232 445.99313
-19.178802 82.948227 445.57983
-17.899673 82.951485 446.08737
-16.257462 83.030518 445.66205
-14.982025 83.033813 446.15967
-13.348892 83.112869 445.72244
-12.077286 83.11618 446.2103
-10.806244 83.119522 446.69373
-9.5358124 83.122856 447.17285
-8.2659607 83.126205 447.64755
-6.9967651 83.129532 448.11804
-5.7281952 83.132866 448.58417
-4.4602356 83.1362 449.04596
-2.5187073 83.290863 447.62665
-1.2573395 83.294159 448.07803
0.0033874512 83.297424 448.52521
1.2634583 83.300682 448.96814
2.5229034 83.303917 449.40689
3.4577942 83.231491 450.78448
5.0398254 83.310326 450.27179
6.2973022 83.313492 450.69806
8.1861115 83.46788 449.22867
9.1236572 83.395355 450.59158
10.998001 83.54966 449.10962
12.24501 83.552689 449.51691
13.796814 83.631279 448.97101
14.737091 83.558647 450.3194
16.282394 83.637169 449.76373
17.524261 83.64006 450.15414
19.06044 83.718491 449.5881
20.298447 83.721306 449.96982
21.825562 83.799644 449.39349
22.772644 83.726822 450.72156
24.29332 83.805077 450.13586
25.526337 83.807739 450.50125
26.758759 83.810356 450.86282
27.990631 83.812943 451.22049
29.495926 83.891006 450.61569
30.72406 83.893517 450.96503
31.951645 83.895981 451.31064
33.444839 83.973907 450.69156
34.932297 84.051796 450.06729
35.892113 83.978622 451.36261
37.114967 83.980927 451.69263
38.337311 83.983185 452.01892
39.306023 83.909912 453.306
40.780502 83.987587 452.66052
42.249306 84.065216 452.00998
43.71241 84.142792 451.35449
45.412567 84.295792 449.72696
46.621628 84.297798 450.02884
48.067757 84.375229 449.3587
49.038391 84.301704 450.62192
50.246124 84.303604 450.91309
51.223686 84.230011 452.17114
52.433174 84.23185 452.4559
53.417694 84.158203 453.70871
54.628944 84.159958 453.98712
55.839806 84.161682 454.26199
57.267029 84.2388 453.56012
58.474533 84.240463 453.82745
59.681633 84.242065 454.09143
60.888397 84.243652 454.35187
62.094788 84.245209 454.60889
63.300827 84.246719 454.86252
64.506523 84.248199 455.1127
65.910515 84.325058 454.38239
67.112953 84.326477 454.62524
68.315071 84.327858 454.86475
69.516861 84.329208 455.10092
70.718353 84.330528 455.33371
71.919525 84.331818 455.56317
73.120422 84.333084 455.78925
74.321022 84.334312 456.01202
75.699295 84.410896 455.25037
76.896759 84.412064 455.466
77.92112 84.33783 456.66052
79.120621 84.338943 456.87003
80.319862 84.340027 457.07629
81.353775 84.265717 458.26263
82.555092 84.266754 458.46274
83.75618 84.267776 458.65955
84.79966 84.19339 459.83786
86.157616 84.269714 459.04349
87.205811 84.195282 460.21603
88.408554 84.196198 460.40027
89.464035 84.121727 461.56747
90.66893 84.122597 461.74557
91.731728 84.04808 462.90741
92.938789 84.048904 463.07944
93.872169 83.899002 465.22363
94.949829 83.824425 466.37796
95.769241 83.599136 469.50659
96.861969 83.524536 470.65646
97.959656 83.449913 471.80374
99.186211 83.450615 471.95898
100.29128 83.375954 473.10071
101.75755 83.527298 471.26968
102.98105 83.527939 471.41483
104.20439 83.528557 471.55676
105.5386 83.604492 470.70456
106.75909 83.60508 470.83969
107.97943 83.605637 470.97171
109.19963 83.606186 471.10043
110.4197 83.606705 471.22604
111.63965 83.607224 471.34833
112.85947 83.607704 471.46753
114.26529 83.758835 469.59784
115.57022 83.834625 468.71707
116.95784 83.985718 466.83939
118.42043 84.212112 463.96417
120.03309 84.589149 459.09705
121.53976 84.890839 455.2186
122.94817 85.117172 452.32956
124.26599 85.268166 450.43063
125.50095 85.343826 449.5224
126.59079 85.268814 450.60019
127.68568 85.193787 451.67535
128.91527 85.269402 450.75772
130.13966 85.345001 449.83673
131.35886 85.420578 448.91238
132.62997 85.571472 446.98923
133.89078 85.722336 445.06253
135.08926 85.797874 444.12811
136.28258 85.873398 443.19046
137.42383 85.873596 443.24561
138.56503 85.873779 443.29785
139.70619 85.873947 443.34714
140.80814 85.79879 444.38986
141.87856 85.6483 446.42633
143.0273 85.648438 446.46707
144.1445 85.573242 447.50156
145.29573 85.573364 447.53644
146.4733 85.648781 446.57153
147.66948 85.7995 444.60669
148.83417 85.874893 443.63556
149.97505 85.874962 443.65839
151.11591 85.875015 443.67825
152.22968 85.724434 445.68939
153.36467 85.649155 446.70059
154.50476 85.573868 447.70883
155.64999 85.498566 448.71417
156.80362 85.498566 448.71951
157.95724 85.49855 448.72183
159.11087 85.498535 448.72119
160.26009 85.573822 447.7204
161.41116 85.573776 447.71381
162.5527 85.649033 446.70715
163.68915 85.724289 445.6976
164.84979 85.648895 446.67926
165.98112 85.724129 445.66388
167.12714 85.72403 445.64261
168.27318 85.723923 445.61835
169.39433 85.799118 444.59433
170.53786 85.798988 444.56427
171.71147 85.723534 445.52798
172.85764 85.723373 445.49194
174.07417 85.572586 447.44601
175.26329 85.497086 448.4003
176.45757 85.421585 449.35144
177.65701 85.346069 450.29935
178.81621 85.34584 450.24805
179.92744 85.420944 449.1976
181.13475 85.345383 450.1362
182.34723 85.269814 451.07156
183.50922 85.269547 451.00809
184.72952 85.193947 451.93701
185.95503 85.118332 452.86261
187.12234 85.118027 452.7897
188.35568 85.042389 453.7088
189.59424 84.966721 454.62457
190.90909 84.815735 456.53143
192.38159 84.514069 460.42343
193.72229 84.363037 462.32233
194.99454 84.287308 463.22333
196.27203 84.211563 464.12076
197.55475 84.135803 465.01465
198.84271 84.060028 465.905
200.13591 83.984238 466.79172
201.34273 83.983757 466.68188
202.54968 83.983261 466.56891
203.65997 84.058075 465.46036
204.66594 84.208221 463.35687
205.66174 84.358345 461.25131
206.75188 84.433121 460.13531
207.94405 84.432549 460.00815
209.02673 84.507294 458.88669
210.21661 84.506683 458.75345
211.40663 84.50605 458.61716
212.47948 84.58075 457.4874
213.66724 84.580078 457.34509
214.85513 84.579391 457.19958
216.04321 84.57869 457.05093
217.35905 84.502609 457.88809
218.55005 84.501862 457.73279
219.74121 84.501083 457.57437
220.79724 84.575638 456.42477
222.1241 84.499474 457.24786
223.0349 84.649353 455.10541
224.07863 84.723862 453.94803
225.26303 84.722984 453.77469
226.59583 84.646713 454.58426
227.63246 84.721161 453.41843
229.12421 84.569473 455.20615
230.47054 84.493118 456.00409
231.50526 84.56749 454.82904
232.69614 84.566467 454.63562
233.7236 84.640785 453.45532
234.74619 84.715088 452.27267
235.59503 84.864746 450.10486
236.77658 84.863625 449.90024
237.78444 84.937859 448.71048
238.96396 84.936676 448.49982
240.14374 84.935478 448.28583
241.50552 84.858841 449.04913
242.87276 84.782181 449.8082
243.87167 84.856277 448.60394
245.24466 84.779556 449.35535
246.62314 84.702789 450.10254
247.81247 84.701401 449.86734
249.00211 84.699974 449.62885
250.59171 84.547684 451.34085
251.98956 84.470772 452.07095
252.983 84.544662 450.84491
254.38675 84.467682 451.56723
255.58588 84.46608 451.31021
256.5726 84.539886 450.07559
257.76987 84.538223 449.81229
258.96753 84.53653 449.54562
259.94504 84.610245 448.30301
261.14087 84.608475 448.03
262.56284 84.531235 448.72479
263.53378 84.604843 447.47363
265.19266 84.452057 449.13028
266.39536 84.450134 448.84216
268.07068 84.297256 450.48807
269.27945 84.29525 450.19162
270.72998 84.217743 450.8591
271.45444 84.366623 448.62112
273.155 84.213547 450.24701
273.87 84.362373 448.00449
275.07849 84.360184 447.6908
275.77881 84.508957 445.44513
276.98306 84.506714 445.12549
278.44739 84.428909 445.76511
279.65527 84.426575 445.43756
280.86371 84.424202 445.10629
282.87476 84.195213 447.65329
284.36206 84.11721 448.27243
285.58252 84.1147 447.92715
287.07877 84.036613 448.53653
288.58078 83.958466 449.14063
289.52774 84.03138 447.82565
291.03613 83.953156 448.42059
292.26471 83.950439 448.05484
293.49384 83.947685 447.68521
295.01453 83.869308 448.2655
296.54105 83.790894 448.8403
297.48108 83.863609 447.50525
298.71527 83.860703 447.11923
300.55298 83.706558 448.63025
301.79364 83.703568 448.23465
303.035 83.700546 447.83505
304.5863 83.621872 448.37939
305.83154 83.618782 447.97095
307.07745 83.615662 447.55835
308.64124 83.536865 448.08713
310.53082 83.382385 449.55441
311.78656 83.379166 449.12686
313.04303 83.375908 448.69522
314.30011 83.372635 448.25937
315.55786 83.369339 447.8194
316.48322 83.441704 446.43527
318.07532 83.362694 446.92673
318.9967 83.435043 445.53604
320.25439 83.431694 445.08008
321.16913 83.504044 443.68381
322.77176 83.424957 444.15536
323.68243 83.497314 442.75247
325.64322 83.342484 444.14655
327.26096 83.263382 444.60013
328.88464 83.18425 445.04742
330.15463 83.180885 444.5582
332.14966 83.026009 445.92267
336.34521 82.416534 452.84628
340.58386 81.806976 459.74866
344.49542 81.273117 465.7037
348.81763 80.663406 472.56393
352.80743 80.129425 478.47855
354.18756 80.125992 477.91483
355.94904 80.046822 478.26773
358.48334 79.816071 480.45447
360.2616 79.736984 480.79111
362.43439 79.582146 482.03867
363.83511 79.579025 481.44281
365.23605 79.576019 480.84198
367.03409 79.497261 481.151
369.23712 79.342773 482.36633
370.64655 79.340088 481.74728
372.86566 79.185822 482.94571
374.68796 79.107559 483.22452
376.10519 79.105316 482.5871
378.34802 78.9515 483.76004
379.77014 78.949608 483.11041
380.77368 79.023788 481.55078
-40.922562 83.935577 439.67871
-40.040558 83.864059 441.17099
-39.153107 83.792686 442.66129
-38.260223 83.721466 444.14941
-36.96109 83.723618 444.72217
-35.662003 83.725891 445.29044
-33.571869 83.874725 444.0231
-32.278381 83.87719 444.57996
-30.985092 83.879745 445.13229
-29.304504 83.955612 444.76117
-28.014404 83.958328 445.30325
-27.106888 83.887909 446.76202
-25.055695 84.03714 445.45169
-23.769348 84.040039 445.97919
-22.483459 84.042984 446.50217
-21.197998 84.045967 447.02063
-19.175201 84.195328 445.68152
-18.262314 84.125206 447.11652
-16.253815 84.274597 445.76321
-14.978424 84.277679 446.26074
-13.703552 84.280777 446.75385
-12.073639 84.35704 446.31079
-10.449631 84.433281 445.86136
-9.5321808 84.363281 447.27307
-8.2623596 84.366409 447.74768
-6.9931793 84.36953 448.21799
-5.7246094 84.37265 448.68396
-4.456665 84.375778 449.1456
-2.8522797 84.451973 448.66437
-1.2538452 84.528145 448.177
0.0068969727 84.531219 448.62396
1.266922 84.534256 449.0668
2.8528748 84.610367 448.56302
3.7850952 84.540314 449.93979
5.3644257 84.616356 449.42587
6.6192322 84.619308 449.85114
8.1893768 84.695297 449.32626
9.1269073 84.62516 450.68921
11.001205 84.774101 449.20673
12.248154 84.776939 449.61392
13.799927 84.852768 449.0676
15.042999 84.855545 449.46585
16.285446 84.858292 449.86011
17.824829 84.934006 449.29846
19.358368 85.009674 448.73126
20.593689 85.012299 449.11206
22.118134 85.087875 448.53461
23.349655 85.090439 448.9068
24.865051 85.165932 448.31924
25.810913 85.095444 449.63968
27.04071 85.0979 450.00031
27.993286 85.027351 451.3154
29.49855 85.102692 450.71021
30.455223 85.032074 452.0192
31.954163 85.10733 451.405
33.447311 85.182533 450.78561
34.671158 85.184761 451.12289
35.894493 85.186951 451.45645
37.117302 85.189102 451.78635
38.3396 85.191208 452.11255
39.308266 85.120377 453.39975
41.033249 85.26825 451.78854
42.499397 85.343155 451.13705
43.959846 85.418007 450.48065
45.414658 85.492828 449.81927
46.863792 85.567596 449.15305
48.307266 85.642319 448.48203
49.275276 85.571243 449.74466
50.48037 85.573013 450.03516
51.455299 85.501862 451.29269
52.435013 85.430695 452.54791
53.644028 85.432373 452.82913
54.852661 85.434006 453.10681
55.841537 85.362755 454.35391
57.268723 85.437187 453.65176
58.690353 85.511581 452.94498
59.894844 85.513084 453.20825
61.307968 85.58741 452.49286
62.50914 85.588837 452.74875
63.506149 85.517403 453.97751
64.709229 85.518784 454.22708
65.911964 85.520126 454.47327
67.114357 85.521439 454.71613
68.316444 85.522736 454.95554
69.518211 85.523987 455.19162
70.719658 85.525208 455.42441
71.920815 85.526413 455.65375
73.121666 85.527588 455.87979
74.322235 85.528725 456.10251
75.700485 85.602661 455.34058
76.897903 85.603745 455.55621
78.09507 85.604805 455.76849
79.121719 85.53302 456.96027
80.320938 85.534042 457.16644
81.519897 85.535019 457.36932
82.718613 85.53598 457.56897
83.757164 85.464111 458.74979
84.95797 85.465019 458.94336
86.158562 85.465912 459.13358
87.206726 85.393982 460.30624
88.259827 85.322037 461.47647
89.464912 85.322853 461.65778
90.669785 85.323654 461.83585
91.732552 85.251648 462.99783
93.078911 85.325188 462.18225
94.009697 85.180359 464.32642
95.218933 85.181061 464.49228
96.16478 85.036201 466.63211
97.12075 84.891312 468.77008
98.086823 84.746414 470.90613
99.18689 84.674278 472.05069
100.17062 84.529358 474.1825
101.52071 84.602737 473.34158
102.63315 84.530556 474.47787
103.97778 84.603905 473.62979
105.20609 84.604462 473.76907
106.43426 84.604996 473.90509
107.66228 84.605515 474.03787
108.89017 84.606018 474.16742
110.11794 84.606506 474.29373
111.34557 84.606979 474.41681
112.57307 84.607422 474.53665
113.98657 84.753387 472.66733
115.48017 84.972107 469.80057
116.95825 85.190804 466.92923
118.50618 85.482239 463.05972
120.11626 85.84642 458.19141
121.62035 86.137817 454.31198
123.02617 86.35643 451.42215
124.26633 86.429504 450.51712
125.50127 86.502563 449.6087
126.59109 86.430092 450.68668
127.61858 86.284851 452.75702
128.7859 86.285118 452.83456
129.95316 86.28537 452.90909
131.18002 86.358368 451.98508
132.45883 86.504105 450.06201
133.72731 86.649826 448.13531
134.93349 86.722794 447.20102
136.1839 86.868484 445.26746
137.33028 86.868668 445.32288
138.47659 86.868835 445.37534
139.62288 86.868988 445.42484
140.69077 86.723618 447.46457
141.80548 86.651001 448.50504
142.95932 86.651123 448.54593
144.08167 86.578491 449.58072
145.23801 86.578583 449.61578
146.44704 86.72419 447.65378
147.64577 86.869766 445.68866
148.79179 86.869843 445.71448
149.95644 86.942657 444.74026
151.08376 86.869949 445.75742
152.21619 86.797241 446.77167
153.36469 86.797272 446.78583
154.50479 86.724541 447.79428
155.64999 86.651802 448.7998
156.80362 86.651802 448.80511
157.95723 86.651794 448.80743
159.10899 86.724518 447.80945
160.26006 86.724503 447.80582
161.41112 86.724457 447.79922
162.56219 86.724411 447.7897
163.71327 86.72435 447.77719
164.87904 86.651535 448.759
166.01549 86.724197 447.74335
167.16663 86.724106 447.72198
168.29543 86.796768 446.70053
169.41913 86.869408 445.6763
170.56522 86.869286 445.64615
171.74138 86.796402 446.60995
172.89009 86.796265 446.57382
174.10919 86.650604 448.52823
175.30084 86.577682 449.48267
176.49768 86.504761 450.4339
177.69968 86.431816 451.38193
178.86142 86.431625 451.33041
180.02322 86.431412 451.27594
181.33676 86.212921 454.20667
182.50636 86.212692 454.14572
183.67604 86.212448 454.08182
184.84576 86.212189 454.01486
186.07639 86.139168 454.94034
187.31221 86.066132 455.86252
188.55324 85.993073 456.78134
189.868 85.847237 458.69174
191.1931 85.701393 460.59836
192.52853 85.555542 462.50107
193.87434 85.409653 464.40002
195.15172 85.336533 465.30081
196.27162 85.408905 464.20999
197.55432 85.335747 465.10413
198.6693 85.408112 464.00745
199.86829 85.407684 463.90152
201.0674 85.407242 463.79245
202.17242 85.479561 462.68729
203.27243 85.551865 461.57953
204.36743 85.624146 460.46912
205.45741 85.696426 459.35608
206.54239 85.768684 458.24048
207.83643 85.695374 459.10544
209.02615 85.694832 458.97546
210.10382 85.767044 457.85126
211.29126 85.766464 457.71527
212.47882 85.765869 457.57611
213.66656 85.765251 457.43378
214.85446 85.76461 457.28839
216.04251 85.763962 457.13977
217.23073 85.76329 456.98804
218.41913 85.762596 456.8331
219.6077 85.761887 456.67502
220.66113 85.833939 455.5256
221.8475 85.833191 455.36154
222.89359 85.905212 454.20685
223.93474 85.977219 453.04974
225.11655 85.97641 452.87683
226.44675 85.902771 453.68704
227.63153 85.901917 453.50732
228.96989 85.828239 454.30997
230.31363 85.754532 455.10855
231.50424 85.753601 454.91846
232.53404 85.825455 453.74088
233.72256 85.824478 453.54468
234.74509 85.896286 452.36185
235.76273 85.968079 451.17667
236.77545 86.039856 449.98914
237.78326 86.111603 448.79926
238.78621 86.183327 447.60706
240.14252 86.10939 448.37476
241.32256 86.108238 448.15765
242.68716 86.034233 448.91739
243.87036 86.033028 448.69324
245.24333 85.958961 449.44495
246.42972 85.957703 449.21365
247.81104 85.883568 449.95721
248.80344 85.955078 448.74115
250.39041 85.808037 450.45413
251.58325 85.806648 450.20844
252.77646 85.805229 449.95941
253.97 85.803772 449.707
255.16393 85.802292 449.4512
256.35818 85.800781 449.19193
257.55283 85.79924 448.92932
258.74786 85.797653 448.6633
259.72275 85.868912 447.42117
260.91592 85.867279 447.1488
262.33527 85.792717 447.84454
263.53189 85.791 447.5647
264.95984 85.71637 448.25162
266.39337 85.641693 448.93378
267.83258 85.566971 449.61124
269.0387 85.565109 449.31546
270.72784 85.417404 450.95157
271.45227 85.561279 448.71329
273.1528 85.413483 450.33969
274.11685 85.484383 449.06259
275.0762 85.555252 447.78326
275.77652 85.69902 445.53729
276.98074 85.696915 445.2178
278.18549 85.694763 444.89471
279.65286 85.619644 445.53024
280.86121 85.617424 445.1991
282.87222 85.396317 447.74683
284.35947 85.321053 448.36624
285.85248 85.245743 448.98041
287.35132 85.170387 449.58942
288.57806 85.167953 449.2352
289.52496 85.238449 447.92014
291.03336 85.162964 448.51538
292.26184 85.160416 448.14972
293.20264 85.230827 446.82547
294.72064 85.15522 447.40689
296.53806 85.006561 448.93594
297.47806 85.076874 447.6008
299.01102 85.001129 448.1665
300.5498 84.925354 448.72647
301.79053 84.922546 448.33105
302.72516 84.992744 446.9826
304.27374 84.916847 447.52814
305.82831 84.840912 448.06793
306.75958 84.911026 446.70911
308.63788 84.761971 448.18454
310.20755 84.685921 448.70773
311.78314 84.609833 449.22501
313.03955 84.606781 448.79352
314.62439 84.530624 449.29974
315.88474 84.527534 448.85892
317.14578 84.524414 448.41397
318.40747 84.521286 447.96472
319.33142 84.591248 446.57303
320.25079 84.661209 445.17905
321.50916 84.658066 444.71893
322.42181 84.728027 443.31931
323.67877 84.724876 442.85165
325.63956 84.575439 444.24628
327.25726 84.499146 444.70023
328.88092 84.422829 445.14783
330.87006 84.273346 446.51929
332.87039 84.123863 447.8822
337.4361 83.462158 455.73376
341.68268 82.873543 462.63483
345.60217 82.358032 468.58832
349.93234 81.769287 475.44724
353.55457 81.326874 480.43628
354.56189 81.396866 478.94775
356.32611 81.320511 479.29999
358.47955 81.170975 480.56577
360.25787 81.094711 480.90274
362.81958 80.87207 483.06927
363.83148 80.942413 481.55515
365.62674 80.866371 481.87061
367.42749 80.790428 482.17877
369.2338 80.714584 482.47977
371.04547 80.638863 482.77344
373.26743 80.490005 483.97125
374.68494 80.487793 483.3389
376.10236 80.485741 482.70169
378.34534 80.337326 483.87512
379.35205 80.40889 482.319
380.77133 80.407379 481.66583
-40.920273 85.193619 439.77933
-40.038177 85.124519 441.27182
-39.150558 85.055573 442.76215
-38.257568 84.986755 444.25043
-36.958313 84.988724 444.82303
-35.659134 84.990791 445.39117
-34.360077 84.992966 445.95477
-32.668274 85.065872 445.59692
-30.981995 85.138855 445.23224
-29.301346 85.211914 444.86075
-28.011215 85.214417 445.40277
-26.339157 85.287598 445.01886
-24.672821 85.360825 444.62823
-23.38913 85.363495 445.15451
-22.480103 85.295631 446.60089
-20.823044 85.36898 446.19354
-19.171783 85.442368 445.77954
-18.258911 85.374619 447.21469
-16.250427 85.5186 445.86084
-14.614059 85.592033 445.42828
-13.700134 85.524361 446.85114
-12.425858 85.527267 447.33972
-10.79921 85.600708 446.89096
-9.5287781 85.603622 447.36975
-8.2589417 85.606544 447.84418
-6.9897919 85.609451 448.31439
-5.7212219 85.612366 448.78018
-4.1135864 85.685776 448.30389
-2.5118561 85.759186 447.82132
-0.91607666 85.83255 447.33267
0.34194946 85.835411 447.77859
1.59935 85.838257 448.22031
3.1826019 85.91156 447.7153
4.1121674 85.843887 449.09125
5.3675995 85.846672 449.52045
6.6223602 85.849434 449.94556
8.5084534 85.993088 448.47421
9.4433136 85.925339 449.83636
11.004211 85.998474 449.30038
12.559219 86.071564 448.75867
14.108322 86.144623 448.21121
15.045898 86.076782 449.55893
16.288315 86.079346 449.95303
17.530075 86.081863 450.34323
18.771225 86.084366 450.72949
20.01178 86.08683 451.11176
21.831116 86.230072 449.58109
23.065216 86.23246 449.95395
24.583191 86.305222 449.36682
25.813492 86.307533 449.73123
27.043228 86.309822 450.09174
28.272369 86.312073 450.44855
29.500977 86.314285 450.80148
30.729019 86.316467 451.15067
31.956512 86.318619 451.49603
33.449631 86.391098 450.87631
34.673454 86.393166 451.21347
35.896729 86.395203 451.547
37.119499 86.397202 451.8768
38.341766 86.399178 452.20285
39.310394 86.330772 453.49017
40.78479 86.403008 452.84409
42.253502 86.475204 452.19296
43.716522 86.547363 451.5369
45.173866 86.619476 450.87592
46.625565 86.691544 450.21005
48.071602 86.763573 449.53937
49.277092 86.765251 449.83331
50.48214 86.766891 450.12375
51.457047 86.698196 451.38135
52.663872 86.699783 451.66531
53.645721 86.631042 452.91779
54.854309 86.632561 453.1954
56.0625 86.634048 453.46957
57.487053 86.705795 452.76654
58.691887 86.707222 453.03317
60.107918 86.7789 452.32156
61.309425 86.780258 452.58072
62.510574 86.781586 452.83652
63.711372 86.782898 453.0889
64.710602 86.713898 454.31488
65.913292 86.715134 454.56107
67.115669 86.716354 454.8038
68.317711 86.717545 455.04321
69.519447 86.718704 455.27924
70.720871 86.719841 455.5119
71.921997 86.720947 455.74121
73.122818 86.722031 455.96719
74.323357 86.723083 456.18985
75.701591 86.794373 455.42764
76.898979 86.795372 455.64319
78.096115 86.796356 455.85544
79.292976 86.797302 456.06442
80.32193 86.727989 457.25348
81.520859 86.728897 457.45633
82.719543 86.729774 457.65594
83.75808 86.6604 458.83685
84.95887 86.66124 459.03033
86.159431 86.662064 459.22052
87.207573 86.592621 460.39337
88.410271 86.593399 460.57745
89.612747 86.594154 460.75836
90.815025 86.594894 460.93594
91.875214 86.525383 462.09772
93.218971 86.596298 461.28152
94.283905 86.526749 462.43759
95.353806 86.457184 463.59113
96.297073 86.317383 465.73093
97.379463 86.247787 466.87979
98.34037 86.107964 469.01553
99.311401 85.968124 471.14932
100.41386 85.898483 472.29105
101.5213 85.828827 473.43015
102.63372 85.759155 474.56662
103.75113 85.689468 475.70041
104.98457 85.68998 475.84021
106.32631 85.760681 474.98517
107.451 85.690948 476.11008
108.68401 85.691406 476.24011
109.81613 85.621651 477.35934
111.14964 85.692284 476.49048
112.38227 85.692696 476.61084
113.89394 85.903702 473.74838
115.39009 86.114685 470.88129
117.04655 86.466049 466.02237
118.50655 86.676994 463.14569
