ply
format ascii 1.0
comment PCL generated
element vertex 1591
property float x
property float y
property float z
element camera 0
property float view_px
property float view_py
property float view_pz
property float x_axisx
property float x_axisy
property float x_axisz
property float y_axisx
property float y_axisy
property float y_axisz
property float z_axisx
property float z_axisy
property float z_axisz
property float focal
property float scalex
property float scaley
property float centerx
property float centery
property int viewportx
property int viewporty
property float k1
property float k2
end_header
232.82611 206.93784 446.42947
233.85602 206.7556 445.25894
235.04791 206.76343 445.05344
236.24011 206.77141 444.84457
237.26053 206.58957 443.66577
238.45074 206.59784 443.45059
239.81854 206.79626 444.19769
241.19183 206.9949 444.94043
242.38821 207.00369 444.71414
243.76996 207.2027 445.44855
244.9696 207.21181 445.21484
246.35983 207.41119 445.9408
247.56281 207.42065 445.69971
249.15698 207.81058 447.37924
250.16783 207.63022 446.16843
251.37451 207.6402 445.91629
252.78479 207.84056 446.62103
253.99483 207.85089 446.36118
254.99683 207.67114 445.13849
256.20508 207.68178 444.87213
257.62738 207.8829 445.56042
258.6228 207.7036 444.32874
259.83231 207.71477 444.05164
261.26373 207.91649 444.72736
262.47672 207.92802 444.44241
263.91681 208.13017 445.10904
265.1333 208.14209 444.81616
266.58218 208.34467 445.47357
268.03674 208.54747 446.12598
269.73413 208.94104 447.72601
270.72321 208.76321 446.46384
272.19229 208.96671 447.10178
273.66708 209.17041 447.73465
274.6524 208.99307 446.46246
275.63303 208.81586 445.18793
276.60892 208.63876 443.91095
277.83551 208.65253 443.57938
279.06265 208.66647 443.24402
280.0296 208.48978 441.9584
281.51852 208.69487 442.56177
283.27917 209.09103 444.10461
284.78229 209.29665 444.6965
286.2912 209.50247 445.28296
287.80591 209.70853 445.86383
289.32648 209.91486 446.43933
290.5737 209.93037 446.06815
291.82153 209.94608 445.69302
293.35428 210.15302 446.2533
294.6059 210.1691 445.86929
296.14767 210.37646 446.41907
297.11075 210.20172 445.08902
298.65897 210.40948 445.629
299.91547 210.42621 445.22778
301.17252 210.4431 444.82248
302.73297 210.65146 445.34668
304.29932 210.86003 445.86502
305.56332 210.87741 445.44547
307.13867 211.08635 445.95276
308.40646 211.10402 445.5239
309.6748 211.12181 445.09085
311.58109 211.52281 446.51016
312.85577 211.54089 446.06674
313.80695 211.36746 444.6926
315.73334 211.76901 446.09256
317.01218 211.78741 445.63528
318.2915 211.80588 445.17368
319.90588 212.0162 445.63037
321.18878 212.03482 445.15915
322.47211 212.0535 444.68353
323.7558 212.0722 444.20355
325.03986 212.09091 443.71918
326.67221 212.30157 444.14807
327.95963 212.32034 443.6539
329.9538 212.72314 444.98654
331.603 212.93398 445.39606
333.25775 213.14484 445.79907
337.8078 214.89297 453.4953
342.04199 216.44949 460.25641
346.31894 218.00653 466.99588
350.63852 219.564 473.71335
355.37262 221.31422 481.31689
356.40924 221.14145 479.82544
358.57199 221.54555 481.04922
360.36536 221.75711 481.35898
361.78131 221.77602 480.75806
363.19696 221.79462 480.15244
365 222.00542 480.44348
365.63641 221.63821 478.02679
367.04791 221.65567 477.40829
368.85461 221.86531 477.68307
371.4628 222.45984 479.74438
374.08606 223.05405 481.79401
375.10916 222.87701 480.2547
379.37726 224.24124 485.85822
380.81769 224.2558 485.19696
384.72717 225.42647 489.87549
388.25244 226.40381 493.64536
394.7215 228.73047 503.61597
394.11816 227.77814 498.47403
-45.781281 215.9119 439.40701
-44.066437 215.70471 439.12231
-42.763321 215.69223 439.72318
-41.053833 215.48383 439.42691
-39.348526 215.27484 439.12418
-37.647537 215.06537 438.815
-36.348175 215.05069 439.39606
-35.048004 215.03551 439.97296
-33.747162 215.0199 440.54565
-32.445694 215.00386 441.11414
-31.143723 214.98746 441.67838
-29.841309 214.97072 442.23831
-28.157227 214.75861 441.8902
-26.478195 214.54633 441.53558
-24.804276 214.33383 441.17438
-23.88205 214.51102 442.62061
-21.842514 214.10329 441.3403
-20.917496 214.28006 442.7789
-19.256531 214.06699 442.39468
-17.238297 213.65909 441.09259
-15.950775 213.64069 441.60669
-14.663376 213.62216 442.11636
-13.02153 213.40894 441.70721
-11.737167 213.39035 442.20709
-10.802429 213.56627 443.61914
-9.1692963 213.35303 443.19376
-8.2298279 213.52884 444.59906
-6.9440308 213.51013 445.08246
-5.6585999 213.49146 445.56152
-4.3735657 213.47278 446.03619
-2.4221039 213.06543 444.66138
-1.1432037 213.04694 445.1254
0.46333313 212.83423 444.66064
2.0641174 212.62167 444.18967
3.6591187 212.40927 443.71255
4.608017 212.58534 445.0838
6.5142517 212.17906 443.66803
7.4647827 212.35532 445.03171
9.0445099 212.14349 444.53299
10.308884 212.12589 444.95908
11.879593 211.91443 444.44928
12.835953 212.09103 445.7988
14.400314 211.87991 445.27884
15.360855 212.05673 446.62177
16.918854 211.84598 446.0918
17.883545 212.02301 447.42816
19.43512 211.81262 446.88831
20.980881 211.60246 446.34271
22.234985 211.58623 446.72992
23.488525 211.57014 447.1131
25.022095 211.3606 446.55203
26.271881 211.34489 446.92636
27.521133 211.32935 447.29666
29.042496 211.12045 446.72049
30.288025 211.10529 447.08206
31.533028 211.0903 447.43964
33.042236 210.88205 446.84863
34.283516 210.86746 447.19769
35.524261 210.85303 447.54279
37.021385 210.64545 446.93716
38.258476 210.63141 447.27377
39.495049 210.61755 447.60657
40.731102 210.6039 447.93558
42.213066 210.39719 447.31104
43.689316 210.1907 446.68134
44.918633 210.17764 446.99756
46.147461 210.16473 447.31
47.375816 210.15204 447.61871
48.603699 210.1395 447.92368
49.831108 210.12717 448.22495
51.286194 209.92195 447.56818
52.284546 210.103 448.81638
53.956421 209.70523 447.1954
54.956497 209.8866 448.43686
56.396751 209.68224 447.76236
57.616272 209.67101 448.04037
59.047859 209.46707 447.35684
60.054062 209.64908 448.58554
61.47963 209.44553 447.89362
62.694901 209.43501 448.15668
63.90979 209.42468 448.41614
65.323769 209.22174 447.7113
66.732162 209.019 447.00183
67.746429 209.20193 448.21143
69.148903 208.99957 447.49384
70.35672 208.99013 447.73462
71.377701 209.17352 448.93533
72.587425 209.16437 449.16962
73.978104 208.96274 448.43607
75.184563 208.95395 448.66296
76.566803 208.75269 447.92102
77.770012 208.74423 448.14056
78.972923 208.73592 448.35666
80.175522 208.72775 448.56934
81.543556 208.52725 447.81143
82.742981 208.51941 448.01688
84.102669 208.31924 447.25085
85.298927 208.31174 447.4491
86.650299 208.11192 446.67505
87.537849 208.48961 448.80487
88.735901 208.48251 448.99347
89.933693 208.47559 449.17874
91.131233 208.46881 449.36069
92.328529 208.46216 449.53928
93.665436 208.26329 448.74326
94.85968 208.25694 448.91483
96.053696 208.25073 449.0831
97.379593 208.05234 448.27573
98.570572 208.04642 448.4371
99.88829 207.84834 447.62207
101.07629 207.84271 447.77655
102.26408 207.83722 447.92783
103.33249 208.02411 449.04984
104.52248 208.01886 449.19489
105.71228 208.01376 449.3367
107.01337 207.81653 448.50024
108.20023 207.81171 448.63528
109.38693 207.80698 448.76709
110.57348 207.8024 448.89566
111.86098 207.60574 448.04495
112.94608 207.79361 449.14322
114.13216 207.7894 449.26218
115.41148 207.59314 448.401
116.50388 207.78134 449.49051
117.68953 207.7775 449.59985
118.78938 207.96591 450.68372
120.14352 207.57803 448.83124
121.32623 207.57455 448.93082
122.5088 207.57123 449.02728
123.84198 207.18375 447.16357
125.01918 207.18063 447.25327
126.19627 207.17764 447.33984
127.37327 207.17477 447.42328
128.55017 207.17201 447.50354
129.72697 207.16937 447.58072
130.90369 207.16684 447.65472
132.08032 207.16443 447.72565
133.31163 206.97005 446.81351
134.43335 207.15991 447.85803
135.65936 206.96577 446.93936
136.78609 207.15585 447.97787
137.96236 207.15399 448.03314
139.13855 207.15222 448.08524
140.35402 206.95856 447.15369
141.4908 207.14905 448.18018
142.701 206.9556 447.24222
143.87444 206.95428 447.28177
145.04782 206.95306 447.31824
146.2476 206.75995 446.37064
147.44221 206.56693 445.41971
148.58905 206.75806 446.42789
149.75974 206.75729 446.452
150.91423 206.94864 447.45419
152.08743 206.94806 447.47205
153.26062 206.94762 447.48685
154.44225 206.75525 446.51715
155.6187 206.56299 445.54434
156.78342 206.75485 446.53119
157.95399 206.75482 446.53363
159.12459 206.75488 446.53293
160.29518 206.75507 446.52911
161.46577 206.75536 446.52228
162.63638 206.75574 446.5123
163.80701 206.75624 446.49927
164.97765 206.75684 446.48312
166.1656 206.94957 447.44513
167.33887 206.95038 447.42273
168.51218 206.95129 447.39728
169.6855 206.95233 447.36868
170.85886 206.95346 447.33701
172.06242 207.14674 448.28317
173.20572 206.95605 447.26434
174.37921 206.95752 447.22336
175.55276 206.95909 447.17926
176.72638 206.96078 447.13211
177.85701 206.77051 446.10132
179.07376 206.96445 447.02832
180.19939 206.77441 445.99161
181.37067 206.77652 445.9321
182.59535 206.97079 446.84937
183.71347 206.78107 445.80371
184.88499 206.78351 445.73483
186.05661 206.78607 445.66284
187.29193 206.98083 446.56708
188.46631 206.98363 446.48871
189.70955 207.17862 447.38611
190.88669 207.18164 447.30127
191.99002 206.99268 446.23474
193.16481 206.99593 446.14374
194.33972 206.9993 446.04968
195.51474 207.00278 445.95245
196.68988 207.00638 445.85202
197.86516 207.0101 445.74847
199.04056 207.01395 445.64182
200.21609 207.0179 445.53192
201.39178 207.02197 445.41888
202.56761 207.02618 445.30267
203.74359 207.03052 445.18332
204.91974 207.03497 445.06079
206.09602 207.03955 444.93503
207.27249 207.04425 444.80609
208.66916 207.43356 446.62433
209.96371 207.63078 447.46323
211.14844 207.63591 447.32382
212.45111 207.83344 448.15543
213.63879 207.83882 448.00916
214.82668 207.84436 447.85971
216.01476 207.85001 447.707
217.07495 207.66348 446.57806
218.26086 207.66942 446.41916
219.44699 207.67546 446.25696
220.49748 207.4893 445.11963
221.68147 207.49562 444.95126
222.72469 207.30969 443.80853
223.90656 207.31628 443.634
225.08868 207.32301 443.45618
226.41983 207.52231 444.24503
227.75641 207.72179 445.02982
229.09842 207.92143 445.81039
230.28934 207.9288 445.61816
231.63966 208.12878 446.39087
232.83371 208.13644 446.19141
234.02806 208.14429 445.98868
235.22272 208.15225 445.78259
236.41763 208.16037 445.573
237.4408 207.97607 444.39404
238.80844 208.17711 445.14383
240.18161 208.37833 445.88925
241.2005 208.19446 444.70096
242.39705 208.20337 444.47443
243.77898 208.40512 445.2081
244.97878 208.41437 444.97412
246.17894 208.4238 444.73672
247.5723 208.62611 445.45795
249.1667 209.02139 447.13626
250.37576 209.03139 446.88681
251.58517 209.04153 446.63376
252.99826 209.24469 447.33725
254.21106 209.25519 447.07657
255.00735 208.88014 444.89471
256.21576 208.89096 444.62811
257.63828 209.09485 445.31558
258.63385 208.91312 444.08417
259.84354 208.92444 443.80679
261.05362 208.93594 443.52576
262.26416 208.94763 443.24115
263.70187 209.15254 443.90756
265.14526 209.35767 444.56906
266.5943 209.56302 445.22559
268.04907 209.76862 445.87717
269.50952 209.97446 446.52374
270.73593 209.98735 446.21384
272.44757 210.38683 447.80167
273.68018 210.40015 447.48288
274.91333 210.41365 447.1604
275.8967 210.23404 445.88531
276.87534 210.05453 444.60776
277.84924 209.87518 443.32791
279.0766 209.88931 442.99219
280.04367 209.71021 441.70676
281.79614 210.11154 443.25427
283.29367 210.3197 443.85065
285.06558 210.72162 445.38516
286.57733 210.93028 445.96991
288.09488 211.13921 446.54919
289.34174 211.15475 446.18161
290.86829 211.36414 446.75061
292.1189 211.38007 446.37427
293.65448 211.58987 446.93283
294.90887 211.60617 446.54758
296.16382 211.62263 446.15826
297.41931 211.63925 445.76489
298.67542 211.65604 445.36737
299.93207 211.67297 444.96579
301.48947 211.88396 445.49399
303.05276 212.09518 446.01639
304.31635 212.11261 445.60059
305.88867 212.3242 446.112
307.46683 212.53598 446.61737
308.7374 212.55391 446.18729
310.32455 212.76605 446.68149
311.91757 212.97838 447.16968
312.8736 212.80249 445.79813
313.82483 212.62662 444.42407
315.42465 212.83931 444.89752
317.03024 213.05214 445.36472
318.30963 213.07077 444.90268
319.58945 213.08948 444.43634
321.20703 213.30266 444.88672
322.49036 213.32147 444.41064
323.43143 213.14581 443.01114
325.05811 213.35916 443.4454
326.69049 213.5726 443.87332
327.97787 213.59149 443.37875
329.97211 213.99966 444.70987
331.26532 214.01852 444.20441
332.91736 214.23207 444.60745
337.82623 216.19868 453.21103
342.06061 217.77631 459.96722
346.70428 219.54929 467.61139
351.39587 221.32277 475.23148
355.3916 222.70689 481.01212
356.80249 222.7265 480.42731
359.34497 223.33092 482.5538
360.76355 223.35013 481.95612
362.56436 223.56413 482.25681
364.37018 223.77789 482.55051
365.793 223.7962 481.93637
367.21533 223.81412 481.3176
367.45746 223.24597 477.99869
370.05804 223.84866 480.06613
372.67377 224.45102 482.12189
374.50217 224.66241 482.3761
374.71964 224.0919 479.0484
380.20398 226.06036 487.32654
380.01263 225.2932 483.09747
384.73962 226.8701 489.55496
389.92172 228.64203 496.87729
396.81775 231.1954 507.72363
395.38721 229.8387 500.80557
-45.378494 217.0101 438.22653
-44.077469 216.99861 438.83142
-42.775055 216.98639 439.43237
-40.661026 216.57764 438.24429
-39.361496 216.56418 438.83487
-37.661041 216.35228 438.52646
-36.362183 216.33774 439.10767
-35.457092 216.52051 440.58212
-34.154037 216.50497 441.15622
-32.850342 216.48901 441.7261
-31.546082 216.47266 442.29175
-30.241379 216.45593 442.85315
-28.17363 216.04355 441.604
-27.252151 216.22389 443.05872
-25.573105 216.0087 442.70059
-24.645859 216.18846 444.14886
-22.601151 215.77536 442.87225
-20.935028 215.55971 442.49557
-19.274216 215.34396 442.11237
-17.256058 214.93074 440.81183
-15.968643 214.91226 441.32629
-14.324005 214.69637 440.92352
-13.394241 214.875 442.34213
-11.755264 214.65903 441.9285
-10.820633 214.83749 443.34045
-9.5341949 214.81866 443.83304
-8.2480927 214.79982 444.32126
-7.3036804 214.97806 445.72406
-6.0155945 214.95918 446.20453
-4.72789 214.94034 446.68063
-2.7736816 214.52756 445.30841
-1.4920654 214.50885 445.77377
0.44534302 214.09644 444.38715
1.7207489 214.07794 444.84198
3.3184967 213.8627 444.36679
4.9104919 213.64761 443.88541
6.1791229 213.62946 444.32562
7.4472809 213.61139 444.76151
9.0271454 213.39679 444.26379
9.9820099 213.57562 445.62067
11.555542 213.3613 445.1127
12.818954 213.34375 445.53085
14.383453 213.12982 445.01196
15.344101 213.30908 446.35474
16.902252 213.09549 445.82574
17.86705 213.27496 447.16199
19.418823 213.06177 446.62311
20.964767 212.84879 446.07843
22.219025 212.83234 446.46606
23.472748 212.81607 446.84961
25.006485 212.6037 446.28955
25.9785 212.784 447.60461
27.505844 212.57205 447.03497
29.02742 212.36035 446.45972
30.273117 212.345 446.82172
31.518265 212.3298 447.17969
33.027695 212.11876 446.58957
34.269135 212.10397 446.939
35.510086 212.08932 447.28442
37.007416 211.87894 446.67969
38.244659 211.86472 447.01672
39.481415 211.85068 447.34985
40.717636 211.83682 447.6792
42.199821 211.62729 447.05554
43.676254 211.41803 446.42673
44.664528 211.60056 447.69382
46.134766 211.39169 447.05606
47.363281 211.37881 447.36514
48.591347 211.36609 447.67041
49.818932 211.35358 447.97198
51.274216 211.14558 447.31607
52.498268 211.13345 447.60962
53.944817 210.9259 446.94446
55.165382 210.91414 447.23004
56.385498 210.90257 447.51199
57.605194 210.89117 447.79025
59.036972 210.68446 447.10757
60.043327 210.8689 448.336
61.469086 210.6626 447.64493
62.68454 210.65192 447.9082
64.101685 210.44601 447.20828
65.313744 210.43571 447.46393
66.722328 210.23022 446.75525
67.931038 210.22029 447.0033
68.947693 210.40582 448.20959
70.158264 210.39621 448.45117
71.3685 210.38675 448.68918
72.578384 210.37744 448.92374
73.787933 210.36832 449.15482
75.175858 210.16415 448.41809
76.382156 210.15536 448.64169
77.76165 209.95157 447.89664
78.79377 210.13828 449.07874
80.167465 209.93484 448.32587
81.369926 209.9267 448.53531
82.572083 209.91873 448.74139
83.934525 209.71584 447.97659
85.13353 209.70819 448.17545
86.332253 209.70068 448.37097
87.530708 209.69333 448.56308
88.728905 209.68616 448.75189
89.779205 209.87411 449.90698
91.124527 209.6722 449.11942
92.321968 209.66544 449.29819
93.519165 209.65883 449.47363
94.716118 209.65237 449.64584
96.047562 209.45111 448.84308
97.373611 209.25002 448.03635
98.694267 209.0491 447.22568
99.882607 209.04323 447.38354
101.07072 209.03751 447.53818
102.25865 209.03192 447.68954
103.44638 209.02646 447.83768
104.63393 209.02112 447.98251
105.93532 208.82111 447.14999
107.11992 208.81607 447.28806
108.30434 208.81116 447.42294
109.48859 208.80638 447.55463
110.56895 208.99652 448.65836
111.8566 208.79718 447.80823
113.04037 208.79279 447.93027
114.12801 208.98328 449.02521
115.40746 208.78436 448.16467
116.5908 208.78035 448.27713
117.68575 208.97119 449.36328
118.87138 208.96741 449.46951
120.0569 208.96375 449.57263
121.3228 208.76549 448.69501
122.58344 208.56737 447.81378
123.83881 208.36937 446.92896
125.01613 208.36621 447.01874
126.19334 208.36317 447.10541
127.37045 208.36024 447.18887
128.54745 208.35744 447.26926
129.72438 208.35474 447.34644
130.90121 208.35216 447.42053
132.07796 208.3497 447.49149
133.25461 208.34735 447.55933
134.4312 208.34512 447.62396
135.65733 208.14835 446.70593
136.78416 208.34097 447.74393
137.96054 208.33908 447.79926
139.13686 208.33731 447.85144
140.31311 208.33563 447.90051
141.45258 208.52869 448.92667
142.66547 208.33261 447.98929
143.87317 208.13666 447.04865
145.04666 208.13544 447.08517
146.24657 207.9397 446.13803
147.44128 207.74408 445.18768
148.58823 207.93777 446.1954
149.72156 208.3262 448.18091
150.89746 208.32552 448.2019
152.07335 208.32495 448.21985
153.24922 208.32446 448.23468
154.4335 208.12952 447.26559
155.6185 207.74005 445.31247
156.78333 207.93451 446.2988
157.95403 207.93448 446.30121
159.12657 208.12915 447.28143
160.29984 208.12933 447.27759
161.47311 208.12962 447.27069
162.63683 207.93542 446.27988
163.8197 208.13052 447.24765
164.9783 207.93652 446.25064
166.16638 208.13187 447.21213
167.33975 208.13269 447.18976
168.53558 208.32825 448.14487
169.68658 208.13467 447.13562
170.86006 208.13583 447.10391
172.03357 208.13708 447.06912
173.17439 207.94385 446.05084
174.38074 208.13995 446.9902
175.51651 207.94693 445.96591
176.68765 207.94862 445.91876
177.85886 207.95044 445.8685
179.03012 207.95236 445.81516
180.20145 207.95439 445.75867
181.4236 208.1512 446.67868
182.59766 208.15347 446.61584
183.77177 208.15584 446.5499
184.94598 208.15834 446.48083
186.12029 208.16095 446.4086
187.29468 208.16365 446.33322
188.46916 208.1665 446.25482
189.64374 208.16945 446.17319
190.88979 208.36722 447.06674
191.99323 208.17572 446.00058
193.16812 208.17902 445.90955
194.34314 208.18243 445.81537
195.59995 208.38071 446.6955
196.69354 208.18964 445.61755
197.95576 208.38818 446.49094
199.13387 208.39209 446.38388
200.22014 208.20139 445.29721
201.39594 208.20552 445.18405
202.5719 208.20979 445.06772
203.74799 208.2142 444.94824
204.92426 208.21872 444.82556
206.10068 208.22339 444.69968
207.3847 208.42297 445.54556
208.7841 208.81757 447.36234
209.96878 208.82265 447.22598
211.26883 209.02271 448.06046
212.45645 209.02806 447.91736
213.5239 208.83865 446.79752
214.70932 208.84427 446.64825
215.89496 208.85001 446.49573
217.20889 209.05081 447.31232
218.39752 209.05682 447.15289
219.45311 208.86807 446.01855
220.50374 208.67941 444.88156
221.54942 208.49086 443.74207
222.59018 208.30243 442.60001
223.76959 208.30911 442.42572
225.09549 208.51096 443.21796
226.57556 208.90799 444.97552
227.91489 209.1102 445.75922
229.1057 209.11752 445.5701
230.45331 209.32007 446.34583
231.8064 209.5228 447.11737
233.0032 209.53061 446.91736
234.20029 209.53857 446.71393
235.39767 209.54669 446.50714
236.42584 209.35982 445.33099
237.44913 209.17305 444.15231
238.64224 209.18159 443.93622
239.83568 209.19031 443.71677
241.02943 209.19919 443.4939
242.40601 209.40347 444.2312
243.60303 209.41269 444.00098
244.9881 209.61737 444.72995
246.18842 209.62695 444.49231
247.58197 209.832 445.21274
248.98108 210.03729 445.92865
250.38577 210.2428 446.63998
251.5954 210.25311 446.38681
252.80536 210.26358 446.12997
254.22162 210.46967 446.82846
255.22653 210.28506 445.60571
256.43771 210.29607 445.33826
257.64932 210.30724 445.06717
258.64505 210.12305 443.83597
259.85489 210.13455 443.55829
261.06519 210.14624 443.27704
262.50003 210.35373 443.94687
263.94052 210.56143 444.61179
265.15738 210.5737 444.31833
266.37466 210.58615 444.02118
267.82703 210.79449 444.67252
269.28506 211.00311 445.31891
270.74881 211.21193 445.96017
272.21829 211.42101 446.59641
273.44849 211.43448 446.27795
274.92682 211.64401 446.9046
275.91034 211.46198 445.62973
277.14203 211.47598 445.2999
278.11871 211.29424 444.01947
279.09067 211.11261 442.73666
280.57944 211.32312 443.34201
282.07401 211.53389 443.94205
283.30835 211.54881 443.5929
285.08051 211.95615 445.12595
286.59244 212.16763 445.70981
288.1102 212.37938 446.28815
289.35724 212.39514 445.92017
290.88397 212.6073 446.48819
292.41656 212.81973 447.05063
293.95496 213.03238 447.60742
294.92505 212.85257 446.28339
296.46985 213.06561 446.83044
297.72815 213.08246 446.43576
298.69208 212.90305 445.10199
300.24646 213.11667 445.63422
301.50644 213.13397 445.2272
302.76697 213.15143 444.81601
304.33362 213.36563 445.3324
305.9061 213.58003 445.84277
307.48444 213.79465 446.3472
309.06854 214.00946 446.84561
310.65851 214.22443 447.33792
311.93552 214.24283 446.897
313.21301 214.26132 446.45181
314.16693 214.08304 445.07697
316.09628 214.49545 446.47284
317.3779 214.51424 446.01373
318.32794 214.33609 444.62784
319.60779 214.35495 444.16101
321.22543 214.57089 444.61038
322.50876 214.58984 444.13385
323.79248 214.60884 443.65305
325.07654 214.62781 443.16776
326.70892 214.84401 443.59467
328.34689 215.06024 444.01514
329.99048 215.27652 444.42917
331.63959 215.49283 444.83667
333.65286 215.90649 446.15009
337.84473 217.50473 452.92276
342.07928 219.10344 459.67386
347.08972 221.09761 468.22159
351.41486 222.69733 474.92688
355.78253 224.29744 481.60999
357.19586 224.31711 481.02365
359.36359 224.7318 482.24216
360.78183 224.75101 481.64413
362.58237 224.96762 481.94391
363.61737 224.78845 480.43393
365.81027 225.20218 481.62225
366.45099 224.82437 479.20496
366.68726 224.24817 475.88989
370.07385 225.2543 479.75113
372.68909 225.86438 481.80487
374.11575 225.88028 481.16394
375.94519 226.09354 481.41171
379.81113 227.29614 486.11234
380.84366 227.11221 484.55893
385.57535 228.70988 491.00919
389.93323 230.10904 496.54715
395.99451 232.29996 505.61169
397.4953 232.31119 504.90082
-45.388519 218.30376 437.93179
-44.498703 218.49316 439.42618
-43.194351 218.4812 440.02841
-40.673096 217.86684 437.95084
-39.776779 218.05415 439.43475
-38.074234 217.83978 439.1283
-36.773315 217.82541 439.71094
-35.866089 218.01093 441.18613
-34.560852 217.99548 441.76163
-32.865662 217.77921 441.4339
-31.561813 217.76295 441.99985
-30.257462 217.74631 442.56149
-28.190018 217.32874 441.3139
-27.268845 217.51172 442.76825
-25.590057 217.29393 442.4111
-24.663086 217.47632 443.85907
-22.247864 216.85782 441.67712
-20.952606 216.83966 442.20837
-19.291946 216.62125 441.82614
-17.636566 216.40274 441.43729
-15.626541 215.98419 440.13077
-15.056824 216.36548 442.46481
-13.412384 216.14677 442.05865
-12.125549 216.12794 442.56039
-11.188339 216.3089 443.97321
-9.8993073 216.28992 444.46725
-8.266449 216.07117 444.03946
-7.6635742 216.45163 446.3606
-6.0340271 216.23291 445.92307
-4.7462921 216.2139 446.39957
-2.7919769 215.79575 445.02893
-1.5103455 215.77689 445.49478
0.42721558 215.35904 444.10968
2.0281677 215.14093 443.64081
3.6233826 214.92294 443.16568
4.572403 215.10391 444.53662
6.1613464 214.88617 444.05112
7.4295807 214.86794 444.48749
9.0095978 214.65051 443.99075
9.9645386 214.83179 445.3475
11.538223 214.61465 444.84052
12.801727 214.59692 445.25916
14.064713 214.57932 445.67358
15.028091 214.76097 447.01709
16.58905 214.54456 446.48999
18.14418 214.32834 445.95703
19.402344 214.31134 446.35406
20.659958 214.29451 446.74695
22.202881 214.07892 446.19843
23.456757 214.06244 446.58237
24.710052 214.04613 446.96231
25.96283 214.03 447.3382
27.490402 213.81522 446.76944
29.012146 213.60071 446.19519
30.528099 213.38641 445.61545
31.503342 213.56976 446.91592
33.012955 213.35591 446.32678
34.254585 213.34091 446.67654
35.495689 213.3261 447.0224
36.993225 213.11292 446.41858
38.230652 213.09848 446.75595
39.467583 213.08424 447.08945
40.953072 212.87173 446.47125
42.186356 212.85788 446.79642
43.663002 212.64581 446.16849
44.892677 212.63239 446.48538
46.121887 212.61911 446.79846
47.350586 212.60603 447.10785
48.578812 212.59315 447.41351
49.80658 212.58044 447.71539
51.262062 212.36966 447.06036
52.486305 212.35735 447.35419
53.933044 212.147 446.68988
54.933434 212.33325 447.93082
56.374092 212.12332 447.25797
57.378807 212.30991 448.49289
59.025932 211.90228 446.85471
60.032425 212.08917 448.08292
61.458382 211.8801 447.39264
62.674004 211.86926 447.65622
63.889221 211.85861 447.91623
65.303581 211.65013 447.21298
66.712349 211.44189 446.50513
67.726906 211.62973 447.71417
68.938026 211.61978 447.95944
70.148781 211.61 448.2012
71.172646 211.79828 449.40182
72.569214 211.59097 448.67429
73.778915 211.58171 448.90564
74.988289 211.5726 449.13345
76.373482 211.36586 448.39352
77.579605 211.3571 448.61398
78.614464 211.54626 449.79617
79.990913 211.34007 449.04456
81.361893 211.13408 448.28857
82.564209 211.12598 448.49484
83.766235 211.11803 448.69772
84.967979 211.11024 448.89725
86.324844 210.90495 448.12552
87.370636 211.09512 449.28613
88.571564 211.0878 449.47552
89.772232 211.08063 449.66156
90.972649 211.07361 449.84424
92.172821 211.06671 450.02356
93.372742 211.06 450.19958
94.709747 210.85585 449.40161
96.041336 210.65189 448.59961
97.367523 210.4481 447.79361
98.688339 210.24448 446.98355
99.876816 210.23851 447.1416
101.18945 210.03522 446.32401
102.25313 210.22702 447.44791
103.32178 210.41893 448.56921
104.51204 210.41351 448.71451
105.81616 210.21078 447.88293
107.00346 210.20566 448.02148
108.29948 210.00323 447.1825
109.37756 210.19577 448.28882
110.56435 210.19102 448.41763
111.85214 209.98901 447.56815
113.03603 209.98456 447.69028
114.21978 209.98019 447.8092
115.49679 209.77864 446.9491
116.58684 209.97191 448.03751
117.77016 209.96794 448.14685
118.95335 209.9641 448.25296
120.1364 209.96039 448.35596
121.31934 209.95679 448.45575
122.58009 209.75601 447.5751
123.83559 209.55537 446.69095
124.94023 209.74945 447.75845
126.12013 209.74634 447.84534
127.36758 209.54608 446.95108
128.54471 209.54324 447.03159
129.78424 209.34323 446.13046
130.89868 209.53787 447.18301
132.07555 209.53537 447.25403
133.25232 209.53296 447.32184
134.42902 209.5307 447.38666
135.60565 209.52855 447.44827
136.73517 209.72374 448.48596
137.95869 209.52457 447.56207
139.13513 209.52275 447.61429
140.27217 209.71828 448.64301
141.48781 209.51947 447.70944
142.66408 209.51797 447.75226
143.87189 209.31941 446.81219
145.07451 209.12094 445.8688
146.2455 209.11981 445.90216
147.41646 209.11877 445.9324
148.56607 209.31508 446.93976
149.72081 209.51146 447.94403
150.89684 209.51077 447.96509
152.07283 209.51019 447.98306
153.25981 209.3125 447.01761
154.4332 209.31213 447.0293
155.6183 208.91748 445.07724
156.78325 209.11453 446.06305
157.95404 209.1145 446.06546
159.12669 209.31178 447.04517
160.29564 209.11476 446.06097
161.47346 209.31226 447.03445
162.64685 209.31265 447.02441
163.83241 209.51038 447.99164
164.9937 209.31378 446.99509
166.18445 209.51172 447.95602
167.3605 209.51257 447.93353
168.53659 209.51352 447.90799
169.68768 209.31738 446.89923
170.86127 209.31857 446.86752
172.0349 209.31985 446.83267
173.20856 209.32126 446.79471
174.38228 209.32275 446.75366
175.51816 209.12715 445.72983
176.68942 209.12889 445.68268
177.86072 209.13074 445.63235
179.07771 209.32994 446.55829
180.25172 209.332 446.50162
181.42581 209.3342 446.44183
182.59998 209.33649 446.37894
183.77422 209.33891 446.31293
184.94855 209.34145 446.24377
186.12296 209.34412 446.17154
187.29745 209.34686 446.09613
188.47206 209.34976 446.01761
189.64676 209.35275 445.93591
190.89293 209.55318 446.82883
191.99648 209.35913 445.76312
193.17149 209.36249 445.67197
194.34665 209.36597 445.57776
195.60358 209.56689 446.45724
196.69728 209.37329 445.37973
197.8728 209.37714 445.276
199.13785 209.57846 446.14532
200.22423 209.38522 445.05902
201.40016 209.38943 444.9458
202.57623 209.3938 444.82938
203.75247 209.39825 444.70978
204.92885 209.40286 444.58698
206.21028 209.60501 445.4357
207.38956 209.60988 445.30618
208.78912 210.00974 447.1218
209.97392 210.01489 446.98529
211.27411 210.21765 447.81912
212.34409 210.02562 446.70267
213.52945 210.03119 446.55646
214.71501 210.0369 446.40707
216.02631 210.24023 447.22659
217.21486 210.24622 447.07025
218.40363 210.25235 446.91071
219.59262 210.25861 446.74786
220.5101 209.86992 444.64011
221.55591 209.67888 443.50095
222.73782 209.68553 443.32935
223.91998 209.69235 443.15451
225.2486 209.89691 443.94562
226.73148 210.29929 445.7016
228.07355 210.50421 446.4841
229.42105 210.70932 447.26248
230.77402 210.91463 448.03665
231.97327 210.92242 447.83936
233.01106 210.73267 446.67184
234.37265 210.93849 447.43463
235.40585 210.74902 446.26129
236.6037 210.75742 446.0509
237.6297 210.56821 444.87207
238.82559 210.5769 444.65533
240.1991 210.78362 445.39926
241.21829 210.59482 444.21158
242.41513 210.604 443.98453
243.79742 210.81125 444.71667
245.18524 211.01871 445.44434
246.38834 211.02844 445.20596
247.59178 211.03836 444.96405
248.99109 211.2464 445.67917
250.59407 211.65263 447.34967
251.80643 211.66312 447.09558
253.0192 211.67378 446.83798
254.43826 211.88266 447.53513
255.44591 211.69563 446.3121
256.87097 211.90492 447.00089
257.87424 211.71817 445.77176
259.08905 211.72974 445.49628
260.08536 211.54327 444.26166
261.51996 211.75336 444.9343
262.73608 211.76544 444.64786
264.17941 211.97597 445.31128
265.39902 211.98843 445.01688
266.61914 212.0011 444.71881
267.83969 212.01395 444.41699
269.53516 212.42371 446.01349
270.7619 212.43698 445.70294
272.2316 212.64883 446.33823
273.70703 212.86095 446.96844
275.18817 213.0733 447.59348
276.42477 213.0874 447.26575
277.66187 213.10165 446.93408
278.3884 212.71898 444.70627
279.87949 212.93216 445.31387
281.11554 212.94696 444.97137
282.08871 212.76326 443.681
283.58926 212.97708 444.27475
285.36426 213.38986 445.80554
286.60776 213.40546 445.44595
288.39966 213.81879 446.96429
289.92603 214.0336 447.53534
291.45825 214.24869 448.10086
292.71448 214.26509 447.72214
294.25568 214.48059 448.2771
295.51566 214.49736 447.88947
296.48645 214.31529 446.56149
297.45251 214.1333 445.23108
298.70886 214.15048 444.83273
299.96582 214.16782 444.43033
300.92297 213.98615 443.09091
302.48129 214.2029 443.61298
304.35104 214.61908 445.06027
305.61545 214.63705 444.63947
307.50214 215.05374 446.07309
308.77289 215.07199 445.64203
310.67651 215.48914 447.0618
312.27246 215.70712 447.54703
313.55267 215.7258 447.1004
314.50928 215.5451 445.72476
316.44147 215.96301 447.11816
317.39633 215.78241 445.7348
318.67847 215.80141 445.27094
319.62625 215.62079 443.88174
321.24396 215.83952 444.33011
322.52731 215.85861 443.85318
324.15372 216.07748 444.28976
325.09503 215.89684 442.88617
327.07544 216.31561 444.22797
328.71613 216.53464 444.64642
330.3623 216.75368 445.05838
332.01404 216.97275 445.4639
334.02994 217.39178 446.77466
338.586 219.2112 454.4519
343.19 221.03116 462.10538
347.47528 222.65152 468.82639
351.80319 224.27234 475.52548
356.17358 225.89355 482.20236
357.58929 225.91325 481.61456
359.38214 226.13297 481.92618
360.80008 226.15213 481.32782
362.21765 226.17099 480.7247
363.63483 226.18945 480.11688
364.66364 226.00716 478.60486
364.90527 225.42346 475.29352
366.70331 225.64099 475.57379
368.50589 225.85808 475.84726
371.11002 226.47574 477.90375
373.72906 227.09302 479.94864
375.15137 227.10805 479.30432
378.19843 227.92487 482.22095
380.44702 228.33987 483.34329
383.94006 229.35617 487.1232
389.11554 231.17464 494.43723
394.33664 232.99255 501.72473
395.40619 232.80255 500.13373
-44.571854 219.19084 435.85767
-43.688171 219.38327 437.34909
-42.389862 219.37164 437.94897
-40.279739 218.95294 436.76224
-38.984146 218.93997 437.35187
-37.687408 218.92639 437.9375
-36.787003 219.11534 439.41409
-35.485718 219.10059 439.99277
-34.575638 219.28839 441.46466
-33.270172 219.27261 442.03619
-31.577438 219.05345 441.70395
-29.889435 218.83394 441.36511
-28.206329 218.61414 441.01978
-27.285522 218.7998 442.47385
-25.983078 218.78227 443.02182
-24.680344 218.76445 443.56537
-22.635971 218.34085 442.2919
-21.70636 218.52538 443.73206
-19.675095 218.10153 442.44437
-17.291718 217.47501 440.23849
-16.004593 217.45642 440.75375
-15.074982 217.64029 442.17636
-13.075851 217.21634 440.85846
-12.143875 217.39998 442.27341
-11.206772 217.58347 443.68604
-9.9177704 217.56438 444.18045
-8.6290588 217.54526 444.67053
-7.3406525 217.52614 445.15625
-5.7137299 217.30469 444.71872
-4.4286499 217.28561 445.1947
-2.8104248 217.06433 444.74554
-1.8596344 217.24751 446.13361
0.080688477 216.82423 444.75113
1.6844177 216.60327 444.28412
2.9594727 216.58453 444.7356
4.2340546 216.56586 445.18277
5.8257904 216.34528 444.69919
7.096756 216.32684 445.13693
8.6795502 216.10657 444.64212
9.9468689 216.08838 445.07047
11.213684 216.07031 445.4946
12.175583 216.25415 446.84543
13.44397 216.23628 447.26202
14.711823 216.21857 447.67447
16.275604 215.99927 447.14917
17.833542 215.78021 446.61807
19.385666 215.56139 446.08118
20.643417 215.54437 446.47455
22.186554 215.32594 445.92694
23.440567 215.30928 446.31134
24.97467 215.09131 445.75327
26.224976 215.07498 446.12872
27.750107 214.85745 445.56021
29.269424 214.64014 444.98615
30.512833 214.62442 445.34811
31.488213 214.81018 446.64844
32.998047 214.59351 446.06018
34.239845 214.57832 446.41034
35.221497 214.76453 447.70111
36.721855 214.54849 447.09897
37.962082 214.53387 447.43744
39.453552 214.31827 446.82535
40.690147 214.30405 447.1554
41.926224 214.28998 447.4816
43.405701 214.07507 446.85526
44.638168 214.06143 447.17319
45.870148 214.04796 447.48734
47.3377 213.83371 446.84692
48.799545 213.61974 446.20151
50.024864 213.60687 446.50311
51.477951 213.39334 445.8483
52.474167 213.5817 447.09509
53.921104 213.36859 446.4317
54.921631 213.55727 447.67242
56.14473 213.54532 447.95551
57.58255 213.33282 447.27927
59.014717 213.12057 446.59827
60.02137 213.30989 447.8262
61.447525 213.09804 447.13675
62.663315 213.08704 447.4006
63.8787 213.07623 447.66092
65.093712 213.06558 447.91763
66.50528 212.85455 447.21109
67.716927 212.84428 447.46017
68.928192 212.8342 447.70578
69.949974 213.02478 448.90906
71.163132 213.015 449.1481
72.559898 212.80493 448.42136
73.588409 212.99597 449.61569
74.979294 212.78629 448.88098
76.364662 212.5768 448.14185
77.570946 212.5679 448.36252
78.776924 212.55917 448.57974
79.982597 212.5506 448.79349
81.353737 212.34186 448.03827
82.556213 212.33362 448.24475
83.758385 212.32556 448.44788
84.960281 212.31766 448.64758
86.317329 212.10963 447.87656
87.210403 212.50255 450.00464
88.564331 212.29486 449.22644
89.765144 212.28757 449.41266
90.965706 212.28043 449.59555
92.166031 212.27344 449.77505
93.366104 212.2666 449.95123
94.703255 212.05975 449.15399
96.035004 211.85309 448.35269
97.361359 211.64658 447.54733
98.68232 211.44028 446.73804
99.997902 211.23412 445.92471
101.18372 211.22821 446.07932
102.36934 211.22246 446.23068
103.43553 211.4169 447.35126
104.62334 211.41138 447.4964
105.81095 211.40604 447.63834
107.10988 211.20078 446.80353
108.18565 211.39572 447.91241
109.37276 211.39075 448.04456
110.55968 211.38593 448.17352
111.74644 211.38126 448.29926
113.03162 211.17673 447.44696
114.2155 211.1723 447.56601
115.39922 211.16801 447.68185
116.49197 211.3638 448.77005
117.67798 211.35977 448.87979
118.86388 211.35583 448.98624
120.04963 211.35205 449.08957
121.23527 211.34839 449.18967
122.49873 211.14496 448.30984
123.75694 210.94165 447.42645
124.93706 210.93839 447.51666
126.1171 210.93523 447.60364
127.36465 210.73233 446.71002
128.54192 210.7294 446.7905
129.71906 210.72662 446.86789
130.89612 210.72395 446.94208
132.0731 210.72141 447.01315
133.25 210.71898 447.08109
134.4268 210.71667 447.1459
135.60355 210.71448 447.20758
136.78021 210.7124 447.26611
137.91235 210.91025 448.30035
139.09148 210.9084 448.35272
140.27052 210.90668 448.40204
141.44952 210.90506 448.44812
142.66266 210.70374 447.51187
143.87059 210.50253 446.57236
145.0443 210.50127 446.60895
146.24442 210.30031 445.66296
147.41548 210.29926 445.69324
148.56522 210.49812 446.70001
149.7388 210.4973 446.72415
150.89619 210.6964 447.72495
152.08588 210.496 446.76312
153.25938 210.49551 446.77802
154.43289 210.49515 446.7897
155.6181 210.09531 444.83865
156.78644 210.09515 444.84418
157.95407 210.29492 445.82642
159.12683 210.49478 446.80557
160.29588 210.29517 445.82193
161.47382 210.49525 446.79483
162.64732 210.49567 446.78485
163.82085 210.49619 446.7717
164.99438 210.49683 446.75546
166.18524 210.69737 447.71585
167.3614 210.69823 447.69336
168.53761 210.6992 447.66776
169.68881 210.50049 446.65948
170.8625 210.50168 446.62772
172.03624 210.50299 446.5929
173.17728 210.3046 445.57559
174.34854 210.30612 445.53458
175.51984 210.30779 445.49048
176.69121 210.30954 445.44321
177.86263 210.31142 445.39288
179.07973 210.51324 446.31818
180.25386 210.51535 446.26147
181.47882 210.71741 447.18018
182.60234 210.51993 446.13876
183.7767 210.52237 446.07263
184.95114 210.52496 446.00345
186.12567 210.52765 445.93109
187.30029 210.53046 445.85559
188.54123 210.73328 446.75458
189.71863 210.73634 446.67264
190.89612 210.73953 446.58759
192.07373 210.74283 446.4993
193.25145 210.74625 446.40787
194.42929 210.7498 446.31335
195.60725 210.75348 446.21567
196.70108 210.55734 445.13858
197.96355 210.7612 446.01068
199.05249 210.56531 444.92773
200.1364 210.36951 443.84204
201.40445 210.57375 444.70416
202.58066 210.57816 444.58762
203.75702 210.58273 444.46796
204.93353 210.5874 444.345
206.21509 210.79222 445.19305
207.39452 210.79718 445.06348
208.68416 211.00229 445.90427
209.97914 211.20755 446.74121
211.27948 211.41299 447.57437
212.46738 211.41852 447.43097
213.65546 211.42419 447.2843
214.84375 211.42999 447.13443
216.15778 211.63605 447.95297
217.34906 211.64214 447.79614
218.54056 211.64838 447.63608
219.73227 211.65479 447.47272
220.65244 211.26099 445.36548
221.70096 211.06747 444.22632
222.74454 210.87407 443.08463
223.92685 210.88098 442.90958
225.25565 211.08826 443.70001
226.73868 211.49594 445.45468
228.08092 211.70361 446.23654
229.58261 212.11171 447.98175
230.78174 212.11948 447.7876
231.98116 212.12741 447.59018
233.18085 212.13547 447.38922
234.21646 211.94339 446.21915
235.41415 211.95175 446.01193
236.61215 211.9603 445.80133
237.63832 211.76862 444.62283
238.83435 211.77747 444.40585
240.0307 211.78647 444.18546
241.22739 211.79564 443.96164
242.42438 211.80498 443.73438
243.80685 212.01497 444.4657
245.19487 212.22517 445.19257
246.58846 212.43561 445.91498
247.98758 212.64621 446.63278
249.19676 212.65649 446.38608
250.60443 212.86754 447.09525
251.81697 212.87817 446.84091
253.02989 212.88899 446.58301
254.24323 212.89999 446.32156
255.24841 212.71048 445.09933
256.67108 212.92253 445.7879
257.67191 212.73332 444.55963
258.88428 212.74503 444.28439
260.09708 212.7569 444.00552
261.75345 213.17056 445.63147
262.74817 212.98201 444.3905
264.19171 213.19534 445.05313
265.64093 213.40887 445.71078
266.86383 213.42175 445.41171
268.32181 213.63574 446.06006
269.54825 213.64902 445.75287
271.01505 213.86346 446.39175
272.48755 214.07817 447.02548
273.96576 214.29311 447.65408
275.44977 214.5083 448.27753
276.68918 214.52261 447.94873
277.92908 214.53711 447.61606
278.91394 214.3506 446.33389
279.89404 214.16422 445.04926
281.13031 214.1792 444.70642
282.36707 214.19437 444.35968
283.87045 214.41104 444.95175
285.64832 214.8293 446.48029
287.16592 215.04648 447.06067
288.96332 215.46533 448.57599
290.21857 215.48158 448.20486
291.75363 215.69951 448.76862
293.01263 215.71614 448.38864
294.55667 215.93449 448.94186
295.53232 215.74992 447.61658
296.79297 215.76706 447.22437
297.76181 215.58269 445.89328
299.02097 215.6001 445.49365
299.98297 215.41589 444.1568
301.24054 215.43356 443.74979
302.49872 215.45137 443.33865
304.06305 215.67117 443.85385
305.63318 215.89114 444.36307
307.52008 216.31326 445.79517
308.79095 216.33171 445.36365
311.01096 216.95627 447.70871
312.29077 216.97504 447.26593
313.24957 216.79184 445.89383
314.52774 216.81076 445.44342
316.13318 217.03191 445.91193
317.41492 217.05099 445.45193
318.69708 217.07014 444.98761
319.6449 216.88705 443.59863
321.26263 217.10855 444.0459
322.54596 217.12778 443.56851
323.82965 217.147 443.08673
325.45908 217.36865 443.51697
327.4422 217.79285 444.85617
328.73474 217.81213 444.35828
330.73431 218.23645 445.6825
332.38864 218.45825 446.08597
334.40717 218.88266 447.39404
338.96603 220.72583 455.06439
343.20886 222.36682 461.802
347.49426 224.00827 468.51785
352.19159 225.85294 476.11862
355.82068 227.08957 480.97763
357.23346 227.10922 480.39056
358.646 227.1286 479.79874
359.67828 226.94473 478.2998
361.85284 227.36935 479.50241
362.88165 227.18471 477.99524
363.9046 226.99959 476.48578
365.70288 227.22009 476.76978
366.71918 227.03397 475.25351
368.52124 227.25351 475.52609
371.52344 228.08203 478.47491
373.74338 228.50381 479.6235
375.97272 228.92502 480.76288
379.83752 230.1586 485.45609
381.68671 230.37537 485.68268
384.36331 230.99796 487.6792
388.71179 232.43304 493.2124
391.42694 233.05412 495.18073
392.05731 232.65756 492.71451
-43.754791 220.06744 433.78223
-43.287735 220.46873 436.15887
-41.992844 220.45747 436.7576
-40.291275 220.23962 436.46164
-38.593765 220.02115 436.15948
-38.100266 220.41937 438.53036
-36.800476 220.40538 439.11331
-35.89444 220.59653 440.58771
-34.982254 220.78709 442.06036
-34.06398 220.97708 443.53113
-32.366333 220.75534 443.20203
-30.673447 220.53325 442.86642
-28.603943 220.10529 441.62296
-28.059616 220.49915 443.98032
-26.376068 220.27609 443.62723
-24.697556 220.05284 443.26764
-23.024155 219.82941 442.90152
-21.724014 219.81114 443.43558
-19.692902 219.38203 442.14957
-18.035156 219.15817 441.76382
-16.382767 218.93423 441.37158
-14.735733 218.71022 440.97287
-13.448914 218.69133 441.4798
-12.162262 218.67235 441.98239
-11.225266 218.85837 443.39484
-10.283188 219.04425 444.80496
-8.6476746 218.81998 444.38022
-7.7008209 219.00572 445.78363
-6.0712433 218.78149 445.34821
-4.7834778 218.76224 445.82556
-3.1625671 218.53815 445.37845
-1.8782196 218.51898 445.84613
0.062210083 218.0903 444.46527
1.6660156 217.86656 443.99933
2.9411469 217.84766 444.45123
4.2158051 217.82883 444.89886
5.4899902 217.81009 445.34222
7.0787048 217.58685 444.85452
8.6616364 217.3638 444.36075
9.9290619 217.34543 444.78952
11.195969 217.32718 445.21411
12.462357 217.30902 445.63446
13.728241 217.29102 446.05063
14.993576 217.27315 446.46265
16.258377 217.2554 446.87048
17.816498 217.03354 446.34039
19.660019 216.60765 444.8699
20.915283 216.59047 445.26285
22.169998 216.57346 445.65173
23.424194 216.55658 446.03647
24.958496 216.33578 445.4794
26.208954 216.31927 445.85532
27.734283 216.09892 445.28775
28.981003 216.08281 445.65491
30.497383 215.86288 445.07703
31.472893 216.05109 446.37717
32.718018 216.03549 446.73239
33.962631 216.02007 447.08365
35.206688 216.00485 447.43103
36.450241 215.98979 447.77448
37.94767 215.77116 447.16864
39.439346 215.55278 446.55753
40.92527 215.33466 445.94113
42.158913 215.32043 446.26703
43.635994 215.10275 445.6409
44.624718 215.29254 446.90732
46.095566 215.07532 446.27231
47.324623 215.06189 446.5824
48.786682 214.84509 445.93784
50.243042 214.62854 445.28827
51.465485 214.61571 445.58582
52.687469 214.60306 445.87967
53.909004 214.59061 446.16983
54.909676 214.78174 447.41034
56.132942 214.76962 447.69379
57.355774 214.75769 447.97357
58.790764 214.54262 447.29395
60.010155 214.53107 447.56586
61.436493 214.31644 446.87729
62.652458 214.3053 447.14145
64.070206 214.09108 446.44394
65.282776 214.08031 446.70041
66.691925 213.86655 445.9942
67.901154 213.85614 446.24298
69.110001 213.84592 446.48828
70.129326 214.03897 447.69077
71.340042 214.02908 447.9296
72.734398 213.81627 447.20313
73.760468 214.00978 448.39664
74.970169 214.0004 448.62494
76.355728 213.78815 447.88654
77.735748 213.57614 447.14383
78.939301 213.56729 447.36078
79.974121 213.76157 448.53897
81.345459 213.55008 447.78445
82.384872 213.74466 448.9567
83.75042 213.53354 448.19452
84.952461 213.52551 448.39447
86.309677 213.31477 447.62421
87.355743 213.50992 448.78412
88.857506 213.09668 447.03867
89.757942 213.49493 449.16031
90.958664 213.48767 449.34335
92.159119 213.48059 449.52307
93.219429 213.67639 450.66861
94.421997 213.66959 450.84204
95.893822 213.25745 449.07224
97.222916 213.04822 448.26794
98.546631 212.8392 447.45969
99.864944 212.63034 446.64746
101.1779 212.42163 445.83118
102.36365 212.41577 445.9827
103.42996 212.61272 447.10291
104.6179 212.60713 447.2482
105.91975 212.39905 446.41763
107.10474 212.39375 446.55615
108.28955 212.38858 446.69144
109.4742 212.38358 446.82346
110.65868 212.37866 446.95224
111.84299 212.37392 447.07785
113.12573 212.16672 446.22592
114.21115 212.36479 447.31937
115.48843 212.1579 446.46051
116.48785 212.55875 448.52313
117.67401 212.55466 448.63293
118.86002 212.55066 448.73953
120.04591 212.54681 448.84293
121.3122 212.34059 447.96719
122.57323 212.13449 447.0878
123.7536 212.13104 447.18121
124.93385 212.12772 447.27145
126.18423 211.92203 446.38174
127.36169 211.91895 446.46548
128.53906 211.91599 446.54608
129.71634 211.91315 446.6235
130.89351 211.91046 446.69785
132.01326 212.11032 447.74661
133.24762 211.90538 446.83694
134.42455 211.90305 446.90186
135.60141 211.9008 446.96356
136.7782 211.8987 447.02219
137.91045 212.09912 448.05591
139.13158 211.89481 447.12994
140.30817 211.89304 447.17914
141.44797 212.09383 448.20386
142.66121 211.88989 447.26822
143.86926 211.68607 446.32922
145.04309 211.68478 446.36584
146.24332 211.48119 445.42038
147.41451 211.48013 445.45074
148.56435 211.68158 446.457
149.73802 211.68074 446.4812
150.89554 211.88242 447.48141
152.08534 211.67941 446.52017
153.25897 211.67892 446.535
154.43257 211.67854 446.54675
155.61205 211.47589 445.57611
156.78307 211.47574 445.5816
157.95409 211.47571 445.58405
159.12511 211.47578 445.58331
160.29613 211.47595 445.5795
161.47417 211.67867 446.55191
162.64778 211.67908 446.54187
163.83357 211.88199 447.508
164.99507 211.68025 446.51251
166.16876 211.68103 446.49319
167.36234 211.88428 447.4498
168.51619 211.68288 446.44513
169.66495 211.48157 445.43747
170.86377 211.68518 446.38464
172.03761 211.68652 446.34973
173.2115 211.68796 446.31168
174.38545 211.68954 446.2706
175.52155 211.48878 445.24771
176.69302 211.49059 445.20047
177.86456 211.49249 445.15005
179.03618 211.49451 445.09653
180.25604 211.69908 446.01801
181.48112 211.90378 446.93613
182.60475 211.70374 445.89514
183.83514 211.90869 446.8067
184.95378 211.70886 445.75974
186.12843 211.71161 445.68735
187.30318 211.71446 445.61176
188.54424 211.91992 446.5101
189.72176 211.92303 446.42813
190.97075 212.12875 447.31958
192.15106 212.13211 447.23108
193.33148 212.1356 447.13937
194.51201 212.13922 447.04453
195.69267 212.14297 446.9465
196.7892 211.94431 445.86963
197.96754 211.9483 445.7655
199.05659 211.74988 444.68298
200.23264 211.75409 444.57263
201.40881 211.75847 444.4592
202.58514 211.76297 444.3425
203.76163 211.76759 444.22272
204.93828 211.77234 444.09967
206.21997 211.97983 444.94702
207.39954 211.98488 444.81735
208.68933 212.19267 445.65744
209.87183 212.198 445.521
211.28494 212.60875 447.32617
212.35516 212.41171 446.21051
213.66119 212.62012 447.03583
214.84962 212.62604 446.8858
216.03825 212.63208 446.73251
217.22708 212.63826 446.57587
218.54688 212.84732 447.38647
219.60541 212.65106 446.25281
220.659 212.45493 445.11658
