ply
format ascii 1.0
comment PCL generated
element vertex 1590
property float x
property float y
property float z
element camera 0
property float view_px
property float view_py
property float view_pz
property float x_axisx
property float x_axisy
property float x_axisz
property float y_axisx
property float y_axisy
property float y_axisz
property float z_axisx
property float z_axisy
property float z_axisz
property float focal
property float scalex
property float scaley
property float centerx
property float centery
property int viewportx
property int viewporty
property float k1
property float k2
end_header
245.62102 118.97278 452.65036
246.81239 118.97402 452.41885
248.1987 118.97439 453.16495
249.39328 118.97568 452.92624
250.78799 118.97609 453.66406
252.18822 118.97653 454.39749
253.38898 118.97788 454.14767
254.59007 118.97926 453.8945
255.58136 118.98154 452.66019
256.56784 118.98383 451.42368
257.54953 118.98614 450.18488
258.74432 118.98759 449.91974
259.93945 118.98906 449.65118
261.13501 118.99055 449.37921
262.55667 118.9912 450.07797
263.98392 118.99189 450.77209
265.18588 118.99345 450.48856
266.85529 118.99334 452.1463
267.82718 118.9958 450.88272
269.27173 118.9966 451.55917
270.48062 118.99826 451.26031
271.44608 119.00079 449.9881
272.65329 119.00249 449.68274
274.11008 119.0034 450.34241
275.06915 119.00598 449.06146
276.27777 119.00776 448.7453
278.00076 119.00793 450.35852
279.21561 119.00977 450.03378
280.431 119.01163 449.70544
281.64691 119.01351 449.37341
282.86334 119.01543 449.03769
284.35028 119.01656 449.66116
285.57037 119.01853 449.31726
286.79108 119.02053 448.96967
288.01233 119.02255 448.61832
289.23416 119.0246 448.26318
290.73959 119.0259 448.86337
291.67953 119.02878 447.5415
293.47968 119.02937 449.09009
294.41821 119.03231 447.76135
295.93915 119.03374 448.34232
296.57751 119.03748 446.05234
298.40109 119.03822 447.57901
299.633 119.04051 447.19147
301.16956 119.04208 447.75266
302.09875 119.04517 446.40457
303.95114 119.04609 447.90714
305.19092 119.04851 447.50204
306.74588 119.05023 448.04218
307.98956 119.05272 447.62811
309.5538 119.05453 448.1575
310.47903 119.05779 446.78781
312.37497 119.05898 448.25287
313.29892 119.0623 446.87585
314.54865 119.06496 446.44037
315.79907 119.06765 446.00073
318.05719 119.06835 448.38284
319.31689 119.07113 447.93198
320.91824 119.07328 448.41687
321.83835 119.0768 447.01736
323.1001 119.07969 446.55371
324.71146 119.08196 447.02292
325.27405 119.08621 444.67731
327.59784 119.08731 447.00714
329.2244 119.08974 447.45828
331.21649 119.09159 448.83612
332.85764 119.09413 449.27338
337.78842 119.09126 458.08368
341.30298 119.09096 463.14847
345.22028 119.09019 469.125
349.54828 119.08898 476.00983
353.16852 119.08908 481.0191
354.55225 119.09275 480.45615
356.31738 119.0959 480.81299
358.85538 119.098 483.00977
360.25134 119.10184 482.4277
361.64774 119.10574 481.8407
364.21912 119.10806 484.00931
366.41272 119.11102 485.24704
368.22046 119.11458 485.55734
370.03381 119.1182 485.86029
373.05939 119.12038 488.90259
373.27234 119.12615 485.52985
375.09961 119.12997 485.81189
377.34247 119.13338 486.9985
377.53149 119.13925 483.62143
379.3667 119.14326 483.88492
382.04358 119.14643 485.95764
-42.171631 120.42435 443.83231
-40.870453 120.4201 444.4176
-39.163055 120.41379 444.08469
-37.864624 120.40965 444.6597
-35.764481 120.40137 443.39792
-34.47168 120.39733 443.96143
-32.783539 120.39127 443.60196
-31.493927 120.38733 444.15524
-29.814362 120.38138 443.78317
-28.528076 120.37754 444.32617
-26.857285 120.3717 443.94171
-25.574448 120.36797 444.47452
-24.292068 120.36427 445.00278
-23.764008 120.36465 447.37909
-22.103027 120.35901 446.97318
-20.819519 120.35543 447.48901
-19.536545 120.3519 448.00037
-17.887909 120.34642 447.57678
-15.881561 120.33902 446.21503
-14.608322 120.33563 446.70987
-12.977448 120.33032 446.26675
-11.352493 120.32507 445.81717
-10.086456 120.32182 446.29684
-8.8210754 120.3186 446.77222
-7.5563049 120.31543 447.24316
-6.2922211 120.3123 447.70984
-5.0288239 120.30921 448.17227
-4.1058044 120.30807 449.57092
-2.8410797 120.30505 450.02576
-1.2426147 120.30016 449.53391
0.018112183 120.29722 449.97928
1.2781525 120.29431 450.42047
2.8640137 120.28956 449.91229
4.1200714 120.28673 450.34421
5.3754425 120.28394 450.77197
6.9487305 120.27931 450.24777
8.5160828 120.27473 449.71771
10.077515 120.2702 449.18176
11.633011 120.26571 448.64005
12.874512 120.26311 449.04401
14.420853 120.25871 448.49167
15.355637 120.25802 449.83987
16.595245 120.25552 450.23184
17.834229 120.25306 450.61984
19.072556 120.25063 451.00394
20.310287 120.24823 451.38412
21.837082 120.24405 450.80328
23.070984 120.24171 451.1749
24.304291 120.23941 451.54263
25.818817 120.23534 450.94714
27.32753 120.23131 450.34625
28.553848 120.2291 450.70102
29.779617 120.22693 451.05203
31.004807 120.22478 451.39929
31.960693 120.22445 452.70602
33.187424 120.22235 453.04648
34.677155 120.21852 452.41867
35.900208 120.21649 452.75104
37.122734 120.21449 453.07974
38.344765 120.21251 453.40479
39.566299 120.21056 453.72614
40.787338 120.20863 454.04382
42.255814 120.205 453.38913
43.718613 120.20139 452.72952
45.175751 120.19783 452.06497
46.387093 120.19602 452.36636
47.835526 120.19251 451.69278
49.043404 120.19076 451.98639
50.48317 120.18732 451.30386
51.228142 120.18905 453.53638
52.664459 120.18565 452.84628
53.870659 120.184 453.12589
54.854523 120.18407 454.37708
56.062523 120.18246 454.65039
57.270134 120.18089 454.92023
58.477386 120.17932 455.18655
59.895828 120.17609 454.47217
61.099747 120.17458 454.73114
62.50972 120.17141 454.00821
63.710365 120.16994 454.2598
64.709427 120.17018 455.48758
65.91198 120.16876 455.73297
66.918152 120.16903 456.95557
67.34877 120.17432 461.11914
67.990616 120.17796 464.30185
68.647667 120.18159 467.48413
69.319916 120.18523 470.66599
70.739914 120.18224 469.91498
72.515556 120.17597 467.1925
74.453415 120.16808 463.47977
76.370346 120.16025 459.75998
78.093559 120.15409 457.01813
79.630806 120.14962 455.25568
81.325142 120.14354 452.50235
82.673599 120.14077 451.71576
83.854156 120.13966 451.91177
85.194412 120.13694 451.11746
86.529297 120.13424 450.31909
87.858803 120.13157 449.51675
89.335144 120.12729 447.72208
90.651344 120.12466 446.91147
92.256302 120.11882 444.11859
93.412193 120.11787 444.28891
94.709793 120.11532 443.46622
96.00206 120.11279 442.63971
97.152237 120.11189 442.80005
98.168076 120.11263 443.94824
99.452095 120.11016 443.11148
100.47275 120.11093 444.25421
101.7513 120.10851 443.41064
103.02455 120.10609 442.56335
104.29251 120.10371 441.71243
105.55519 120.10134 440.85776
106.81258 120.099 439.99954
108.06468 120.09667 439.1377
109.31152 120.09437 438.27228
110.44463 120.09368 438.3974
111.6835 120.09142 437.52515
112.81378 120.09077 437.6441
113.94395 120.09013 437.76001
115.07401 120.08951 437.87296
116.20395 120.08891 437.983
117.33379 120.08833 438.09009
118.37303 120.08934 439.19012
119.32939 120.09196 441.28375
120.38127 120.093 442.379
121.35541 120.09564 444.46832
122.33972 120.0983 446.55545
123.48953 120.0978 446.64655
124.56416 120.0989 447.73178
125.71637 120.09843 447.81708
126.93846 120.09641 446.90179
128.08795 120.09599 446.98093
129.17255 120.09715 448.05496
130.26221 120.09833 449.12637
131.35693 120.09952 450.1951
132.39958 120.10229 452.25955
133.56158 120.10194 452.32452
134.72353 120.10161 452.38657
135.88541 120.10129 452.44553
137.14098 120.09785 450.50375
138.29764 120.09756 450.55655
139.45425 120.0973 450.60638
140.53247 120.10018 452.65164
141.65752 120.10151 453.69504
142.78766 120.10285 454.73563
143.92288 120.10422 455.77338
145.09215 120.10403 455.80869
146.28772 120.10229 454.8414
147.43057 120.10369 455.87033
148.57852 120.10512 456.89645
149.76891 120.10342 455.92001
150.90584 120.10645 457.94006
152.06656 120.10792 458.95737
153.24336 120.10784 458.97183
154.42015 120.10778 458.98322
155.60278 120.10617 457.99164
156.78685 120.10145 454.99701
157.95409 120.09988 453.99936
159.11621 120.09831 452.99872
160.27762 120.09834 452.99503
161.45297 120.1015 454.9884
162.65767 120.1078 458.97855
163.85869 120.111 460.9657
165.0553 120.11266 461.94977
166.22261 120.11119 460.93103
167.36502 120.10818 458.90952
168.49719 120.10519 456.88519
169.59421 120.10064 453.85843
170.70335 120.09767 451.8287
171.83232 120.09628 450.79578
172.95621 120.09492 449.76007
174.07498 120.09356 448.72156
175.22643 120.09379 448.67957
176.3779 120.09402 448.63455
177.48654 120.09272 447.58755
178.5901 120.09142 446.53778
179.64059 120.08858 444.48648
180.782 120.08888 444.43015
181.92346 120.0892 444.37091
183.06497 120.08954 444.30872
184.14828 120.08832 443.24527
185.28735 120.08868 443.17728
186.29971 120.08592 441.11041
187.43379 120.08632 441.03693
188.49942 120.08516 439.96286
189.48891 120.08244 437.8887
190.61551 120.08288 437.80698
191.74219 120.08334 437.72232
192.79018 120.08224 436.63782
193.91446 120.08273 436.54749
195.03885 120.08324 436.45425
196.3363 120.08693 438.35056
197.55505 120.08906 439.24707
198.68744 120.08961 439.14435
199.81992 120.09019 439.03864
200.9525 120.09079 438.93002
202.08521 120.0914 438.81842
203.11612 120.09044 437.70908
204.45541 120.09427 439.58084
205.69807 120.09653 440.45435
207.05562 120.1004 442.31824
208.31139 120.1027 443.18433
209.45769 120.10342 443.05344
210.60413 120.10416 442.91949
211.7507 120.10492 442.7825
212.89743 120.10569 442.64255
214.04433 120.10648 442.49951
215.31897 120.1089 443.34531
216.33858 120.10812 442.20438
217.48595 120.10896 442.05222
218.63348 120.10983 441.897
219.9191 120.11233 442.72913
221.06956 120.11323 442.56747
222.64935 120.11901 445.37183
223.95352 120.12157 446.19214
225.41125 120.12579 447.99762
226.8795 120.13004 449.79837
228.35825 120.1343 451.59439
229.8475 120.1386 453.38562
231.34731 120.14293 455.17209
233.01871 120.14892 457.94052
234.70581 120.15495 460.70331
236.40863 120.16101 463.46014
237.78955 120.16382 464.23984
238.66171 120.16172 462.05969
239.52383 120.15963 459.87805
240.0228 120.15425 455.72635
240.50137 120.14887 451.57507
241.68643 120.15011 451.35773
243.24037 120.15469 453.10281
244.24429 120.15432 451.89551
245.62225 120.1573 452.64969
246.81364 120.15863 452.41815
248.00534 120.15998 452.18332
249.39458 120.16303 452.92551
250.78932 120.16611 453.66336
252.18954 120.16921 454.3967
253.39032 120.17067 454.14691
254.38388 120.17046 452.91547
255.3726 120.17027 451.68176
256.56927 120.17178 451.42291
257.55093 120.17162 450.18402
258.74573 120.17317 449.91888
259.94092 120.17475 449.65036
261.35962 120.17806 450.35315
262.5582 120.1797 450.07715
264.21378 120.18478 451.74484
265.41833 120.18646 451.46066
266.85684 120.1899 452.14536
267.82877 120.18991 450.88184
269.27335 120.1934 451.55826
270.48227 120.19519 451.25937
271.44775 120.19527 449.98715
272.65497 120.19711 449.68176
273.86267 120.19897 449.37286
275.07086 120.20086 449.06039
276.27954 120.20278 448.74435
277.74561 120.20647 449.39105
279.21741 120.21021 450.03271
280.4328 120.21222 449.70432
281.64874 120.21425 449.37234
282.86517 120.21632 449.03656
284.35214 120.22018 449.66
285.57233 120.22231 449.31613
286.79303 120.22446 448.96851
288.01428 120.22663 448.61713
289.23615 120.22884 448.26196
290.74158 120.23289 448.86212
291.68158 120.23335 447.54028
293.48175 120.23927 449.08881
294.71118 120.24162 448.71683
296.52829 120.24763 450.25287
297.46808 120.24821 448.91641
298.70203 120.25065 448.53198
300.23798 120.25496 449.09708
301.47583 120.25747 448.70395
302.40762 120.25816 447.35495
303.95343 120.26258 447.9057
305.19318 120.26519 447.50055
306.43365 120.26784 447.0914
307.99191 120.27238 447.62656
309.55615 120.27697 448.15591
310.48145 120.27785 446.78619
312.37738 120.28441 448.25125
313.30139 120.28535 446.87421
314.55115 120.28822 446.43872
315.46857 120.28921 445.05612
317.72406 120.29787 447.43909
318.98114 120.30086 446.98917
320.5799 120.30581 447.47507
321.841 120.30888 447.01566
323.44904 120.31393 447.49005
324.71417 120.31708 447.02106
325.62836 120.31832 445.61157
327.24637 120.3235 446.0701
328.87033 120.32874 446.52222
330.8598 120.336 447.90103
332.49829 120.34135 448.33923
337.06165 120.36264 456.21942
340.93848 120.38012 462.21628
344.48303 120.39574 467.26486
349.17862 120.41751 475.07962
353.17178 120.43544 481.01675
354.55554 120.43936 480.45377
356.70154 120.4474 481.73517
358.85876 120.45551 483.00726
359.86856 120.45756 481.50275
361.65118 120.46375 481.83817
363.83112 120.47206 483.08652
365.62787 120.47839 483.40634
367.82718 120.48686 484.63678
369.23834 120.49125 484.02414
372.25861 120.50406 487.06866
373.68091 120.50858 486.44135
375.10333 120.51315 485.80899
377.75647 120.52412 487.90753
378.36111 120.52457 485.44
380.61728 120.53357 486.61053
382.4657 120.54052 486.86285
-41.763687 121.68595 442.91449
-40.8741 121.6862 444.41122
-39.166672 121.67707 444.07837
-37.46463 121.66801 443.73849
-35.768021 121.659 443.39169
-34.873459 121.65941 444.8725
-33.182617 121.65051 444.51428
-32.283188 121.65099 445.98825
-30.598282 121.6422 445.61859
-28.919037 121.63346 445.24203
-27.245529 121.62479 444.85873
-25.960007 121.6208 445.3927
-24.674942 121.61687 445.92212
-23.39035 121.61297 446.44702
-22.106262 121.60912 446.96738
-20.822708 121.60531 447.48328
-19.908646 121.60612 448.92416
-18.257309 121.59782 448.50165
-16.248245 121.58499 447.14099
-14.611404 121.57681 446.70438
-13.33876 121.57323 447.19485
-11.355499 121.5606 445.81177
-9.7364349 121.55258 445.3558
-8.8239899 121.5537 446.76682
-7.2115479 121.54578 446.30023
-6.295105 121.54695 447.70459
-5.031662 121.54365 448.16702
-4.1086121 121.54488 449.56567
-2.5067749 121.53715 449.07904
-0.91093445 121.52946 448.5863
0.34716797 121.52631 449.03082
1.604599 121.52321 449.47113
2.8613586 121.52014 449.90723
4.4413147 121.51264 449.39307
5.3728333 121.51412 450.767
6.946167 121.50671 450.2428
8.5135498 121.49935 449.71277
9.761673 121.49648 450.12653
11.319839 121.48922 449.58572
12.872101 121.48199 449.03915
14.113007 121.47925 449.43909
15.353271 121.47653 449.83505
16.592896 121.47386 450.22708
17.831894 121.47121 450.61511
19.070267 121.46861 450.99924
20.308014 121.46603 451.37946
21.834839 121.4591 450.79868
23.355835 121.45221 450.21243
24.586533 121.44975 450.57944
25.81665 121.44732 450.9426
27.325394 121.44054 450.34174
28.275131 121.44255 451.65756
29.777527 121.43585 451.04761
31.002747 121.43356 451.39487
31.958656 121.43564 452.7016
33.185402 121.4334 453.04211
34.675163 121.42684 452.41431
35.898254 121.42467 452.74667
37.120804 121.42252 453.07541
38.342857 121.4204 453.40045
39.817543 121.41399 452.75439
41.035988 121.41193 453.0715
42.253983 121.40991 453.38489
43.716797 121.4036 452.72534
45.173958 121.39733 452.06085
46.385338 121.3954 452.36221
47.596275 121.39349 452.66003
48.806763 121.39162 452.95432
50.249153 121.38548 452.27243
51.226471 121.38794 453.53232
52.435699 121.38615 453.81601
53.644516 121.38438 454.09625
54.852913 121.38263 454.37308
55.841583 121.38519 455.62201
57.268578 121.37922 454.91623
58.475845 121.37756 455.18259
59.894325 121.37165 454.4682
61.098274 121.37003 454.72714
62.301849 121.36845 454.98276
63.505104 121.36688 455.23486
64.708008 121.36534 455.48367
65.910568 121.36383 455.7291
67.112816 121.36234 455.97116
67.734329 121.37359 459.15308
68.371033 121.38484 462.33472
68.834625 121.40033 466.49811
69.504295 121.41159 469.67947
70.738594 121.41018 469.91107
72.153152 121.40456 469.15573
73.918228 121.39054 466.42798
75.842926 121.37234 462.70966
77.746727 121.35418 458.98425
79.459396 121.34028 456.23737
80.988678 121.33063 454.47031
82.507393 121.32101 452.69833
83.853058 121.31563 451.90808
85.193336 121.31026 451.1138
86.370888 121.30914 451.30301
87.857765 121.29963 449.51315
89.334129 121.29015 447.71848
90.650352 121.2849 446.90787
92.108276 121.27548 445.10422
93.411232 121.27029 444.2854
94.566948 121.26929 444.45264
95.861809 121.26414 443.62653
97.014595 121.26319 443.78714
98.167206 121.26226 443.9447
99.319641 121.26135 444.09927
100.60094 121.25629 443.25909
101.87694 121.25124 442.41522
103.27153 121.24206 440.57535
104.53438 121.23706 439.72372
105.79192 121.23209 438.86856
107.04419 121.22713 438.0097
108.29118 121.22221 437.14728
109.42186 121.22147 437.27509
110.66087 121.21658 436.40588
111.78873 121.21587 436.52747
112.91646 121.21519 436.64609
113.94331 121.21867 437.75668
115.07338 121.21802 437.86969
116.20335 121.21738 437.97968
117.3332 121.21677 438.08679
118.28197 121.22446 440.18268
119.32883 121.22803 441.28046
120.38072 121.23161 442.3757
121.35487 121.23934 444.46497
122.41943 121.24295 445.55539
123.56669 121.24243 445.64621
124.71387 121.24193 445.7341
125.86096 121.24144 445.81897
127.07793 121.23683 444.90338
128.15492 121.24052 445.97989
129.23695 121.24422 447.05377
130.26181 121.25208 449.12302
131.35655 121.25582 450.19177
132.39922 121.2637 452.2562
133.6158 121.2592 451.32269
134.72319 121.26299 452.38321
135.98396 121.25438 450.44464
137.18756 121.24993 449.50156
138.38597 121.2455 448.55521
139.49573 121.24935 449.60391
140.61057 121.25321 450.6499
141.7305 121.2571 451.69308
142.85553 121.26099 452.73346
143.98566 121.26491 453.77106
145.1498 121.26471 453.80621
146.34027 121.2604 452.83875
147.478 121.26437 453.86758
148.64206 121.26421 453.89383
149.80611 121.26408 453.91705
150.95404 121.2681 454.93713
152.10707 121.27213 455.95435
153.28717 121.26792 454.96875
154.45374 121.26786 454.98004
155.62613 121.26369 453.98837
156.79668 121.2554 451.99374
157.95695 121.24714 449.99609
159.11069 121.24714 449.99545
160.26881 121.25129 450.99176
161.43907 121.25958 452.98514
162.63866 121.27615 456.97531
163.84666 121.2886 459.96237
165.0554 121.29694 461.94635
166.22272 121.29292 460.92761
167.36514 121.2848 458.90619
168.47498 121.27255 455.88211
169.56944 121.26032 452.85544
170.64856 121.24811 449.82617
171.77242 121.24417 448.7934
172.89119 121.24025 447.75784
174.00485 121.23634 446.71951
175.15117 121.23658 446.6777
176.25723 121.2327 445.6337
177.40106 121.23297 445.58609
178.49953 121.22913 444.53662
179.5929 121.2253 443.48441
180.68118 121.22149 442.42944
181.76439 121.21769 441.37189
182.89822 121.21805 441.31009
184.03214 121.21841 441.24539
185.10527 121.21467 440.17963
186.23672 121.21507 440.10919
187.36826 121.21549 440.03583
188.43134 121.21178 438.96191
189.48935 121.2081 437.88547
190.54231 121.20443 436.80643
191.66644 121.20491 436.72195
192.71188 121.20127 435.63766
193.83362 121.20179 435.54755
194.95544 121.20232 435.4545
196.16386 121.20703 436.3548
197.3775 121.21175 437.25174
198.68802 121.22064 439.14099
199.82051 121.22126 439.03531
200.95313 121.22189 438.92673
202.08583 121.22253 438.81509
203.11676 121.21904 437.70578
204.35161 121.22388 438.58301
205.59172 121.22874 439.4567
206.94672 121.23779 441.32092
208.19994 121.24269 442.18726
209.45844 121.24762 443.05005
210.60489 121.24841 442.91608
211.87137 121.25337 443.77188
213.02069 121.2542 443.63159
214.17017 121.25504 443.48819
215.44742 121.26008 444.33368
216.4696 121.25678 443.19241
217.61955 121.25768 443.03989
218.90501 121.26278 443.87509
220.05789 121.26372 443.71609
221.35143 121.26886 444.54413
222.93639 121.2824 447.34772
224.24574 121.28761 448.16727
225.70865 121.29701 449.97192
227.18204 121.30646 451.77188
228.66597 121.31593 453.56711
230.00449 121.32124 454.36978
231.66537 121.33497 457.14307
233.34198 121.34874 459.91074
235.03426 121.36254 462.67255
236.74226 121.37639 465.42856
237.95953 121.37763 465.22165
238.66293 121.36626 462.05594
239.35107 121.3549 458.88959
239.84746 121.33932 454.73831
240.50261 121.32796 451.57135
241.68768 121.32928 451.35394
243.24164 121.33909 453.099
244.43246 121.34046 452.87405
245.62357 121.34186 452.64587
246.815 121.34328 452.41437
248.00671 121.34473 452.17947
249.19875 121.3462 451.94131
250.59091 121.35194 452.67963
251.98859 121.3577 453.41351
253.1868 121.35925 453.16422
254.1778 121.35657 451.93338
255.3741 121.35815 451.67786
256.57077 121.35977 451.41891
257.55249 121.35715 450.18008
258.96521 121.36308 450.89087
260.16302 121.36478 450.62177
261.36124 121.36649 450.34918
262.78552 121.37252 451.04733
263.98709 121.37429 450.76718
265.18909 121.37609 450.48358
266.62506 121.38222 451.16891
267.83051 121.38407 450.87772
269.03638 121.38596 450.58298
270.24274 121.38787 450.28476
271.2056 121.3855 449.01315
272.41028 121.38747 448.70847
273.8645 121.39378 449.36865
275.07269 121.3958 449.05615
276.2814 121.39785 448.74005
277.74753 121.40427 449.38678
279.21936 121.41072 450.02841
280.43478 121.41286 449.70004
281.38599 121.41071 448.40366
282.59985 121.41291 448.06863
284.08423 121.41949 448.69272
285.30179 121.42177 448.34958
286.5199 121.42407 448.00262
287.73862 121.42641 447.65204
289.23828 121.43314 448.25748
290.74377 121.43993 448.85757
291.96942 121.44237 448.49405
293.48395 121.44923 449.08423
294.71344 121.45174 448.71222
296.53058 121.46309 450.24823
297.76654 121.46568 449.86685
299.00311 121.4683 449.48157
300.54175 121.47538 450.04584
301.78223 121.47807 449.65182
302.41003 121.47195 447.35019
303.95587 121.47914 447.90085
305.19568 121.48194 447.4957
306.43616 121.48477 447.08655
307.67728 121.48765 446.67331
309.55872 121.49947 448.15094
310.16156 121.4935 445.83472
311.7298 121.50095 446.35486
312.97629 121.50397 445.92441
314.22345 121.50704 445.48981
315.47125 121.51015 445.05099
317.39114 121.52229 446.492
319.32227 121.53449 447.92496
320.92371 121.54225 448.40985
322.53107 121.55006 448.88852
324.14447 121.55793 449.36099
325.76382 121.56585 449.82709
326.33447 121.56021 447.47852
327.95779 121.56822 447.93494
329.23022 121.57174 447.45087
330.5033 121.57529 446.9624
331.77698 121.57889 446.46948
336.69995 121.6283 455.28265
340.20667 121.65958 460.35043
344.11615 121.69558 466.32996
348.8092 121.74094 474.14563
353.17529 121.78187 481.0105
354.55908 121.78605 480.44745
356.70514 121.79952 481.72882
359.24591 121.81771 483.92441
360.64459 121.82207 483.34116
362.43262 121.83114 483.67422
364.22638 121.84026 484.00012
366.81427 121.85879 486.15677
368.62476 121.86806 486.46579
370.04132 121.87271 485.85077
372.26257 121.8868 487.06183
373.27997 121.88687 485.52011
373.88458 121.88226 483.06256
377.35028 121.91071 486.98859
377.95224 121.90617 484.52219
381.03699 121.93009 487.51297
383.30637 121.94464 488.67224
-42.59082 122.9644 444.72702
-41.286957 122.9597 445.31372
-39.576782 122.94774 444.98206
-37.872025 122.93583 444.64346
-36.17276 122.92399 444.29794
-34.877213 122.91948 444.86267
-33.186325 122.90775 444.50449
-31.893982 122.90334 445.05899
-30.2117 122.89172 444.68823
-28.922668 122.88741 445.23245
-27.634033 122.88314 445.77213
-25.963577 122.87169 445.38321
-24.678467 122.86751 445.91266
-23.770767 122.87059 447.36383
-22.483978 122.86649 447.88535
-20.826141 122.85525 447.47397
-19.912048 122.85844 448.91486
-18.260651 122.8473 448.49237
-16.615189 122.83622 448.06339
-14.975632 122.8252 447.62784
-13.34201 122.81425 447.18585
-11.714325 122.80335 446.73737
-10.09259 122.79251 446.28253
-8.8271332 122.78886 446.75793
-7.2146606 122.77813 446.29141
-5.9531555 122.77457 446.7572
-4.6923523 122.77105 447.21875
-3.7719116 122.77467 448.61646
-2.1726837 122.76413 448.12894
-0.91386414 122.76073 448.57767
0.67604065 122.75031 448.07892
1.6017151 122.75407 449.46255
3.1850281 122.74374 448.95352
4.4384918 122.74051 449.38461
5.3700256 122.74437 450.75861
6.9434052 122.73418 450.23444
8.5108185 122.72404 449.70444
9.7589722 122.72098 450.11826
11.317184 122.71094 449.57745
12.869476 122.70094 449.03098
14.110397 122.69801 449.43097
15.047882 122.70212 450.78
16.590347 122.69226 450.21899
17.829391 122.68944 450.60706
19.362717 122.67966 450.03577
20.597885 122.67693 450.41516
22.122116 122.66724 449.83365
23.353455 122.66458 450.2045
24.868637 122.65499 449.61288
26.096161 122.6524 449.97531
27.323105 122.64984 450.33398
28.549469 122.64732 450.68881
29.775299 122.64484 451.03983
31.000526 122.64239 451.38718
32.225258 122.63996 451.73068
33.449394 122.63758 452.07056
34.936592 122.6283 451.44202
36.157089 122.62599 451.77374
37.37706 122.6237 452.10181
38.340828 122.62836 453.39285
39.562386 122.62613 453.71432
40.783485 122.62394 454.03204
42.004074 122.62177 454.34625
43.469551 122.61275 453.68729
44.929329 122.60378 453.0235
46.383446 122.59483 452.35486
47.594414 122.5928 452.65268
48.804939 122.59081 452.94696
50.015022 122.58884 453.23776
51.224686 122.5869 453.52502
52.433937 122.58498 453.80875
53.418236 122.58995 455.06348
54.851219 122.58125 454.36581
55.839905 122.58626 455.61475
57.26693 122.57761 454.909
58.474205 122.57584 455.17545
59.681129 122.5741 455.43839
60.88768 122.57238 455.69794
62.300285 122.56387 454.97565
63.503555 122.5622 455.22781
64.706482 122.56056 455.47662
65.909081 122.55895 455.72205
67.111343 122.55737 455.96411
67.926338 122.56943 458.16498
68.560471 122.58831 461.34607
69.021492 122.61399 465.50891
69.874321 122.62608 467.70718
70.73719 122.63818 469.90393
72.151779 122.62991 469.14865
73.738899 122.61488 467.40494
75.666222 122.58633 463.6871
77.399811 122.5646 460.94717
79.117668 122.54292 458.20123
80.65213 122.52805 456.43515
82.176025 122.51321 454.66409
83.526878 122.50519 453.87469
85.032257 122.49042 452.09421
86.212402 122.48922 452.28381
87.701881 122.47451 450.49442
89.180847 122.45984 448.70023
90.499672 122.45195 447.88998
91.813141 122.44409 447.07587
93.121269 122.43626 446.25787
94.424057 122.42846 445.43594
95.721512 122.42068 444.61023
96.876892 122.41968 444.77127
98.300446 122.4052 442.94739
99.581947 122.3975 442.11026
100.85812 122.38982 441.26947
102.00253 122.38891 441.4169
103.51848 122.36781 438.58444
104.65488 122.36694 438.72482
106.02863 122.35262 436.87643
107.15959 122.3518 437.01022
108.40403 122.34427 436.14752
109.53215 122.34348 436.27502
110.76862 122.33599 435.40555
111.78802 122.34197 436.52124
112.91577 122.34125 436.63989
114.0434 122.34055 436.75558
115.17092 122.33985 436.86832
116.20271 122.3459 437.97345
117.33257 122.34525 438.0806
118.28136 122.35805 440.17645
119.32823 122.36414 441.27423
120.29479 122.37697 443.36578
121.35432 122.3831 444.45871
122.49911 122.38253 444.55234
123.72148 122.37527 443.64606
124.78845 122.38145 444.73068
126.00552 122.37424 443.81805
127.14743 122.37375 443.8996
128.28925 122.37328 443.97821
129.30136 122.38623 446.04962
130.32364 122.39919 448.11874
131.35614 122.41217 450.18552
132.51309 122.41177 450.25323
133.67 122.41138 450.3179
134.77484 122.41771 451.37823
136.03307 122.40396 449.43964
137.28099 122.39024 447.49753
138.42998 122.38992 447.54999
139.57893 122.38963 447.59943
140.72784 122.38935 447.64597
141.8401 122.39578 448.68887
142.9234 122.40894 450.72839
144.0799 122.40871 450.76633
145.23637 122.4085 450.80121
146.39281 122.40831 450.83322
147.54922 122.40813 450.86221
148.70561 122.40798 450.88824
149.86198 122.40784 450.91138
151.00223 122.41442 451.9313
152.1476 122.42101 452.94836
153.32002 122.41424 451.96265
154.48732 122.40748 450.97397
155.64948 122.40074 449.98224
156.80978 122.38733 447.98755
157.95911 122.38063 446.98987
159.10701 122.38732 447.9892
160.26003 122.39404 448.9856
161.42517 122.40746 450.97891
162.61964 122.43428 454.96915
163.82254 122.45443 457.95621
165.04083 122.4746 460.94009
166.22284 122.47472 460.92123
167.36528 122.46146 458.89978
168.47513 122.44154 455.87582
169.54469 122.41493 451.84946
170.62126 122.39503 448.82028
171.71252 122.38185 446.78815
172.82617 122.37537 445.75275
173.93474 122.36891 444.71457
175.07594 122.36916 444.67294
176.21719 122.36943 444.62836
177.35849 122.36972 444.58084
178.45439 122.36333 443.53143
179.54521 122.35695 442.47937
180.63095 122.35059 441.42456
181.71161 122.34425 440.36719
182.7872 122.33792 439.30707
183.91599 122.33831 439.24265
184.98401 122.33202 438.17719
186.11035 122.33244 438.10709
187.23677 122.33288 438.03406
188.36325 122.33334 437.95813
189.48982 122.33382 437.8793
190.5428 122.32761 436.80029
191.74318 122.33482 437.71286
192.7912 122.32864 436.62839
193.83415 122.32249 435.54141
194.87207 122.31634 434.4519
196.16443 122.33035 436.3486
197.3781 122.33767 437.24551
198.597 122.34501 438.13904
199.82115 122.35237 439.02911
201.05054 122.35976 439.91574
202.18584 122.36044 439.80386
203.21935 122.35442 438.69424
204.35233 122.35514 438.57675
205.48541 122.35588 438.45621
206.72824 122.36337 439.32666
208.08852 122.37761 441.18726
209.22971 122.37841 441.05688
210.37105 122.37923 440.92358
211.7523 122.39355 442.77271
213.02155 122.40115 443.62521
214.17104 122.40204 443.48181
215.44829 122.40969 444.32721
216.73085 122.41737 445.16888
217.88599 122.41832 445.01569
219.17661 122.42605 445.85019
220.47255 122.43379 446.68091
221.77383 122.44157 447.50781
223.36653 122.46288 450.31021
224.53802 122.46395 450.13934
226.00609 122.47856 451.94315
227.33391 122.48644 452.75378
228.82042 122.50112 454.54852
230.00562 122.5023 454.36304
231.82504 122.53056 458.12363
233.66531 122.55888 461.87769
235.36279 122.58047 464.63864
236.90974 122.59531 466.40765
238.12964 122.59664 466.20035
238.66422 122.57086 462.04901
239.17841 122.54508 457.89789
239.67221 122.51931 453.74722
240.50394 122.50711 451.56451
241.68903 122.50851 451.34708
243.24301 122.52354 453.09216
244.43384 122.525 452.86716
245.62498 122.52649 452.63898
246.62436 122.52119 451.42606
248.00816 122.52953 452.17255
249.00299 122.52428 450.95398
250.59242 122.53949 452.67264
251.78772 122.54111 452.42722
253.18835 122.54958 453.1572
254.38693 122.55125 452.90448
255.37567 122.54611 451.67075
256.35965 122.54099 450.43478
257.55411 122.54274 450.17297
258.74896 122.54451 449.90778
259.72363 122.53946 448.66385
261.1398 122.54813 449.36722
262.56152 122.55684 450.06592
263.53226 122.55186 448.81287
264.95999 122.56064 449.50345
266.15985 122.56258 449.21695
267.59622 122.57143 449.89871
268.79956 122.57343 449.60461
270.24463 122.58234 450.2774
271.45142 122.58441 449.97562
272.65869 122.58651 449.6702
273.86646 122.58864 449.36124
275.07471 122.5908 449.04877
276.28342 122.59299 448.73257
277.74957 122.60211 449.37924
279.22144 122.61128 450.0209
280.43689 122.61358 449.69244
281.38812 122.60899 448.39606
282.60199 122.61134 448.061
283.81644 122.61372 447.72226
285.30402 122.62309 448.34192
286.52216 122.62554 447.99493
287.74084 122.62803 447.64429
288.96014 122.63055 447.28983
290.46307 122.64008 447.89069
291.68613 122.64268 447.52789
293.19806 122.65228 448.1188
294.42496 122.65496 447.74756
296.2395 122.67163 449.2843
297.47287 122.67439 448.90369
298.70685 122.67719 448.5192
300.24289 122.68702 449.08426
301.48077 122.6899 448.69104
302.10599 122.67879 446.39029
303.9585 122.69576 447.8927
305.19836 122.69875 447.48749
306.43884 122.70178 447.07831
307.99719 122.71188 447.61334
309.88135 122.72909 449.09006
310.8093 122.7252 447.71945
312.05777 122.72839 447.29214
313.30688 122.73164 446.86069
314.5567 122.73491 446.42511
315.47418 122.73116 445.04251
317.3941 122.74867 446.48337
318.98694 122.75918 446.97534
320.58575 122.76973 447.46106
322.19055 122.78035 447.94064
324.14758 122.79813 449.35208
325.06912 122.79462 447.94394
326.33765 122.79827 447.46957
327.96103 122.8091 447.92599
328.87659 122.80569 446.50772
330.50659 122.81663 446.95334
331.7803 122.82046 446.46039
336.3385 122.88885 454.34229
340.21017 122.94309 460.34094
344.11969 122.99749 466.32025
349.18573 123.07363 475.0636
353.55457 123.13558 481.92719
354.56287 123.13281 480.43735
356.32809 123.14451 480.79395
358.86627 123.17074 482.99054
358.71753 123.14639 478.71878
360.8811 123.16551 479.9787
361.88113 123.16294 478.46875
364.45306 123.18946 480.63214
366.24756 123.20154 480.948
368.4472 123.22096 482.17328
370.65778 123.24046 483.38885
373.68909 123.27466 486.42349
375.11154 123.27972 485.79105
378.58533 123.32145 489.71329
379.19531 123.31199 487.24332
382.28809 123.34659 490.23022
384.14734 123.35925 490.47751
-42.183334 124.22356 443.80185
-41.291046 124.22857 445.29987
-39.580856 124.21378 444.96829
-37.876068 124.19904 444.62979
-36.176758 124.18437 444.28433
-34.88121 124.17963 444.84918
-33.190277 124.16508 444.49106
-31.897919 124.16043 445.04562
-30.215561 124.14598 444.6749
-28.538925 124.1316 444.29742
-27.25293 124.1271 444.83603
-25.585083 124.11283 444.44604
-24.682236 124.11824 445.89963
-23.397598 124.11387 446.42465
-22.113434 124.10955 446.94513
-20.829819 124.10527 447.46109
-19.546753 124.10104 447.97256
-18.264282 124.09686 448.47964
-16.618759 124.08295 448.05069
-14.979172 124.06911 447.6152
-13.703796 124.06508 448.10681
-12.07341 124.05136 447.65942
-10.096008 124.02798 446.27014
-9.1808319 124.03381 447.68213
-7.5656586 124.02026 447.21667
-6.3014832 124.01647 447.68347
-5.0379791 124.01273 448.14603
-3.7751617 124.00903 448.60431
-2.1759033 123.9957 448.11685
-0.91703796 123.99209 448.56561
0.67292786 123.97886 448.06689
1.5986176 123.985 449.45059
3.1819611 123.97188 448.94165
4.4354553 123.96845 449.37277
5.3670349 123.97469 450.74673
6.9404449 123.96172 450.22263
8.5079041 123.9488 449.69272
9.7560883 123.94554 450.10654
11.314331 123.93272 449.56586
12.558578 123.92956 449.97073
13.802185 123.92644 450.37158
15.045135 123.92335 450.76846
16.287445 123.9203 451.16141
17.826706 123.90772 450.59567
19.360062 123.8952 450.02441
20.595261 123.89228 450.4039
22.119537 123.87985 449.82242
23.350906 123.87701 450.1933
24.581665 123.87422 450.56036
25.811813 123.87146 450.92365
27.041428 123.86874 451.28302
28.270447 123.86606 451.63867
29.772888 123.85389 451.02881
30.726791 123.86079 452.33856
31.954132 123.85822 452.68289
33.447098 123.84618 452.0596
34.934326 123.83418 451.43115
36.154846 123.83172 451.76291
37.374855 123.82929 452.09097
38.594368 123.8269 452.41534
39.560234 123.83401 453.70349
41.031891 123.82221 453.05322
42.249916 123.81992 453.36673
43.467476 123.81766 453.67664
44.927292 123.80598 453.01288
46.381447 123.79433 452.34427
47.592445 123.79218 452.64209
48.802979 123.79006 452.93646
50.0131 123.78797 453.22723
50.993057 123.79535 454.4877
52.20491 123.79331 454.77216
53.416382 123.79131 455.05301
54.627434 123.78934 455.33044
55.83812 123.7874 455.60431
57.048386 123.78548 455.87482
58.472466 123.77419 455.16507
59.679405 123.77235 455.42807
60.885994 123.77052 455.68762
62.298637 123.75934 454.96533
63.501923 123.75758 455.21756
64.704865 123.75584 455.46643
65.907486 123.75414 455.71182
67.109795 123.75246 455.95386
68.31176 123.75082 456.1926
68.940742 123.77732 459.37265
69.396599 123.8132 463.53442
70.058563 123.83971 466.7142
70.918846 123.85687 468.91055
72.150322 123.85532 469.13831
73.737473 123.83507 467.39468
75.489426 123.80551 464.66141
77.225624 123.776 461.92203
78.946083 123.74653 459.17664
80.315491 123.73579 458.39685
81.844574 123.71574 456.62668
83.363113 123.69574 454.85156
84.711174 123.6851 454.05859
86.053856 123.67449 453.26154
87.545937 123.65458 451.4726
88.87529 123.64404 450.66718
90.199295 123.63351 449.85779
91.517944 123.62303 449.04443
92.831245 123.61257 448.2272
94.281113 123.59282 446.41626
95.581154 123.58241 445.59097
97.01265 123.56272 443.77121
98.433655 123.54307 441.94699
99.712601 123.53275 441.10962
100.98623 123.52246 440.26849
102.25455 123.51219 439.42368
103.64149 123.49265 437.58289
104.77533 123.49174 437.72299
106.14653 123.47225 435.87433
107.27495 123.47138 436.00784
108.51683 123.46124 435.1449
109.53137 123.46972 436.2659
110.76787 123.45962 435.39636
111.78728 123.46813 436.51208
112.91504 123.46736 436.63071
114.04269 123.46662 436.74643
115.17023 123.4659 436.85919
116.20203 123.47448 437.96436
117.33192 123.47379 438.07144
118.37122 123.48241 439.17142
119.41554 123.49104 440.26892
120.37955 123.50896 442.36026
121.43653 123.51763 443.45294
122.57877 123.51704 443.54639
123.7986 123.50719 442.63989
124.86301 123.51591 443.72437
126.07754 123.5061 442.81155
127.21689 123.50559 442.89297
128.35617 123.5051 442.97137
129.36572 123.52316 445.04254
130.32321 123.55049 448.1095
131.35571 123.56858 450.17624
132.5127 123.56815 450.2439
133.72418 123.55849 449.31015
134.82648 123.56736 450.37039
136.13159 123.53921 447.43295
137.3744 123.52034 445.4906
138.5183 123.52001 445.54282
139.66212 123.51971 445.5921
140.80594 123.51942 445.63843
141.91307 123.5284 446.68112
143.02531 123.53741 447.72104
144.14265 123.54643 448.75815
145.29401 123.54622 448.79291
146.44534 123.54602 448.8248
147.62044 123.53658 447.854
148.76915 123.53642 447.87982
149.91785 123.53629 447.90277
151.05043 123.54542 448.92255
152.20166 123.54531 448.93964
153.36385 123.53597 447.95386
154.51248 123.5359 447.96497
155.67282 123.51734 445.9733
156.8196 123.50806 444.97858
157.96054 123.50805 444.98083
159.10149 123.50806 444.98022
160.24684 123.51733 445.97656
161.41127 123.54514 448.96988
162.58156 123.56371 450.96017
163.78632 123.60081 454.94724
165.01161 123.63792 458.93094
166.20573 123.6473 459.91202
167.36543 123.63818 458.89044
168.49765 123.61983 456.86618
169.56979 123.58298 452.83987
170.59396 123.5369 447.81155
171.68268 123.51859 445.77945
172.76117 123.50031 443.74478
173.86462 123.49129 442.70679
175.00072 123.49155 442.66534
176.13686 123.49183 442.62094
177.27304 123.49213 442.57367
178.36383 123.48318 441.52451
179.49754 123.48352 441.47147
180.58073 123.47462 440.41681
181.65886 123.46573 439.35956
182.7319 123.45686 438.29965
183.79987 123.448 437.23709
184.92361 123.44843 437.17007
186.04741 123.44887 437.10013
187.23723 123.4586 438.02502
188.36374 123.45908 437.9491
189.49031 123.45958 437.87021
190.61697 123.46011 437.78848
191.74371 123.46065 437.7038
192.79175 123.45193 436.61935
193.83472 123.44323 435.53235
194.87267 123.43456 434.4429
196.16504 123.45372 436.33954
197.28967 123.45436 436.24045
198.50601 123.46429 437.13412
199.72762 123.47425 438.02444
200.95445 123.48424 438.91129
201.98787 123.47567 437.80466
203.11816 123.47641 437.69034
204.1441 123.46787 436.57858
205.27208 123.46865 436.45862
206.5098 123.47874 437.32962
207.86496 123.49815 439.1907
208.88628 123.48969 438.06754
210.13724 123.49986 438.92813
211.63327 123.52864 441.77063
212.7775 123.52956 441.63095
213.92188 123.53049 441.48819
215.32162 123.55006 443.32602
216.60162 123.56035 444.16797
217.75421 123.56136 444.01511
219.04228 123.57169 444.84998
220.47357 123.59138 446.67136
221.77487 123.60178 447.4982
223.36761 123.63084 450.30057
224.68474 123.6413 451.11899
226.15541 123.6611 452.92236
227.33505 123.66229 452.74399
228.82159 123.68217 454.53873
230.31866 123.70207 456.32861
232.14328 123.74069 460.08835
233.82767 123.77001 462.85461
235.52774 123.79938 465.61502
237.0773 123.81944 467.38354
237.96216 123.80215 465.20456
238.32277 123.75682 460.0686
239.00578 123.73019 456.90317
239.67358 123.70358 453.73721
240.50531 123.68632 451.55457
241.87216 123.69717 452.3205
243.24446 123.70805 453.08212
244.43533 123.70959 452.85718
245.43701 123.7018 451.64706
246.62589 123.70339 451.41602
247.81506 123.70501 451.18161
249.00458 123.70666 450.94394
250.3942 123.71773 451.68271
251.58694 123.71943 451.43777
252.98499 123.73056 452.16821
253.97343 123.72293 450.9379
254.95705 123.71532 449.70529
256.14859 123.71713 449.44748
257.12515 123.70956 448.20978
258.53278 123.72085 448.92163
259.50491 123.71333 447.67828
260.91849 123.72469 448.38214
262.33768 123.73608 449.08142
263.53412 123.73807 448.80246
264.73096 123.7401 448.52008
266.16177 123.75159 449.20654
267.59818 123.76313 449.88821
268.80151 123.76526 449.59409
270.24664 123.77688 450.26685
271.45346 123.77908 449.965
272.66077 123.7813 449.65958
273.86856 123.78356 449.35062
275.07684 123.78586 449.03809
276.28558 123.78819 448.72189
277.49484 123.79054 448.40213
278.96411 123.80243 449.0444
280.177 123.80486 448.71664
281.39038 123.80733 448.38525
282.60431 123.80983 448.05014
283.81879 123.81237 447.71136
285.30637 123.82446 448.33093
286.52454 123.82707 447.98395
287.74329 123.82973 447.63327
288.96259 123.83241 447.27878
290.46555 123.84467 447.87958
291.40298 123.83789 446.5585
292.91235 123.85024 447.15012
294.42755 123.86264 447.73639
295.94861 123.87509 448.31714
297.17938 123.87802 447.93732
298.41077 123.88098 447.55356
299.94421 123.89358 448.11938
301.1795 123.89663 447.72693
302.10876 123.89013 446.37878
303.65204 123.90285 446.93021
304.88928 123.90603 446.52582
306.1272 123.90924 446.11749
307.68292 123.92212 446.65335
309.56448 123.94468 448.13086
310.48984 123.9384 446.76111
312.06079 123.95144 447.2803
313.63776 123.96453 447.79355
314.89023 123.96803 447.35696
315.81036 123.9619 445.97339
317.39728 123.97514 446.47134
318.99014 123.98844 446.9632
320.92999 124.01149 448.38889
322.53748 124.02492 448.86746
324.15094 124.03841 449.33978
325.42145 124.04224 448.86871
326.69263 124.04613 448.39325
327.61023 124.04032 446.97839
328.88007 124.04429 446.49521
330.86963 124.06778 447.87381
331.78384 124.0621 446.44775
336.34216 124.15406 454.32938
340.21393 124.22668 460.32779
344.12354 124.29948 466.30688
348.44391 124.38223 473.19421
353.18304 124.47497 480.98642
354.18869 124.46985 479.49759
356.33221 124.49421 480.77985
358.10333 124.50883 481.12933
357.56305 124.46451 475.93753
360.10754 124.49889 478.12189
360.31915 124.47425 474.77396
361.30353 124.46933 473.26593
363.47357 124.49405 474.5087
366.45374 124.53862 477.57532
367.84656 124.54374 476.96573
370.85916 124.58852 480.00842
373.07806 124.61359 481.21042
376.12833 124.65858 484.22659
377.96106 124.67391 484.49594
380.63031 124.70918 486.57684
382.89709 124.7346 487.73721
-41.36441 125.46508 441.96179
-40.477463 125.47248 443.4574
-38.772598 125.45489 443.1236
-37.476746 125.44984 443.69766
-36.180984 125.44484 444.26709
-34.885437 125.43987 444.832
-32.798859 125.41002 443.55563
-31.509125 125.40515 444.1091
-30.219711 125.40033 444.65802
-28.543045 125.38311 444.28064
-27.641937 125.3908 445.74213
-25.971405 125.37369 445.35339
-25.065811 125.38145 446.80801
-23.401566 125.36445 446.40805
-22.117371 125.35989 446.92856
-20.462112 125.343 446.5163
-19.181702 125.33855 447.02682
-17.90184 125.33414 447.53287
-16.258911 125.31742 447.10291
-14.621964 125.30077 446.66653
-12.990906 125.28419 446.22366
-11.365784 125.26766 445.77432
-10.099625 125.26352 446.25421
-8.8341064 125.25941 446.72971
-7.5692291 125.25536 447.20087
-6.3050079 125.25135 447.66772
-5.0414886 125.24739 448.13034
-3.4388428 125.2312 447.64816
-2.179306 125.22733 448.10126
-0.92042542 125.22352 448.55011
0.33778381 125.21974 448.99472
1.5953217 125.21601 449.43515
2.8521576 125.21233 449.87143
4.1083527 125.20869 450.30347
5.3638458 125.20509 450.73141
6.9372864 125.18933 450.20743
8.5047913 125.17363 449.67755
9.7530212 125.17018 450.09146
11.311295 125.15459 449.55084
12.555573 125.15124 449.95575
14.104675 125.13575 449.40454
15.345032 125.13249 449.80063
16.584732 125.12926 450.19278
18.121414 125.11394 449.62631
19.357254 125.1108 450.0097
20.592468 125.10771 450.38925
21.827103 125.10466 450.76483
23.348175 125.08953 450.17877
24.578979 125.08656 450.54587
26.091019 125.07153 449.9498
27.318039 125.06865 450.3085
28.267853 125.07791 451.6243
29.77034 125.06301 451.0145
30.995667 125.06025 451.36188
32.220428 125.05753 451.70547
33.710823 125.04276 451.08154
34.931915 125.04012 451.41699
35.891518 125.04958 452.71405
37.114159 125.047 453.04285
38.336296 125.04446 453.36798
39.557938 125.04196 453.68948
41.029633 125.02745 453.03922
42.495628 125.01299 452.38406
43.710609 125.0106 452.69333
45.167839 124.99622 452.02902
46.379311 124.9939 452.33047
47.590332 124.99163 452.62836
48.800903 124.98939 452.92273
50.011055 124.98717 453.21353
51.220764 124.985 453.50089
52.202927 124.99486 454.75845
53.414421 124.99274 455.03937
54.84745 124.97866 454.34186
56.055565 124.97662 454.61517
57.263283 124.9746 454.88507
58.470619 124.97261 455.15155
59.677589 124.97066 455.41455
60.884201 124.96873 455.67413
62.090454 124.96684 455.93033
63.296356 124.96498 456.18311
64.703163 124.95119 455.453
65.905815 124.94939 455.69846
67.108131 124.94762 455.94055
68.503609 124.93394 455.1983
69.320908 124.95612 457.39627
69.771629 125.0022 461.55688
70.428429 125.03634 464.73566
71.100441 125.07049 467.91394
71.968216 125.09271 470.10822
73.379982 125.07918 469.34918
74.961723 125.05375 467.60132
76.705704 125.01644 464.8634
78.433937 124.97918 462.11945
79.978783 124.95387 460.35526
81.513046 124.92861 458.58606
83.036766 124.90339 456.81189
84.709877 124.8663 454.04565
85.895226 124.86496 454.23615
87.389915 124.83985 452.44766
88.874084 124.81477 450.65442
90.198112 124.80163 449.84506
91.369728 124.8004 450.02084
92.974594 124.76353 447.22513
94.421906 124.73859 445.41391
95.719406 124.72557 444.58826
97.148346 124.7007 442.76825
98.566818 124.67586 440.94376
99.974823 124.65105 439.11484
101.24333 124.63815 438.27307
102.50654 124.62527 437.42761
103.88835 124.60055 435.58627
105.01707 124.59959 435.72574
106.2644 124.5868 434.86935
107.39026 124.58589 435.00259
108.51599 124.58501 435.13284
109.53054 124.59601 436.25381
110.65858 124.59516 436.37839
111.78648 124.59434 436.50003
112.91428 124.59354 436.61868
114.04195 124.59276 436.73438
115.16951 124.592 436.84711
116.20132 124.60311 437.9523
117.33124 124.60239 438.05939
118.46105 124.6017 438.16351
119.50283 124.61286 439.26077
120.46428 124.63589 441.35184
121.51871 124.64709 442.44434
122.65842 124.64647 442.53754
123.95335 124.62219 440.63397
125.01265 124.63345 441.71802
126.22207 124.62106 440.80484
127.35631 124.62052 440.88589
128.35568 124.64368 442.95932
129.30042 124.67867 446.02823
130.32275 124.70185 448.09729
131.35527 124.72504 450.16397
132.51227 124.7246 450.23169
133.72377 124.71235 449.29797
134.93008 124.70012 448.36102
136.18066 124.67608 446.42212
137.4678 124.64024 443.4809
138.56227 124.65173 444.53183
139.74532 124.63958 443.58188
140.884 124.63928 443.62802
141.98604 124.65083 444.6705
143.09317 124.66238 445.71014
144.23688 124.66214 445.74765
145.38057 124.66191 445.78229
146.52422 124.66171 445.81387
147.69165 124.6497 444.84293
148.83269 124.64954 444.86856
149.95505 124.66121 445.89114
151.09862 124.66108 445.91101
152.22864 124.67279 446.9278
153.37474 124.6727 446.94186
154.52925 124.66081 445.95309
155.68446 124.63713 443.96143
156.82614 124.62527 442.96667
157.96269 124.61345 441.96902
159.09596 124.61346 441.96838
160.23805 124.63712 443.96469
161.3904 124.6608 445.95801
162.56256 124.69632 448.94824
163.76221 124.74368 452.93521
164.98239 124.79105 456.91898
166.17142 124.80299 457.89999
167.34578 124.80315 457.87827
168.45311 124.76785 454.85446
169.52014 124.72076 450.8284
170.56668 124.67368 446.79984
171.6228 124.63844 443.76846
172.72881 124.62685 442.73337
173.86488 124.62711 442.69476
175.00099 124.62738 442.65335
176.13715 124.62768 442.60898
177.23048 124.61617 441.56262
178.36417 124.6165 441.51251
179.44989 124.60503 440.46069
180.53053 124.59357 439.40628
181.65924 124.59396 439.34763
182.7323 124.58254 438.28769
183.80029 124.57114 437.22522
184.92404 124.57159 437.15817
186.04787 124.57205 437.08823
187.23772 124.58437 438.01309
188.36424 124.58488 437.93713
189.56194 124.59724 438.85571
190.61752 124.58595 437.77655
191.74426 124.58652 437.6918
192.71353 124.56343 435.6106
193.75395 124.5522 434.52383
194.87328 124.55282 434.43097
196.07918 124.56531 435.33142
197.20126 124.56597 435.23254
198.41507 124.57851 436.1264
199.63411 124.59106 437.01691
200.8584 124.60365 437.90399
201.88928 124.59254 436.79764
203.01703 124.59332 436.68359
204.04041 124.58226 435.57205
205.05879 124.57121 434.45819
206.18176 124.57205 434.33575
207.52925 124.59663 436.19769
208.54288 124.58564 435.0755
209.90347 124.61028 436.92996
211.39441 124.6468 439.77292
212.65598 124.65962 440.62625
213.92282 124.67247 441.47592
215.19499 124.68535 442.3219
216.60263 124.71013 444.15558
217.75523 124.71118 444.00269
219.17865 124.73602 445.82819
220.61255 124.7609 447.6492
222.19742 124.79769 450.45566
223.65485 124.82264 452.26718
224.83151 124.82384 452.09552
226.30481 124.84885 453.89847
227.63782 124.86199 454.70819
228.9762 124.87518 455.51395
230.63177 124.91219 458.29105
232.62012 124.97305 463.03714
234.31224 125.01016 465.802
