ply
format ascii 1.0
comment PCL generated
element vertex 220
property float x
property float y
property float z
element camera 1
property float view_px
property float view_py
property float view_pz
property float x_axisx
property float x_axisy
property float x_axisz
property float y_axisx
property float y_axisy
property float y_axisz
property float z_axisx
property float z_axisy
property float z_axisz
property float focal
property float scalex
property float scaley
property float centerx
property float centery
property int viewportx
property int viewporty
property float k1
property float k2
end_header
-0.0042298869 0.027494265 0.0042155087
-0.0032256022 0.027955221 0.0040041208
-0.011843199 0.030146325 0.0044881105
-0.010803732 0.030250451 0.0044242442
-0.0097129866 0.030218184 0.0042416155
-0.0085894624 0.030063119 0.0041418374
-0.0053714979 0.030080389 0.0041418374
-0.0043255412 0.030278787 0.0044790804
-0.0032126582 0.029984811 0.0045462847
-0.0021596884 0.030235637 0.0045698285
-0.0010748664 0.030096259 0.0045711398
0 0.029847695 0.0043047667
0.0010803408 0.030249542 0.0040593743
-0.012900594 0.031176437 0.0045301616
-0.011884568 0.031332046 0.0045878887
-0.010830393 0.031408142 0.0044242442
-0.0096538095 0.031106722 0.0043249726
-0.0042936383 0.031128878 0.0040266514
-0.0032140957 0.031069594 0.0045657456
-0.0021666035 0.031415749 0.0045698285
-0.0010825821 0.03139488 0.0045915842
0 0.031312086 0.0048029125
0.0010764396 0.03121675 0.0045918226
0.0021493318 0.031165313 0.0043118
-0.01397121 0.032241251 0.0045620501
-0.012925945 0.032314863 0.0045913458
-0.011872363 0.032379173 0.0045505166
-0.010727504 0.032182515 0.0044352114
-0.0098883891 0.032961298 0.0041380227
-0.0021585447 0.032378171 0.0045493245
-0.001066027 0.031980809 0.0045875609
0 0.032376748 0.0048029125
0.0010727764 0.03218329 0.0046960115
0.0021460191 0.032190286 0.0047268867
-0.016116597 0.033307634 0.0042685568
-0.015023947 0.033267312 0.0046232343
-0.014027807 0.033450928 0.0048187971
-0.012965063 0.033493079 0.0048624277
-0.012001135 0.033821385 0.0047987401
-0.010919343 0.033849966 0.0044242442
-0.0098061077 0.033776596 0.0040767789
-0.0021831824 0.03383933 0.0051230192
-0.0010814489 0.033524916 0.0051161051
0 0.033347867 0.0055260956
0.0010764638 0.033370379 0.0054394007
0.002136129 0.03311 0.0049244761
0.0031944776 0.033009604 0.0043888092
-0.016090672 0.034326766 0.0044890344
-0.0151001 0.034514517 0.0046232343
-0.013996634 0.034453254 0.0046235323
-0.013012104 0.034698945 0.0045916438
-0.012069633 0.035111662 0.0045400262
-0.010954881 0.035055619 0.0041962564
-0.0011012343 0.035239499 0.0045711398
0 0.034510233 0.0054009259
0.0010760709 0.03443427 0.0052691102
0.0021523649 0.034437839 0.0051402152
0.0031998698 0.034131944 0.0046869516
-0.017129129 0.035328828 0.0040145814
-0.016192183 0.035622802 0.004498899
-0.015157426 0.035728216 0.0048506856
-0.014092511 0.0357733 0.0048506856
-0.01316328 0.036199018 0.0046235323
-0.012087914 0.036263742 0.0043415725
0 0.036072813 0.0046179593
0.0010706276 0.035330709 0.0048029125
0.0021588581 0.035621155 0.0051402152
0.0032161782 0.035377961 0.0048634708
0.0042441501 0.035014234 0.0043267906
-0.017185798 0.036519822 0.0042685568
-0.016257124 0.036849484 0.0044613481
-0.015031016 0.0365039 0.0048506856
-0.014156686 0.03702518 0.0046235323
-0.013113905 0.037156064 0.0046601892
-0.011937759 0.036898531 0.0043443739
0 0.036943369 0.0042429864
0.0010762376 0.036592081 0.0047864914
0.0021433418 0.036436811 0.0047519207
0.0032116824 0.036399066 0.0046477318
0.0043137418 0.036666807 0.0040133893
-0.017291863 0.037825949 0.0041858256
-0.015967749 0.037258081 0.0044127703
-0.015118743 0.037796859 0.0045505166
-0.014099201 0.037959386 0.004498899
-0.013023669 0.037985701 0.0046480894
-0.012051427 0.038345449 0.0041987896
0.0010765541 0.037679389 0.0043484271
0.0021335287 0.037336752 0.0046583414
0.0032467113 0.037878297 0.0044084191
-0.017052131 0.03836729 0.0041858256
-0.016287401 0.039089762 0.0044161677
-0.01505594 0.038715273 0.0045505166
-0.014025084 0.038838692 0.0045505166
-0.013114044 0.039342131 0.0046700537
-0.011963967 0.039154802 0.0043674111
0.0010828759 0.038983531 0.0040964186
0.0021541929 0.03877547 0.0040731728
0.0032161181 0.038593419 0.0040456653
-0.017239507 0.039866362 0.0043646693
-0.016098969 0.039710794 0.0044127703
-0.015030451 0.039723337 0.0047776699
-0.014155239 0.04028799 0.0047776699
-0.013077581 0.040322546 0.0046235323
-0.01192521 0.040112074 0.0042692721
0.0010865168 0.04020112 0.0043207407
0.0021498199 0.039771672 0.0041770041
0.0032206727 0.039721631 0.0040456653
-0.017230654 0.040922806 0.004213661
-0.016110701 0.040813778 0.0043247938
-0.015088963 0.04095576 0.0048359931
-0.014126714 0.041293476 0.0049007833
-0.012944944 0.040992323 0.0050509274
-0.011917103 0.041168176 0.0046864152
-0.010873877 0.041320737 0.0042946041
-0.0010769162 0.040922817 0.0043207407
0 0.041721057 0.0049416125
0.0010852324 0.041238833 0.004942745
0.0021303815 0.04047725 0.0048773289
0.0032242951 0.040841073 0.0045488179
0.0042965389 0.040817119 0.0040354431
-0.017114006 0.041715387 0.004168421
-0.016176002 0.042057607 0.0046710074
-0.015025932 0.041857954 0.0052590072
-0.013863924 0.041591771 0.0060769618
-0.013311648 0.043262858 0.0061119497
-0.011884903 0.042137384 0.0051080883
-0.010789991 0.042080969 0.0046057999
-0.0010955334 0.042725801 0.0051907003
0 0.042191029 0.005351156
0.0010644007 0.041511621 0.0053522885
0.0021557265 0.042036667 0.0050629377
0.0032244369 0.041917678 0.0044084191
-0.01609293 0.04291448 0.0049414933
-0.014997646 0.042850416 0.0060184896
-0.013960657 0.042955864 0.0061952174
-0.013044223 0.043480743 0.0064754188
-0.012019432 0.043707028 0.0062790215
-0.010790994 0.043163978 0.0059338808
-0.0097839804 0.04348436 0.0046357512
-0.0087579908 0.043789953 0.0040329397
-0.0021763134 0.043526266 0.0053634644
-0.0010980566 0.04392226 0.0059104562
0 0.043046277 0.0058181882
0.0010725133 0.042900529 0.0057008266
0.0021519233 0.043038461 0.0051448643
-0.016086178 0.043968886 0.004191488
-0.015083854 0.044174146 0.0059453547
-0.013904358 0.04385221 0.0064484477
-0.012590592 0.043017861 0.0067513585
-0.012107802 0.045129079 0.0067997575
-0.011029029 0.045219023 0.0063466132
-0.0096761947 0.044080447 0.0061952174
-0.0086573092 0.04436871 0.0054298043
-0.0075670052 0.044321034 0.0044717789
-0.0064826263 0.044297948 0.0044167936
-0.0054275431 0.044505857 0.0051726997
-0.0043106149 0.044183806 0.0053096116
-0.0032743381 0.04474929 0.0057629645
-0.0022053691 0.045210067 0.0062754154
-0.0010713347 0.043924727 0.0067519844
0 0.044121329 0.0062754154
0.0010782497 0.04420824 0.0058079958
0.0021345215 0.043757692 0.0047448277
-0.015114776 0.045344327 0.0046100318
-0.013813334 0.044627693 0.0060301721
-0.012953239 0.045336336 0.0066509545
-0.011549907 0.044099644 0.0067738295
-0.010897074 0.045767713 0.0068213642
-0.010198076 0.047591027 0.0065712929
-0.0089558139 0.047018025 0.0063533485
-0.0076516485 0.045909893 0.0062396228
-0.0067279921 0.047095947 0.0060850084
-0.0055419682 0.046552535 0.0062982738
-0.0044836653 0.047078483 0.0066129267
-0.0032389329 0.045345061 0.0066197515
-0.0021434338 0.045012109 0.0066505671
-0.001064753 0.044719629 0.0067597032
0 0.045066155 0.0060659647
0.0010686342 0.044882637 0.0053330958
-0.014046816 0.046462547 0.0047424138
-0.012848761 0.046041392 0.0060327649
-0.011709536 0.045773644 0.006516099
-0.010659662 0.045836549 0.0064364374
-0.0095642563 0.045695893 0.0063534975
-0.0084113292 0.045210894 0.0063533485
-0.0076021156 0.046698708 0.0062396228
-0.0064199758 0.046009827 0.0060850084
-0.0052774157 0.045385774 0.0062982738
-0.0042518768 0.045707673 0.0066176057
-0.003217167 0.046112727 0.006598562
-0.0021416584 0.046045657 0.0067267418
-0.0010730823 0.046142537 0.0067267418
0 0.045806393 0.0055457652
-0.012948545 0.047477998 0.004801631
-0.011851681 0.047406726 0.0060301721
-0.010676189 0.046975233 0.0060333908
-0.0095758671 0.046815351 0.0059866309
-0.0086218901 0.047420394 0.0059866309
-0.0074961432 0.047118615 0.0058320165
-0.0064393408 0.047221832 0.005916208
-0.0053729662 0.047282103 0.0061616004
-0.0042538862 0.046792746 0.0061662793
-0.0031895742 0.046780422 0.0060803294
-0.0021483563 0.047263835 0.0059500337
-0.0010673997 0.046965588 0.0058865249
-0.010661143 0.047975149 0.005200386
-0.0096501112 0.04825056 0.0055194497
-0.0085095074 0.047865979 0.0056635439
-0.0074487072 0.04788455 0.0054810047
-0.0064550214 0.048412666 0.0056436956
-0.0053345314 0.048010785 0.0057783723
-0.0042856787 0.048213888 0.0057922602
-0.0032265075 0.048397616 0.005698204
-0.0021339511 0.048013899 0.0055233836
-0.0085444264 0.049130455 0.0051111281
-0.0075619374 0.049692731 0.0050773025
-0.0064488496 0.049441181 0.0055194497
-0.0053457548 0.049180944 0.0056436956
-0.0042985287 0.049433082 0.0057446659
-0.0032256015 0.049459226 0.0048313737
0 0 0 1 0 0 0 1 0 0 0 1 0 0 0 0 0 220 1 0 0
