ply
format ascii 1.0
comment PCL generated
element vertex 298
property float x
property float y
property float z
element camera 1
property float view_px
property float view_py
property float view_pz
property float x_axisx
property float x_axisy
property float x_axisz
property float y_axisx
property float y_axisy
property float y_axisz
property float z_axisx
property float z_axisy
property float z_axisz
property float focal
property float scalex
property float scaley
property float centerx
property float centery
property int viewportx
property int viewporty
property float k1
property float k2
end_header
-0.0086348997 -0.073396653 0.0040772557
-0.0076362402 -0.074180618 0.0041334629
-0.0064626602 -0.073243484 0.0042713284
-0.0032647767 -0.074001603 0.0042394102
-0.0022020387 -0.074869312 0.0040203333
-0.012922052 -0.072148129 0.0040478408
-0.011836124 -0.072092757 0.0047155917
-0.010704887 -0.071722746 0.0050215721
-0.0095808432 -0.071324058 0.0046104193
-0.008636998 -0.072334863 0.0044700503
-0.0074773254 -0.07156869 0.0043228269
-0.0064328406 -0.071833387 0.004211545
-0.0053945538 -0.072287023 0.0041157007
-0.0042765536 -0.071632273 0.0041719079
-0.0032248024 -0.07202059 0.0045024753
-0.0021689043 -0.072658293 0.0042097569
0.001088371 -0.072920866 0.0040160716
0.0021940416 -0.073500395 0.004006654
-0.012909956 -0.071004756 0.0047155917
-0.011782031 -0.070692189 0.0052627921
-0.010709215 -0.070680819 0.0052932501
-0.0097303344 -0.071355782 0.0052558184
-0.0086659947 -0.071494453 0.0047682822
-0.007575091 -0.071422286 0.0041775107
-0.0065765674 -0.072342239 0.0040121973
-0.0032757393 -0.072066262 0.0042982996
-0.0021630435 -0.071380436 0.0042682886
-0.0010758163 -0.071003877 0.0043453872
0 -0.07066261 0.0041203201
0.0010702213 -0.070634604 0.0042379498
0.0022162262 -0.073135465 0.0040680468
0.0033082261 -0.072780974 0.0041187704
-0.015241234 -0.070762865 0.0040788949
-0.013972308 -0.069861539 0.0046449304
-0.012957692 -0.070187502 0.0052084327
-0.011866803 -0.070122018 0.0057482123
-0.010937909 -0.071096405 0.0058202147
-0.0097380029 -0.070330024 0.0052646399
-0.0086554885 -0.070325844 0.0048139393
-0.0076000146 -0.070571564 0.004188031
-0.0065058903 -0.070480481 0.0041731
-0.0043996335 -0.071494043 0.0042714179
-0.0032521293 -0.070462801 0.0047400594
-0.0021666745 -0.07041692 0.0048049688
-0.0010841899 -0.070472337 0.0047400594
0 -0.070120461 0.0042686462
0.0010765461 -0.069975503 0.004502058
0.0021594523 -0.070182197 0.0044336319
0.0033256146 -0.072054982 0.0043187737
0.0044018002 -0.071529247 0.0043070614
-0.015077044 -0.06892363 0.004311502
-0.013973881 -0.068794489 0.0047843754
-0.012859507 -0.068584032 0.0054918528
-0.011840346 -0.06888929 0.0055920184
-0.010907895 -0.069810532 0.0053328872
-0.0096107237 -0.068342924 0.0050433874
-0.0088303322 -0.070642658 0.004211545
-0.0076961312 -0.070364624 0.0041657388
-0.0065835803 -0.070224859 0.004147917
-0.0055066692 -0.070485368 0.0040873289
-0.0043919696 -0.070271514 0.0043137968
-0.0032810424 -0.069995575 0.004835397
-0.0021784841 -0.069711491 0.0050964057
-0.0010866631 -0.069546439 0.0054743886
0 -0.069592886 0.0050750375
0.0010794379 -0.069084026 0.0049232543
0.0021444059 -0.068620987 0.0049232543
0.0032590064 -0.069525473 0.004884243
0.0043941373 -0.070306197 0.0049563348
0.0054714493 -0.070034549 0.0042657554
-0.016202133 -0.068048961 0.0044780076
-0.015157036 -0.068206668 0.004884094
-0.014085724 -0.068261586 0.0054426789
-0.013014755 -0.068327472 0.0062855184
-0.01200256 -0.06874194 0.0063414872
-0.01084588 -0.068329051 0.0062855184
-0.0098512815 -0.068958975 0.0055850148
-0.0087884637 -0.069209151 0.004768908
-0.0076181693 -0.068563528 0.0043132603
-0.0066540642 -0.069867678 0.0040573776
-0.0043830699 -0.069033355 0.0042220056
-0.003282855 -0.068939961 0.0046876371
-0.0021943857 -0.069123156 0.0047456622
-0.0010944322 -0.06894923 0.0047456622
0 -0.068107024 0.005043745
0.0010786512 -0.067955025 0.0046876073
0.0021688472 -0.068318687 0.0048368573
0.0032120228 -0.067452483 0.004884243
0.0044098119 -0.069454536 0.0048561692
0.0054762773 -0.069001101 0.0046270192
0.0065716743 -0.069002584 0.0041736364
-0.017884498 -0.069302432 0.0041263103
-0.016108951 -0.066583663 0.0047071278
-0.015226886 -0.06743335 0.0051152706
-0.014155291 -0.067509852 0.0058019161
-0.013068862 -0.067522459 0.0061247945
-0.011940215 -0.067299396 0.00625664
-0.010891577 -0.067527786 0.0058285892
-0.0099168438 -0.068316042 0.0050053298
-0.0087638609 -0.067919925 0.0040234029
-0.0033036293 -0.068275012 0.0043788254
-0.0021973921 -0.068119153 0.0044739842
-0.0010951509 -0.067899361 0.0046459436
0 -0.067171067 0.0052493215
0.001089788 -0.067566864 0.0052387416
0.0021609976 -0.066990927 0.0052387416
0.003219936 -0.066545345 0.004953742
0.0043473844 -0.067384459 0.004995048
0.0054364908 -0.067412488 0.0046401322
0.0065806867 -0.068000436 0.0044019818
-0.017349603 -0.06614536 0.0048766434
-0.016099632 -0.065471835 0.005423367
-0.015242718 -0.066414699 0.005405128
-0.014162166 -0.066453241 0.0057121813
-0.013026047 -0.066215739 0.0058501959
-0.012030199 -0.066712923 0.0056609809
-0.011024622 -0.0672502 0.0050649941
-0.0098506007 -0.066765182 0.0043076575
-0.0022077411 -0.067336097 0.0040280819
-0.0011033382 -0.067303628 0.0043567121
0 -0.066755958 0.0046772361
0.0010826023 -0.066038743 0.0051729381
0.0021812187 -0.066527173 0.0052995384
0.0032585775 -0.066257745 0.0049172342
0.0043417835 -0.0662122 0.0050132871
0.0055295466 -0.06746047 0.0048329532
0.0066063022 -0.067164071 0.0041511059
-0.017150663 -0.064314984 0.0055114031
-0.016344203 -0.065376811 0.0056844652
-0.015065262 -0.064565413 0.0059526861
-0.014009912 -0.06466113 0.0060596168
-0.013197939 -0.065989695 0.0058531165
-0.012114875 -0.066081136 0.0054309964
-0.010879799 -0.065278798 0.0046559274
-0.0011005501 -0.066033006 0.0040280819
0 -0.06592828 0.0044451058
0.0010901784 -0.065410703 0.0046964288
0.0021750303 -0.065250911 0.0049380958
0.0032310195 -0.064620391 0.004953742
0.0042775436 -0.064163156 0.0048763454
0.0054128068 -0.064953685 0.0048157871
0.0067386185 -0.067386188 0.0040497184
-0.018324697 -0.063597478 0.0041849911
-0.017418249 -0.064229794 0.0054656267
-0.016227167 -0.063826859 0.0057227015
-0.015234477 -0.064202443 0.0058037639
-0.014188224 -0.064392708 0.0058404505
-0.013136172 -0.064586177 0.0058037639
-0.012019121 -0.064466201 0.0054940879
-0.011052608 -0.065210395 0.0043076575
0 -0.064589702 0.0041514933
0.0010926863 -0.064468496 0.0044745803
0.0021688242 -0.063980319 0.0045315325
0.0032285757 -0.063495323 0.0046664178
0.0043592048 -0.064298272 0.0047601163
0.0053695375 -0.063360542 0.0044979751
-0.018360971 -0.062643312 0.0042488277
-0.017248889 -0.062527232 0.0055294633
-0.016248347 -0.062826946 0.0056527555
-0.015194331 -0.062947944 0.0057017803
-0.014092937 -0.062876187 0.0057227015
-0.013108298 -0.06335678 0.0057017803
-0.012140867 -0.064015485 0.0053040981
-0.011085519 -0.064296015 0.0047090948
0 -0.063801192 0.0040375292
0.0010921723 -0.063345999 0.0043539107
0.0021654975 -0.062799431 0.0044055581
0.0032369727 -0.062581472 0.0044451058
0.0043219053 -0.062667631 0.004507035
0.0053234892 -0.06175248 0.0044308007
-0.017224073 -0.061360758 0.0053040981
-0.016354501 -0.062147103 0.0055778027
-0.015285827 -0.062235154 0.0053665042
-0.0139473 -0.061153542 0.0056478381
-0.013212833 -0.062760957 0.0056478381
-0.012117925 -0.06279289 0.0052658617
-0.010978381 -0.062576778 0.0046031177
0 -0.062599383 0.0044895709
0.0010892972 -0.062089942 0.0046846569
0.0021700028 -0.061845075 0.0048977435
0.0032419157 -0.061596397 0.0046846569
0.0042700665 -0.060848445 0.0046664178
0.0054765684 -0.062432878 0.0047142506
-0.017308226 -0.060578793 0.004858017
-0.016175501 -0.060388539 0.0052291751
-0.014986102 -0.05994441 0.0052039027
-0.014211833 -0.061220206 0.0055585504
-0.013167426 -0.061447989 0.0052226484
-0.012013886 -0.061161604 0.0052146316
-0.011061867 -0.061946455 0.004629463
-0.0011047712 -0.061867181 0.004324913
0 -0.060863022 0.0047252178
0.0011027784 -0.06175559 0.0048231483
0.0021567445 -0.060388848 0.0050992966
0.0032658635 -0.060962785 0.0048072338
0.0043647774 -0.061106883 0.0046367347
0.0054132524 -0.060628425 0.0040057003
-0.017337287 -0.059596926 0.0044862032
-0.016190959 -0.059366852 0.0049148798
-0.015321667 -0.060192265 0.0052074492
-0.014041636 -0.059406921 0.0052440763
-0.013053075 -0.059826594 0.0053747296
-0.011930292 -0.059651464 0.0052125156
-0.010997995 -0.060488973 0.0048297644
-0.0098775737 -0.060362954 0.0041202605
-0.0022193349 -0.061031707 0.0043561161
-0.001095482 -0.060251512 0.0047252178
0 -0.06074341 0.0052217245
0.0011098589 -0.061042238 0.0054743886
0.0021446724 -0.058978494 0.0054402947
0.0032595452 -0.059758328 0.0051442087
0.004307067 -0.059222169 0.0046185553
-0.016458141 -0.059249308 0.0044516325
-0.015196584 -0.058615398 0.005125165
-0.014075379 -0.05846696 0.0052440763
-0.013047289 -0.058712803 0.0054287314
-0.012139596 -0.059594382 0.005379796
-0.010917098 -0.058952335 0.005125165
-0.0098678265 -0.059206966 0.0044401586
-0.0087457597 -0.059033878 0.0040121973
-0.003310668 -0.059592027 0.0043220222
-0.0021919184 -0.059181798 0.0046147704
-0.0010950025 -0.059130136 0.0054402947
0 -0.059903666 0.0057415664
0.0010786871 -0.058249105 0.0058656335
0.0021575959 -0.058255095 0.0054402947
0.0032497586 -0.058495659 0.0050992966
0.0043046405 -0.058112647 0.0043893456
-0.01509585 -0.057148576 0.0048254728
-0.014015594 -0.057140499 0.005130142
-0.012960941 -0.057244156 0.0055391788
-0.012017296 -0.057901513 0.0057725906
-0.010991989 -0.058257543 0.0055924356
-0.009817766 -0.057815731 0.0054641366
-0.0087969806 -0.058279995 0.0050260723
-0.0077400189 -0.058603 0.0041986704
-0.0032834674 -0.058007922 0.0045176148
-0.0021678556 -0.057448171 0.0056655407
-0.0011189366 -0.059303634 0.0059326887
0 -0.056917056 0.0058831275
0.0010832727 -0.057413455 0.0058656335
0.0021639869 -0.057345651 0.0050216317
0.0032399464 -0.057239052 0.0042849481
-0.014034254 -0.056137018 0.0044361353
-0.012725051 -0.055141885 0.004861325
-0.011944707 -0.05646589 0.0053147972
-0.011081973 -0.057626262 0.0054287314
-0.0098568406 -0.056950636 0.0055856109
-0.0088032037 -0.057220824 0.0051011741
-0.0075897388 -0.056380916 0.0048749149
-0.0064513362 -0.055911578 0.0044064224
-0.0054836152 -0.057029601 0.0041750371
-0.0043572658 -0.056644451 0.0046972334
-0.0032792659 -0.05684061 0.0053195059
-0.0022764262 -0.059187081 0.0058656335
-0.0010935388 -0.056864019 0.0061327815
0 -0.056609504 0.005541563
0.0010790873 -0.056112535 0.0052965283
0.0021579128 -0.056105733 0.0046095252
-0.013017104 -0.055322692 0.0044535697
-0.011837415 -0.054882564 0.0049148798
-0.01057937 -0.053954788 0.0050363541
-0.0096814502 -0.054861553 0.0053070486
-0.008959352 -0.057115868 0.0053062737
-0.0080201365 -0.058432426 0.0047061741
-0.0069835396 -0.059360087 0.0043562949
-0.0057962253 -0.059121501 0.0041649342
-0.0044868691 -0.057207584 0.0045345724
-0.0032999013 -0.056098323 0.0047985911
-0.0021637978 -0.055176847 0.0051854253
-0.0010808201 -0.055121828 0.0051949918
0 -0.055260815 0.0049117804
0.0010750741 -0.054828778 0.0045519173
0.0021836369 -0.055682745 0.0040057003
-0.011850405 -0.053865481 0.0047399104
-0.010742338 -0.053711694 0.0048818886
-0.0096768355 -0.053760201 0.0051322579
-0.0086286981 -0.053929362 0.0051507354
-0.0075839129 -0.05417081 0.0047705472
-0.0064735333 -0.053946111 0.0045008361
-0.0053793653 -0.053793658 0.0042417347
-0.0043326528 -0.054158162 0.0045932531
-0.0032279599 -0.053799335 0.0046336949
-0.0021533375 -0.053833436 0.0047772527
-0.0010890821 -0.054454107 0.0046269894
0 -0.053949062 0.0044266284
-0.010897476 -0.053397633 0.0044183135
-0.0097151799 -0.052893758 0.0046450496
-0.0086540785 -0.053006228 0.0048243403
-0.0074748178 -0.052323721 0.0045191348
-0.0064784102 -0.052907012 0.0043097436
-0.0053922008 -0.052843571 0.0042106211
-0.0043216269 -0.052939929 0.0045191348
-0.0032507312 -0.053095274 0.0044454336
-0.0021708189 -0.053185061 0.0044387281
-0.0010831195 -0.053072855 0.0042558014
-0.007571117 -0.05191623 0.0040228367
0.10968623 0.13052662 0.0040706694
0 0 0 1 0 0 0 1 0 0 0 1 0 0 0 0 0 298 1 0 0
