ply
format ascii 1.0
comment PCL generated
element vertex 330
property float x
property float y
property float z
element camera 1
property float view_px
property float view_py
property float view_pz
property float x_axisx
property float x_axisy
property float x_axisz
property float y_axisx
property float y_axisy
property float y_axisz
property float z_axisx
property float z_axisy
property float z_axisz
property float focal
property float scalex
property float scaley
property float centerx
property float centery
property int viewportx
property int viewporty
property float k1
property float k2
end_header
-0.010771492 0.0047873296 0.0042426884
-0.0093766805 0.0046883402 0.0042969584
-0.0083603133 0.0047773221 0.0041874647
-0.007161519 0.004774346 0.0041830838
-0.0057696872 0.0046157502 0.0041933954
-0.01179078 0.0053594457 0.004368335
-0.010650109 0.0053250543 0.0047538877
-0.0096608242 0.0053671249 0.0054368377
-0.0085868798 0.0053667999 0.0049843788
-0.007415297 0.0052966406 0.0048346519
-0.0064282869 0.0053569055 0.0046584606
-0.0053698923 0.0053698923 0.0048776865
-0.0042526261 0.005315782 0.0041314065
-0.013046321 0.0065231607 0.0043969154
-0.011824565 0.0064497632 0.0051695704
-0.010694236 0.0064165415 0.0054806769
-0.009740036 0.0064933575 0.0054806769
-0.0086407149 0.0064805364 0.0052559674
-0.0075771948 0.0064947382 0.0049356222
-0.0064774444 0.0064774444 0.0048289299
-0.0054108589 0.0064930306 0.0052515864
-0.0042902781 0.0064354171 0.004824549
-0.0032309482 0.0064618965 0.0041008592
-0.013954399 0.0075139073 0.0044254363
-0.012944146 0.0075507523 0.0054368377
-0.011818052 0.0075205788 0.0055734515
-0.010911384 0.0076379688 0.0056547523
-0.0097198933 0.0075599169 0.0056388378
-0.0086793741 0.0075944522 0.0055384934
-0.0075679263 0.0075679263 0.0053004026
-0.0064819367 0.0075622592 0.0052616894
-0.0054274034 0.0075983647 0.0053004026
-0.0043581389 0.0076267431 0.0052616894
-0.0032456312 0.0075731394 0.0049413443
-0.0021628125 0.0075698439 0.0042005479
-0.0010829405 0.0075805834 0.0042825043
0 0.0074649542 0.0041181743
-0.01513076 0.0086461492 0.0051510632
-0.013987806 0.0086078802 0.0054989457
-0.012952315 0.0086348765 0.0060519278
-0.012008546 0.0087334886 0.0059463084
-0.010755464 0.0086043719 0.0060978532
-0.0096673276 0.0085931802 0.0059645772
-0.0087077366 0.0087077366 0.0058288276
-0.0075633046 0.0086437771 0.00544855
-0.0064717582 0.008629011 0.0054041743
-0.0054082517 0.008653203 0.0054636896
-0.0042860014 0.0085720029 0.0054636896
-0.0032332258 0.0086219357 0.0054289997
-0.0021733185 0.0086932741 0.0051325262
-0.0010811219 0.0086489748 0.0049473047
0 0.0086480267 0.004917115
0.0010764276 0.0086114211 0.0042931139
-0.016082188 0.0096493131 0.0042204559
-0.015183692 0.0097609442 0.0054869652
-0.013975183 0.0096751265 0.005857259
-0.013059113 0.0097943349 0.0060598552
-0.011952274 0.0097791329 0.0057650805
-0.010848134 0.00976332 0.0057082772
-0.0098258797 0.0098258797 0.0055090189
-0.0088062547 0.0099070361 0.0051443875
-0.0077395388 0.0099508353 0.0048590004
-0.0065986849 0.0098980274 0.0046838522
-0.0054820254 0.0098676458 0.0048289299
-0.0044062259 0.009914007 0.0051369071
-0.0032566451 0.0097699352 0.0051325262
-0.0021486976 0.009669139 0.004824549
-0.0010787479 0.0097087305 0.0049037933
0 0.0097455205 0.0048792958
0.0010737493 0.009663742 0.0043140352
0.00215077 0.0096784653 0.0040943623
-0.017342666 0.010839166 0.0041039288
-0.016140627 0.010760418 0.005541563
-0.015058273 0.010755909 0.0059752166
-0.014009204 0.01077631 0.0063040853
-0.013029093 0.010857577 0.0066697299
-0.011903977 0.010821797 0.0063214898
-0.010901115 0.010901115 0.0062137842
-0.0099031804 0.011003534 0.0057367384
-0.00869847 0.010873087 0.0054234862
-0.0077284141 0.011040592 0.0054116547
-0.006584031 0.010973385 0.0052523613
-0.0054951096 0.010990219 0.0054814517
-0.0044040135 0.011010033 0.0056560338
-0.0032853445 0.010951148 0.0058196485
-0.0021908735 0.010954366 0.0058018565
-0.0010900828 0.010900828 0.0057255328
0 0.010742985 0.0055403709
0.0010914238 0.010914237 0.0050341785
0.0021414992 0.010707496 0.0047402382
0.0032959506 0.010986501 0.004118979
-0.017172951 0.011806403 0.0050185025
-0.016183425 0.011867844 0.0054989457
-0.015244054 0.01197747 0.0059645772
-0.014158759 0.011980488 0.0061955154
-0.012941238 0.011862801 0.0064779818
-0.012135094 0.012135094 0.0062679648
-0.011003988 0.012104386 0.005767405
-0.0097692618 0.011940208 0.0054554939
-0.0088163679 0.012122505 0.0049887002
-0.0076442934 0.01201246 0.0046781301
-0.0065481295 0.012004904 0.0046141148
-0.0054828646 0.012062303 0.0047667325
-0.0043830019 0.012053254 0.0051826537
-0.0032858604 0.012048155 0.0052463114
-0.00221572 0.01218646 0.005646497
-0.0010869028 0.01195593 0.0058018565
0 0.011927807 0.0060408413
0.0010797103 0.011876814 0.0059434772
0.0021508674 0.01182977 0.005590111
0.0032348444 0.011861096 0.0046714544
-0.017160026 0.012870019 0.0050750673
-0.016090905 0.012872724 0.0054475665
-0.015130396 0.012968911 0.006069392
-0.014016784 0.01293857 0.0061489642
-0.013196176 0.013196176 0.0062127709
-0.011968689 0.013056752 0.0060203671
-0.010892916 0.013071499 0.0053946674
-0.0099177239 0.013223632 0.004909277
-0.0087669864 0.01315048 0.0044563413
-0.0076778703 0.013162063 0.0041196644
-0.0043990202 0.013197061 0.0042936504
-0.003306468 0.013225872 0.0044358671
-0.0021775297 0.013065178 0.0048363209
-0.0010941995 0.013130393 0.0050813556
0 0.013019996 0.0053256154
0.0010752446 0.012902935 0.0053627789
0.0021635117 0.01298107 0.0052911937
0.00321322 0.01285288 0.0046188831
-0.018272707 0.013973246 0.0045749247
-0.017350629 0.014097386 0.0053156912
-0.01624495 0.014078956 0.0055152476
-0.015102783 0.014024013 0.0060557723
-0.014116255 0.014116255 0.0061094165
-0.013139593 0.01423456 0.0061284602
-0.011973117 0.014150048 0.0055558681
-0.010960302 0.014248393 0.0052044392
-0.0098166009 0.014179535 0.0047425032
-0.0032568472 0.014113005 0.0041023195
-0.0021902795 0.014236817 0.0043891668
-0.0010913715 0.01418783 0.0049810112
0 0.01407775 0.0055220723
0.0010863133 0.014122073 0.005530566
0.0021605394 0.014043506 0.0055491328
0.0032338114 0.014013183 0.0048259497
0.004318723 0.01403585 0.0041455925
-0.018309467 0.015078383 0.0044603944
-0.017166013 0.015020262 0.0053390265
-0.016242668 0.015159823 0.0059270561
-0.015179952 0.015179952 0.0062287152
-0.014202163 0.015294637 0.006137073
-0.013115097 0.015300946 0.0060540438
-0.012242147 0.015580914 0.0049447417
-0.01093501 0.015309015 0.0043222308
-0.0010877452 0.015228432 0.0046197474
0 0.015332562 0.0054245293
0.0010790919 0.015107287 0.0055340827
0.0021507293 0.015055105 0.0057124496
0.0032585838 0.015206725 0.0052902997
0.0043173847 0.015110846 0.0044952035
-0.0183223 0.016166735 0.0043698251
-0.017275514 0.016195795 0.0050233305
-0.016163567 0.016163567 0.0058559179
-0.015221206 0.016308434 0.0057869256
-0.014170003 0.016350003 0.005725503
-0.013068596 0.016335746 0.0056707263
-0.012028647 0.016402701 0.0049543381
-0.01078783 0.016181745 0.0040236413
-0.0010824065 0.016236097 0.0048592091
0 0.016545078 0.0050893426
0.0010735103 0.016102655 0.0053861141
0.0021605277 0.016203957 0.0055340827
0.0032460417 0.016230209 0.0054091215
0.0042458279 0.015921853 0.0049138665
-0.018167378 0.017098708 0.0043046772
-0.017372226 0.017372226 0.0049574673
-0.016171137 0.017249214 0.0052669644
-0.015078229 0.017232262 0.0060503781
-0.014272337 0.017565953 0.0060361028
-0.013015448 0.017353931 0.0055767
-0.011905555 0.017317172 0.0051405728
-0.010959764 0.017535623 0.0041414201
-0.0021803025 0.01744242 0.0044749379
-0.0010852264 0.017363623 0.004778266
0 0.017342228 0.0053579509
0.0010807788 0.01729246 0.0054261982
0.0021452091 0.017161673 0.0052290261
0.0032124626 0.017133133 0.0050388873
0.0043363157 0.017345263 0.0047176778
-0.018237939 0.018237939 0.0045584142
-0.017274018 0.018353645 0.0050473809
-0.016166735 0.0183223 0.0055686235
-0.015122707 0.018363288 0.0062020421
-0.01427641 0.018669153 0.0059377253
-0.013035301 0.018466676 0.0058348179
-0.011990743 0.018531149 0.0051594079
-0.010917833 0.018560316 0.0041904747
-0.0021895815 0.018611442 0.0045004487
-0.0010873687 0.018485267 0.0050247312
0 0.01859821 0.0057207346
0.0010861503 0.018464554 0.0057732463
0.0021536388 0.018305929 0.0056337714
0.0032304074 0.018305643 0.0052641928
0.0043093087 0.018314563 0.0045034289
-0.018326998 0.019405056 0.0044423044
-0.017163066 0.019308448 0.0052458346
-0.016217932 0.019461516 0.0056707263
-0.015040091 0.019337259 0.0064611435
-0.014183836 0.019639157 0.0063951612
-0.013058719 0.019588079 0.0060578287
-0.011972691 0.019591676 0.0056622922
-0.010891674 0.019605013 0.004966706
-0.0043363706 0.019513667 0.0040447116
-0.0032989469 0.01979368 0.0042112768
-0.0021683881 0.019515494 0.0050176084
-0.0010902347 0.019624224 0.0054688454
0 0.019660467 0.0058231056
0.0010689149 0.019240467 0.006092757
0.0021612004 0.019450802 0.006003201
0.0032342579 0.019405548 0.0055412352
0.0042854492 0.01928452 0.0046440363
-0.017240936 0.020473611 0.0051106811
-0.016069075 0.020354163 0.0060666502
-0.014970184 0.020316679 0.0067465901
-0.014012847 0.020480314 0.0067213178
-0.013372814 0.021173622 0.0065812767
-0.011762356 0.020316798 0.0062592924
-0.010897118 0.020704525 0.0057047904
-0.0097619519 0.020608567 0.0046143234
-0.0087829763 0.020859569 0.004349947
-0.0076871687 0.020865172 0.0044128299
-0.0065414016 0.020714439 0.0041063726
-0.0054537905 0.020724406 0.0045696795
-0.004373631 0.020774746 0.0048211217
-0.0032494159 0.020579634 0.0050215423
-0.0021670419 0.020586897 0.0057563484
-0.001101803 0.020934258 0.0057814717
0 0.020491105 0.0059503615
0.001075674 0.020437807 0.0063159466
0.0021637529 0.020555653 0.0060644746
0.0031947838 0.020233631 0.0054860413
-0.017338151 0.021672688 0.0044947267
-0.016014179 0.021352239 0.0057727695
-0.015091917 0.021559881 0.0062592924
-0.013890079 0.021369351 0.0066012442
-0.013062202 0.021770338 0.0070479512
-0.012151998 0.022094542 0.0065173209
-0.010756986 0.021513972 0.0063924491
-0.0097563816 0.021680847 0.005838424
-0.0087073836 0.021768458 0.0051493049
-0.0076035461 0.021724416 0.0053006709
-0.0065508368 0.021836122 0.0051669776
-0.0054908828 0.021963531 0.0055083632
-0.0043048947 0.021524474 0.0053218305
-0.0032221649 0.021481099 0.0055436194
-0.002260319 0.022603188 0.0058372319
-0.00107329 0.021465801 0.0060013831
0 0.02159619 0.0059127808
0.0010692098 0.021384194 0.005592227
0.0021399828 0.021399828 0.0057636201
0.0032367802 0.021578534 0.0047946572
-0.01620381 0.022685334 0.0051273704
-0.015009906 0.022514859 0.0058388114
-0.013915998 0.022479689 0.0064570308
-0.012753778 0.022319114 0.0070361495
-0.011956276 0.022825619 0.0068539977
-0.011174416 0.023466276 0.006647408
-0.0097200712 0.022680167 0.0061545372
-0.0085660042 0.022485761 0.0056063235
-0.0075015705 0.022504712 0.0058391094
-0.0064952029 0.022733212 0.0055112839
-0.0053224373 0.022354238 0.0055386722
-0.0043662079 0.022922592 0.0055283606
-0.0034749338 0.024324538 0.0057241321
-0.0021265568 0.022328848 0.0058267117
-0.0010696212 0.022462044 0.0059647858
0 0.022485131 0.0057447851
0.0010677944 0.022423683 0.0054250956
0.0021627261 0.022708625 0.0056257248
-0.015011305 0.023589194 0.0048903227
-0.014008272 0.023706306 0.0055407584
-0.012879139 0.023611754 0.0064716637
-0.011666804 0.023333607 0.0064716637
-0.010684786 0.02350653 0.0064168274
-0.010073205 0.02462339 0.0057590604
-0.0092149647 0.025341151 0.0054436326
-0.0079910299 0.025114667 0.0053554475
-0.006867629 0.025181307 0.0052159429
-0.0057171327 0.025155384 0.0054087043
-0.0043989858 0.024194419 0.005405724
-0.0031610483 0.023181021 0.0053292811
-0.0021456329 0.02360196 0.0055497885
-0.0010717305 0.023578072 0.0055810511
0 0.023792455 0.0053412318
0.0010750792 0.02365174 0.0043764412
-0.013946989 0.024675442 0.0048918426
-0.012882447 0.024691356 0.0051493049
-0.01181511 0.024704322 0.0054047406
-0.010722846 0.024662547 0.00589329
-0.0095525393 0.024412045 0.0056917965
-0.0085315211 0.024528125 0.0054087043
-0.0073657315 0.024201689 0.0052864254
-0.0063805734 0.024458865 0.0052231252
-0.0053797187 0.024746707 0.0053716004
-0.0042695636 0.024549993 0.005405724
-0.0032146606 0.024645731 0.0053528249
-0.0021525151 0.024753926 0.0054087043
-0.0010694497 0.024597343 0.0053298771
0 0.024897046 0.0047037303
-0.01296233 0.02592466 0.0042391419
-0.011855545 0.025866644 0.0048229694
-0.010661039 0.025586493 0.0050988197
-0.0096080974 0.025621595 0.00499174
-0.0085361153 0.025608346 0.0047805607
-0.0074703014 0.025612462 0.0049372315
-0.0064917421 0.025966968 0.005058676
-0.0053080278 0.025478534 0.0050587356
-0.0042752689 0.025651611 0.0050587356
-0.0032406664 0.025925331 0.0049057603
-0.0021576781 0.025892137 0.0048337281
-0.0010831098 0.025994632 0.0042391121
-0.011853069 0.026938796 0.0044178069
-0.010780481 0.026951203 0.0046026707
-0.00966358 0.02684328 0.0046887398
-0.0086292448 0.026966391 0.0046817958
-0.0075053666 0.026804881 0.0048134625
-0.0064823548 0.027009813 0.0048033297
-0.00538876 0.026943803 0.0048033297
-0.0043196483 0.026997803 0.0048141778
-0.0032153432 0.026794527 0.0043752491
0 0 0 1 0 0 0 1 0 0 0 1 0 0 0 0 0 330 1 0 0
