ply
format ascii 1.0
comment PCL generated
element vertex 387
property float x
property float y
property float z
element camera 1
property float view_px
property float view_py
property float view_pz
property float x_axisx
property float x_axisy
property float x_axisz
property float y_axisx
property float y_axisy
property float y_axisz
property float z_axisx
property float z_axisy
property float z_axisz
property float focal
property float scalex
property float scaley
property float centerx
property float centery
property int viewportx
property int viewporty
property float k1
property float k2
end_header
0.10130555 -0.13136324 0.0042696297
0.0010841187 0.071551837 0.0040596128
-0.0111137 0.074461795 0.0040408075
-0.010071628 0.074977674 0.0042816103
-0.0088621099 0.074220173 0.0042816103
-0.0078022615 0.074678794 0.0041512549
-0.0066135954 0.073851816 0.004342705
-0.0055256444 0.074043639 0.004342705
-0.0033660624 0.075175397 0.0040263534
-0.0021930796 0.073468164 0.0040059686
0 0.074008971 0.0040626526
0.0010824775 0.072526 0.0045084357
0.0021788871 0.07299272 0.0043402314
-0.012649972 0.071683176 0.0041015446
-0.011736751 0.072554454 0.004840076
-0.010565886 0.071848027 0.0049626827
-0.0094465632 0.071374036 0.0049626827
-0.0084983492 0.072235972 0.0048944652
-0.007390534 0.071793765 0.004835546
-0.0063948594 0.072475076 0.0047933161
-0.0053409492 0.07263691 0.00495556
-0.0042197388 0.071735561 0.0047806501
-0.0031753306 0.071974166 0.0044444799
-0.0021539486 0.073234253 0.004232794
-0.0010570866 0.071881898 0.0044108629
0 0.074751675 0.0042175055
0.0010862416 0.073864423 0.0045627356
0.0021432485 0.072870448 0.0044136941
-0.015005426 0.073955312 0.004157424
-0.013754399 0.073004112 0.0044015348
-0.012861659 0.073954538 0.0048533976
-0.01168496 0.073296569 0.0050514638
-0.010526055 0.07262978 0.0050722659
-0.0096453847 0.073947951 0.005032748
-0.0085476842 0.073723778 0.0049805343
-0.0074190036 0.073130183 0.0049597323
-0.0064073419 0.073684432 0.0048402846
-0.0053429343 0.073732495 0.00521788
-0.0042379326 0.073104337 0.0051840842
-0.0032014097 0.073632427 0.0055510104
-0.0021236101 0.073264547 0.0050964057
-0.0010569476 0.072929382 0.0049516857
0 0.073194951 0.0048025846
0.0011057992 0.076300144 0.0043820143
0.0021520914 0.074247152 0.0048716366
-0.016276138 0.075955302 0.0040396154
-0.014863808 0.074319042 0.0049130619
-0.013847719 0.074564643 0.0052304864
-0.012854801 0.074986346 0.005846858
-0.011720325 0.074583888 0.006224066
-0.010672932 0.074710526 0.0060771108
-0.009625107 0.074861951 0.0058451295
-0.0085315909 0.07465142 0.0058323443
-0.0075066783 0.075066783 0.0054965019
-0.0064017591 0.07468719 0.0054292977
-0.0053283703 0.074597187 0.005443275
-0.0042786691 0.074876703 0.0056607425
-0.0031867265 0.074356951 0.0058995783
-0.0021352079 0.074732274 0.006023258
-0.0010614871 0.074304096 0.0055798888
0 0.07384184 0.0055288076
0.0010766831 0.075367808 0.0048280656
0.0021878222 0.076573774 0.004352808
-0.015867818 0.075107671 0.0042040646
-0.014911226 0.075621217 0.0052304864
-0.013806705 0.075405851 0.0060771108
-0.012669281 0.074959911 0.0064926744
-0.011651285 0.075203747 0.0071680546
-0.010668376 0.075745463 0.0064926744
-0.0094810845 0.074795224 0.0062902272
-0.0086523201 0.076789334 0.0058057904
-0.0074278363 0.075339481 0.0055705905
-0.0063907397 0.075623751 0.0053922832
-0.0053648148 0.076180376 0.0054965019
-0.0042307344 0.075095534 0.0057522953
-0.0031833842 0.075340092 0.0064516068
-0.0021507456 0.076351464 0.0064253211
-0.0010654764 0.075648822 0.0062554479
0 0.075742833 0.0056256354
0.0010600131 0.075260922 0.0056733787
0.0022293932 0.079143457 0.0052586794
0.0032485826 0.076883122 0.0043129921
-0.017057808 0.076760128 0.0041454136
-0.016034571 0.076965943 0.0055295229
-0.014966073 0.076968372 0.0060375929
-0.013732116 0.076054789 0.0070027709
-0.012862471 0.07717482 0.0070893168
-0.011766343 0.077016063 0.0071288347
-0.010775946 0.077586807 0.0069815814
-0.0098015033 0.078412026 0.0061423182
-0.0087037748 0.078333974 0.0057759285
-0.0076472308 0.078657225 0.0056913793
-0.0065640276 0.078768328 0.0052235126
-0.0055221105 0.079518385 0.0054019094
-0.0043282765 0.077908978 0.0055030584
-0.0032239524 0.077374853 0.006313771
-0.002129891 0.076676063 0.0064979792
-0.0010663954 0.076780468 0.0066327751
0 0.076396145 0.0062353313
0.0010504324 0.075631134 0.0059835315
0.0021456135 0.077242084 0.0052942932
0.0033222481 0.079733953 0.0048606098
-0.017081983 0.077936552 0.0053377151
-0.015945725 0.077602528 0.0072188377
-0.014941052 0.077906914 0.007419616
-0.013862494 0.077843241 0.0080875158
-0.012853236 0.078190528 0.0079316199
-0.011904318 0.079001389 0.0078049302
-0.010926536 0.079763725 0.0072802007
-0.0097184051 0.078827068 0.0066707432
-0.0086078402 0.078546546 0.0064853728
-0.0076048323 0.079307541 0.0059458017
-0.0065060891 0.07915742 0.0054332316
-0.0053568422 0.078209899 0.0055877268
-0.0043743639 0.079832144 0.0059458613
-0.003267346 0.079505429 0.0065580904
-0.0021539102 0.078617722 0.0067240596
-0.0010623286 0.077549994 0.0065435171
0 0.077488922 0.0064707696
0.0010753452 0.078500204 0.0062091947
0.0021062829 0.076879323 0.0059404373
0.0033011765 0.080328636 0.0050927699
-0.018129567 0.078916945 0.0040870905
-0.01688173 0.078078002 0.0061362088
-0.01591618 0.078519821 0.0073274076
-0.014870663 0.078602083 0.0076181889
-0.014001247 0.079699405 0.0076908171
-0.01284897 0.079235323 0.0075928271
-0.011893099 0.080008127 0.0076919794
-0.010746059 0.079520844 0.0064926744
-0.0097162472 0.079889148 0.0060375929
-0.0087411758 0.080855876 0.0055785179
-0.0075645265 0.079967856 0.0053922832
-0.0064934869 0.080086343 0.005189836
-0.0054291054 0.080350764 0.0054305792
-0.0043016733 0.079580963 0.0058079064
-0.0032067173 0.079099037 0.0064797401
-0.0022076343 0.081682473 0.0065233111
-0.0010748076 0.07953576 0.0067586005
0 0.078910396 0.0065435171
0.001075527 0.079589009 0.0066224635
0.0021103832 0.078084186 0.006670475
0.0032158911 0.079325318 0.0056239367
0.0044812998 0.082904048 0.004298836
-0.0182222 0.080392063 0.0048903227
-0.016998706 0.079681434 0.0063888431
-0.01605726 0.080286302 0.0074295402
-0.015069423 0.080729052 0.0076908171
-0.013855566 0.07993596 0.0076317191
-0.013030099 0.081438124 0.0072309673
-0.011813285 0.080545127 0.007119596
-0.01078137 0.08086028 0.0062790811
-0.0098046288 0.081705242 0.0058073401
-0.0085972715 0.080599427 0.0050880313
-0.0075711911 0.081119902 0.0050466359
-0.0065491726 0.081864655 0.0047554076
-0.0053937025 0.080905549 0.0049848855
-0.0043107648 0.080826841 0.0056972504
-0.0032480645 0.08120162 0.006143868
-0.0021487484 0.080578066 0.0064707696
-0.0010968581 0.082264356 0.0066952109
0 0.080376774 0.0065325201
0.0010511307 0.078834802 0.0066224635
0.0021334062 0.080002733 0.0066476762
0.0031856778 0.079641953 0.0058169961
0.0043368936 0.081316754 0.0043649971
-0.018035855 0.080630884 0.0056536794
-0.017095366 0.081202991 0.0070401132
-0.015917057 0.080646425 0.0077485442
-0.014914214 0.080962874 0.007756561
-0.014173834 0.082862414 0.0076908171
-0.012892676 0.081653617 0.0072999597
-0.011869167 0.082005158 0.0066658854
-0.010844731 0.082419962 0.0060746968
-0.0097155413 0.082042351 0.0050880313
-0.008670019 0.082365185 0.0048922598
-0.0076172166 0.082701214 0.0048452318
-0.0064793439 0.082071692 0.004632175
-0.0053972364 0.082037993 0.0047324896
-0.0043200632 0.082081199 0.0050381124
-0.0032350838 0.081955455 0.0060229599
-0.0021646623 0.082257167 0.0063985288
-0.0010886907 0.082740493 0.0065089762
0 0.081183717 0.006051898
0.0010671254 0.081101529 0.0064979792
0.0021332731 0.081064381 0.0065521598
0.0031818904 0.080607891 0.0055844784
0.0043028113 0.081753418 0.0040353835
-0.018172983 0.082312927 0.0058698654
-0.017046332 0.082035482 0.007221967
-0.01603269 0.08230114 0.0077485442
-0.015082438 0.082953408 0.0078241527
-0.014056051 0.083255075 0.0077390969
-0.012901817 0.082786664 0.0071436167
-0.011936121 0.083552845 0.0065970719
-0.010841529 0.083479777 0.0058301091
-0.009741772 0.083346277 0.0050317645
-0.0086990679 0.08372853 0.0047505498
-0.0075382721 0.082920991 0.0047449172
-0.0064925211 0.083320692 0.0047131479
-0.0054255817 0.083553962 0.0047011077
-0.0043231002 0.083219677 0.0050381124
-0.0032501174 0.083419688 0.0056995153
-0.0021609096 0.083195023 0.0059151649
-0.0010804047 0.083191164 0.0060226619
0 0.083523378 0.0060044825
0.0010627413 0.081831075 0.0059791505
0.0021230683 0.081738129 0.0063385665
0.0032061096 0.08229015 0.0055844784
0.0042723278 0.082242303 0.0042441785
-0.01820213 0.083515652 0.005762279
-0.016959928 0.082679652 0.006883204
-0.016096987 0.083704323 0.0074075162
-0.014895369 0.082988486 0.0075092614
-0.014068937 0.084413625 0.0074275136
-0.013055886 0.08486326 0.0072456598
-0.01189765 0.084365152 0.0066097677
-0.010741343 0.083782472 0.006041348
-0.0097302273 0.084328637 0.0050039291
-0.0085920896 0.083772875 0.0047235787
-0.0075753853 0.084411435 0.0047179461
-0.0065307827 0.084900178 0.004524827
-0.0053823562 0.083964758 0.004578948
-0.0043062409 0.083971702 0.0049848855
-0.0032647592 0.084883742 0.0056603253
-0.0021584649 0.084180124 0.0059151649
-0.0010776264 0.08405485 0.0064273775
0 0.084381871 0.0059609711
0.0010614672 0.082794443 0.0063753426
0.0021318926 0.083143808 0.0061640739
0.003182889 0.082755111 0.0050682724
0.0042370595 0.082622662 0.0040300488
-0.018097023 0.084097929 0.0057729185
-0.017127903 0.084569022 0.0072456598
-0.015945027 0.083977133 0.0077795386
-0.014890015 0.084022231 0.0078241527
-0.014274494 0.086744994 0.007796824
-0.012950705 0.085258804 0.0073970258
-0.011793368 0.08469782 0.0069537461
-0.010804446 0.085355133 0.0058570206
-0.0097573893 0.085648201 0.0050177574
-0.0086167417 0.085090324 0.0049260855
-0.0075642727 0.085368216 0.004594326
-0.0064785322 0.085300677 0.0043897927
-0.0054037403 0.085379101 0.0044706464
-0.0043544536 0.086000457 0.0048273206
-0.0032142259 0.084641278 0.0054742396
-0.0021439262 0.084685087 0.0057365596
-0.0011068479 0.087440975 0.0059310198
0 0.084468722 0.0059310198
0.0010665292 0.084255807 0.0061917603
0.0021282535 0.084066011 0.0061523318
0.0031934089 0.084093101 0.0049736798
-0.018057922 0.084978454 0.0051057935
-0.017079582 0.085397914 0.0072766542
-0.015874678 0.084664948 0.0078082681
-0.014927248 0.085298561 0.0080096722
-0.013949152 0.085840933 0.0083114505
-0.012801085 0.085340559 0.0078644156
-0.011910683 0.08662314 0.0074153841
-0.010775376 0.086203009 0.006542176
-0.0096741822 0.085992731 0.0058570206
-0.008648972 0.086489715 0.0054393113
-0.0075330385 0.086091869 0.005187124
-0.0064359782 0.085813046 0.0050965548
-0.0054158061 0.086652897 0.005187124
-0.0043026288 0.086052574 0.0054520965
-0.003225425 0.086011335 0.0057306588
-0.0021525878 0.086103506 0.0061333179
-0.0010938225 0.087505795 0.0063739717
0 0.086544611 0.0061590075
0.0010654216 0.085233726 0.0061397254
0.0021225729 0.084902912 0.006143868
0.0031965466 0.085241243 0.0050572455
-0.018209592 0.086763337 0.004243046
-0.016912732 0.085620709 0.0067651868
-0.016052451 0.086683236 0.007756561
-0.01485231 0.085931212 0.0083319545
-0.013877964 0.086470388 0.0086583793
-0.013270168 0.089573629 0.0086371601
-0.011750498 0.086526394 0.0079362988
-0.010640524 0.086188249 0.0072999597
-0.0097437156 0.087693445 0.006242156
-0.0086137224 0.087213933 0.006069988
-0.0075197774 0.087014563 0.0060027838
-0.0065110284 0.08789888 0.0056048334
-0.0053952616 0.087403238 0.0056835115
-0.0043003098 0.087081276 0.0056724548
-0.0032292444 0.0871896 0.0061240494
-0.002197325 0.088991657 0.006470263
-0.0010623966 0.086054116 0.0072179139
0 0.08664979 0.0062823296
0.0010531334 0.085303798 0.0059271157
0.0021165267 0.085719332 0.0060722828
0.0031688262 0.085558303 0.0044970512
-0.01701048 0.087178715 0.0062624514
-0.015962236 0.087260224 0.0077795386
-0.014761479 0.086460091 0.0081827641
-0.013710524 0.086481772 0.0086904764
-0.012861016 0.087883614 0.0086281896
-0.012095503 0.090166479 0.0087249875
-0.010798348 0.088546462 0.0078573525
-0.0096352221 0.087787583 0.0070896149
-0.0085306782 0.087439455 0.0068489015
-0.0075386777 0.088310227 0.0066411197
-0.0064114467 0.087623112 0.006385237
-0.0053523066 0.087777838 0.006613642
-0.004308959 0.088333666 0.006580472
-0.0032844704 0.089775532 0.0071684718
-0.0021559906 0.088395618 0.0073357522
-0.0010783634 0.088425808 0.0074484348
0 0.086354151 0.0072360933
0.0010668349 0.087480463 0.0062402189
0.0021154918 0.086735167 0.0055844784
0.0031619009 0.086425297 0.0040517449
-0.016006261 0.08856798 0.0073787868
-0.014953004 0.088649958 0.0078886449
-0.013832527 0.088315368 0.0087663531
-0.012553168 0.086826086 0.0087603927
-0.011837428 0.089318782 0.0090534389
-0.010908803 0.090543076 0.0088571906
-0.0098716645 0.091038689 0.0085936785
-0.0088273119 0.091583364 0.0081252158
-0.0076427609 0.090621315 0.0079088509
-0.0065375818 0.090436555 0.0077909529
-0.0055905473 0.092803091 0.0078586638
-0.0043956642 0.09121003 0.0078761578
-0.0032020691 0.088590585 0.0078784525
-0.0021402377 0.088819869 0.0078391433
-0.0010525757 0.08736378 0.0078529716
0 0.08847405 0.0068032742
0.0010640387 0.088315211 0.0063753426
0.0021120578 0.087650403 0.0055126846
-0.016004533 0.089625381 0.0047549605
-0.01490212 0.089412726 0.0067252219
-0.013694581 0.088488065 0.0079760253
-0.012836074 0.089852519 0.0082818866
-0.011594635 0.088540852 0.0086235106
-0.010534081 0.088486277 0.0085095465
-0.0097561236 0.091057159 0.0084589422
-0.0086009549 0.09031003 0.0081115067
-0.0074798139 0.08975777 0.0077413619
-0.0065253642 0.0913551 0.0075921714
-0.0053965119 0.090661407 0.0077961683
-0.004205144 0.088308021 0.0076566637
-0.0031816717 0.089086816 0.0076173544
-0.0021141048 0.088792406 0.007355392
-0.0010581957 0.088888444 0.0068032742
0 0.089956395 0.0061397254
0.0010536605 0.088507481 0.0055396855
-0.014839518 0.090097077 0.0045800507
-0.013953485 0.091234319 0.0067252219
-0.012725856 0.090141483 0.0077112317
-0.011602552 0.089656085 0.0082788169
-0.010648608 0.09051317 0.0082788169
-0.0095043285 0.089763105 0.0078645349
-0.0084248688 0.089514233 0.0076959431
-0.007379605 0.089609489 0.0072501004
-0.0063624769 0.09013509 0.0066539943
-0.0052980636 0.090067089 0.0067971647
-0.0042476305 0.090262145 0.0066539943
-0.0031927675 0.090461753 0.0065321326
-0.0021192392 0.09006767 0.0061590075
-0.0010745401 0.091335908 0.005716145
0 0.090367861 0.0048883259
-0.012722219 0.091175906 0.0063640177
-0.011740185 0.091786899 0.0073431134
-0.010634231 0.091454394 0.0073701143
-0.0094742645 0.090531871 0.0073701143
-0.0085450141 0.091858901 0.007171452
-0.0073820939 0.090694293 0.0066539943
-0.0063631614 0.091205314 0.0065321326
-0.005313836 0.091397986 0.0065703392
-0.0042220932 0.090774998 0.0064176619
-0.0031791546 0.091135763 0.0061422288
-0.002131033 0.091634415 0.0054084063
-0.00106028 0.09118408 0.0046127439
-0.011740679 0.092858098 0.0058994889
-0.010603727 0.092252426 0.0062369406
-0.009572845 0.092537507 0.0064545274
-0.0084762676 0.092179403 0.0062675476
-0.0074729463 0.092878044 0.0062675476
-0.0063991966 0.092788354 0.0058013797
-0.0053143692 0.092470028 0.0060772598
-0.0042642406 0.092747234 0.005490303
-0.0031978898 0.0927388 0.0050831437
-0.0021205186 0.092242561 0.0045323372
0 0 0 1 0 0 0 1 0 0 0 1 0 0 0 0 0 387 1 0 0
