ply
format ascii 1.0
comment PCL generated
element vertex 213
property float x
property float y
property float z
element camera 1
property float view_px
property float view_py
property float view_pz
property float x_axisx
property float x_axisy
property float x_axisz
property float y_axisx
property float y_axisy
property float y_axisz
property float z_axisx
property float z_axisy
property float z_axisz
property float focal
property float scalex
property float scaley
property float centerx
property float centery
property int viewportx
property int viewporty
property float k1
property float k2
end_header
-0.0097167818 -0.005398212 0.0040326118
-0.0086712474 -0.005419529 0.0041332543
-0.011984199 -0.0043578907 0.0045296252
-0.01084302 -0.0043372083 0.0044143498
-0.0097329644 -0.0043257619 0.0044154823
-0.0087475684 -0.0043737842 0.0043500066
-0.0032501728 -0.0043335641 0.0040029287
-0.0021763274 -0.0043526548 0.0042460561
-0.001076711 -0.004306844 0.0041744113
0 -0.0043436852 0.0041744113
0.001083235 -0.0043329401 0.0042924881
-0.012981598 -0.0032453996 0.0042964518
-0.011935517 -0.0032551412 0.0047023594
-0.010749388 -0.0032248164 0.0040549934
-0.0021507663 -0.0032261494 0.0046287477
-0.0010791126 -0.0032373378 0.0046352148
0 -0.003253079 0.0046640337
0.0010730762 -0.0032192285 0.0046352148
0.0021562537 -0.0032343806 0.0042924881
-0.01413224 -0.0021741907 0.0043655634
-0.012994235 -0.0021657059 0.0048757792
-0.011841168 -0.0021529398 0.0048757792
-0.010951928 -0.0021903857 0.004527092
-0.0098139783 -0.0021808841 0.004347682
-0.0021807991 -0.0021807991 0.0041679442
-0.0010843732 -0.0021687464 0.0042942464
0 -0.0021592414 0.004656136
0.0010844342 -0.0021688684 0.0046287477
0.0021592143 -0.0021592143 0.004106015
-0.015172979 -0.0010837842 0.0046786368
-0.013960451 -0.0010738808 0.0048536956
-0.013038971 -0.0010865809 0.0050628185
-0.011986101 -0.0010896457 0.0049791932
-0.010955688 -0.0010955689 0.0046236217
-0.0098870397 -0.0010985599 0.0045226812
-0.0021986242 -0.0010993121 0.0042385161
-0.0010904199 -0.0010904199 0.004755795
0 -0.0010792039 0.0048209131
0.0010831639 -0.0010831639 0.0049118698
0.0021664295 -0.0010832148 0.0044825375
0.0032241675 -0.0010747225 0.0043420196
-0.01640798 0 0.0042012036
-0.015226773 0 0.004881382
-0.014041305 0 0.0048536956
-0.013174316 0 0.0049448907
-0.011992173 0 0.0047187209
-0.010888061 0 0.0042622685
-0.0010883503 0 0.0044786334
0 0 0.0047436953
0.0010771308 0 0.0049118698
0.0021628998 0 0.0046640635
0.0032574693 0 0.004306376
0.0042744204 0 0.0043329298
-0.016203195 0.001080213 0.0044995844
-0.015027946 0.0010734247 0.0049448907
-0.01418466 0.0010911277 0.0048536956
-0.013052136 0.001087678 0.0048757792
-0.01202633 0.0010933027 0.0044107139
-0.0010946882 0.0010946882 0.0041515827
0 0.0010838381 0.0044334233
0.0010840176 0.0010840176 0.0048381388
0.0021682587 0.0010841293 0.0046095848
0.0032340451 0.0010780151 0.0048329234
0.0043492811 0.0010873203 0.0047070384
-0.01735566 0.0021694575 0.0044694245
-0.016171055 0.0021561405 0.0046658218
-0.015270093 0.0021814418 0.0050036013
-0.014083119 0.0021666337 0.0047033429
-0.013195361 0.002199227 0.0045127273
-0.012016831 0.0021848783 0.0041241348
-0.0011009584 0.0022019169 0.0040094554
0 0.00219168 0.0047026873
0.0010935804 0.0021871608 0.0051552951
0.0021479949 0.0021479949 0.0046566129
0.0032528557 0.0021685704 0.0049473643
0.0043029017 0.0021514508 0.0048454702
0.005303178 0.0021212713 0.0041040778
-0.017218916 0.0032285468 0.0046693683
-0.016264025 0.003252805 0.0049650371
-0.015158097 0.0032481635 0.0050379038
-0.014038535 0.0032396619 0.0047446787
-0.013157125 0.0032892812 0.0046468675
0 0.0032838099 0.004591614
0.0010928317 0.003278495 0.0048347116
0.0021779602 0.0032669404 0.0048347116
0.0032663406 0.0032663406 0.0048454702
0.0043096631 0.0032322474 0.0048454702
0.005422899 0.0032537396 0.0043504536
-0.017439816 0.004359954 0.0046693683
-0.016202437 0.0043206499 0.0049650371
-0.015105728 0.004315922 0.0051580667
-0.014283816 0.0043950207 0.0049716234
-0.013061762 0.0043539209 0.0047103763
-0.012058618 0.0043849521 0.0040376782
0 0.0043627089 0.004533112
0.0010921371 0.0043685483 0.0050515532
0.0021570602 0.0043141204 0.0048347116
0.0032366372 0.0043155164 0.0048279166
0.0043602958 0.0043602958 0.0048279166
0.0054078433 0.0043262751 0.0042675138
-0.017168345 0.0053651077 0.004548192
-0.01624402 0.0054146736 0.00490731
-0.015206818 0.0054310062 0.005518496
-0.014107547 0.0054259794 0.0052070022
-0.013099425 0.0054580932 0.0045353174
-0.012089119 0.0054950542 0.0040093362
-0.0010883871 0.0054419353 0.0043322146
0 0.0055477372 0.0049495399
0.0010891797 0.005445898 0.0053035021
0.0021678524 0.0054196306 0.0053035021
0.0032350831 0.005391805 0.0051908493
0.0043428582 0.0054285727 0.0051732957
0.0054332973 0.0054332973 0.0044016242
-0.017308116 0.006490543 0.0045328736
-0.016318403 0.0065273615 0.0052002966
-0.015118433 0.0064793285 0.0059960186
-0.013920901 0.0064250315 0.0058095753
-0.013315438 0.0066577191 0.0056834221
-0.011936522 0.0065108305 0.0042396486
-0.0010901178 0.0065407068 0.0041621923
0 0.0066157193 0.0050339997
0.0010793264 0.006475958 0.0054601431
0.0021629003 0.0064887009 0.0053035021
0.0032293021 0.0064586042 0.0051746964
0.0042810114 0.0064215171 0.0047886968
0.0054489612 0.0065387534 0.0040863752
-0.017463362 0.0076402207 0.0041178763
-0.016092934 0.0075100358 0.0051215291
-0.01505811 0.0075290548 0.006201297
-0.013993214 0.0075348075 0.0061989427
-0.013330986 0.0077764085 0.0061830282
-0.011876374 0.0075576929 0.0054064393
-0.010968065 0.0076776454 0.0041510165
-0.0010971456 0.0076800194 0.0045208633
0 0.0076211495 0.0049457252
0.0010866595 0.0076066162 0.0054184198
0.0021523265 0.0075331423 0.0051252842
0.0032458142 0.0075735669 0.0048839748
0.0043405816 0.0075960178 0.0044753551
-0.016178077 0.0086283078 0.0052002966
-0.01516232 0.0086641824 0.0060371459
-0.014002063 0.0086166542 0.0062423944
-0.012798025 0.0085320165 0.0065961182
-0.012493875 0.0090864552 0.0058352351
-0.010849928 0.0086799432 0.0054931641
-0.0097260205 0.008645352 0.0041944683
-0.0021849016 0.0087396065 0.0043675601
-0.0011100793 0.0088806348 0.0049812496
0 0.0086504649 0.0052704513
0.0010846577 0.0086772619 0.0052706003
0.0021360095 0.008544038 0.005164206
0.0032844336 0.00875849 0.0048102438
0.0043223337 0.0086446675 0.0042262971
-0.016234787 0.0097408714 0.0043957233
-0.015210985 0.0097784903 0.0055686533
-0.013937164 0.0096488055 0.0060417354
-0.012887283 0.0096654622 0.0066040456
-0.012136609 0.0099299522 0.0062524676
-0.011086414 0.0099777719 0.0061427057
-0.0097408621 0.0097408621 0.0055215061
-0.0087340921 0.0098258527 0.0041510165
-0.0076819402 0.0098767802 0.0041146576
-0.0043633119 0.0098174512 0.0043719411
-0.0032458554 0.0097375661 0.0049020052
-0.0022413558 0.010086101 0.0051441789
-0.0010781994 0.0097037936 0.0052234232
0 0.0098234275 0.0053304136
0.0010682628 0.0096143652 0.0053488612
0.0021746662 0.0097859977 0.005237937
0.0032319569 0.0096958708 0.0045998991
-0.015100062 0.010785758 0.0045527816
-0.01398782 0.010759861 0.0058651567
-0.012936967 0.010780807 0.0066007078
-0.01171295 0.010648136 0.0063715279
-0.010717084 0.010717084 0.0063614547
-0.010471395 0.011634883 0.0063311756
-0.0088910544 0.011113817 0.0058671236
-0.0076610069 0.010944296 0.0050620735
-0.0064882184 0.010813697 0.0049801469
-0.0054347678 0.010869536 0.0050657392
-0.004521288 0.01130322 0.0051398575
-0.0034499224 0.011499741 0.0051573515
-0.0021786822 0.010893411 0.0051570237
-0.0010838652 0.010838652 0.0050632358
0 0.010684467 0.0051987767
0.001088315 0.01088315 0.0051423907
0.0021645403 0.010822701 0.0045351982
-0.014070851 0.011906105 0.0040273964
-0.01289006 0.011815889 0.0051836669
-0.011925984 0.011925984 0.0058100522
-0.010778533 0.011856387 0.005949676
-0.0094917538 0.011601033 0.0060891807
-0.0087359259 0.012011898 0.0056543648
-0.0076122982 0.011962183 0.0049063861
-0.0066709961 0.01223016 0.0048423707
-0.0055185193 0.012140743 0.0048250854
-0.0043261969 0.011897041 0.0048159659
-0.0032057709 0.011754493 0.0047301352
-0.0021771984 0.011974591 0.0048705637
-0.0010692875 0.011762163 0.0048754811
0 0.011939205 0.0047876537
0.0010867809 0.01195459 0.0042233467
-0.011912394 0.01299534 0.0040645003
-0.010747295 0.012896755 0.0052489936
-0.0097104302 0.012947241 0.0052489936
-0.0086173275 0.012925991 0.0051528513
-0.0075439266 0.012932446 0.0046745837
-0.0064343084 0.012868617 0.0042693615
-0.0053298073 0.012791538 0.0041644275
-0.0042924881 0.012877464 0.0044501126
-0.0032415602 0.012966241 0.004308939
-0.0021299908 0.012779945 0.0042274594
-0.0097146071 0.014032211 0.0041279793
0 0 0 1 0 0 0 1 0 0 0 1 0 0 0 0 0 213 1 0 0
