ply
format ascii 1.0
comment PCL generated
element vertex 258
property float x
property float y
property float z
element camera 1
property float view_px
property float view_py
property float view_pz
property float x_axisx
property float x_axisy
property float x_axisz
property float y_axisx
property float y_axisy
property float y_axisz
property float z_axisx
property float z_axisy
property float z_axisz
property float focal
property float scalex
property float scaley
property float centerx
property float centery
property int viewportx
property int viewporty
property float k1
property float k2
end_header
-0.0058116708 -0.068577722 0.0042052865
-0.0034842775 -0.06852413 0.0042982399
-0.010851454 -0.062938437 0.0043196976
-0.0096012717 -0.06187487 0.0044323504
-0.0085682115 -0.062119536 0.0044318736
-0.0073695569 -0.061062045 0.0044288635
-0.0064096935 -0.061960373 0.0042616725
-0.0053835278 -0.062448926 0.0042956471
-0.0042743562 -0.061978161 0.004211545
-0.0031788626 -0.061458014 0.0041099191
-0.0021435323 -0.06216244 0.004144907
-0.012002428 -0.0621944 0.0042139888
-0.010774408 -0.061414126 0.0045127273
-0.009680693 -0.061311059 0.0048316717
-0.0087040067 -0.062016044 0.0050933659
-0.0075770635 -0.061698943 0.0047608614
-0.0065560881 -0.062282838 0.0043806732
-0.005418018 -0.061765406 0.0042956471
-0.0043572304 -0.062090531 0.004529506
-0.0032667252 -0.062067781 0.004611969
-0.0021642076 -0.061679915 0.0043151379
0 -0.062014434 0.004016161
-0.012934919 -0.060362957 0.0041082799
-0.011841908 -0.060286079 0.0050446987
-0.010923623 -0.061172292 0.005469054
-0.009788366 -0.060905393 0.005571425
-0.008639399 -0.060475793 0.0055568814
-0.0076354751 -0.061083801 0.0052407086
-0.0064931475 -0.06060271 0.0047487617
-0.0053972509 -0.060449209 0.0044288635
-0.0043973844 -0.06156338 0.0045762062
-0.0032535449 -0.060732838 0.004506588
-0.0021620586 -0.06053764 0.0044612586
-0.0010916672 -0.061133366 0.0044271648
0 -0.060247559 0.0044125319
0.0010839981 -0.060703896 0.0040799379
-0.014056548 -0.059470017 0.0040550232
-0.012980619 -0.059494503 0.00465554
-0.01187649 -0.05938245 0.0050819814
-0.010893522 -0.059914373 0.0051160753
-0.0097645195 -0.059672069 0.0052571297
-0.0087326895 -0.060037244 0.0052523017
-0.0076355361 -0.059993498 0.0049799979
-0.0065750862 -0.060271624 0.0047328472
-0.0054767048 -0.060243756 0.0044288635
-0.0043831761 -0.060268674 0.0044104159
-0.0032771232 -0.060080595 0.0047076643
-0.0021958973 -0.060387172 0.0046702027
-0.0010881728 -0.059849501 0.0048118532
0 -0.059656989 0.0047318041
0.0010947571 -0.06021164 0.0044408441
0.0021435851 -0.058948591 0.0042177141
0.0032820161 -0.060170297 0.0040188134
-0.014049469 -0.058359332 0.0043024421
-0.013111073 -0.058999829 0.00465554
-0.011979463 -0.058808275 0.0050368011
-0.010891727 -0.05881533 0.0050368011
-0.0098199807 -0.058919888 0.004744947
-0.0087211104 -0.058867496 0.0045446455
-0.0033084925 -0.059552867 0.0041757524
-0.0021957858 -0.059286214 0.0041597486
-0.0010936731 -0.059058346 0.004378438
0 -0.058781166 0.0045024455
0.0010858175 -0.058634147 0.0043626726
0.002171736 -0.05863687 0.0042177141
0.0032004511 -0.057608124 0.004016012
-0.015057791 -0.057004493 0.0043024421
-0.014198595 -0.057886578 0.0045416057
-0.013005895 -0.057442699 0.0051110089
-0.011960798 -0.057629298 0.0051727891
-0.010972048 -0.058151852 0.0051642656
-0.0098427851 -0.05796307 0.0051295161
-0.0087776417 -0.058151871 0.0048561394
-0.0077996715 -0.059054654 0.0040295422
-0.0021861105 -0.057931922 0.0041597486
-0.0010995331 -0.058275249 0.0043227673
0 -0.05707404 0.0047318041
0.0010910705 -0.057826731 0.0047076643
0.002177648 -0.057707667 0.0044861734
0.0032306982 -0.057075668 0.0041625798
-0.016077291 -0.055734608 0.0040202737
-0.015296146 -0.056814261 0.0043774545
-0.014047611 -0.056190442 0.0046883523
-0.012855601 -0.055707607 0.0049089491
-0.012089652 -0.057151083 0.0049970746
-0.010961682 -0.057000749 0.0050401092
-0.0098562967 -0.056947492 0.00470227
-0.0088728471 -0.057673506 0.0040059388
-0.0011011576 -0.057260197 0.0042714477
0 -0.057515055 0.0046406388
0.0010847107 -0.056404956 0.0047878027
0.0021494476 -0.055885639 0.0046862662
0.0032885172 -0.057000965 0.0044271648
0.0043055085 -0.055971611 0.0042390227
0.0054890569 -0.057086196 0.0040420592
-0.016209306 -0.055111643 0.004321903
-0.015141035 -0.05515663 0.0046271086
-0.014059913 -0.055158123 0.0048072934
-0.013010575 -0.055294946 0.005133152
-0.01201433 -0.055702809 0.0051211417
-0.010820029 -0.055182151 0.0047909915
-0.0098871719 -0.056027312 0.0042766333
0 -0.055856179 0.0042384565
0.0010890462 -0.055541359 0.0044316351
0.0021913792 -0.055880167 0.0043626726
0.0032536308 -0.055311725 0.0043626726
0.0043134042 -0.054995902 0.0042390227
0.0054563209 -0.055654474 0.0040574372
-0.016387563 -0.054625209 0.0045801699
-0.015054307 -0.053765386 0.004745692
-0.014227798 -0.054722302 0.0050106347
-0.0131496 -0.054790005 0.0052877963
-0.012029372 -0.054678965 0.0050701201
-0.010938314 -0.054691572 0.004691571
-0.0099169184 -0.055093996 0.0041336715
0 -0.054814275 0.0041206181
0.0011010621 -0.055053104 0.0043677986
0.0021639862 -0.054099657 0.0043626726
0.003229412 -0.053823534 0.0044887364
0.0043682279 -0.054602847 0.0043537915
0.0053730127 -0.05373013 0.0041159987
-0.01741115 -0.053321645 0.0040495098
-0.016225623 -0.053003699 0.0048927069
-0.015195226 -0.053183291 0.0050446987
-0.014222692 -0.053608608 0.0052778125
-0.01293364 -0.05281236 0.0054095089
-0.012173456 -0.054227211 0.0051065981
-0.011046317 -0.054126956 0.0042422414
0.0010984319 -0.053823162 0.0043715835
0.0021658561 -0.053063471 0.004362464
0.0032826867 -0.053617213 0.0043637753
0.0043213847 -0.052936964 0.0042990744
0.0054484834 -0.053395137 0.0040481687
-0.016306693 -0.052181415 0.0046376288
-0.015198066 -0.052107655 0.0048291981
-0.014057026 -0.051902864 0.0050074756
-0.013214172 -0.052856687 0.0050446987
-0.011968059 -0.05222426 0.0049673915
-0.010965489 -0.052634347 0.0041238666
0 -0.052839451 0.0041557848
0.0011077807 -0.053173475 0.0044912398
0.0021786115 -0.052286673 0.0044620335
0.0032547901 -0.052076641 0.0045808554
0.004281994 -0.051383927 0.0042974949
0.0054440568 -0.052262947 0.0041740537
-0.01737012 -0.051024728 0.0040495098
-0.016237933 -0.050878856 0.005053699
-0.015008476 -0.050385594 0.005019635
-0.014150838 -0.051160727 0.005232513
-0.013076394 -0.051215876 0.0052979589
-0.011980218 -0.051188204 0.0051769614
-0.011098254 -0.052161798 0.0046692193
0 -0.050945435 0.004240334
0.0011116781 -0.052248869 0.0044670701
0.0021777956 -0.051178198 0.0043047071
0.0032154117 -0.050374784 0.0042079389
0.0043355678 -0.05094292 0.0041365325
-0.017359599 -0.04990885 0.0042105019
-0.016092759 -0.049351126 0.0051769614
-0.015211104 -0.049979344 0.0053153038
-0.01407225 -0.049794115 0.0055489838
-0.013115743 -0.050277017 0.0056459308
-0.012068245 -0.050467208 0.0053288639
-0.010993643 -0.050570756 0.0049067736
0 -0.050416376 0.004398644
0.0011018807 -0.050686512 0.0047002733
0.0021401364 -0.04922314 0.0048367083
0.0032717595 -0.050166983 0.0044979453
0.0043043443 -0.049499959 0.0043174028
0.0054129888 -0.049799502 0.0040130913
-0.016495096 -0.049485289 0.0047931373
-0.015206891 -0.048879296 0.0053004324
-0.01398172 -0.04839826 0.0053832233
-0.013044562 -0.048917111 0.0056742132
-0.012165576 -0.049768269 0.0054938197
-0.010897385 -0.049038235 0.0052603483
-0.0099352533 -0.049676269 0.0044569969
-0.0010946764 -0.049260445 0.0041351914
0 -0.049786847 0.0048872232
0.0010783769 -0.048526965 0.004974395
0.0021557645 -0.048504703 0.0046136379
0.0032392319 -0.048588481 0.0042748749
-0.016239783 -0.047636699 0.0040850639
-0.015246682 -0.047918145 0.0054680109
-0.014101323 -0.047727551 0.0061876774
-0.01298344 -0.047605947 0.0062624812
-0.012065615 -0.048262458 0.0064579546
-0.010994294 -0.048374891 0.0058704913
-0.0098681767 -0.04824442 0.0053046644
-0.0088162888 -0.048489586 0.004861027
-0.0021945406 -0.048279889 0.0043189228
-0.0010930378 -0.048093658 0.0044341385
0 -0.048621841 0.0050960183
0.0010823098 -0.04762163 0.005245924
0.002175994 -0.047871865 0.0046956241
0.0032148478 -0.0471511 0.0041553378
-0.015227023 -0.046768714 0.0049928427
-0.014138194 -0.046764795 0.0059369206
-0.012864031 -0.046096113 0.0061396956
-0.011915528 -0.046578884 0.0064553618
-0.011267556 -0.048450492 0.0061174035
-0.0097546354 -0.046605483 0.0059165061
-0.0087919869 -0.047256932 0.0055376887
-0.0076568527 -0.047034953 0.0048743486
-0.0066142008 -0.047401775 0.0047242343
-0.0054729204 -0.047067117 0.0043456852
-0.0044017378 -0.047318678 0.0046171844
-0.0032589978 -0.046712302 0.0045212507
-0.002186764 -0.047015425 0.0050089955
-0.0011069723 -0.047599811 0.0053268671
0 -0.046674501 0.0054497719
0.0010808425 -0.046476226 0.0053268671
0.0021402035 -0.046014376 0.0048367083
-0.014023713 -0.045307383 0.0047617853
-0.013028887 -0.045601103 0.0058030486
-0.011794628 -0.045034036 0.0062354505
-0.01070611 -0.044965666 0.0061174035
-0.010190983 -0.047557924 0.0061015785
-0.008966485 -0.047074046 0.005764097
-0.0076520732 -0.045912441 0.0054718554
-0.006569006 -0.045983046 0.0049653649
-0.0054122042 -0.045462519 0.0048784316
-0.0043694205 -0.045878917 0.0051091611
-0.0034099394 -0.047739152 0.0048872232
-0.0022021348 -0.046244834 0.0049754679
-0.0010711811 -0.044989608 0.0053268671
0 -0.045336135 0.0052683055
0.0010748197 -0.045142427 0.0048851967
-0.013039502 -0.044551637 0.0049256682
-0.011802988 -0.043992959 0.0057978928
-0.010796782 -0.044266809 0.0057168007
-0.0097274985 -0.044314161 0.0058030486
-0.0085670678 -0.043906223 0.0055376887
-0.0076795085 -0.044979982 0.0051924288
-0.0066926 -0.04573277 0.0048398674
-0.0055267108 -0.045319032 0.0048270822
-0.0044493931 -0.045606282 0.0048363209
-0.0032603266 -0.044557799 0.0045581758
-0.0021629091 -0.044339638 0.0048872232
-0.0010823744 -0.044377353 0.0048851967
0 -0.043999471 0.00449121
-0.012004755 -0.043653652 0.004542619
-0.010808584 -0.043234337 0.0052256882
-0.0097130118 -0.04316894 0.0055939257
-0.0086856829 -0.043428414 0.0054169893
-0.0075561618 -0.043178067 0.0048963428
-0.0064394786 -0.042929858 0.0047783256
-0.0053997827 -0.043198261 0.0047766864
-0.0042801471 -0.04280147 0.0047929883
-0.0032436701 -0.043248937 0.0045311451
-0.0021672125 -0.043344248 0.0044932365
-0.0010820996 -0.04328398 0.0043110251
-0.010864615 -0.042371999 0.0041654408
-0.0098251421 -0.04257562 0.0043809116
-0.0087305214 -0.042561293 0.004657656
-0.0075724502 -0.042189363 0.0043310821
-0.006517875 -0.042366188 0.0041100085
-0.0043326537 -0.042243376 0.0041864216
0 0 0 1 0 0 0 1 0 0 0 1 0 0 0 0 0 258 1 0 0
