ply
format ascii 1.0
comment PCL generated
element vertex 210
property float x
property float y
property float z
element camera 1
property float view_px
property float view_py
property float view_pz
property float x_axisx
property float x_axisy
property float x_axisz
property float y_axisx
property float y_axisy
property float y_axisz
property float z_axisx
property float z_axisy
property float z_axisz
property float focal
property float scalex
property float scaley
property float centerx
property float centery
property int viewportx
property int viewporty
property float k1
property float k2
end_header
-0.007590211 0.016264739 0.0041691661
-0.010726487 0.017162381 0.0045143664
-0.0096078133 0.017080558 0.0045960844
-0.0085163657 0.017032731 0.0045431256
-0.0074939579 0.017129047 0.0045431256
-0.006430598 0.017148262 0.0042954683
-0.005364194 0.017165422 0.0044774115
-0.0042973245 0.017189298 0.0043935478
-0.0031938194 0.017033704 0.0043935478
-0.002155079 0.017240632 0.0043517053
-0.012866504 0.018227547 0.0043752193
-0.011931795 0.018440047 0.0043820143
-0.010798465 0.018357392 0.0045960844
-0.0097000096 0.018322242 0.0045730174
-0.0086757997 0.018436076 0.0043762326
-0.0075818733 0.018413121 0.004344523
-0.006457713 0.018296855 0.0043297708
-0.0054315631 0.018467315 0.0046648085
-0.004315401 0.018340454 0.0045142472
-0.0032322349 0.018315999 0.0045142472
-0.0021602181 0.018361853 0.0046927333
-0.001070981 0.018206678 0.0043760538
0 0.018206734 0.0043688416
-0.013989136 0.019369572 0.0043752193
-0.013043377 0.019565064 0.0047622621
-0.011791845 0.019295746 0.0051670074
-0.010729085 0.019312354 0.0050399005
-0.0096923746 0.019384749 0.0047901571
-0.0086271074 0.01941099 0.0044532418
-0.0074778739 0.019228818 0.0044154823
-0.0065132859 0.019539857 0.0040491521
-0.0053551379 0.019278497 0.0045142472
-0.004288373 0.019297678 0.0044712126
-0.0032441257 0.019464754 0.0045700073
-0.0021403681 0.019263312 0.00524652
-0.0010743971 0.019339148 0.0047390163
0 0.01951793 0.0045477748
0.0010645899 0.019162619 0.0044203103
0.0022814432 0.020532988 0.0040209889
-0.015004272 0.02036294 0.0046089888
-0.013977235 0.020428266 0.0046900213
-0.012921331 0.020458777 0.0051751435
-0.011819952 0.020416282 0.0051751435
-0.010856931 0.020628169 0.0049781799
-0.0097866133 0.020660628 0.0042735338
-0.0076850373 0.020859387 0.0040112734
-0.0054422193 0.020680435 0.0040177107
-0.004329293 0.020564141 0.0041118562
-0.0032258453 0.020430354 0.004241854
-0.0021594896 0.020515151 0.0052684546
-0.0010781712 0.020485252 0.0045441985
0 0.020465644 0.0043784678
0.0010753085 0.020430863 0.0047353506
0.0021810501 0.020719977 0.0040764809
-0.016035175 0.021380233 0.004555881
-0.015097029 0.021567184 0.0047313273
-0.013997693 0.021534912 0.005112201
-0.012961398 0.021602331 0.0055028796
-0.011942401 0.021713456 0.005227536
-0.01093841 0.021876819 0.0050444901
-0.0097673405 0.021705203 0.0045688152
-0.005520721 0.022082884 0.0040177107
-0.0043653045 0.021826521 0.0042337179
-0.0032713094 0.021808729 0.0047841966
-0.0021610539 0.021610538 0.0055499077
-0.0010740208 0.021480415 0.0052616894
0 0.021605935 0.0052223206
0.0010733509 0.021467017 0.0044774115
0.0021165977 0.021165976 0.0049135089
0.0033997428 0.022664951 0.0040014088
-0.017132478 0.022486378 0.0040983856
-0.016208375 0.022691725 0.0046261549
-0.015043984 0.022565978 0.0051785111
-0.013984039 0.022589602 0.0055028796
-0.01293418 0.022634817 0.0058729351
-0.011955607 0.022824341 0.0052704811
-0.0109571 0.023009911 0.0047901571
-0.0098049929 0.022878319 0.0041880012
-0.0033039546 0.023127683 0.0041715205
-0.0021873263 0.022966925 0.0048455
-0.0010801554 0.022683263 0.0051760375
0 0.022627069 0.0051979721
0.0010688296 0.022445422 0.0046061277
0.0021566371 0.022644689 0.0051587522
0.0032011115 0.022407779 0.0043357313
-0.017232392 0.023694538 0.004142791
-0.016140496 0.023672726 0.0046100318
-0.015022379 0.023606597 0.00509727
-0.014143545 0.02393523 0.0050596893
-0.013097491 0.024012066 0.0050526261
-0.011970073 0.023940146 0.0048361421
-0.0010954752 0.024100453 0.0042747557
0 0.02375629 0.0044532418
0.0010773318 0.023701299 0.0042194426
0.0021586618 0.02374528 0.0041270256
-0.01728156 0.024842242 0.0042059124
-0.016079837 0.024655752 0.0046251714
-0.015141222 0.024874864 0.0049852431
-0.014075124 0.024902143 0.0049852431
-0.012997083 0.024911078 0.0045937896
0 0.025080463 0.0042142868
0.0010723717 0.024664549 0.0041950941
0.0021527587 0.024756724 0.0048737824
0.0032409579 0.024847345 0.0040586889
-0.017248869 0.025873303 0.0041610599
-0.01625631 0.026010096 0.0045764148
-0.015067475 0.025829956 0.0046663582
-0.014141078 0.026106605 0.0045937896
-0.013065269 0.026130538 0.0041905046
0.0010676498 0.025623593 0.004031986
0.0021609648 0.025931576 0.0041740537
-0.017333807 0.027084075 0.0043126643
-0.016084161 0.026806936 0.0045881867
-0.015040484 0.026858008 0.0048722327
-0.014196646 0.027301244 0.0046744943
-0.013212919 0.027526915 0.0045625865
0.0010794757 0.026986893 0.00414294
0.0021588095 0.026985118 0.0040597022
-0.01614181 0.027979136 0.0044580102
-0.01510791 0.028057547 0.004753828
-0.01419914 0.028398279 0.0045877993
-0.013061937 0.028300863 0.0043267012
-0.016179277 0.029122699 0.0044323206
-0.015000724 0.028929969 0.004832536
-0.014168344 0.029426564 0.004580617
-0.013092622 0.029458402 0.0041547716
0.0010741377 0.02900172 0.0040178895
0.0021551908 0.029095076 0.0042310059
-0.017297046 0.03026983 0.0044323206
-0.016206602 0.030252321 0.0048025548
-0.015022842 0.030045684 0.0054450035
-0.014410926 0.031038918 0.0054361522
-0.012984593 0.030297386 0.0051387846
0.0021661359 0.030325903 0.0040597022
-0.016004093 0.030941246 0.0047520697
-0.015093362 0.031264823 0.0054450035
-0.014020391 0.03127626 0.0056448281
-0.012996883 0.031409137 0.0052951872
-0.012004939 0.031649388 0.0043185651
-0.0011122602 0.032255545 0.0042046905
0 0.031479631 0.0043494701
0.00107498 0.031174421 0.0040643513
0.0021464129 0.031122986 0.00414294
-0.016229931 0.032459863 0.004198432
-0.015023388 0.032192975 0.0055409372
-0.013844802 0.031949542 0.0058605075
-0.013381048 0.033452623 0.005828619
-0.011855647 0.032333586 0.0055074692
-0.010739661 0.032218985 0.0043457747
-0.0022609388 0.033914082 0.0041891932
-0.0010684592 0.032053776 0.0044275224
0 0.032358509 0.004420042
0.0010756949 0.032270849 0.0041556954
0.0021548965 0.032323446 0.0042285919
-0.014992476 0.033197626 0.0046846271
-0.013996212 0.033375584 0.005828619
-0.012797347 0.033059817 0.0058335066
-0.012335373 0.034763329 0.0057373643
-0.010886525 0.033748228 0.0056615174
-0.0096917842 0.033382814 0.0051348507
-0.0086863674 0.033659674 0.0040836036
-0.0043528276 0.033734415 0.0041793883
-0.0034007435 0.035141017 0.0045917332
-0.0021395334 0.033162769 0.0050462186
-0.0010768286 0.033381686 0.0045917332
0 0.033212177 0.0043101311
-0.015042271 0.034382336 0.004198432
-0.013876593 0.034157768 0.0054427981
-0.012848067 0.034261514 0.005828619
-0.011698034 0.034030646 0.0058421791
-0.011071545 0.035428945 0.005829215
-0.010209439 0.036300231 0.0057812631
-0.0090118498 0.036047399 0.0052725375
-0.0078129927 0.035716537 0.0043649673
-0.0066814404 0.03563435 0.0042405128
-0.005758896 0.036856934 0.0042405128
-0.0044574877 0.035659902 0.0051816106
-0.0031820007 0.03394134 0.00522241
-0.0021737595 0.034780152 0.00522241
-0.0010692634 0.03421643 0.0047500432
0 0.034568582 0.0040873289
-0.014045137 0.03565304 0.004198432
-0.013021143 0.035808142 0.0054427981
-0.011765169 0.035295505 0.0056599975
-0.010721819 0.035382006 0.005828619
-0.0095725637 0.035099402 0.005769968
-0.0085011311 0.035067163 0.0052817464
-0.0074558486 0.035149001 0.0044558942
-0.0064216098 0.035318851 0.0041846931
-0.0052372869 0.034566093 0.0041846931
-0.0042684563 0.035214763 0.0045359135
-0.0032262048 0.035488252 0.0045359135
-0.0021261647 0.035081714 0.0046874881
-0.01298273 0.036784403 0.0042240918
-0.011733999 0.036268722 0.0047569573
-0.010698334 0.036374338 0.0056786239
-0.009683189 0.036580935 0.005497992
-0.0086028725 0.036562208 0.0051958561
-0.0075197848 0.036524668 0.004259944
-0.0064326683 0.036451787 0.0040747225
-0.0053075817 0.036091559 0.0040796697
-0.0042789909 0.036371421 0.0045060813
-0.0032335541 0.036646947 0.0040788949
-0.010782883 0.037740089 0.0044684112
-0.0096444981 0.037506383 0.0045611262
-0.0086248396 0.037733674 0.0045378506
-0.0075479355 0.037739675 0.0042485893
-0.0064185369 0.037441466 0.0041945577
-0.0053769029 0.037638322 0.0040830672
-0.0042992127 0.037618112 0.0041526854
0 0 0 1 0 0 0 1 0 0 0 1 0 0 0 0 0 210 1 0 0
