ply
format ascii 1.0
comment PCL generated
element vertex 231
property float x
property float y
property float z
element camera 1
property float view_px
property float view_py
property float view_pz
property float x_axisx
property float x_axisy
property float x_axisz
property float y_axisx
property float y_axisy
property float y_axisz
property float z_axisx
property float z_axisy
property float z_axisz
property float focal
property float scalex
property float scaley
property float centerx
property float centery
property int viewportx
property int viewporty
property float k1
property float k2
end_header
-0.010881369 -0.043525476 0.004190892
-0.0097506801 -0.043336358 0.0045049489
-0.0087172268 -0.043586131 0.0045264661
-0.0075846133 -0.043340646 0.0043740571
-0.0065108221 -0.043405481 0.0043050945
-0.0054683373 -0.043746699 0.0043034554
-0.0043388754 -0.043388754 0.0044802427
-0.0032711541 -0.04361539 0.0040268302
-0.013011999 -0.046133455 0.0042471886
-0.011674547 -0.045530733 0.0047790706
-0.010677531 -0.046269305 0.0050684214
-0.0095727015 -0.04666692 0.0049525201
-0.008247803 -0.045952048 0.0051678717
-0.0072078188 -0.046850823 0.005187124
-0.005922067 -0.046192124 0.0050230324
-0.0046499143 -0.045336664 0.0050230324
-0.0035716221 -0.046431087 0.0048643649
-0.0022780718 -0.044422399 0.0044656694
-0.01287723 -0.040777896 0.0041303933
-0.011694167 -0.040398031 0.0052365661
-0.010737947 -0.0408042 0.0053327382
-0.0096155647 -0.040599056 0.0053765774
-0.0084607098 -0.040188372 0.0052887499
-0.0075211488 -0.040829096 0.0052823126
-0.0063850493 -0.040438645 0.0052995682
-0.005368703 -0.040802147 0.0052253008
-0.0043026092 -0.040874787 0.0052253008
-0.0032392275 -0.041030217 0.0049484372
-0.0021237044 -0.040350385 0.0048710704
-0.0010828044 -0.041146565 0.004768759
-0.012851089 -0.039624196 0.0043710768
-0.011835748 -0.039811157 0.0055684745
-0.010807209 -0.039986674 0.0054882765
-0.009671336 -0.039759941 0.0054628253
-0.0087501714 -0.040469542 0.0053861737
-0.0075479681 -0.039896406 0.0052413344
-0.0064710402 -0.039904751 0.005307287
-0.0054188236 -0.040099297 0.0052413344
-0.0043062801 -0.039833091 0.0053686202
-0.0032458086 -0.040031642 0.0049937367
-0.0021809065 -0.040346768 0.0049575567
-0.0010843916 -0.040122494 0.0049183965
0 -0.040095661 0.0041695535
-0.013939863 -0.038602695 0.004966855
-0.012996767 -0.0389903 0.0055727959
-0.011955954 -0.039128575 0.0058935285
-0.010795082 -0.038862295 0.0058783889
-0.0097828098 -0.039131239 0.0057012737
-0.0087011466 -0.039155159 0.0056246221
-0.0075790035 -0.038977731 0.0056087971
-0.0065479223 -0.039287534 0.0053123534
-0.0054227817 -0.039044026 0.0052253008
-0.0043254723 -0.03892925 0.0054556727
-0.0032864418 -0.039437301 0.0052937269
-0.0021548003 -0.038786404 0.0051547289
-0.0010843942 -0.039038189 0.0049937367
0 -0.03892462 0.0044831038
0.0010751025 -0.038703687 0.0041659772
-0.015016757 -0.037541892 0.0045026541
-0.014164709 -0.038135756 0.005544126
-0.013014926 -0.037960202 0.0059248805
-0.011964596 -0.03806917 0.0062760413
-0.010851501 -0.037980255 0.0064199269
-0.0097882412 -0.038065385 0.0062727034
-0.0086889723 -0.038014252 0.0060845613
-0.0076567712 -0.038283855 0.0057012737
-0.00652349 -0.038053691 0.005492717
-0.0054428047 -0.038099632 0.0053989589
-0.0043842494 -0.038362183 0.0058456957
-0.0032578269 -0.038007982 0.0056215823
-0.0021806653 -0.038161639 0.005856514
-0.001093137 -0.038259793 0.0056988895
0 -0.037507299 0.0050354898
0.0010828106 -0.037898369 0.0046156645
0.0021609846 -0.037817229 0.0041639507
-0.015099873 -0.036671121 0.0048000515
-0.014065113 -0.036785681 0.0053518713
-0.012856656 -0.036427192 0.0057033896
-0.011989869 -0.037059598 0.0057012737
-0.011011741 -0.037439924 0.0056854486
-0.0098794438 -0.037322346 0.0053861737
-0.00874623 -0.037171476 0.0048300028
-0.0076490552 -0.037152555 0.0044202507
-0.0065609715 -0.03717884 0.0044969022
-0.0055065439 -0.037444498 0.0044330359
-0.0044335476 -0.037685156 0.004689008
-0.0032911496 -0.037299696 0.005201906
-0.0021801598 -0.037062716 0.0052847564
-0.0010840753 -0.036858559 0.0052416027
0 -0.036964025 0.0049600005
0.0010780604 -0.036654051 0.0042988062
0.0021440708 -0.036449205 0.0041334927
-0.016216777 -0.035676908 0.0042223036
-0.015125967 -0.035654064 0.005297035
-0.014046716 -0.035657045 0.0056446791
-0.013017499 -0.035798121 0.0057108998
-0.012001047 -0.036003139 0.0056246221
-0.010866405 -0.035859138 0.0057012737
-0.009820804 -0.036009617 0.005307287
-0.0089089321 -0.036749344 0.004751116
-0.0077650561 -0.036606692 0.0044202507
-0.006652385 -0.036588117 0.0044330359
-0.0055234875 -0.036455017 0.0043459833
-0.0043982528 -0.036285583 0.0046251416
-0.0033175384 -0.036492921 0.0051163435
-0.0021830439 -0.036020223 0.0053686202
-0.0010906206 -0.03599048 0.0056982636
0 -0.035810106 0.0054299831
0.0010808975 -0.035669617 0.0050544739
0.0021956838 -0.03622878 0.0048385859
-0.016282 -0.034734931 0.0046769679
-0.015109454 -0.034535896 0.0053493679
-0.014119835 -0.034756515 0.0055224001
-0.013095945 -0.034922522 0.0055487752
-0.012019508 -0.034965843 0.0055224001
-0.01107276 -0.03543283 0.0053261518
-0.0099387262 -0.035337694 0.0043316782
-0.0022023264 -0.035237223 0.0044675171
-0.0010997149 -0.035190877 0.0050144792
0 -0.03473974 0.0049214363
0.0010918132 -0.034938022 0.0048686564
0.0021524865 -0.034439784 0.0043278635
-0.017366273 -0.033647154 0.0041127205
-0.016274245 -0.033633441 0.0045503974
-0.015299537 -0.033877548 0.0050778389
-0.014124964 -0.033682611 0.0052882135
-0.013100692 -0.033843458 0.0053167939
-0.012185634 -0.034341335 0.0051824749
-0.010946691 -0.033934746 0.0043316782
-0.0010947017 -0.033935755 0.0042364895
0 -0.034471087 0.0049088895
0.0010801721 -0.033485338 0.0048686564
0.0021660388 -0.033573605 0.0043950081
0.003271075 -0.033801112 0.0041923225
-0.017227633 -0.03230181 0.0042637885
-0.016470551 -0.032941103 0.004561305
-0.01526415 -0.032708894 0.0049368143
-0.014005972 -0.032321475 0.0051154196
-0.013230077 -0.033075195 0.0050467551
-0.012049542 -0.032862388 0.0048374832
0 -0.033281524 0.0042954981
0.0010828092 -0.032484274 0.0045005977
0.0021793398 -0.032690097 0.0047630668
0.0032401381 -0.032401379 0.0042558908
-0.01750011 -0.031718951 0.0042617321
-0.016355058 -0.03161978 0.0044314861
-0.015066133 -0.031208418 0.0049221516
-0.014321454 -0.031947859 0.0047438145
-0.013199675 -0.031899214 0.004794389
0 -0.031712435 0.0041132271
0.0011009484 -0.031927504 0.0043950081
0.0021673332 -0.031426329 0.0046959221
0.0032423744 -0.031342953 0.0042558908
-0.017491536 -0.030610189 0.0041045249
-0.016357042 -0.030533144 0.0044314861
-0.015344542 -0.030689083 0.0049241781
-0.014124826 -0.030422701 0.0047438145
-0.013192528 -0.030782565 0.0047076643
0.0010904988 -0.030533966 0.0044297576
0.0021545789 -0.030164106 0.0043950081
0.003277072 -0.030586004 0.0042558908
-0.016298737 -0.029337727 0.0040792525
-0.015221186 -0.029355146 0.0041042864
-0.014169926 -0.029429846 0.0041151941
-0.013263376 -0.0298426 0.0041199028
0 -0.029888816 0.0041864216
0.0010808907 -0.029184049 0.0044782162
0.0021829321 -0.029469585 0.0043905079
0.003253724 -0.029283518 0.0042412281
0.0043197107 -0.029158048 0.0041844249
-0.016377123 -0.028387014 0.0040792525
-0.014966588 -0.027795091 0.0041151941
-0.014218905 -0.02843781 0.004478097
-0.013121784 -0.028430531 0.0044046342
0 -0.028297722 0.0041938126
0.0010834419 -0.02816949 0.0044536293
0.0021587103 -0.028063234 0.0044545829
0.0032285231 -0.027980532 0.0043026209
-0.015229512 -0.027195558 0.004419595
-0.014091481 -0.027099002 0.0045153499
-0.013182991 -0.027464565 0.0045315623
-0.0010890302 -0.027225755 0.0040415227
0 -0.02789983 0.0045817792
0.0010849527 -0.02712382 0.0048524141
0.0021460296 -0.02682537 0.0046122372
0.0032704778 -0.027253984 0.0045130551
-0.015156893 -0.025983246 0.0040464401
-0.014066739 -0.025969364 0.0042740405
-0.013295971 -0.026591942 0.0044524968
-0.012079753 -0.026355824 0.0041696727
-0.010845406 -0.026028974 0.0040157139
-0.0011066649 -0.026559956 0.004656285
0 -0.026130568 0.005251199
0.0010721539 -0.025731692 0.0053999424
0.0021660775 -0.02599293 0.0049467385
0.0032415793 -0.025932634 0.004431963
-0.015095227 -0.024799304 0.0040590763
-0.014102807 -0.024951121 0.0043832064
-0.012950352 -0.024821509 0.0046637356
-0.012331866 -0.025784811 0.0045680404
-0.010929148 -0.025137041 0.0042369664
-0.0032723683 -0.025088159 0.0040011704
-0.0021570199 -0.024805728 0.0047698617
-0.0011291071 -0.025969464 0.0054995418
0 -0.024755634 0.0055062175
0.0010837553 -0.024926372 0.0054223835
0.0021722387 -0.024980744 0.0050630271
0.0032449756 -0.024878148 0.004431963
-0.014100827 -0.023862939 0.004126966
-0.012912732 -0.023673341 0.0046176016
-0.011743123 -0.023486245 0.0045800805
-0.011277607 -0.024810735 0.0043352842
-0.0099143395 -0.024235051 0.0043023527
-0.0043412708 -0.023876989 0.0042563677
-0.0033082608 -0.024260579 0.0050626993
-0.0022392706 -0.024631977 0.0053033233
-0.0010677123 -0.023489669 0.0056593418
0 -0.023868803 0.0054995418
0.0010846987 -0.023863371 0.0052919686
0.0021542783 -0.02369706 0.0049985051
-0.012994803 -0.022740904 0.0040092468
-0.011992432 -0.022894645 0.0041490495
-0.004498458 -0.023616906 0.0042547286
-0.0032780154 -0.022946108 0.0049586892
-0.0021372738 -0.022441374 0.0050626993
-0.0010744316 -0.022563063 0.0051778853
0 -0.022625791 0.0049642026
0.0010788158 -0.022655131 0.004539758
-0.0032155879 -0.021437252 0.0042210519
-0.0021530152 -0.021530151 0.004254967
-0.0010860789 -0.021721577 0.0042563677
0 0 0 1 0 0 0 1 0 0 0 1 0 0 0 0 0 231 1 0 0
