ply
format ascii 1.0
comment PCL generated
element vertex 411
property float x
property float y
property float z
element camera 1
property float view_px
property float view_py
property float view_pz
property float x_axisx
property float x_axisy
property float x_axisz
property float y_axisx
property float y_axisy
property float y_axisz
property float z_axisx
property float z_axisy
property float z_axisz
property float focal
property float scalex
property float scaley
property float centerx
property float centery
property int viewportx
property int viewporty
property float k1
property float k2
end_header
-0.0097895293 0.081579417 0.0041899085
-0.0086054206 0.080675825 0.0041916668
-0.011892222 0.082164444 0.0044728816
-0.010870483 0.082615674 0.0044265985
-0.0097214701 0.082092419 0.0044155419
-0.0086853513 0.082510844 0.0046287477
-0.0076612397 0.083179176 0.0042513311
-0.0064631714 0.081866845 0.0041366518
-0.0053651901 0.081550889 0.0041385889
-0.0043344391 0.082354344 0.0040430427
-0.003214058 0.081422806 0.0040207207
-0.0021541193 0.081856541 0.0040113926
-0.014498731 0.085877098 0.0040294528
-0.013098605 0.084049389 0.0041325688
-0.012135616 0.084949307 0.0046359599
-0.01113244 0.085719794 0.004424721
-0.0099082477 0.084770568 0.0044255853
-0.0088140089 0.084834829 0.0050600767
-0.0077503226 0.085253544 0.0045817196
-0.006556822 0.084145881 0.0045817196
-0.0055761593 0.085872859 0.0046938658
-0.0044239271 0.085160598 0.0043072104
-0.0033318466 0.085517392 0.0040834248
-0.015664924 0.087276004 0.0041444302
-0.013997395 0.083984368 0.0044324398
-0.012972614 0.084321991 0.004581064
-0.011789064 0.083595179 0.0050037503
-0.010621682 0.082849123 0.0050766766
-0.0097313039 0.084337972 0.0050962269
-0.0086289495 0.084132254 0.0050852597
-0.0075301463 0.083907343 0.005079627
-0.0066241361 0.086113773 0.0049136579
-0.0053853486 0.084011436 0.00500983
-0.004324913 0.084335797 0.00500983
-0.003304617 0.085920043 0.0046014488
-0.0021709132 0.084665611 0.0042539835
-0.0010849277 0.084624365 0.0044111013
0.0010769679 0.084003501 0.0040118694
-0.015250757 0.086057842 0.0045666695
-0.013898297 0.08445888 0.0047392547
-0.012795718 0.084238485 0.0051380694
-0.011578931 0.08315777 0.0055716932
-0.0105766 0.083555147 0.0053468049
-0.0095006451 0.08339455 0.0056358576
-0.0084430575 0.083375193 0.0057689548
-0.0074683954 0.084286176 0.0052523017
-0.0063339029 0.083396383 0.0053135157
-0.0052760341 0.083361335 0.0053677559
-0.0042623351 0.084181115 0.0053479373
-0.0031643372 0.083327547 0.0052704513
-0.0021098291 0.083338253 0.0051088035
-0.0010564197 0.08345715 0.0042578876
0 0.083277822 0.0040447712
-0.015000031 0.085714467 0.0047939122
-0.013796104 0.084899098 0.0050893724
-0.012685617 0.08457078 0.0057218075
-0.011768669 0.085590318 0.0063526928
-0.010674957 0.085399657 0.0062851012
-0.0095703499 0.085069776 0.0060050189
-0.0085743666 0.085743666 0.0059776902
-0.0074351146 0.084972739 0.0056180358
-0.0063667474 0.084889963 0.0057984591
-0.0053506382 0.085610211 0.0061478317
-0.0042636464 0.085272923 0.0059396029
-0.0031909861 0.085092962 0.0059189498
-0.0021350093 0.085400373 0.0054028034
-0.001063867 0.085109361 0.0053620934
0 0.085248329 0.0051337183
0.0010969914 0.087759309 0.0044858456
0.0021738734 0.086954936 0.0041906536
-0.016266556 0.087839402 0.0045570731
-0.014772035 0.085466772 0.0049821734
-0.013725766 0.085522078 0.0054648221
-0.012794901 0.086365581 0.0062334836
-0.011736041 0.086419933 0.0063580573
-0.010553297 0.085481703 0.0063124299
-0.0096544521 0.086890064 0.0060050189
-0.0084884837 0.085945889 0.0058661997
-0.007396386 0.085586749 0.0058609843
-0.0064253383 0.086742066 0.0056180358
-0.0053145876 0.086096324 0.0057984591
-0.0042522633 0.086108327 0.0055501163
-0.0031962562 0.08629892 0.0059852004
-0.002124774 0.086053342 0.0058777332
-0.0010571972 0.085632972 0.0053784251
0 0.085933357 0.0052704513
0.0010507429 0.085110165 0.0045383871
0.0022208712 0.089945279 0.0043082237
-0.017834645 0.09140256 0.0044324398
-0.016005216 0.087495185 0.0049170256
-0.014830013 0.086861506 0.0057111979
-0.013795123 0.087015398 0.0062334836
-0.012826625 0.087648615 0.0066798925
-0.011683671 0.08709646 0.0067766905
-0.010723107 0.087929487 0.0063871443
-0.0096911183 0.088296868 0.0060542226
-0.0086787883 0.088957585 0.0060961545
-0.0076737152 0.089892097 0.0058797598
-0.0065289894 0.089229524 0.0056327879
-0.0054433933 0.089271657 0.0059449971
-0.00429988 0.088147543 0.0057566166
-0.0031619009 0.086425297 0.00604707
-0.0021281552 0.08725436 0.0059396029
-0.0010727484 0.087965377 0.0056982636
0 0.086506002 0.0053808689
0.0010637885 0.08723066 0.0050075054
0.0021428494 0.087856829 0.0044262707
-0.0169849 0.088109173 0.0052278936
-0.015882758 0.087884597 0.0063434243
-0.014974724 0.088778727 0.0070329309
-0.013893036 0.088701695 0.0075286925
-0.012684938 0.087737493 0.0077390075
-0.011868941 0.08955656 0.0078358054
-0.010807337 0.089700907 0.0073019862
-0.0097411238 0.089834809 0.0070552826
-0.0086706784 0.089958295 0.0065387487
-0.0075282659 0.08926373 0.0064070821
-0.0064659449 0.089445576 0.0063948035
-0.0054296576 0.090132326 0.0066259503
-0.0043696347 0.090669915 0.0066733956
-0.003265115 0.090334848 0.0067251921
-0.0021401183 0.088814907 0.0066858828
-0.001058546 0.087859318 0.0069845915
0 0.088924989 0.0066858828
0.0010675015 0.088602632 0.0058510303
0.0021041769 0.087323345 0.0053806007
0.0033335336 0.092227772 0.0044023693
-0.016983101 0.089161284 0.0051165223
-0.016037628 0.089810722 0.0062993169
-0.014928004 0.089568026 0.0071881413
-0.013811662 0.089244589 0.0079014897
-0.012964198 0.09074939 0.0075938106
-0.011926004 0.091071308 0.0077646077
-0.010715435 0.09000966 0.0071933568
-0.0097169271 0.090691328 0.006939739
-0.0085651577 0.089934155 0.0064018667
-0.0075361975 0.090434372 0.0061548948
-0.0064845514 0.090783723 0.0060160458
-0.0053702574 0.090220325 0.0065074861
-0.0042774654 0.089826778 0.0066875517
-0.0032258893 0.090324901 0.0067820251
-0.0021939476 0.092145801 0.0069540739
-0.0010622535 0.089229301 0.007135421
0 0.089359894 0.007135421
0.0010576587 0.088843331 0.0069493949
0.0021370195 0.08975482 0.0058451593
0.0032523836 0.091066748 0.0047663152
-0.018062027 0.090310134 0.0042649806
-0.017039372 0.090521663 0.0054004192
-0.016025957 0.090813763 0.0068717003
-0.014842857 0.090117343 0.0070411563
-0.014018583 0.091659963 0.0077687204
-0.013054948 0.092472553 0.0074882805
-0.011792747 0.091125771 0.0074272156
-0.010931236 0.092915505 0.0068603456
-0.0096894773 0.091511734 0.0060941875
-0.0086366832 0.091764756 0.0056800842
-0.0075207013 0.091322802 0.0055989027
-0.0064995238 0.092076585 0.0054006577
-0.0053916974 0.09165886 0.0056800842
-0.0043139514 0.091671459 0.0059663057
-0.0032317736 0.09156692 0.0065169632
-0.0021485835 0.091314808 0.0064934194
-0.001097801 0.093313091 0.0066643655
0 0.090388142 0.0069665015
0.0010692914 0.090889767 0.0068332851
0.0021362971 0.090792626 0.0069215
0.0031473201 0.089174069 0.0051834881
-0.017938396 0.090747178 0.0042649806
-0.017075475 0.091780677 0.0056496859
-0.015901612 0.091169246 0.0069102645
-0.014986254 0.09205842 0.0070411563
-0.014041635 0.092890821 0.0077575743
-0.012888111 0.092364796 0.0074535012
-0.01189423 0.092991255 0.0070773661
-0.010802886 0.092904828 0.0062269568
-0.0096941851 0.092633329 0.005797565
-0.0087238206 0.093781069 0.0052509308
-0.007607399 0.093462333 0.0051102936
-0.0065015685 0.09318915 0.0050145686
-0.0054247086 0.093304992 0.0051288605
-0.0043165162 0.092805095 0.0055172741
-0.0032392433 0.092858307 0.0062019825
-0.0021646544 0.093080141 0.0064779818
-0.0010857348 0.093373194 0.0067763627
0 0.093968175 0.0069665015
0.001068745 0.091912076 0.0071033537
0.0021172029 0.091039717 0.0069988072
0.00316449 0.090715386 0.0057725608
0.004292672 0.092292443 0.0043189824
0.0055576363 0.095591351 0.0041807294
-0.018145725 0.092863411 0.0049743056
-0.016907588 0.091935009 0.0060222149
-0.016038101 0.093020983 0.0070773661
-0.014969355 0.093023852 0.0072082579
-0.013895814 0.092995062 0.0077653825
-0.012967939 0.094017565 0.0075556934
-0.011962127 0.094609551 0.0070274472
-0.010799695 0.09395735 0.0062630177
-0.0097047295 0.093812384 0.0056180656
-0.0085954098 0.093475081 0.0049743056
-0.0075734472 0.094127126 0.004907012
-0.006513583 0.09444695 0.0047926009
-0.0053816927 0.093641452 0.0049644113
-0.0043080915 0.093700983 0.0053187311
-0.0032650973 0.094687819 0.0059055984
-0.0021425639 0.093201533 0.0062653124
-0.0010823143 0.094161339 0.0067060292
0 0.093814321 0.0069036186
0.0010482927 0.091201462 0.0069940984
0.0021464964 0.093372591 0.0068061948
0.0031641074 0.091759115 0.0056213737
0.0042277779 0.091954164 0.0043915808
0.0054597398 0.094999477 0.0041928887
-0.018252594 0.094484016 0.0054064989
-0.017065398 0.093859687 0.0062993169
-0.015972614 0.093706004 0.0072220564
-0.014888229 0.093583152 0.007371664
-0.014277782 0.096649602 0.0080024004
-0.012867604 0.09436243 0.0079642832
-0.011836711 0.094693691 0.0072689354
-0.010818472 0.095202558 0.0063871443
-0.0096637663 0.094490163 0.0055044591
-0.0085571082 0.094128191 0.005210042
-0.0075799166 0.095290378 0.0047986209
-0.0064448044 0.094523795 0.0046202838
-0.0053785876 0.094663143 0.0049357712
-0.0043434785 0.095556527 0.0051607788
-0.0032228401 0.094536647 0.0056320131
-0.0021560956 0.094868205 0.0062159896
-0.0010771642 0.094790444 0.006812185
0 0.094413407 0.0070092678
0.001064301 0.093658492 0.0067682266
0.0021258437 0.093537122 0.0061615407
0.003186217 0.093462363 0.0056672096
0.004275593 0.094063044 0.0044378638
0.0053520892 0.094196774 0.004262805
-0.018131783 0.094925217 0.0051612556
-0.017094478 0.095088035 0.0062915087
-0.015795577 0.093720421 0.0072442293
-0.015018634 0.095475599 0.007371664
-0.01413879 0.096796326 0.0080954134
-0.012777297 0.094764948 0.0079990625
-0.011835713 0.095761672 0.0074218214
-0.010812177 0.096228376 0.0065387487
-0.009712765 0.096048459 0.005903542
-0.0087101776 0.096900724 0.0054731667
-0.0075067696 0.095443211 0.0051906407
-0.0064724735 0.09600836 0.0051158965
-0.0054191989 0.096461736 0.0052499175
-0.0043114303 0.095929325 0.0055710375
-0.0032484604 0.096370995 0.0061155856
-0.0021593636 0.096091673 0.0068074763
-0.0010901074 0.097019546 0.0070852637
0 0.096421249 0.007108897
0.0010699301 0.095223777 0.0066182613
0.0021140096 0.09407343 0.0059382617
0.0032022146 0.09499903 0.0054066181
0.0042811953 0.095256597 0.0043107867
-0.01822925 0.096507795 0.0044519305
-0.016935118 0.095260032 0.0066815019
-0.015993167 0.095959008 0.0073529482
-0.015000655 0.09643279 0.0077484548
-0.013849909 0.095883995 0.0081794858
-0.013100159 0.098251201 0.0079986155
-0.01185427 0.09698949 0.0083536804
-0.010703538 0.09633185 0.0074127614
-0.0097670099 0.097670101 0.0063894093
-0.0085528037 0.096219048 0.0056827366
-0.0075310855 0.096828245 0.0054697692
-0.0065496848 0.098245278 0.0052028894
-0.0053699156 0.096658483 0.0053541064
-0.0043146075 0.097078666 0.0057330728
-0.0032422687 0.097268067 0.0068313777
-0.0021226397 0.09551879 0.0070571899
-0.0010985095 0.098865867 0.007355243
0 0.096681736 0.0072742701
0.0010526441 0.094737969 0.0071159601
0.0021348943 0.096070245 0.0060705245
0.003196226 0.095886782 0.0055639148
0.0042494112 0.095611751 0.0043559074
-0.017983148 0.096262731 0.004237622
-0.016988758 0.096623562 0.006141901
-0.015927536 0.096627049 0.0072289407
-0.014763822 0.095964842 0.0078110397
-0.013924357 0.0974705 0.0084027648
-0.013189397 0.1000196 0.0086470842
-0.011764213 0.097322136 0.0086682737
-0.010816066 0.098426208 0.0080046654
-0.0097424993 0.098507501 0.0072634518
-0.0086190626 0.098041847 0.0064361989
-0.0075823814 0.098570965 0.0061534643
-0.006420604 0.097379163 0.0056897998
-0.0053682164 0.097701542 0.0057330728
-0.0043477206 0.098910652 0.0070225298
-0.0031925447 0.096840523 0.007291317
-0.0021998605 0.10009366 0.0074302256
-0.001083114 0.098563373 0.0076607168
0 0.096215501 0.0075046718
0.00106605 0.09701056 0.0071361065
0.0021332703 0.097063795 0.005967021
0.0031695357 0.09614259 0.0054696798
0.0042690039 0.097119845 0.0043518841
-0.016908288 0.097222656 0.0058356225
-0.015885044 0.09742827 0.007371664
-0.014983629 0.098463848 0.0079209805
-0.013697515 0.096936271 0.0087958574
-0.012758844 0.097817808 0.0088412166
-0.012129629 0.10144781 0.0088715553
-0.010942076 0.1006671 0.0087432861
-0.0096056759 0.098191358 0.0082665384
-0.0086281663 0.099223912 0.0076022744
-0.0074489154 0.097900033 0.0071803331
-0.0064324467 0.098630853 0.0069018304
-0.0053917426 0.099208064 0.0070042014
-0.0042633577 0.098057225 0.0077762604
-0.0032671089 0.10019134 0.0082695484
-0.0021955753 0.10099646 0.0082166791
-0.0010613111 0.097640626 0.0083967745
0 0.099138886 0.007704854
0.0010641041 0.097897582 0.0071601272
0.0021134522 0.097218804 0.0060705245
0.0032214725 0.098791823 0.0049979985
0.0043108948 0.099150576 0.0040338933
-0.016968342 0.098628491 0.0045353472
-0.01603392 0.099410303 0.0063121915
-0.01483581 0.098552175 0.0076341927
-0.013656826 0.09769883 0.0085693896
-0.012714805 0.09853974 0.0089385808
-0.011865668 0.10031883 0.0091868341
-0.01071105 0.099612772 0.0089947879
-0.0098964628 0.10226346 0.0088665187
-0.0088153509 0.10247845 0.0087054372
-0.0076044514 0.10103057 0.0087054372
-0.0065842695 0.10205618 0.0077559352
-0.0055366582 0.10298185 0.0081258118
-0.0043408372 0.10092447 0.0087625086
-0.0032687015 0.10132975 0.0087303221
-0.0021092044 0.098078012 0.0085454881
-0.001059838 0.098564938 0.0086172819
0 0.098255917 0.0072986782
0.0010676184 0.099288508 0.0068282485
0.0021335548 0.099210292 0.0056135654
0.0032430452 0.10053441 0.0044266582
-0.015936961 0.099871621 0.0047571659
-0.01479521 0.099339269 0.0064549148
-0.01386214 0.10023393 0.0078631341
-0.012756895 0.09992902 0.0084984303
-0.011477266 0.098078452 0.0088066161
-0.010739538 0.10095166 0.0088700354
-0.0097157992 0.10147613 0.0087151825
-0.0084966412 0.09983553 0.0087054372
-0.0075778053 0.1017591 0.0085930228
-0.0063811992 0.099972121 0.0077559352
-0.0053267423 0.10014276 0.0081258118
-0.0043123164 0.10133944 0.0086942911
-0.0031392144 0.098362051 0.0086048245
-0.002131067 0.10016014 0.0081258118
-0.0010613286 0.099764884 0.007291317
0 0.099558733 0.006913662
0.001069698 0.10055162 0.0055639148
0.002131067 0.10016014 0.0041071773
-0.015017706 0.10190586 0.0045462847
-0.013817395 0.10097327 0.0068143308
-0.012697109 0.10051878 0.0079649389
-0.011692648 0.10098197 0.0084987283
-0.010568661 0.10040227 0.0087833107
-0.0094301226 0.099540189 0.0086638927
-0.0084861964 0.10077359 0.0086005628
-0.0073298365 0.099476352 0.008292526
-0.0062850933 0.099513978 0.0077559352
-0.0053077471 0.1008472 0.0080955327
-0.0042375312 0.10064136 0.0084782839
-0.0031787481 0.10066036 0.0084480047
-0.0021156373 0.10049278 0.0070981383
-0.0010594298 0.10064583 0.0070402622
0 0.10120409 0.0057144761
0.0010587178 0.1005782 0.004078418
-0.013802669 0.1019274 0.0046909451
-0.012771024 0.10216819 0.0062063932
-0.011770157 0.10272138 0.0078608394
-0.01049453 0.1007475 0.0082413256
-0.0095101614 0.10144173 0.0081416965
-0.0084662316 0.10159478 0.0081403852
-0.0074447999 0.10210011 0.0077598989
-0.006388972 0.10222355 0.0071530044
-0.0052730329 0.10124223 0.0072772205
-0.0042360881 0.10166611 0.0072986782
-0.0031881595 0.10202111 0.0072795153
-0.002122388 0.10187462 0.0063861907
-0.0010695636 0.1026781 0.0056163967
-0.012755934 0.10311047 0.0047868192
-0.011604463 0.10233027 0.0057232976
-0.010730257 0.10408349 0.0067706406
-0.009561264 0.10304918 0.0073432922
-0.0084770517 0.10278425 0.0067252815
-0.0074579786 0.10334627 0.0066190362
-0.0063430266 0.1025456 0.0063867271
-0.0052993591 0.10280757 0.0063861907
-0.0042770496 0.10371844 0.0064213276
-0.0031875875 0.10306533 0.0056282878
-0.0021209416 0.10286567 0.0042086244
-0.010587323 0.10375576 0.0043796897
-0.0095429802 0.10391245 0.0050336719
-0.008554602 0.10479388 0.0050336719
-0.0074076806 0.10370752 0.0049212575
-0.0063720685 0.10407712 0.0048013628
-0.0053377659 0.10462022 0.0047724545
-0.0086045582 0.10648142 0.0040881932
-0.0075284922 0.10647439 0.0040881932
-0.006465314 0.10667769 0.0040099025
0 0 0 1 0 0 0 1 0 0 0 1 0 0 0 0 0 411 1 0 0
