ply
format ascii 1.0
comment PCL generated
element vertex 329
property float x
property float y
property float z
element camera 1
property float view_px
property float view_py
property float view_pz
property float x_axisx
property float x_axisy
property float x_axisz
property float y_axisx
property float y_axisy
property float y_axisz
property float z_axisx
property float z_axisy
property float z_axisz
property float focal
property float scalex
property float scaley
property float centerx
property float centery
property int viewportx
property int viewporty
property float k1
property float k2
end_header
-0.0085749356 0.048234012 0.004242599
-0.0075182579 0.048331663 0.0041578412
-0.0065044602 0.048783455 0.0041880906
-0.0053814878 0.048433393 0.0040845275
-0.011309754 0.052024871 0.004435122
-0.010148306 0.051869124 0.0049661398
-0.009031849 0.051933136 0.0054656267
-0.0079223122 0.052060913 0.005223304
-0.0067613889 0.051837318 0.0052003264
-0.0056310468 0.051805634 0.0046307743
-0.004559237 0.052431226 0.0046079457
-0.0033813391 0.051847201 0.004204303
-0.0022409342 0.051541489 0.0042561889
-0.011815741 0.05048544 0.0051495731
-0.010638753 0.050002139 0.0055932105
-0.0095400196 0.049820103 0.0054656267
-0.0085991342 0.050519913 0.0056023002
-0.0074143899 0.049782332 0.0055883527
-0.0064368281 0.050421823 0.0056221783
-0.0053714714 0.050491832 0.0055406392
-0.0042476403 0.049909774 0.005223304
-0.0031937927 0.050036088 0.0046761036
-0.0021436408 0.050375558 0.0045204759
-0.0010524516 0.04946522 0.0045931041
0 0.052448265 0.0041009188
-0.01281042 0.051241681 0.0048242509
-0.011769679 0.051358603 0.0056776106
-0.010584197 0.050804146 0.0057114363
-0.0096772267 0.051611874 0.0055974424
-0.0085317316 0.051190387 0.0056307018
-0.007481711 0.051303159 0.0055974424
-0.006464364 0.051714912 0.0057321489
-0.0052942284 0.050824597 0.005608201
-0.0042648013 0.05117761 0.0055814087
-0.0032102934 0.051364694 0.0055098832
-0.0021522157 0.051653177 0.0047514141
-0.0010608614 0.050921347 0.0048389435
0 0.052188512 0.0044176579
0.0010810822 0.051891942 0.0040547252
-0.013957677 0.052609704 0.0048242509
-0.012886452 0.052619681 0.005715102
-0.011834714 0.052718267 0.0059059262
-0.010760736 0.052727606 0.0059517026
-0.0096569117 0.052576516 0.0057659745
-0.0086637605 0.053065531 0.0059582889
-0.0075201425 0.052640993 0.0056221783
-0.0064206771 0.052435528 0.0057798028
-0.0053822151 0.052745707 0.0056907833
-0.0043330048 0.053079303 0.0057126582
-0.0032164156 0.052534789 0.0055653751
-0.0021323266 0.052242 0.0050067604
-0.0010742832 0.052639876 0.0049316585
0 0.052020218 0.0047337413
0.0011294802 0.055344529 0.0045638978
-0.015088169 0.053886317 0.0041468143
-0.013916481 0.05352493 0.0056568086
-0.012943492 0.053931221 0.0060488582
-0.011786535 0.053575166 0.0060511827
-0.010809477 0.054047391 0.0060060024
-0.0095641427 0.053134128 0.0059360266
-0.008647088 0.054044299 0.006000489
-0.0074788928 0.053420663 0.0057191253
-0.0064390493 0.053658746 0.0057708323
-0.0053890455 0.053890459 0.0058027804
-0.0042668269 0.053335335 0.0059462488
-0.0032023671 0.053372785 0.005836606
-0.0021671325 0.054178309 0.0056190193
-0.001074682 0.053734101 0.0052713752
0 0.05328653 0.0049649477
0.0010722013 0.053610068 0.0047490001
-0.015052174 0.054832924 0.0054754913
-0.013846933 0.054322582 0.0056331456
-0.012941652 0.055002023 0.0058876574
-0.011837415 0.054882564 0.0058552325
-0.010812773 0.055145144 0.0056270361
-0.0099557461 0.056415901 0.0054043531
-0.0087987324 0.056091923 0.0053426325
-0.0076831593 0.055977307 0.0047547221
-0.0066388077 0.056429867 0.0046199858
-0.0055007744 0.056107901 0.0050599873
-0.0043271943 0.055171724 0.0052410364
-0.003235667 0.05500634 0.0053751469
-0.0021428699 0.054643184 0.0053764284
-0.0010753765 0.054844201 0.0052918196
0 0.054825857 0.0050549507
0.0010522105 0.053662732 0.0048732162
0.0022121861 0.056410745 0.0045292377
-0.016205996 0.056180786 0.0056027174
-0.014923049 0.055428468 0.0058827996
-0.013888908 0.05555563 0.0059764683
-0.012971646 0.056210469 0.0063001812
-0.011940053 0.056443885 0.0062674284
-0.010920577 0.056787003 0.0058275163
-0.0097752307 0.056479111 0.005425781
-0.0086348969 0.056126829 0.0052168965
-0.0075893155 0.056377772 0.0048362911
-0.0065013971 0.05634544 0.0048068166
-0.0054207346 0.056375641 0.0051498413
-0.0044252267 0.057527948 0.0053512752
-0.0032683823 0.056651957 0.0054119527
-0.0021461823 0.055800743 0.0054120421
-0.0010799338 0.056156557 0.0055485666
0 0.055895753 0.0053169131
0.0010761245 0.055958472 0.0051447749
0.0021450941 0.055772446 0.0048014224
-0.017077208 0.05656825 0.0053443313
-0.015938917 0.056317504 0.0058037639
-0.015199033 0.057539195 0.0059785545
-0.01398732 0.057025228 0.0060581565
-0.013003719 0.057433091 0.0060994923
-0.011975421 0.057699755 0.0058843195
-0.010805264 0.057267901 0.0055404902
-0.009772623 0.05754989 0.0052545071
-0.0087679718 0.058087811 0.0043722093
-0.007584753 0.057427414 0.0043163598
-0.0065377411 0.057750043 0.0043110251
-0.0054558571 0.057832085 0.0043408275
-0.0043091974 0.057096865 0.005035758
-0.003267691 0.057729207 0.0052869916
-0.0022116189 0.058607899 0.0052869916
-0.001068161 0.056612533 0.0057676136
0 0.057061225 0.0056342781
0.001075596 0.057006586 0.0053446889
0.0021205863 0.056195535 0.0051554441
0.0032890888 0.058107235 0.0049143434
-0.017024269 0.057456911 0.0056240559
-0.016117563 0.058023233 0.0058827996
-0.01503087 0.057976212 0.0060750842
-0.013941118 0.057909265 0.0059938431
-0.013082805 0.058872625 0.0059764683
-0.011950891 0.058668014 0.0055653751
-0.010881457 0.058759872 0.0053305328
-0.0098411851 0.059047114 0.0043288171
-0.0075890301 0.058543947 0.0040513873
-0.0054283855 0.058626566 0.0041979551
-0.0043372693 0.058553141 0.0041303337
-0.0032689741 0.058841538 0.0047625303
-0.0021675059 0.058522664 0.0049000084
-0.001091679 0.058950666 0.005035758
0 0.057880558 0.0055155158
0.0010662995 0.057580177 0.0053886175
0.002165935 0.058480244 0.0051665306
0.0032028079 0.057650544 0.0047888756
-0.0180835 0.058505438 0.004842788
-0.017297691 0.059460815 0.0054664016
-0.016090451 0.05899832 0.0058050156
-0.015077407 0.059232671 0.0058851242
-0.014120125 0.05973899 0.0058728755
-0.012982067 0.059501141 0.0058344305
-0.011884461 0.059422307 0.0053305328
-0.010877217 0.059824698 0.0043288171
-0.0098449616 0.060163658 0.0040513277
-0.0032419672 0.059436064 0.0041670501
-0.0021695599 0.059662897 0.0047480762
-0.001097113 0.060341217 0.0052115619
0 0.058836352 0.0056381822
0.0010719233 0.058955777 0.0056342781
0.0021336784 0.058676161 0.0053446889
0.0032044554 0.05874835 0.0049983859
0.0043133488 0.059308551 0.004160732
-0.018138897 0.059751656 0.0048159659
-0.017119002 0.059916507 0.0053219795
-0.015990846 0.059699155 0.0056980848
-0.015095096 0.060380384 0.005852133
-0.014016462 0.060378607 0.0058026314
-0.01297693 0.060559005 0.0056027174
-0.011945493 0.06081342 0.0044768751
-0.010874121 0.060895082 0.0040800869
-0.0021647157 0.060612038 0.0042554736
-0.0010808581 0.060528051 0.0049717724
0 0.060697321 0.005436182
0.0010682977 0.059824668 0.0054490566
0.0021283631 0.059594166 0.005754739
0.003220937 0.060124159 0.0051486194
0.0042952155 0.060133014 0.0046814084
-0.018245414 0.061175797 0.004881531
-0.016957706 0.060411826 0.00515607
-0.01615905 0.061404392 0.0056105256
-0.015038355 0.061227586 0.0055041611
-0.01394024 0.061122593 0.0053648055
-0.013054262 0.06200774 0.0053332448
-0.011975877 0.062056817 0.004453361
-0.0021677087 0.061779696 0.004452318
-0.0010891161 0.06207962 0.0049381256
0 0.06159465 0.0054289103
0.0010551304 0.060142428 0.0054119527
0.0021613101 0.061597336 0.0050474405
0.0032116731 0.06102179 0.0045872033
0.0042592012 0.060693614 0.004083544
-0.018123182 0.061832033 0.0046650171
-0.017278796 0.062635638 0.0051271319
-0.016082816 0.062186889 0.005628258
-0.014959611 0.061975531 0.0056179166
-0.013999632 0.062459897 0.0054746866
-0.013095994 0.063297309 0.0053339005
-0.011809759 0.062269643 0.0044240355
-0.0021597045 0.062631428 0.0043876171
-0.0010993534 0.063762493 0.0049072206
0 0.062341701 0.0051994622
0.0010709312 0.062114011 0.0054433644
0.0021460666 0.062235937 0.005436182
0.0031815779 0.061510511 0.0045743287
0.00432094 0.062653631 0.0040464401
-0.018192526 0.063138768 0.0045005083
-0.017056594 0.062896192 0.0048125982
-0.016039994 0.063090645 0.0053193867
-0.015054701 0.063444816 0.0058154762
-0.014327739 0.065025896 0.0058027804
-0.012953836 0.063689694 0.0051653385
-0.011985292 0.064284749 0.0046457946
-0.010871694 0.064143002 0.0040264428
-0.0032455863 0.063829869 0.0042645335
-0.0021702722 0.064023025 0.0047426522
-0.0010879209 0.064187333 0.0049501061
0 0.063514866 0.0053365529
0.001070548 0.063162327 0.0054291785
0.0021415588 0.063175984 0.0055171251
0.0032086696 0.06310384 0.0045924485
0.004282719 0.063170105 0.0040464401
-0.018288342 0.064547092 0.0040249228
-0.017106315 0.064148687 0.0049659908
-0.016191445 0.064765781 0.0056605041
-0.014973298 0.064171277 0.0061783791
-0.01416348 0.065369904 0.0061532259
-0.012990354 0.06495177 0.0056060553
-0.011938498 0.065119088 0.0051653385
-0.01084604 0.065076247 0.004552871
-0.0043390477 0.065085717 0.0040481091
-0.0032545361 0.065090723 0.0044423938
-0.0021756333 0.065269001 0.0049363971
-0.0010732339 0.064394034 0.0057849288
0 0.064216942 0.0058161914
0.0010717866 0.064307198 0.0053365529
0.0021468098 0.064404294 0.0054291785
0.0032257733 0.064515464 0.0047480762
-0.017121205 0.065274589 0.0049880147
-0.016024636 0.065166853 0.0061236322
-0.014904516 0.064941108 0.0068213046
-0.014071314 0.066026933 0.0067948997
-0.013430943 0.068273954 0.0062737465
-0.01172729 0.06503316 0.0059083998
-0.010889639 0.066426799 0.0053193867
-0.0098012444 0.066430658 0.0043978989
-0.0054334095 0.0662876 0.0040219724
-0.0043415427 0.066208526 0.0045236647
-0.0032354312 0.065787099 0.0047289133
-0.0022149745 0.067556717 0.0055912733
-0.001078202 0.065770321 0.0063222647
0 0.064843915 0.0057472587
0.0010744648 0.065542348 0.0054480433
0.0021286563 0.064924017 0.0054490566
0.0032084873 0.065239243 0.0042029023
-0.016074628 0.066441797 0.005379051
-0.015027075 0.066548482 0.0069323182
-0.013761478 0.065631673 0.0069569349
-0.0127588 0.065920472 0.0067948997
-0.012510027 0.070511065 0.0069233179
-0.010909649 0.067639828 0.0064262748
-0.0096500963 0.066478446 0.005379051
-0.0086462637 0.067008547 0.0050103664
-0.0075455843 0.066832319 0.0044819117
-0.0064389799 0.066536129 0.0044543147
-0.0053837709 0.066758759 0.0049335063
-0.0043534096 0.067477852 0.0055143237
-0.0033753924 0.069758117 0.0056167245
-0.0021371366 0.066251241 0.0063587725
-0.0010700242 0.066341497 0.006482482
0 0.066468723 0.0060579777
0.0010667703 0.066139765 0.0054450929
0.0021248444 0.065870181 0.0053198636
-0.016036907 0.067355014 0.0042387843
-0.014926963 0.067171335 0.0055071414
-0.013791456 0.066835515 0.0065909922
-0.012769112 0.067037843 0.0067509115
-0.011911822 0.068222262 0.0070498586
-0.010733278 0.067619659 0.0069142282
-0.010197055 0.071379386 0.0063279867
-0.0089527471 0.070502885 0.0056060553
-0.0077442182 0.069697961 0.0056060553
-0.0067982469 0.071381591 0.0054867268
-0.0056313658 0.070955209 0.0063211024
-0.0043584956 0.068646312 0.0063957274
-0.0031919659 0.067031287 0.0063526332
-0.0021408994 0.067438327 0.0066255629
-0.0010710618 0.067476898 0.0067658126
0 0.067154557 0.0062478483
0.0010700379 0.067412391 0.0042845905
0.0021522231 0.067795031 0.004006356
-0.014845375 0.067864567 0.0044240355
-0.013833845 0.068105087 0.0052763522
-0.012772841 0.068121821 0.0054900646
-0.011699326 0.06806881 0.0060431063
-0.010564804 0.067614749 0.0061795413
-0.0095798438 0.068123333 0.0057556629
-0.0086612962 0.06929037 0.0053482652
-0.007630392 0.069763586 0.0055949986
-0.0063816584 0.068071023 0.0054627359
-0.0052833077 0.067626342 0.0062841475
-0.0042742053 0.068387285 0.0062222183
-0.0031898273 0.068049654 0.0059631169
-0.0021323641 0.068235651 0.0062968433
-0.0010679981 0.06835188 0.0058390498
0 0.068170965 0.0041309893
-0.013890196 0.069450974 0.0040264428
-0.012821251 0.069448441 0.0045769513
-0.011796652 0.069707491 0.0054474771
-0.010670162 0.069356054 0.005872041
-0.009615072 0.06944219 0.005379051
-0.0086266045 0.070091158 0.0053482652
-0.0074685877 0.069351174 0.0055949986
-0.0063632648 0.068935364 0.0056060553
-0.0053703017 0.069813922 0.0059631169
-0.0042443606 0.068970859 0.0058842301
-0.0031930883 0.069183581 0.0056871474
-0.0021458503 0.069740139 0.0056696236
-0.011748954 0.07049372 0.0045436025
-0.010656288 0.070331499 0.0050848722
-0.009681073 0.070994541 0.0047242939
-0.0084961299 0.070093073 0.0049836636
-0.0074635069 0.070370205 0.0049836636
-0.0064300285 0.070730314 0.0044797659
-0.0053459024 0.070565909 0.0055544674
-0.0042850212 0.070702851 0.0046726465
-0.0032221363 0.070886999 0.0044969916
-0.010721721 0.071835533 0.0042864978
-0.0096084401 0.0715295 0.0041853487
-0.0085614799 0.071702391 0.0043703914
-0.0074903728 0.071693569 0.0043703914
-0.0053434409 0.071602106 0.0042786598
0 0 0 1 0 0 0 1 0 0 0 1 0 0 0 0 0 329 1 0 0
