ply
format ascii 1.0
comment PCL generated
element vertex 70
property float x
property float y
property float z
element camera 1
property float view_px
property float view_py
property float view_pz
property float x_axisx
property float x_axisy
property float x_axisz
property float y_axisx
property float y_axisy
property float y_axisz
property float z_axisx
property float z_axisy
property float z_axisz
property float focal
property float scalex
property float scaley
property float centerx
property float centery
property int viewportx
property int viewporty
property float k1
property float k2
end_header
-0.015306063 -0.013119482 0.0040144026
-0.014105478 -0.013020442 0.0043717623
-0.013062394 -0.013062394 0.004340291
-0.014174599 -0.011993892 0.0042198002
-0.013153258 -0.012057153 0.0041632056
-0.015183643 -0.01084546 0.00406003
-0.014169191 -0.010899377 0.0042238832
-0.015147015 -0.0097373668 0.0040144026
-0.013988648 -0.0096844481 0.004027009
-0.014242864 -0.0087648397 0.0040665865
-0.01529354 -0.0076467698 0.0042303205
-0.014165109 -0.0076273661 0.0042303205
-0.01512611 -0.0064826184 0.0041627884
-0.014083297 -0.0064999834 0.0043094158
-0.01324304 -0.00662152 0.0040999353
-0.015103596 -0.0053941412 0.0042303205
-0.014224 -0.0054707695 0.004439801
-0.013037993 -0.0054324968 0.0042307377
0.0010946061 -0.0054730303 0.0041910112
0.0021576094 -0.0053940234 0.0040664673
-0.015129614 -0.0043227468 0.0041951835
-0.013951083 -0.0042926408 0.0044284165
-0.013100524 -0.0043668412 0.0044639707
-0.012070016 -0.004389097 0.0040203631
0 -0.004428559 0.0040729344
0.0010906737 -0.0043626949 0.0045269728
0.0021354761 -0.0042709522 0.0044457912
-0.014028235 -0.0032372852 0.0043485165
-0.013160781 -0.0032901953 0.0045357943
-0.012009938 -0.0032754377 0.0044693351
-0.0011031362 -0.0033094087 0.0040729344
0 -0.0032671641 0.0043412745
0.0010693568 -0.0032080705 0.004525423
0.002174058 -0.0032610868 0.0041910112
-0.014066482 -0.0021640742 0.0041989982
-0.012876485 -0.0021460808 0.0045771301
-0.012276973 -0.002232177 0.0045771301
-0.01083794 -0.0021675883 0.0042801201
-0.0098145269 -0.0021810061 0.0040739179
-0.0021884816 -0.0021884816 0.0040813088
-0.0010943731 -0.0021887461 0.0041668713
0 -0.0021692412 0.0043333769
0.0010811415 -0.0021622831 0.0044024289
0.0021678724 -0.0021678724 0.0040045381
-0.013959658 -0.0010738199 0.0042419732
-0.012981923 -0.001081827 0.0045335293
-0.011818483 -0.0010744075 0.0045827329
-0.011492104 -0.0011492104 0.0044124126
-0.0099221524 -0.0011024614 0.0043669939
-0.0086806752 -0.0010850844 0.0042276382
-0.0043285503 -0.0010821376 0.0040156245
-0.0033726993 -0.0011242331 0.0041443706
-0.0022359407 -0.0011179703 0.0043836236
-0.0010737127 -0.0010737127 0.0044482946
0 -0.0010748137 0.0043277144
0.0010793225 -0.0010793225 0.0042083561
-0.013079968 0 0.0043740869
-0.011830588 0 0.0045335293
-0.010567429 0 0.0044865012
-0.0098629296 0 0.0042764246
-0.0092049884 0 0.0041051209
-0.0032613105 0 0.0041288435
-0.002162412 0 0.0042083561
-0.0010726796 0 0.0043689609
-0.010775257 0.0010775258 0.0042153001
-0.0097197043 0.0010799671 0.0041679144
-0.0086572655 0.0010821582 0.0040681958
-0.0032243503 0.0010747835 0.004050225
-0.0021444785 0.0010722392 0.0041148961
-0.0010833468 0.0010833468 0.0043524504
0 0 0 1 0 0 0 1 0 0 0 1 0 0 0 0 0 70 1 0 0
