ply
format ascii 1.0
comment PCL generated
element vertex 95
property float x
property float y
property float z
element camera 1
property float view_px
property float view_py
property float view_pz
property float x_axisx
property float x_axisy
property float x_axisz
property float y_axisx
property float y_axisy
property float y_axisz
property float z_axisx
property float z_axisy
property float z_axisz
property float focal
property float scalex
property float scaley
property float centerx
property float centery
property int viewportx
property int viewporty
property float k1
property float k2
end_header
-0.0096993214 -0.029097965 0.0045621991
-0.0085033439 -0.028698787 0.0046847463
-0.0074531208 -0.028747752 0.0050623119
-0.0064003267 -0.028801473 0.0045307279
-0.010832299 -0.028163981 0.0045626462
-0.0097567625 -0.028186204 0.004802227
-0.0086492896 -0.028110191 0.0050856769
-0.0076430081 -0.028388316 0.0049743354
-0.0065309722 -0.02830088 0.0045689344
-0.0054128501 -0.02814682 0.0043510795
-0.012015679 -0.027308363 0.0044675171
-0.01088573 -0.027214328 0.0047822893
-0.0097210752 -0.027002988 0.0048880577
-0.0087139402 -0.027231066 0.0049743354
-0.0075654234 -0.02701937 0.0045727193
-0.0065210559 -0.027171066 0.0043416917
-0.0054490035 -0.027245019 0.0045129955
-0.012966711 -0.025933422 0.0044245124
-0.011986054 -0.026151391 0.0045689344
-0.010741357 -0.025779257 0.004691422
-0.0098167555 -0.026178015 0.0046487749
-0.0087284138 -0.026185242 0.0045451224
-0.0076837265 -0.026344204 0.0044014156
-0.003273533 -0.026188264 0.0041124523
-0.0021720424 -0.026064508 0.0040581226
-0.0010825619 -0.025981486 0.0040581226
-0.011955009 -0.024996838 0.0040496886
-0.013004746 -0.023842035 0.0042770207
-0.012013588 -0.024027176 0.0042301118
-0.0010898738 -0.023977222 0.004319489
0 -0.024075078 0.0043780506
0.0010874994 -0.023924986 0.0043043196
0.0021563482 -0.023719829 0.0040326715
-0.01403863 -0.022677789 0.004208982
-0.013137955 -0.022991423 0.0041620731
0 -0.022762615 0.004173249
0.0010696821 -0.022463324 0.0043416917
0.0021727122 -0.022813478 0.0044648647
0.0032303385 -0.022612371 0.0040932596
0.001093204 -0.021864081 0.0042746365
0.0021593487 -0.021593487 0.0041432083
0.0032327608 -0.021551739 0.0040326715
0.0010859673 -0.020633377 0.0041985214
0.0021460899 -0.020387856 0.0043931305
0.003258917 -0.020639809 0.0044889152
0.0043137013 -0.020490082 0.0042468607
0.0021858094 -0.019672284 0.0041678548
0.0032488769 -0.019493261 0.0043139458
0.0043046968 -0.019371135 0.004195869
0.0021508143 -0.017206514 0.0042994022
0.0032588877 -0.017380735 0.0043205917
0.0043124333 -0.017249733 0.0043205917
0.0010731447 -0.016097171 0.0040522814
0.0021650365 -0.016237775 0.0041567683
0.0032379986 -0.016189994 0.0042994022
0.0043206499 -0.016202437 0.0043205917
-0.014021637 -0.015100225 0.0040571392
0 -0.015282227 0.0045167804
0.0010836014 -0.015170419 0.0046012402
0.0021411011 -0.014987708 0.0042967796
-0.013974515 -0.013974515 0.0041128397
-0.013002167 -0.01408568 0.0042542219
-0.0011173943 -0.014526126 0.0042920113
0 -0.014347911 0.0047393739
0.0010827177 -0.014075329 0.0047048926
0.0021395751 -0.013907239 0.0045929253
0.0032552017 -0.014105875 0.0042276382
-0.014001738 -0.012924681 0.0041128397
-0.012958585 -0.012958585 0.0045065582
-0.012628813 -0.013776887 0.0043897331
-0.01073389 -0.012880669 0.0042589903
-0.0022011774 -0.013207064 0.0041294992
-0.0010996847 -0.013196217 0.0046006441
0 -0.013008293 0.0046235323
0.0010704907 -0.012845888 0.0047048926
0.0021682656 -0.013009594 0.0041467249
-0.01405818 -0.011895383 0.0041087568
-0.012950012 -0.011870843 0.0050341487
-0.01164382 -0.01164382 0.0049449503
-0.01124041 -0.012364451 0.0048118532
-0.010056092 -0.01229078 0.0045292377
-0.0034284852 -0.012571113 0.0040871501
-0.0022066992 -0.012136845 0.0045460165
-0.0010728837 -0.011801721 0.0046240985
0 -0.011799076 0.0045663118
0.0010842209 -0.011926429 0.0040700138
-0.01286824 -0.010723532 0.0040058792
-0.011859738 -0.010781581 0.0046766698
-0.01069088 -0.01069088 0.0045617223
-0.0097342515 -0.010815835 0.0045292377
-0.0032760184 -0.010920062 0.0042402446
-0.0021616146 -0.010808072 0.0046240985
-0.0010806345 -0.010806345 0.0045615733
-0.009704113 -0.009704113 0.0042730868
-0.0021515018 -0.0096817575 0.0040877163
0 0 0 1 0 0 0 1 0 0 0 1 0 0 0 0 0 95 1 0 0
