ply
format ascii 1.0
comment PCL generated
element vertex 337
property float x
property float y
property float z
element camera 1
property float view_px
property float view_py
property float view_pz
property float x_axisx
property float x_axisy
property float x_axisz
property float y_axisx
property float y_axisy
property float y_axisz
property float z_axisx
property float z_axisy
property float z_axisz
property float focal
property float scalex
property float scaley
property float centerx
property float centery
property int viewportx
property int viewporty
property float k1
property float k2
end_header
-0.0043565985 0.059903227 0.0040572286
-0.010099703 0.062842593 0.0040054321
-0.009065887 0.063461207 0.0040572286
-0.007800729 0.062405832 0.0040572286
-0.0056611206 0.063404553 0.0040865541
-0.0044555943 0.062378317 0.0041224957
-0.0033491948 0.062518306 0.0040865541
-0.010580693 0.06030995 0.0040433407
-0.0096307229 0.06099458 0.0045651495
-0.0085055623 0.060602132 0.0044960976
-0.007457919 0.06072877 0.004560113
-0.0064999545 0.061749566 0.0044105053
-0.0053597693 0.061101373 0.0046674907
-0.0042686178 0.060827803 0.004658401
-0.0032283335 0.061338339 0.0044280291
-0.0021238839 0.060530689 0.0042485595
-0.0010640644 0.060651671 0.0041002631
0 0.06068971 0.0040435791
-0.011592117 0.061122075 0.0046682954
-0.010709687 0.062116191 0.0047412217
-0.0095610917 0.061615933 0.0047993958
-0.0084861591 0.061524652 0.0046932399
-0.0074755666 0.061940409 0.0046616495
-0.0064372076 0.062226344 0.0043430626
-0.005305991 0.0615495 0.00478369
-0.0042656669 0.061852168 0.0049684942
-0.0031917156 0.061706502 0.0049684942
-0.0021290497 0.061742444 0.0046924651
-0.0010688795 0.061995011 0.0044943094
0 0.061144706 0.0045447648
0.0010774484 0.062492006 0.0045587718
-0.01281853 0.063024439 0.0044631362
-0.011806199 0.063324161 0.0048976839
-0.010760735 0.063488334 0.0050231516
-0.0095956661 0.062904924 0.005045712
-0.0086249746 0.063609183 0.0050014853
-0.0075016012 0.063227788 0.0048370957
-0.0064139143 0.063070163 0.0046030879
-0.0053460132 0.063082963 0.0050020814
-0.0042769285 0.063084699 0.0050300062
-0.0032285757 0.063495323 0.0055085719
-0.0021461432 0.063311227 0.0055242777
-0.0010618011 0.06264627 0.0050915778
0 0.063297763 0.0050329268
0.0010669286 0.062948786 0.0051371157
0.0022077924 0.065129876 0.004674077
-0.012882584 0.064412922 0.0045236945
-0.011805222 0.064392127 0.0050510764
-0.010682072 0.064092435 0.00550282
-0.0096486052 0.064324036 0.0053991377
-0.0085644433 0.064233325 0.0052058995
-0.0074651102 0.063986659 0.004752785
-0.0064842971 0.064842969 0.0044518113
-0.0053226636 0.063871965 0.004752785
-0.0042695845 0.064043768 0.0052558184
-0.0032051508 0.064103022 0.0054122806
-0.0021421064 0.064263187 0.0056319535
-0.0010669626 0.064017758 0.0058745146
0 0.063648902 0.0059617162
0.0010694952 0.064169712 0.005920589
0.0021466892 0.064400673 0.0051371157
0.0033587334 0.067174673 0.0041252971
-0.013917803 0.065306611 0.0043456256
-0.012893734 0.065543145 0.0048417747
-0.011696801 0.064864077 0.004994303
-0.010811301 0.065948933 0.0053546131
-0.0098099215 0.066489473 0.0047464073
-0.0087430449 0.066665716 0.0045064688
-0.007632372 0.06651067 0.0042417347
-0.0065480797 0.066572145 0.0040334761
-0.0054873549 0.066945732 0.0042410493
-0.0044054347 0.067182884 0.0042660236
-0.0032620134 0.066327602 0.0050502121
-0.002135287 0.065126248 0.0054508448
-0.0010690397 0.065211423 0.0058405697
0 0.064781405 0.005982548
0.0010768155 0.065685749 0.0063359737
0.0021168417 0.064563677 0.0052382052
0.0032734058 0.066559248 0.0044798851
-0.014960472 0.066253521 0.0045741498
-0.013858562 0.066094682 0.0054997802
-0.012760969 0.065931678 0.0061697364
-0.011885221 0.066989429 0.0061857402
-0.01087712 0.067438148 0.0060468912
-0.0097341323 0.067057364 0.0058780611
-0.00866747 0.067172892 0.005199641
-0.0075692008 0.067041494 0.004294306
-0.0065011578 0.067178629 0.0042667091
-0.005434081 0.067382611 0.004294306
-0.0043117143 0.066831574 0.0045086145
-0.0033027257 0.068256333 0.0054377317
-0.0021944996 0.068029493 0.0058890283
-0.0010697229 0.066322818 0.0062048435
0 0.066719025 0.0065365434
0.0010753267 0.066670254 0.0067277849
0.0021296649 0.066019617 0.0067094862
0.0032175861 0.066496782 0.0050733685
0.0044712648 0.0693046 0.0045533478
-0.01608476 0.067555994 0.004750222
-0.014968258 0.067357168 0.0054827034
-0.013808673 0.066918962 0.0058425367
-0.012930226 0.067883685 0.0061697364
-0.011931692 0.068336062 0.0059709847
-0.01069715 0.067392044 0.0059354603
-0.0097857043 0.06849993 0.0053492486
-0.008692109 0.068450361 0.004527241
-0.0075873947 0.068286553 0.0040286779
-0.004325008 0.068118878 0.0044323504
-0.0032730976 0.068735048 0.0046083331
-0.002172943 0.068447709 0.0057149529
-0.0010981667 0.069184497 0.0061852336
0 0.067962818 0.0065823495
0.0010620871 0.066911489 0.0067359507
0.0021496932 0.067715339 0.0067094862
0.003191785 0.067027487 0.0054360032
0.0042903153 0.067572467 0.0047345161
0.0055374089 0.069771357 0.0040434897
-0.016129084 0.068817422 0.0051644444
-0.014875703 0.068003215 0.005893141
-0.0139199 0.068528742 0.0059535503
-0.012908616 0.068845958 0.0061947405
-0.011849616 0.068943217 0.005918026
-0.010875993 0.069606356 0.0056107938
-0.0097862519 0.069591127 0.0046768486
-0.0086978972 0.069583178 0.0041528642
-0.0032351641 0.069016837 0.0040782392
-0.002162589 0.069202848 0.0047279298
-0.0010901552 0.069769934 0.00560987
0 0.069604442 0.0065014064
0.0010781133 0.068999253 0.0067359507
0.0021394687 0.068462998 0.0065864921
0.0031999422 0.068265438 0.0054476261
0.0042869691 0.068591505 0.0048242509
0.0055208174 0.070666462 0.0041355491
-0.017076671 0.069373973 0.0045789182
-0.01596217 0.069169402 0.0055874586
-0.015014707 0.069711141 0.0059009492
-0.013947283 0.069736414 0.0060837269
-0.01305082 0.070691943 0.0060837269
-0.01194291 0.070571743 0.0056278706
-0.010835623 0.070431553 0.0049131811
-0.0097856587 0.070674203 0.0044631362
-0.0021759432 0.070718154 0.0045426786
-0.0010773888 0.070030272 0.0051568449
0 0.071102396 0.006393373
0.0010782917 0.070088953 0.0066087246
0.0021358596 0.069415435 0.0065864921
0.0032217964 0.069805585 0.0061498582
0.0042780633 0.069518529 0.0048764646
0.0052770204 0.068601266 0.0041355491
-0.017060256 0.07037355 0.0046471953
-0.016025256 0.070511125 0.0055704713
-0.014970007 0.07057289 0.0056349635
-0.013840108 0.070265159 0.0056845248
-0.013086034 0.07197319 0.0057260692
-0.011915 0.071490005 0.0054664314
-0.010793416 0.071236543 0.0045854449
-0.0021794075 0.071920447 0.0041298866
-0.0010826748 0.071456537 0.0051568449
0 0.071571909 0.0058518052
0.0010832163 0.07149227 0.0064617991
0.0021380165 0.070554547 0.0064370632
0.0032122098 0.070668615 0.0058002472
0.0042501288 0.070127122 0.0054284632
0.0053146207 0.070152998 0.0041456819
-0.017137976 0.071765274 0.0047464073
-0.016066562 0.071763977 0.0057303309
-0.014917683 0.071391769 0.005980432
-0.013968134 0.071989618 0.0060320199
-0.013015826 0.072671697 0.0060411692
-0.011818268 0.071984001 0.0057548285
-0.010881638 0.072906978 0.0050054789
-0.0097604906 0.072661437 0.0043838918
-0.0021699867 0.072694555 0.0045952499
-0.0010890325 0.072965182 0.0054398775
0 0.071994357 0.0059617162
0.0010954072 0.073392279 0.006580919
0.0021422035 0.071763821 0.0065553486
0.0031728449 0.070860207 0.0057664514
0.0042755916 0.071616158 0.0054522753
0.0053542648 0.071747154 0.0044440925
-0.017252052 0.073321223 0.0047447085
-0.015988795 0.072482541 0.0061869919
-0.014937647 0.072554283 0.0065082014
-0.013956944 0.07300555 0.0066093504
-0.012968672 0.073489144 0.0066093504
-0.011936372 0.073788486 0.0058780611
-0.010845329 0.073748238 0.0053008497
-0.0096834702 0.073164001 0.0045366883
-0.0021822015 0.074194849 0.0046514273
-0.0010808313 0.073496528 0.0058919191
0 0.074727148 0.0059632063
0.0010866623 0.073893033 0.0066788793
0.0021345923 0.072576143 0.0066652596
0.0032074302 0.072701752 0.0058867931
0.004309664 0.073264286 0.0053350031
0.0053301295 0.072489768 0.0043268204
-0.016961494 0.07314644 0.0044438541
-0.016119966 0.074151844 0.005980432
-0.014959185 0.073727414 0.0064733028
-0.013796559 0.07322789 0.0065075159
-0.013238608 0.076121993 0.0066373348
-0.011827677 0.074191794 0.0059895813
-0.010787359 0.074432775 0.0056249201
-0.009828127 0.075348981 0.0048648119
-0.008673124 0.074805692 0.0043839216
-0.0032724319 0.075265937 0.0045768023
-0.0021668731 0.074757114 0.0053870678
-0.0010737723 0.074090287 0.0059953332
0 0.076217443 0.0061898828
0.0010711284 0.07390786 0.0063956678
0.0021345459 0.073641837 0.0068749189
0.0031988861 0.073574379 0.0059188902
0.0042480268 0.073278464 0.0053085387
-0.01711856 0.074893698 0.0045457184
-0.016011441 0.074720055 0.0057819486
-0.014961292 0.074806459 0.0067873299
-0.013896885 0.074829385 0.0068580508
-0.013068052 0.076230302 0.0070189536
-0.011893363 0.075685039 0.0069342852
-0.010772605 0.075408243 0.0058930218
-0.0097288704 0.075668991 0.0053758919
-0.0086440071 0.075635061 0.0047029853
-0.007589913 0.075899132 0.0041252971
-0.006507698 0.075923145 0.0040868521
-0.005455994 0.076383919 0.0041485727
-0.0043404102 0.075957179 0.0041485727
-0.0032305112 0.075378597 0.0050513148
-0.0021581515 0.075535297 0.005644381
-0.0011023298 0.077163085 0.0060458183
0 0.074745789 0.0064947307
0.0010797462 0.075582236 0.0068529844
0.0021342468 0.074698634 0.0063824654
0.0032025827 0.074726932 0.0055793822
0.0042962064 0.075183608 0.0048490167
-0.015932614 0.075414367 0.0055372715
-0.015036388 0.07625597 0.0067873299
-0.013798905 0.075363249 0.0070189536
-0.01277874 0.075607546 0.007095933
-0.012034182 0.077675171 0.0071659088
-0.010784811 0.076572165 0.0066741705
-0.0095788604 0.075566567 0.0059409142
-0.0087037021 0.077245355 0.0057063401
-0.0075286841 0.076362364 0.0051527023
-0.0064797052 0.07667651 0.0051527023
-0.005440156 0.077250212 0.005107224
-0.0043056575 0.076425411 0.005107224
-0.0032082389 0.075928316 0.0057063401
-0.0021824448 0.077476785 0.006075263
-0.0011105642 0.078850053 0.0064717531
0 0.076578312 0.0067064166
0.0010674576 0.075789489 0.0069234967
0.0021198867 0.075255975 0.0066788793
0.0032339941 0.076537862 0.005410552
-0.016048064 0.077030703 0.0052522421
-0.015025688 0.077274963 0.0064686835
-0.013729776 0.076041833 0.0069794357
-0.012834398 0.077006385 0.0070899427
-0.011825733 0.077404797 0.0071294606
-0.010798743 0.077750944 0.0070414245
-0.010061768 0.080494143 0.0064825118
-0.0086255362 0.07762982 0.0061578453
-0.0075384467 0.077538304 0.0057462752
-0.0064650201 0.077580236 0.0055651665
-0.0053873956 0.0775785 0.0054232776
-0.0042711487 0.076880679 0.0054414272
-0.0033643746 0.080744989 0.0059916377
-0.0022041837 0.079350613 0.0063875914
-0.0010561935 0.07604593 0.0065841377
0 0.077294871 0.0067578852
0.0010593741 0.076274931 0.0068009794
0.0021337315 0.076814331 0.0061496198
0.0032061297 0.076947108 0.0049302578
-0.014878944 0.077583075 0.0052564144
-0.013811055 0.07755439 0.0064686835
-0.012682714 0.077153176 0.0070189536
-0.011623331 0.077136658 0.0072541535
-0.010719052 0.078249082 0.0070809424
-0.0097459313 0.079050332 0.0067305863
-0.0087421807 0.079772398 0.0064770281
-0.0078365793 0.081724331 0.0062748492
-0.0066867433 0.081355385 0.0058375895
-0.0055991625 0.081747778 0.0057997704
-0.0044528204 0.081263974 0.00578022
-0.0032263175 0.078507066 0.0062216222
-0.00211672 0.077260286 0.0063875914
-0.0010758851 0.078539617 0.0061921477
0 0.07697659 0.0061158836
0.0010756452 0.078522101 0.0058050752
0.0021354349 0.077943385 0.0051426888
-0.014044095 0.079943314 0.0051127672
-0.01271664 0.078419283 0.0068473816
-0.011692013 0.078655362 0.00729388
-0.010650756 0.078815594 0.0068328679
-0.0094599891 0.077782139 0.00679335
-0.0085186539 0.078797549 0.0066227913
-0.0074659097 0.078925334 0.0063875914
-0.0064409696 0.079438627 0.0061802864
-0.0053301817 0.078886688 0.0059916377
-0.0041987901 0.077677622 0.0059916377
-0.0031779383 0.078389145 0.0062930286
-0.0021469572 0.079437427 0.0061719418
-0.0010632357 0.078679442 0.0059467852
0 0.079283096 0.0056178272
0.0010686319 0.079078764 0.0052030087
0.0021187775 0.078394763 0.0042823553
-0.012848226 0.080301419 0.0050536692
-0.011637331 0.079345442 0.0060819387
-0.010504572 0.078784287 0.0062691271
-0.0096007921 0.080006607 0.0063557029
-0.0084688039 0.079395041 0.0062046349
-0.007426898 0.079573907 0.0061632395
-0.0064161397 0.080201745 0.0059686005
-0.005381118 0.080716781 0.0059153736
-0.0042455629 0.079604305 0.0057995021
-0.00319215 0.079803757 0.0059265792
-0.0021245365 0.079670116 0.0056899488
-0.0010633566 0.079751745 0.0055712163
0 0.080066629 0.0048069358
-0.011684071 0.080726318 0.005186528
-0.010725558 0.081514247 0.0057246983
-0.0096228318 0.081259474 0.0059257448
-0.0085861702 0.081568621 0.0061283708
-0.0075010802 0.0814403 0.0061576068
-0.0064319051 0.081470802 0.0059686005
-0.0053022956 0.080594897 0.0057659745
-0.0042690272 0.081111521 0.0055426657
-0.0032117218 0.081363618 0.005645752
-0.0021408207 0.081351191 0.0053993165
-0.0010747931 0.081684276 0.0042682886
-0.0096119316 0.082235426 0.0047029853
-0.0085688028 0.082474723 0.0048216879
-0.0074783443 0.082261786 0.0054393709
-0.0063614063 0.081638053 0.0054393709
-0.0053696018 0.082691871 0.0052722394
-0.0042656218 0.082113221 0.0044866204
-0.0032269461 0.082824953 0.0041023195
0 0 0 1 0 0 0 1 0 0 0 1 0 0 0 0 0 337 1 0 0
