ply
format ascii 1.0
comment PCL generated
element vertex 483
property float x
property float y
property float z
element camera 1
property float view_px
property float view_py
property float view_pz
property float x_axisx
property float x_axisy
property float x_axisz
property float y_axisx
property float y_axisy
property float y_axisz
property float z_axisx
property float z_axisy
property float z_axisz
property float focal
property float scalex
property float scaley
property float centerx
property float centery
property int viewportx
property int viewporty
property float k1
property float k2
end_header
-0.012057115 0.082207613 0.0040046573
-0.010872438 0.081543289 0.0041235387
-0.0099626286 0.083021909 0.004378885
-0.008706565 0.081624053 0.0045177937
-0.0076299147 0.081749089 0.0044310689
-0.0066351048 0.082938813 0.0042015612
-0.0055432199 0.083148308 0.0041483343
-0.0043711727 0.081959493 0.0040680468
-0.013222482 0.083742395 0.0043078661
-0.01198444 0.082801588 0.0049494505
-0.01102379 0.08378081 0.0049336851
-0.0098276529 0.082989074 0.0049150288
-0.0088329269 0.083912805 0.0051985979
-0.007784084 0.084512919 0.0050137043
-0.0065850029 0.08341004 0.0048678517
-0.005433775 0.082593381 0.0048678517
-0.0044108727 0.083806582 0.0047552586
-0.0032848623 0.083216511 0.004711926
-0.0021949734 0.083408989 0.0044397712
-0.0011070214 0.084133625 0.0040658712
-0.013929238 0.082503945 0.0046306252
-0.012740222 0.08174976 0.0047442615
-0.011799832 0.082598828 0.0055609047
-0.010776284 0.082977384 0.0053496659
-0.0096491063 0.082553469 0.0055013597
-0.0085731121 0.082516208 0.0056081116
-0.0074884016 0.08237242 0.0054957271
-0.0063822414 0.081905432 0.0054505765
-0.0053974423 0.083120614 0.0053378344
-0.0042754412 0.082302243 0.0054897368
-0.0032068281 0.08230859 0.0054365098
-0.0021411509 0.082434304 0.0050936341
-0.0010628611 0.081840307 0.004802525
0 0.082762644 0.0042366683
-0.014812469 0.082526609 0.0045271516
-0.01369334 0.082160041 0.0049006045
-0.01278166 0.083080791 0.0051384866
-0.011650207 0.082610555 0.0060177445
-0.010510397 0.0819811 0.0060050488
-0.0094814384 0.082172468 0.005649507
-0.0084743304 0.082624726 0.0061848164
-0.0073948493 0.082399748 0.0061017573
-0.0064079873 0.083303839 0.0054365098
-0.0052330457 0.081635512 0.0054297447
-0.0042083338 0.082062505 0.0058525503
-0.0031938406 0.083039857 0.0058273375
-0.0021083124 0.082224183 0.0058525503
-0.0010543454 0.082238935 0.0054417253
0 0.082481928 0.0044943392
0.0010621855 0.082850464 0.0045463741
0.00222322 0.08670558 0.0041004121
-0.016199687 0.085318357 0.0046851039
-0.01480548 0.083545208 0.0051647723
-0.013800361 0.083863728 0.0059705675
-0.012783521 0.084158175 0.0064048469
-0.01156117 0.083030224 0.0065543652
-0.010630422 0.083980337 0.0063195229
-0.0095539317 0.08386229 0.0063682795
-0.0084645888 0.08358781 0.0064157844
-0.0075039826 0.084687799 0.0058681667
-0.0063784039 0.083982319 0.0055936277
-0.0052978666 0.083706297 0.0055630803
-0.0042697527 0.084327608 0.0059405267
-0.0031483655 0.082906961 0.0059526563
-0.0021143754 0.083517827 0.006026119
-0.0010613248 0.083844662 0.005867064
0 0.082824148 0.005469799
0.0010710157 0.084610239 0.0051583052
0.0022152308 0.087501615 0.0045817494
-0.017753514 0.088767566 0.0043886304
-0.015880056 0.084693626 0.0048594773
-0.014881236 0.08503563 0.0061630011
-0.013775905 0.084774792 0.006523788
-0.012666253 0.084441684 0.0066012144
-0.011697005 0.085069127 0.0066945255
-0.010605022 0.084840178 0.0066269338
-0.0095305387 0.084715895 0.0062469542
-0.0085332375 0.085332371 0.0061487854
-0.0074033099 0.084609255 0.0058439076
-0.0063628019 0.084837355 0.0057304502
-0.005338083 0.085409328 0.0055837929
-0.0042249034 0.08449807 0.0056051314
-0.003176816 0.084715091 0.0059587061
-0.0021377597 0.085510381 0.0060442984
-0.0010608775 0.084870197 0.0060442984
0 0.085506625 0.0056377053
0.00106303 0.085042395 0.0051583052
0.002122812 0.084912479 0.0047875941
0.0033447058 0.089192152 0.0042949915
-0.016934708 0.085731961 0.0049642622
-0.015958389 0.0861753 0.0059705675
-0.014785414 0.085544176 0.0066579282
-0.013716447 0.085464016 0.0069692731
-0.012682358 0.085605912 0.0071710348
-0.011728812 0.086366706 0.0072499812
-0.010656058 0.086314067 0.0069437325
-0.0097270459 0.087543413 0.006604284
-0.0086208917 0.087286524 0.0062469542
-0.0075611868 0.087493733 0.0060922205
-0.0065669608 0.088653967 0.0058133602
-0.0054526292 0.088332593 0.0057304502
-0.0043263654 0.087608889 0.0055682361
-0.0032267345 0.087121829 0.0059405267
-0.0021171244 0.085743532 0.0061140358
-0.0010537908 0.085357055 0.0062360168
0 0.085967235 0.006162554
0.0010482329 0.084906861 0.0055682361
0.0021140168 0.085617684 0.0051425099
0.0032685075 0.088249698 0.0043663085
-0.018559868 0.089524068 0.0041704476
-0.016927395 0.086752906 0.0063618124
-0.016036553 0.087666497 0.0066581964
-0.014766493 0.086489461 0.0072062612
-0.01370742 0.086462192 0.0077131093
-0.012914036 0.088245921 0.0077409744
-0.011839996 0.088261798 0.0077131093
-0.010860452 0.089055717 0.0070963204
-0.0097169178 0.088531926 0.006629914
-0.0085841892 0.087987944 0.0065812767
-0.0075328248 0.088241667 0.0062209964
-0.0064508663 0.088161848 0.0058439076
-0.0053493204 0.087728858 0.0060634017
-0.0043326123 0.088818558 0.0061732829
-0.0032418221 0.088609807 0.006190449
-0.002166145 0.088811956 0.0071489215
-0.0010765714 0.08827886 0.0073911846
0 0.086265989 0.0073474944
0.0010667752 0.087475568 0.0070362091
0.002100917 0.0861376 0.0064301193
0.0031527621 0.086175501 0.0053721666
0.0045242277 0.092746675 0.0042597651
-0.017964562 0.087709337 0.0048127472
-0.016924765 0.087797225 0.0063578784
-0.01582369 0.087557755 0.0069683194
-0.014901212 0.088342905 0.0072062612
-0.014051291 0.089712091 0.0076681972
-0.012911238 0.089302734 0.0070742369
-0.011824299 0.089219712 0.0069480538
-0.010813902 0.089755394 0.0067768693
-0.0097674467 0.090077572 0.0063578784
-0.0086716339 0.089968204 0.0062767267
-0.0075775743 0.089848384 0.0060544014
-0.006468094 0.089475304 0.005977422
-0.0054517463 0.090498999 0.0061011016
-0.0043247393 0.089738339 0.0060647428
-0.0032149649 0.088947363 0.005994767
-0.0021583873 0.089573078 0.006344825
-0.0010840395 0.089975275 0.0075534582
0 0.089826874 0.0074234009
0.0010596206 0.087948516 0.0072718263
0.0021094307 0.087541379 0.0064905286
0.0031624867 0.087495469 0.005774051
0.0043209186 0.089659058 0.0049621761
0.0055162217 0.09156929 0.004172802
-0.018208992 0.089973845 0.0055106282
-0.016980238 0.089146256 0.0060374737
-0.016080564 0.090051159 0.0066246986
-0.014991459 0.089948758 0.0067143738
-0.013898504 0.089805715 0.0070742369
-0.012901925 0.090313479 0.0064497888
-0.011856449 0.090540156 0.0064656734
-0.01076495 0.090425581 0.0061487854
-0.0097711571 0.091197476 0.0059405565
-0.0086119333 0.090425298 0.0055458546
-0.0075374506 0.090449415 0.0052356422
-0.0064960076 0.090944111 0.0052356422
-0.0053768209 0.090330593 0.0054878294
-0.0042972765 0.090242803 0.0053973198
-0.0032387783 0.090685792 0.0056911409
-0.0021544441 0.090486653 0.005631566
-0.0010769333 0.090462402 0.006344825
0 0.092392527 0.0066925883
0.0010530041 0.088452347 0.0069337785
0.002130694 0.089489155 0.0064905286
0.0031694986 0.088745967 0.0060096681
0.0041824691 0.087831855 0.0052034557
0.0056062504 0.09418501 0.0043107569
-0.018036699 0.090183496 0.0058474243
-0.017069887 0.090683773 0.006164223
-0.015975889 0.090530038 0.006539464
-0.01495218 0.090781093 0.006539464
-0.014134054 0.092414968 0.0067143738
-0.012997714 0.092067145 0.0061885715
-0.011842592 0.091510937 0.0059686601
-0.010937199 0.092966191 0.0057604313
-0.0096943071 0.091557354 0.0052191317
-0.0086672148 0.092089154 0.0046952665
-0.0075574364 0.091768868 0.004614085
-0.0065027443 0.092122212 0.0045758486
-0.0054012397 0.091821082 0.0045593977
-0.0043273107 0.091955356 0.0049350858
-0.0032469823 0.091997832 0.005189091
-0.0021613471 0.091857255 0.0054166913
-0.0010808622 0.091873296 0.0060023963
0 0.09182287 0.0063787401
0.0010846199 0.092192687 0.0065476596
0.0021386829 0.090894021 0.0064232349
0.0031653917 0.089686103 0.0057808459
0.0042884247 0.091129027 0.0054188967
0.0053174463 0.090396591 0.0046070516
-0.019106317 0.091285743 0.0043737888
-0.017997125 0.091044277 0.0058474243
-0.016937278 0.091037869 0.0061218143
-0.015915018 0.091246098 0.006539464
-0.015041304 0.09239658 0.0064497888
-0.013953333 0.092306666 0.006614238
-0.012951036 0.092815764 0.0059346259
-0.011890952 0.092965633 0.0059275329
-0.010805867 0.092930458 0.0053077042
-0.0096770208 0.092469312 0.0046604574
-0.00874337 0.09399122 0.0042474866
-0.0075990544 0.093359813 0.0042826831
-0.0065090787 0.093296796 0.004165858
-0.0054321596 0.093433149 0.0042023063
-0.0043138932 0.092748702 0.0043801665
-0.0032397797 0.092873693 0.0049672127
-0.0021745502 0.093505658 0.0050469637
-0.0010765544 0.092583679 0.0056119263
0 0.092635222 0.0061169565
0.0010821581 0.09306559 0.0061876178
0.0021157721 0.090978198 0.0064905286
0.0031716435 0.090920448 0.0060096681
0.004238307 0.091123603 0.0055729747
0.0053239693 0.091572277 0.0047776699
-0.019086828 0.092253007 0.0048232675
-0.018091075 0.092583731 0.0059407353
-0.016793277 0.091313444 0.0062182844
-0.016118484 0.093487203 0.0066168904
-0.015147761 0.094132513 0.0065912604
-0.013910524 0.093093507 0.0065990686
-0.013014394 0.094354354 0.006036818
-0.011968679 0.09466137 0.0059275329
-0.010806247 0.094014347 0.005482614
-0.0097427927 0.094180331 0.0048612654
-0.0086044641 0.093573548 0.004344672
-0.0075942981 0.09438628 0.004344672
-0.006512153 0.094426222 0.0041837394
-0.0053897356 0.093781404 0.0042342246
-0.0043304935 0.094188228 0.0045944154
-0.0032625948 0.094615251 0.0050470531
-0.0021454238 0.093325935 0.0054800212
-0.0010815398 0.094093956 0.0061876178
0 0.093534403 0.006480962
0.0010601496 0.092233017 0.0066675842
0.0021634176 0.094108663 0.0067669153
0.0031685759 0.091888703 0.0060822666
0.0042187218 0.091757201 0.0057040751
0.0053012618 0.092241958 0.0049339235
0.0063991966 0.092788354 0.004027307
-0.019088669 0.093322381 0.0051743686
-0.018064456 0.093510121 0.006464988
-0.017058732 0.093823031 0.0066246986
-0.016230596 0.0952195 0.0068512559
-0.015145699 0.09520153 0.0067802966
-0.014133085 0.095670119 0.0068327487
-0.012922606 0.094765782 0.0064173937
-0.011864868 0.094918944 0.0060644448
-0.01083157 0.095317818 0.0054728091
-0.0096857361 0.094704978 0.0047561824
-0.0085852109 0.094437316 0.0045897067
-0.0075932546 0.095458053 0.0043269098
-0.0064308709 0.094319433 0.0041773915
-0.0053818626 0.094720788 0.004301995
-0.0043410966 0.095504127 0.0046263337
-0.0032239121 0.094568081 0.0050656199
-0.0021582395 0.09496253 0.0056293011
-0.0010779978 0.09486381 0.0063663423
0 0.093622088 0.0066626072
0.0010782956 0.094890013 0.0068558753
0.0021531179 0.094737187 0.0066637993
0.0031517376 0.092450969 0.0060840845
0.0042267633 0.092988789 0.0056990981
0.0053324383 0.093850918 0.0048370063
-0.019148197 0.094677195 0.0053899884
-0.018092355 0.094718799 0.0064380765
-0.017016448 0.094653986 0.0069295466
-0.016004354 0.094959162 0.0074924529
-0.015205179 0.096661493 0.0073693395
-0.013904459 0.09519206 0.0070963204
-0.012905804 0.095718049 0.0066857934
-0.011897889 0.096264735 0.006282866
-0.010857399 0.096630849 0.0056821704
-0.0097357947 0.096276186 0.0054069459
-0.0087116063 0.096916616 0.0049590468
-0.0075230161 0.095649771 0.0047322214
-0.0064810435 0.096135475 0.0046706796
-0.0054114615 0.096324019 0.0047486424
-0.0043114303 0.095929325 0.0053014159
-0.0032543528 0.096545793 0.0055410862
-0.0021601967 0.096128747 0.0060530603
-0.0010702277 0.095250264 0.006640166
0 0.098333567 0.007001847
0.0010742751 0.095610477 0.0070092082
0.0021360319 0.095053419 0.0069489777
0.0032013217 0.094972543 0.0066333711
0.0042614359 0.094816945 0.0059635341
0.00528142 0.094009273 0.0049301088
-0.01912518 0.095625915 0.0045508742
-0.018037267 0.095491424 0.0062654912
-0.016854273 0.094805293 0.0069295466
-0.016181322 0.097087935 0.0075660944
-0.014943223 0.096063584 0.0079724491
-0.014073296 0.097430512 0.0075111687
-0.012954595 0.09715946 0.0067359507
-0.011896789 0.097337373 0.0067966878
-0.010733274 0.096599467 0.0061422884
-0.0097836033 0.09783604 0.005530268
-0.0086013367 0.096765041 0.0050059557
-0.0075494046 0.09706378 0.0048690736
-0.0065503987 0.098255984 0.0048763156
-0.0053764586 0.096776269 0.0051964521
-0.0043122279 0.097025134 0.0054427087
-0.0032429828 0.097289488 0.0060316026
-0.0021428657 0.096428961 0.0066213906
-0.0010739409 0.096654683 0.0069576204
0 0.097276025 0.0077191591
0.001058117 0.095230535 0.0077479184
0.0021510751 0.096798375 0.0072261691
0.0031806999 0.095421001 0.0067473352
0.0042153853 0.094846174 0.0061803162
0.0053226259 0.095807269 0.0048597753
-0.018054849 0.096646547 0.0058965385
-0.016972598 0.096531652 0.0067799389
-0.015876735 0.096318856 0.0079296827
-0.014646523 0.095202401 0.0082277358
-0.014166163 0.099163145 0.0080724061
-0.012927663 0.098034777 0.0074924529
-0.011751792 0.097219378 0.0067575276
-0.010865401 0.09887515 0.0064784586
-0.0097537339 0.098621093 0.006103158
-0.0086418903 0.098301508 0.0059036613
-0.0075786361 0.098522276 0.0056709349
-0.0064448593 0.097747043 0.0056917369
-0.0053714863 0.097761057 0.0060366988
-0.0043434398 0.098813266 0.0065113306
-0.003209311 0.097349107 0.0066637993
-0.0021298218 0.096906893 0.0070105493
-0.0011155771 0.10151752 0.0077278018
0 0.096053183 0.0088877678
0.0010799628 0.098276615 0.008916527
0.0021375511 0.097258575 0.0077479184
0.0031761352 0.096342772 0.0067566633
0.0042302408 0.09623798 0.0061762929
0.0053025223 0.09650591 0.0046892464
-0.017987523 0.097344249 0.0049993396
-0.016880736 0.097064227 0.0063077509
-0.015893061 0.097477444 0.0082386732
-0.014964505 0.098338179 0.0088283718
-0.013841131 0.097952627 0.0087187588
-0.012907103 0.098954462 0.0082411468
-0.01208781 0.10109805 0.0075159967
-0.010807224 0.099426463 0.0067801178
-0.0096944338 0.09909866 0.0066334903
-0.0087084919 0.10014766 0.006575793
-0.0075025675 0.098605178 0.0064443052
-0.0064513413 0.098920569 0.0064387321
-0.0054297708 0.099907793 0.0065291524
-0.004269775 0.098204829 0.0068795979
-0.0031779751 0.097457908 0.0070721805
-0.0022346759 0.10279509 0.0081537366
-0.0010753947 0.098936312 0.0089405477
0 0.098127484 0.009100467
0.0010743251 0.098837905 0.0089861155
0.0021052517 0.096841581 0.0083630383
0.0031836797 0.097632848 0.0068274438
0.0042312704 0.097319216 0.005671531
0.0053762929 0.098923795 0.0041871667
-0.018215746 0.099650852 0.0042455494
-0.01686674 0.098037928 0.0058742166
-0.01593866 0.098819695 0.0079296827
-0.014849938 0.098646015 0.0090149939
-0.013483964 0.096462205 0.0096022487
-0.013123007 0.10170331 0.0092127621
-0.011838892 0.10009246 0.0087187588
-0.010848204 0.1008883 0.0082454681
-0.0098943254 0.10224137 0.0077096522
-0.008611083 0.10010384 0.0075159967
-0.0074535594 0.09902586 0.0071896613
-0.0064570666 0.10008454 0.0072547793
-0.0054068975 0.1005683 0.0077404678
-0.0044007008 0.1023163 0.0079524517
-0.0032886567 0.10194836 0.00801
-0.0021387811 0.099453323 0.008669585
-0.0010476628 0.097432643 0.008980602
0 0.099990271 0.008980602
0.0010666681 0.09920013 0.0088957846
0.002117519 0.098464638 0.0072563291
0.0032093711 0.099490508 0.0066748261
0.0042106574 0.097897783 0.0048475862
-0.017088024 0.10039215 0.0049993396
-0.015875565 0.09948688 0.006508261
-0.014663986 0.098458193 0.0085209906
-0.013892991 0.10045701 0.0094637871
-0.012491319 0.097848676 0.0096025467
-0.011689396 0.099891201 0.009709686
-0.010708087 0.10065603 0.009352982
-0.0097312881 0.1016379 0.0090272129
-0.0086561665 0.10170996 0.0089388192
-0.0077119959 0.10356109 0.008413136
-0.0064566955 0.10115489 0.0084946752
-0.0053228843 0.10007023 0.0083851814
-0.0043101795 0.10128922 0.0086434782
-0.0031796366 0.099628612 0.0089220703
-0.0020865486 0.098067783 0.0090755522
-0.0010748622 0.10103705 0.0092192888
0 0.099106774 0.008980602
0.0010594884 0.099591911 0.008712858
0.0021251312 0.099881165 0.0071026683
0.0031561311 0.098892108 0.0056111813
-0.01585336 0.10040461 0.0054083765
-0.014930548 0.10131443 0.0066822469
-0.013641642 0.099688925 0.0084364414
-0.012646585 0.10011879 0.0087187588
-0.011722656 0.10124112 0.0094637871
-0.010390144 0.098706372 0.0086034238
-0.0094301226 0.099540189 0.0085888803
-0.0086470563 0.1026838 0.0085255504
-0.0075000753 0.10178674 0.008413136
-0.006386885 0.10112568 0.0083851814
-0.0053540175 0.10172633 0.0082340539
-0.0041855644 0.099407159 0.0083851814
-0.0031611288 0.10010242 0.0087992251
-0.002150283 0.10213844 0.0087992251
-0.0010615655 0.10084872 0.0088286996
0 0.10019526 0.0086033642
0.0010540312 0.10013296 0.007073909
0.0021107728 0.1002617 0.0066647828
0.0032408601 0.10262723 0.004589051
-0.015967963 0.10219496 0.0041794479
-0.014815941 0.10159502 0.0053331852
-0.013653979 0.10082938 0.0065585077
-0.012726219 0.10180975 0.0085537434
-0.011528273 0.10061038 0.0087476373
-0.010560325 0.10137913 0.0087476373
-0.0096414024 0.10284163 0.0086480081
-0.0084145395 0.10097447 0.008648783
-0.0073738378 0.10112692 0.008648783
-0.0063587362 0.10173978 0.0085339844
-0.0053183874 0.10211305 0.008413136
-0.0042700013 0.10248003 0.0084154308
-0.0031666372 0.10133239 0.0088286996
-0.0020926239 0.10044594 0.008669585
-0.001054207 0.10120387 0.0083844364
0 0.10169368 0.0069869161
0.0010539106 0.10117541 0.0057188869
0.0021198976 0.10175509 0.0044128597
-0.01474781 0.10218125 0.0042389035
-0.013720125 0.10237323 0.0049159229
-0.012723948 0.10285191 0.0066543818
-0.011558199 0.1019223 0.0069528222
-0.010660353 0.10340542 0.0082520247
-0.0094263656 0.10159528 0.0083490908
-0.0083978977 0.1018245 0.0084180236
-0.0073659052 0.1020704 0.0082712173
-0.006299654 0.10184441 0.008107841
-0.0052741766 0.10231902 0.00801
-0.0042353338 0.10270683 0.0079310834
-0.0031730104 0.102594 0.0079310834
-0.0021260378 0.10311283 0.007832557
-0.0010626136 0.10307351 0.0065835714
0 0.10237256 0.0056878924
-0.013866149 0.10452943 0.0040189028
-0.012558223 0.10255881 0.0047108531
-0.011716319 0.10438175 0.0057424009
-0.010590876 0.10379058 0.0064005852
-0.0094779674 0.10320453 0.0065849423
-0.0084982319 0.10410333 0.0066019893
-0.0073911003 0.1034754 0.0066779554
-0.0063120215 0.10309635 0.007769376
-0.0053605656 0.10506709 0.0066408515
-0.0042009191 0.10292251 0.0065926611
-0.0031804244 0.10389387 0.0066711605
-0.0021383183 0.1047776 0.0062028766
-0.0010577976 0.10366416 0.0054003596
-0.010537395 0.10432022 0.0045882165
-0.0096109398 0.10572035 0.0051434636
-0.0084895147 0.10505775 0.0061090887
-0.0073818411 0.10440033 0.0062934458
-0.0063861269 0.1053711 0.0062151551
-0.0052947192 0.10483545 0.006030798
-0.0042285486 0.10465658 0.0052189827
-0.0032025503 0.10568417 0.0042618215
0.11789026 0.12443972 0.0040268898
0 0 0 1 0 0 0 1 0 0 0 1 0 0 0 0 0 483 1 0 0
