ply
format ascii 1.0
comment PCL generated
element vertex 476
property float x
property float y
property float z
element camera 1
property float view_px
property float view_py
property float view_pz
property float x_axisx
property float x_axisy
property float x_axisz
property float y_axisx
property float y_axisy
property float y_axisz
property float z_axisx
property float z_axisy
property float z_axisz
property float focal
property float scalex
property float scaley
property float centerx
property float centery
property int viewportx
property int viewporty
property float k1
property float k2
end_header
0 0.071200199 0.0041983128
-0.010914907 0.072038382 0.0041214824
-0.010010741 0.073412098 0.0044786334
-0.0088950479 0.073384143 0.0043774247
-0.0077329925 0.072911076 0.0043774247
-0.006744762 0.074192382 0.0042305887
-0.0054833628 0.072380386 0.0042705536
-0.0044505796 0.073434561 0.0043250024
-0.0033558733 0.073829211 0.0043565333
-0.0022318682 0.073651649 0.0041214824
-0.0011038518 0.072854221 0.0042074323
0 0.073835202 0.0040125847
0.0010816521 0.071389034 0.0043325722
0.0021640062 0.071412206 0.0041188002
-0.012717913 0.071008354 0.0046031177
-0.011608645 0.070707209 0.005253315
-0.010672423 0.071505234 0.0053346455
-0.009563528 0.071195155 0.0052334964
-0.0084951008 0.071146466 0.0051063597
-0.0074747996 0.071544513 0.0050680041
-0.0063520242 0.070930943 0.0050146282
-0.0053284075 0.071400665 0.0051417649
-0.004318167 0.072329298 0.0046696961
-0.0032275084 0.072081029 0.0048193932
-0.00212308 0.071123175 0.0046373606
-0.0010719534 0.071820885 0.0045078099
0 0.070777528 0.0045928955
0.0011301066 0.075717144 0.0047888458
0.002152066 0.072094209 0.0046386719
-0.013789014 0.072127149 0.0047878623
-0.012659346 0.071736291 0.0053703785
-0.011735428 0.072546281 0.0056927502
-0.010562882 0.071827598 0.0060290992
-0.0094773928 0.071606971 0.0056389868
-0.0084839249 0.072113365 0.005497545
-0.007398528 0.071871415 0.0054138601
-0.0063670902 0.072160356 0.005312711
-0.0053301295 0.072489768 0.0053963959
-0.0041971374 0.071351334 0.0054655075
-0.0031513462 0.071430519 0.0054450035
-0.00213327 0.072531179 0.0052437782
-0.0010554035 0.071767442 0.0050017536
0 0.072748706 0.0046461523
0.0010754813 0.073132724 0.0050462782
0.0021665723 0.073663458 0.0048830509
0.0032499891 0.073666424 0.004064858
-0.016092043 0.074023396 0.0042118132
-0.014859979 0.07323847 0.0047917068
-0.013713019 0.072784483 0.005254209
-0.012822739 0.073730744 0.0057741404
-0.011687603 0.073313147 0.0065668225
-0.010611955 0.073222488 0.0065668225
-0.0096102413 0.073678523 0.0058367848
-0.0085116383 0.07341288 0.0057845712
-0.0074269949 0.07320895 0.005774945
-0.0064120279 0.073738322 0.0051820874
-0.0053201024 0.07341741 0.0056346953
-0.0042203874 0.072801687 0.0056236684
-0.0032181737 0.074018002 0.0059774518
-0.0021207258 0.073165044 0.0056726038
-0.0010591107 0.07307864 0.005636543
0 0.073518343 0.0049996972
0.0010541836 0.072738662 0.0050115585
0.0022415016 0.077331804 0.0052890182
0.0032223198 0.074113354 0.0043184757
-0.015921408 0.074299902 0.0047501028
-0.014815066 0.074075326 0.0054140687
-0.013840696 0.074526824 0.0063297451
-0.012746735 0.07435596 0.0069012642
-0.011711079 0.074525043 0.0070548952
-0.010555245 0.073886715 0.0069012642
-0.0095121572 0.073983446 0.0060977638
-0.0085378364 0.074706063 0.0058752298
-0.0074793543 0.07479354 0.0055163205
-0.0064406754 0.075141214 0.0054630935
-0.0053055482 0.074277677 0.0054727197
-0.0042335037 0.074086308 0.0057686567
-0.0031924923 0.074491486 0.0063471496
-0.0021213936 0.074248768 0.0064304173
-0.0010695356 0.074867487 0.0063250363
0 0.073930137 0.005715698
0.0010637095 0.074459665 0.0053903461
0.0021458988 0.075106457 0.0050375462
0.0033124948 0.077291548 0.004552573
-0.017046947 0.075645819 0.0043935776
-0.015831821 0.074937284 0.0058147907
-0.014949868 0.075817183 0.0063297451
-0.013774722 0.075231172 0.0070046782
-0.012679363 0.075019561 0.0070227087
-0.011798503 0.076153971 0.0071696639
-0.010747001 0.076303698 0.0069079399
-0.0096744765 0.076320872 0.0065273046
-0.0087824557 0.077944294 0.0060661435
-0.0075538959 0.076618083 0.0056290627
-0.006498795 0.076902404 0.0056290627
-0.0054737744 0.077727593 0.005756855
-0.0043255887 0.076779194 0.0061998665
-0.0031918492 0.075540431 0.0066511333
-0.0021377776 0.0758911 0.0066511333
-0.0010572514 0.075064845 0.0068449974
0 0.075751357 0.006647259
0.0010564709 0.075009428 0.0061233342
0.0021034367 0.074671999 0.0063623488
0.0033449398 0.079163574 0.0049676597
0.004299894 0.076323114 0.0042306185
-0.016812192 0.075654864 0.0049709678
-0.015886145 0.076253496 0.0065283179
-0.014950959 0.076890647 0.0069651604
-0.01368455 0.075791351 0.0077240169
-0.013024431 0.078146584 0.0077240169
-0.011873904 0.077720098 0.0075063109
-0.010746549 0.077375151 0.0069651604
-0.0097080888 0.077664711 0.0062164664
-0.0085804164 0.077223741 0.005756855
-0.0075426465 0.077581502 0.0054630935
-0.0065287449 0.078344934 0.005291611
-0.0054140985 0.077963017 0.0054791868
-0.0042877109 0.077178799 0.0059278607
-0.0033067656 0.07936237 0.0071027279
-0.0021606162 0.077782184 0.0074673295
-0.001069696 0.077018112 0.0076638758
0 0.07644368 0.0073747337
0.0010569136 0.076097779 0.0068120658
0.0021168087 0.076205112 0.006636411
0.0032109905 0.077063769 0.0058333874
0.0043858849 0.07894592 0.0048742294
0.0054158983 0.077988937 0.0043309331
-0.017900219 0.076865651 0.0043561757
-0.017095409 0.077997811 0.0056675971
-0.015803657 0.076911137 0.006506294
-0.014875587 0.077565566 0.0068176687
-0.014046434 0.078876138 0.0069831908
-0.012866187 0.07826931 0.0069079399
-0.011833741 0.078533016 0.0067400336
-0.010940329 0.079864405 0.005884558
-0.0097572645 0.079142265 0.0053174794
-0.0086323088 0.078769825 0.0053749681
-0.0076329615 0.079600886 0.0051051676
-0.0065161651 0.079280019 0.0048106313
-0.0054126238 0.079024315 0.0048525631
-0.0043573291 0.079521261 0.0051386952
-0.0032076028 0.078051671 0.0060436428
-0.0021721453 0.079283305 0.0064538717
-0.0010989192 0.080221109 0.0070389807
0 0.077431999 0.0070389807
0.0010664075 0.077847749 0.0068438947
0.0021145605 0.077181466 0.0063049197
0.0031516384 0.076689877 0.0057764351
0.0043954775 0.080217466 0.0046160221
0.0054165227 0.079081237 0.0041148067
-0.019176735 0.078837693 0.0041095912
-0.0179819 0.078274153 0.0046291053
-0.016921991 0.078264207 0.005943656
-0.015861355 0.078249358 0.0067653954
-0.015134084 0.079994448 0.0070162416
-0.014110315 0.080320261 0.0069670379
-0.012807976 0.078982525 0.0066327453
-0.011931998 0.080269814 0.0063373148
-0.010769436 0.079693839 0.0056069493
-0.0096979048 0.079738334 0.0051939785
-0.0087464508 0.08090467 0.005174458
-0.0075716604 0.080043271 0.0049335063
-0.0065082354 0.080268241 0.0048754811
-0.0054348009 0.08043506 0.0047675371
-0.0043218187 0.079953648 0.0050054491
-0.003226863 0.079595953 0.0055823028
-0.0021617068 0.07998316 0.0057345033
-0.0010816428 0.080041565 0.0064884126
0 0.080698468 0.0070389807
0.0010661735 0.07889685 0.0073302388
0.0021049872 0.077884525 0.006916821
0.0031867521 0.078606553 0.0059139431
0.0042616236 0.078840032 0.0054273903
0.0055804881 0.082591228 0.0046170652
-0.019018322 0.079243012 0.0042473376
-0.018184537 0.0802259 0.0053043067
-0.016862648 0.079043664 0.0063888431
-0.016232438 0.081162192 0.0067857206
-0.015069423 0.080729052 0.0068767667
-0.01391319 0.080268405 0.0065871477
-0.013077543 0.08173465 0.0059167743
-0.011870618 0.080936037 0.0059722364
-0.010777775 0.080833316 0.0054220259
-0.009823502 0.081862524 0.0048933029
-0.0085996687 0.080621891 0.0047422349
-0.0075812577 0.081227764 0.0045294464
-0.0065545659 0.081932075 0.0044982731
-0.0054083848 0.081125781 0.0042992532
-0.0043320996 0.081226863 0.0045867264
-0.0032610095 0.081525236 0.0052266717
-0.0021573782 0.08090169 0.0056168437
-0.0010767812 0.080758587 0.0059742928
0 0.081082463 0.0064332187
0.001064735 0.079855129 0.0068438947
0.0021299303 0.079872385 0.0067277551
0.0031892736 0.079731844 0.0061070025
0.0042122426 0.078979552 0.0054935515
0.005432955 0.081494324 0.0046170652
-0.019273594 0.081377402 0.0043825209
-0.017996175 0.080453485 0.0057681799
-0.01702641 0.080875449 0.0064984262
-0.016136158 0.081756532 0.0069444776
-0.014975399 0.081295021 0.0069444776
-0.014092106 0.082384624 0.0066658854
-0.012936505 0.081931204 0.0060335994
-0.011897491 0.082200855 0.0058380365
-0.010844132 0.082415409 0.0052879453
-0.0097150011 0.082037792 0.0045074522
-0.0086997263 0.082647398 0.0044961274
-0.0076335683 0.082878746 0.0044318438
-0.0064714374 0.081971541 0.0043191016
-0.0053915461 0.081951499 0.0041929483
-0.0043327617 0.082322471 0.0043387115
-0.0032327475 0.081896268 0.0049958825
-0.0021701735 0.082466587 0.0052322447
-0.001086714 0.08259026 0.0056140721
0 0.080837719 0.0057525337
0.0010857555 0.082517423 0.00665766
0.0021311166 0.080982432 0.0065849125
0.0031847656 0.080680728 0.0056518316
0.0042742984 0.081211671 0.0053520501
0.0053121787 0.080745123 0.0045105517
-0.019017076 0.081350826 0.004545182
-0.018123152 0.082087211 0.005959034
-0.016902741 0.081344441 0.0065180659
-0.0161018 0.082655907 0.0069444776
-0.015248316 0.083865739 0.0070120692
-0.014084059 0.083420962 0.0068867505
-0.012958556 0.083150737 0.0058772564
-0.011930853 0.083515979 0.0058365464
-0.01082836 0.083378375 0.0050673187
-0.0097487764 0.083406202 0.004470855
-0.0086679384 0.083428904 0.0044660568
-0.0075491671 0.083040841 0.0044318438
-0.0065112012 0.083560415 0.0044318438
-0.0054276777 0.083586238 0.0041929483
-0.0043295664 0.083344154 0.0043387115
-0.0032513747 0.083451957 0.0047675371
-0.0021660591 0.083393276 0.0050519407
-0.0010760936 0.082859211 0.0051569939
0 0.083776951 0.0054237843
0.0010727406 0.082601026 0.0059415996
0.0021185176 0.081562929 0.0061208606
0.0031994635 0.082119562 0.0056138039
0.0042373617 0.08156921 0.005337745
0.0053061377 0.081714526 0.0044935048
-0.020381184 0.083670124 0.0041674674
-0.019095393 0.082746699 0.0053043067
-0.018029317 0.082722753 0.0065028369
-0.01693505 0.082558371 0.0074450672
-0.016140943 0.083932906 0.0076799095
-0.015094667 0.084098853 0.0077019334
-0.014007504 0.084045023 0.0070734024
-0.013090344 0.085087232 0.0064943135
-0.011860138 0.084099159 0.0059580803
-0.010774847 0.084043808 0.0053428411
-0.0097248424 0.084281966 0.0045074522
-0.0085815582 0.083670191 0.0044547319
-0.0076172729 0.084878184 0.0043056905
-0.0065501719 0.085152231 0.0041223466
-0.0053964197 0.084184147 0.0040413141
-0.0043019322 0.083887674 0.0041397214
-0.0032626046 0.084827721 0.0044943094
-0.0021631329 0.084362186 0.0050514042
-0.0010771475 0.084017508 0.0056052208
0 0.084830016 0.0053128004
0.0010608688 0.082747765 0.0062007606
0.0021546346 0.084030747 0.0059691668
0.0031863002 0.082843803 0.0051423907
0.0042171911 0.082235225 0.0051236153
0.0053087482 0.082816474 0.0041074753
-0.020178569 0.083900362 0.0041781068
-0.019154161 0.084065489 0.0057945251
-0.018062476 0.083937384 0.0065134764
-0.017041828 0.084144026 0.0075027943
-0.016026625 0.08440689 0.0078678131
-0.015284237 0.086246766 0.0079044104
-0.014055304 0.085413001 0.007175833
-0.012974383 0.085414693 0.0065763593
-0.011756531 0.084433272 0.0059772134
-0.010807437 0.085378751 0.0050352514
-0.0097729992 0.085785218 0.0043411553
-0.0086243972 0.085165925 0.0044652224
-0.0075944178 0.085708424 0.0041000843
-0.003215841 0.084683813 0.0046226978
-0.0021475153 0.084826857 0.0048481226
-0.0010798691 0.085309654 0.0052393377
0 0.085725777 0.0056608915
0.0010776557 0.085134797 0.0062094033
0.0021316034 0.084198333 0.0062096119
0.0031797704 0.083733954 0.0051622391
0.0042518075 0.083973192 0.0050952137
-0.019096641 0.084873959 0.0057958364
-0.018093467 0.085145727 0.0066320002
-0.016940974 0.084704861 0.0075337887
-0.016009118 0.085381962 0.0079836845
-0.01519412 0.086823538 0.008177191
-0.01390487 0.085568428 0.0079044104
-0.01285846 0.085723065 0.007071346
-0.011930406 0.086766586 0.0065619051
-0.010804665 0.086437322 0.0057253242
-0.0096967779 0.086193576 0.0052593648
-0.0086499285 0.086499274 0.0049805343
-0.0075338758 0.086101435 0.0044900477
-0.0064481748 0.085975662 0.0047283471
-0.0054307529 0.086892046 0.0044943094
-0.0043143472 0.086286947 0.0047989488
-0.0032205821 0.085882187 0.0051276982
-0.0021704054 0.086816214 0.0053309798
-0.001077619 0.086209521 0.0059967935
0 0.086759858 0.0070937574
0.001080489 0.086439118 0.0073125958
0.0021173113 0.084692448 0.007250458
0.0031931386 0.085150361 0.0055435896
0.0041988357 0.083976708 0.0052181184
-0.019057335 0.085758008 0.0053043067
-0.018124323 0.086357065 0.0065134764
-0.016843939 0.085272439 0.0076610744
-0.016106203 0.086973488 0.0081634521
-0.014901645 0.086216651 0.0082924366
-0.014190902 0.088420227 0.0083284676
-0.01290171 0.087086543 0.0075412393
-0.011832642 0.087131269 0.0071232021
-0.010654863 0.086304389 0.0060335994
-0.0097490931 0.087741837 0.0054742396
-0.0085965134 0.087039694 0.0054742396
-0.0075151767 0.086961322 0.0053651929
-0.0065250117 0.088087656 0.0051641762
-0.0053928709 0.08736451 0.005118221
-0.0043096328 0.087270059 0.0051423907
-0.0032426906 0.087552644 0.0056646168
-0.0021427025 0.086779445 0.0062935054
-0.0011048279 0.089491054 0.007075578
0 0.0859624 0.0076056719
0.0010580339 0.085700743 0.0079809427
0.0021156901 0.085685447 0.007548213
0.0031548422 0.085180737 0.0053309798
0.0041977623 0.08500468 0.004671067
-0.019198418 0.087459467 0.0040430725
-0.017934879 0.086509421 0.0064165294
-0.01695127 0.08687526 0.0078368187
-0.015946118 0.087172121 0.0082924366
-0.014679573 0.085980363 0.0085118413
-0.013934053 0.08789172 0.0087013841
-0.013122535 0.089670666 0.0085707605
-0.011721767 0.087380446 0.0079232156
-0.01080432 0.088595435 0.0070968866
-0.0096733822 0.088135272 0.0064162016
-0.0085999556 0.088149548 0.0065346658
-0.0075671067 0.088643253 0.0063930154
-0.0064458493 0.088093281 0.0060044527
-0.0053994926 0.088551685 0.0062239468
-0.0043342849 0.088852838 0.0063987374
-0.0031859132 0.087081634 0.0067306161
-0.0022091526 0.090575263 0.0071436763
-0.0010812306 0.088660911 0.0077410042
0 0.086442322 0.0083302855
0.0010768701 0.08830335 0.0085428953
0.0021096379 0.086495161 0.0075713992
0.0031482822 0.086053051 0.0053067803
0.0042305929 0.08672715 0.0042860806
-0.017984845 0.087808356 0.0055138469
-0.016907584 0.087708093 0.0077482164
-0.01584159 0.087656803 0.0084171891
-0.014988925 0.088862918 0.0088113248
-0.013664964 0.087245546 0.0089139044
-0.01280883 0.088594407 0.0087381601
-0.012063267 0.091022834 0.0087131858
-0.010902238 0.090488583 0.0083072484
-0.0096524851 0.089017369 0.0078264177
-0.0085641872 0.088853449 0.0077478588
-0.0074647502 0.08851061 0.0072831511
-0.0064129336 0.088712253 0.0072779357
-0.0054060766 0.08974088 0.007414639
-0.0043679629 0.090635233 0.0076620579
-0.0032995034 0.091286264 0.0082095563
-0.0021630442 0.089766338 0.0085428953
-0.00104565 0.086788952 0.0091093183
0 0.090248093 0.0090842843
0.0010609939 0.088062488 0.0087995529
0.0021052517 0.087367944 0.0076208115
0.0031771734 0.087901801 0.005340308
-0.016952572 0.089001 0.0069879591
-0.015947282 0.089304782 0.0080735683
-0.014689209 0.088135257 0.0085102022
-0.013858183 0.08954519 0.0092811584
-0.012600581 0.088204071 0.0090037286
-0.011853168 0.090515107 0.0091599822
-0.010680835 0.089719012 0.0087526441
-0.0099198883 0.092585631 0.0085154176
-0.0088524921 0.092951171 0.0084798336
-0.0076819598 0.092183515 0.0082328618
-0.0066796644 0.093515307 0.0082328618
-0.0054642367 0.091799177 0.008485049
-0.0042509716 0.089270405 0.0082328618
-0.0032115676 0.089923903 0.0085639358
-0.0020871325 0.087659568 0.0087244213
-0.0010667887 0.089610249 0.0088737011
0 0.089846119 0.0085639358
0.0010475738 0.0879962 0.0084523559
0.0021265168 0.089313708 0.0070960224
0.0031662765 0.088655747 0.0041895807
-0.016935434 0.089969493 0.0042078495
-0.015881119 0.089993015 0.0071160495
-0.014725189 0.089402929 0.007675916
-0.013807014 0.090276629 0.0084795058
-0.012959082 0.0917935 0.0084703267
-0.011429409 0.088318162 0.00867185
-0.010584213 0.089965813 0.0085725188
-0.0096417144 0.091060638 0.0085004568
-0.0085646473 0.090999372 0.0082918108
-0.0074889753 0.090937555 0.0082106292
-0.006454438 0.091437876 0.0081486404
-0.0053105876 0.090279996 0.0084550381
-0.004221627 0.089709572 0.0083118677
-0.0031750537 0.08995986 0.0086463988
-0.00213248 0.090630397 0.0086027086
-0.0010696494 0.090920195 0.0083950162
0 0.089526281 0.0080246329
0.0010654146 0.090560243 0.006488502
0.00211912 0.090062596 0.0044426024
-0.015831912 0.090769626 0.0045445859
-0.014986254 0.09205842 0.0070901513
-0.013684553 0.090528578 0.0079410076
-0.012604951 0.090335481 0.0081906021
-0.011708721 0.09154091 0.008502394
-0.010734948 0.092320554 0.0083352923
-0.0094393995 0.090198711 0.0083352923
-0.0084510818 0.090849131 0.0081062615
-0.0072790375 0.089428172 0.0081486404
-0.0063438485 0.090928495 0.0081290007
-0.0053561586 0.09212593 0.0083304346
-0.0042657279 0.091713145 0.008292228
-0.0031725375 0.090946078 0.008351326
-0.0021241179 0.09133707 0.0083302855
-0.0010552725 0.090753436 0.0080246329
0 0.091722667 0.0066188872
0.0010592069 0.091091797 0.0046949387
-0.013565238 0.090782747 0.0072909594
-0.012819285 0.092939816 0.007773906
-0.011605714 0.091790639 0.00844872
-0.010500085 0.091350734 0.0084565282
-0.0094876029 0.091713496 0.00844872
-0.0084452908 0.091842532 0.0081059337
-0.0074470909 0.0925567 0.0081062615
-0.0064088483 0.092928298 0.0080442727
-0.0052607493 0.091537036 0.0080947578
-0.0042365957 0.092145957 0.0080628395
-0.0031800154 0.092220448 0.0081486404
-0.0021052656 0.091579057 0.007760644
-0.0010639033 0.092559591 0.006488502
0 0.092145175 0.004075557
-0.01264474 0.092728093 0.0074987411
-0.011757476 0.09405981 0.0079232156
-0.010596411 0.093248419 0.0084019005
-0.0095019452 0.092907906 0.008333087
-0.0084108775 0.092519648 0.0081962049
-0.0074140308 0.09320496 0.0081641376
-0.0063126143 0.092585012 0.0080395341
-0.0052827168 0.092975818 0.0081641376
-0.0042415312 0.093313687 0.0080714524
-0.0031638858 0.092807315 0.0080395341
-0.0021163158 0.093117893 0.006488502
-0.0010590011 0.093192086 0.004075557
-0.010653901 0.094819717 0.0058014691
-0.0095333559 0.094274297 0.007432878
-0.0084992787 0.094554476 0.007414639
-0.0073701316 0.093705952 0.0074514151
-0.0063371398 0.094000906 0.0073898733
-0.0053388523 0.095031574 0.0074514151
-0.0042573889 0.094726898 0.0066100955
-0.0032107851 0.095253289 0.0061067343
-0.0085104555 0.095742628 0.0048563778
-0.0075098509 0.096555226 0.0049812198
-0.0064965081 0.097447626 0.0062283278
-0.0053208414 0.09577515 0.0048780739
0 0 0 1 0 0 0 1 0 0 0 1 0 0 0 0 0 476 1 0 0
