ply
format ascii 1.0
comment PCL generated
element vertex 324
property float x
property float y
property float z
element camera 1
property float view_px
property float view_py
property float view_pz
property float x_axisx
property float x_axisy
property float x_axisz
property float y_axisx
property float y_axisy
property float y_axisz
property float z_axisx
property float z_axisy
property float z_axisz
property float focal
property float scalex
property float scaley
property float centerx
property float centery
property int viewportx
property int viewporty
property float k1
property float k2
end_header
-0.011877045 -0.058197521 0.0046130121
-0.010154651 -0.05528643 0.0056884885
-0.0091410726 -0.055989072 0.0055107474
-0.0078450423 -0.054915294 0.0053565502
-0.0066341795 -0.054179132 0.0053565502
-0.0055504572 -0.054394476 0.0052574277
-0.0044523505 -0.05454129 0.0052888393
-0.0033066531 -0.054008666 0.0049634278
-0.0021807447 -0.05342824 0.0040722787
-0.011583283 -0.050545234 0.0048384964
-0.010558171 -0.050679222 0.0056711435
-0.0096657863 -0.051550861 0.0062695444
-0.0085578794 -0.051347278 0.0057454407
-0.0074605248 -0.051157884 0.0056737065
-0.0064338543 -0.051470835 0.0056737065
-0.0053935088 -0.051777683 0.0055810511
-0.0042536622 -0.051043943 0.0056052208
-0.0032342672 -0.051748276 0.0053750277
-0.002151005 -0.051624116 0.0049634278
-0.0010720009 -0.051456045 0.0049819052
-0.014000549 -0.050617371 0.0041832626
-0.012848308 -0.050322544 0.0052016973
-0.011787107 -0.050363097 0.0059175491
-0.010868201 -0.051080547 0.0062695444
-0.0096626207 -0.050460357 0.0065610707
-0.0086964937 -0.051091902 0.0062502325
-0.0076330956 -0.051250786 0.0057023764
-0.0064833323 -0.050786104 0.0056980848
-0.0053896378 -0.0506626 0.0056097209
-0.0043617282 -0.051250305 0.0056460202
-0.0032377574 -0.050724868 0.0056033731
-0.0021710133 -0.051018812 0.0055172443
-0.0010871517 -0.05109613 0.0055179298
0 -0.050077323 0.0056052208
0.0010865461 -0.051067665 0.0049819052
-0.014025024 -0.04962701 0.0052326024
-0.012854169 -0.049274318 0.0059348941
-0.011893729 -0.049737416 0.006343931
-0.010768973 -0.049537282 0.0065463483
-0.0096991844 -0.049573611 0.0066001415
-0.0086631328 -0.049813017 0.0062502325
-0.0075920392 -0.049890544 0.0057023764
-0.0065306188 -0.050068077 0.0056980848
-0.0054335832 -0.04998897 0.0055625737
-0.0043041017 -0.049497169 0.0056460202
-0.0032570399 -0.049941279 0.0054538548
-0.0021729684 -0.049978275 0.0053949356
-0.0010686243 -0.049156718 0.0058650374
0 -0.049455028 0.0058183968
0.0010791647 -0.049641576 0.0053949356
0.0021203887 -0.048768941 0.0044828355
-0.015033093 -0.048320659 0.0045522749
-0.013936057 -0.0482402 0.0060028136
-0.012946444 -0.048549168 0.0065610707
-0.011887072 -0.048628934 0.0066004097
-0.010795619 -0.048580289 0.0066400468
-0.009794591 -0.048972957 0.0066001415
-0.0087358393 -0.049139097 0.0059631765
-0.0076666889 -0.049285859 0.0054676831
-0.0066095176 -0.049571384 0.0050931275
-0.0054629794 -0.049166817 0.0047220886
-0.004372444 -0.04919 0.005207032
-0.0032739509 -0.049109265 0.0051521957
-0.0021592788 -0.048583772 0.0056627095
-0.0010792252 -0.048565138 0.0058414042
0 -0.04855983 0.0060172379
0.0010724993 -0.048262473 0.0058429241
0.0021578246 -0.048551057 0.0053333938
0.0032050579 -0.048075873 0.0044183731
-0.01513559 -0.047568996 0.0048334599
-0.014058009 -0.047580954 0.0060578585
-0.012970354 -0.047557965 0.0064025223
-0.011823689 -0.047294755 0.0068176091
-0.0110052 -0.04842288 0.0065549314
-0.0099101691 -0.048449717 0.005862385
-0.0087532671 -0.048142966 0.0052869618
-0.0076004979 -0.047774557 0.004719317
-0.0065342458 -0.047917802 0.0048970878
-0.0054369047 -0.047844764 0.0048286021
-0.0043552211 -0.047907431 0.0050528944
-0.0032730317 -0.048004463 0.005155921
-0.0021946616 -0.048282556 0.0057852864
-0.0010924923 -0.048069656 0.005669415
0 -0.047344424 0.0060167015
0.0010818249 -0.047600295 0.0060151815
0.0021711453 -0.047765199 0.005669415
0.0032059383 -0.047020428 0.0056198537
0.0043261293 -0.047587425 0.0043626726
-0.017365167 -0.046668883 0.0040724277
-0.015976056 -0.04579803 0.0050954819
-0.015108268 -0.046403967 0.0062308609
-0.01404918 -0.046470363 0.0077144504
-0.012941841 -0.046374932 0.0076793134
-0.012084854 -0.047240794 0.0077144504
-0.010994215 -0.04727513 0.0073780715
-0.0097333612 -0.046503842 0.0061594546
-0.0088467821 -0.047551457 0.0055546165
-0.0077289869 -0.047478061 0.0047694743
-0.00662584 -0.047485188 0.0046805143
-0.0055165677 -0.047442485 0.0046155751
-0.0044196821 -0.047511581 0.0050002337
-0.0032948272 -0.047225855 0.0051474273
-0.0021900379 -0.04708581 0.0059575737
-0.0010906033 -0.04689594 0.0061889887
0 -0.047274094 0.0068593025
0.0010852681 -0.046666529 0.0068396926
0.002144326 -0.046103008 0.0067772567
0.0032437206 -0.046493329 0.0066569746
0.0042744284 -0.045950107 0.0056590438
0.0053268224 -0.045810673 0.0042597651
-0.017173881 -0.045081437 0.0045572519
-0.016226588 -0.045434445 0.005417496
-0.015025686 -0.045077059 0.0060299337
-0.014042623 -0.045368478 0.0076388121
-0.013215824 -0.046255384 0.0068176091
-0.011938659 -0.045583975 0.0062640309
-0.010944966 -0.04596886 0.0055310726
-0.0099514453 -0.04644008 0.0052103996
-0.0087501565 -0.04593832 0.0043435991
-0.0032884155 -0.046037819 0.0041287541
-0.0022011646 -0.046224456 0.004375577
-0.0010907685 -0.045812279 0.0053648949
0 -0.045730915 0.0060152113
0.0010868874 -0.045649271 0.0061889887
0.0021452531 -0.045050316 0.0066569746
0.0032272898 -0.04518206 0.0067772567
0.0042736107 -0.044872914 0.0057226121
0.0053412584 -0.044866569 0.004930675
-0.0184623 -0.044526726 0.0042859614
-0.017277196 -0.044272818 0.0054991543
-0.016169827 -0.04419753 0.0057936609
-0.015044815 -0.044059817 0.0062640309
-0.01415341 -0.04463768 0.0065055192
-0.01304023 -0.044554122 0.0063556135
-0.012015757 -0.044786006 0.0057431757
-0.011050253 -0.045306042 0.0048858523
-0.0098830471 -0.045022774 0.0042945445
-0.0011084571 -0.045446746 0.0043542385
0 -0.044864934 0.0051173866
0.0010908665 -0.044725526 0.0060544014
0.0021911752 -0.044919096 0.0058619082
0.0032166541 -0.04396094 0.0064857006
0.0043356051 -0.044439953 0.00582546
0.0053741685 -0.044068184 0.0052272677
-0.018189706 -0.042799309 0.0050021112
-0.017257269 -0.043143172 0.0057936609
-0.016200246 -0.043200657 0.0060276687
-0.015195441 -0.043415546 0.0064015985
-0.014242882 -0.043824252 0.0063608587
-0.013062417 -0.04354139 0.0057941079
-0.012232254 -0.044480924 0.0051957369
0 -0.044177223 0.0046571493
0.0010938701 -0.043754805 0.0058564246
0.0021577477 -0.043154951 0.0057353973
0.003256229 -0.043416388 0.0063654184
0.0043330509 -0.043330509 0.0058056712
0.0053767287 -0.04301383 0.0053537786
0.0064813388 -0.043208923 0.0044329762
-0.018391024 -0.042191174 0.0055848062
-0.016978173 -0.041384295 0.0061115921
-0.016201476 -0.042123836 0.0061115921
-0.015331615 -0.042709496 0.0062640309
-0.014063422 -0.042190265 0.0062453747
-0.013252686 -0.043071229 0.0055213273
-0.012120465 -0.042972561 0.0045574009
0 -0.042927112 0.0041267276
0.0010962615 -0.042754203 0.0047125816
0.0021802441 -0.04251476 0.0055641532
0.0032615769 -0.042400498 0.005849123
0.0043161474 -0.04208244 0.0057614148
0.0053935172 -0.042069435 0.0055623055
0.0064348634 -0.041826613 0.0050056875
-0.018284053 -0.040870238 0.0054161549
-0.01740922 -0.0413469 0.0060299337
-0.016148008 -0.040908288 0.0059429407
-0.015290252 -0.041502111 0.0061022341
-0.014077813 -0.041150533 0.0057399273
-0.013133523 -0.041589491 0.0049797595
0.0011045357 -0.041972358 0.0045467913
0.0021695949 -0.0412223 0.0055332184
0.0032344928 -0.040970244 0.0056672692
0.0043079504 -0.040925533 0.0054611862
0.0053948029 -0.041000504 0.0052398443
0.0064353049 -0.040756933 0.0050250888
-0.018352231 -0.039943092 0.0053016245
-0.01728804 -0.039978597 0.0056250095
-0.016032532 -0.039546911 0.0058631301
-0.015528266 -0.04103899 0.0060299337
-0.014217561 -0.04046537 0.0055031478
-0.013117637 -0.040446047 0.0049483776
0.0010994493 -0.040679626 0.0045467913
0.0021496986 -0.039769426 0.0044874549
0.0032873375 -0.040543832 0.0057479739
0.0042776233 -0.039568014 0.0056474805
0.0053590224 -0.039656766 0.0055017173
0.0064772326 -0.039942935 0.0052464306
0.007618085 -0.04026702 0.0040755868
-0.018334715 -0.038826451 0.0052770078
-0.017212331 -0.038727745 0.0056250095
-0.016208202 -0.038899682 0.0058631301
-0.015163852 -0.038992759 0.0060152411
-0.014076374 -0.038980726 0.0057120025
-0.013195629 -0.039586887 0.0049483776
0.0010953862 -0.039433904 0.0043397546
0.0021992542 -0.039586574 0.004558593
0.0032558346 -0.039070014 0.0057984591
0.0042773765 -0.038496386 0.0053571463
0.0054018311 -0.038893186 0.0053571463
0.0064885346 -0.038931206 0.0046912134
-0.01837898 -0.037839077 0.0050954819
-0.017351102 -0.037955534 0.0055396855
-0.016137104 -0.037653245 0.0056250095
-0.015204582 -0.038011458 0.0061022341
-0.014305197 -0.038513992 0.0055031478
-0.013124944 -0.038281087 0.0049518049
-0.012148945 -0.038655732 0.004064858
0.0010992113 -0.038472395 0.004589051
0.0021952435 -0.038416762 0.004589051
0.0032257554 -0.037633814 0.0047760904
0.0043179207 -0.037781805 0.0048679411
0.0053866212 -0.037706349 0.0042806566
0.0064983447 -0.037907012 0.004116416
-0.017365493 -0.036901675 0.0050156713
-0.016197016 -0.036713239 0.0053832233
-0.015227384 -0.036980793 0.0060066283
-0.014380092 -0.037609473 0.0059099793
-0.012971798 -0.036753427 0.0050156713
-0.012128828 -0.037489105 0.0041470528
0.0010947683 -0.037222125 0.0047377646
0.0021603536 -0.036726009 0.0048523545
0.003270189 -0.037062146 0.0057984591
0.0043113115 -0.036646146 0.004794687
0.0053665107 -0.036492277 0.0042074025
-0.017088326 -0.03524467 0.0042597651
-0.016191272 -0.035620797 0.0051743686
-0.015202489 -0.035834439 0.0060066283
-0.013972494 -0.035468638 0.0059811771
-0.013267513 -0.036485661 0.0053363442
-0.01205985 -0.03617955 0.0046572387
-0.011000664 -0.03630219 0.0040349662
0 -0.036136985 0.00446558
0.0011205797 -0.036979131 0.0049259365
0.0021784254 -0.035944022 0.0048954785
0.0032280278 -0.035508305 0.0050596297
0.0042808526 -0.035317034 0.0041933954
-0.016248289 -0.034663018 0.0040567815
-0.014925764 -0.03411603 0.0058446527
-0.013981629 -0.034416318 0.0061285496
-0.013249045 -0.035330787 0.0061474144
-0.012127779 -0.035280813 0.0051553547
-0.010878927 -0.03481257 0.0045557022
-0.0098977089 -0.035191856 0.0040019751
-0.0010936975 -0.03499832 0.004414469
0 -0.035408821 0.0047137439
0.0010809941 -0.034591813 0.0051947534
0.002158443 -0.034535088 0.0043454468
0.0032016931 -0.034151394 0.0041933954
-0.015211928 -0.033683557 0.0056743622
-0.014052294 -0.033509318 0.0060864091
-0.012992771 -0.033564661 0.0064763427
-0.012471073 -0.035145756 0.0065498352
-0.011161833 -0.034601685 0.0061129332
-0.0097672706 -0.033642825 0.005107075
-0.0087539563 -0.033921581 0.0045348406
-0.0043657152 -0.033834293 0.0043843985
-0.0032913189 -0.034010295 0.0045054853
-0.0021908421 -0.033958055 0.00500229
-0.0011075898 -0.034335285 0.0053405762
0 -0.034521971 0.0057502687
0.0010710532 -0.033202648 0.0056044459
0.0021452478 -0.033251341 0.0043454468
0.0032546613 -0.0336315 0.0041134059
-0.013945138 -0.032181088 0.0054886639
-0.013044827 -0.032612067 0.0059493184
-0.011677131 -0.031846721 0.0063670576
-0.010743309 -0.032229926 0.0064516962
-0.010513185 -0.035043951 0.0061461627
-0.0088066803 -0.033025052 0.0059812963
-0.0076351343 -0.032722004 0.0055333376
-0.0065180352 -0.032590177 0.0049605668
-0.0054562017 -0.032737214 0.0049605668
-0.0043546255 -0.032659691 0.0048939288
-0.0033490364 -0.033490364 0.0049370527
-0.0023194323 -0.034791484 0.0058622956
-0.0010663919 -0.031991757 0.006013453
0 -0.032814544 0.006013453
0.0010683985 -0.032051954 0.0052363873
0.0021697327 -0.032545991 0.0046487153
-0.012889653 -0.031149995 0.0046013594
-0.011920679 -0.031427249 0.0053817034
-0.010764124 -0.031215962 0.0059307516
-0.0096144108 -0.030979769 0.0058256388
-0.0086395033 -0.031318199 0.0058680177
-0.008026001 -0.033250578 0.0054155886
-0.0069979201 -0.033823282 0.0048428178
-0.0056815958 -0.032953259 0.004912287
-0.0045733778 -0.033156991 0.0046489537
-0.0032695583 -0.031605732 0.0047137439
-0.0021155186 -0.03067502 0.0055151582
-0.0010935897 -0.0317141 0.0050596297
0 -0.031029899 0.0051949918
0.0010828861 -0.031403698 0.0043289363
0.0021604002 -0.031325806 0.0040075481
-0.010815285 -0.030282799 0.0054886639
-0.0095871072 -0.029826557 0.0053817034
-0.0087052537 -0.030468389 0.0056217015
-0.0074973991 -0.029989596 0.0050935447
-0.0064101797 -0.029914172 0.004540503
-0.0053724102 -0.030085498 0.0046489537
-0.0042610681 -0.029827476 0.004460305
-0.0032071839 -0.029933717 0.0045085847
-0.0021529975 -0.030141965 0.0043454468
-0.0010678106 -0.029898696 0.0042020082
0 -0.030207058 0.004186064
-0.0097266911 -0.029180074 0.0050812364
-0.0085549233 -0.028872868 0.005235374
-0.0075408351 -0.029086079 0.0050578713
-0.006444125 -0.028998563 0.0045085847
-0.0053538629 -0.02891086 0.0044688582
-0.0042987838 -0.029016791 0.0042806566
-0.0032617543 -0.02935579 0.0040979683
-0.0021662631 -0.029244551 0.0040681064
-0.0086522093 -0.028119681 0.0043216944
-0.0075902003 -0.028192174 0.0042103529
0 0 0 1 0 0 0 1 0 0 0 1 0 0 0 0 0 324 1 0 0
