ply
format ascii 1.0
comment PCL generated
element vertex 381
property float x
property float y
property float z
element camera 1
property float view_px
property float view_py
property float view_pz
property float x_axisx
property float x_axisy
property float x_axisz
property float y_axisx
property float y_axisy
property float y_axisz
property float z_axisx
property float z_axisy
property float z_axisz
property float focal
property float scalex
property float scaley
property float centerx
property float centery
property int viewportx
property int viewporty
property float k1
property float k2
end_header
-0.012118553 0.0033050599 0.0040917099
-0.010617726 0.0031853176 0.0042002797
-0.0096975164 0.0032325056 0.0041719377
-0.0064315344 0.0032157672 0.004727006
-0.005354309 0.0032125853 0.0048186183
-0.0042325961 0.003174447 0.0051004887
-0.012764107 0.0042547025 0.00415501
-0.011743509 0.0042703673 0.0049405992
-0.010749152 0.0042996607 0.0050207675
-0.0096051376 0.0042689503 0.0049405992
-0.0085593238 0.0042796619 0.0047074556
-0.0075614518 0.0043208296 0.0045979619
-0.0064043244 0.0042695496 0.0048071742
-0.0053401692 0.0042721354 0.0055060983
-0.0043088375 0.0043088375 0.0061556399
-0.0032086517 0.0042782025 0.0055060983
-0.0021371834 0.0042743669 0.0054198503
-0.0010809791 0.0043239165 0.0044345558
-0.015238382 0.0054422789 0.0043931305
-0.013899198 0.0053458451 0.0045277178
-0.012819328 0.0053413869 0.0051333308
-0.011907434 0.0054124701 0.0054413676
-0.010757993 0.0053789965 0.0054161847
-0.0096942885 0.005385716 0.0053438544
-0.008665883 0.0054161767 0.0048603117
-0.0074963756 0.0053545539 0.0047371089
-0.0064802282 0.0054001901 0.0050472021
-0.0054189698 0.0054189698 0.0055592358
-0.0043009124 0.0053761401 0.0063208044
-0.0032217307 0.005369551 0.0062300861
-0.0021678524 0.0054196306 0.006364435
-0.001069852 0.0053492598 0.0057832897
0 0.0054096379 0.005389154
0.0010749735 0.0053748675 0.0047923326
-0.016261743 0.0065046968 0.0040898323
-0.014993036 0.006425587 0.0051085949
-0.013954965 0.0064407531 0.0052766502
-0.013009026 0.0065045129 0.0054596364
-0.011833281 0.0064545167 0.0056913495
-0.010706426 0.0064238552 0.0056281388
-0.0097597847 0.0065065236 0.0054413676
-0.0086772889 0.0065079667 0.0048115551
-0.0075690872 0.0064877891 0.0047313869
-0.0065173139 0.0065173139 0.0051629841
-0.0053892164 0.0064670597 0.0055060983
-0.0043100314 0.0064650467 0.0063281655
-0.0032324111 0.0064648222 0.0067783892
-0.0021376596 0.0064129783 0.0070374608
-0.0010728637 0.0064371824 0.0065523684
0 0.0064247651 0.0057631731
0.0010637793 0.0063826763 0.0055900216
0.0022047244 0.0066141728 0.0047923326
-0.015989669 0.0074618454 0.0048026741
-0.015026548 0.007513274 0.0053621233
-0.01389182 0.0074802106 0.0054390728
-0.012866631 0.0075055351 0.0058178008
-0.011777829 0.0074949828 0.0057926178
-0.01092784 0.0076494878 0.0056661665
-0.0098553868 0.0076653012 0.0049924254
-0.0087749502 0.0076780813 0.0044380724
-0.0065741073 0.007669792 0.0043343008
-0.0055161021 0.0077225436 0.004786104
-0.0043927659 0.0076873405 0.005350709
-0.0032399616 0.0075599104 0.0055162013
-0.0021507414 0.0075275945 0.0059960186
-0.0010882446 0.007617712 0.0061303675
0 0.0074658077 0.005600512
0.0010814164 0.0075699147 0.00582847
0.002130135 0.0074554724 0.0052924156
0.0034115158 0.007960204 0.0045233965
-0.017198421 0.0085992105 0.0044159293
-0.016074818 0.0085732359 0.005436331
-0.015139289 0.0086510228 0.0061709881
-0.013922061 0.0085674217 0.0065226853
-0.012971328 0.0086475518 0.0070428848
-0.012155351 0.0088402554 0.0063360929
-0.010901121 0.0087208971 0.0054642558
-0.0097177923 0.0086380383 0.0050106943
-0.0087384563 0.0087384563 0.0044380724
-0.0076819216 0.0087793386 0.0043420792
-0.0065269847 0.0087026469 0.0047074556
-0.0054664672 0.0087463483 0.0048334897
-0.0043206271 0.0086412542 0.0053864121
-0.0032866283 0.0087643424 0.0059211552
-0.0021880716 0.0087522864 0.006542325
-0.0010749645 0.0085997162 0.0066215694
0 0.0086358339 0.0067663789
0.0010774031 0.0086192247 0.0067178607
0.0021216222 0.0084864888 0.0057832897
0.0032557207 0.0086819222 0.0051185787
-0.018363658 0.0097219357 0.0042033494
-0.017079584 0.0096072657 0.0054265559
-0.016198236 0.0097189415 0.0058277547
-0.015185397 0.0097620403 0.0068843365
-0.014072606 0.0097425738 0.0066983998
-0.013100061 0.0098250452 0.0061789155
-0.012124544 0.0099200811 0.0054925978
-0.010907856 0.0098170703 0.0053018928
-0.00988073 0.00988073 0.004537791
-0.0087989401 0.0098988079 0.004142344
-0.0065628444 0.0098442659 0.0040170848
-0.0054478906 0.0098062037 0.0042273998
-0.0044006179 0.0099013895 0.0048115551
-0.0032963292 0.0098889871 0.0052643418
-0.0021595482 0.0097179664 0.0057609081
-0.0010900255 0.0098102298 0.0063248873
0 0.0097339991 0.0067285597
0.0010744807 0.0096703265 0.0070090592
0.0021628402 0.00973278 0.0067620575
0.0031964793 0.0095894374 0.0057832897
0.0044274386 0.0099617364 0.0051923096
-0.018187599 0.010698587 0.0047614872
-0.017430374 0.010893984 0.0056137145
-0.016027328 0.010684884 0.0066938102
-0.015183643 0.01084546 0.0068809986
-0.014138303 0.010875617 0.0061709881
-0.013113175 0.010927645 0.005840838
-0.011975695 0.010886995 0.0050926805
-0.010910256 0.010910256 0.0045277178
-0.0098900162 0.010988908 0.00415501
-0.0044076703 0.011019176 0.0041640997
-0.0032749211 0.010916403 0.0046209395
-0.0021916048 0.010958023 0.0051271319
-0.0010896561 0.010896561 0.0055117309
0 0.010895376 0.0062456429
0.0010884979 0.010884979 0.0066215694
0.0021519836 0.010759917 0.0066285729
0.0032196962 0.01073232 0.0059027374
0.0042889328 0.010722332 0.0053866208
0.0057462314 0.011492463 0.0045874715
-0.019365892 0.011834712 0.0047832429
-0.018302357 0.011842702 0.005145967
-0.017215827 0.011835881 0.0063533485
-0.016137743 0.011834344 0.0068312883
-0.015294369 0.012017004 0.0068312883
-0.014220533 0.012032758 0.0063218176
-0.013080879 0.011990806 0.0054678619
-0.012088848 0.012088848 0.0047536492
-0.010983271 0.012081598 0.0040715635
-0.0022070648 0.012138857 0.0044789612
-0.0010933027 0.01202633 0.0051409304
0 0.012010946 0.0059829056
0.0010810513 0.011891564 0.0068509877
0.0021472101 0.011809655 0.0066215694
0.003215828 0.011791369 0.0062538981
0.0043064491 0.011842735 0.0056183934
0.005351827 0.011774019 0.0051518679
-0.019217646 0.012811763 0.0049883723
-0.018325891 0.012935922 0.0060622096
-0.017140538 0.012855403 0.0065221786
-0.016194141 0.012955312 0.0066619515
-0.015201175 0.013029578 0.006575346
-0.014025495 0.012946611 0.0052995682
-0.013196176 0.013196176 0.0049419701
-0.012062514 0.013159106 0.0042074025
-0.0021763106 0.013057864 0.0040003359
-0.0010915786 0.013098943 0.0047309697
0 0.013046325 0.0054581165
0.0010853619 0.013024343 0.0064566433
0.0021615615 0.012969369 0.0065356791
0.0032212648 0.012885059 0.0059385896
0.0042644534 0.01279336 0.0054581165
0.0053389487 0.012813478 0.0052545369
-0.019338887 0.013966975 0.0061398745
-0.018241653 0.013949499 0.0064777434
-0.017286325 0.014045139 0.0066087842
-0.016341781 0.014162878 0.006657809
-0.015178673 0.014094481 0.0066483319
-0.014212861 0.014212861 0.0052600205
-0.013152751 0.014248814 0.0049686432
-0.012008634 0.014192022 0.0042325854
-0.0010911886 0.014185453 0.0046097636
0 0.01409914 0.0060741007
0.0010899089 0.014168816 0.0066148937
0.0021595643 0.014037169 0.0064905286
0.0032087644 0.013904646 0.006214112
0.004324086 0.01405328 0.0060339272
0.0053866743 0.014005353 0.0054098666
0.0064144284 0.013897928 0.0040493906
-0.020520227 0.015120167 0.0041340888
-0.019283567 0.01499833 0.0058169365
-0.018219419 0.015004228 0.0061038435
-0.017203035 0.015052655 0.006565541
-0.01629382 0.015207566 0.0067065358
-0.01528056 0.01528056 0.0065738261
-0.014172867 0.015263088 0.0054586828
-0.013192575 0.015391339 0.0049701631
-0.0010914014 0.01527962 0.0043050647
0 0.015305262 0.0058671534
0.001081042 0.015134587 0.0064481199
0.0021406137 0.014984296 0.0066739321
0.0032441418 0.015139328 0.0063841641
0.0042898417 0.015014446 0.0060339272
0.0053271144 0.014915921 0.0057280362
0.0065034572 0.015174734 0.0046024323
-0.020395793 0.016101941 0.0041333735
-0.019339897 0.016116582 0.0057871044
-0.018219844 0.016076332 0.0059156716
-0.017174203 0.016100816 0.0061732829
-0.016278649 0.016278649 0.0067201257
-0.015309018 0.016402518 0.0062347054
-0.014190587 0.016373755 0.0056484342
-0.013125603 0.016407005 0.004558593
-0.0010870374 0.01630556 0.0045690835
0 0.016443625 0.0057474971
0.0010660766 0.015991149 0.0063730776
0.0021661334 0.016246 0.0065700412
0.0032222786 0.016111394 0.006316632
0.0042353482 0.015882555 0.0058808029
0.0053705005 0.016111502 0.0058671534
0.0065167602 0.0162919 0.0048666298
-0.020360293 0.017145509 0.0040682256
-0.019391712 0.017237078 0.0059867501
-0.01806286 0.01700034 0.0061100423
-0.017293327 0.017293327 0.0061727166
-0.016162004 0.017239472 0.0067402422
-0.015138753 0.017301431 0.006614536
-0.0141528 0.017418832 0.0061427355
-0.013084873 0.017446497 0.0052642524
-0.011935033 0.017360048 0.0040622652
-0.0010931469 0.01749035 0.0050112307
0 0.017321758 0.0063138306
0.0010792555 0.017268088 0.0064727664
0.0021506923 0.017205538 0.0064013302
0.0031950988 0.017040528 0.0056970417
0.0043382654 0.017353062 0.0056522489
0.0053523141 0.017127406 0.0053856075
0.0064141494 0.017104398 0.0043440461
-0.019269219 0.018198708 0.0059308708
-0.01818103 0.01818103 0.0061195493
-0.017195128 0.018269824 0.0064759254
-0.016134774 0.018286079 0.006932497
-0.015364779 0.018657232 0.0069000721
-0.014072983 0.018403132 0.0060825944
-0.013144178 0.018620919 0.005553335
-0.012002131 0.018548749 0.0041502714
-0.0021933585 0.018643547 0.0042566359
-0.0010911458 0.018549478 0.0055826902
0 0.018692454 0.0064842105
0.001073357 0.01824707 0.0065772831
0.0021486431 0.018263467 0.0066803396
0.0032104868 0.018192759 0.0061604977
0.0042778756 0.018180972 0.0056243539
0.0053831348 0.018302659 0.0055795312
-0.019164158 0.019164158 0.005451858
-0.018186294 0.019256074 0.0061195493
-0.017055944 0.019187935 0.006834209
-0.016129363 0.019355236 0.007440567
-0.015161114 0.019492861 0.0075817406
-0.014027125 0.019422174 0.0064759254
-0.013126669 0.019690003 0.005769968
-0.012021586 0.019671686 0.0050086975
-0.0021643681 0.01947931 0.0055364072
-0.0010757373 0.019363271 0.0059806108
0 0.020136327 0.0068228841
0.0010680013 0.019224022 0.0073157251
0.002150967 0.019358702 0.0070903003
0.0032218318 0.01933099 0.0067746937
0.0042839875 0.019277941 0.0059155822
0.0054041697 0.01945501 0.0051950514
-0.019423706 0.020502804 0.0051706433
-0.018180061 0.020318892 0.0061453581
-0.017173748 0.020393826 0.0069019496
-0.016077291 0.02036457 0.0079101324
-0.014832132 0.020129323 0.0082464218
-0.014456807 0.02112918 0.0073174238
-0.012927906 0.020469185 0.0064297318
-0.011907017 0.020566666 0.0059949756
-0.010909904 0.020728817 0.0050552487
-0.004380452 0.020807147 0.0044895709
-0.003272986 0.020728912 0.0052082539
-0.0021772741 0.020684104 0.0059562624
-0.0010986358 0.020874081 0.0065834522
0 0.020502675 0.0073547363
0.0010735423 0.020397304 0.00795874
0.0021465772 0.020392485 0.0068685114
0.0031998998 0.020266032 0.0064562261
0.0042878785 0.020367423 0.0049293637
-0.01821509 0.021429518 0.0052772462
-0.017153164 0.021441454 0.0064038932
-0.016014179 0.021352239 0.0078541636
-0.015099585 0.021570835 0.0079973936
-0.014096603 0.021687081 0.0078518987
-0.013144745 0.021907909 0.0071311593
-0.011851329 0.021547871 0.0064317584
-0.010885444 0.021770887 0.0060213506
-0.0097492579 0.021665018 0.0055782795
-0.0087117674 0.021779418 0.0051957071
-0.0075839395 0.021668397 0.0049649477
-0.0065720277 0.021906758 0.0046262443
-0.0054723094 0.021889238 0.0054102838
-0.0043170741 0.021585369 0.0053097904
-0.0032382419 0.021588279 0.0055870116
-0.0021700668 0.021700667 0.0070342422
-0.0011022172 0.022044344 0.0073581934
0 0.021314833 0.0078103542
0.0010686008 0.021372015 0.0074268878
0.0021295082 0.021295082 0.0068507195
0.0032082801 0.021388533 0.0059155822
-0.017108142 0.022454437 0.0063139498
-0.016076939 0.022507716 0.0073974133
-0.014945157 0.022417737 0.0078518987
-0.013749851 0.022211298 0.0078500509
-0.01316644 0.023041269 0.0077706575
-0.012333237 0.023545271 0.0071193576
-0.010733698 0.022540767 0.0062411726
-0.0097655458 0.022786276 0.0059224963
-0.0086322417 0.022659635 0.0055959821
-0.0075591039 0.022677314 0.0058324635
-0.0065328297 0.022864906 0.0054610372
-0.0053635361 0.022526851 0.0055929422
-0.0043043448 0.02259781 0.0063057542
-0.0033521794 0.023465257 0.0067995191
-0.0022534537 0.023661265 0.006942004
-0.0010542765 0.022139806 0.0075469315
0 0.022474902 0.0077860057
0.0010585998 0.022230595 0.0073599517
0.0021488429 0.022562852 0.0069766939
0.0032040339 0.022428239 0.0045465231
-0.016105818 0.023621865 0.0063714683
-0.014857973 0.023348242 0.0073741972
-0.013971883 0.023644725 0.0077249408
-0.01280173 0.023469837 0.0077854693
-0.011761869 0.023523739 0.007709682
-0.011497329 0.025294123 0.0069885552
-0.010182768 0.024891211 0.0065415502
-0.0088390224 0.024307309 0.0063057542
-0.0076100784 0.02391739 0.006319046
-0.006502734 0.023843357 0.0063138604
-0.0055527594 0.024432141 0.0065581501
-0.0046181558 0.025399856 0.0067118108
-0.0032341068 0.023716783 0.0067093074
-0.002099362 0.023092981 0.0071105063
-0.0010723394 0.023591466 0.0073684454
0 0.023529924 0.0074234307
0.0010700867 0.023541907 0.006690979
0.0021479463 0.02362741 0.0046533644
-0.015062011 0.024744732 0.00615412
-0.013875802 0.024549497 0.0070736408
-0.012737142 0.024412856 0.0069885552
-0.011830506 0.024736512 0.0069885552
-0.010520195 0.02419645 0.0066757798
-0.0094966702 0.02426927 0.0065415502
-0.0088144122 0.025341436 0.0062708259
-0.0076239239 0.025050037 0.0062867105
-0.0064956141 0.024899855 0.0063210428
-0.0054716328 0.025169512 0.0065210462
-0.0042196489 0.02426298 0.0066536665
-0.0031991377 0.024526723 0.0066789687
-0.0021452103 0.024669919 0.006819576
-0.0010628753 0.024446132 0.0071124434
0 0.024587618 0.0067421794
0.0010690236 0.024587544 0.0043047667
-0.013827904 0.025528438 0.0055112243
-0.012810476 0.025620952 0.0057203174
-0.011753815 0.025644688 0.0063057542
-0.010655562 0.02557335 0.0062786043
-0.0095845489 0.025558798 0.0062867105
-0.0084217098 0.025265127 0.0059428215
-0.007402142 0.025378771 0.0060994923
-0.0064753103 0.025901241 0.0059437752
-0.0052623819 0.025259433 0.0059438348
-0.0042777034 0.025666218 0.0063653886
-0.0032077995 0.025662396 0.0065057874
-0.0021372272 0.025646728 0.0064175427
-0.001073919 0.025774054 0.0050696135
-0.012967655 0.027015949 0.0046125352
-0.011707189 0.026607251 0.0055381954
-0.010705042 0.026762607 0.0053485632
-0.0095967762 0.026657714 0.0055860877
-0.0085615851 0.026754955 0.0055140555
-0.0074968482 0.026774459 0.00551036
-0.0063848733 0.026603639 0.0059655905
-0.005345555 0.026727777 0.0052950084
-0.0042768074 0.026730048 0.0053233802
-0.0032001901 0.026668252 0.0049679875
-0.0021491942 0.026864927 0.0049542487
-0.0096105831 0.027763907 0.0045270026
-0.0085894279 0.027915642 0.0044455528
-0.0064714705 0.028043039 0.004311651
0.12458411 0.033692557 0.012581497
0 0 0 1 0 0 0 1 0 0 0 1 0 0 0 0 0 381 1 0 0
