ply
format ascii 1.0
comment PCL generated
element vertex 307
property float x
property float y
property float z
element camera 1
property float view_px
property float view_py
property float view_pz
property float x_axisx
property float x_axisy
property float x_axisz
property float y_axisx
property float y_axisy
property float y_axisz
property float z_axisx
property float z_axisy
property float z_axisz
property float focal
property float scalex
property float scaley
property float centerx
property float centery
property int viewportx
property int viewporty
property float k1
property float k2
end_header
-0.0076117278 -0.032621689 0.0040164888
-0.0065289787 -0.032644894 0.0040164888
-0.0054735299 -0.03284118 0.0041713417
-0.0032903007 -0.032903008 0.0043481588
-0.0021597608 -0.032396413 0.0040107667
-0.01202384 -0.034869138 0.0043443441
-0.010660121 -0.034349281 0.0046246052
-0.0093837427 -0.034016069 0.0045571625
-0.0083256569 -0.034492008 0.0044394135
-0.00712416 -0.034433443 0.0046246052
-0.0057466635 -0.033330653 0.0046431422
-0.0046991389 -0.03406876 0.0042938292
-0.0034910438 -0.03374676 0.0044790208
-0.0022877473 -0.033172335 0.0046999753
-0.011799725 -0.030035663 0.0041868985
-0.010660834 -0.029850334 0.0051706731
-0.0094710793 -0.02946558 0.0050097704
-0.0085889762 -0.030061416 0.0052474439
-0.0074114027 -0.029645611 0.0048523247
-0.0063879197 -0.029810293 0.0048423409
-0.0053520347 -0.029971397 0.0049967468
-0.0042170314 -0.029519221 0.0049202442
-0.0031894839 -0.029768517 0.004957974
-0.002133168 -0.029864354 0.0047783256
-0.0010590515 -0.029653441 0.0045971572
0 -0.030174699 0.0040161312
-0.011723474 -0.0287758 0.0049287975
-0.010708271 -0.028912332 0.0059600174
-0.0097535122 -0.02926054 0.0059471726
-0.0085505443 -0.028858088 0.0053631365
-0.0075463699 -0.029107427 0.0049287975
-0.0064601838 -0.029070828 0.004957974
-0.0053669414 -0.028981486 0.0049287975
-0.0043073008 -0.02907428 0.0050294697
-0.0032539067 -0.029285161 0.0063599646
-0.0021527573 -0.029062225 0.0054138005
-0.00106994 -0.028888382 0.0047677755
0 -0.029377967 0.004391551
0.0010595977 -0.028609138 0.0042416751
-0.012875097 -0.027896043 0.004907757
-0.011797666 -0.02788539 0.0065702498
-0.010842641 -0.028190866 0.0067542195
-0.0096976338 -0.028015386 0.0067308545
-0.008664377 -0.028159225 0.0058379173
-0.0075625195 -0.028089358 0.0051296949
-0.0065057841 -0.028191732 0.0047840178
-0.0053945975 -0.028051907 0.0050294697
-0.0043231002 -0.028100152 0.006241262
-0.0032372847 -0.028056467 0.00654459
-0.002154086 -0.028003117 0.006352365
-0.0010846589 -0.028201129 0.0060687661
0 -0.027808877 0.0058360696
0.0010721243 -0.027875233 0.0044840872
0.0021371706 -0.027783219 0.0043582618
-0.014006082 -0.026934775 0.0049107969
-0.012926777 -0.026930787 0.0064984858
-0.01202237 -0.027323572 0.0068559647
-0.010818808 -0.027047023 0.0068397522
-0.0096581047 -0.026828071 0.006752193
-0.0086915493 -0.027161093 0.0060833693
-0.0075977943 -0.027134981 0.0047280788
-0.0065159444 -0.02714977 0.0045567751
-0.0054712147 -0.027356075 0.0053249598
-0.0043084514 -0.026927821 0.0060988665
-0.003238894 -0.026990784 0.006360203
-0.0021698852 -0.027123567 0.0066488981
-0.0010737552 -0.026843879 0.0066488981
0 -0.027085869 0.0063864589
0.0010697995 -0.026744988 0.006206274
0.0021405527 -0.026756909 0.005795002
0.0032292181 -0.026910152 0.0044303238
-0.015052997 -0.025805138 0.0044608116
-0.014023243 -0.025889063 0.0048750937
-0.012901004 -0.025802009 0.0057936311
-0.011912433 -0.025990766 0.0064330697
-0.010749876 -0.025799701 0.0064175725
-0.0098989038 -0.026397077 0.0055086911
-0.0088004647 -0.026401395 0.0043355525
-0.0033040261 -0.026432209 0.0056266785
-0.0021910323 -0.026292387 0.0058938563
-0.0010806142 -0.025934741 0.0060740411
0 -0.026009321 0.0060815215
0.0010669803 -0.025607526 0.0061096847
0.0021560956 -0.025873145 0.0060334206
0.0031853404 -0.025482723 0.0051687658
-0.016213061 -0.024860028 0.0044545233
-0.015172736 -0.024926638 0.0054326653
-0.014012638 -0.024791591 0.0057244003
-0.013013877 -0.024943266 0.0064308643
-0.011964381 -0.025016433 0.0064381361
-0.011027127 -0.025362391 0.0062712729
-0.0097836843 -0.02500275 0.0052497089
-0.0087925019 -0.025278443 0.0043327212
-0.0032758384 -0.025114762 0.0053584874
-0.0021526369 -0.024755325 0.0064372718
-0.0011001306 -0.025303004 0.0069642961
0 -0.02483264 0.007001549
0.0010816855 -0.024878768 0.0070776045
0.0021579938 -0.02481693 0.0072854757
0.0032113735 -0.024620529 0.0062112212
0.0042576329 -0.024481388 0.0053892434
-0.016062925 -0.023558956 0.0047644973
-0.01520638 -0.023895739 0.0055388212
-0.014119813 -0.023895068 0.0056270957
-0.013045642 -0.023917008 0.0055781007
-0.012008903 -0.024017805 0.0055311918
-0.011018933 -0.024241652 0.0049296021
-0.0010837856 -0.023843281 0.0058716536
0 -0.024206342 0.0068720579
0.0010872558 -0.023919627 0.0069997311
0.0021446587 -0.023591245 0.0074294806
0.0032348372 -0.02372214 0.0065063834
0.0042708931 -0.023489911 0.0061108768
0.0053521642 -0.023549521 0.0048000515
-0.017061414 -0.022393106 0.0042410791
-0.016180992 -0.02265339 0.0053461492
-0.015033762 -0.022550642 0.0054919124
-0.014109836 -0.022792812 0.0055388212
-0.013135034 -0.02298631 0.0053367615
-0.012149778 -0.023195032 0.0043429732
0 -0.022835502 0.0055236816
0.0010837479 -0.022758709 0.0068787336
0.0021694242 -0.022778954 0.0073777139
0.0032339918 -0.022637945 0.0073978305
0.0043023964 -0.022587582 0.0065538883
0.005384542 -0.022615079 0.0053377151
-0.01733231 -0.021665387 0.0042098463
-0.016166626 -0.0215555 0.0050919652
-0.015138781 -0.021626828 0.0052283406
-0.014141706 -0.02175647 0.0051914454
-0.013165928 -0.021943213 0.0044797659
0.0010835821 -0.02167164 0.0060518384
0.0021688489 -0.021688487 0.0071271956
0.0032216166 -0.021477444 0.0074294806
0.004310254 -0.021551268 0.0067905486
0.0053791404 -0.021516562 0.0065509677
0.0064266156 -0.021422051 0.0047893524
-0.01825144 -0.020398669 0.0041235387
-0.017328572 -0.020577678 0.0049796402
-0.016011558 -0.020281307 0.0051212311
-0.015259924 -0.020709898 0.0051347911
-0.014165581 -0.020703543 0.0049991012
-0.013029453 -0.020629968 0.0040462613
0.001089378 -0.020698182 0.0056699216
0.0021565659 -0.020487376 0.0066010356
0.0032485023 -0.020573849 0.0074729025
0.00429811 -0.020416023 0.0068415403
0.0053539113 -0.020344863 0.006613493
0.0064504165 -0.02042632 0.0057617128
-0.018530816 -0.019620864 0.0047529042
-0.017178647 -0.019325977 0.0049191415
-0.016442547 -0.019731054 0.0050527155
-0.015233558 -0.019586002 0.0050529242
-0.01393769 -0.019298341 0.0049111247
0.001094255 -0.01969659 0.0050823987
0.0021661953 -0.019495757 0.0066010356
0.003238461 -0.019430764 0.0074294806
0.0042725359 -0.019226411 0.0067905486
0.0054203109 -0.019513119 0.0066105723
0.0064796652 -0.019438995 0.0057949722
-0.019463116 -0.018381832 0.0040477812
-0.018204829 -0.018204829 0.004932493
-0.017352909 -0.018437466 0.0049707592
-0.016207827 -0.018368872 0.0050662756
-0.015024684 -0.018244259 0.0050529242
-0.014321529 -0.018728154 0.0049111247
-0.01316683 -0.018653009 0.0040344298
0.0010963239 -0.018637506 0.0047321916
0.0021536388 -0.018305929 0.0062664151
0.0032165179 -0.018226935 0.0064944923
0.0043297773 -0.018401554 0.006550163
0.0053739971 -0.018271592 0.0064553916
0.0064460174 -0.018263716 0.0064553916
-0.019394999 -0.017239999 0.0041994452
-0.018341228 -0.017262332 0.004932493
-0.017242678 -0.017242678 0.0049707592
-0.016151957 -0.017228756 0.0051055551
-0.01524872 -0.017427109 0.0050922036
-0.014205839 -0.01748411 0.0049191415
0.0010965588 -0.01754494 0.0049361587
0.0021433812 -0.017147049 0.0066010356
0.0032824655 -0.017506484 0.0068835914
0.0043019545 -0.017207818 0.0068835914
0.0053891721 -0.017245352 0.0068539381
0.0064521637 -0.017205769 0.0068539381
-0.019469187 -0.016224323 0.0041994452
-0.018460982 -0.0162891 0.0050393641
-0.017144978 -0.016073417 0.0051420331
-0.016201014 -0.016201014 0.0052525997
-0.015224616 -0.016312089 0.0052553117
-0.014193754 -0.016377408 0.0049080551
-0.013132912 -0.01641614 0.0042334795
0.001081066 -0.016215989 0.0049361587
0.0021728359 -0.016296269 0.0063646734
0.0032209989 -0.016104994 0.0067308545
0.0042921347 -0.016095504 0.0068835914
0.0053546592 -0.016063977 0.0068539381
0.0064944616 -0.016236154 0.0057617128
-0.018210104 -0.014996557 0.0049191415
-0.017364757 -0.015194163 0.0051420331
-0.016181469 -0.015102704 0.0053069293
-0.014993229 -0.014993229 0.0057207942
-0.014103191 -0.015188051 0.0051602125
-0.013072703 -0.015251487 0.0045073032
0.001099689 -0.015395646 0.0050206184
0.0021408575 -0.014986002 0.0064944923
0.0032242157 -0.01504634 0.0064583421
0.0043110475 -0.015088666 0.0064944923
0.0053947507 -0.015105303 0.005569756
0.0064442316 -0.015036541 0.0042434633
-0.017150894 -0.013935101 0.0051018596
-0.016005609 -0.013871528 0.0053110123
-0.015172703 -0.014088939 0.0057281554
-0.014145553 -0.014145553 0.0053110123
-0.013035061 -0.014121316 0.0047977567
0.0011030117 -0.014339152 0.0063273609
0.002126046 -0.013819299 0.007368952
0.0032221107 -0.013962479 0.007368952
0.0043094605 -0.014005746 0.0067937672
0.0053592515 -0.013934054 0.0045332909
-0.01722531 -0.012918983 0.0045005083
-0.01620419 -0.012963351 0.0053566396
-0.015108224 -0.012949906 0.0061459839
-0.013967686 -0.012893249 0.0061459839
-0.013498831 -0.013498831 0.0056799352
-0.011994156 -0.013084535 0.004874438
0 -0.013332293 0.005916208
0.0010636036 -0.012763242 0.0068732202
0.002139986 -0.012839916 0.0070901513
0.0032187051 -0.01287482 0.0063668787
0.0042561647 -0.012768494 0.0042712092
-0.016097544 -0.011804865 0.0052118301
-0.015067521 -0.011838766 0.005979538
-0.014092234 -0.011924198 0.0062281489
-0.013124745 -0.012031016 0.0064099431
-0.012129732 -0.012129732 0.0060524642
-0.010788282 -0.011867111 0.0051736236
-0.0098312348 -0.012015954 0.0042128563
-0.0021770764 -0.01197392 0.0043046176
-0.0010957408 -0.012053149 0.0059152246
0 -0.012003571 0.0065689981
0.0010780037 -0.01185804 0.0078006089
0.00214977 -0.011823735 0.0064907968
0.003213085 -0.011781312 0.0062046349
-0.016014535 -0.010676357 0.0045101941
-0.015036098 -0.01074007 0.0057705045
-0.013945842 -0.01072757 0.0062322319
-0.012703731 -0.010586442 0.0065409541
-0.011810139 -0.01073649 0.0066101849
-0.011762772 -0.011762772 0.0059964061
-0.0096887285 -0.010765254 0.0057556629
-0.0087208971 -0.010901121 0.0045009553
-0.0032866246 -0.010955415 0.0052343011
-0.002272798 -0.011363989 0.006916225
-0.0011100766 -0.011100764 0.0073347092
0 -0.010668618 0.007522583
0.0010726493 -0.010726493 0.0078006089
0.0021375981 -0.010687989 0.0064583719
0.0032281079 -0.010760359 0.0042712092
-0.015035284 -0.0096655395 0.0043521225
-0.013850829 -0.0095890351 0.0053110123
-0.0128361 -0.0096270749 0.0064099431
-0.011713644 -0.0095838904 0.0062607229
-0.010498941 -0.009449047 0.0059964061
-0.0099657485 -0.0099657485 0.0058571398
-0.0092684841 -0.010427045 0.0056400299
-0.0078773489 -0.010128019 0.0047267675
-0.0069080838 -0.010362126 0.0047356188
-0.0056377668 -0.01014798 0.0047356188
-0.0046127485 -0.010378684 0.0048429668
-0.0034821306 -0.010446391 0.005191952
-0.0021385783 -0.0096236011 0.0063667893
-0.001058936 -0.0095304232 0.0067702532
0 -0.0095858658 0.0065689981
0.0010576559 -0.0095189018 0.0063273609
-0.013033482 -0.0086889882 0.0058104098
-0.011799399 -0.0085813813 0.0061715543
-0.010793859 -0.0086350879 0.0060524642
-0.0096832346 -0.0086073205 0.0057992637
-0.0085585285 -0.0085585285 0.0052115619
-0.0073567922 -0.0084077632 0.0047267675
-0.0064249435 -0.0085665919 0.0048424006
-0.0053280913 -0.0085249459 0.0048424006
-0.0042877086 -0.0085754171 0.0048847497
-0.0031615349 -0.0084307604 0.0050296187
-0.002143081 -0.0085723242 0.0058627129
-0.0010676489 -0.008541191 0.0058951378
0 -0.0084958617 0.0050451756
-0.011911234 -0.0075798761 0.0048600137
-0.010682832 -0.0074779824 0.0054048896
-0.0095816562 -0.0074523995 0.0058117211
-0.008642802 -0.0075624515 0.0051239133
-0.0075478717 -0.0075478717 0.0043500066
-0.0064618201 -0.0075387899 0.0049372613
-0.0054179542 -0.0075851358 0.0049206316
-0.0043025403 -0.0075294459 0.0050451756
-0.0031841791 -0.0074297511 0.0049206316
-0.0021551307 -0.007542958 0.0050714016
-0.0010686745 -0.0074807215 0.0044736564
-0.009704927 -0.0064699515 0.0046248436
-0.0085860975 -0.0064395731 0.0043077171
-0.0074675283 -0.0064007384 0.0042324662
-0.0064628143 -0.0064628143 0.0042552054
-0.0053401408 -0.0064081689 0.0042552054
-0.0042827185 -0.0064240778 0.0042910874
-0.003234972 -0.006469944 0.004330188
-0.0021435125 -0.0064305374 0.004330188
0 0 0 1 0 0 0 1 0 0 0 1 0 0 0 0 0 307 1 0 0
