ply
format ascii 1.0
comment PCL generated
element vertex 355
property float x
property float y
property float z
element camera 1
property float view_px
property float view_py
property float view_pz
property float x_axisx
property float x_axisy
property float x_axisz
property float y_axisx
property float y_axisy
property float y_axisz
property float z_axisx
property float z_axisy
property float z_axisz
property float focal
property float scalex
property float scaley
property float centerx
property float centery
property int viewportx
property int viewporty
property float k1
property float k2
end_header
-0.011704535 0.050010286 0.0043776929
-0.010572765 0.049691997 0.0042932928
-0.009463734 0.049421724 0.004288435
-0.0085153375 0.050027605 0.0042932928
-0.0042292317 0.049693473 0.0040616095
-0.003178169 0.049791314 0.0042561889
-0.0021335883 0.050139323 0.0041707456
-0.012753053 0.051012211 0.0044582784
-0.011739057 0.051224977 0.0046682954
-0.010592065 0.050841913 0.0045982897
-0.0097033735 0.051751327 0.0045090318
-0.0085297944 0.051178768 0.0045138896
-0.0074550165 0.05112011 0.0042120218
-0.0052945316 0.050827503 0.0041306615
-0.0042652851 0.051183421 0.0043655038
-0.0032170133 0.051472213 0.004484117
-0.0021390179 0.051336426 0.0045932531
-0.0010612246 0.050938781 0.0043842793
0 0.051124923 0.0041560829
-0.014857347 0.052000713 0.0040048659
-0.013920717 0.052470393 0.0046809018
-0.012802241 0.052275818 0.0050381422
-0.011741542 0.052303232 0.0050381422
-0.010760131 0.052724641 0.0047975183
-0.0096177021 0.052363046 0.0046873093
-0.0085335402 0.052267931 0.0047668815
-0.0074773589 0.052341513 0.004422307
-0.0063887243 0.052174579 0.0042850375
-0.0053431806 0.052363172 0.0043373704
-0.0042870091 0.052515861 0.0045365989
-0.0031986223 0.05224416 0.004892081
-0.0021345054 0.052295379 0.0051874518
-0.0010716203 0.05250939 0.0049987733
0 0.051818557 0.0048318803
0.0010621181 0.052043784 0.0043223798
-0.015044995 0.053732123 0.0047045052
-0.013841797 0.05323768 0.005421102
-0.012781654 0.053256892 0.0055871606
-0.011725993 0.053299971 0.0051833987
-0.010885085 0.05442543 0.0047668815
-0.0096104173 0.053391211 0.0046307147
-0.008702741 0.054392133 0.0046568215
-0.0075957701 0.0542555 0.0041406751
-0.0043149861 0.053937331 0.0042850375
-0.003200552 0.053342536 0.0048449636
-0.0021570886 0.05392722 0.0050241947
-0.0010699626 0.053498134 0.005150944
0 0.053313758 0.005150944
0.0010660299 0.053301495 0.0045672059
-0.017022353 0.054258749 0.0040371418
-0.016069682 0.054636918 0.0049797595
-0.015003936 0.054657198 0.0062695146
-0.013837501 0.054285582 0.0061491728
-0.01293222 0.054961935 0.006156683
-0.011883306 0.055095334 0.0059036016
-0.010770447 0.054929279 0.004953742
-0.0099198259 0.056212351 0.0048111379
-0.0086918147 0.055410322 0.0046113729
-0.0076061119 0.055415958 0.0043080151
-0.0065317592 0.055519957 0.0040502846
-0.0054892832 0.055990692 0.0042251647
-0.0043453393 0.055403076 0.0046478212
-0.0032955464 0.056024291 0.0049899817
-0.0021555719 0.054967083 0.0052667558
-0.0010721707 0.054680705 0.005672425
0 0.054508127 0.0056975186
0.0010592872 0.05402365 0.0055503249
0.0021484348 0.054785084 0.0046139061
-0.017068207 0.055471674 0.0052545965
-0.016113546 0.055860288 0.0063407123
-0.014857059 0.055183362 0.0067698956
-0.014020112 0.056080449 0.0067371428
-0.012919426 0.05598418 0.0067433417
-0.01195734 0.05652561 0.0063079596
-0.010868591 0.056516677 0.0052958429
-0.0098095071 0.056677151 0.0048007071
-0.0086653661 0.056324881 0.0045239627
-0.0075871991 0.056362052 0.0042251647
-0.0065587135 0.056842182 0.00422135
-0.0054500587 0.056680612 0.0044816434
-0.0043616192 0.056701045 0.0047014654
-0.0032433497 0.056218062 0.0051926672
-0.0021914111 0.056976687 0.0055121183
-0.0010876736 0.056559026 0.0058072507
0 0.055571899 0.0067614019
0.0010739476 0.055845276 0.0060885847
0.0021235682 0.05521277 0.0057911873
0.0031929219 0.055343978 0.0045672059
-0.018165285 0.056632947 0.004891783
-0.017027922 0.056404989 0.0062043667
-0.015902674 0.056189448 0.0067126751
-0.015232863 0.057667267 0.0067532957
-0.014021878 0.057166118 0.0066180825
-0.013006619 0.057445899 0.0063079596
-0.012029259 0.057959158 0.0053526461
-0.010836688 0.057434443 0.0046635568
-0.0097862203 0.057629965 0.0043260157
-0.0043278146 0.057343539 0.0042009354
-0.003255904 0.057520971 0.0046649575
-0.0021688228 0.057473801 0.0050696135
-0.0010867183 0.057596065 0.0058134198
0 0.057685949 0.006110549
0.001072755 0.056856014 0.0062564313
0.0021249384 0.056310866 0.0061531663
0.0032167353 0.056828991 0.0053504705
-0.019111369 0.057334114 0.0046773553
-0.018280439 0.058067281 0.0052512586
-0.016977899 0.057300407 0.0065698624
-0.016172817 0.058222141 0.0067433417
-0.015117954 0.058312111 0.0067698956
-0.01389872 0.057733148 0.0062154531
-0.013135715 0.059110723 0.0054669082
-0.011941588 0.058622345 0.0047881603
-0.01088327 0.058769662 0.0043406188
-0.0032767691 0.058981847 0.0041770637
-0.0021655723 0.058470454 0.0046779811
-0.0010814063 0.058395941 0.0051926672
0 0.058748536 0.0058873296
0.0010697439 0.057766169 0.006157577
0.0021378968 0.057723217 0.0059607327
0.0032048021 0.057686441 0.0058090985
0.0042195627 0.056964096 0.0047285855
-0.019158218 0.058539003 0.0048502684
-0.018166607 0.058774315 0.005913049
-0.017125787 0.058869891 0.0064122081
-0.016276075 0.059678946 0.0066275299
-0.014997958 0.058920551 0.0066569448
-0.014017304 0.05930398 0.0057511032
-0.013045829 0.059793383 0.0050173402
-0.011884461 0.059422307 0.0043408871
-0.0021770503 0.059868887 0.004398644
-0.001090287 0.059965786 0.004968524
0 0.059085537 0.0056338012
0.0010844276 0.059643514 0.0061795413
0.0021334367 0.058669511 0.0062564313
0.0032011934 0.058688547 0.0060887039
0.0042529446 0.05847799 0.0059392154
-0.019151712 0.059583105 0.005459547
-0.018015817 0.059346218 0.0060751438
-0.017116107 0.059906371 0.0063221157
-0.016096752 0.060094539 0.0066069961
-0.015146635 0.060586538 0.0066262782
-0.014080017 0.060652383 0.0057373047
-0.013019665 0.060758434 0.0049134195
-0.011972717 0.060952015 0.0042296946
-0.0021759474 0.060926523 0.0041046143
-0.0010804354 0.060504381 0.0049097836
0 0.060751427 0.0054318011
0.0010781407 0.060375877 0.0056181252
0.0021308993 0.059665181 0.0063254237
0.0032234732 0.0601715 0.0061795413
0.0042478745 0.059470244 0.0059428215
0.0052982243 0.059340112 0.0048196316
-0.019099504 0.060481764 0.0054590404
-0.018141856 0.060828578 0.0059128106
-0.01695288 0.060394634 0.0062426031
-0.016188912 0.061517861 0.0065194368
-0.015176872 0.061791547 0.0062759817
-0.013960633 0.061212011 0.005238384
-0.013064398 0.062055893 0.0044122338
-0.0021697611 0.061838191 0.0041742623
-0.0010810272 0.061618548 0.0047207475
0 0.06159465 0.0054480433
0.0010612273 0.060489953 0.005610466
0.0021625175 0.061631743 0.0056181252
0.0031787143 0.060395572 0.0055491328
0.0042302269 0.060280733 0.0053814054
0.0053431699 0.06091214 0.0046908557
-0.019288115 0.062150601 0.0051496923
-0.018084234 0.061699152 0.0055126846
-0.017082952 0.061925702 0.005987674
-0.016084624 0.062193882 0.0063889325
-0.015055018 0.062370796 0.006242156
-0.014070199 0.062774733 0.0053949654
-0.013108298 0.06335678 0.0044919252
-0.0021664628 0.062827423 0.0041655898
-0.001084388 0.062894508 0.0048228502
0 0.062908702 0.0057598054
0.0010769656 0.06246401 0.0060119033
0.0021578942 0.062578931 0.0056346953
0.003169087 0.061269019 0.0056052506
0.0042912518 0.062223151 0.0055120289
0.0053234892 0.06175248 0.0044659674
-0.01914238 0.062744468 0.00484097
-0.018135149 0.062939636 0.0053605437
-0.016993906 0.06266503 0.0056133866
-0.016013773 0.062987506 0.0062597394
-0.015390621 0.064860471 0.0062597394
-0.014079276 0.063898258 0.0052033365
-0.013047897 0.064152166 0.0043302476
-0.0021805267 0.064325541 0.0042678714
-0.0010792344 0.06367483 0.0049501061
0 0.065159149 0.0058517158
0.0010742879 0.063382983 0.0064349473
0.0021392663 0.063108362 0.0064021647
0.0031994407 0.062922336 0.0062005818
0.0042515942 0.062711015 0.0055810213
0.0053212829 0.062791139 0.0042979419
-0.019150611 0.063835375 0.0041839182
-0.018158266 0.064088002 0.0050562024
-0.017052328 0.063946232 0.0061920285
-0.016205909 0.064823635 0.0067928731
-0.015315 0.065635718 0.006890744
-0.013944881 0.064360991 0.0056346059
-0.013038091 0.065190457 0.0047740638
-0.0021661059 0.064983174 0.0044496655
-0.0010684702 0.064108208 0.005426079
0 0.065284267 0.0058986247
0.001074862 0.064491719 0.0066442788
0.002150066 0.064501978 0.0064349473
0.0032035229 0.064070456 0.0061123669
0.0042637959 0.063956939 0.0055170357
0.005329296 0.063951559 0.0041001439
-0.018062495 0.064812474 0.0048946142
-0.016955446 0.064642638 0.0065236688
-0.016105957 0.065497555 0.00707075
-0.014869937 0.064790435 0.0075726509
-0.014465272 0.067875504 0.0069214404
-0.012956637 0.065862902 0.0053273439
-0.011840632 0.065661691 0.0047268569
-0.010898679 0.06648194 0.0040835142
-0.0032432068 0.065945208 0.0042140782
-0.0021468604 0.065479234 0.0049445927
-0.0011185283 0.068230227 0.0055106878
0 0.064516671 0.0062598586
0.0010784431 0.065785028 0.0072141588
0.0021215435 0.064707078 0.0069323182
0.0031900425 0.064864196 0.0061763525
0.0042583621 0.06494002 0.0055120289
-0.018286001 0.066690125 0.0048740804
-0.017004965 0.065894239 0.0066774189
-0.015936434 0.065870598 0.0075726509
-0.014764876 0.065387316 0.0080083311
-0.014072301 0.067114055 0.0075986087
-0.013058021 0.067466445 0.0069214404
-0.011826252 0.066657059 0.0059120059
-0.01089218 0.067531519 0.0051785409
-0.009752024 0.067180611 0.0041620731
-0.0043170168 0.066913761 0.0045519471
-0.0032410854 0.066982433 0.0050768554
-0.002217035 0.068728089 0.0054816306
-0.0010820151 0.067084938 0.0063242018
0 0.066614419 0.0069535077
0.0010718921 0.066457316 0.0073141158
0.0021021885 0.065167844 0.0072047412
0.0032103558 0.066347353 0.0062739849
0.004246641 0.065822937 0.005336374
-0.01819515 0.067429088 0.0041356683
-0.017000416 0.066939145 0.0064963698
-0.015898766 0.066774823 0.0077096224
-0.015033151 0.067649186 0.008226186
-0.013505015 0.065447383 0.0080980957
-0.013113013 0.06884332 0.0079915822
-0.012320474 0.070562713 0.0076915324
-0.010627902 0.06695579 0.0059029162
-0.0097201262 0.068040885 0.0053842068
-0.0086256247 0.067926802 0.0049306452
-0.0075680027 0.068112023 0.0047915578
-0.0065113273 0.068368942 0.0047618747
-0.0053913551 0.067931078 0.0049802065
-0.0042845332 0.067481399 0.0053667128
-0.0033950661 0.071296394 0.0056401193
-0.0021857123 0.068849936 0.0062839091
-0.0010532931 0.066357471 0.007417351
0 0.067651659 0.0076254904
0.0010602801 0.066797651 0.0073992908
0.002126805 0.066994354 0.0066874623
0.003171728 0.066606291 0.0053901076
0.0043047704 0.067800134 0.0040846467
-0.017094923 0.068379693 0.0050765872
-0.016065003 0.068544015 0.0071567297
-0.014692895 0.067167521 0.0081935823
-0.014012997 0.068987064 0.0081290007
-0.012553293 0.066950902 0.0082091093
-0.011797312 0.068638906 0.008226186
-0.011104119 0.071066365 0.0077100992
-0.010095051 0.071787037 0.0070403516
-0.0089208698 0.071366958 0.0058913231
-0.0078448867 0.071724683 0.0056774318
-0.006660881 0.0710494 0.0059329867
-0.0055774101 0.071390852 0.0061258674
-0.0044675893 0.071481429 0.0070410371
-0.0031742936 0.067718267 0.0072153807
-0.0021062333 0.067399465 0.0075261295
-0.00107715 0.0689376 0.0075854957
0 0.067558274 0.0078682303
0.0010695636 0.068452068 0.0073992908
0.0021404321 0.068493828 0.0061870515
0.0031867567 0.067984141 0.0045589805
-0.015936909 0.069059938 0.0052879751
-0.014869865 0.069038659 0.0071567297
-0.013740049 0.068700239 0.0075990856
-0.012884779 0.069792554 0.0078492463
-0.011604729 0.0685734 0.0080790222
-0.010487251 0.068167135 0.0077100992
-0.0096497312 0.069692507 0.0075726509
-0.0087108482 0.070775643 0.0070149302
-0.0075621032 0.070219532 0.0066092014
-0.0063982895 0.0693148 0.006890744
-0.0053958786 0.070146427 0.0072153807
-0.0041966955 0.068196304 0.0072621703
-0.0031820745 0.068944953 0.0072190762
-0.0021666745 0.07041692 0.0072900057
-0.001057046 0.068707988 0.0074570775
0 0.069197208 0.0071616471
0.0010658933 0.069283068 0.0059572458
0.0021128689 0.068668239 0.0046951771
-0.014905192 0.070267327 0.0057671368
-0.013704873 0.069578581 0.0069403052
-0.012782949 0.070306219 0.0074672401
-0.011739692 0.070438147 0.0075657368
-0.010698389 0.070609368 0.0075448453
-0.0096236924 0.070573747 0.0072391927
-0.0084292423 0.069541246 0.0065596402
-0.0073923455 0.069699258 0.0065596402
-0.0063917688 0.07030946 0.0064163208
-0.0053236443 0.070272103 0.0070863962
-0.0043182289 0.071250781 0.0066092014
-0.0032098636 0.070616998 0.0069835484
-0.0021165989 0.069847763 0.0061775148
-0.0010662506 0.070372537 0.0060934722
0 0.070170246 0.0054909289
0.0010608962 0.070019148 0.0045582652
-0.013799354 0.071119756 0.0049306452
-0.012751095 0.071193613 0.0065596402
-0.011622532 0.070791788 0.0072333515
-0.010587654 0.070937283 0.0071875453
-0.0095050884 0.070760109 0.0068391562
-0.0084623918 0.070872538 0.0065080523
-0.0074356557 0.071169853 0.0056034327
-0.0063347062 0.070737556 0.0059329867
-0.0052905236 0.070893019 0.0059329867
-0.0042599565 0.07135427 0.0055117011
-0.0031804219 0.071029425 0.0057089627
-0.0021229596 0.071119152 0.0053358078
-0.0010724346 0.071853124 0.0053540766
0 0.070640527 0.0040581822
-0.012702608 0.071981445 0.0048656464
-0.011771782 0.07277102 0.0058099926
-0.010641607 0.072362922 0.0058683455
-0.0094730668 0.071574286 0.0058683455
-0.0085421037 0.072607882 0.0058166981
-0.0073989485 0.071875505 0.0056774318
-0.0063598775 0.072078615 0.0056034327
-0.0053502661 0.072763622 0.0056034327
-0.0042457064 0.072177008 0.0055451393
-0.0031852489 0.07219898 0.0053443611
-0.0021404834 0.072776437 0.0047491491
-0.010547079 0.07277485 0.0047644973
-0.0096556563 0.074026704 0.0047249794
-0.008551049 0.073752791 0.0049700439
-0.0074530686 0.073465966 0.0046727657
-0.0064293318 0.073937312 0.004532516
-0.0053155962 0.073355228 0.0044807792
-0.0042643701 0.073560379 0.0043303668
0 0 0 1 0 0 0 1 0 0 0 1 0 0 0 0 0 355 1 0 0
