ply
format ascii 1.0
comment PCL generated
element vertex 304
property float x
property float y
property float z
element camera 1
property float view_px
property float view_py
property float view_pz
property float x_axisx
property float x_axisy
property float x_axisz
property float y_axisx
property float y_axisy
property float y_axisz
property float z_axisx
property float z_axisy
property float z_axisz
property float focal
property float scalex
property float scaley
property float centerx
property float centery
property int viewportx
property int viewporty
property float k1
property float k2
end_header
-0.0053932061 -0.019415542 0.0041806698
-0.0042559681 -0.019151855 0.0043846965
-0.0032253037 -0.019351821 0.0041974485
-0.0021591294 -0.019432163 0.0041546524
-0.010633422 -0.018076818 0.0042698383
-0.0053301379 -0.018122468 0.0043621063
-0.0043024863 -0.018285567 0.0044571757
-0.0032265694 -0.018283894 0.0044571757
-0.002139749 -0.018187866 0.0044014752
-0.011855309 -0.017244086 0.0041036606
-0.010772778 -0.017236445 0.0046332181
-0.0054327315 -0.017384741 0.0042591691
-0.0042873328 -0.017149331 0.0046358407
-0.0032342128 -0.017249135 0.0046358407
-0.0021662894 -0.017330315 0.0046709776
-0.0010651815 -0.017042903 0.0046716332
0 -0.01719893 0.0042484701
-0.011912066 -0.016243726 0.004553467
-0.010706813 -0.01606022 0.0045498312
-0.005361666 -0.016084999 0.0043605566
-0.0043189437 -0.016196039 0.0046465695
-0.0032429341 -0.016214671 0.0047138035
-0.0021426135 -0.016069602 0.0051240921
-0.0010735103 -0.016102655 0.0049316883
0 -0.016015878 0.0047773123
0.0010541338 -0.015812008 0.0046103001
-0.014973619 -0.014973619 0.0043479204
-0.01396463 -0.015038832 0.0053195059
-0.0129214 -0.015074967 0.005299747
-0.011862218 -0.015097369 0.0051142275
-0.010757736 -0.01506083 0.0048841536
-0.00975601 -0.015176016 0.0040595233
-0.0054748785 -0.015329661 0.0043477416
-0.0043607703 -0.015262696 0.0044781566
-0.0032337217 -0.015090701 0.0046709776
-0.0021559699 -0.015091789 0.0052919686
-0.0010801888 -0.015122644 0.0057861507
0 -0.015003251 0.0056267381
0.0010795186 -0.01511326 0.0049829781
0.0021128261 -0.014789782 0.0040605366
-0.015959021 -0.013831152 0.0040548146
-0.015118131 -0.014038265 0.0043520033
-0.013977682 -0.013977682 0.0053752065
-0.012851582 -0.013922547 0.0052655935
-0.012072966 -0.014268051 0.0051324964
-0.011012088 -0.014315715 0.004553467
-0.0054537067 -0.014179638 0.0040738881
-0.0043911203 -0.014271141 0.0046770275
-0.0032866478 -0.014242141 0.004753232
-0.0021789442 -0.014163136 0.0056553483
-0.001073637 -0.013957282 0.0059729218
0 -0.014078542 0.0063548982
0.0010701633 -0.013912123 0.0059292614
0.0021309215 -0.013850989 0.0054391623
0.0031992574 -0.013863449 0.0043566823
-0.017120076 -0.012840057 0.0042227805
-0.016305597 -0.013044477 0.0048910081
-0.015116751 -0.012957215 0.0061825812
-0.014051628 -0.012970733 0.0064515769
-0.013200563 -0.013200563 0.0061478913
-0.012080609 -0.013178846 0.0057362318
-0.01078629 -0.012943548 0.0048239529
-0.0032805048 -0.013122019 0.0043671429
-0.002185209 -0.013111254 0.0047788024
-0.0010862761 -0.013035313 0.0057632625
0 -0.013073387 0.0059729218
0.0010681137 -0.012817364 0.0062542558
0.0021513223 -0.012907933 0.0058885813
0.0032159626 -0.01286385 0.0048644543
0.0042781052 -0.012834315 0.0040280819
-0.017258704 -0.011865359 0.004173249
-0.016124951 -0.011824965 0.0048412979
-0.01511869 -0.01187897 0.00593099
-0.01421974 -0.012032088 0.0058487952
-0.013123282 -0.012029675 0.0048181117
-0.012007752 -0.012007752 0.0043247938
-0.0022009697 -0.012105333 0.0041974485
-0.0010820266 -0.011902292 0.0045730174
0 -0.011900987 0.0053998828
0.0010797103 -0.011876814 0.0062542558
0.0021545244 -0.011849884 0.0063852668
0.0032125365 -0.011779301 0.0052505434
0.0043086433 -0.011848769 0.0050863922
-0.018248683 -0.010734519 0.0040210783
-0.01724619 -0.010778869 0.0045003891
-0.016039206 -0.010692803 0.0048910081
-0.015281724 -0.010915517 0.0058985054
-0.014225424 -0.010942634 0.0048787892
-0.012990342 -0.010825285 0.004360944
-0.0011010549 -0.011010549 0.0044150352
0 -0.010822228 0.0047038198
0.0010806955 -0.010806954 0.0062542558
0.0021454003 -0.010727001 0.0067237616
0.0032303024 -0.010767674 0.0059292614
0.0043052686 -0.010763171 0.0057041049
0.0053247493 -0.010649499 0.0047683418
-0.01839472 -0.0097383801 0.0040703118
-0.017244289 -0.0096999118 0.0045021772
-0.016237529 -0.009742517 0.0047429502
-0.015290306 -0.0098294821 0.0048453808
-0.01405122 -0.0097277677 0.0046549141
-0.013120534 -0.0098404 0.0040443838
0 -0.0097888634 0.0044541061
0.0010796015 -0.0097164121 0.0059292614
0.0021551591 -0.0096982159 0.0063852668
0.0032359802 -0.0097079398 0.0060132146
0.0042984537 -0.0096715195 0.0063925385
0.0053747441 -0.0096745389 0.0053124726
-0.019325484 -0.0085891047 0.0042551458
-0.018311823 -0.0086173285 0.0044599175
-0.017349489 -0.0086747445 0.0046106279
-0.016383685 -0.0087379655 0.0049643219
-0.015059111 -0.0086052064 0.0050271749
-0.014265834 -0.0087789753 0.0046758354
-0.013260164 -0.0088401092 0.0041599274
0 -0.0087441057 0.0042154193
0.0010888032 -0.0087104253 0.0057041049
0.0021795367 -0.0087181469 0.0060061216
0.0032182294 -0.0085819447 0.0060061216
0.0043323315 -0.0086646629 0.0061300695
0.0053442451 -0.0085507929 0.0057552159
0.0064563975 -0.0086085303 0.0045874417
-0.019501792 -0.0075840307 0.0044496357
-0.018389305 -0.0075720665 0.0046083033
-0.017276224 -0.0075583477 0.004891336
-0.016161473 -0.0075420206 0.0053773224
-0.015208239 -0.0076041194 0.0055077076
-0.014270465 -0.0076840962 0.0046758354
-0.013083818 -0.0076322271 0.0042707324
0 -0.0076301121 0.0040721595
0.0010987917 -0.0076915417 0.005197525
0.0021708598 -0.0075980094 0.0059292614
0.0032247812 -0.0075244899 0.0059292614
0.0042896164 -0.0075068283 0.0060532093
0.0053652222 -0.0075113117 0.0057552159
0.0064833998 -0.0075639663 0.0049132705
-0.019457633 -0.006485878 0.004638046
-0.018533992 -0.0065414081 0.0047429502
-0.017238909 -0.0064645908 0.0054587722
-0.016358614 -0.0065434459 0.0056617558
-0.015293306 -0.0065542739 0.0058101416
-0.014122906 -0.0065182643 0.0049309134
-0.013271561 -0.0066357804 0.0041599274
0 -0.0065575549 0.0040555298
0.0010831065 -0.0064986385 0.0053998828
0.0021698505 -0.0065095518 0.0060061216
0.0032285703 -0.0064571407 0.0055773556
0.0042883274 -0.0064324909 0.0061056912
0.005398666 -0.0064783995 0.0059803724
0.0064606192 -0.0064606192 0.0049569309
-0.019423217 -0.0053953379 0.0048903525
-0.01836065 -0.0054001911 0.0049937665
-0.017224882 -0.0053827753 0.0058101416
-0.016369227 -0.005456409 0.0059384108
-0.015213643 -0.0054334439 0.0060687959
-0.014360259 -0.0055231769 0.0055077076
-0.013159392 -0.0054830802 0.0043213964
0 -0.0054148207 0.0040908754
0.001092838 -0.0054641897 0.0053846836
0.0021619992 -0.0054049976 0.0055773556
0.0032184385 -0.0053640641 0.005423367
0.0042928644 -0.0053660804 0.0054494143
0.0053391047 -0.0053391047 0.0054241419
0.0064125578 -0.0053437981 0.0048643351
-0.019235183 -0.0042744852 0.0047459602
-0.018263819 -0.0042973692 0.0049309134
-0.017169802 -0.0042924504 0.0056617558
-0.016323077 -0.0043528201 0.0058528781
-0.015295967 -0.0043702764 0.006033659
-0.014092098 -0.0043360302 0.0056395531
-0.01314221 -0.004380737 0.004598707
-0.012198742 -0.0044359062 0.0040490925
0 -0.0043858779 0.0043360293
0.0010906127 -0.0043624509 0.0053846836
0.0021401099 -0.0042802198 0.0057018995
0.0032236506 -0.0042982008 0.0054241419
0.0042898147 -0.0042898147 0.0052753389
0.0053612031 -0.0042889626 0.0048146844
0.0065213786 -0.0043475861 0.0045385063
-0.019335376 -0.0032225628 0.0043604374
-0.018333605 -0.0032353417 0.0049309134
-0.017081469 -0.0032027755 0.0056560934
-0.016159832 -0.0032319666 0.0061400533
-0.015208431 -0.0032589494 0.0061804652
-0.014154202 -0.0032663543 0.0057416856
-0.013103736 -0.0032759339 0.0049237311
-0.012095086 -0.00329866 0.0042551756
0 -0.0032721029 0.0043674409
0.0010644789 -0.0031934367 0.0055838227
0.0021733262 -0.0032599894 0.0062885284
0.0032290255 -0.0032290255 0.0055773556
0.004293811 -0.0032203582 0.0052241683
0.0054091811 -0.0032455088 0.0044285953
-0.01825829 -0.0021480341 0.0047372878
-0.017235758 -0.0021544697 0.0056253076
-0.016304495 -0.0021739327 0.0060814619
-0.014953583 -0.0021362263 0.0063170493
-0.014358823 -0.0022090499 0.0060301125
-0.013059327 -0.0021765546 0.005538702
-0.011933693 -0.0021697623 0.0049253106
-0.0010882147 -0.0021764294 0.0043295622
0 -0.0022249722 0.0060949326
0.0010693735 -0.0021387469 0.0063658357
0.0021516534 -0.0021516534 0.0065301359
0.0032067599 -0.00213784 0.0056087673
0.0043007066 -0.0021503533 0.0050049722
0.005372074 -0.0021488296 0.004029721
-0.018431414 -0.0010842008 0.004106611
-0.017195951 -0.0010747469 0.005369544
-0.016183086 -0.0010788725 0.0061400533
-0.015076574 -0.0010768982 0.0064160526
-0.013979465 -0.0010753435 0.0064160526
-0.013291296 -0.001107608 0.0062312484
-0.011923078 -0.0010839162 0.0057472885
-0.010950202 -0.0010950202 0.0046822727
-0.0021815512 -0.0010907756 0.0051124692
-0.0010986516 -0.0010986516 0.006492883
0 -0.0010832284 0.0070510805
0.0010810298 -0.0010810298 0.0069982708
0.0021399665 -0.0010699832 0.0065920651
0.0032313014 -0.0010771005 0.005751431
0.0043275747 -0.0010818937 0.0046299696
-0.017078051 0 0.005395025
-0.016206902 0 0.0062312484
-0.015029699 0 0.006531626
-0.01394861 0 0.0069130063
-0.013308889 0 0.0065776408
-0.012180578 0 0.006531626
-0.010716774 0 0.0062246323
-0.0098453732 0 0.0052872002
-0.008761175 0 0.0041012764
-0.0043507582 0 0.0040954947
-0.003253079 0 0.005322516
-0.0022233869 0 0.0064169765
-0.0011009722 0 0.0073471069
0 0 0.0071405172
0.0010634724 0 0.0067191124
0.0021610705 0 0.0056706965
0.003236616 0 0.0040908754
-0.016134644 0.001075643 0.0054607391
-0.014959695 0.0010685497 0.0062716603
-0.01399848 0.0010768061 0.0070145428
-0.012779333 0.0010649444 0.0071001351
-0.011980738 0.001089158 0.0071558952
-0.011674364 0.0011674364 0.0069878697
-0.0098168133 0.0010907571 0.006724745
-0.0086772619 0.0010846577 0.0062717497
-0.0075972276 0.0010853183 0.0053275228
-0.0064803483 0.001080058 0.0055626333
-0.0053959023 0.0010791805 0.005387187
-0.0043768403 0.0010942101 0.0062710345
-0.0034744034 0.0011581345 0.0065352321
-0.0021616735 0.0010808368 0.0071716607
-0.0010640176 0.0010640176 0.0076501369
0 0.0010584723 0.0071716607
0.001078103 0.001078103 0.0063298643
0.0021544783 0.0010772392 0.0051771402
0.0032294721 0.0010764907 0.0041241348
-0.015083258 0.0021547512 0.0055194497
-0.01396032 0.0021477416 0.0060301125
-0.012836991 0.0021394985 0.0063205361
-0.011697687 0.0021268523 0.0069985986
-0.010705667 0.0021411334 0.0068125725
-0.0097530792 0.0021673511 0.0063860118
-0.0092843687 0.0023210922 0.0056765079
-0.0082688741 0.0023625353 0.0053275228
-0.0070644822 0.0023548275 0.0056157708
-0.005865627 0.0023462509 0.0055626333
-0.0044487459 0.0022243729 0.0062710345
-0.0031451159 0.002096744 0.0065849721
-0.0021375075 0.0021375075 0.0068945587
-0.0010788245 0.002157649 0.0071204007
0 0.0021465586 0.0068164766
0.0010692514 0.0021385029 0.0055766404
-0.013935543 0.0032158946 0.0051605105
-0.012765849 0.0031914623 0.005512774
-0.011823551 0.0032246048 0.0063714683
-0.010621382 0.0031864147 0.006724745
-0.0096261958 0.003208732 0.0063431263
-0.0085770683 0.0032164005 0.0055670142
-0.007400732 0.0031717422 0.0053319037
-0.0064260475 0.0032130238 0.0055626333
-0.0053067529 0.0031840517 0.005387187
-0.0042247921 0.0031685939 0.0062181652
-0.0032277452 0.0032277452 0.0064169765
-0.0021446689 0.0032170035 0.0065924227
-0.001071308 0.0032139239 0.0066823363
0 0.0032260066 0.0055766404
-0.011813235 0.0042957221 0.0051888525
-0.010730256 0.0042921025 0.0052529573
-0.0096144639 0.0042730952 0.0052529573
-0.008573954 0.004286977 0.0051532388
-0.0075541972 0.0043166839 0.004339993
-0.0063882298 0.0042588199 0.0049752593
-0.0053295 0.0042636003 0.0055626333
-0.0043134713 0.0043134713 0.0056799948
-0.0031967622 0.0042623496 0.0064582825
-0.0021497435 0.004299487 0.0059143007
-0.0010818327 0.0043273307 0.0045523942
-0.008627845 0.0053924029 0.0043887496
-0.0064732786 0.0053943987 0.0043887496
-0.0053948886 0.0053948886 0.0044085979
-0.0042794514 0.0053493143 0.0043655634
-0.0032239256 0.0053732092 0.0044347048
0 0 0 1 0 0 0 1 0 0 0 1 0 0 0 0 0 304 1 0 0
