ply
format ascii 1.0
comment PCL generated
element vertex 351
property float x
property float y
property float z
element camera 1
property float view_px
property float view_py
property float view_pz
property float x_axisx
property float x_axisy
property float x_axisz
property float y_axisx
property float y_axisy
property float y_axisz
property float z_axisx
property float z_axisy
property float z_axisz
property float focal
property float scalex
property float scaley
property float centerx
property float centery
property int viewportx
property int viewporty
property float k1
property float k2
end_header
-0.0089643439 -0.068353124 0.0040161908
-0.0077336254 -0.06739302 0.0041497648
-0.0067213015 -0.068333231 0.0042848587
-0.0055542593 -0.067761965 0.0040286183
-0.0044290628 -0.067543209 0.0042639673
-0.0033484506 -0.068085164 0.0041864812
-0.0011173228 -0.068156689 0.004137516
0 -0.066318393 0.0040690899
-0.011233055 -0.067398332 0.00438869
-0.0099991076 -0.066660717 0.0047815442
-0.0087925773 -0.065944329 0.004616797
-0.0076951236 -0.065958202 0.0046453178
-0.0067219771 -0.067219771 0.0046258569
-0.0054622497 -0.065546997 0.0046258569
-0.0043443539 -0.065165311 0.0046453178
-0.0033068156 -0.066136315 0.0050732493
-0.0021532015 -0.064596049 0.0045494437
-0.0010761886 -0.064571321 0.0045039952
0 -0.06680385 0.0043851137
0.0011344994 -0.068069972 0.0041196942
-0.012882203 -0.063337497 0.0044727027
-0.011668895 -0.062587716 0.0051962733
-0.010739628 -0.063363805 0.0051274002
-0.0096776253 -0.063442208 0.005188942
-0.0085738311 -0.063232005 0.0050982535
-0.00754171 -0.063565843 0.0050492287
-0.0064113815 -0.063045248 0.0049286783
-0.0053749662 -0.063424602 0.0049902201
-0.0043126382 -0.063611411 0.0050821602
-0.0032003454 -0.062940128 0.0055689216
-0.0021503658 -0.063435793 0.005087167
-0.0010855682 -0.064048529 0.0050026476
0 -0.06301304 0.0046943426
0.0010736244 -0.063343838 0.0042617619
-0.014031779 -0.062603325 0.0040352345
-0.0128014 -0.06187344 0.0047706664
-0.011890712 -0.062696487 0.005356878
-0.010853264 -0.062948935 0.0055297315
-0.0096848886 -0.06241373 0.0056682527
-0.0087212147 -0.063228808 0.0052684546
-0.0074802125 -0.061978906 0.0051859319
-0.006496218 -0.062796779 0.0049571991
-0.0054206369 -0.062879391 0.0047848821
-0.0043318016 -0.062811121 0.005048126
-0.003231904 -0.062483478 0.0053175092
-0.0021679113 -0.062869422 0.0051472783
-0.0010752156 -0.062362507 0.005577594
0 -0.0627442 0.0054449141
0.0010691208 -0.06200901 0.0050187409
0.0021476357 -0.062281433 0.0040690899
-0.013871218 -0.060819954 0.0051962733
-0.012844281 -0.061010335 0.0055124164
-0.011959283 -0.06197083 0.0058555305
-0.010733372 -0.061180219 0.0058518946
-0.0096437586 -0.06107714 0.0058712065
-0.0086576547 -0.061685786 0.0054474473
-0.0075834007 -0.061750546 0.0053175092
-0.0065282024 -0.062017921 0.0051377416
-0.0053953826 -0.061507363 0.0048314631
-0.0043350169 -0.061773989 0.0055098534
-0.0032551354 -0.061847571 0.0062659681
-0.002152859 -0.061356477 0.0060307086
-0.0010801217 -0.061566938 0.0062262714
0 -0.061770137 0.0063731372
0.0010711272 -0.061054252 0.0062231421
0.0021487542 -0.061239492 0.0049330294
-0.014930339 -0.059721354 0.004321754
-0.01405334 -0.060537469 0.0057833493
-0.012895806 -0.060180426 0.0057935715
-0.011780155 -0.059971698 0.0062757134
-0.010926038 -0.061185814 0.0061294734
-0.0098405275 -0.061229952 0.0061220527
-0.0086857667 -0.06080037 0.005604893
-0.0077001392 -0.061601114 0.0053332746
-0.0065862536 -0.061471701 0.0049835742
-0.005461256 -0.061166067 0.0049315095
-0.0044360301 -0.062104423 0.0053332746
-0.0032658635 -0.060962785 0.0056142509
-0.0021604886 -0.060493678 0.006060034
-0.0010895537 -0.06101501 0.0065746903
0 -0.059939831 0.0066087842
0.0010836358 -0.060683608 0.0063616335
0.0021552953 -0.060348265 0.0053839982
0.0032182198 -0.060073439 0.0042422712
-0.016033405 -0.058789153 0.0041584074
-0.015208412 -0.059747331 0.0046443939
-0.014074601 -0.059546389 0.0057183504
-0.013008151 -0.059620697 0.0058638155
-0.01186387 -0.059319347 0.0058916211
-0.010997995 -0.060488973 0.0057234168
-0.0098188724 -0.060004219 0.0053051412
-0.0087210946 -0.059957523 0.0049676597
-0.0076516024 -0.060119733 0.0048146844
-0.0065406575 -0.059956029 0.0043740571
-0.0054673422 -0.06014077 0.0042013526
-0.0043578064 -0.059919838 0.0049564838
-0.0032847342 -0.06022013 0.0054796934
-0.0022203014 -0.061058287 0.0061599612
-0.0010956028 -0.060258154 0.0067682862
0 -0.059872944 0.0071374178
0.0010904683 -0.059975754 0.0067682862
0.0021403232 -0.05885889 0.0061258674
0.0032463162 -0.0595158 0.0051527619
-0.016310496 -0.058717791 0.0044437051
-0.015230402 -0.058745839 0.0052208006
-0.013981946 -0.058078855 0.0060519278
-0.013100926 -0.058954168 0.0060579777
-0.012182786 -0.059806406 0.0060630441
-0.010863939 -0.058665272 0.0057453811
-0.0098150866 -0.058890525 0.0053015947
-0.0087249773 -0.058893595 0.0049315095
-0.007725636 -0.059597764 0.0042897165
-0.0033017853 -0.059432138 0.00512743
-0.0021846672 -0.058986016 0.0054747462
-0.0010928271 -0.059012663 0.0064709783
0 -0.059414204 0.0067890286
0.0010809229 -0.058369841 0.0067890286
0.002163518 -0.058414984 0.0063275397
0.0032241987 -0.058035579 0.0053839982
0.004273945 -0.057698257 0.0042708814
-0.017213469 -0.057019617 0.0042280555
-0.01621799 -0.057303566 0.0047338009
-0.015001126 -0.056789976 0.0057183504
-0.014182102 -0.057819337 0.0058226287
-0.013208907 -0.058339339 0.0058865547
-0.0119043 -0.057357084 0.0057453811
-0.011040936 -0.058516964 0.0051243901
-0.0099189291 -0.058411475 0.0043566525
-0.0011005001 -0.058326509 0.0045880973
0 -0.056990743 0.0057100356
0.0011020718 -0.058409803 0.0064232349
0.0021651958 -0.057377689 0.0060214698
0.0032330558 -0.057117317 0.0052796006
0.0043200776 -0.057241026 0.004539907
-0.017317617 -0.056282256 0.0042934418
-0.016128954 -0.055913705 0.0051605403
-0.015196316 -0.056443457 0.0056263804
-0.014233812 -0.056935247 0.005497992
-0.012832393 -0.055607036 0.0054595768
-0.012184732 -0.05760055 0.0049571991
-0.010986466 -0.057129625 0.0041492283
0 -0.05804015 0.0048124492
0.0010898503 -0.056672215 0.0056814253
0.0021606942 -0.056178048 0.0055798888
0.0032729171 -0.056730565 0.0053839982
0.004318085 -0.056135103 0.0046924949
0.0053717606 -0.055866312 0.0043123066
-0.018329954 -0.054989863 0.0040777922
-0.017211888 -0.05486289 0.0048902929
-0.016199334 -0.055077735 0.0056260228
-0.01519266 -0.05534469 0.0057491064
-0.014110211 -0.055355448 0.0057498813
-0.013135362 -0.055825289 0.005230248
-0.01204027 -0.055823073 0.0042386353
0.0010844494 -0.055306919 0.0048851073
0.0022108555 -0.056376815 0.0051061511
0.003241292 -0.055101965 0.0052109063
0.004314614 -0.055011325 0.0047186911
0.0054251729 -0.055336766 0.0044175386
0.0064036646 -0.054431148 0.004265517
-0.018465126 -0.054309193 0.0048034489
-0.017421329 -0.054441657 0.0057184994
-0.01630231 -0.054341037 0.0059862137
-0.015131344 -0.054040514 0.0059767067
-0.014348865 -0.055187948 0.0059532225
-0.013286766 -0.055361524 0.0053878725
0.0011024537 -0.055122681 0.0046790242
0.0021745139 -0.054362848 0.0048143864
0.0032339497 -0.053899162 0.0050720274
0.0043292646 -0.05411581 0.0049337447
0.0053600054 -0.053600058 0.0047339201
0.006475348 -0.053961236 0.0043123066
-0.018363833 -0.052931044 0.0051566064
-0.017286329 -0.052939381 0.0059266984
-0.016181167 -0.052858479 0.0063378811
-0.01535358 -0.053737529 0.0063257217
-0.014280098 -0.053824984 0.0064606667
-0.012996072 -0.053067293 0.0047729313
0.0011030317 -0.054048549 0.0043754876
0.0021532674 -0.05275505 0.0049337447
0.0032977564 -0.053863354 0.0050518215
0.0043085543 -0.05277979 0.0049470663
0.0054245782 -0.053160865 0.0048703551
0.0064588026 -0.052746888 0.0043066442
-0.018463913 -0.0521334 0.0050008595
-0.017153075 -0.051459223 0.0059862137
-0.016356604 -0.052341133 0.006290257
-0.015148937 -0.051939212 0.0064687431
-0.014133329 -0.052184597 0.0063257217
-0.013264279 -0.053057116 0.0046564043
0.0010979731 -0.052702706 0.0046428144
0.0021746156 -0.052190773 0.0049337447
0.0032836676 -0.052538682 0.0050518215
0.0042415545 -0.050898653 0.0050502419
0.0054292255 -0.052120563 0.0049454868
0.0064549204 -0.051639363 0.0042569339
-0.018338678 -0.050701052 0.0057712793
-0.017217148 -0.050575372 0.0063882172
-0.016109031 -0.05047496 0.0068201721
-0.015039826 -0.050490845 0.006980747
-0.014286965 -0.051652875 0.0068720579
-0.013175182 -0.051602796 0.0057738423
-0.012064788 -0.051549546 0.0041488409
0 -0.050976742 0.0041753054
0.0011025942 -0.051821928 0.005900234
0.002182398 -0.051286355 0.005912751
0.0032059648 -0.050226785 0.005654484
0.0043065012 -0.050601386 0.0055696964
0.005426879 -0.051012665 0.0049080849
0.0064335582 -0.050396208 0.0044250786
-0.01826779 -0.049430493 0.0053120255
-0.017225951 -0.049524613 0.0065492094
-0.016059162 -0.049248099 0.006854713
-0.015205171 -0.04995985 0.007193625
-0.014265873 -0.050479241 0.006885618
-0.013083774 -0.050154466 0.0057911873
-0.01211487 -0.05066219 0.0041797459
0 -0.050466534 0.0042326748
0.0010971557 -0.050469164 0.0056726336
0.0021346847 -0.049097747 0.0057098866
0.003275394 -0.05022271 0.0055483878
0.0042774496 -0.04919067 0.0054687858
0.0053811888 -0.04950694 0.0048892796
0.0064931866 -0.049781099 0.0041841865
-0.018488009 -0.048938848 0.0044522583
-0.01699635 -0.047802236 0.0066146553
-0.01627711 -0.048831332 0.0068350732
-0.015120416 -0.048601341 0.0072615445
-0.014111625 -0.048847936 0.0072615445
-0.013097618 -0.049116071 0.0061678588
-0.012108942 -0.049536586 0.0043160319
0 -0.049227875 0.0047827363
0.0010909197 -0.049091388 0.0058458447
0.0021654591 -0.048722833 0.0056227744
0.0032157826 -0.048236743 0.0055792928
0.0042805891 -0.04815663 0.0052696168
0.005424506 -0.048820555 0.0047883689
-0.017313998 -0.047613494 0.0062074959
-0.016245235 -0.047652688 0.0067375302
-0.01514831 -0.047608975 0.0074307024
-0.014037534 -0.047511652 0.0079047382
-0.013596298 -0.049853094 0.0067018569
-0.011887003 -0.047548011 0.0060588121
-0.011035495 -0.048556183 0.0046905875
-0.0010990987 -0.048360344 0.0040884018
0 -0.047997802 0.0058023632
0.001097644 -0.048296336 0.0061796904
0.0021815703 -0.047994543 0.0055966973
0.0031957561 -0.046871088 0.0055792928
0.0043246751 -0.047571424 0.0051915348
0.0054308446 -0.047791433 0.0043853521
-0.017208146 -0.046246894 0.0041151345
-0.015972422 -0.04578761 0.0067538023
-0.015078578 -0.046312775 0.0075456202
-0.014124802 -0.046720497 0.0080386102
-0.013075644 -0.046854392 0.0075456202
-0.012223516 -0.047782835 0.0070312023
-0.010877243 -0.046772148 0.0062828958
-0.00978682 -0.046759255 0.0047782958
-0.0088870302 -0.047767788 0.0042383373
-0.0032850059 -0.047085084 0.0040965974
-0.0021923415 -0.047135342 0.0045656562
-0.0010822975 -0.046538793 0.0056501925
0 -0.048801754 0.0060777962
0.0010743554 -0.046197284 0.0063534975
0.0021382635 -0.045972664 0.0058458447
0.0032466305 -0.046535041 0.0055483878
0.0043032849 -0.046260316 0.004551053
-0.01629658 -0.045630425 0.0050660372
-0.014988353 -0.044965062 0.0068407953
-0.013960678 -0.045103729 0.0072735548
-0.01296124 -0.045364339 0.0071396828
-0.011992672 -0.045790203 0.0071686506
-0.011279002 -0.047371808 0.0068973303
-0.0098608686 -0.04601739 0.0064072013
-0.008627926 -0.045296613 0.0052951574
-0.0076563177 -0.045937907 0.0049506426
-0.0065908348 -0.046135847 0.0045381784
-0.0054588951 -0.045854721 0.0045389533
-0.0043463777 -0.045636967 0.0046428144
-0.0032507577 -0.045510609 0.0056522191
-0.0021646584 -0.045457825 0.0058227181
-0.0011434664 -0.048025593 0.0060795248
0 -0.045211334 0.00688079
0.0010685736 -0.044880088 0.00688079
0.0021394314 -0.044928063 0.0058458447
0.0032387511 -0.045342516 0.0054703057
0.0042835558 -0.044977337 0.0043168664
-0.015067729 -0.044126924 0.005227834
-0.013950069 -0.043996375 0.0067469478
-0.012939098 -0.044208586 0.0071664751
-0.011683597 -0.043547958 0.0071664751
-0.010921092 -0.044776481 0.0070025921
-0.010318036 -0.047004391 0.0064439476
-0.0091230683 -0.046755727 0.0060874224
-0.0077164434 -0.045196313 0.0056781173
-0.0065870672 -0.045011628 0.0051334798
-0.0054072244 -0.044339243 0.0051165819
-0.0045165988 -0.046295136 0.0051661134
-0.0035238166 -0.048158832 0.0056802332
-0.0022183496 -0.045476168 0.005995959
-0.0010704856 -0.043889906 0.0060477555
0 -0.043934807 0.0063534975
0.001075702 -0.044103786 0.0060477555
0.0021604828 -0.044289898 0.0045821071
0.0032270262 -0.044102695 0.0043168664
-0.014011899 -0.043113533 0.0050366521
-0.012846274 -0.042820916 0.0057883859
-0.011864653 -0.043144193 0.0064485669
-0.010886222 -0.043544888 0.0064167678
-0.00950447 -0.042242091 0.0064167678
-0.0085124345 -0.042562172 0.0062046647
-0.007684405 -0.043910883 0.0053530633
-0.0066677053 -0.044451367 0.005135119
-0.0055205123 -0.044164099 0.0051293671
-0.0043136366 -0.043136366 0.005191803
-0.0032283808 -0.043045077 0.005687058
-0.0021578691 -0.04315738 0.0056522191
-0.001066628 -0.04266512 0.005995959
0 -0.043262273 0.0060201585
0.0010805221 -0.043220881 0.0049665868
0.0021275331 -0.042550657 0.0043296516
-0.012990631 -0.042219549 0.0041040182
-0.011890908 -0.042158674 0.0052841306
-0.010741456 -0.041891679 0.0054906309
-0.0097344974 -0.042182822 0.0059178174
-0.0086552836 -0.042194508 0.0056616962
-0.0074989684 -0.041779965 0.0051937997
-0.0064825583 -0.042136628 0.0051186979
-0.0053337445 -0.041603208 0.0049006939
-0.0042821639 -0.041751098 0.0049006939
-0.0032362705 -0.042071518 0.0049575269
-0.0021280532 -0.041497041 0.0049623549
-0.0010793904 -0.042096227 0.0050351918
0 -0.042015884 0.0049824715
0.0010744748 -0.041904513 0.0045190752
-0.010865382 -0.041288454 0.0046266317
-0.0096860221 -0.040896542 0.0051468909
-0.0085859746 -0.040783379 0.0051334798
-0.007560235 -0.041041277 0.0051206946
-0.0064327554 -0.040740788 0.0050455332
-0.0054057287 -0.041083541 0.004881829
-0.0043628225 -0.041446816 0.004881829
-0.003231579 -0.040933337 0.0048879683
-0.0021562404 -0.040968571 0.0048599541
-0.0010850504 -0.041231915 0.0049158335
0 -0.040904492 0.0043610036
-0.0074969744 -0.039626867 0.0040223897
-0.0064794184 -0.039956413 0.0040883422
-0.005409413 -0.04002966 0.0040103495
-0.0043006944 -0.039781425 0.0040809214
0 0 0 1 0 0 0 1 0 0 0 1 0 0 0 0 0 351 1 0 0
