ply
format ascii 1.0
comment PCL generated
element vertex 338
property float x
property float y
property float z
element camera 1
property float view_px
property float view_py
property float view_pz
property float x_axisx
property float x_axisy
property float x_axisz
property float y_axisx
property float y_axisy
property float y_axisz
property float z_axisx
property float z_axisy
property float z_axisz
property float focal
property float scalex
property float scaley
property float centerx
property float centery
property int viewportx
property int viewporty
property float k1
property float k2
end_header
-0.011369783 -0.0090958271 0.0040177107
-0.010193369 -0.0090607731 0.0042438507
-0.0088642603 -0.0088642603 0.0041612387
-0.0075897588 -0.0086740106 0.0041086078
-0.0064776102 -0.0086368136 0.0041416287
-0.005419529 -0.0086712474 0.0041416287
-0.012651639 -0.0073801233 0.0040807128
-0.011773136 -0.007491996 0.0050656796
-0.01056947 -0.0073986291 0.0052264929
-0.0096030496 -0.0074690394 0.0054050386
-0.0085989153 -0.0075240503 0.0049455166
-0.0074437568 -0.0074437568 0.0049175918
-0.0064168321 -0.0074863038 0.0049928427
-0.005362784 -0.0075078974 0.0049288869
-0.00425694 -0.0074496451 0.0050408244
-0.0031732055 -0.0074041463 0.0048364401
-0.0021506194 -0.0075271679 0.0043545663
-0.01292712 -0.0064635598 0.0052242279
-0.011845348 -0.0064610988 0.0056041181
-0.010702768 -0.0064216615 0.0056539774
-0.0096999891 -0.0064666597 0.0054213405
-0.0085743945 -0.0064307959 0.0049455166
-0.0075276955 -0.0064523104 0.0048702657
-0.0065070721 -0.0065070721 0.004940331
-0.0053785476 -0.0064542573 0.0049315691
-0.0043163714 -0.0064745569 0.0053023696
-0.003234606 -0.006469212 0.0052664876
-0.0021458294 -0.0064374874 0.0049315691
-0.0010668278 -0.006400967 0.0048364401
-0.014959428 -0.0053426526 0.0043982267
-0.014089326 -0.0054189716 0.0052163303
-0.012859551 -0.005358146 0.0057819486
-0.011755248 -0.0053432942 0.0060414672
-0.010878677 -0.0054393387 0.0057811737
-0.0096931923 -0.0053851069 0.0055607557
-0.0086073624 -0.0053796014 0.005284518
-0.0075680665 -0.0054057618 0.0051690936
-0.0064403578 -0.0053669647 0.0052164197
-0.005351298 -0.005351298 0.0053133667
-0.0043282257 -0.0054102824 0.0053302944
-0.003227035 -0.0053783916 0.0054772794
-0.0021432203 -0.0053580506 0.0054772794
-0.0010786317 -0.0053931586 0.0054065585
0 -0.0052940981 0.0049973428
-0.015050277 -0.0043000793 0.0050910115
-0.01390751 -0.004279234 0.0057937205
-0.012953524 -0.0043178415 0.0060418844
-0.011966097 -0.0043513081 0.0060577691
-0.010807058 -0.0043228231 0.0058418512
-0.0097357072 -0.004326981 0.0057194531
-0.0087841451 -0.0043920726 0.005038321
-0.007640399 -0.0043659424 0.0047995746
-0.0065777111 -0.0043851407 0.0047995746
-0.0054630195 -0.0043704156 0.0050408244
-0.0043066423 -0.0043066423 0.0053301454
-0.0032463316 -0.0043284423 0.005734235
-0.0021612062 -0.0043224124 0.0059809983
-0.0010735404 -0.0042941617 0.0059874654
0 -0.0043536848 0.0054130256
0.0010763452 -0.0043053809 0.0054269135
0.0021166967 -0.0042333934 0.0046977103
-0.016143382 -0.0032286763 0.0041766465
-0.01504634 -0.0032242157 0.00499475
-0.013957726 -0.0032210136 0.0056928694
-0.012900418 -0.0032251044 0.0058689117
-0.011972393 -0.0032651981 0.0057937205
-0.010848744 -0.0032546232 0.0054923296
-0.0098494859 -0.0032831621 0.0048575997
-0.008692163 -0.0032595613 0.0045137107
-0.0076320316 -0.0032708705 0.0043444037
-0.0066327257 -0.0033163629 0.0045149922
-0.0054366174 -0.0032619704 0.0049227476
-0.0043433192 -0.0032574893 0.0053115785
-0.0033115209 -0.0033115209 0.0058251023
-0.0021606439 -0.0032409658 0.0062194169
-0.0010770395 -0.0032311184 0.0064183176
0 -0.0032497866 0.0061582625
0.001071186 -0.0032135579 0.0060064495
0.0021469861 -0.003220479 0.0054361224
0.0031957347 -0.0031957347 0.0044654906
-0.016196646 -0.0021595526 0.0048301816
-0.01504828 -0.0021497542 0.0057208836
-0.014071235 -0.0021648055 0.0058146715
-0.013113448 -0.0021855747 0.0059217811
-0.011927659 -0.0021686652 0.0056928694
-0.010895849 -0.0021791698 0.005032599
-0.0098457988 -0.0021879554 0.0046537519
-0.0044024074 -0.0022012037 0.0044362545
-0.0032682207 -0.0021788138 0.0049162805
-0.0021717749 -0.0021717749 0.0054065585
-0.0010951657 -0.0021903315 0.0060040355
0 -0.0021515584 0.0061503649
0.0010780318 -0.0021560637 0.0060040355
0.0021515314 -0.0021515314 0.0057631731
0.0031908459 -0.0021272306 0.0052496493
0.0043533859 -0.0021766929 0.0040523708
-0.017105293 -0.0010690808 0.004529953
-0.016189484 -0.0010792989 0.0052863359
-0.015132882 -0.0010809201 0.0058198869
-0.014105435 -0.0010850334 0.0058198869
-0.01307042 -0.0010892017 0.0056385398
-0.012095389 -0.0010995809 0.0049957633
-0.010992262 -0.0010992262 0.0043045878
-0.0022103311 -0.0011051656 0.0044528246
-0.001075786 -0.001075786 0.0054386258
0 -0.0010862771 0.0058315694
0.0010848102 -0.0010848102 0.0061270297
0.0021431372 -0.0010715686 0.0058251023
0.0032210578 -0.0010736859 0.0057446957
0.0043078195 -0.0010769549 0.0055065453
-0.018283373 0 0.0044472218
-0.017116068 0 0.00502038
-0.016258085 0 0.0057736635
-0.015295024 0 0.005911082
-0.014172029 0 0.0056072772
-0.013308889 0 0.0049957633
-0.012009606 0 0.004345268
-0.0010931672 0 0.0048756599
0 0 0.005373776
0.0010725576 0 0.0061080456
0.0021705825 0 0.0059809983
0.0032327746 0 0.0058251023
0.0042827129 0 0.0055413842
0.0053663487 0 0.0048347712
-0.019339148 0.0010743971 0.0048401654
-0.018327849 0.0010781088 0.0050790906
-0.017285636 0.0010803522 0.0058323741
-0.016310129 0.001087342 0.0060048699
-0.015145678 0.0010818342 0.0060048699
-0.014206844 0.0010928342 0.0055473447
-0.013128199 0.0010940166 0.0046155453
-0.012048456 0.0010953143 0.0040575266
-0.0010942004 0.0010942004 0.0046546459
0 0.0010834113 0.0051243901
0.0010897493 0.0010897493 0.0058394372
0.002165454 0.001082727 0.0059116781
0.003220692 0.0010735641 0.0063111782
0.0043148925 0.0010787231 0.0061097145
0.0053581004 0.0010716202 0.0057914555
-0.019247962 0.0021386626 0.005739212
-0.018308001 0.0021538825 0.0058323741
-0.017272802 0.0021591003 0.0061107874
-0.016191162 0.0021588216 0.0061149299
-0.015285449 0.0021836355 0.0061107874
-0.014225726 0.0021885731 0.005396992
-0.013150748 0.0021917913 0.0043640435
-0.0010983364 0.0021966728 0.0042765439
0 0.0021811922 0.0053613186
0.0010793124 0.0021586248 0.0063111782
0.0021600679 0.0021600679 0.0061550736
0.0032373075 0.002158205 0.0065283179
0.0042865612 0.0021432806 0.0063641965
0.0053348821 0.0021339529 0.0061129928
0.006505528 0.0021685094 0.0049435198
-0.019215867 0.0032026444 0.0058019161
-0.018464092 0.0032583692 0.0059688687
-0.017083419 0.003203141 0.006247282
-0.016366391 0.003273278 0.006247282
-0.015261324 0.0032702836 0.0061107874
-0.014137564 0.0032625149 0.0051430166
-0.013130064 0.003282516 0.0041107535
0 0.0032790538 0.0051608682
0.0010896001 0.0032688002 0.0061936975
0.0021910085 0.0032865128 0.0065093338
0.0032374396 0.0032374396 0.0065390766
0.004293323 0.0032199922 0.0065390766
0.0053869272 0.0032321564 0.0062322617
0.006520059 0.0032600295 0.0052124262
-0.020447267 0.004304688 0.0041162372
-0.019431436 0.0043180971 0.0062000751
-0.018303173 0.0043066288 0.0061149299
-0.017293599 0.0043233996 0.0063166022
-0.016282864 0.0043420969 0.0063166022
-0.015226867 0.0043505332 0.0062166452
-0.014232323 0.0043791761 0.0052863359
-0.013098329 0.0043661101 0.0040965676
0 0.0043710009 0.0051626563
0.0010925028 0.0043700114 0.0064105392
0.0021749858 0.0043499717 0.0065447092
0.0032194436 0.0042925915 0.0067585111
0.0043229824 0.0043229824 0.0065554678
0.0053892485 0.0043113991 0.0063129663
0.0064522438 0.0043014959 0.0055538714
-0.020638777 0.0054312572 0.0041162372
-0.019267533 0.0053520924 0.0062000751
-0.018351331 0.0053974497 0.0061936975
-0.01713228 0.0053538373 0.0062588751
-0.016243106 0.0054143686 0.0063689649
-0.015403877 0.0055013848 0.006326735
-0.014086157 0.0054177525 0.0055883825
-0.013133796 0.0054724151 0.0042162836
-0.0010871676 0.0054358384 0.0041765273
0 0.0055132885 0.0055187941
0.001088753 0.0054437644 0.0064658225
0.0021659012 0.0054147532 0.006900847
0.0032116708 0.0053527844 0.006900847
0.0043092039 0.0053865048 0.0066691041
0.0053625768 0.0053625768 0.0064105392
0.0065076617 0.0054230513 0.0055938065
-0.019333748 0.0064445827 0.0061149299
-0.018380731 0.0064873165 0.0062668324
-0.01713364 0.0064251153 0.0064296424
-0.016252603 0.0065010414 0.006626159
-0.01524383 0.00653307 0.0066528916
-0.014056364 0.0064875525 0.0059608817
-0.013294962 0.0066474811 0.0045277178
-0.0010926175 0.0065557053 0.0042749047
0 0.0065067071 0.0055799484
0.0010868865 0.0065213186 0.0065259933
0.0021669243 0.0065007727 0.0066691041
0.0031972942 0.0063945884 0.0066705048
0.0042756465 0.0064134696 0.0066544116
0.0054318914 0.0065182699 0.0064419806
0.0064869546 0.0064869546 0.0052410662
-0.019506179 0.0075857365 0.0057818592
-0.018193597 0.007491481 0.0061035156
-0.017333729 0.0075835064 0.006592989
-0.016049068 0.0074895653 0.0066731572
-0.015054697 0.0075273486 0.0066322684
-0.014101738 0.0075932434 0.0060847402
-0.013074311 0.0076266821 0.0050132871
-0.011962852 0.0076127248 0.0040713847
-0.0011019009 0.0077133067 0.0046546459
0 0.0075682309 0.0058654845
0.0010846476 0.0075925328 0.0065874457
0.0021663485 0.0075822198 0.0068352818
0.0032128931 0.0074967509 0.006603539
0.0043220487 0.0075635854 0.0064842701
0.0053481534 0.0074874149 0.0059405565
-0.019415375 0.0086290557 0.0047973692
-0.018332532 0.0086270729 0.0059640706
-0.017298808 0.0086494042 0.006592989
-0.016196355 0.008638056 0.0069859922
-0.015125643 0.0086432248 0.0072960556
-0.014486833 0.0089149745 0.0069030225
-0.012916484 0.0086109899 0.0061895549
-0.012184846 0.0088617066 0.0047858655
-0.010952314 0.008761852 0.0042127073
-0.0022052629 0.0088210516 0.0040507019
-0.0010789272 0.0086314175 0.0054364502
0 0.008869933 0.0061078966
0.0010741111 0.0085928887 0.0063113272
0.002128816 0.0085152639 0.0067615509
0.0032549892 0.0086799711 0.0064105392
0.0042616171 0.0085232342 0.0062140524
0.0053701526 0.0085922452 0.0050976574
-0.018330526 0.0097043952 0.0057374537
-0.017035726 0.0095825959 0.006616354
-0.016135186 0.0096811121 0.0073104501
-0.01507793 0.0096929548 0.0077329576
-0.0138936 0.0096186455 0.0077800453
-0.013287976 0.0099659823 0.0076966882
-0.01192144 0.0097539052 0.0064082742
-0.010914559 0.0098231034 0.0050416291
-0.0098862154 0.0098862154 0.0042410493
-0.0032831621 0.0098494859 0.0044410527
-0.0021646689 0.0097410092 0.0056984425
-0.001095573 0.0098601561 0.0067191124
0 0.0098739024 0.0068396926
0.0010715547 0.0096439924 0.0070022643
0.0021561347 0.0097026052 0.0071576834
0.003214584 0.0096437512 0.0065137148
0.0042847991 0.009640797 0.0061576962
0.0054289945 0.0097721899 0.0040945709
-0.017377749 0.010861093 0.0062668324
-0.015929561 0.010619707 0.0072567463
-0.015009658 0.010721184 0.0077800453
-0.013930002 0.010715386 0.0080051422
-0.013057607 0.010881339 0.0080507696
-0.012275305 0.011159368 0.0075087845
-0.010801177 0.010801177 0.0073323846
-0.0098170703 0.010907856 0.0055701137
-0.0087208971 0.010901121 0.0046036839
-0.0076661264 0.010951608 0.0042161345
-0.0043611019 0.010902754 0.0048778951
-0.0032383483 0.010794494 0.0059159696
-0.0022180597 0.011090298 0.0068796873
-0.0011143434 0.011143434 0.0070044398
0 0.010633872 0.0071288645
0.0010807564 0.010807564 0.0068586767
0.0021439374 0.010719687 0.006788373
0.0032268278 0.010756093 0.0061502755
0.0043528122 0.01088203 0.0052033961
-0.017200237 0.011825162 0.0048622191
-0.016094802 0.011802854 0.0061546862
-0.01510675 0.011869589 0.007335037
-0.013956016 0.011808936 0.0076331496
-0.012753345 0.011690565 0.0083384514
-0.012188043 0.012188043 0.0082949996
-0.011501205 0.012651326 0.0081554949
-0.0097325165 0.011895298 0.0072915852
-0.0087451888 0.012024635 0.006936878
-0.0074757854 0.011747663 0.0057028234
-0.0064581735 0.011839985 0.005638808
-0.0054188697 0.011921513 0.0067029297
-0.0044198157 0.012154493 0.0068006516
-0.0033904519 0.012431657 0.0071340799
-0.0022285199 0.012256859 0.0073764622
-0.0010581333 0.011639466 0.0074400604
0 0.011950604 0.0073695183
0.0010714818 0.0117863 0.0068455637
0.0021448939 0.011796917 0.0067191124
0.0032317361 0.011849699 0.0054233372
-0.01507582 0.012922131 0.0062288642
-0.013708732 0.012654214 0.0069530606
-0.012892791 0.012892791 0.0075322688
-0.011679843 0.012741648 0.0079587698
-0.010535263 0.012642315 0.0080232322
-0.010082791 0.013443721 0.0070699453
-0.00922425 0.013836375 0.0065837502
-0.0080677569 0.013830441 0.0056350231
-0.0071283081 0.014256616 0.0052298009
-0.005728682 0.013748838 0.0058594644
-0.004407065 0.013221195 0.0064543188
-0.0032329664 0.012931866 0.0067870021
-0.0021078058 0.012646835 0.0070146918
-0.0010756103 0.012907323 0.0067591071
0 0.01278888 0.0064140558
0.0010720753 0.012864904 0.0059906542
0.0021460808 0.012876485 0.0047172606
-0.013989559 0.013989559 0.0045745969
-0.012907868 0.013983524 0.0063723028
-0.011680272 0.013803959 0.0071358979
-0.010710512 0.013923666 0.0070680976
-0.009575326 0.013831027 0.0067532063
-0.0084860176 0.013789779 0.0055911243
-0.0074320119 0.013802308 0.0049378276
-0.0062776869 0.013601655 0.0045066178
-0.0052669295 0.013694016 0.0048792064
-0.0042806966 0.013912263 0.0058107972
-0.0031842657 0.013798485 0.0061816871
-0.0021406722 0.013914369 0.0061816871
-0.0010654097 0.013850327 0.0057571232
0 0.013907412 0.0052302182
-0.011865568 0.015101633 0.0041249394
-0.010634678 0.014888551 0.004722774
-0.0031902131 0.014887661 0.0047903955
-0.0021582856 0.015107999 0.0047903955
0 0 0 1 0 0 0 1 0 0 0 1 0 0 0 0 0 338 1 0 0
