ply
format ascii 1.0
comment PCL generated
element vertex 391
property float x
property float y
property float z
element camera 1
property float view_px
property float view_py
property float view_pz
property float x_axisx
property float x_axisy
property float x_axisz
property float y_axisx
property float y_axisy
property float y_axisz
property float z_axisx
property float z_axisy
property float z_axisz
property float focal
property float scalex
property float scaley
property float centerx
property float centery
property int viewportx
property int viewporty
property float k1
property float k2
end_header
-0.0098457811 -0.078766249 0.0043423176
-0.0076304302 -0.078484416 0.0041747689
-0.0064823008 -0.077787608 0.0042101741
-0.0053960965 -0.077703789 0.0041809976
-0.0021514946 -0.077453807 0.0040646791
-0.0125808 -0.081203349 0.0040033758
-0.011886761 -0.084395997 0.0042504668
-0.010707883 -0.084473297 0.0043764114
-0.0092487335 -0.08208251 0.0047920346
-0.0081904959 -0.083075024 0.004860729
-0.0068841917 -0.081462935 0.0046198964
-0.0056979964 -0.080911547 0.0045903325
-0.004606789 -0.081770502 0.0045903325
-0.0033951895 -0.08035282 0.0048690438
-0.0022313143 -0.07921166 0.0049750209
-0.0011332582 -0.080461331 0.0041798055
-0.011781087 -0.074970551 0.0045236349
-0.010753391 -0.075273745 0.0047775805
-0.0095013482 -0.073899373 0.0050683618
-0.0085195806 -0.07454633 0.0055546165
-0.0074949078 -0.074949078 0.0055620968
-0.0063754544 -0.074380301 0.0054014325
-0.0053202626 -0.074483678 0.0050683618
-0.0042906804 -0.075086907 0.005102843
-0.0031669063 -0.073894478 0.0053848922
-0.0021404931 -0.074917257 0.005330205
-0.0010634692 -0.074442849 0.0052178502
0 -0.074321143 0.0043497384
0.0010592048 -0.074144334 0.0044379532
0.0022048797 -0.077170789 0.0041007698
-0.01293013 -0.074348249 0.0045161545
-0.011832963 -0.074224949 0.0050539076
-0.010623968 -0.073305383 0.0052960217
-0.0096329488 -0.073852614 0.005651474
-0.0085894978 -0.074084416 0.0058922172
-0.007555264 -0.074473314 0.0057440698
-0.0064906147 -0.07464207 0.0059021413
-0.0053711734 -0.074122198 0.0056252778
-0.0043222923 -0.07455954 0.0057473183
-0.0032354787 -0.074416012 0.0060937107
-0.0021605038 -0.074537374 0.0061072409
-0.0010741327 -0.074115165 0.0064277351
0 -0.073298603 0.0059462488
0.0010594112 -0.073099375 0.0055439174
0.0021397134 -0.073820114 0.0051902831
0.0032962263 -0.075813204 0.0046183169
0.0042884042 -0.073974967 0.0042150021
0.00547662 -0.075577363 0.0041295886
-0.014097537 -0.073740967 0.0043639243
-0.012937668 -0.073313452 0.0054363906
-0.011847137 -0.073236845 0.0060325861
-0.010719129 -0.072890073 0.0063255727
-0.0096980743 -0.073274344 0.0067307353
-0.0085887425 -0.073004305 0.0062693655
-0.0075491494 -0.073334597 0.0059628785
-0.006470955 -0.073337488 0.0060064495
-0.0054130796 -0.073617883 0.0056252778
-0.0043478939 -0.073914193 0.0058399141
-0.0032364642 -0.073359855 0.006070137
-0.0021618835 -0.073504038 0.0062687099
-0.001077465 -0.073267624 0.0065880418
0 -0.072593376 0.0064524114
0.0010733773 -0.072989658 0.0063808262
0.0021333902 -0.072535262 0.005684793
0.0031637892 -0.071712561 0.0055439174
0.0044508027 -0.075663641 0.0045568049
0.00545215 -0.074149244 0.0042277575
-0.015149917 -0.072503172 0.0044350624
-0.013957195 -0.07193324 0.0053104758
-0.012854968 -0.071773574 0.0060445666
-0.011910186 -0.072543867 0.0066663325
-0.010817911 -0.072480015 0.0066048205
-0.0095878774 -0.071376428 0.0067360401
-0.0086976048 -0.072842441 0.0062549114
-0.0075615058 -0.072374418 0.0058922172
-0.0065353042 -0.072977565 0.0057473183
-0.0054742307 -0.073354699 0.0055690706
-0.0043778205 -0.073328495 0.005800277
-0.0032664766 -0.072951317 0.0061330795
-0.0021792478 -0.073004805 0.0063540637
-0.0010779672 -0.072223805 0.0070644021
0 -0.072187759 0.0071922243
0.0010733367 -0.071913555 0.0070251226
0.0021361897 -0.071562357 0.0065034628
0.0032334619 -0.072213985 0.0061480403
0.0043111909 -0.07221245 0.0055167377
0.0055484953 -0.074349843 0.005120486
0.006534222 -0.07296548 0.0046669245
-0.016726868 -0.073598221 0.0041396916
-0.014858053 -0.070045106 0.0046565235
-0.013867468 -0.070404068 0.0054042637
-0.012876039 -0.070818216 0.0066610277
-0.011737708 -0.070426248 0.0067360401
-0.010693577 -0.070577607 0.0064153373
-0.0098218182 -0.07202667 0.0061409175
-0.0088132424 -0.072709247 0.00533849
-0.007628988 -0.071930453 0.0049767196
-0.0065520238 -0.07207226 0.0040012896
-0.0043280954 -0.071413569 0.0041260421
-0.0033046163 -0.072701558 0.0049252808
-0.0021938463 -0.072396919 0.0052986443
-0.0010997006 -0.072580241 0.0062687099
0 -0.070980273 0.0064513683
0.0010733497 -0.070841074 0.0066193342
0.0021804904 -0.07195618 0.0065034628
0.003243072 -0.071347587 0.0063808262
0.0042246212 -0.069706254 0.0057340562
0.0055194572 -0.072856836 0.0058264732
0.0065263971 -0.071790367 0.005143702
0.0076441467 -0.072073378 0.0045120716
-0.018165914 -0.073799022 0.0042596161
-0.016042463 -0.069517337 0.0045479536
-0.014912813 -0.069238059 0.0057450235
-0.014037997 -0.070189983 0.0066156685
-0.01296058 -0.07020314 0.0074161589
-0.011923718 -0.070458338 0.0074161589
-0.010966789 -0.07128413 0.0066156685
-0.0097688707 -0.07055296 0.0066610277
-0.0086997766 -0.070685685 0.0053898096
-0.0076665706 -0.071189582 0.0049767196
-0.0065943543 -0.071438842 0.0040012896
-0.004433095 -0.072037794 0.0046623349
-0.0033061146 -0.071632482 0.0053265393
-0.0021747395 -0.070679031 0.0055636466
-0.0010885232 -0.070754007 0.0065310299
0 -0.071262792 0.0066583753
0.0010918335 -0.070969172 0.0072700977
0.0021568041 -0.070096135 0.0070798099
0.0032161991 -0.069684312 0.0070615113
0.0043264506 -0.070304818 0.0063138008
0.0053372015 -0.069383621 0.0060569346
0.0066687362 -0.072244644 0.0060791969
0.0076610944 -0.071138732 0.0045596361
-0.017325949 -0.069303796 0.0046772659
-0.0159206 -0.06792789 0.0054289401
-0.015130118 -0.069166251 0.0065933764
-0.013938677 -0.068621174 0.0068383813
-0.012835673 -0.068456925 0.0074619055
-0.012008511 -0.0698677 0.0069850981
-0.010942205 -0.070030108 0.0060025156
-0.0096876528 -0.068889976 0.0052754879
-0.0032781526 -0.069933921 0.0040391386
-0.0022111174 -0.070755757 0.0044665337
-0.0011088202 -0.070964493 0.0057473183
0 -0.069874182 0.0060514808
0.0010890715 -0.069700576 0.0069341063
0.0021641543 -0.069252938 0.0071396232
0.0032346221 -0.069005273 0.0071908832
0.0042761317 -0.068418108 0.0071006417
0.0053257528 -0.068169639 0.0067226291
0.006608143 -0.070486858 0.0064994693
0.0077601844 -0.070950262 0.005322963
0.0086348094 -0.069078475 0.0040628612
-0.017108271 -0.067363821 0.0053384006
-0.01625089 -0.068253733 0.0059283674
-0.015083716 -0.067876726 0.0073026121
-0.014110768 -0.068382956 0.0074060261
-0.013179481 -0.069192275 0.0074619055
-0.011961496 -0.068506755 0.0067357123
-0.010984373 -0.069201559 0.0054233372
-0.0099141495 -0.069399051 0.0041881502
0 -0.069260612 0.0052268207
0.0010862405 -0.068433158 0.0062151849
0.0021804117 -0.068682969 0.0069044232
0.003226659 -0.067759842 0.0069853663
0.0042681508 -0.06722337 0.0069715977
0.0054015936 -0.068060085 0.0066311359
0.0063953311 -0.06715098 0.0068739653
0.0078104045 -0.070293643 0.0061068535
0.0087812366 -0.069152243 0.0043789744
-0.018375041 -0.067014858 0.0040793121
-0.017358512 -0.067264237 0.0062582791
-0.016128821 -0.066665798 0.0061567426
-0.015137519 -0.067037582 0.0068643689
-0.014245327 -0.067939252 0.007237494
-0.013087654 -0.067619547 0.0069814026
-0.011995208 -0.067609355 0.0058469176
-0.011011451 -0.068270996 0.0043851733
0.0011053943 -0.068534456 0.0055449009
0.0021652156 -0.067121685 0.0062309206
0.0032475928 -0.067116924 0.0069508255
0.0043382258 -0.067242503 0.0071006417
0.0053524398 -0.066370256 0.0066468716
0.0063843941 -0.065972075 0.0068995953
0.0075696227 -0.067045234 0.0060570836
0.0088568777 -0.068640806 0.0041514933
-0.018304119 -0.065679483 0.004740566
-0.017311055 -0.06599839 0.0063270032
-0.016016504 -0.06513378 0.0063544512
-0.015204765 -0.066249333 0.0067462027
-0.014260069 -0.066912629 0.0070478618
-0.012965312 -0.065907009 0.0062997341
-0.012131611 -0.067275301 0.0046480596
0.0010979733 -0.066976376 0.0042265654
0.002192551 -0.066872805 0.0055140853
0.003309391 -0.067290947 0.0064349174
0.0043297284 -0.066028357 0.0066311359
0.0053665051 -0.065471366 0.0066212416
0.0064974511 -0.066057421 0.0067226291
0.0075585418 -0.065867297 0.005600065
0.0089166136 -0.067989178 0.0042679608
-0.018450167 -0.065118231 0.0052840412
-0.017196938 -0.064488515 0.0065581799
-0.016243871 -0.064975485 0.0065408647
-0.01501042 -0.064330377 0.0069081485
-0.014018531 -0.064700916 0.0071448386
-0.013226148 -0.066130742 0.0064802468
-0.012074428 -0.065860517 0.0044807494
0.0010922286 -0.06553372 0.0041294396
0.0021939646 -0.065818936 0.0056420565
0.0032192608 -0.06438522 0.0064714253
0.0042710314 -0.064065471 0.0065025389
0.0053609516 -0.064331427 0.0061688125
0.0064792321 -0.06479232 0.0066212416
0.0075094248 -0.064366497 0.0055509508
0.00872216 -0.065416202 0.0040977299
-0.018258099 -0.063366346 0.0051572919
-0.017316021 -0.063852824 0.0065634549
-0.016096057 -0.06331116 0.0065232217
-0.015103655 -0.063651115 0.006504178
-0.014120817 -0.064086787 0.0068643689
-0.013110847 -0.064461671 0.006362766
-0.012078155 -0.064782836 0.0049253404
0.0010957025 -0.064646445 0.0040047765
0.0021952454 -0.064759739 0.0051604509
0.0032088505 -0.063107394 0.0058671832
0.0043230131 -0.063764445 0.0064250231
0.0053484263 -0.063111432 0.0064921975
0.0063958196 -0.062892228 0.0066040754
0.0075518428 -0.063651249 0.0054986775
-0.018434767 -0.062895089 0.005188942
-0.01722477 -0.062439796 0.0066272914
-0.016108142 -0.06228482 0.0065279603
-0.015131852 -0.062689103 0.0065023005
-0.014068631 -0.062767737 0.0069026053
-0.012991041 -0.062790036 0.0064167678
-0.012167409 -0.064155437 0.0050278604
-0.01107647 -0.064243525 0.0042526126
0.0010972413 -0.063639998 0.004016906
0.002183842 -0.063331418 0.0053811967
0.0032409553 -0.062658474 0.0061100125
0.0042835283 -0.062111158 0.0062953234
0.0053014653 -0.061497003 0.0064250231
0.0064983903 -0.062817775 0.0066040754
0.0075372295 -0.062451329 0.0054815114
-0.018469956 -0.061928675 0.0047802031
-0.017170992 -0.061171658 0.0064019263
-0.01623325 -0.061686348 0.0065581799
-0.015229238 -0.062004752 0.0063992441
-0.013879846 -0.060857784 0.0071815252
-0.013133185 -0.062382631 0.006680578
-0.012149788 -0.062957987 0.0055248141
-0.010936742 -0.062339429 0.0047975183
0.0010939455 -0.062354889 0.0043409765
0.0021972877 -0.062622696 0.0057700276
0.0032290579 -0.0613521 0.0063735545
0.0042425408 -0.060456209 0.0063735545
0.0054373336 -0.061985604 0.0065025389
0.0064655496 -0.061422721 0.0059436858
0.007471439 -0.06083886 0.0042712986
-0.018420953 -0.060680788 0.004229039
-0.017291814 -0.060521353 0.0055421293
-0.01611938 -0.060179021 0.0066438913
-0.014976809 -0.059907235 0.006749928
-0.014246358 -0.061368924 0.008015126
-0.013144972 -0.061343204 0.0070448518
-0.011972717 -0.060952015 0.0066293478
-0.011086014 -0.06208168 0.0049583912
0 -0.061322927 0.0041778088
0.0010960754 -0.061380222 0.0049707592
0.0021945462 -0.061447293 0.0066896081
0.0032345236 -0.060377773 0.0067077875
0.0043420731 -0.060789019 0.0064961314
0.0054096291 -0.060587849 0.0058421493
0.0063960562 -0.059696525 0.0050323606
-0.017247472 -0.059288185 0.0045857131
-0.01614478 -0.059197526 0.0061340034
-0.015156009 -0.059541468 0.00642398
-0.014028293 -0.059350472 0.0076259673
-0.012900915 -0.059129197 0.0075254738
-0.011981439 -0.059907194 0.0067276955
-0.010944248 -0.060193367 0.0055121481
-0.0098987715 -0.060492497 0.0046586394
-0.0011006166 -0.060533915 0.004267931
0 -0.060358014 0.0050539374
0.0011231484 -0.061773162 0.006723702
0.0021594118 -0.059383824 0.0075281262
0.0032432356 -0.059459325 0.0070171356
0.0042872541 -0.058949746 0.0066896081
0.0053501613 -0.058851779 0.0057646334
0.006480861 -0.059407897 0.0042903125
-0.017259028 -0.05824922 0.0040091276
-0.016411038 -0.059079744 0.0048020482
-0.015205039 -0.058648009 0.0061055422
-0.013960747 -0.057990797 0.0071372092
-0.012939293 -0.05822682 0.0075254738
-0.012539598 -0.061558034 0.0071422756
-0.010862126 -0.058655486 0.0064472556
-0.0098134559 -0.058880739 0.005875051
-0.0086843772 -0.058619548 0.005137682
-0.0076909559 -0.059330232 0.0043448806
-0.0021903473 -0.059139378 0.0043409765
-0.0010980238 -0.059293289 0.0049582422
0 -0.059074841 0.0058421493
0.0010956067 -0.059162766 0.0078670382
0.0021522783 -0.058111519 0.007771343
0.0031973696 -0.057552658 0.0069989562
0.0042770868 -0.05774067 0.006477952
0.0054253642 -0.05859394 0.0045121014
-0.016217085 -0.057300366 0.0040363371
-0.014971524 -0.056677915 0.0057856441
-0.013926843 -0.056778669 0.006627202
-0.012938464 -0.057144884 0.0075254738
-0.011671 -0.056233 0.0076880455
-0.011424659 -0.060550693 0.0071904659
-0.0098596448 -0.058062356 0.0068305433
-0.0086243777 -0.057136498 0.0066427886
-0.0076405979 -0.057850242 0.0060123205
-0.0065308507 -0.057689179 0.005261898
-0.0054960512 -0.058258142 0.0044552982
-0.004391402 -0.058186073 0.0044421554
-0.0032597121 -0.057588249 0.0054044425
-0.002159514 -0.057227116 0.0056420565
-0.0011066658 -0.058653288 0.006732583
0 -0.058643855 0.0076238215
0.0010697931 -0.05669903 0.0079822242
0.0021485128 -0.056935582 0.0074237287
0.0032143779 -0.056787342 0.0065852106
0.0043222536 -0.057269856 0.0048322678
-0.015255537 -0.056663424 0.0040389895
-0.013980044 -0.055920176 0.0050628185
-0.012598127 -0.054591883 0.0057858229
-0.011893511 -0.056223869 0.0066086948
-0.010778524 -0.056048322 0.00642398
-0.0096658729 -0.055847269 0.0064510703
-0.009289261 -0.060380194 0.006169945
-0.0078440839 -0.058270343 0.0059715509
-0.0064585912 -0.055974457 0.0055407882
-0.0055325897 -0.057538934 0.0050321817
-0.0044104736 -0.057336159 0.0051993728
-0.0033523683 -0.058107719 0.0057546794
-0.0023350785 -0.060712039 0.0060049295
-0.0010900922 -0.056684792 0.0069326758
0 -0.056351677 0.0072730184
0.0010815059 -0.056238309 0.0076291561
0.0021290102 -0.055354264 0.0069326758
0.0032631217 -0.056560777 0.0049366653
-0.012919161 -0.054906435 0.0045382082
-0.011752947 -0.054490939 0.0060077012
-0.010499553 -0.053547721 0.0061291754
-0.0096743749 -0.054821461 0.0063998699
-0.0086052157 -0.054858252 0.0063998699
-0.0075620846 -0.055095188 0.0063074529
-0.0066972305 -0.056926459 0.0056622624
-0.0056184107 -0.057307791 0.0046093464
-0.0043368717 -0.055295113 0.0049452484
-0.0032189733 -0.054722548 0.0057384074
-0.0021314989 -0.054353219 0.0058165193
-0.0010781588 -0.054986101 0.006416142
0 -0.05494925 0.005923003
0.0010682392 -0.054480199 0.0066705644
0.0021737174 -0.055429794 0.0050539374
0.003241655 -0.055108137 0.004180342
-0.01183976 -0.053817093 0.0052660108
-0.010713304 -0.053566527 0.0059329569
-0.0096436255 -0.053575702 0.005995363
-0.0085222311 -0.053263944 0.0062924027
-0.0075593521 -0.053995375 0.0059886575
-0.0064361454 -0.053634547 0.0057173967
-0.0053454852 -0.053454857 0.004732132
-0.0043304749 -0.054130934 0.0050028265
-0.0032025485 -0.05337581 0.0057451129
-0.0021422047 -0.05355512 0.0057451129
-0.0010836972 -0.054184861 0.0057384074
0 -0.05373729 0.0052908659
0.0010799459 -0.053997297 0.0045741498
0.0021535796 -0.05383949 0.0040715039
-0.010860568 -0.053216785 0.0040085912
-0.009693942 -0.052778132 0.0045203865
-0.0086603714 -0.053044774 0.0059707165
-0.0074485545 -0.052139878 0.0058165193
-0.0064479094 -0.052657925 0.0045315027
-0.0053610336 -0.05253813 0.0044323802
-0.0043126699 -0.052830204 0.0045315027
-0.0032362062 -0.052858032 0.005009532
-0.0021711818 -0.053193957 0.0045247972
-0.0010748885 -0.052669533 0.0045069456
0 -0.053055227 0.004201889
0.11070857 0.13307394 0.0042038262
0.10919745 0.12994497 0.0042038262
0.10973588 0.12929277 0.0040459037
0 0 0 1 0 0 0 1 0 0 0 1 0 0 0 0 0 391 1 0 0
