ply
format ascii 1.0
comment PCL generated
element vertex 1254
property float x
property float y
property float z
element camera 0
property float view_px
property float view_py
property float view_pz
property float x_axisx
property float x_axisy
property float x_axisz
property float y_axisx
property float y_axisy
property float y_axisz
property float z_axisx
property float z_axisy
property float z_axisz
property float focal
property float scalex
property float scaley
property float centerx
property float centery
property int viewportx
property int viewporty
property float k1
property float k2
end_header
-0.060429774 -0.077861436 0.011765063
-0.058944706 -0.077437162 0.011406243
-0.057547212 -0.077113263 0.010682017
-0.057126496 -0.078111738 0.010510743
-0.055855516 -0.077964991 0.0095309913
-0.054332938 -0.077453338 0.0095368028
-0.053353354 -0.077710316 0.0088913143
-0.052798454 -0.078611031 0.0084823668
-0.051524863 -0.078458317 0.0079281032
-0.050195642 -0.078211814 0.0076110661
-0.048614189 -0.077551208 0.0069422722
-0.048104066 -0.078609087 0.0062789917
-0.047453437 -0.079484507 0.0059005022
-0.046174459 -0.079325348 0.0053375065
-0.10240468 -0.07768631 0.0055313706
-0.10150994 -0.077902973 0.0061222017
-0.099758349 -0.077459425 0.0067465901
-0.098404258 -0.077317633 0.0069362223
-0.099041782 -0.078756116 0.0072202086
-0.096220061 -0.07744541 0.0081200004
-0.094334483 -0.076865129 0.0096733272
-0.092961743 -0.076693438 0.011233121
-0.091475569 -0.076422624 0.011592686
-0.09052787 -0.076600507 0.012393326
-0.090733938 -0.077771947 0.012867898
-0.087652132 -0.076118961 0.013425022
-0.087246813 -0.076777197 0.01424408
-0.084714048 -0.075555772 0.014479488
-0.08473371 -0.076608561 0.014658391
-0.083596557 -0.076630183 0.014763027
-0.081977606 -0.076204531 0.015002102
-0.080450393 -0.075853229 0.0151577
-0.079433717 -0.075980082 0.015353799
-0.077821337 -0.075532474 0.015240788
-0.077399842 -0.076244622 0.015306979
-0.076576501 -0.076576501 0.015163362
-0.074969895 -0.076123275 0.015172809
-0.07313399 -0.075419426 0.014869004
-0.07242801 -0.075876966 0.01485613
-0.072476082 -0.077151962 0.014481932
-0.070302673 -0.07606519 0.014378041
-0.068583496 -0.075441845 0.014229268
-0.068011843 -0.076081038 0.014166236
-0.066830546 -0.076048553 0.014004737
-0.06520687 -0.075502694 0.014032364
-0.064591177 -0.076125316 0.0138852
-0.063329972 -0.075995959 0.01345253
-0.062169917 -0.075985454 0.01346454
-0.061044976 -0.076018274 0.013044983
-0.060417615 -0.076683894 0.01248908
-0.059234403 -0.076656282 0.012043804
-0.058250915 -0.076891206 0.011172473
-0.05742285 -0.077345066 0.010977298
-0.056264792 -0.077364087 0.010253221
-0.055080269 -0.077346765 0.009961158
-0.053217441 -0.076355457 0.0091455579
-0.052330874 -0.076751947 0.009023577
-0.051232532 -0.076848798 0.0084023476
-0.04994107 -0.076653734 0.0076475143
-0.048995748 -0.076993316 0.0069786012
-0.048052356 -0.077352576 0.0067391396
-0.046615954 -0.076916322 0.0064932704
-0.045478158 -0.076963037 0.005390197
-0.10170445 -0.076869637 0.0055007041
-0.10065398 -0.076970696 0.0063883066
-0.099204734 -0.076765567 0.0071164072
-0.097449355 -0.076315761 0.0075261593
-0.096200489 -0.076256484 0.0086719096
-0.094749905 -0.076033875 0.010229766
-0.092966385 -0.075535186 0.011377782
-0.092281997 -0.075928226 0.012423396
-0.089689039 -0.074740864 0.01294753
-0.088985331 -0.075117484 0.013176173
-0.087674648 -0.074984901 0.014402688
-0.086313561 -0.074805088 0.014801472
-0.085351482 -0.074970894 0.015262187
-0.085078903 -0.075755186 0.015611202
-0.083152272 -0.075068019 0.015611202
-0.081743449 -0.074835554 0.015751809
-0.080798507 -0.075027183 0.015751809
-0.080025323 -0.075386174 0.015685737
-0.078714617 -0.075241908 0.01554957
-0.077934608 -0.075608201 0.015586585
-0.075411268 -0.074268676 0.015565127
-0.074505128 -0.074505128 0.015499979
-0.07296069 -0.074100703 0.015464485
-0.072261222 -0.074555226 0.015364528
-0.071148694 -0.074591376 0.015303612
-0.069961265 -0.074548885 0.015042543
-0.069941111 -0.075769536 0.014633745
-0.06846644 -0.075429134 0.014490426
-0.066680245 -0.074727863 0.014279008
-0.066281646 -0.07558433 0.014257401
-0.064172588 -0.07448604 0.014226258
-0.062941909 -0.074385889 0.013993621
-0.062173095 -0.074837983 0.013765395
-0.061064094 -0.074889928 0.013386548
-0.059799399 -0.074749246 0.013043195
-0.058707934 -0.074823841 0.012593687
-0.058109052 -0.075541772 0.011811227
-0.056940481 -0.075533293 0.011218816
-0.055676118 -0.075394742 0.010667413
-0.054233812 -0.075004213 0.010646492
-0.053768106 -0.07597667 0.0095799863
-0.052472427 -0.075793505 0.0090972185
-0.050828002 -0.075086817 0.0086601377
-0.049995746 -0.075574964 0.0080390573
-0.049608454 -0.076774985 0.0075044334
-0.048020191 -0.076129578 0.0072167218
-0.047330573 -0.07691218 0.0062642395
-0.046054613 -0.076757692 0.0057459474
-0.10250744 -0.07628461 0.005774796
-0.10174669 -0.076609269 0.0062370896
-0.098653778 -0.075164787 0.0076549053
-0.098190807 -0.075713389 0.0084145665
-0.096786678 -0.075540826 0.0090101659
-0.095314696 -0.075310379 0.010797441
-0.094488949 -0.075591154 0.012102395
-0.091837935 -0.07440035 0.013330609
-0.091170162 -0.074806288 0.013708204
-0.089030646 -0.073999494 0.014125317
-0.087860264 -0.073987588 0.015344828
-0.087264076 -0.074465349 0.015727192
-0.085660823 -0.074085034 0.016022563
-0.084855415 -0.074393786 0.016346753
-0.082957529 -0.07374002 0.016397983
-0.082181066 -0.074078709 0.016574711
-0.080352992 -0.073465593 0.016629696
-0.08031448 -0.074494593 0.016739279
-0.078004032 -0.073415563 0.016390532
-0.077109553 -0.073656887 0.016471118
-0.076262787 -0.073951796 0.016269237
-0.074961409 -0.073808156 0.015961349
-0.073606245 -0.073606245 0.015857428
-0.074461468 -0.075643398 0.015898138
-0.071166754 -0.073462456 0.015749991
-0.072324522 -0.075881466 0.015610725
-0.069828749 -0.074483998 0.015703768
-0.067950852 -0.073709399 0.015298784
-0.066676237 -0.073573776 0.015130907
-0.065796942 -0.073877268 0.015053958
-0.064401612 -0.073601842 0.015364975
-0.063428916 -0.073808193 0.015200317
-0.062322479 -0.073863678 0.014861077
-0.060500804 -0.073057577 0.014430046
-0.060090855 -0.073957972 0.014238775
-0.058852233 -0.073853783 0.013735622
-0.058229517 -0.074533783 0.013193816
-0.057141464 -0.074633747 0.012865514
-0.055783115 -0.074377492 0.011960745
-0.05514833 -0.075095594 0.011641771
-0.053503606 -0.074439801 0.010597259
-0.052689917 -0.07493677 0.010185212
-0.051341467 -0.074678496 0.009398222
-0.049964253 -0.0743654 0.0086968541
-0.049084563 -0.074795529 0.0081677139
-0.048412237 -0.075570323 0.0075962245
-0.04700825 -0.075213201 0.0069402456
-0.045832399 -0.075212143 0.0060727298
-0.045093801 -0.075947456 0.0050419867
-0.10171304 -0.074510716 0.0053249002
-0.10122945 -0.075028889 0.0061163306
-0.10032918 -0.075246885 0.0072261393
-0.097981945 -0.074371837 0.0083875656
-0.096247666 -0.073946379 0.0093374848
-0.095062278 -0.073937327 0.010578126
-0.092878491 -0.073141813 0.012216389
-0.093035161 -0.074192598 0.01389572
-0.089961894 -0.072661534 0.014543951
-0.090396538 -0.073960803 0.014919758
-0.088422678 -0.073297746 0.016048193
-0.087195642 -0.073244341 0.016503304
-0.085309707 -0.072628535 0.017051816
-0.084911153 -0.073279485 0.017428637
-0.083003804 -0.072628327 0.017590344
-0.08201398 -0.072772965 0.018123299
-0.081292085 -0.073162884 0.017839491
-0.079241358 -0.072350807 0.017766714
-0.078198783 -0.072448872 0.017469615
-0.077784285 -0.07314045 0.017446995
-0.075663149 -0.072223917 0.017030746
-0.075007252 -0.072699331 0.016530454
-0.073085837 -0.071943872 0.016598225
-0.072373226 -0.072373226 0.016698122
-0.071258985 -0.072408326 0.016432643
-0.069618277 -0.071900837 0.016342402
-0.068802036 -0.072242141 0.016154766
-0.068170235 -0.072791941 0.016117185
-0.067957729 -0.073816158 0.016015917
-0.066132739 -0.073094077 0.016009748
-0.064788997 -0.072887622 0.015911132
-0.063192569 -0.072384216 0.015624642
-0.062240224 -0.072613597 0.015501142
-0.061376303 -0.072956733 0.015271574
-0.06048876 -0.073284462 0.015067935
-0.05876524 -0.072592355 0.014713973
-0.058225829 -0.073364541 0.014262646
-0.05697206 -0.073249795 0.013539791
-0.055643205 -0.073031709 0.012532234
-0.055079564 -0.073830053 0.012142032
-0.053650435 -0.073477767 0.011838883
-0.053078651 -0.074310109 0.011228561
-0.051343564 -0.073514648 0.010638744
-0.05055448 -0.074068196 0.0095930696
-0.048997588 -0.073496379 0.0090017915
-0.048506148 -0.074533843 0.0084321797
-0.047046561 -0.074098334 0.0071050823
-0.046309274 -0.074807286 0.0061873198
-0.045033555 -0.074660897 0.0050114989
-0.10070136 -0.073452756 0.0056244433
-0.09960185 -0.073515654 0.0066399276
-0.099405371 -0.074254617 0.0076164007
-0.097194798 -0.07348875 0.0092102289
-0.094654538 -0.072451621 0.010367483
-0.092757277 -0.07188689 0.012629509
-0.092014275 -0.072213732 0.014502198
-0.090645291 -0.072051384 0.015607566
-0.089948379 -0.072425969 0.01592195
-0.08774364 -0.071580335 0.017170578
-0.086808003 -0.07176128 0.018239945
-0.085135192 -0.071329489 0.018519014
-0.084494174 -0.071762174 0.018775076
-0.083101362 -0.071559511 0.018707454
-0.081352621 -0.071040317 0.018832713
-0.08075738 -0.071527965 0.018768996
-0.079964228 -0.071851917 0.018733323
-0.07914006 -0.072157115 0.018517643
-0.07753741 -0.071751036 0.018483609
-0.07676778 -0.072115183 0.018203259
-0.074771389 -0.0713204 0.017914534
-0.07363452 -0.071333438 0.017881632
-0.072955281 -0.071797259 0.01804027
-0.071552247 -0.071552247 0.017889827
-0.07010144 -0.071250647 0.017594606
-0.069577374 -0.07189662 0.017049015
-0.068037435 -0.071496971 0.016848445
-0.067397408 -0.072045505 0.016952932
-0.065475285 -0.071218736 0.016563118
-0.064149581 -0.071022756 0.016688675
-0.063307427 -0.071364731 0.017071724
-0.062336762 -0.071571834 0.016904086
-0.062405225 -0.073002338 0.016598791
-0.061077923 -0.072823681 0.016030312
-0.059324704 -0.072120227 0.015752524
-0.057082966 -0.070782878 0.015095413
-0.056722298 -0.07177107 0.014148533
-0.055401351 -0.071560077 0.013494521
-0.0542772 -0.071599714 0.012837768
-0.053858191 -0.072591469 0.012334168
-0.052593201 -0.072461747 0.011736721
-0.051526427 -0.072605424 0.010793656
-0.050663006 -0.073048986 0.0099487603
-0.049228184 -0.072670177 0.0095156431
-0.048227306 -0.072929099 0.0082643628
-0.047685575 -0.073912643 0.0073302686
-0.046303887 -0.073611304 0.0063497722
-0.04479567 -0.07308767 0.0057513118
-0.043835554 -0.073454171 0.0051901937
-0.10090666 -0.072415374 0.0050934553
-0.099459454 -0.072226509 0.0061666071
-0.098576829 -0.07244803 0.0071517825
-0.097466558 -0.072505608 0.0082212389
-0.095000297 -0.071543433 0.0099602044
-0.094197549 -0.071825631 0.011078775
-0.091360688 -0.070544332 0.013303965
-0.090134844 -0.07049007 0.015384853
-0.089168049 -0.070639625 0.016411304
-0.087104812 -0.069913074 0.017175496
-0.086563371 -0.070404872 0.018069953
-0.085017726 -0.07008218 0.018319905
-0.083840415 -0.070058435 0.018714339
-0.083703317 -0.070915304 0.018408626
-0.082086869 -0.070525341 0.018582493
-0.080864452 -0.070467591 0.018595189
-0.079933234 -0.070665613 0.018842876
-0.078836039 -0.070720568 0.018548697
-0.077611893 -0.070661575 0.018760622
-0.076948307 -0.071118891 0.01859653
-0.074999936 -0.070384555 0.018750221
-0.073774979 -0.070316777 0.018583238
-0.072680607 -0.070373289 0.018628538
-0.071606383 -0.070451438 0.018573999
-0.069982097 -0.069982097 0.018576235
-0.069203489 -0.070356876 0.018246531
-0.068053469 -0.070360363 0.018149167
-0.067193039 -0.070668541 0.018133074
-0.065882489 -0.07050582 0.018063217
-0.064941503 -0.07073985 0.018047839
-0.063113362 -0.069998458 0.017970324
-0.062162481 -0.070220582 0.017809361
-0.061104897 -0.07032828 0.017497599
-0.059899043 -0.070266187 0.017150491
-0.059566651 -0.071246386 0.016587317
-0.057918288 -0.070660308 0.01585874
-0.05794109 -0.072130747 0.014459312
-0.055370942 -0.070367239 0.014098912
-0.054830119 -0.071162492 0.013700485
-0.05337555 -0.07078062 0.013343871
-0.05233603 -0.070944391 0.012479454
-0.051171053 -0.070941687 0.011610478
-0.050724387 -0.071957849 0.010615915
-0.048924398 -0.071056865 0.010071993
-0.048025083 -0.071451947 0.0086680055
-0.04727504 -0.072094433 0.0077314079
-0.04635258 -0.072500192 0.006839633
-0.045082651 -0.072369516 0.005844593
-0.044056747 -0.072634101 0.00507617
-0.10017756 -0.071555398 0.0054712296
-0.098188005 -0.070979282 0.0066390038
-0.096426673 -0.070556104 0.007676065
-0.095833912 -0.070988081 0.0098206997
-0.092857078 -0.069642805 0.011087
-0.09216018 -0.069995075 0.012518555
-0.091064468 -0.070049591 0.014734596
-0.088304102 -0.068808392 0.016100705
-0.0877067 -0.069242135 0.016919613
-0.088280037 -0.070624031 0.018048108
-0.085121289 -0.069017261 0.018513322
-0.084156945 -0.069170095 0.018647343
-0.083627366 -0.069689468 0.018997103
-0.082629226 -0.069827519 0.018842191
-0.081147432 -0.06955494 0.019114345
-0.080071524 -0.069627412 0.018828928
-0.078506961 -0.069270849 0.018584847
-0.077702031 -0.069583908 0.018606007
-0.076569222 -0.069608383 0.018542647
-0.075146034 -0.069365568 0.018522203
-0.074453853 -0.069800481 0.01848039
-0.073186167 -0.069701113 0.018702447
-0.07163398 -0.069323204 0.018574446
-0.069946773 -0.068800107 0.018813252
-0.068680927 -0.068680927 0.018761843
-0.068932883 -0.070101239 0.018710911
-0.06712804 -0.069442801 0.018551022
-0.06573265 -0.069192268 0.018710911
-0.064503804 -0.069111221 0.018592298
-0.063592471 -0.069373608 0.018614382
-0.062307164 -0.069230184 0.018193185
-0.061899722 -0.070075154 0.018097281
-0.060022771 -0.069257043 0.01769945
-0.05897643 -0.069384038 0.017215908
-0.057931617 -0.06951794 0.01645416
-0.056023091 -0.068599701 0.015288234
-0.055894546 -0.069868185 0.014495164
-0.054453257 -0.069514796 0.013972908
-0.053234782 -0.069436669 0.013630658
-0.052960835 -0.07061445 0.013032168
-0.051686253 -0.070481256 0.011985779
-0.049475808 -0.069036014 0.010919988
-0.04908067 -0.070115238 0.010109901
-0.047993895 -0.070234969 0.0084234774
-0.047154974 -0.070732459 0.007751286
-0.046330083 -0.071277052 0.0070252717
-0.045261148 -0.071464971 0.0061714649
-0.044291191 -0.071823552 0.0052912831
-0.042778503 -0.071297504 0.0050144792
-0.099938869 -0.070195161 0.005066514
-0.09856081 -0.070061296 0.0061890185
-0.096873388 -0.06970159 0.0076726675
-0.095279343 -0.069401003 0.0095973313
-0.0936611 -0.069075063 0.010892808
-0.092081279 -0.068769567 0.011980563
-0.09005858 -0.068121232 0.01437211
-0.090589568 -0.069412783 0.016121894
-0.087798856 -0.06815964 0.016863495
-0.086031966 -0.067678474 0.018237829
-0.085685313 -0.068316668 0.018860668
-0.084009379 -0.06789799 0.019229978
-0.083149493 -0.068136394 0.019308984
-0.082447357 -0.068512589 0.019157857
-0.08064463 -0.0679719 0.019157857
-0.079828344 -0.068259023 0.019326329
-0.079251222 -0.068762094 0.019000977
-0.077884294 -0.068584673 0.019070208
-0.076070592 -0.0680025 0.018620402
-0.075827077 -0.068827651 0.018584847
-0.074100852 -0.068311721 0.01847142
-0.073062181 -0.068423316 0.018833488
-0.07197088 -0.068488419 0.018960238
-0.069363736 -0.067089513 0.018873125
-0.06887342 -0.067725532 0.018952906
-0.06803453 -0.06803453 0.018946141
-0.066527717 -0.067674741 0.018783003
-0.066118568 -0.068438515 0.018802255
-0.064649999 -0.068113394 0.018414348
-0.063181907 -0.067776956 0.018645227
-0.062392831 -0.068169944 0.018399477
-0.061692707 -0.068676785 0.018266499
-0.059910595 -0.067975484 0.017881542
-0.05904511 -0.068307087 0.017370373
-0.05772702 -0.068117887 0.015681595
-0.056708183 -0.068281278 0.015137762
-0.055483252 -0.068198167 0.014907658
-0.05472704 -0.068699896 0.014486939
-0.053758889 -0.068951614 0.013809115
-0.052065659 -0.068263866 0.013085186
-0.050871987 -0.068214707 0.011529058
-0.050692625 -0.069554999 0.010753363
-0.049730238 -0.069859147 0.0097044706
-0.048104011 -0.069222845 0.0086039603
-0.047187321 -0.069601297 0.008235991
-0.0461087 -0.069754183 0.0070653856
-0.044851866 -0.069638424 0.0058586597
-0.043746747 -0.069758326 0.0055858791
-0.098938055 -0.069137439 0.0058511496
-0.097060286 -0.068652391 0.0070851743
-0.095256053 -0.068208039 0.008762598
-0.093972549 -0.068130098 0.010626435
-0.091477752 -0.067160882 0.01172334
-0.089602232 -0.066627301 0.014071435
-0.089273117 -0.067244686 0.01607579
-0.086780727 -0.066227399 0.016838968
-0.087078854 -0.067340977 0.017874449
-0.085034423 -0.066648602 0.018619686
-0.083769403 -0.066556513 0.018719494
-0.083784692 -0.067493223 0.018784225
-0.082047768 -0.067024939 0.018619746
-0.081308901 -0.067370228 0.018658519
-0.080458589 -0.067631863 0.018504381
-0.078863993 -0.067266345 0.018465102
-0.078033917 -0.067551754 0.01839453
-0.076539285 -0.067261793 0.018076807
-0.075030506 -0.066950299 0.018257469
-0.07399755 -0.067060284 0.018140137
-0.073582187 -0.067742333 0.018288225
-0.070982493 -0.066402979 0.01848197
-0.070010729 -0.066567577 0.018808782
-0.069864333 -0.06753552 0.018554688
-0.068486653 -0.06732586 0.018623859
-0.066734537 -0.066734537 0.018492728
-0.065854482 -0.067009829 0.018740207
-0.064633667 -0.066942014 0.018429011
-0.063208975 -0.066656739 0.018345118
-0.06225973 -0.066871561 0.01806733
-0.061222825 -0.066998564 0.017938405
-0.059873417 -0.066781886 0.017702073
-0.058971696 -0.06706585 0.016549557
-0.058174826 -0.067482799 0.015620559
-0.057449374 -0.0680013 0.015250802
-0.05529796 -0.066818364 0.015094608
-0.055111449 -0.068009876 0.014815271
-0.05366201 -0.067660794 0.014062226
-0.052469291 -0.067627087 0.013017088
-0.051261432 -0.067571886 0.011491865
-0.050138477 -0.067628644 0.011177689
-0.048903886 -0.06753394 0.010043025
-0.048099563 -0.068043284 0.0089488626
-0.047039967 -0.068207949 0.0084361732
-0.046189632 -0.068692274 0.006886512
-0.045269471 -0.069095507 0.005844593
-0.098661244 -0.067755312 0.0058031976
-0.097227059 -0.067584664 0.0067446232
-0.09617532 -0.067678928 0.0080814958
-0.09239573 -0.065831959 0.01080519
-0.091185175 -0.065791838 0.011764675
-0.08918722 -0.06517528 0.013882011
-0.089171953 -0.066010408 0.015470773
-0.086466916 -0.064850189 0.01702863
-0.085525185 -0.064999141 0.018205076
-0.085038967 -0.065502986 0.018892258
-0.084355764 -0.065866828 0.019033283
-0.082956046 -0.065673538 0.018991828
-0.082111821 -0.065920755 0.019040495
-0.080422759 -0.065487109 0.0188241
-0.079075262 -0.06532304 0.018631071
-0.078476198 -0.065781519 0.018630385
-0.077518858 -0.065948881 0.018685043
-0.075813487 -0.065475285 0.018283397
-0.074440464 -0.06527856 0.018556416
-0.072938971 -0.064961269 0.018451989
-0.072562568 -0.065651849 0.018506438
-0.071426779 -0.065666549 0.019010931
-0.069500193 -0.064942807 0.018753856
-0.068686113 -0.065251805 0.018796712
-0.067693889 -0.065399177 0.01866889
-0.066416457 -0.065271348 0.01879847
-0.065559 -0.065559 0.01930669
-0.064745322 -0.065901488 0.018940836
-0.063172601 -0.065469787 0.01861164
-0.062507659 -0.065980308 0.018316746
-0.061312616 -0.065939985 0.018220603
-0.059936393 -0.06569951 0.017382383
-0.058944125 -0.065878727 0.016151726
-0.05817806 -0.06632299 0.015634656
-0.057034805 -0.066346608 0.015523225
-0.055913623 -0.066397429 0.015220165
-0.055290848 -0.06705486 0.014844388
-0.053539723 -0.066342697 0.014000475
-0.052227043 -0.066154256 0.013499886
-0.051570706 -0.066807508 0.011954844
-0.050261103 -0.066625178 0.011694223
-0.049044039 -0.066559762 0.010239601
-0.04837063 -0.067246974 0.0091687441
-0.046887442 -0.066814609 0.0083468854
-0.046062205 -0.06732168 0.0065200329
-0.044845715 -0.067268573 0.0060080588
-0.099146336 -0.066893913 0.0053084493
-0.097554795 -0.066622786 0.0067529678
-0.096281573 -0.066565037 0.0083736479
-0.096424557 -0.067497186 0.011129171
-0.093087785 -0.065986283 0.012172997
-0.091649637 -0.065799735 0.013397962
-0.090788633 -0.066028096 0.016082942
-0.089168623 -0.065703191 0.017698437
-0.087815315 -0.065568767 0.01884827
-0.085872062 -0.064984262 0.019248366
-0.08698947 -0.066731654 0.01929456
-0.08414299 -0.065444551 0.01935184
-0.08362782 -0.065959968 0.01935184
-0.082371727 -0.065897383 0.019096404
-0.081146315 -0.06585788 0.01886183
-0.07907223 -0.065118305 0.018674791
-0.078412376 -0.065538697 0.018880576
-0.077642225 -0.06587825 0.018385738
-0.075221919 -0.064806581 0.018722177
-0.074459516 -0.065152071 0.018661529
-0.073491246 -0.065325551 0.018814951
-0.071553409 -0.064628884 0.019046873
-0.070767418 -0.064966805 0.018549472
-0.068982251 -0.064383432 0.018913627
-0.06803856 -0.064578973 0.018621534
-0.067031674 -0.064720236 0.019017041
-0.065754719 -0.064601131 0.018839598
-0.0642315 -0.0642315 0.018740922
-0.063119225 -0.064266853 0.018593788
-0.062911764 -0.065241829 0.017955124
-0.061930247 -0.06543573 0.017944664
-0.059226129 -0.063781984 0.01641953
-0.058589458 -0.064333528 0.016142845
-0.058217209 -0.065203272 0.015854746
-0.057028741 -0.065175705 0.015726835
-0.055930912 -0.065252729 0.01517126
-0.054269768 -0.064661853 0.015087664
-0.05394889 -0.065676905 0.014271289
-0.05274184 -0.065634295 0.013179898
-0.051221546 -0.06519106 0.01224649
-0.050586611 -0.065880239 0.011108875
-0.049502037 -0.066002719 0.010132134
-0.048397921 -0.066104479 0.0090922415
-0.047791898 -0.066908658 0.0076541305
-0.046284474 -0.06645976 0.0067512691
-0.045281298 -0.066730335 0.0055728555
-0.044254798 -0.066980235 0.0053015053
-0.099700257 -0.066066436 0.005197376
-0.098156132 -0.06583643 0.0068044364
-0.096261494 -0.065362744 0.0091755688
-0.094583631 -0.065026246 0.011346847
-0.091547452 -0.063735567 0.012925595
-0.091606863 -0.064594582 0.01400885
-0.090654269 -0.064753048 0.01661396
-0.08943627 -0.064723618 0.017338961
-0.088079557 -0.064591676 0.018400878
-0.087480724 -0.065019451 0.018824697
-0.085671723 -0.064547189 0.01884079
-0.08291164 -0.063335285 0.019364953
-0.083465278 -0.064656198 0.019090533
-0.081917286 -0.064363584 0.018973917
-0.081286527 -0.064793609 0.018690795
-0.078417905 -0.063426249 0.018840313
-0.078451961 -0.064400867 0.018886566
-0.076074243 -0.063395202 0.018742859
-0.075999163 -0.064306982 0.018815875
-0.074566655 -0.064080715 0.018420726
-0.07404425 -0.064641804 0.018678576
-0.072422564 -0.06424582 0.019103974
-0.071611889 -0.064568095 0.019304037
-0.070348226 -0.064485878 0.019287407
-0.068454005 -0.063813061 0.019145668
-0.067790002 -0.064283624 0.019362718
-0.067060694 -0.064707689 0.019108802
-0.065035112 -0.063873775 0.019014418
-0.064044885 -0.064044885 0.01874426
-0.063364476 -0.06453789 0.017732501
-0.062512398 -0.064871356 0.017018706
-0.060799677 -0.064307354 0.016827106
-0.060225766 -0.064949356 0.016555607
-0.057999037 -0.063798942 0.016100258
-0.057081591 -0.064071171 0.015611082
-0.055436764 -0.063521288 0.01540193
-0.054397255 -0.06365636 0.015025318
-0.053550273 -0.064027503 0.014181703
-0.052220996 -0.063825659 0.013600767
-0.05110918 -0.063886479 0.012572944
-0.050687842 -0.064833283 0.011019886
-0.04919371 -0.064420335 0.010350287
-0.04847214 -0.065023601 0.0098945796
-0.047248371 -0.064966515 0.0079140961
-0.046653152 -0.065792903 0.0066826046
-0.045513839 -0.065875292 0.0061279237
-0.098673768 -0.064980283 0.0074321032
-0.099274211 -0.066182807 0.0095569491
-0.093310691 -0.06298472 0.012266189
-0.092221364 -0.063037388 0.013384432
-0.09035518 -0.062553592 0.014280885
-0.08983279 -0.062999621 0.016857982
-0.087769687 -0.062362671 0.017943442
-0.089457363 -0.064409301 0.018764526
-0.086268954 -0.062953018 0.018965691
-0.085377254 -0.063155778 0.019351333
-0.083657339 -0.062743001 0.01939261
-0.083775066 -0.063716248 0.019335002
-0.082290046 -0.063480891 0.019153357
-0.080953889 -0.063355215 0.019177943
-0.078383952 -0.06224608 0.019314647
-0.079074971 -0.063732065 0.019308865
-0.077112712 -0.063092217 0.019081712
-0.076631427 -0.063663036 0.018672109
-0.07470417 -0.063031644 0.018684626
-0.072958566 -0.062535912 0.018550128
-0.071323805 -0.062120732 0.018934995
-0.070868559 -0.062736101 0.019552797
-0.070003718 -0.063003346 0.019441545
-0.069523595 -0.063631766 0.019429833
-0.067708567 -0.063039012 0.019286007
-0.066028133 -0.062552974 0.019266039
-0.065980427 -0.06362398 0.018995702
-0.064465627 -0.063293524 0.018153369
-0.063057043 -0.063057043 0.01780203
-0.06237388 -0.063550748 0.017398924
-0.060572546 -0.062902257 0.017227829
-0.060496256 -0.064054862 0.016716212
-0.058663312 -0.063356377 0.016370982
-0.057264511 -0.063107826 0.016031981
-0.056400105 -0.06345012 0.015770197
-0.054831635 -0.062998049 0.015460193
-0.054050766 -0.063450895 0.014328808
-0.052656222 -0.063187465 0.014210314
-0.051614814 -0.063345455 0.012924701
-0.050692379 -0.063660197 0.011521339
-0.049429752 -0.063552536 0.010890692
-0.048690233 -0.0641286 0.0095025301
-0.047475751 -0.064092264 0.0079686642
-0.046468101 -0.06434045 0.0066123009
-0.045146775 -0.064155944 0.0053592026
-0.098574042 -0.063712493 0.0082688034
-0.097196937 -0.063598 0.010026276
-0.094374828 -0.062523328 0.013185024
-0.093225494 -0.062543683 0.014616191
-0.090339191 -0.06138432 0.016231507
-0.091369987 -0.062891029 0.018130481
-0.088036194 -0.061393663 0.018854558
-0.087061144 -0.061523207 0.019573182
-0.087003261 -0.062313147 0.019435465
-0.086018838 -0.062452033 0.019832015
-0.083491422 -0.06145896 0.019569457
-0.083138585 -0.062061198 0.019510686
-0.08230938 -0.06231996 0.019402742
-0.080309913 -0.061687324 0.019435465
-0.079738617 -0.062149219 0.019291878
-0.078058556 -0.061747815 0.019161373
-0.07705158 -0.061874751 0.019113272
-0.075488158 -0.06155188 0.019511431
-0.075053088 -0.062153339 0.019568503
-0.073309712 -0.06167325 0.018700719
-0.072393857 -0.06188507 0.019401193
-0.070723712 -0.061448473 0.019561321
-0.069416426 -0.061317846 0.01919961
-0.068896145 -0.061889756 0.019177347
-0.067164943 -0.061374862 0.018967807
-0.066150516 -0.061508372 0.018805712
-0.064951621 -0.061472069 0.018495023
-0.064444393 -0.062100958 0.018281609
-0.06295789 -0.061792005 0.017931193
-0.061924357 -0.061924357 0.017753035
-0.060426727 -0.061588779 0.017850399
-0.060747933 -0.063130207 0.017009556
-0.058767963 -0.06229404 0.016624659
-0.057052884 -0.061710265 0.016516805
-0.056642961 -0.062543266 0.01614061
-0.055117831 -0.062154148 0.016095042
-0.054152735 -0.062393367 0.015179038
-0.05268513 -0.062051374 0.014731586
-0.051568467 -0.062116563 0.01355955
-0.051400106 -0.06335362 0.01204899
-0.049777534 -0.062814504 0.011122286
-0.048430812 -0.062605686 0.0088308156
-0.047707718 -0.06321273 0.0072471797
-0.046341874 -0.062977418 0.0064537227
-0.045535561 -0.06351012 0.0052982569
-0.10224365 -0.064837441 0.0083352327
-0.095936492 -0.061588857 0.010720521
-0.092536345 -0.060148627 0.013796329
-0.0923208 -0.060768124 0.01518485
-0.092683725 -0.061789151 0.016160727
-0.089952849 -0.060747378 0.018363684
-0.087196387 -0.059660688 0.018826336
-0.088213399 -0.061161287 0.019017071
-0.086011961 -0.060440838 0.019187957
-0.085806482 -0.061122425 0.019664913
-0.084387429 -0.060946476 0.019916087
-0.082676187 -0.060551573 0.020035058
-0.081807107 -0.060770992 0.019791275
-0.08150126 -0.061421242 0.019813806
-0.079785526 -0.061012462 0.019584954
-0.078145027 -0.060649876 0.01963082
-0.077013768 -0.060677513 0.019340515
-0.075998336 -0.060798667 0.019657284
-0.074927844 -0.060878873 0.019687593
-0.07295116 -0.060213655 0.019724458
-0.072108097 -0.06047776 0.020091355
-0.071938321 -0.06132447 0.020298898
-0.070600696 -0.061187271 0.020026356
-0.068695076 -0.060544815 0.020119339
-0.067012653 -0.060080308 0.019932508
-0.067503795 -0.061582409 0.019443244
-0.064777449 -0.060150489 0.019034028
-0.064449333 -0.06093391 0.018874675
-0.063259527 -0.060916584 0.018665195
-0.062492713 -0.061313607 0.018516928
-0.0600385 -0.0600385 0.018598258
-0.060949933 -0.062145028 0.018018395
-0.058518473 -0.060859211 0.017623276
-0.05717881 -0.060679551 0.0176
-0.05599957 -0.0606662 0.017509371
-0.054880247 -0.06071857 0.017136335
-0.054438218 -0.061538856 0.016169935
-0.052517481 -0.060686868 0.015597701
-0.051990952 -0.06144385 0.014465481
-0.050158512 -0.060656805 0.01265654
-0.048867419 -0.060502518 0.011732519
-0.049130592 -0.06231197 0.0093351305
-0.047633782 -0.061923914 0.0075851977
-0.046250824 -0.061667766 0.0057398379
-0.099978782 -0.062181924 0.007540822
-0.095701165 -0.060256287 0.011523932
-0.091868535 -0.058566194 0.013759434
-0.092757083 -0.059881154 0.015408546
-0.090814218 -0.059378527 0.016204476
-0.089410625 -0.059220027 0.018301696
-0.08707501 -0.058431916 0.018521607
-0.089302376 -0.060725614 0.019103378
-0.085201845 -0.05872019 0.018521607
-0.085427247 -0.059682053 0.018951148
-0.083792932 -0.059353326 0.019094467
-0.085093714 -0.061123654 0.01948303
-0.080972232 -0.058994055 0.019511193
-0.080508105 -0.059505992 0.019588858
-0.078839011 -0.05912926 0.019511193
-0.078601606 -0.059831072 0.019843459
-0.076824665 -0.059364513 0.019417673
-0.07563214 -0.059342138 0.019308031
-0.074432328 -0.059313264 0.019495457
-0.07363148 -0.05960644 0.019247442
-0.073584549 -0.060529228 0.019552141
-0.070939921 -0.059310425 0.020325243
-0.069473624 -0.059052579 0.01991868
-0.069809914 -0.060344163 0.019759327
-0.067864046 -0.059673555 0.019286752
-0.066280618 -0.059303712 0.019157708
-0.064907089 -0.059111811 0.019161254
-0.063510656 -0.058891702 0.018716216
-0.063489057 -0.059961889 0.019052655
-0.061667673 -0.059340592 0.018707663
-0.061152261 -0.059976254 0.019091666
-0.061256438 -0.061256438 0.018441051
-0.060243331 -0.061448198 0.018119782
-0.057870626 -0.060232691 0.018277466
-0.057278786 -0.060858708 0.018233031
-0.058491867 -0.063469894 0.01849246
-0.055985231 -0.062070582 0.017361015
-0.056454372 -0.063981622 0.016594023
-0.054940403 -0.063680924 0.015472561
-0.054253429 -0.064347088 0.013383538
-0.053721063 -0.065232717 0.011186391
-0.049598977 -0.061696287 0.0098777115
-0.047494031 -0.060554888 0.0071822703
-0.047616899 -0.062268253 0.0058134198
-0.10381962 -0.062541939 0.0056042969
-0.096895285 -0.059082489 0.0073852539
-0.094076335 -0.058071811 0.012602925
-0.094035745 -0.05877234 0.015182048
-0.091596022 -0.057972167 0.01639384
-0.090535291 -0.058035441 0.017216235
-0.090149127 -0.058538392 0.019115925
-0.09041664 -0.059484631 0.019912034
-0.08669731 -0.057798211 0.020005107
-0.086289518 -0.058303729 0.020555019
-0.084001206 -0.057535071 0.020274132
-0.084260434 -0.058514189 0.020469517
-0.083607651 -0.05887863 0.020861983
-0.082053378 -0.05860956 0.020381093
-0.0810645 -0.058742389 0.0205791
-0.07989426 -0.058745783 0.020375997
-0.077760734 -0.0580304 0.0205791
-0.077520259 -0.058727469 0.020352781
-0.075617418 -0.058167245 0.02024129
-0.075365484 -0.058879282 0.020326316
-0.073158205 -0.058062069 0.019941151
-0.072808698 -0.058716692 0.019979715
-0.070378371 -0.057687189 0.019629002
-0.069235742 -0.057696454 0.019283831
-0.068394773 -0.057961673 0.019283831
-0.067815922 -0.058462001 0.019117594
-0.066085368 -0.057969622 0.018947482
-0.06464757 -0.057721045 0.018855453
-0.063846886 -0.058042623 0.018701345
-0.06322892 -0.058545299 0.018585205
-0.062613249 -0.059069101 0.018532932
-0.060499251 -0.058172356 0.019187689
-0.060692966 -0.059502907 0.018909127
-0.058484048 -0.058484048 0.018644661
-0.057960343 -0.059143208 0.019431382
-0.057407405 -0.059799381 0.019694597
-0.054876309 -0.05837905 0.019464105
-0.053843901 -0.05852598 0.018763632
-0.053135201 -0.059039112 0.017958462
-0.052392583 -0.059537023 0.016994506
-0.050996676 -0.059298463 0.014052212
-0.049597178 -0.059044257 0.012135416
-0.049666837 -0.060569312 0.0095356405
-0.048406933 -0.060508665 0.0073795915
-0.047163341 -0.06046582 0.005463779
-0.10245816 -0.060487345 0.0052296221
-0.096445382 -0.057631996 0.0073398352
-0.09459471 -0.057223957 0.012754202
-0.093055978 -0.056996785 0.015216053
-0.093080059 -0.0577332 0.017174929
-0.091632545 -0.057564035 0.018523335
-0.089721009 -0.057095189 0.020151556
-0.089343093 -0.057602786 0.020647615
-0.086432658 -0.056469336 0.021119714
-0.0863965 -0.05720849 0.021129072
-0.084745876 -0.056884218 0.021133751
-0.085111953 -0.057923414 0.021584988
-0.082414955 -0.056877926 0.021453857
-0.081364557 -0.056955189 0.020674109
-0.081027724 -0.057541426 0.020787001
-0.079216391 -0.0570824 0.020548433
-0.079372488 -0.058048535 0.020728499
-0.077211134 -0.057323415 0.02078861
-0.076220192 -0.0574583 0.020991147
-0.074337378 -0.056914557 0.020931482
-0.07400845 -0.057562128 0.020740241
-0.072656058 -0.057421722 0.020823151
-0.071312509 -0.057283815 0.020782739
-0.070046388 -0.057204552 0.02039668
-0.068455674 -0.056853019 0.020341724
-0.069471449 -0.058691394 0.020135909
-0.067186572 -0.057756878 0.019989789
-0.065483019 -0.05729764 0.020135909
-0.064325586 -0.057308253 0.019778281
-0.063199982 -0.057348136 0.019486219
-0.062472768 -0.057757843 0.019430131
-0.060584512 -0.057089254 0.019969583
-0.059848409 -0.057501409 0.01996994
-0.057425871 -0.056277353 0.01996994
-0.056407165 -0.056407165 0.020149976
-0.057521164 -0.058719523 0.02047357
-0.054210808 -0.056517649 0.020257533
-0.053925056 -0.057441909 0.019720554
-0.052056085 -0.056683291 0.018518448
-0.051246535 -0.057070006 0.017672598
-0.050004072 -0.056981388 0.014895946
-0.048729237 -0.05685078 0.012811244
-0.051601645 -0.061670259 0.010164618
-0.048145309 -0.058978003 0.0073433816
-0.047525778 -0.059711874 0.0050460398
-0.094246559 -0.055168718 0.0081150532
-0.09325406 -0.055261664 0.013930619
-0.092802487 -0.055681493 0.016262025
-0.09077435 -0.055154037 0.017655551
-0.088468149 -0.05444194 0.019056857
-0.08913558 -0.055565033 0.021043479
-0.087240182 -0.055099063 0.021380872
-0.086288795 -0.055224828 0.021607071
-0.085407257 -0.055399302 0.021786153
-0.084452525 -0.055530429 0.021567613
-0.083090261 -0.05539351 0.021942079
-0.083480388 -0.056437444 0.021300942
-0.081398174 -0.05581589 0.021266371
-0.079274304 -0.055147342 0.021089911
-0.079956122 -0.056439616 0.020860791
-0.077737011 -0.055692188 0.020544082
-0.076270282 -0.055469293 0.020333827
-0.075895585 -0.056045968 0.021240979
-0.074522302 -0.05589173 0.020750016
-0.07457 -0.056815237 0.020703524
-0.073376969 -0.056807976 0.020731151
-0.07050743 -0.055481255 0.02066353
-0.069145687 -0.055316549 0.020346582
-0.068957396 -0.056100931 0.020166993
-0.067686915 -0.056016758 0.019996315
-0.065710798 -0.055335406 0.019747168
-0.065469526 -0.056116734 0.019790411
-0.064418629 -0.056219894 0.019736946
-0.06262257 -0.055664502 0.019740373
-0.063071802 -0.057121631 0.019625604
-0.061665952 -0.056922417 0.020459473
-0.059327226 -0.055837389 0.020372391
-0.057858374 -0.055544037 0.020372391
-0.057136547 -0.055970497 0.020610899
-0.055231813 -0.055231813 0.020717204
-0.054159582 -0.055311911 0.020836592
-0.052030642 -0.054292846 0.020483643
-0.052672204 -0.056183685 0.019633651
-0.050097372 -0.054651681 0.018819898
-0.05096586 -0.056892123 0.015114516
-0.048935514 -0.055926304 0.013058871
-0.050321333 -0.05891278 0.0090870261
-0.048123576 -0.057748292 0.006174475
-0.096155889 -0.055113744 0.0088660121
-0.094826423 -0.055022743 0.015750021
-0.094007105 -0.055229172 0.017043561
-0.092323557 -0.054926671 0.018848985
-0.092798904 -0.055917285 0.019953877
-0.090729982 -0.055380635 0.021325856
-0.088796377 -0.054913547 0.02183488
-0.08707469 -0.054566804 0.02198419
-0.085695051 -0.054427937 0.022183716
-0.085787341 -0.055232946 0.021818161
-0.083716139 -0.054648038 0.021842122
-0.082069196 -0.054327495 0.021320403
-0.08213333 -0.055146664 0.021315306
-0.080471806 -0.054814126 0.021315306
-0.079236351 -0.054766297 0.021161795
-0.077821121 -0.054590937 0.021072179
-0.076154657 -0.054231349 0.021407366
-0.075324059 -0.054465085 0.020988107
-0.074471764 -0.054690205 0.020651788
-0.071917526 -0.053652756 0.020544082
-0.071198903 -0.053973362 0.020668805
-0.070198148 -0.054087102 0.020621657
-0.070071325 -0.054889202 0.020208925
-0.068718582 -0.054741923 0.020027488
-0.066909641 -0.054219879 0.019484907
-0.064936295 -0.053543963 0.018941075
-0.064336464 -0.053996675 0.019467115
-0.063743919 -0.054472078 0.019629687
-0.062798366 -0.054657836 0.019773483
-0.061011825 -0.054104827 0.019773483
-0.061197218 -0.055312872 0.020139486
-0.059083216 -0.054449238 0.020256281
-0.057162315 -0.053732578 0.020349234
-0.056160677 -0.053868406 0.021648049
-0.05627745 -0.055105004 0.021905094
-0.054059636 -0.054059636 0.021912515
-0.052551262 -0.053693678 0.021035373
-0.052134834 -0.054451935 0.020037323
-0.051006284 -0.054483984 0.019023895
-0.049255721 -0.05383765 0.015228093
-0.049314681 -0.055185478 0.012751281
-0.049209673 -0.056411088 0.0073093176
-0.048179191 -0.056610547 0.0054782033
-0.097864009 -0.05489932 0.010811836
-0.095072135 -0.053991586 0.017260432
-0.093259871 -0.053624425 0.018307686
-0.091930233 -0.053528994 0.019260406
-0.092237748 -0.054396622 0.02045244
-0.090922542 -0.054317363 0.0215469
-0.089723945 -0.0543066 0.022386551
-0.087864622 -0.053890299 0.022546738
-0.085716166 -0.053283021 0.022218347
-0.085703149 -0.054004725 0.022045642
-0.08482112 -0.054191273 0.021961123
-0.084003188 -0.054424603 0.02197811
-0.081367247 -0.053469907 0.021905571
-0.082137369 -0.054758247 0.022272825
-0.079770818 -0.053962611 0.022133797
-0.080197163 -0.055060741 0.022076458
-0.077872828 -0.054274999 0.021615595
-0.077572338 -0.054897346 0.021688044
-0.074994877 -0.053902566 0.021509171
-0.07533522 -0.055006664 0.021362841
-0.071907729 -0.053350896 0.020793527
-0.071120091 -0.053631544 0.020760179
-0.070956819 -0.054400228 0.020454586
-0.068984658 -0.053784646 0.020633221
-0.069113553 -0.054814193 0.019413561
-0.065977909 -0.053245328 0.019160271
-0.065153919 -0.05351929 0.019683629
-0.063530535 -0.053134631 0.019940555
-0.063577391 -0.05415852 0.019409388
-0.062606327 -0.054337569 0.019863486
-0.063324958 -0.05601823 0.020296931
-0.057561859 -0.05191854 0.020807594
-0.056208737 -0.05171204 0.020857275
-0.055228848 -0.051847491 0.020886034
-0.054542117 -0.052269526 0.021507829
-0.053051487 -0.051922731 0.022020876
-0.052907217 -0.052907217 0.021270841
-0.051310822 -0.052451063 0.020155638
-0.050930999 -0.053246047 0.016672134
-0.049687799 -0.053154387 0.01347065
-0.048962671 -0.053625781 0.0082828403
-0.047921058 -0.053765088 0.006254077
-0.098219879 -0.053901151 0.011738837
-0.096053049 -0.053362802 0.017247766
-0.093769953 -0.052745596 0.018831551
-0.094040819 -0.053567555 0.019752979
-0.091844037 -0.052986946 0.020445883
-0.089339674 -0.052211501 0.021677017
-0.087487169 -0.051801611 0.022163302
-0.088267542 -0.052960526 0.022395879
-0.085927531 -0.052253228 0.022327632
-0.086218283 -0.053148258 0.021727681
-0.083342016 -0.05208876 0.022171289
-0.083613858 -0.052994698 0.022343963
-0.083211347 -0.053493012 0.022349328
-0.081344128 -0.053050514 0.022530764
-0.079172641 -0.05239366 0.022157222
-0.078672878 -0.052839991 0.02218768
-0.077017814 -0.052512147 0.022185296
-0.07667131 -0.053080138 0.021869719
-0.075976081 -0.053420682 0.021503657
-0.073603697 -0.052574068 0.021793962
-0.074364424 -0.053974181 0.021665156
-0.071979158 -0.053099379 0.021360695
-0.070695102 -0.053021327 0.020395339
-0.070100874 -0.053466771 0.020363033
-0.068328448 -0.053013451 0.019854069
-0.067108639 -0.052980505 0.01888603
-0.065943979 -0.052990697 0.019111633
-0.065060861 -0.053231616 0.01947841
-0.062796466 -0.05233039 0.019271761
-0.063169055 -0.053634103 0.019423306
-0.062805191 -0.054350644 0.020168334
-0.057443511 -0.05068545 0.021021992
-0.056201559 -0.050581403 0.021139115
-0.055450164 -0.050923619 0.021362126
-0.054622423 -0.051208522 0.021735609
-0.054154705 -0.051850248 0.022496104
-0.052477133 -0.051336326 0.021792561
-0.051337104 -0.051337104 0.020973146
-0.050303403 -0.051446661 0.017246902
-0.048401762 -0.050653007 0.013509184
-0.049038194 -0.052540921 0.0079338253
-0.048519515 -0.053253125 0.0053267777
-0.09854579 -0.052878227 0.010597914
-0.097173803 -0.052785769 0.016115636
-0.095317416 -0.05242458 0.018964499
-0.092252374 -0.05138107 0.020010412
-0.09120702 -0.051450111 0.020421386
-0.089157686 -0.050947249 0.021716595
-0.088336296 -0.051142067 0.022262812
-0.088656478 -0.052011803 0.022505343
-0.087482706 -0.052016746 0.022457093
-0.087013185 -0.052446302 0.02224952
-0.084471971 -0.051621757 0.022200942
-0.083232522 -0.051580716 0.022512734
-0.082427435 -0.051811531 0.022314906
-0.081217825 -0.051791076 0.022675902
-0.08186847 -0.052973714 0.022494316
-0.078062616 -0.051265001 0.022561252
-0.077325657 -0.05155044 0.022385359
-0.075538956 -0.051134065 0.022503853
-0.074144021 -0.050974015 0.022250742
-0.074854113 -0.052279063 0.021695346
-0.073850945 -0.052410349 0.021616191
-0.072036289 -0.051960602 0.021379888
-0.069181159 -0.050732851 0.020692289
-0.069565415 -0.051879294 0.020547807
-0.06846682 -0.051940344 0.020032197
-0.066542774 -0.051366352 0.019821316
-0.065888308 -0.051769383 0.019814342
-0.064939737 -0.051951792 0.019711167
-0.062945031 -0.051288545 0.019637257
-0.06237952 -0.051786773 0.019656003
-0.062979855 -0.053290643 0.019290626
-0.058796167 -0.050726105 0.020577312
-0.057655163 -0.050736543 0.021527708
-0.056931477 -0.051122144 0.022298068
-0.055887975 -0.051230643 0.022401422
-0.05301775 -0.049633641 0.022318631
-0.052447941 -0.050167598 0.022318631
-0.052219212 -0.051058788 0.021140069
-0.050027464 -0.050027464 0.014914066
-0.049873345 -0.051033191 0.008803606
-0.10023767 -0.052563656 0.011094183
-0.094678067 -0.050261196 0.015794367
-0.094027966 -0.05054003 0.0190548
-0.092140898 -0.050152641 0.020079702
-0.091171592 -0.050261263 0.020820409
-0.089934111 -0.050222944 0.021806359
-0.089804091 -0.05081021 0.022533685
-0.087579623 -0.050212316 0.022557348
-0.086220078 -0.050100856 0.022319257
-0.085206583 -0.050190177 0.021760792
-0.083829969 -0.050065119 0.021970153
-0.083988748 -0.050866425 0.022146523
-0.08243338 -0.050637651 0.022335052
-0.081269301 -0.050646085 0.022458225
-0.080623493 -0.050982501 0.021727055
-0.079264954 -0.050871536 0.021734685
-0.077581421 -0.050545469 0.021676987
-0.076733731 -0.050762311 0.021812141
-0.07516288 -0.050500061 0.021850705
-0.074499018 -0.050848536 0.021400452
-0.072821446 -0.050505199 0.021684617
-0.072104014 -0.050827421 0.021380872
-0.070224613 -0.050327636 0.021043092
-0.070168369 -0.051139656 0.020475447
-0.068783276 -0.050994497 0.020280451
-0.066963978 -0.050516684 0.020099103
-0.066498406 -0.051061276 0.019941002
-0.066034168 -0.051626712 0.019734979
-0.064039484 -0.050994404 0.019673616
-0.062313586 -0.050556306 0.019599169
-0.063289337 -0.052335415 0.019792587
-0.059176851 -0.04989421 0.019652992
-0.058639579 -0.050430037 0.0197272
-0.057356779 -0.0503335 0.020220041
-0.055877559 -0.050056983 0.020249903
-0.053895529 -0.049308673 0.019796848
-0.053711325 -0.050208412 0.020811528
-0.052681141 -0.050339758 0.014698952
-0.051361926 -0.05019461 0.0086205602
-0.10011182 -0.051276784 0.007989943
-0.09545885 -0.049497183 0.015056819
-0.092350453 -0.048483986 0.017697036
-0.0922179 -0.049027238 0.019538939
-0.092017896 -0.049548097 0.020514756
-0.091115721 -0.049699485 0.021204144
-0.088649079 -0.048990279 0.021482021
-0.088331573 -0.049465682 0.021849602
-0.086736046 -0.049228564 0.021765381
-0.086017959 -0.049489785 0.021670103
-0.085360788 -0.049793791 0.021741927
-0.082898796 -0.049038727 0.02186951
-0.082232825 -0.049339693 0.022032946
-0.081117131 -0.049375646 0.022152185
-0.079308495 -0.048984658 0.021947384
-0.078561053 -0.049247224 0.021793693
-0.078011431 -0.049643639 0.021621317
-0.077180862 -0.049870711 0.021754801
-0.075653404 -0.049647547 0.021253616
-0.074925154 -0.0499501 0.021023124
-0.072990678 -0.049445298 0.021120667
-0.072505906 -0.049922097 0.02137807
-0.070355929 -0.04924915 0.021193087
-0.070560925 -0.050229814 0.021060616
-0.068360835 -0.049502671 0.020877898
-0.067209296 -0.049522638 0.020625025
-0.065985419 -0.049489062 0.019986451
-0.065071695 -0.049691111 0.019933194
-0.063720688 -0.049560536 0.019666493
-0.062718205 -0.049701218 0.019507825
-0.062686615 -0.050631497 0.019092083
-0.060331456 -0.049684729 0.019021958
-0.059968542 -0.050373573 0.018393576
-0.058315549 -0.049984757 0.017904222
-0.057113446 -0.049974266 0.015727937
-0.056045264 -0.050083 0.0092980862
-0.053519886 -0.048865981 0.01173678
-0.052987341 -0.049454853 0.0057911575
-0.09570659 -0.048444077 0.014317423
-0.093417965 -0.047876708 0.017798752
-0.093825497 -0.048694246 0.01963079
-0.091295168 -0.047988486 0.020012051
-0.090839922 -0.048369307 0.020756036
-0.08903686 -0.048033044 0.021523029
-0.087163717 -0.047649499 0.0216434
-0.087113976 -0.048265852 0.021970034
-0.08510793 -0.047800347 0.021945357
-0.084151737 -0.047919739 0.021898746
-0.084191129 -0.048617411 0.021899402
-0.082956724 -0.048588939 0.021948904
-0.080939591 -0.048094541 0.021948904
-0.081320353 -0.049031392 0.021529406
-0.080076762 -0.049002197 0.021587849
-0.077146538 -0.047924362 0.02147603
-0.076899901 -0.048506092 0.021436095
-0.074105024 -0.047473531 0.021294117
-0.073882304 -0.048082136 0.02080673
-0.073428437 -0.048557516 0.02110067
-0.072462447 -0.048704267 0.021076828
-0.070211858 -0.047978099 0.021018922
-0.069714524 -0.048445687 0.021107495
-0.067293972 -0.047569875 0.020803034
-0.067412928 -0.048489999 0.020284265
-0.065580226 -0.048014097 0.019767821
-0.064703509 -0.048233528 0.019308388
-0.064563148 -0.049020167 0.019614279
-0.062257446 -0.048161421 0.019043297
-0.063356921 -0.049954496 0.018786192
-0.063148417 -0.050766371 0.016913265
-0.06243163 -0.051193938 0.015372872
-0.06051065 -0.050631363 0.013724267
-0.060049005 -0.051291861 0.0092370212
-0.057981245 -0.050579384 0.0050453246
-0.10137184 -0.049449679 0.0050224066
-0.096399099 -0.047604494 0.013947248
-0.095561169 -0.047780585 0.015578657
-0.092455305 -0.046812814 0.018415511
-0.091547519 -0.046947446 0.020085722
-0.090582013 -0.047055591 0.020272464
-0.087935373 -0.046281777 0.021521449
-0.089020349 -0.047477521 0.021834344
-0.086169168 -0.04657793 0.022161514
-0.086956091 -0.047647171 0.022148579
-0.083758801 -0.046532668 0.022186816
-0.084003828 -0.047326099 0.022054881
-0.082771987 -0.047298279 0.021686554
-0.082088299 -0.047587421 0.021161646
-0.080180138 -0.047164787 0.02131319
-0.078191318 -0.046681382 0.020975411
-0.078012384 -0.047280233 0.021144956
-0.075886898 -0.046699628 0.021134496
-0.074425086 -0.046515677 0.021114081
-0.074341685 -0.047201071 0.020892739
-0.072102427 -0.046517693 0.020811588
-0.071830213 -0.047101781 0.020790488
-0.070610054 -0.047073368 0.020833373
-0.069131054 -0.046868511 0.020746619
-0.068564668 -0.047285978 0.020615906
-0.066993348 -0.047012873 0.02007696
-0.066669323 -0.047620945 0.019923508
-0.066059247 -0.048043091 0.019553065
-0.063232012 -0.046838526 0.01956436
-0.062062211 -0.046839405 0.018646002
-0.062957793 -0.048429072 0.01680395
-0.065335721 -0.051243704 0.01428318
-0.062882587 -0.050306067 0.010708034
-0.061596259 -0.050282661 0.0084523559
-0.097415373 -0.0469037 0.012354553
-0.092882231 -0.045280088 0.015774459
-0.094699763 -0.046750516 0.01807034
-0.091435209 -0.045717604 0.019233018
-0.091070443 -0.046126589 0.019718379
-0.089583181 -0.045970317 0.021110415
-0.087514319 -0.045507442 0.021360755
-0.086705782 -0.045696292 0.02161926
-0.085961819 -0.045924805 0.021783024
-0.085525751 -0.046326447 0.021349967
-0.083700925 -0.045976564 0.021267146
-0.082494244 -0.045961078 0.021182179
-0.081951238 -0.046320263 0.02157259
-0.080850273 -0.046370007 0.021958381
-0.080028407 -0.046583701 0.021257699
-0.078381419 -0.046316292 0.021644652
-0.07621529 -0.045729171 0.021253914
-0.075187832 -0.045817588 0.021206617
-0.0750966 -0.046488371 0.020636141
-0.073663794 -0.0463369 0.021029145
-0.07145495 -0.045684312 0.02117905
-0.069643818 -0.045268483 0.021098435
-0.068917297 -0.045555502 0.021028012
-0.068665959 -0.046171937 0.02082786
-0.067010343 -0.045849182 0.020312637
-0.066300519 -0.046173576 0.020138919
-0.065102197 -0.046163376 0.01964882
-0.063946426 -0.04618353 0.018474221
-0.062597036 -0.04606197 0.017149806
-0.062221844 -0.046666384 0.013902575
-0.064925246 -0.049648717 0.010935992
-0.061139859 -0.047689088 0.0069713593
-0.096891701 -0.045455366 0.0072813034
-0.093881093 -0.04459352 0.014895976
-0.093782112 -0.045110386 0.017100215
-0.091093615 -0.04437894 0.018776417
-0.091286309 -0.045050386 0.019702226
-0.088430554 -0.044215277 0.020310044
-0.086681984 -0.04391887 0.021483362
-0.087849692 -0.045112006 0.020795166
-0.085855946 -0.044692136 0.021202117
