ply
format ascii 1.0
comment PCL generated
element vertex 1297
property float x
property float y
property float z
element camera 0
property float view_px
property float view_py
property float view_pz
property float x_axisx
property float x_axisy
property float x_axisz
property float y_axisx
property float y_axisy
property float y_axisz
property float z_axisx
property float z_axisy
property float z_axisz
property float focal
property float scalex
property float scaley
property float centerx
property float centery
property int viewportx
property int viewporty
property float k1
property float k2
end_header
0.11354241 -0.023970064 0.0052509308
0.065709747 -0.022316517 0.0055342913
0.067191549 -0.022397183 0.0055035949
0.069308743 -0.02268286 0.0061125159
0.070426777 -0.022637177 0.00622648
0.070838511 -0.022370055 0.0065239668
0.072758451 -0.022580208 0.0067164898
0.073353916 -0.02237916 0.0073310733
0.075422756 -0.022626827 0.0077364743
0.076438583 -0.022555647 0.0080026686
0.078240804 -0.022715073 0.0084780753
0.079101197 -0.022600342 0.0085460544
0.079856344 -0.022459596 0.0085853636
0.081607498 -0.022598999 0.0089098811
0.082382031 -0.022467827 0.0089420378
0.083821833 -0.022519298 0.0089785755
0.084972814 -0.022492804 0.008993119
0.087126441 -0.022728637 0.0092860758
0.08686582 -0.022336924 0.0092534125
0.088605531 -0.022463374 0.0091174543
0.088994958 -0.022248739 0.0088682175
0.090799309 -0.022388872 0.0084479749
0.09258718 -0.022521205 0.0084483624
0.093100578 -0.022344138 0.0084905028
0.094667293 -0.022421202 0.0084446371
0.095818184 -0.022399055 0.0081959665
0.09711995 -0.022412296 0.0082421601
0.098441444 -0.022429695 0.0084446371
0.098933138 -0.022259956 0.0083281398
0.10070156 -0.022378124 0.0081340373
0.10245267 -0.022489611 0.0081275105
0.10354706 -0.022455988 0.007928282
0.1036562 -0.022212043 0.0076642931
0.10630038 -0.02251067 0.0074275434
0.10805932 -0.022617066 0.0071895123
0.10890238 -0.022531528 0.0066458583
0.11047883 -0.022597941 0.0065652132
0.11069166 -0.022387076 0.0061154962
0.11277946 -0.022555891 0.0055626035
0.11553279 -0.022852641 0.0052330494
0.06637878 -0.021291308 0.0056395531
0.0683323 -0.02151202 0.0059316754
0.069007307 -0.021329533 0.0066877604
0.070923522 -0.021530356 0.0071029067
0.071488351 -0.021321088 0.0072219968
0.072406016 -0.021222454 0.0074048042
0.07464081 -0.021506675 0.0080580711
0.074574374 -0.021129405 0.0082916915
0.076024301 -0.021187101 0.0087349117
0.077607207 -0.021279395 0.0090505481
0.078491785 -0.021180322 0.009288609
0.080914952 -0.021493033 0.0092552602
0.080041841 -0.020934019 0.0097984374
0.081034809 -0.020872602 0.0097766221
0.083235145 -0.021119365 0.0099330842
0.08400625 -0.021001562 0.010028869
0.085127644 -0.020973479 0.010035485
0.088423938 -0.021474384 0.0099179447
0.08805725 -0.02108413 0.0097984672
0.089798197 -0.021202352 0.0096518397
0.092094198 -0.021446595 0.0090630054
0.092441738 -0.021236615 0.0089011192
0.092868075 -0.021050097 0.009147495
0.09483631 -0.021213386 0.0090380311
0.096794903 -0.021370303 0.0089322031
0.096873797 -0.02111352 0.0087157786
0.098824501 -0.021266032 0.0087525845
0.099660039 -0.021177758 0.0087572336
0.10126798 -0.021253772 0.0084106028
0.10259539 -0.021269776 0.0084855855
0.10229624 -0.020952243 0.0080631077
0.10501857 -0.021253759 0.0078345537
0.10669105 -0.02133821 0.0077348351
0.10725655 -0.021201877 0.0075243115
0.1089706 -0.021293106 0.0069152713
0.10999314 -0.021248674 0.0070078373
0.11287179 -0.021559779 0.0070556998
0.11350744 -0.021440294 0.0063425303
0.11469627 -0.021426776 0.0060337186
0.1149714 -0.021244716 0.005492568
0.11880463 -0.021716975 0.0052676201
0.064499736 -0.020235211 0.0051637292
0.065125369 -0.020038575 0.0055252314
0.066564314 -0.020094888 0.0063605309
0.068022802 -0.020154905 0.0064973235
0.069312468 -0.020163627 0.0070719719
0.069876999 -0.019964857 0.007457912
0.070804879 -0.019875053 0.0075191259
0.072793931 -0.020081084 0.0078251958
0.073415063 -0.01990917 0.0083871782
0.075018771 -0.020005006 0.0087953508
0.075888626 -0.019905213 0.009093821
0.078207724 -0.020182637 0.0094271302
0.077954039 -0.01979785 0.0099257827
0.080168687 -0.020042172 0.0098110735
0.080354564 -0.019779585 0.010594249
0.082719758 -0.020053275 0.010444939
0.083343968 -0.019903038 0.010891765
0.084483966 -0.019878581 0.010861427
0.085893661 -0.019917369 0.010870993
0.086191118 -0.019700827 0.010803133
0.087002233 -0.019606136 0.010574788
0.089940742 -0.019986831 0.010567576
0.090896532 -0.019922528 0.010178983
0.093451791 -0.020205794 0.010166109
0.092675455 -0.019770764 0.010125548
0.095113777 -0.020023953 0.0097959638
0.095603012 -0.019865561 0.009703815
0.097512551 -0.020002574 0.0092525482
0.09905117 -0.020060997 0.0092384219
0.099349953 -0.019869991 0.0092163086
0.10145187 -0.020039875 0.0091888607
0.10136344 -0.019778231 0.0089769363
0.10481963 -0.020206194 0.0086779296
0.10367779 -0.019748151 0.0082941055
0.10669636 -0.020084022 0.0079993308
0.10729784 -0.019962389 0.0076609254
0.10915202 -0.020073935 0.007756412
0.10996732 -0.019994058 0.0073162913
0.11154457 -0.020052956 0.0072365403
0.11286628 -0.020065116 0.0066845417
0.11361626 -0.019976486 0.0062584877
0.11635259 -0.020235233 0.0060924292
0.11627925 -0.020005032 0.0055330992
0.11782119 -0.02005467 0.0050708652
0.062481496 -0.019126989 0.0052600503
0.062952228 -0.018885668 0.0058088303
0.063834257 -0.018774781 0.0060040951
0.065708727 -0.018954439 0.0063481927
0.066304922 -0.018765545 0.0070235133
0.067908391 -0.018863441 0.0073942542
0.068967164 -0.018809227 0.0079600811
0.069947548 -0.018735949 0.0085082054
0.07161852 -0.018846979 0.0086375475
0.072831966 -0.018835852 0.0089601874
0.073716693 -0.018741533 0.010191292
0.0749823 -0.018745575 0.010346681
0.075811245 -0.018642109 0.010598391
0.077554725 -0.01876324 0.010646641
0.078783251 -0.018757917 0.010830909
0.078968316 -0.0185082 0.011301816
0.081314877 -0.018764973 0.011787087
0.08211299 -0.018662045 0.011596143
0.083287358 -0.018646423 0.011887908
0.084814146 -0.018709004 0.011744142
0.085177429 -0.018516833 0.011744142
0.086035676 -0.018436218 0.01173842
0.088818841 -0.018764542 0.011252165
0.08988864 -0.0187268 0.011579454
0.089991502 -0.018491404 0.011579454
0.092233449 -0.018695969 0.011377186
0.093509726 -0.018701945 0.011225313
0.093727447 -0.018498838 0.010749906
0.095722385 -0.018647218 0.010465145
0.097843006 -0.018815963 0.010020554
0.098527201 -0.018707696 0.0099714398
0.10014702 -0.018777566 0.010008097
0.10095866 -0.018696047 0.010023415
0.1029375 -0.018830031 0.010112017
0.10340948 -0.018688461 0.0096767247
0.10422301 -0.018611252 0.0093101263
0.10659982 -0.018811733 0.008800745
0.10724126 -0.018704871 0.0088015199
0.10860836 -0.01872558 0.0083316565
0.11073072 -0.018874554 0.0082572103
0.1125594 -0.018970685 0.0078526139
0.11246512 -0.018744186 0.0070181489
0.11605702 -0.019130278 0.0067460537
0.11606288 -0.018923296 0.0061148405
0.1175084 -0.018952968 0.005700171
0.11938585 -0.019050933 0.0055451393
0.12046492 -0.019020777 0.0053910613
0.12094863 -0.018898223 0.0053408742
0.059875224 -0.017463608 0.0051484704
0.061805844 -0.017658813 0.0057584047
0.06296654 -0.017630631 0.0064505935
0.064917117 -0.017820384 0.0067194104
0.065588646 -0.017658481 0.0073490739
0.066822097 -0.01765112 0.0081398487
0.068067133 -0.017647035 0.0085778236
0.068303265 -0.017386286 0.0093643069
0.070544101 -0.017636025 0.0098255873
0.071301773 -0.017512716 0.010170698
0.072331652 -0.017459365 0.010251999
0.073243521 -0.017379818 0.011509985
0.074750416 -0.017441763 0.011656463
0.07607469 -0.017459765 0.01189962
0.077222079 -0.017437244 0.012525707
0.078551404 -0.017455868 0.013010263
0.078948408 -0.017269963 0.012533396
0.079943687 -0.01721864 0.013623834
0.081624806 -0.017314352 0.013155997
0.082771875 -0.017295616 0.013084769
0.08459302 -0.017416211 0.013129771
0.085557371 -0.017359467 0.013537169
0.086937115 -0.017387422 0.013537169
0.088464856 -0.017443774 0.013278782
0.088930488 -0.017292039 0.013129771
0.091319256 -0.017513283 0.013274252
0.092064314 -0.017417572 0.012667686
0.093235224 -0.017403908 0.012667686
0.094281018 -0.017367557 0.011783361
0.096292078 -0.01750765 0.011377275
0.096840411 -0.017381612 0.011107147
0.098215029 -0.017405195 0.011305034
0.098981299 -0.017321728 0.011060715
0.10071137 -0.017406903 0.010924667
0.10303426 -0.017591214 0.011022598
0.10343825 -0.017447416 0.010577828
0.1044823 -0.017413717 0.010197639
0.10680118 -0.017590784 0.0099092126
0.10770593 -0.017533524 0.0097708702
0.11020596 -0.017734293 0.0092452765
0.11012819 -0.017520394 0.0085844398
0.11127887 -0.017504541 0.0083270669
0.11301985 -0.017580867 0.007250905
0.1145006 -0.017615477 0.0066535473
0.11680923 -0.017775318 0.0060543418
0.11773876 -0.017724114 0.005910635
0.11878875 -0.017691942 0.0059474111
0.11901814 -0.017539516 0.0057262182
0.12052715 -0.017576875 0.0052594543
0.060607757 -0.016414601 0.0052258372
0.061997011 -0.016448187 0.0059958696
0.063212886 -0.016435351 0.0067811012
0.064983532 -0.016564429 0.0069079995
0.066142708 -0.016535677 0.0076524615
0.066718571 -0.016364932 0.0085725784
0.06742774 -0.016232604 0.0088640451
0.068865709 -0.016277349 0.0097722411
0.070023201 -0.016255386 0.010094166
0.070672274 -0.016118238 0.01069206
0.072110437 -0.016162684 0.011134028
0.073643632 -0.016226564 0.011832207
0.073944151 -0.016021233 0.012200207
0.076102793 -0.016218629 0.012777388
0.077783689 -0.016309483 0.013103724
0.078508481 -0.016200162 0.01370874
0.078874193 -0.016021321 0.014026523
0.080168955 -0.016033791 0.014319777
0.082467467 -0.016243592 0.014705449
0.083598852 -0.016220672 0.015167892
0.083629131 -0.015987923 0.015579849
0.085870482 -0.016178498 0.015664935
0.085949935 -0.015962129 0.015664935
0.087293826 -0.015983377 0.014976025
0.088334262 -0.015949242 0.014735401
0.091649853 -0.016321206 0.014677763
0.090925135 -0.015973333 0.014157474
0.094000757 -0.016293464 0.014274061
0.095020108 -0.01625344 0.013477027
0.094298609 -0.015920544 0.013178259
0.097309455 -0.016218243 0.012726933
0.098906755 -0.016275795 0.012880236
0.099963129 -0.016244007 0.01236397
0.10028968 -0.016095875 0.011994421
0.10226528 -0.016212789 0.011801988
0.10340212 -0.016195513 0.01150766
0.10639646 -0.016466118 0.010900557
0.10585353 -0.016189363 0.010791242
0.10726436 -0.01621438 0.010539412
0.10868342 -0.016240051 0.0097458363
0.1116221 -0.016489627 0.0092632174
0.1126727 -0.016457809 0.0089486837
0.11406524 -0.016476091 0.0078774691
0.11352164 -0.016217377 0.0070967674
0.11610357 -0.01640594 0.0066915154
0.11702589 -0.016358458 0.0063830614
0.12044607 -0.016657436 0.0059459209
0.12037177 -0.016471928 0.0056786537
0.12023572 -0.01628192 0.0054295659
0.059227448 -0.015121901 0.0050917864
0.060261257 -0.015065314 0.0054865479
0.062223244 -0.015238346 0.0063480735
0.062354192 -0.014965006 0.007263124
0.064387888 -0.015150092 0.0074774623
0.065043144 -0.015009956 0.0081810951
0.06630785 -0.015013098 0.0088216662
0.067797281 -0.015066063 0.0091546774
0.068655275 -0.014979333 0.010078669
0.069748312 -0.014946067 0.010874093
0.071250834 -0.015000176 0.011394203
0.072541796 -0.015008647 0.011985123
0.073084518 -0.014864648 0.012832522
0.075072363 -0.015014472 0.013378769
0.076368853 -0.015023381 0.013744414
0.076745778 -0.014854021 0.014488816
0.078790657 -0.015007744 0.014828473
0.079110913 -0.014833296 0.015014172
0.080776133 -0.014912517 0.016221583
0.080643438 -0.014662443 0.016711265
0.082330801 -0.014745816 0.016827792
0.084190227 -0.014857099 0.017063171
0.085215099 -0.014820018 0.017306119
0.086141199 -0.014767063 0.01748383
0.087156028 -0.014730596 0.016995728
0.089112774 -0.014852129 0.016389519
0.088821329 -0.014600767 0.016389519
0.092485897 -0.014997713 0.015913695
0.092550263 -0.014808042 0.016066223
0.093791701 -0.014809216 0.014921486
0.09662886 -0.015059043 0.015182406
0.097135067 -0.014943857 0.014902771
0.098348282 -0.014938979 0.01478532
0.098877735 -0.01483166 0.014194995
0.10140812 -0.015023424 0.013400853
0.10123207 -0.014814449 0.012772173
0.1037164 -0.014995142 0.012512267
0.10306343 -0.014723347 0.012284905
0.10598794 -0.014963004 0.011926502
0.10965589 -0.015300822 0.011322975
0.10876909 -0.015002633 0.010322988
0.11096079 -0.015131017 0.0096417665
0.11020739 -0.014859423 0.0086755753
0.11432977 -0.015243969 0.0077053905
0.11449641 -0.015098427 0.0072072744
0.11591563 -0.015119431 0.0068725348
0.11665422 -0.015052157 0.0061605573
0.11877876 -0.015163246 0.0060039163
0.12037478 -0.015205236 0.0058491826
0.12230042 -0.015287553 0.0052195787
0.12365801 -0.015141797 0.0051020384
0.12494707 -0.0151451 0.0053792596
0.059367552 -0.013894534 0.005358398
0.06060724 -0.013889159 0.0057852268
0.061736148 -0.013859135 0.0066496134
0.062868349 -0.013831036 0.007284224
0.064576656 -0.013928299 0.0077790618
0.064784043 -0.013704317 0.0085324645
0.066472046 -0.013796085 0.0093037486
0.067108504 -0.013670251 0.0099886656
0.068351716 -0.013670343 0.01092279
0.070103839 -0.013770398 0.011322796
0.071557641 -0.013809369 0.012138546
0.0716355 -0.013586042 0.012640268
0.073728576 -0.013746006 0.013451248
0.075283095 -0.0138019 0.014445573
0.076018207 -0.013708201 0.01507625
0.077079043 -0.013675314 0.015594304
0.079015486 -0.013796355 0.015747368
0.079815991 -0.013718373 0.0167135
0.079638377 -0.013477264 0.017826408
0.082178108 -0.013696352 0.017877698
0.08291544 -0.013612982 0.017985553
0.084897406 -0.013733405 0.018420666
0.084373325 -0.013450821 0.018572867
0.08605089 -0.013522283 0.018559933
0.088280536 -0.013677266 0.018572867
0.089933589 -0.013739854 0.018506289
0.091444254 -0.01377927 0.018309921
0.091500834 -0.013601475 0.017911375
0.092059165 -0.013502011 0.01789397
0.093498647 -0.013532699 0.017092258
0.096157059 -0.013736723 0.017095178
0.096317582 -0.013583248 0.016571879
0.098751046 -0.013750146 0.016311228
0.098479189 -0.013540888 0.015536189
0.10288772 -0.013972406 0.014716744
0.10145914 -0.013610371 0.013951361
0.1047022 -0.013876196 0.013283104
0.10363095 -0.013570718 0.01300928
0.10709263 -0.013859047 0.012247533
0.10661498 -0.0136368 0.011586428
0.10909196 -0.013793237 0.010366023
0.11048725 -0.013810906 0.0098606348
0.11176343 -0.013813457 0.0089523792
0.11320497 -0.013836163 0.0077371001
0.11493585 -0.013893344 0.0078104734
0.11568888 -0.013832366 0.00785321
0.11824343 -0.013985781 0.0074246526
0.11913173 -0.013940947 0.0072199106
0.12041641 -0.013942953 0.0062741637
0.12126358 -0.013894785 0.00572294
0.12187815 -0.013821234 0.0054548383
0.1256174 -0.014099912 0.0061808228
0.12557502 -0.01395278 0.0058529377
0.12586083 -0.01384469 0.0051680207
0.058091026 -0.012628484 0.0052018166
0.060023848 -0.012771032 0.0061853528
0.06003698 -0.012507704 0.0061969161
0.06227212 -0.012708596 0.0070230365
0.062769502 -0.0125539 0.0075437427
0.063826688 -0.012515037 0.0082991719
0.065214485 -0.012541248 0.0091548562
0.066878602 -0.012618605 0.010272682
0.067922965 -0.012578326 0.010708511
0.06927707 -0.01259583 0.011689961
0.07052964 -0.012594579 0.012537003
0.071311444 -0.012510779 0.013916045
0.072352119 -0.012474503 0.014071643
0.0729274 -0.012360577 0.01504162
0.07419797 -0.012366328 0.015942574
0.075604886 -0.012394244 0.016176999
0.077229172 -0.012456317 0.016728282
0.077536814 -0.012307431 0.017770171
0.079517342 -0.012424584 0.018847108
0.080135234 -0.012328498 0.019554555
0.08296334 -0.012570202 0.01911658
0.083471239 -0.012458393 0.019351423
0.082970358 -0.012201523 0.019498169
0.085565671 -0.012400822 0.019361258
0.086681299 -0.012383043 0.019472897
0.087669693 -0.012347844 0.019446969
0.089495316 -0.012429905 0.019882679
0.089353681 -0.012240231 0.019379735
0.091785498 -0.012403446 0.019448817
0.092401467 -0.012320195 0.01946494
0.094866917 -0.012482489 0.019060761
0.094397396 -0.012259402 0.018648535
0.096370399 -0.01235518 0.018526822
0.098903283 -0.012519402 0.01815632
0.098514289 -0.012314286 0.017346114
0.099963285 -0.012341146 0.016495228
0.10219845 -0.012463226 0.015702039
0.10379421 -0.012505326 0.014786422
0.10488753 -0.012486611 0.014257669
0.106639 -0.012545764 0.013606519
0.10764957 -0.012517392 0.012899637
0.10863342 -0.0124866 0.011466503
0.11120486 -0.012636916 0.010755181
0.11341337 -0.012743075 0.0099192858
0.11381529 -0.012646144 0.0086535811
0.11386356 -0.012512479 0.0081596375
0.11631212 -0.012642622 0.008027494
0.11732493 -0.012615584 0.0077585578
0.1189886 -0.012658361 0.0071696639
0.12109814 -0.012747172 0.0068864226
0.12137879 -0.012643624 0.0064238906
0.12229846 -0.012608089 0.0061764121
0.12438583 -0.012692431 0.0063307285
0.12700856 -0.012829147 0.0055289268
0.058741391 -0.011492881 0.0057135224
0.059490453 -0.011391789 0.0064709783
0.060926858 -0.011423786 0.0075088739
0.062059425 -0.01139867 0.0082790256
0.062806055 -0.01130509 0.0092235804
0.064100832 -0.011311912 0.0099765062
0.065863825 -0.011399508 0.010820329
0.066409364 -0.011277061 0.011962593
0.06819012 -0.01136502 0.012502849
0.068561897 -0.011219219 0.013557673
0.069612905 -0.011187789 0.014099896
0.071277611 -0.01125436 0.015360475
0.072687663 -0.01127912 0.015696913
0.072981298 -0.01113274 0.016577154
0.075089693 -0.011263453 0.017802715
0.074908957 -0.011052141 0.017932832
0.076980203 -0.011174546 0.018974721
0.078600802 -0.011228686 0.01979208
0.078718841 -0.011069837 0.020064801
0.079683557 -0.011033108 0.020815223
0.081439592 -0.0111054 0.020510286
0.082736716 -0.011113887 0.021007419
0.082812421 -0.010960467 0.02134794
0.085140646 -0.011105302 0.020828426
0.085219048 -0.010956735 0.020779014
0.087037295 -0.011032896 0.021297157
0.08997865 -0.011247331 0.020790845
0.089682229 -0.011056713 0.020828426
0.091215663 -0.011093797 0.020756871
0.091855697 -0.011022683 0.021052986
0.093542166 -0.011077362 0.020421952
0.095465079 -0.011158257 0.020520598
0.096334182 -0.011115482 0.019926995
0.097141728 -0.011066779 0.019798547
0.098582193 -0.011090497 0.019125611
0.0990135 -0.0110015 0.01798439
0.10133003 -0.011121589 0.016769826
0.10191251 -0.011050754 0.016285211
0.10352895 -0.011092388 0.015496492
0.10614447 -0.011238826 0.014355987
0.10792147 -0.011294107 0.013566613
0.1088412 -0.011259434 0.012122989
0.10981565 -0.011231146 0.0116418
0.1125847 -0.01138497 0.010249078
0.11434465 -0.011434465 0.0094698668
0.11669708 -0.01154147 0.0088087916
0.11606223 -0.011353914 0.008569777
0.11816303 -0.011435132 0.0079616904
0.1192788 -0.01142031 0.0076784492
0.11984 -0.011353264 0.0074433088
0.12227085 -0.011462892 0.0067059398
0.12186389 -0.011306958 0.0061478615
0.12507546 -0.011486522 0.0057440996
0.12459598 -0.011326907 0.0050188899
0.059507344 -0.01012891 0.0066520572
0.060883239 -0.010147206 0.0073496103
0.061042305 -0.0099660903 0.0083765388
0.062456187 -0.0099929897 0.0095853209
0.06418997 -0.010069015 0.010086596
0.065214865 -0.010033056 0.011414886
0.067016162 -0.010115648 0.012625277
0.067425601 -0.0099889776 0.013402045
0.069028974 -0.010040578 0.014403522
0.070921019 -0.010131573 0.0152632
0.070890062 -0.009949482 0.01629442
0.072094552 -0.0099440766 0.016808003
0.073187299 -0.0099237012 0.018121123
0.074635297 -0.0099513726 0.018731236
0.074729688 -0.0098006157 0.019878119
0.077039979 -0.0099406429 0.02058056
0.077065073 -0.0097860415 0.021192104
0.079134069 -0.0098917587 0.021351874
0.081306346 -0.010006934 0.022506803
0.080284066 -0.0097314017 0.022681296
0.083046317 -0.0099159786 0.022721589
0.083196029 -0.0097877681 0.022888333
0.084297813 -0.0097736595 0.022901624
0.085253164 -0.0097432192 0.022842079
0.087823935 -0.0098956544 0.022888333
0.08811368 -0.0097904094 0.022415876
0.090167262 -0.0098813437 0.022356331
0.091428414 -0.0098841535 0.022125661
0.092474632 -0.0098639606 0.022164226
0.094604723 -0.009958392 0.021939397
0.096039996 -0.0099781808 0.021560282
0.096134514 -0.0098599503 0.021280408
0.098315395 -0.0099559892 0.021154046
0.097772047 -0.0097772051 0.020749122
0.10154299 -0.010028938 0.02015546
0.10127193 -0.0098801889 0.018777162
0.10287157 -0.0099153323 0.017730594
0.10364947 -0.0098713776 0.016609758
0.10622063 -0.0099972356 0.015410721
0.10661326 -0.0099175125 0.01462689
0.1091516 -0.010036929 0.012928665
0.11134163 -0.010121967 0.012028396
0.11036145 -0.0099201305 0.010502815
0.11368816 -0.010105615 0.0092910528
0.11505712 -0.010114911 0.008846879
0.11680917 -0.010157319 0.0084325671
0.11792633 -0.0101442 0.0080131292
0.11949588 -0.010169862 0.0076326132
0.11915477 -0.010034086 0.0070733428
0.12209501 -0.010174585 0.0067265034
0.12197316 -0.010059642 0.0060715675
0.12427119 -0.010144587 0.0054944158
0.12596929 -0.010179337 0.0052042603
0.058593377 -0.0089163836 0.0051670671
0.060320999 -0.008983979 0.0072119832
0.060283188 -0.0087912986 0.0076847076
0.062023304 -0.0088604717 0.0089522004
0.063230731 -0.0088523021 0.0098766685
0.064115733 -0.0088001983 0.010914862
0.065305337 -0.008791103 0.012239456
0.066683576 -0.0088072643 0.01342833
0.067965113 -0.0088102929 0.014166534
0.068455681 -0.0087125413 0.015258789
0.070280075 -0.0087850094 0.016100138
0.071644224 -0.0087984139 0.017597646
0.071741924 -0.0086585078 0.018262893
0.07351692 -0.0087223472 0.019321293
0.074166209 -0.0086527243 0.02030313
0.075796075 -0.0086979102 0.021265566
0.076697126 -0.0086593535 0.02183646
0.078294225 -0.0086993584 0.022198975
0.077697434 -0.0084981574 0.022825032
0.079461642 -0.0085574081 0.024001479
0.081285402 -0.0086211786 0.024757862
0.082455732 -0.0086147785 0.024385065
0.082796738 -0.0085231932 0.024692446
0.084339149 -0.0085561452 0.024244756
0.085471138 -0.0085471142 0.024501473
0.08533828 -0.0084136333 0.024156153
0.089160204 -0.0086683528 0.023964107
0.09041588 -0.0086700162 0.023537397
0.090384588 -0.0085498933 0.02358374
0.091582976 -0.0085477447 0.02371183
0.094168805 -0.0086734425 0.023018181
0.094757564 -0.008614324 0.023103803
0.095911101 -0.0086074062 0.022420675
0.098230347 -0.0087039545 0.02228868
0.09792947 -0.0085688289 0.022039473
0.10033153 -0.0086706262 0.02149871
0.10170149 -0.0086818347 0.020240754
0.10154768 -0.0085642617 0.019279718
0.10315478 -0.0085962322 0.017821044
0.10417879 -0.0085794302 0.016464919
0.10820751 -0.0088075884 0.015075564
0.10856736 -0.0087353047 0.013589382
0.11052098 -0.008791442 0.012863636
0.11267409 -0.0088620065 0.011225522
0.11362362 -0.0088373926 0.010111272
0.11502426 -0.0088480199 0.009477973
0.11745705 -0.00893695 0.0085868239
0.11822858 -0.008898925 0.0083403587
0.11892796 -0.0088563375 0.0078253746
0.12199149 -0.008988847 0.0071253181
0.12237241 -0.0089229885 0.0065170527
0.12409853 -0.0089555643 0.0055148005
0.12628977 -0.0090206983 0.0056439638
0.12736471 -0.0090055857 0.0051552653
0.058956198 -0.0076899389 0.0055142045
0.059990976 -0.0076584225 0.0063956976
0.060519859 -0.0075649824 0.0078273416
0.063080363 -0.0077241259 0.0088760257
0.062693261 -0.0075231912 0.0098106861
0.064615957 -0.0076018772 0.011097014
0.066191204 -0.0076374467 0.012422919
0.065724999 -0.0074405656 0.013792694
0.068045542 -0.0075606154 0.014549613
0.069653429 -0.0075985556 0.015948594
0.070083782 -0.0075089769 0.017363608
0.071221612 -0.0074970121 0.01864326
0.071947038 -0.0074427975 0.019765019
0.072934523 -0.0074170697 0.020363599
0.074803688 -0.0074803685 0.022058278
0.075286023 -0.0074051823 0.022771209
0.07732559 -0.0074831215 0.023197442
0.077049389 -0.0073380372 0.024183035
0.078311428 -0.0073416964 0.025025696
0.080295391 -0.0074118827 0.026317686
0.080560677 -0.0073236981 0.026659131
0.081218451 -0.007273294 0.027035594
0.083794288 -0.0073936135 0.027026206
0.085020356 -0.0073930747 0.026786625
0.085407816 -0.0073206699 0.026851654
0.087857008 -0.0074245362 0.025483221
0.088664301 -0.0073886919 0.02488789
0.089948237 -0.0073930053 0.024841219
0.090640545 -0.0073492336 0.024875402
0.092267819 -0.0073814257 0.024738371
0.093374096 -0.0073716394 0.024554521
0.095368005 -0.0074312729 0.024169356
0.095598809 -0.0073537542 0.023928106
0.09809766 -0.0074504549 0.023446172
0.099387594 -0.0074540698 0.023613155
0.098705076 -0.0073114866 0.022474498
0.10196919 -0.00746116 0.021622449
0.10265338 -0.0074207266 0.020012945
0.10287948 -0.0073485342 0.018635035
0.1067903 -0.0075381389 0.017304271
0.10885019 -0.0075941989 0.015489161
0.10808605 -0.00745421 0.014136314
0.11046774 -0.0075318911 0.01319015
0.11162759 -0.0075254552 0.011221051
0.11347841 -0.0075652273 0.010128438
0.11522258 -0.0075970935 0.0095533729
0.11748289 -0.007661927 0.0092003942
0.11743462 -0.0075764274 0.0085374117
0.11901574 -0.0075967493 0.008136034
0.12030491 -0.007598205 0.0068725944
0.12384593 -0.0077403709 0.0057109594
0.12436058 -0.0076924069 0.0054107904
0.12576176 -0.0076996996 0.0052391291
0.058175541 -0.0064639491 0.0051367283
0.058668919 -0.0063770562 0.0058866143
0.060117248 -0.0063954517 0.0064944029
0.061170068 -0.0063718818 0.0070434213
0.062815927 -0.006409788 0.0085220337
0.063086927 -0.006308693 0.010298014
0.064842053 -0.006357064 0.010858655
0.064751983 -0.0062261522 0.012780666
0.067390017 -0.0063575488 0.014244378
0.067410313 -0.0062416955 0.015052736
0.068225436 -0.0062023122 0.016724527
0.069974735 -0.006247744 0.018624693
0.07083302 -0.0062134224 0.020067453
0.072033085 -0.0062097488 0.021202594
0.073121354 -0.0061967252 0.022717535
0.074077927 -0.0061731604 0.023387194
0.074878305 -0.0061375657 0.024360627
0.076591082 -0.0061767003 0.024941027
0.07758148 -0.0061572604 0.026082247
0.078924708 -0.0061659925 0.026732266
0.079222411 -0.0060940315 0.027754217
0.080706082 -0.0061140968 0.028126866
0.081904054 -0.0061122426 0.028375506
0.08309266 -0.0061097541 0.028411239
0.085159652 -0.0061709895 0.028454363
0.08543615 -0.006102582 0.028361827
0.087677397 -0.0061744647 0.027859241
0.088766456 -0.006164337 0.026864201
0.090636358 -0.00620797 0.026757509
0.090489171 -0.0061141332 0.02617836
0.092472658 -0.0061648437 0.02615416
0.093676858 -0.0061629512 0.025609016
0.094728194 -0.0061511812 0.025316745
0.095574446 -0.0061265673 0.02512908
0.097620726 -0.0061785271 0.02502358
0.098595075 -0.0061621922 0.024619669
0.099890538 -0.0061660828 0.023932248
0.10113811 -0.0061669583 0.022766382
0.10215832 -0.0061541158 0.021184891
0.10349766 -0.006160575 0.02004531
0.10587942 -0.0062282011 0.018086821
0.10659568 -0.0061974232 0.016222298
0.10899878 -0.0062642978 0.014790773
0.10990736 -0.0062447363 0.013358474
0.11176844 -0.0062791258 0.011790395
0.11378603 -0.006321446 0.010650575
0.11547407 -0.0063447291 0.010243356
0.11652207 -0.0063327216 0.0096688271
0.11781803 -0.0063343025 0.009029448
0.11911947 -0.0063361418 0.0075454712
0.12131943 -0.0063852328 0.007106185
0.1211439 -0.0063095782 0.0060438514
0.12425525 -0.0064049098 0.0055881739
0.059061386 -0.0051357727 0.005653441
0.060033325 -0.0051092193 0.0064794421
0.061848555 -0.0051540462 0.0069549084
0.06205792 -0.0050659524 0.0082410574
0.063811496 -0.0051049199 0.010038674
0.064339474 -0.0050462331 0.011627674
0.065646194 -0.0050497069 0.013313055
0.067078672 -0.0050625415 0.015345275
0.067785755 -0.005021167 0.01638341
0.069054551 -0.0050221491 0.018592745
0.070346981 -0.0050247847 0.020320117
0.071064502 -0.0049869823 0.021396041
0.071508564 -0.0049316254 0.02261591
0.0729957 -0.004948861 0.023992836
0.073716007 -0.0049144006 0.024801552
0.075363956 -0.0049418989 0.026245534
0.076049924 -0.0049064471 0.027084589
0.077247314 -0.0049045915 0.02764836
0.078147776 -0.004884236 0.028184086
0.078901462 -0.0048554745 0.028842181
0.079917528 -0.0048434869 0.02922979
0.083078504 -0.0049599106 0.029446334
0.083119661 -0.0048893918 0.029392898
0.084517837 -0.0048995852 0.029437959
0.08551003 -0.0048862877 0.02952376
0.086418852 -0.004868668 0.029204339
0.089233875 -0.0049574375 0.028559536
0.090028211 -0.0049330527 0.027964264
0.090558298 -0.0048950431 0.027295589
0.091682874 -0.0048897536 0.027411103
0.093675084 -0.0049302676 0.026869774
0.09478616 -0.004923956 0.026253372
0.09577737 -0.0049116602 0.025890738
0.096310198 -0.0048764655 0.025808215
0.098335959 -0.0049167979 0.025261283
0.099363089 -0.0049068192 0.024725169
0.10097525 -0.0049256217 0.023856074
0.10316351 -0.0049717356 0.022932917
0.10459432 -0.0049806819 0.021791905
0.10576116 -0.0049769958 0.020234138
0.1080696 -0.0050264932 0.017786235
0.10787082 -0.0049595782 0.015922844
0.11088137 -0.0050400621 0.014001071
0.1127529 -0.0050675459 0.012463152
0.11334618 -0.0050376081 0.011497498
0.1153421 -0.0050699823 0.010880709
0.11801173 -0.0051309448 0.010056973
0.11914147 -0.005124364 0.0089060664
0.12047309 -0.0051265145 0.0078846216
0.1214738 -0.0051146867 0.0074722171
0.12242287 -0.0051009529 0.0057763457
0.12539755 -0.0051710326 0.0058664083
0.12618436 -0.0051503819 0.0052031279
0.059195261 -0.0038605605 0.0052384734
0.060688831 -0.0038737552 0.006290555
0.061452791 -0.0038407994 0.0074401498
0.06312497 -0.0038647938 0.0082100034
0.063990086 -0.003839405 0.010162175
0.064632334 -0.0038019021 0.012265801
0.065869555 -0.0038001665 0.014285266
0.06638103 -0.0037574167 0.016377151
0.067962416 -0.0037756898 0.017620504
0.069221191 -0.0037757012 0.020089716
0.069401927 -0.0037179603 0.021813601
0.070873983 -0.0037302095 0.023462683
0.071813382 -0.0037144851 0.024253577
0.073287889 -0.0037265026 0.025207996
0.074272573 -0.0037136287 0.026149988
0.074695505 -0.0036735495 0.027611196
0.075936399 -0.0036743418 0.028091222
0.078008719 -0.0037147007 0.028691441
0.077593297 -0.0036371858 0.029099524
0.079355471 -0.0036625601 0.029596239
0.080311172 -0.0036505079 0.029795319
0.080520265 -0.0036053848 0.030062288
0.083769001 -0.003695691 0.02997154
0.084292814 -0.003664905 0.03017211
0.085633621 -0.0036700121 0.030040056
0.087036654 -0.0036776052 0.029650122
0.088121347 -0.0036717227 0.028312474
0.090161122 -0.0037052515 0.028163016
0.091077559 -0.0036923336 0.027722538
0.092535734 -0.0037014293 0.027556241
0.092398711 -0.0036473174 0.027263194
0.095279723 -0.0037121971 0.02693069
0.094980106 -0.0036530811 0.026809394
0.097691745 -0.0037098129 0.026769042
0.097371347 -0.0036514255 0.026170075
0.099490955 -0.0036848502 0.025678188
0.10128991 -0.0037057283 0.024515897
0.1015964 -0.003672159 0.023154527
0.10340847 -0.0036931594 0.022503585
0.10623812 -0.0037495808 0.020769119
0.10620809 -0.0037049334 0.018335849
0.1091072 -0.0037623174 0.016383052
0.11142634 -0.0037986252 0.014711082
0.11255976 -0.0037941493 0.012825668
0.11460152 -0.0038200505 0.011838734
0.11550049 -0.0038077086 0.011128604
0.1167068 -0.0038056565 0.0098015666
0.11889034 -0.0038351722 0.0086047649
0.12069178 -0.0038518654 0.00774616
0.12113345 -0.0038252666 0.0069440007
0.12176739 -0.0038052311 0.0060290098
0.12373912 -0.0038269833 0.00578022
0.1261574 -0.0038619614 0.005182147
0.059575625 -0.0025902446 0.005010426
0.060048677 -0.0025552628 0.0058854222
0.061924756 -0.0025801982 0.0073630214
0.061858639 -0.0025248425 0.0090641975
0.06355077 -0.0025420308 0.0099747181
0.065637194 -0.0025740075 0.012141049
0.066036075 -0.0025398489 0.014293015
0.067153707 -0.002534102 0.017120361
0.069035225 -0.0025568602 0.018341362
0.068547152 -0.0024926239 0.021517128
0.069729522 -0.00249034 0.023134947
0.07071054 -0.0024810717 0.024485826
0.071807489 -0.0024761204 0.025386512
0.072339296 -0.0024521796 0.026438087
0.073549666 -0.0024516557 0.026776224
0.074773729 -0.0024515977 0.028026134
0.075803868 -0.0024452861 0.028309464
0.07692939 -0.0024422028 0.029025674
0.07899525 -0.0024686016 0.029484063
0.079438783 -0.0024442701 0.03002435
0.079664424 -0.0024140733 0.030649513
0.082062595 -0.0024496296 0.030899912
0.083078548 -0.0024434868 0.030538023
0.083580285 -0.002422617 0.030801386
0.085074306 -0.0024306946 0.030480236
0.086643562 -0.0024406638 0.029887497
0.087998264 -0.0024443963 0.029383749
0.089874893 -0.0024623259 0.028791487
0.091750674 -0.0024797479 0.028572023
0.090375729 -0.0024100195 0.0285061
0.093230188 -0.0024534259 0.028055906
0.094661608 -0.0024587431 0.027612954
0.095107578 -0.0024386558 0.027537763
0.096408844 -0.0024407301 0.027621984
0.097597249 -0.002439931 0.027062953
0.099733829 -0.0024625638 0.026968896
0.10197937 -0.0024873018 0.025415987
0.10168232 -0.0024501765 0.023860604
0.1046532 -0.0024917428 0.023035318
0.10609335 -0.002496314 0.021638274
0.10527585 -0.0024482755 0.019502461
0.10925848 -0.0025116892 0.016972542
0.11008666 -0.0025019697 0.015284598
0.11218143 -0.002520931 0.01359272
0.11355259 -0.0025233908 0.012675881
0.11708582 -0.0025733148 0.011776328
0.11734517 -0.0025509819 0.0095857382
0.11999162 -0.0025804648 0.0085960031
0.12077074 -0.0025695902 0.0071431994
0.12158941 -0.0025597771 0.0069969893
0.12352034 -0.0025733404 0.0057861209
0.12442742 -0.0025655138 0.006100297
0.12419365 -0.0025345644 0.0054135323
0.12795615 -0.0025849729 0.0050901771
0.060680486 -0.0012910742 0.0056002736
0.06197384 -0.0012911216 0.0064849257
0.063080929 -0.0012873659 0.0087559223
0.063827939 -0.0012765587 0.010098219
0.064808115 -0.0012707474 0.011322856
0.066308513 -0.0012751637 0.014184475
0.067074195 -0.0012655508 0.016381562
0.067440554 -0.0012488991 0.018844545
0.068101197 -0.0012382036 0.022161782
0.069083773 -0.0012336388 0.024015427
0.070563868 -0.0012379626 0.025605232
0.071296021 -0.0012292417 0.026308447
0.072843179 -0.0012346302 0.027324229
0.072967105 -0.0012161185 0.028209537
0.075166225 -0.0012322331 0.028823137
0.076265916 -0.0012300955 0.029324174
0.077387415 -0.0012283718 0.02991727
0.077461787 -0.0012103404 0.030496061
0.079089329 -0.0012167589 0.03084594
0.080246702 -0.0012158592 0.031076938
0.081818968 -0.0012211786 0.031570196
0.083681837 -0.0012306153 0.031307161
0.084477149 -0.0012243064 0.031475008
0.08527226 -0.001218175 0.031053394
0.086284094 -0.0012152689 0.03017959
0.08924675 -0.0012395382 0.029771954
0.089697234 -0.0012287293 0.029691339
0.090616524 -0.0012245476 0.029935151
0.092842646 -0.001237902 0.029947162
0.093924776 -0.0012358524 0.029625475
0.094066158 -0.0012216384 0.028816432
0.095968649 -0.0012303672 0.028357446
0.097360514 -0.0012324116 0.028419733
0.097736761 -0.0012217095 0.027914107
0.098723128 -0.001218804 0.027710289
0.10086382 -0.0012300466 0.02639997
0.10294165 -0.0012402608 0.024711281
0.10518816 -0.00125224 0.02374512
0.10586222 -0.0012454379 0.0220294
0.10757399 -0.0012508604 0.019458055
0.11022437 -0.0012669469 0.017329156
0.11094329 -0.0012607191 0.015856028
0.11269382 -0.0012662227 0.014031291
0.11465675 -0.0012739638 0.012688756
0.11538414 -0.0012679576 0.010719121
0.11675802 -0.0012691088 0.0097947717
0.11880974 -0.0012775242 0.007784307
0.1205157 -0.0012820819 0.0072738528
0.12132071 -0.0012770601 0.0068756938
0.12369649 -0.001288505 0.0063138604
0.12562399 -0.0012950927 0.0058686137
0.12698543 -0.0012957697 0.0055113435
0.060671519 0 0.0057546496
0.061886605 0 0.0062785745
0.062747017 0 0.0075514913
0.064514004 0 0.010130465
0.065068804 0 0.011615276
0.066211224 0 0.013728857
0.066656381 0 0.017059326
0.067797787 0 0.019890726
0.068223722 0 0.02430281
0.068515316 0 0.025906861
0.070047036 0 0.02675876
0.071292877 0 0.02768445
0.072131559 0 0.028374761
0.073169291 0 0.02951175
0.074178584 0 0.029555202
0.075582229 0 0.030117303
0.077489793 0 0.030311197
0.078520894 0 0.03083986
0.079280719 0 0.03140521
0.081164114 0 0.031632811
0.081494756 0 0.031974256
0.083539926 0 0.031798393
0.084226027 0 0.032016635
0.086335711 0 0.031996459
0.086556338 0 0.031089097
0.087840997 0 0.030988693
0.090442993 0 0.030637175
0.090347819 0 0.030620545
0.092431538 0 0.030543
0.092683807 0 0.030174792
0.094007269 0 0.029757649
0.09556973 0 0.02937001
0.09643928 0 0.029079705
0.097394824 0 0.028693765
0.099909179 0 0.028409153
0.10110827 0 0.027438343
0.10322822 0 0.025361925
0.10311313 0 0.02388525
0.10639751 0 0.021852106
0.1080693 0 0.019689739
0.10956406 0 0.017168105
0.11135031 0 0.015294969
0.11333714 0 0.014185846
0.11459809 0 0.011790097
0.11587965 0 0.011019647
0.11723148 0 0.0090337396
0.11899658 0 0.0081772208
0.12209272 0 0.0072450638
0.12233037 0 0.0069150925
0.1238265 0 0.0061522126
0.12482263 0 0.0054035783
0.12609538 0 0.0050036311
0.061358768 0.0013055056 0.0055975914
0.061648704 0.001284348 0.0064518452
0.063103274 0.0012878219 0.0071257353
0.063649356 0.0012729871 0.0091082454
0.065936618 0.0012928749 0.012123883
0.065944649 0.0012681664 0.013686657
0.066850327 0.001261327 0.017092884
0.06675525 0.0012362084 0.020392478
0.067109555 0.0012201737 0.024614424
0.068612874 0.0012252298 0.027249992
0.069745705 0.0012236087 0.027690977
0.071143061 0.0012266046 0.028678954
0.072145745 0.0012228092 0.029624313
0.072625808 0.0012104302 0.030677974
0.074149445 0.0012155647 0.030753732
0.076091528 0.0012272827 0.031298548
0.077029131 0.0012226846 0.031367034
0.077520251 0.0012112539 0.031532019
0.078977227 0.0012150343 0.03223142
0.081594668 0.0012362829 0.032077938
0.081434809 0.0012154449 0.032547593
0.083442301 0.0012270927 0.032614142
0.082736999 0.0011990869 0.032753587
0.08513926 0.0012162752 0.032599956
0.0865141 0.0012185085 0.0314354
0.088567697 0.0012301069 0.031334907
0.088748038 0.0012157266 0.031175405
0.090144925 0.0012181747 0.031118363
0.092337601 0.001231168 0.030954212
0.092448488 0.0012164274 0.030856669
0.094773568 0.0012308256 0.030191809
0.09617833 0.0012330555 0.029862493
0.097126029 0.0012294434 0.029611319
0.098841988 0.0012355249 0.029141188
0.10036196 0.0012390366 0.028278679
0.10169803 0.0012402198 0.027057558
0.10269063 0.0012372365 0.025914967
0.10377169 0.0012353772 0.024340302
0.10529754 0.0012387945 0.021847486
0.10667628 0.0012404219 0.018622994
0.10912523 0.001254313 0.016206682
0.11172521 0.0012696047 0.01513952
0.11221371 0.0012608282 0.012627542
0.11373967 0.0012637741 0.011783779
0.11604048 0.0012751701 0.0096043348
0.11784006 0.0012808702 0.0089998245
0.12007298 0.0012911074 0.0079574585
0.12050357 0.001281953 0.0072501898
0.12318742 0.0012967096 0.0068644881
0.12323076 0.0012836538 0.0055060983
0.12578259 0.0012967277 0.0051074624
0.061737161 0.0025723819 0.0067161322
0.063252501 0.0025817349 0.007763505
0.063810796 0.0025524318 0.0084960461
0.065229625 0.0025580244 0.012215316
0.067579262 0.0025992023 0.014032662
0.066680513 0.0025162457 0.017504275
0.066280797 0.0024548443 0.022442579
0.068090625 0.0024760228 0.026332825
0.069678649 0.0024885233 0.028089046
0.070323661 0.0024674968 0.028306514
0.072566412 0.0025022901 0.029297173
0.072301075 0.0024508839 0.030243576
0.073485658 0.002449522 0.031108677
0.075922959 0.0024892772 0.03116715
0.076518372 0.0024683345 0.031493485
0.07768546 0.002466205 0.031890631
0.078374736 0.0024492105 0.032168776
0.078272618 0.0024083881 0.032867134
0.082028486 0.0024857116 0.032851994
0.082548678 0.0024641396 0.033171207
0.082673341 0.0024315689 0.033118188
0.085541353 0.0024794596 0.033448756
0.085703552 0.0024486729 0.032699198
0.088091075 0.0024814387 0.032483995
0.089409567 0.0024835991 0.032806098
0.091234893 0.002499586 0.032503217
0.091217093 0.0024653268 0.032097995
0.093186572 0.0024849751 0.032657355
0.093344904 0.0024564448 0.032161146
0.09490604 0.0024650919 0.031330019
0.097450107 0.0024987208 0.031011879
0.098061025 0.0024825574 0.030444533
0.099260099 0.0024815025 0.029407591
0.099061154 0.0024459544 0.028874964
0.10058154 0.0024532084 0.027689874
0.10254705 0.0024710132 0.026305676
0.1043196 0.0024838001 0.024159163
0.1052515 0.0024765059 0.021785796
0.10875129 0.0025290996 0.018869996
0.10851061 0.0024944968 0.01673764
0.11214096 0.0025486583 0.015038252
0.11389891 0.0025595261 0.013301432
0.11479308 0.0025509575 0.011238098
0.11717474 0.0025752692 0.0098132491
0.11825728 0.0025708105 0.0086173415
0.11943384 0.0025684696 0.0078603625
0.1222061 0.0026001297 0.0064929724
0.1233425 0.0025966843 0.0057991743
0.061882056 0.0039499188 0.0050819516
0.062683396 0.0039177123 0.005610764
0.063365884 0.0038795441 0.0075396299
0.064994551 0.0038996732 0.0085690618
0.066344634 0.0039026255 0.010267794
0.066845827 0.0038564901 0.01441443
0.067561664 0.003824245 0.017583847
0.067081369 0.0037267427 0.024224639
0.067194283 0.0036651427 0.027605087
0.069250457 0.0037098459 0.028546453
0.070356883 0.0037029937 0.028932124
0.071562812 0.0037015248 0.029936045
0.07268595 0.0036958957 0.030914307
0.07418634 0.003709317 0.031588912
0.074989356 0.0036880011 0.031679451
0.076353855 0.0036945415 0.031795532
0.077510834 0.003690992 0.032237381
0.077630438 0.0036389267 0.03239283
0.081465945 0.0037599665 0.032668561
0.081632391 0.0037105633 0.032848448
0.080315851 0.003596232 0.033080429
0.08385139 0.003699326 0.033149421
0.086352378 0.0037544512 0.033355087
0.084067836 0.0036029071 0.033144832
0.086538367 0.0036565508 0.033222556
0.088411435 0.0036838099 0.033796579
0.090562858 0.0037217613 0.03362304
0.091524847 0.0037104667 0.033537656
0.093726143 0.0037490455 0.03326717
0.093968667 0.0037092895 0.033098042
0.094483092 0.0036811596 0.03274712
0.09602344 0.0036932093 0.032306314
0.096880093 0.003678991 0.031834394
0.099249296 0.0037218486 0.03063938
0.10042743 0.0037195343 0.029705405
0.10258261 0.0037530223 0.028428793
0.10286126 0.003717877 0.027086616
0.10312683 0.0036831012 0.025940895
0.10576957 0.0037330436 0.02314043
0.1056138 0.0036842022 0.020726502
0.10806066 0.0037262295 0.01800704
0.11272787 0.0038429953 0.015674829
0.11310648 0.003812578 0.013785064
0.1153714 0.0038457131 0.011117339
0.11706475 0.0038592776 0.0097481608
0.11930434 0.0038903588 0.0080199242
0.12062909 0.0038912608 0.0068617463
0.12204248 0.0038949728 0.0059733391
0.062253702 0.0051878085 0.0052694082
0.063953467 0.0052206912 0.0062623024
0.0638135 0.0051050801 0.0084849596
0.066465087 0.0052129482 0.0096622109
0.067272015 0.0051747705 0.013515651
0.068636216 0.0051800921 0.016035557
0.068276867 0.0050575458 0.023821592
0.067450695 0.0049055051 0.028333575
0.07019031 0.0050135935 0.029531837
0.070191257 0.0049257022 0.029835075
0.072038047 0.0049681412 0.030686736
0.072550073 0.0049186489 0.03152597
0.073102176 0.0048734783 0.03197971
0.075525291 0.0049524782 0.031889737
0.075958706 0.0049005616 0.032132208
0.078856148 0.0050067394 0.032190681
0.077249989 0.0048281243 0.032417953
0.079620562 0.0048997267 0.032647908
0.080260985 0.004864302 0.032647908
0.082890563 0.0049486905 0.033147812
0.083805107 0.004929712 0.033421129
0.084338948 0.0048892144 0.033665389
0.086716883 0.0049552503 0.033639431
0.085748777 0.0048309169 0.033664048
0.087799907 0.0048777726 0.033987314
0.08968167 0.004914064 0.033573657
0.090927601 0.0049150055 0.033446103
0.092200279 0.0049173483 0.033161134
0.093668193 0.0049299048 0.033035129
0.093958974 0.0048809857 0.03291893
0.095998563 0.0049230033 0.032605618
0.097310789 0.0049271286 0.031977564
0.10009395 0.0050046979 0.031278789
0.10031487 0.0049538207 0.030737102
0.10350578 0.0050490629 0.029757053
0.10434732 0.0050287861 0.028757095
0.10478482 0.004989753 0.027982026
0.10809633 0.0050868862 0.024428308
0.1078193 0.0050148512 0.02180934
0.10980074 0.0050483099 0.018634796
0.11147448 0.0050670221 0.016358376
0.11475242 0.005157412 0.014327705
0.11642251 0.0051743337 0.011695504
0.11658294 0.0051245252 0.010241747
0.1179421 0.0051279175 0.0075685978
0.11946146 0.0051381276 0.0065867901
0.1213068 0.0051619913 0.0055323839
0.064133637 0.0065442482 0.0054734349
0.065591164 0.0065591158 0.0067327619
0.06627544 0.0064975922 0.0086846948
0.06676323 0.0064195408 0.011492252
0.068932891 0.0065031028 0.015530586
0.066594794 0.0061661848 0.024268031
0.067534871 0.0061395341 0.028891653
0.069311015 0.0061884834 0.029717147
0.070056088 0.006145271 0.030490994
0.071639515 0.0061758203 0.031543374
0.072148547 0.0061142836 0.032247841
0.074215241 0.0061846036 0.032612115
0.074894719 0.006138911 0.032520086
0.076829441 0.0061959228 0.032718837
0.078005284 0.0061908956 0.032761604
0.077122062 0.0060251611 0.032966673
0.079435937 0.0061104568 0.033812046
0.081123523 0.0061457218 0.033857226
0.081642993 0.0060927602 0.033971906
0.083461761 0.0061368942 0.034219772
0.086240873 0.0062493384 0.034242541
0.084675394 0.0060482421 0.034315735
0.087204538 0.0061411648 0.034139574
0.089408472 0.0062089218 0.034397721
0.09005823 0.0061683715 0.034389704
0.090638854 0.0061242469 0.034003109
0.092108794 0.0061405865 0.033647418
0.093109377 0.0061256168 0.033290744
0.094465658 0.0061341333 0.033059031
0.096191235 0.0061661052 0.032558769
0.097332031 0.0061602551 0.032447904
0.1001816 0.0062613501 0.031909853
0.10117853 0.006245588 0.031517565
0.10197407 0.0062179314 0.0306831
0.1048518 0.0063163731 0.029591531
0.10567401 0.0062901196 0.029099286
0.10749847 0.0063234395 0.027871668
0.11021668 0.0064079468 0.023574591
0.11260073 0.0064713061 0.019703269
0.11176823 0.0063504674 0.01632452
0.11442749 0.0064285109 0.013135374
0.1167646 0.006486922 0.011420727
0.11805839 0.0064867251 0.0096369386
0.11936775 0.0064873775 0.0062709451
0.12035821 0.0064708716 0.0060504079
0.12228467 0.0065045035 0.0054758191
0.063370429 0.0077596442 0.0054452419
0.064028084 0.0076833698 0.0064236522
0.065953702 0.0077592586 0.0074700117
0.066344917 0.0076551829 0.010186195
0.068554185 0.0077608507 0.015790701
0.067367509 0.0074852784 0.024769843
0.068496674 0.0074723642 0.029393464
0.069718637 0.0074698539 0.030560434
0.07053937 0.0074251965 0.031284064
0.072026677 0.007451036 0.031840205
0.072358578 0.0073584993 0.032636642
0.073925242 0.0073925243 0.033021837
0.075447761 0.0074210912 0.03280279
0.076318391 0.0073856511 0.033252448
0.077346705 0.0073663532 0.033543408
0.080068275 0.0075064008 0.033829272
0.078621238 0.0072573447 0.034460723
0.080888294 0.0073534814 0.034495801
0.082633585 0.0074000228 0.034630388
0.084267564 0.0074353735 0.035165161
0.085549958 0.0074391272 0.034754813
0.08696676 0.0074542938 0.035206109
0.087498471 0.0073942374 0.034865439
0.088504009 0.0073753339 0.035256237
0.091656737 0.0075334301 0.035118341
0.090530463 0.0073403078 0.034808517
0.091279857 0.0073023881 0.034689337
0.09442322 0.0074544647 0.03420499
0.095072307 0.007408232 0.033500969
0.096823908 0.0074479929 0.033410549
0.097902104 0.0074356031 0.032255113
0.097559303 0.0073169479 0.031997561
0.10245483 0.0075892466 0.031549186
0.10438999 0.0076382915 0.031024992
0.10663079 0.0077082496 0.030513108
0.10900788 0.0077862772 0.030024678
0.11124301 0.0078524482 0.029137045
0.11315218 0.0078943381 0.026051342
0.11342565 0.0078224586 0.021362424
0.11713876 0.0079867337 0.017849684
0.11700793 0.0078881746 0.013460636
0.11631306 0.0077542039 0.010620832
0.11862906 0.0078216968 0.0087429285
0.11990093 0.0078196265 0.0072695017
0.1212044 0.0078196386 0.0060523748
0.12316706 0.0078617278 0.005269289
0.065590575 0.0091826804 0.0061237216
0.066474371 0.0091239326 0.0076508522
0.067569226 0.0090958569 0.0099787116
0.068983547 0.0091110347 0.013589501
0.067261018 0.0087190205 0.023547709
0.067470856 0.0085872002 0.028739929
0.0704716 0.00880895 0.030347139
0.07069727 0.0086821206 0.031209409
0.071450196 0.0086233001 0.031918377
0.072903909 0.0086496156 0.032603323
0.073706843 0.0085991314 0.032989264
0.075572707 0.0086722784 0.033166856
0.076749757 0.0086652953 0.033621788
0.077298678 0.0085887415 0.033855855
0.078648761 0.0086022085 0.034239113
0.079465851 0.0085578607 0.034928709
0.080274075 0.0085139172 0.03516534
0.082102224 0.0085778441 0.03516534
0.084597342 0.0087085497 0.03543058
0.084496498 0.0085721081 0.035452694
0.085380539 0.0085380534 0.034814537
0.087300539 0.0086070951 0.034860432
0.088685445 0.0086221956 0.035113096
0.090143614 0.0086439084 0.035092175
0.091170907 0.0086242752 0.034882516
0.093071885 0.0086867092 0.034592718
0.094840296 0.0087352907 0.033884704
0.094574258 0.0085976599 0.033395857
0.097265534 0.0087289577 0.03346917
0.097555831 0.0086441878 0.033490539
0.098967478 0.0086596543 0.033026367
0.10061361 0.0086950036 0.032723069
0.10404497 0.0088818874 0.031759441
0.10564148 0.0089095226 0.030559868
0.10524308 0.0087702572 0.030251294
0.10670475 0.0087874494 0.029538423
0.10684627 0.0086967889 0.027044207
0.10814688 0.0087014735 0.023851037
0.11003126 0.0087524867 0.018371999
0.11518659 0.0090596201 0.013147771
0.11860044 0.0092244782 0.0098502636
0.11903211 0.0091563165 0.0083457232
0.12095457 0.0092030652 0.0063292384
0.12218112 0.0091964286 0.0054025054
0.06464643 0.010343429 0.005330801
0.065971226 0.010348428 0.0065934658
0.066984646 0.01030533 0.0082759857
0.069027327 0.010419219 0.010566175
0.067034304 0.0099310074 0.020260572
