ply
format ascii 1.0
comment PCL generated
element vertex 1278
property float x
property float y
property float z
element camera 0
property float view_px
property float view_py
property float view_pz
property float x_axisx
property float x_axisy
property float x_axisz
property float y_axisx
property float y_axisy
property float y_axisz
property float z_axisx
property float z_axisy
property float z_axisz
property float focal
property float scalex
property float scaley
property float centerx
property float centery
property int viewportx
property int viewporty
property float k1
property float k2
end_header
-0.067227937 -0.14706112 0.0077745616
-0.067233175 -0.14940706 0.0079369247
-0.066635869 -0.15046808 0.0079984367
-0.06414932 -0.14722794 0.0081144869
-0.064752899 -0.1510901 0.0081305206
-0.063464038 -0.15059263 0.008114934
-0.061631385 -0.14876541 0.0078032613
-0.061270252 -0.15048833 0.008035928
-0.059643812 -0.14910954 0.0080095232
-0.058932927 -0.15001109 0.0081384778
-0.05737922 -0.14876093 0.007761389
-0.057061721 -0.15072908 0.007761389
-0.055095695 -0.14833456 0.0072713196
-0.054842722 -0.15054865 0.0071976781
-0.05366566 -0.15026385 0.0070639253
-0.051910888 -0.14831683 0.0067534447
-0.051379107 -0.14985573 0.0067086816
-0.050598823 -0.1507199 0.0066026747
-0.049854741 -0.15173182 0.0064267516
-0.047820605 -0.14877521 0.0061425269
-0.047122013 -0.14993367 0.0059739649
-0.046333414 -0.15085296 0.0056685507
-0.04485184 -0.14950614 0.0050927401
-0.043939326 -0.15003672 0.0050528646
-0.085679002 -0.14886726 0.0051670671
-0.085518762 -0.15046972 0.0057166219
-0.083013251 -0.14793387 0.0064192414
-0.082612321 -0.14913133 0.0069211423
-0.080597289 -0.1474082 0.0070948303
-0.080103859 -0.14845915 0.0074009597
-0.07904353 -0.14847365 0.0077350736
-0.07812722 -0.14876279 0.0079825521
-0.07729461 -0.14922154 0.007920146
-0.075746976 -0.14829338 0.0078753531
-0.07478378 -0.14849922 0.0079432428
-0.074377172 -0.14983228 0.0080933571
-0.072251834 -0.14769125 0.0080087781
-0.072293304 -0.14998163 0.0079623461
-0.070570305 -0.14862534 0.0079358518
-0.069633625 -0.14890882 0.0081825554
-0.068329483 -0.14840309 0.0080725849
-0.067754537 -0.14949018 0.0080111921
-0.065255135 -0.1462978 0.0082021952
-0.06548617 -0.1492226 0.0084622502
-0.064101242 -0.1485012 0.0083471239
-0.062947363 -0.14829971 0.008400321
-0.062010139 -0.1486105 0.0083090961
-0.060874354 -0.14844799 0.0082941353
-0.059727389 -0.14825191 0.0086083412
-0.059092697 -0.14934336 0.0085390806
-0.057535857 -0.14810155 0.0081485212
-0.056867473 -0.149143 0.0081370771
-0.055716816 -0.14893533 0.0079366565
-0.054661661 -0.14897981 0.0076093376
-0.053426355 -0.14852527 0.007384479
-0.052306637 -0.14838006 0.0071488619
-0.051019367 -0.14774358 0.0068400502
-0.050683364 -0.14989334 0.0066438317
-0.049374875 -0.149198 0.0064629316
-0.04821898 -0.14894307 0.0059781075
-0.046631381 -0.14731278 0.0058075786
-0.04590461 -0.14838932 0.0055806041
-0.044756662 -0.14812323 0.0050658584
-0.043950327 -0.14900233 0.0050853193
-0.086601324 -0.14938729 0.0054820776
-0.08465226 -0.14787357 0.0061260462
-0.084761821 -0.14996323 0.0067741275
-0.083474495 -0.14960365 0.007101059
-0.081607476 -0.14818199 0.0072858334
-0.080904871 -0.14886495 0.0078051686
-0.078682512 -0.14673226 0.0079786777
-0.077856183 -0.14718017 0.0080586672
-0.076741688 -0.14708824 0.0082020462
-0.076295227 -0.14829214 0.0083204806
-0.075246945 -0.14834397 0.0084412992
-0.073588945 -0.14717789 0.0084879994
-0.071772151 -0.14565524 0.0085093677
-0.072330281 -0.14897878 0.0082716942
-0.070193425 -0.14676808 0.0084578097
-0.069365062 -0.14726737 0.0086965263
-0.068832643 -0.14842038 0.0087278485
-0.067579068 -0.14803034 0.008716166
-0.065412007 -0.14559446 0.0088087618
-0.065680616 -0.14858894 0.0089379847
-0.064025164 -0.14725786 0.0089613497
-0.061983548 -0.14497848 0.0088006854
-0.062559053 -0.14884742 0.0087441206
-0.060594708 -0.14670298 0.0088920295
-0.059557684 -0.14676715 0.0089113712
-0.058800306 -0.14753531 0.0086553991
-0.057533819 -0.14703088 0.0086281002
-0.056165241 -0.14624156 0.0085888803
-0.055168141 -0.14640775 0.0083302557
-0.055040635 -0.14893349 0.0081290603
-0.053689156 -0.14818206 0.0078706443
-0.052382685 -0.14752674 0.0077186823
-0.051155888 -0.14707318 0.0075019896
-0.050654337 -0.14872976 0.0072610974
-0.049045801 -0.1471374 0.0069181621
-0.04814332 -0.14763951 0.0062940121
-0.047495075 -0.14896183 0.0061002374
-0.046189327 -0.14823551 0.0056961179
-0.045059528 -0.14805274 0.0051391125
-0.044400852 -0.14944677 0.0050548613
-0.086069286 -0.1492594 0.0058642328
-0.083296649 -0.14630309 0.0062675774
-0.082951292 -0.14758867 0.0069488585
-0.08178132 -0.1474216 0.0068633556
-0.079699434 -0.1455843 0.0073648989
-0.078726366 -0.14575016 0.0078881383
-0.077946462 -0.14628308 0.0081677735
-0.077330895 -0.14714351 0.0086200237
-0.076437362 -0.14749181 0.0086627603
-0.074986406 -0.14675911 0.0086469948
-0.073791422 -0.1465134 0.0087920129
-0.073581517 -0.14824511 0.00883919
-0.071199127 -0.14558627 0.0086970329
-0.070298448 -0.14592254 0.0091962814
-0.070107862 -0.14776582 0.0092738271
-0.067477249 -0.14444348 0.0092628598
-0.067487895 -0.14675939 0.009429574
-0.066331625 -0.1465715 0.0093487501
-0.064541198 -0.14495318 0.0094076395
-0.064634718 -0.14758261 0.0093488097
-0.062800646 -0.14582522 0.0094639361
-0.061644819 -0.14560932 0.0095123947
-0.060826316 -0.14619659 0.0095324814
-0.05928224 -0.14502977 0.009391278
-0.058888461 -0.14668581 0.0090741813
-0.058121592 -0.14745663 0.0088753402
-0.056654923 -0.14644763 0.0088858902
-0.055000663 -0.1449056 0.0084572136
-0.055086818 -0.14797832 0.0083888471
-0.053660773 -0.14703052 0.0081675649
-0.051821332 -0.14488821 0.0081866682
-0.051323362 -0.14648543 0.0079881847
-0.050315071 -0.14666307 0.0078241825
-0.049171198 -0.14644466 0.0074494183
-0.048255518 -0.14691125 0.0067386627
-0.046962094 -0.14622289 0.0065790117
-0.04661857 -0.14852893 0.005966872
-0.044587515 -0.14544024 0.005396992
-0.087518968 -0.14694543 0.0050439537
-0.086813338 -0.14758268 0.0051547289
-0.084391609 -0.14528175 0.0056701303
-0.083297051 -0.14523588 0.0063462853
-0.083890006 -0.14816937 0.007248193
-0.080186866 -0.14349228 0.0071894825
-0.080417119 -0.14582305 0.0075537264
-0.079879649 -0.14680584 0.0082458854
-0.077593207 -0.14455721 0.0083941519
-0.076780759 -0.14503032 0.0088886619
-0.076425754 -0.14639299 0.0089533031
-0.074541055 -0.14482261 0.0089071989
-0.07363867 -0.14514288 0.0089924335
-0.072938159 -0.14587632 0.00913921
-0.071952268 -0.14605236 0.0091164112
-0.071280308 -0.14688063 0.0090253949
-0.069518752 -0.14545462 0.0091955662
-0.067803524 -0.14408249 0.0093761683
-0.067045487 -0.14473312 0.0094028413
-0.066855699 -0.14665121 0.0094313323
-0.064491339 -0.14378397 0.0097385049
-0.064315245 -0.14578123 0.0097974241
-0.062735304 -0.1446102 0.010087073
-0.061921053 -0.14519419 0.0098491013
-0.060719743 -0.14487517 0.0097948015
-0.060193852 -0.14618507 0.0098565519
-0.058494784 -0.14464165 0.0096881986
-0.057912905 -0.14585473 0.0095271468
-0.056599431 -0.14523627 0.0094736218
-0.055300709 -0.14463262 0.0092539191
-0.054541573 -0.1454442 0.0091592968
-0.05396755 -0.14679174 0.0083934367
-0.052854415 -0.14669797 0.0083649755
-0.051185448 -0.14502543 0.0080634654
-0.049833946 -0.14420035 0.0079077482
-0.049022704 -0.14493668 0.0077908039
-0.048004214 -0.14507939 0.0071120262
-0.04747884 -0.14675277 0.0070073009
-0.04587907 -0.1451059 0.0062751472
-0.045056123 -0.14589602 0.0055128634
-0.044160947 -0.14648509 0.0050632656
-0.087689139 -0.14614856 0.0053932071
-0.086105883 -0.14530368 0.0056221783
-0.085302845 -0.14577068 0.0061858892
-0.084860921 -0.14687468 0.0063842535
-0.082822263 -0.14520787 0.0074944496
-0.082212485 -0.14603533 0.0078077912
-0.080636173 -0.1451451 0.0077986419
-0.079210438 -0.14450553 0.0083641708
-0.078859478 -0.14583603 0.0085226297
-0.077449739 -0.14521825 0.0086331069
-0.075454913 -0.14347062 0.0090714991
-0.07451237 -0.14370243 0.0088537931
-0.073529765 -0.14386258 0.0092224181
-0.072715573 -0.14436181 0.0089555681
-0.071936935 -0.14494756 0.0089555681
-0.07056956 -0.14434682 0.0089914799
-0.068943828 -0.14319102 0.0091418922
-0.068707548 -0.14492998 0.0095030069
-0.067470402 -0.14457943 0.0097136497
-0.065703303 -0.14306365 0.0097188354
-0.065901563 -0.14584772 0.010061711
-0.063949287 -0.14388588 0.0099188089
-0.063203111 -0.14461729 0.010038733
-0.061880391 -0.14403194 0.0099007487
-0.061061546 -0.14461945 0.0098574162
-0.060138356 -0.14497639 0.01001209
-0.059041463 -0.14491995 0.0096824169
-0.057840243 -0.1446006 0.0097720027
-0.056677654 -0.14436761 0.009778589
-0.055876229 -0.14506328 0.0094769001
-0.055043321 -0.1457029 0.0094308853
-0.053959314 -0.14569014 0.0089610219
-0.053028174 -0.14609803 0.0089510977
-0.051810764 -0.14571777 0.0084260702
-0.050518282 -0.1451057 0.0082380772
-0.049359225 -0.1448586 0.0080772936
-0.048283119 -0.14484936 0.0075514317
-0.046410054 -0.14239448 0.0072386563
-0.045803215 -0.1438008 0.0066838861
-0.045254827 -0.14546195 0.0059968233
-0.044587426 -0.14681225 0.0054998994
-0.088873759 -0.14523272 0.0052748919
-0.087458052 -0.14468369 0.0053615272
-0.0863574 -0.14464864 0.0059627295
-0.084340386 -0.14305837 0.0062671602
-0.084656574 -0.14543566 0.0066854954
-0.084354028 -0.14679793 0.0074589252
-0.080974959 -0.14277163 0.0079713166
-0.080517791 -0.14385846 0.0081590712
-0.078985348 -0.14302753 0.0086678863
-0.077818595 -0.14284509 0.0087434649
-0.077125542 -0.14353921 0.0090056956
-0.076467693 -0.14431931 0.0091100633
-0.074917451 -0.14341341 0.0094006956
-0.073432446 -0.14260793 0.0093917251
-0.073356502 -0.14455546 0.0095324516
-0.071556158 -0.14311232 0.0095324516
-0.070960037 -0.14407039 0.0095585287
-0.070441052 -0.14521694 0.0098516047
-0.067720324 -0.14178944 0.0097458363
-0.067817785 -0.14424734 0.010049462
-0.066456147 -0.14363103 0.010069907
-0.065002851 -0.14279313 0.010400176
-0.064643338 -0.14437012 0.010454804
-0.063483901 -0.14418377 0.01025176
-0.061389353 -0.14183058 0.010381699
-0.061520692 -0.14462759 0.010494024
-0.059828851 -0.14316189 0.010403007
-0.059031855 -0.14382307 0.010161757
-0.057236452 -0.14203119 0.010161757
-0.056945983 -0.14397664 0.010222852
-0.055649772 -0.14340518 0.010053635
-0.054550912 -0.14332986 0.0098263025
-0.053408664 -0.14313522 0.0095534027
-0.052216992 -0.14279748 0.0092658997
-0.051165834 -0.14283796 0.0092336237
-0.05037988 -0.14363626 0.0088298619
-0.049565598 -0.14438674 0.0087408125
-0.048198298 -0.14352381 0.0079215467
-0.047058996 -0.14331603 0.0076998472
-0.046854146 -0.14601059 0.007447958
-0.045034353 -0.14368103 0.0066656768
-0.044362694 -0.14499027 0.00572595
-0.088061646 -0.14459504 0.0055479109
-0.086823247 -0.14434364 0.005787909
-0.084878467 -0.14289665 0.0065793395
-0.0842513 -0.14365926 0.0067071915
-0.083392359 -0.14404134 0.0073793232
-0.081568711 -0.14274524 0.0080305636
-0.080188513 -0.14220096 0.0085403919
-0.07911858 -0.14219961 0.0088288486
-0.078697063 -0.14337958 0.0093514621
-0.07703644 -0.14230342 0.0093514621
-0.07630939 -0.14294577 0.0095042288
-0.07394962 -0.14050427 0.0097546875
-0.073956996 -0.14255479 0.0099221766
-0.072949819 -0.14268127 0.0098757148
-0.071418054 -0.14177017 0.0098757148
-0.070375286 -0.14181687 0.010040849
-0.070143603 -0.1435246 0.010273278
-0.068203896 -0.14173622 0.010359555
-0.067499459 -0.14249885 0.010422885
-0.065618314 -0.14076187 0.010515094
-0.064471893 -0.14056987 0.010828614
-0.064495064 -0.14296405 0.010942519
-0.063383102 -0.14288054 0.010888517
-0.061613716 -0.14128663 0.011152029
-0.061007578 -0.14235102 0.011410236
-0.059409931 -0.14109859 0.011206508
-0.058733758 -0.14202891 0.011038154
-0.05790041 -0.14260657 0.011038154
-0.056730401 -0.14236119 0.010986298
-0.055413574 -0.14173087 0.010902613
-0.05449352 -0.14211056 0.010600924
-0.053847577 -0.14323455 0.0097809732
-0.05249982 -0.14249951 0.0096405745
-0.051675167 -0.14318328 0.0094266534
-0.050313149 -0.1423755 0.00925982
-0.049538426 -0.14323066 0.0090692639
-0.048144989 -0.14229518 0.0083227158
-0.04798381 -0.14504197 0.0082658827
-0.045942593 -0.14210151 0.0074740052
-0.044962276 -0.14238054 0.0066944957
-0.044304658 -0.14371999 0.0059788823
-0.043399848 -0.1443045 0.0054195523
-0.042011075 -0.14326853 0.0052316785
-0.087295942 -0.14226006 0.0054977536
-0.086967148 -0.14349578 0.0062789619
-0.085324451 -0.14256744 0.006990701
-0.085279509 -0.14431916 0.0069999993
-0.083058812 -0.14238654 0.0075998902
-0.081723027 -0.14194 0.0081382096
-0.081410468 -0.14328243 0.0084511936
-0.078355707 -0.13976964 0.0093077421
-0.078995198 -0.14284062 0.0096850693
-0.077334531 -0.14177997 0.009719044
-0.07640411 -0.14204708 0.0098880529
-0.074768156 -0.14099137 0.010129124
-0.0740733 -0.14170544 0.010238528
-0.073227979 -0.14214844 0.010233849
-0.071405157 -0.14067882 0.010233849
-0.070668511 -0.14133702 0.010428756
-0.06969665 -0.14153782 0.010492802
-0.067597874 -0.13942063 0.010844678
-0.067550465 -0.1415343 0.010927677
-0.065810181 -0.140112 0.010960996
-0.065116055 -0.14090687 0.011410952
-0.063947618 -0.14068475 0.011451095
-0.063618466 -0.14233284 0.011370182
-0.061998386 -0.14109978 0.011538684
-0.060882743 -0.14099161 0.011612445
-0.060299221 -0.14213388 0.011417031
-0.059513722 -0.14283293 0.011351228
-0.058278434 -0.14245839 0.011406422
-0.056967184 -0.14188053 0.011470824
-0.056157783 -0.14255437 0.011275828
-0.054661326 -0.14147638 0.010972559
-0.053351715 -0.14084852 0.010489434
-0.052993719 -0.14275859 0.010433763
-0.051994953 -0.14298612 0.0096443295
-0.050168373 -0.14089841 0.0094858706
-0.049475636 -0.14197357 0.009232372
-0.048622992 -0.14262743 0.008559674
-0.047625083 -0.14287525 0.0079113841
-0.046397023 -0.14242807 0.0076992512
-0.044802967 -0.14080933 0.0069322884
-0.044306919 -0.14264667 0.0062254369
-0.043274406 -0.14280555 0.0056812763
-0.042460751 -0.14371331 0.0052709579
-0.088770755 -0.14181669 0.0054256022
-0.088541701 -0.14319707 0.0056394935
-0.086307734 -0.14132892 0.0064420402
-0.085719712 -0.14214282 0.007468164
-0.083160169 -0.13966644 0.0075223446
-0.08375036 -0.14248438 0.007837981
-0.081308335 -0.14014989 0.008487165
-0.078992449 -0.13797349 0.0087993145
-0.079176337 -0.14016351 0.0093258917
-0.077353187 -0.13881189 0.0097817481
-0.076376028 -0.13896194 0.0098528862
-0.076111674 -0.14043139 0.009870857
-0.07546407 -0.14122562 0.010110199
-0.073546067 -0.13963094 0.010372341
-0.073769294 -0.14211437 0.010300338
-0.071702451 -0.14019434 0.010376543
-0.07095778 -0.14084044 0.010740221
-0.070092417 -0.14126317 0.01092276
-0.068062358 -0.13931514 0.011016726
-0.067767754 -0.1409139 0.011152297
-0.066373661 -0.14024112 0.011192054
-0.065376684 -0.14039911 0.011364996
-0.064341687 -0.14047936 0.011364996
-0.063204437 -0.14033528 0.011490703
-0.062086057 -0.14022885 0.011418968
-0.061398588 -0.14110903 0.011516005
-0.059919033 -0.14016774 0.011401922
-0.05926029 -0.14114724 0.011419564
-0.058166333 -0.14110722 0.011414319
-0.057582062 -0.14232548 0.011312813
-0.055703212 -0.14032924 0.011061728
-0.05478688 -0.14072709 0.010850549
-0.053952776 -0.14135627 0.010850549
-0.052431997 -0.14017534 0.010567188
-0.051419072 -0.14033122 0.01028344
-0.04992044 -0.13913995 0.01011312
-0.049102657 -0.13983583 0.0094754398
-0.049034745 -0.14274558 0.0086493194
-0.047270913 -0.1407384 0.0084213614
-0.046391457 -0.1413321 0.0081613064
-0.045415826 -0.14165412 0.0067589879
-0.043937813 -0.14038667 0.0062409341
-0.04340896 -0.14216435 0.0059618354
-0.042479005 -0.14268589 0.005379647
-0.088921927 -0.14097379 0.005677402
-0.088455208 -0.14196515 0.0061668158
-0.085254803 -0.13853906 0.0068438649
-0.0850766 -0.13999948 0.0075823069
-0.083627284 -0.1393788 0.0080090761
-0.082200229 -0.13877961 0.0082344711
-0.08174628 -0.13982917 0.008862108
-0.080797896 -0.14004968 0.009193778
-0.07973747 -0.14007933 0.0095521212
-0.077367879 -0.13777842 0.0098674893
-0.076951668 -0.13894051 0.010127962
-0.076205544 -0.13953127 0.010211378
-0.074768782 -0.13885631 0.010566026
-0.07394886 -0.13932393 0.010683984
-0.07310956 -0.13976827 0.010585308
-0.072125524 -0.13994506 0.010694623
-0.07104928 -0.13994555 0.011041641
-0.070396543 -0.14079309 0.011116832
-0.068602189 -0.13934819 0.011334896
-0.0672144 -0.13869637 0.01131171
-0.066652924 -0.13975613 0.011299253
-0.065310612 -0.13918655 0.011514425
-0.064442694 -0.13962585 0.011458993
-0.064050689 -0.14112864 0.011472344
-0.061862595 -0.13865754 0.011696875
-0.060332768 -0.13760105 0.011987418
-0.05971304 -0.13861956 0.011948913
-0.059638601 -0.14096396 0.011947006
-0.057913654 -0.13942176 0.011900097
-0.056796428 -0.13931198 0.011194974
-0.055557795 -0.13889448 0.01118198
-0.054611187 -0.13920499 0.011162668
-0.053751092 -0.13975285 0.011158139
-0.05263637 -0.13964751 0.010862052
-0.050635256 -0.13713716 0.010654479
-0.050449733 -0.13954182 0.010579497
-0.049215779 -0.13908808 0.0096573532
-0.048249215 -0.13938662 0.0092341602
-0.047394961 -0.14003056 0.008875072
-0.046342377 -0.14010486 0.0080188513
-0.045059737 -0.13947061 0.0069903731
-0.044351961 -0.14062817 0.006716162
-0.043469995 -0.14127749 0.0062848032
-0.042649481 -0.14216495 0.0056164861
-0.041112907 -0.14064942 0.0052390993
-0.088756911 -0.13962977 0.0053493977
-0.088760696 -0.14135963 0.0060508251
-0.086410835 -0.13933747 0.0067597032
-0.085268058 -0.13923518 0.0079024136
-0.083483301 -0.13806854 0.0081371367
-0.081251606 -0.13612282 0.0082776546
-0.082108624 -0.13936858 0.0092475116
-0.080211625 -0.137964 0.0096656084
-0.079882644 -0.13925487 0.0097528398
-0.078554243 -0.13881503 0.010163665
-0.076915473 -0.13780688 0.010329545
-0.076382376 -0.13877925 0.010689646
-0.074992307 -0.1382001 0.010782123
-0.07378874 -0.13795286 0.011108041
-0.072440751 -0.13742436 0.011126608
-0.07245025 -0.13949376 0.011214405
-0.070861235 -0.13850151 0.011412889
-0.069344141 -0.13762146 0.011665076
-0.067952886 -0.13696752 0.011848271
-0.067279041 -0.13776185 0.011815429
-0.066771567 -0.13892794 0.011959821
-0.065624766 -0.13878025 0.011742294
-0.063069969 -0.13560043 0.011880398
-0.06361489 -0.13909018 0.011967152
-0.062722094 -0.13950258 0.011973619
-0.060287017 -0.13643904 0.012015283
-0.060342018 -0.13900214 0.011997133
-0.05909878 -0.13861351 0.011992484
-0.057660382 -0.13774425 0.012224048
-0.05715156 -0.13910474 0.011984855
-0.055826422 -0.13849247 0.011969954
-0.054657914 -0.13825238 0.011607319
-0.053947698 -0.13918507 0.011639476
-0.053026006 -0.13959907 0.011481136
-0.051589757 -0.13864747 0.011074185
-0.050342862 -0.13817509 0.010878652
-0.048784576 -0.13680892 0.010025024
-0.048381116 -0.13869254 0.0096449256
-0.048060492 -0.14090462 0.0087613165
-0.046023171 -0.13806953 0.0080288053
-0.045762394 -0.14055592 0.0079509616
-0.044380218 -0.13963532 0.007271111
-0.042997707 -0.1386676 0.0069328547
-0.042831454 -0.14167327 0.0061838627
-0.041238226 -0.13999292 0.005409956
-0.089893632 -0.14032176 0.0053857863
-0.088162199 -0.13931805 0.006090492
-0.086842827 -0.13894852 0.0072702169
-0.086147539 -0.13958083 0.0081322193
-0.085474193 -0.14026535 0.0084433556
-0.083122648 -0.1381779 0.0088004768
-0.082061499 -0.13820884 0.009337157
-0.080801718 -0.1379016 0.0098670721
-0.078661494 -0.13606311 0.010011137
-0.078598686 -0.13781686 0.010399103
-0.077461578 -0.13770947 0.010607511
-0.076054879 -0.13711302 0.010890722
-0.075133465 -0.1373869 0.011011928
-0.073887363 -0.13706641 0.011437356
-0.073908076 -0.13912109 0.011558384
-0.072751291 -0.13898754 0.011648923
-0.071103327 -0.13789736 0.011884212
-0.069662727 -0.13718198 0.011887729
-0.068635553 -0.13727111 0.011914939
-0.067580692 -0.13730681 0.011858493
-0.066503003 -0.13729651 0.012092918
-0.065320894 -0.1370668 0.012125045
-0.063378297 -0.13520703 0.012144208
-0.063651241 -0.13809082 0.012244582
-0.061834585 -0.13646252 0.012032717
-0.061310012 -0.13767862 0.01209265
-0.059976768 -0.13708976 0.012075007
-0.058778815 -0.13679433 0.011939228
-0.058025032 -0.13754082 0.011973679
-0.057265721 -0.13830212 0.011946648
-0.05515191 -0.13575855 0.012027234
-0.054695349 -0.13727461 0.011785984
-0.05425356 -0.13888912 0.01165536
-0.05233793 -0.1367195 0.01151374
-0.051906176 -0.13841647 0.011452436
-0.050435808 -0.13735709 0.011152625
-0.049106713 -0.13664477 0.010500669
-0.048821881 -0.13887113 0.010186225
-0.047637444 -0.13858165 0.0094836056
-0.045986064 -0.13688876 0.0087223947
-0.045413062 -0.13840172 0.0084480643
-0.044145871 -0.13782126 0.0079020858
-0.043546483 -0.13934875 0.0072657168
-0.042502407 -0.13949509 0.0064136684
-0.04089025 -0.13773558 0.0059436262
-0.04031897 -0.13948184 0.0050941706
-0.091103971 -0.13940005 0.0052837729
-0.089488424 -0.13859794 0.0057992041
-0.088296436 -0.13844009 0.0065034628
-0.086507559 -0.13733076 0.0076828599
-0.0850031 -0.13665056 0.0081178546
-0.084795937 -0.13806517 0.0088602304
-0.083227687 -0.13727163 0.0094052255
-0.081822418 -0.13672957 0.010106951
-0.081128247 -0.13737717 0.0099828839
-0.079590715 -0.13659488 0.010622442
-0.077953331 -0.13561745 0.010870576
-0.07744588 -0.13660593 0.010983765
-0.076060079 -0.13605113 0.011386752
-0.075089343 -0.13623352 0.01153186
-0.07398162 -0.13616908 0.01151666
-0.072874472 -0.13610379 0.011591703
-0.071795493 -0.13608997 0.011887074
-0.071578205 -0.13773382 0.01206401
-0.070294887 -0.13734539 0.011928022
-0.069118865 -0.13715775 0.011933893
-0.06819392 -0.13747028 0.011641115
-0.066248395 -0.13570236 0.01197812
-0.06530752 -0.13596812 0.012055606
-0.064740658 -0.13703439 0.012055606
-0.062987909 -0.13558413 0.012273341
-0.0613872 -0.1344168 0.012132615
-0.06106222 -0.13605091 0.012198687
-0.060281884 -0.1367107 0.012138754
-0.059029806 -0.1363052 0.012500882
-0.058179215 -0.13682888 0.012700617
-0.056966294 -0.13650414 0.012238026
-0.055693537 -0.13602075 0.012500882
-0.054741558 -0.13631721 0.012185007
-0.053542182 -0.13599713 0.011916429
-0.052808393 -0.13687073 0.011821359
-0.051129047 -0.13527894 0.011660099
-0.0507094 -0.13702327 0.011294484
-0.049257319 -0.13599303 0.01070708
-0.048564557 -0.13705997 0.010200411
-0.04738573 -0.13677244 0.0093083382
-0.046162687 -0.13634096 0.0088736117
-0.045897059 -0.13878396 0.0083709657
-0.04455274 -0.13800482 0.0078722537
-0.043319937 -0.1375408 0.0074504912
-0.042758033 -0.1392377 0.0067131817
-0.041436706 -0.13848583 0.0062717199
-0.040364001 -0.13854671 0.0055330694
-0.039142679 -0.13808668 0.0053128898
-0.08993689 -0.1365307 0.0051553547
-0.089729384 -0.13787685 0.0059189498
-0.088809274 -0.13814776 0.0064591765
-0.086073205 -0.1355653 0.0076791644
-0.085734427 -0.13674098 0.0085783303
-0.084303796 -0.13618307 0.0095639527
-0.082944416 -0.13572723 0.010103583
-0.082197361 -0.13627458 0.010562003
-0.080869749 -0.13586119 0.010808736
-0.078371651 -0.13344362 0.011286199
-0.079119086 -0.13656171 0.011516213
-0.077349417 -0.13536148 0.011632979
-0.076285884 -0.13538058 0.01173088
-0.075229868 -0.13541375 0.011893123
-0.074712366 -0.13643128 0.012089819
-0.073119052 -0.13548531 0.012282997
-0.071835563 -0.13509375 0.012377292
-0.071540445 -0.13657722 0.01252827
-0.069917008 -0.13553143 0.012408584
-0.068690084 -0.1352336 0.012422204
-0.067530498 -0.135061 0.012196749
-0.066552266 -0.13525139 0.012245417
-0.065585099 -0.13547085 0.01266852
-0.064115159 -0.13464183 0.012654305
-0.063458405 -0.13552135 0.01274541
-0.062633574 -0.13606603 0.012936264
-0.060409974 -0.13353783 0.012782514
-0.060385216 -0.13586673 0.012767404
-0.059332721 -0.13592586 0.013047159
-0.057710886 -0.13465874 0.013066947
-0.057399437 -0.13645904 0.013201356
-0.055826403 -0.13527167 0.013234943
-0.055092219 -0.13611019 0.013231277
-0.054030988 -0.13615809 0.012825906
-0.053322542 -0.13711511 0.012544602
-0.051388144 -0.13489388 0.012159884
-0.050935671 -0.13655095 0.011758596
-0.049184341 -0.13472232 0.011540502
-0.048832003 -0.13672961 0.010904521
-0.047748961 -0.13673566 0.010015547
-0.046456505 -0.13612837 0.0094776154
-0.045487147 -0.13646145 0.0086306334
-0.044838179 -0.13779537 0.0081573129
-0.043259043 -0.13626599 0.0074317455
-0.042488307 -0.13726991 0.0071899891
-0.041471459 -0.13751063 0.0063958466
-0.040274847 -0.13715218 0.0060985684
-0.03943425 -0.13801987 0.0056410134
-0.090645701 -0.13651462 0.0051094294
-0.089831024 -0.13693753 0.0062709451
-0.089483254 -0.13809144 0.0068751574
-0.08775454 -0.13711648 0.0079065859
-0.086049624 -0.13615447 0.0089527965
-0.083847269 -0.13437063 0.01008305
-0.083603673 -0.13572025 0.010634303
-0.081761114 -0.13447551 0.011178792
-0.081028536 -0.13504757 0.011414021
-0.079383284 -0.13409339 0.011651427
-0.078523919 -0.13445877 0.01198563
-0.076495379 -0.13280447 0.011859983
-0.076699242 -0.13503388 0.012262821
-0.074654058 -0.13331081 0.012033612
-0.073921658 -0.13391605 0.012147725
-0.072939374 -0.13407972 0.012296706
-0.072399758 -0.13507417 0.012558609
-0.070577338 -0.1336692 0.01243329
-0.070541494 -0.13565673 0.012249082
-0.067532629 -0.13189967 0.012555748
-0.067716479 -0.13435809 0.012470394
-0.066910915 -0.13490103 0.012352258
-0.065481149 -0.13418268 0.012690455
-0.064635858 -0.13465804 0.012624949
-0.06398128 -0.13555355 0.012920171
-0.062414926 -0.13451493 0.01287353
-0.061234914 -0.13428709 0.012942284
-0.059955541 -0.13382933 0.012937784
-0.059372265 -0.13493696 0.01327154
-0.058445547 -0.13529062 0.013450384
-0.05663516 -0.13357349 0.013172001
-0.055248376 -0.1328086 0.01327154
-0.055020336 -0.13485377 0.013258308
-0.05408188 -0.13520469 0.013001442
-0.052296061 -0.13340832 0.012628704
-0.051985569 -0.13537909 0.012500316
-0.051081117 -0.13585404 0.011999905
-0.048871096 -0.13280189 0.011196464
-0.048211042 -0.13391957 0.011061698
-0.046904199 -0.13325056 0.010370016
-0.046288695 -0.13456017 0.0098801553
-0.045348182 -0.13496482 0.0088438988
-0.044113882 -0.13449354 0.0084549487
-0.043774828 -0.13679634 0.007609129
-0.042301428 -0.13558149 0.0072053075
-0.041393179 -0.13616177 0.006614536
-0.040616151 -0.13721673 0.0060888529
-0.039437141 -0.13693452 0.0051507056
-0.089917876 -0.13597338 0.0060163438
-0.088469468 -0.13543473 0.0073209405
-0.087122634 -0.13504009 0.0081251562
-0.085781462 -0.13464431 0.009111315
-0.084903173 -0.13497427 0.010061026
-0.083811581 -0.13496929 0.01089263
-0.082171164 -0.13406874 0.011088103
-0.081182636 -0.13422196 0.011545599
-0.079800196 -0.13371925 0.011915892
-0.079814591 -0.13557547 0.012227625
-0.077789627 -0.13397102 0.01225087
-0.075960465 -0.13266335 0.012276858
-0.074740142 -0.13239682 0.012511283
-0.074315287 -0.1335521 0.012434244
-0.07391993 -0.13479517 0.012399405
-0.072151333 -0.13353381 0.012910903
-0.070495471 -0.13244604 0.012949616
-0.069867618 -0.13328591 0.012805462
-0.068380959 -0.1324881 0.012790591
-0.068084329 -0.13400725 0.012630314
-0.066234358 -0.13246872 0.012680888
-0.065815963 -0.13378984 0.012870461
-0.064554498 -0.13341263 0.012953848
-0.062716685 -0.13181134 0.013170272
-0.062737145 -0.13412769 0.0131028
-0.061578583 -0.13396043 0.013236523
-0.05981645 -0.13245071 0.013133496
-0.059265137 -0.13361594 0.013469845
-0.058046516 -0.133292 0.013701379
-0.056346543 -0.13182965 0.013674796
-0.056307077 -0.13427073 0.013701379
-0.055207789 -0.1342307 0.013406157
-0.053383231 -0.13239041 0.013522476
-0.052531168 -0.13293602 0.012616962
-0.051106859 -0.13202606 0.012338012
-0.050710954 -0.13379061 0.01171869
-0.049997523 -0.13477594 0.011528641
-0.048176404 -0.13275276 0.01096946
-0.047470648 -0.13378093 0.010448486
-0.046745669 -0.13480146 0.00956738
-0.045662574 -0.13481332 0.0090721846
-0.044505998 -0.13460352 0.008325547
-0.04322898 -0.13400984 0.007948041
-0.042630751 -0.13554393 0.0072182119
-0.041614886 -0.13579594 0.0066877604
-0.040588148 -0.13602515 0.0059201121
-0.039140213 -0.13481629 0.0052987039
-0.088967517 -0.13345128 0.0058052838
-0.08899115 -0.13513471 0.0070615113
-0.086897433 -0.13360479 0.0081118643
-0.086878642 -0.13526675 0.0086456239
-0.08409334 -0.13260873 0.0098937452
-0.082663924 -0.13204756 0.011094362
-0.081323162 -0.13161512 0.011433899
-0.081111811 -0.13302338 0.0121741
-0.079795368 -0.13263285 0.012157708
-0.078287274 -0.1319087 0.012577504
-0.077670716 -0.13268748 0.012559175
-0.076122642 -0.13187443 0.012736708
-0.074780583 -0.13140017 0.012769789
-0.074400179 -0.1326264 0.012606919
-0.072654359 -0.13141891 0.012454063
-0.072182536 -0.13251421 0.012825906
-0.071051098 -0.1324134 0.013076365
-0.069851875 -0.13218124 0.012779355
-0.068497397 -0.13164343 0.012825906
-0.067630619 -0.13204074 0.012966633
-0.066724204 -0.13237222 0.012984872
-0.065826558 -0.13273223 0.013291419
-0.063983589 -0.13116635 0.013361484
-0.063430741 -0.13223696 0.013521761
-0.062562205 -0.13267502 0.013563484
-0.060992006 -0.13161433 0.01393804
-0.060177062 -0.13217461 0.013833761
-0.058985092 -0.13191211 0.013755381
-0.058241252 -0.13266063 0.013790637
-0.05695793 -0.13218538 0.013762057
-0.055986784 -0.13243029 0.013502777
-0.054890539 -0.13238306 0.013493747
-0.053744365 -0.13221113 0.013397366
-0.0527604 -0.13243937 0.013213724
-0.051658619 -0.13237521 0.013124019
-0.050540853 -0.13226649 0.01235643
-0.049855743 -0.13330993 0.012200505
-0.048907902 -0.1336816 0.011846781
-0.047530688 -0.13286987 0.011169136
-0.046636034 -0.13340075 0.010244548
-0.045141395 -0.13219981 0.0096623003
-0.044342931 -0.13302879 0.0089020133
-0.043625936 -0.13414975 0.0085356534
-0.042545259 -0.1341812 0.0078307688
-0.041407365 -0.13402909 0.0069339573
-0.040401477 -0.13430762 0.0059959292
-0.03962639 -0.13539016 0.0054743588
-0.090868302 -0.1351943 0.0054855347
-0.088060595 -0.13263448 0.0075420141
-0.087496884 -0.13343275 0.0087416172
-0.086183421 -0.13309339 0.0092300475
-0.084700949 -0.13248098 0.010369688
-0.083150871 -0.13174553 0.011425674
-0.08238855 -0.1322553 0.011933923
-0.081714638 -0.13292247 0.011983961
-0.079424754 -0.13094351 0.012447149
-0.079033069 -0.13208266 0.012524605
-0.077377617 -0.13111208 0.012778342
-0.076497644 -0.13144666 0.012905449
-0.075616039 -0.13178796 0.012861669
-0.074541621 -0.13179822 0.012887239
-0.073430575 -0.13174309 0.012887239
-0.072015889 -0.13113341 0.01303792
-0.07057941 -0.13046497 0.01308012
-0.070203833 -0.1317672 0.01308012
-0.06891571 -0.13137056 0.013100773
-0.068035215 -0.13175073 0.01307261
-0.067005448 -0.13184944 0.013224125
-0.065152079 -0.13030416 0.013369173
-0.064677656 -0.13151124 0.013305277
-0.063646346 -0.1316077 0.013284594
-0.062078025 -0.13057792 0.013500303
-0.061277885 -0.13115618 0.013480455
-0.060060464 -0.13084601 0.013179451
-0.058811884 -0.13045545 0.013612181
-0.05848062 -0.13212289 0.013767719
-0.056841221 -0.13084206 0.01371637
-0.055511795 -0.1302392 0.013616592
-0.054841701 -0.13118994 0.013686329
-0.053503752 -0.13054915 0.013641685
-0.052440304 -0.13056566 0.013154209
-0.051817663 -0.13170323 0.01316461
-0.051036879 -0.13247871 0.013021618
-0.049708076 -0.13183446 0.012490332
-0.049420752 -0.13398515 0.012027621
-0.047313519 -0.13118748 0.011391133
-0.046612874 -0.13225047 0.010665536
-0.045420542 -0.13193586 0.010103881
-0.044574212 -0.13263546 0.0092492402
-0.043516524 -0.1327254 0.0087367296
-0.042385232 -0.1325897 0.0076358616
-0.041434452 -0.13302639 0.0065446198
-0.04055557 -0.13372378 0.0060922205
-0.039519455 -0.13392705 0.0053039789
-0.090440176 -0.13345441 0.0054576099
-0.088819012 -0.13268025 0.0073457658
-0.087204985 -0.13189754 0.0086698234
-0.085459247 -0.13089328 0.0095574856
-0.084305964 -0.13078234 0.010388553
-0.082263149 -0.12927066 0.011335909
-0.08209262 -0.1307001 0.012180984
-0.079875335 -0.12886554 0.012148291
-0.07935793 -0.12976094 0.011972338
-0.077996902 -0.12928253 0.012711555
-0.077511795 -0.13026287 0.012863636
-0.075965434 -0.12946223 0.012884617
-0.074753121 -0.1292161 0.012954533
-0.073698841 -0.12923999 0.012837589
-0.072587639 -0.12916331 0.012837589
-0.072180584 -0.13035598 0.012952626
-0.070145808 -0.12860064 0.012984186
-0.069834523 -0.12999965 0.013258398
-0.068083309 -0.12872 0.013322443
-0.067371897 -0.12939683 0.013376743
-0.06570407 -0.1282289 0.013339192
-0.064458549 -0.1278604 0.013357222
-0.063821726 -0.12870714 0.013153642
-0.062975407 -0.12915295 0.013136834
-0.062306833 -0.12998495 0.012974143
-0.06056169 -0.12856078 0.013048172
-0.059406281 -0.12836 0.013001382
-0.057937816 -0.12746319 0.013252497
-0.057491362 -0.12882324 0.013453245
-0.056601584 -0.12922248 0.013166577
-0.055177834 -0.12839457 0.012884885
-0.054450754 -0.12918708 0.012919456
-0.053179555 -0.12869452 0.013133496
-0.052410349 -0.12942147 0.012771159
-0.051081993 -0.12876919 0.012939006
-0.051315445 -0.13210997 0.012742192
-0.049497157 -0.13019904 0.012371421
-0.048468947 -0.13032761 0.012198299
-0.047467124 -0.13053459 0.011129409
-0.046783648 -0.13164701 0.010588497
-0.045312695 -0.13054372 0.010010272
-0.044617742 -0.13167675 0.0095709264
-0.04351382 -0.1316293 0.0091075003
-0.042410418 -0.13158104 0.0076118112
-0.041949745 -0.13357683 0.0067425668
-0.040828504 -0.13352025 0.0059111118
-0.03958793 -0.13305944 0.0053457618
-0.09030918 -0.13215977 0.0052958727
-0.089677408 -0.13285542 0.0067172348
-0.087057844 -0.13058676 0.0085051656
-0.084441774 -0.12826599 0.0092965662
-0.083616957 -0.12864147 0.0096691549
-0.082889698 -0.12917875 0.011102468
-0.080536164 -0.12716237 0.011984318
-0.080613963 -0.12898234 0.01270327
-0.079551816 -0.12900294 0.012507051
-0.078686528 -0.12934771 0.012521535
-0.077959381 -0.1299323 0.012571603
-0.076540612 -0.12936442 0.01274386
-0.076166026 -0.13057032 0.012736082
-0.076105043 -0.1323566 0.013305902
-0.073732704 -0.13011654 0.012856513
-0.072847068 -0.13047236 0.012919664
-0.072177298 -0.13123144 0.013228804
-0.070477709 -0.13011271 0.013228804
-0.069393225 -0.13011229 0.013501018
-0.067783453 -0.12911133 0.013668209
-0.06743934 -0.13052775 0.014004081
-0.067277387 -0.13234895 0.013678223
-0.065009013 -0.13001803 0.013641059
-0.063954897 -0.13007776 0.013500452
-0.06472943 -0.13392295 0.013608396
-0.062554859 -0.13169444 0.013600975
-0.061504424 -0.1317952 0.013677418
-0.060523689 -0.13205169 0.013687223
-0.059311144 -0.13180254 0.013867885
-0.058322325 -0.13205056 0.013342768
-0.057165645 -0.13192073 0.01292938
-0.055968411 -0.13169038 0.013340265
-0.055142589 -0.13234222 0.013797432
-0.054323196 -0.13303639 0.013569027
-0.052827958 -0.1320699 0.013569027
-0.050756469 -0.12959099 0.013439208
-0.049416937 -0.12891375 0.013195127
-0.048377112 -0.12900563 0.012776226
-0.047583979 -0.12977448 0.011823773
-0.046228178 -0.12900886 0.010915428
-0.045684103 -0.13052601 0.010302752
-0.044475686 -0.13017273 0.0097857714
-0.043422792 -0.13026838 0.0090663731
-0.042621091 -0.13114181 0.0075869262
-0.041723274 -0.13175771 0.006587714
-0.04075335 -0.13217303 0.005987078
-0.039551184 -0.13183728 0.005538702
-0.03846902 -0.13189378 0.0050788224
-0.088421203 -0.12990275 0.0065731108
-0.088417523 -0.13152106 0.0082806349
-0.087561317 -0.13189615 0.0093992352
-0.085067049 -0.12978178 0.0097924769
-0.083910137 -0.12967929 0.010939628
-0.082128711 -0.12859628 0.012157679
-0.081286646 -0.12897481 0.01246804
-0.080864802 -0.13003935 0.012571067
-0.078581132 -0.12809801 0.012741625
-0.078042172 -0.12898637 0.013111562
-0.077442281 -0.12979762 0.01322943
-0.076973155 -0.13085435 0.013035297
-0.07401602 -0.12765081 0.01320979
-0.07458552 -0.13052467 0.013191164
-0.071710326 -0.12736611 0.013222307
-0.071836777 -0.12952389 0.013312846
-0.070740961 -0.12951037 0.013312846
-0.06910412 -0.12849048 0.013780147
-0.068604685 -0.12958662 0.014122814
-0.066473521 -0.12758628 0.014376193
-0.064923398 -0.12665384 0.013860375
-0.063601293 -0.12614256 0.013860375
-0.063715883 -0.1285117 0.01385805
-0.062513284 -0.12826002 0.01411742
-0.062263388 -0.12998848 0.013854951
-0.061400533 -0.13047613 0.013854951
-0.058833785 -0.12729491 0.014500976
-0.0579428 -0.12768877 0.014573455
-0.058613844 -0.13160467 0.013790965
-0.056337815 -0.12892692 0.013851762
-0.05542564 -0.12932649 0.013951421
-0.053464487 -0.12724549 0.014204532
-0.0527016 -0.12798959 0.014117122
-0.053366173 -0.13230364 0.014026582
-0.050853036 -0.12875555 0.013885021
-0.050025426 -0.1294136 0.013726324
-0.048988607 -0.12954766 0.013315022
-0.047760863 -0.12917143 0.012401044
-0.046682354 -0.1291907 0.011848807
-0.045213372 -0.12810455 0.011137903
-0.044599228 -0.12944654 0.010412753
-0.043464787 -0.12930775 0.009701699
-0.042601805 -0.12999013 0.0079110861
-0.041722678 -0.13065787 0.0066664815
-0.04054343 -0.13039643 0.005912751
-0.040185615 -0.13283578 0.0055654943
-0.091452122 -0.13322654 0.0070748329
-0.087466434 -0.12901299 0.008872509
-0.086389735 -0.12903783 0.010223776
-0.083789945 -0.12675914 0.011333138
-0.083328053 -0.12769754 0.012093604
-0.08062806 -0.12518567 0.013076961
-0.08184471 -0.12876901 0.013525635
-0.080971524 -0.12911674 0.013440609
-0.078698814 -0.12721178 0.013331443
-0.077505082 -0.12702222 0.013605356
-0.076456368 -0.12706833 0.013731122
-0.074886218 -0.12623677 0.013773769
-0.075255208 -0.12869731 0.013789892
-0.073315196 -0.12722342 0.014169276
-0.073266663 -0.12903681 0.014142841
-0.070848271 -0.12666811 0.014234513
-0.070881121 -0.1286765 0.014214754
-0.069098145 -0.12739971 0.014675617
-0.069694586 -0.13053907 0.015032768
-0.067362621 -0.12820628 0.015508115
-0.066545643 -0.12872764 0.015355945
-0.065200962 -0.12822856 0.015698016
-0.063238651 -0.1264773 0.015087813
-0.064356752 -0.1309327 0.015421599
-0.062761851 -0.12992804 0.01479724
-0.060877837 -0.1282783 0.01502952
-0.059539601 -0.1277395 0.015081286
-0.058652122 -0.12816575 0.015349776
-0.057382897 -0.12775815 0.014596701
-0.056719027 -0.12870856 0.014630765
-0.054757867 -0.12669468 0.014625311
-0.053813126 -0.12699898 0.014778674
-0.053459872 -0.1287401 0.014615506
-0.053151399 -0.13066386 0.014659673
-0.050879542 -0.12774013 0.014570951
-0.049550876 -0.12710877 0.014570951
-0.047940712 -0.1257112 0.014095485
-0.047317147 -0.12689598 0.013519377
-0.046310041 -0.12708338 0.012626439
-0.044416882 -0.12479029 0.011966944
-0.044034142 -0.12673241 0.011116296
-0.043366008 -0.12792972 0.010151416
-0.042628724 -0.12897921 0.0087684095
-0.041807894 -0.12982452 0.0067487061
-0.04065726 -0.12966369 0.0062967539
-0.039818145 -0.13051502 0.005851686
-0.092064016 -0.13298136 0.0073870122
-0.085451722 -0.12497315 0.010013133
-0.085764557 -0.12701839 0.010629505
-0.083974473 -0.12596171 0.011902958
-0.083497003 -0.12687208 0.012953162
-0.080691293 -0.12422211 0.01357156
-0.081029288 -0.12640569 0.013945669
-0.079704627 -0.12601948 0.013735831
-0.081169598 -0.13009374 0.013864189
-0.078962348 -0.12831382 0.01399827
-0.076721363 -0.12642816 0.0140751
-0.076287478 -0.12750907 0.014125377
-0.075440079 -0.12792014 0.014194041
-0.074954912 -0.12896654 0.014397591
-0.07362061 -0.12856136 0.014416218
-0.071266703 -0.12633643 0.014581531
-0.070167795 -0.12630203 0.014533788
-0.069345422 -0.12677209 0.014716446
-0.067526914 -0.12540713 0.015160769
-0.067907177 -0.12814742 0.015500516
-0.065918624 -0.12643407 0.015421599
-0.063769974 -0.12435144 0.015500516
-0.063659154 -0.12623934 0.015442461
-0.063275687 -0.12764233 0.015582234
-0.061820537 -0.12689479 0.015168935
-0.060829341 -0.12708987 0.01538074
-0.060493764 -0.12868673 0.015100092
-0.059406634 -0.12871437 0.015225738
-0.057755403 -0.12749778 0.014687032
-0.056297254 -0.12666883 0.014571577
-0.05559206 -0.12753472 0.014630765
-0.054242007 -0.12692629 0.014931291
-0.053915597 -0.12873724 0.014778674
-0.052134048 -0.12707675 0.015000671
-0.049935699 -0.12430801 0.014924049
-0.048971608 -0.12455822 0.015054196
-0.051299796 -0.13337946 0.014561027
-0.051464416 -0.13684857 0.014016271
-0.050932564 -0.13858396 0.013367414
-0.048152197 -0.13413827 0.012475699
-0.047862493 -0.13658321 0.011323929
-0.046348862 -0.13557042 0.010801315
-0.04679079 -0.14037237 0.0079952478
-0.041992627 -0.12929308 0.0067268908
-0.040640783 -0.12851276 0.0059145391
-0.099390559 -0.14060128 0.005027324
-0.088611804 -0.12690085 0.0079805255
-0.085532002 -0.1240214 0.010565788
-0.087837532 -0.12897663 0.011749595
-0.084470756 -0.12562317 0.013081551
-0.083321184 -0.12552282 0.013990492
-0.082101204 -0.12531236 0.014535397
-0.079974085 -0.12369325 0.014840066
-0.081127167 -0.12717232 0.014453858
-0.07952287 -0.12636511 0.014371812
-0.078296892 -0.12614499 0.014357775
-0.076546215 -0.12506142 0.014685243
-0.075805083 -0.12561986 0.013860732
-0.075543195 -0.12700015 0.014051765
-0.073638566 -0.12561873 0.014175057
-0.073305182 -0.12691642 0.014229238
-0.071290933 -0.12529922 0.01486975
-0.070710756 -0.12619151 0.014692605
-0.068891861 -0.12486649 0.015087515
-0.068467356 -0.12606688 0.015557021
-0.066975802 -0.12530957 0.016050905
-0.065453276 -0.12446853 0.015815526
-0.065889597 -0.12738656 0.016495764
-0.063226216 -0.12430916 0.01615876
-0.062310223 -0.12462045 0.015977412
-0.062169757 -0.12652092 0.01576069
-0.06146837 -0.12732734 0.015539885
-0.060586471 -0.12778237 0.015442759
-0.059122518 -0.12700392 0.015328884
-0.057542332 -0.12594171 0.014276594
-0.056829557 -0.12677363 0.014215529
-0.056141742 -0.12769495 0.014591664
-0.054751236 -0.12702288 0.015120834
-0.054540455 -0.12911618 0.015046507
-0.053596999 -0.12952608 0.015421867
-0.055057205 -0.13588586 0.015351802
-0.052148275 -0.13150434 0.015833229
-0.048509847 -0.12504761 0.015460879
-0.047585942 -0.12545384 0.015321612
-0.046524193 -0.12550713 0.014289469
-0.045724049 -0.12628548 0.013523251
-0.044424068 -0.12568761 0.012368888
-0.043713514 -0.12676919 0.011223972
-0.042865619 -0.12749775 0.0076327622
-0.043423861 -0.13255705 0.0068694651
-0.041008145 -0.12856607 0.0051891506
-0.088979155 -0.12632844 0.0085976422
-0.087164342 -0.12529875 0.011182904
-0.085552216 -0.12453803 0.012329787
-0.084567562 -0.12468295 0.01367268
-0.084328167 -0.12594467 0.014578998
-0.08344923 -0.12627186 0.015385598
-0.083793208 -0.12848291 0.01516822
-0.080552079 -0.12518229 0.014654696
-0.078403912 -0.12351302 0.014642358
-0.078943349 -0.12609008 0.014347345
-0.077213034 -0.12506336 0.014332116
-0.076541498 -0.12574674 0.01400888
-0.075062953 -0.12510492 0.014004707
-0.074451022 -0.12590981 0.014084369
-0.072085693 -0.12372918 0.014147073
-0.07230261 -0.12598182 0.014600724
-0.071053766 -0.12571052 0.014097452
-0.068460241 -0.12301449 0.015252709
-0.068878412 -0.12573044 0.015498728
-0.065668538 -0.12180454 0.015551478
-0.065243825 -0.12300065 0.01569736
-0.06522885 -0.12502196 0.01594761
-0.06346789 -0.12370861 0.01599744
-0.064303003 -0.12749733 0.016176671
-0.061372079 -0.12382086 0.015615165
-0.060907371 -0.12507764 0.015556782
-0.059960283 -0.1253715 0.014802456
-0.060226936 -0.12826107 0.014690369
-0.05775395 -0.12531517 0.014603257
-0.057436202 -0.12702237 0.014513582
-0.054723341 -0.12339576 0.014921218
-0.053987656 -0.12417161 0.015553981
-0.052943893 -0.12425608 0.015362412
-0.050952751 -0.1220743 0.015794039
-0.050157189 -0.12272504 0.016032159
-0.049276207 -0.12319051 0.01678431
-0.047850825 -0.12228544 0.016627282
-0.047670297 -0.12459282 0.01630041
-0.046378586 -0.12403575 0.015616834
-0.045917436 -0.12572631 0.014394403
-0.044004045 -0.12342598 0.012902081
-0.043313347 -0.12452587 0.011689365
-0.04262672 -0.12569417 0.0079714954
-0.043960478 -0.1330383 0.0071873665
-0.089775197 -0.12480941 0.0053328276
-0.090313248 -0.12710753 0.010029316
-0.086044319 -0.12261315 0.011931151
-0.087839834 -0.12675622 0.013004512
-0.086937562 -0.12706259 0.014214486
-0.082033195 -0.12145174 0.014988989
-0.082903221 -0.12435483 0.015808851
-0.081432775 -0.12377782 0.015469253
-0.080412582 -0.12387884 0.0150581
-0.079721928 -0.12449726 0.015008718
-0.078816272 -0.12479243 0.015008718
-0.07678546 -0.12328932 0.015012592
-0.076359868 -0.12435751 0.014590472
-0.075495519 -0.12473173 0.014506876
-0.07260564 -0.12172122 0.014486253
-0.072331332 -0.12307122 0.014440089
-0.070381239 -0.12156759 0.015164793
-0.068075456 -0.11939388 0.015295863
-0.069563068 -0.12390922 0.015698105
-0.066698834 -0.12069312 0.016439825
-0.065686397 -0.12077822 0.016830355
-0.067030422 -0.12526996 0.017025858
-0.064713061 -0.12295482 0.01720342
-0.062477112 -0.12071849 0.017267317
-0.061308626 -0.12050316 0.017238379
-0.058941986 -0.11788397 0.017175108
-0.06036216 -0.12288011 0.01678589
-0.058813594 -0.12190454 0.016363472
-0.057281502 -0.12092762 0.016355813
-0.055920333 -0.12028147 0.016091675
-0.054331865 -0.11911217 0.016091675
-0.054459345 -0.12173265 0.016306579
-0.056112312 -0.12793607 0.016382873
-0.053588681 -0.12467571 0.016306579
-0.05053807 -0.12002791 0.016760588
-0.050705753 -0.12298843 0.01699841
-0.048758201 -0.12083554 0.01767078
-0.048550587 -0.12299483 0.017664701
-0.046689574 -0.12096844 0.017184377
-0.045591597 -0.12087074 0.016349584
-0.045614745 -0.12381145 0.015115649
-0.043221399 -0.12017658 0.01359722
-0.042339746 -0.12066828 0.012440294
-0.042117346 -0.12311225 0.0087213516
-0.042870779 -0.12861234 0.0058659613
-0.086756587 -0.1195548 0.0068539679
-0.085539058 -0.11933227 0.011027783
-0.084852219 -0.11985376 0.012601346
-0.084146701 -0.12036174 0.014362514
-0.082609542 -0.11967792 0.015146643
-0.08143305 -0.11950564 0.016146988
-0.080792308 -0.12012541 0.016624182
-0.079352997 -0.11955852 0.016513318
-0.078739621 -0.12023753 0.01593557
-0.076894425 -0.11902836 0.016106725
-0.076502725 -0.12006678 0.015840948
-0.075001948 -0.1193693 0.015840948
-0.073789984 -0.11911812 0.015487015
-0.075422049 -0.12351727 0.015240759
-0.073751435 -0.12255753 0.015025586
-0.071779698 -0.12106129 0.014853358
-0.070868939 -0.12133621 0.015612215
-0.069344707 -0.1205531 0.015675366
-0.068224214 -0.12045838 0.016272008
-0.06755311 -0.12116669 0.016728789
-0.06625171 -0.12074908 0.017244071
-0.064685762 -0.11982773 0.017425716
-0.063708656 -0.11998464 0.017662138
-0.062931597 -0.12053002 0.017789364
-0.061300892 -0.11943105 0.017686039
-0.061046701 -0.1210224 0.017573684
-0.06012892 -0.12133157 0.017107368
-0.059035428 -0.12129097 0.016769111
-0.058308348 -0.12201562 0.016472697
-0.057038702 -0.12161082 0.016398966
-0.05645027 -0.12267078 0.016431242
-0.054722976 -0.12124895 0.016169757
-0.055371836 -0.12514035 0.016503483
-0.052036356 -0.12000221 0.01670137
-0.050903358 -0.11983498 0.016945243
-0.049341679 -0.11862999 0.0169788
-0.049199097 -0.12085865 0.017582864
-0.046884336 -0.11773178 0.017504811
-0.045844164 -0.11773615 0.017300248
-0.045355126 -0.11918905 0.016696721
-0.044279046 -0.11913172 0.015240103
-0.043428835 -0.1196941 0.013604194
-0.042372707 -0.1197029 0.0091108978
-0.042820539 -0.12406977 0.006929785
-0.042626403 -0.12675746 0.0055053234
-0.088293344 -0.12059578 0.0072974563
-0.085966073 -0.11886667 0.01152274
-0.085764222 -0.12006991 0.013725191
-0.085513264 -0.121234 0.015238464
-0.083292678 -0.11959974 0.015936762
-0.082366481 -0.11980579 0.016851395
-0.082489811 -0.12156393 0.017613441
-0.081666119 -0.12195474 0.01759693
-0.077208951 -0.1168568 0.016881198
-0.07726343 -0.11854116 0.016802043
-0.077888228 -0.12115946 0.016536266
-0.075558543 -0.11919095 0.016611338
-0.074131928 -0.11861109 0.016537905
-0.0750174 -0.12176737 0.016607255
-0.072861239 -0.12000675 0.01642251
-0.072825968 -0.12173893 0.016542107
-0.071982175 -0.12215157 0.016588777
-0.069929026 -0.1204931 0.016997665
-0.068799756 -0.12039957 0.018105805
-0.068224661 -0.12128828 0.018280745
-0.067405634 -0.12176502 0.018715292
-0.065538913 -0.12033375 0.019026011
-0.063461736 -0.11846191 0.018573672
-0.063971289 -0.12143702 0.019100845
-0.060831066 -0.11746689 0.019568175
-0.06046661 -0.11881159 0.019235015
-0.059748661 -0.11949732 0.018887907
-0.059208058 -0.12056913 0.018077791
-0.05825318 -0.12082142 0.017907709
-0.05656185 -0.11952692 0.017945707
-0.055737954 -0.12005098 0.017681569
-0.054619074 -0.11994777 0.016922027
-0.055517875 -0.12436004 0.016934454
-0.051305659 -0.11727007 0.017185718
-0.050782356 -0.11849216 0.017259449
-0.04858413 -0.11577494 0.016735435
-0.049722381 -0.1210632 0.017488122
-0.046920765 -0.11678057 0.017488122
-0.045609403 -0.11609667 0.016964108
-0.045813624 -0.11932851 0.015784353
-0.043230239 -0.11528064 0.014315158
-0.043234721 -0.1181046 0.01048094
-0.042274065 -0.11836738 0.0076422393
-0.043647576 -0.12534688 0.0055884421
-0.089579955 -0.12126067 0.0077905059
-0.087876156 -0.12042288 0.011756778
-0.085964911 -0.11927631 0.0136922
-0.086121611 -0.12100632 0.01543051
-0.084486403 -0.12023065 0.016036928
