ply
format ascii 1.0
comment PCL generated
element vertex 1333
property float x
property float y
property float z
element camera 0
property float view_px
property float view_py
property float view_pz
property float x_axisx
property float x_axisy
property float x_axisz
property float y_axisx
property float y_axisy
property float y_axisz
property float z_axisx
property float z_axisy
property float z_axisz
property float focal
property float scalex
property float scaley
property float centerx
property float centery
property int viewportx
property int viewporty
property float k1
property float k2
end_header
0.098709069 -0.14010319 0.010436714
0.099995516 -0.14041924 0.010536641
0.099669009 -0.13848747 0.010359913
0.10204715 -0.14031483 0.0099801421
0.10439489 -0.14206316 0.0096047521
0.10441077 -0.14063491 0.0089097917
0.10508046 -0.14010729 0.0082808137
0.10741638 -0.14178962 0.0081675053
0.10604586 -0.13859458 0.0074607134
0.1094409 -0.1416294 0.0070753992
0.10929293 -0.14006473 0.0067718029
0.11129675 -0.14126126 0.0060940683
0.11048197 -0.13889162 0.0057305992
0.1113589 -0.13867335 0.0054162443
0.069039889 -0.14131603 0.0051158965
0.069512226 -0.14009386 0.005458504
0.070399888 -0.13973311 0.0058547854
0.071431175 -0.13966395 0.0061199069
0.071930543 -0.13857208 0.006768018
0.072445646 -0.13754174 0.0075114667
0.074085578 -0.13864587 0.0078768134
0.075154968 -0.13866621 0.008408159
0.076945245 -0.1399976 0.0091119707
0.076955773 -0.13809872 0.0097486079
0.077769123 -0.13767238 0.010421693
0.078623988 -0.13732989 0.010826379
0.081397191 -0.14030306 0.011076689
0.081136115 -0.13803677 0.011437416
0.082996152 -0.13939098 0.01139164
0.082574122 -0.1369267 0.011634052
0.083964117 -0.13749124 0.011998713
0.08462961 -0.1368701 0.012353212
0.087508611 -0.13980034 0.012600929
0.087876238 -0.13869624 0.012672335
0.088085316 -0.13737115 0.012476712
0.088150777 -0.13585591 0.012584597
0.090205371 -0.13740586 0.01220122
0.090667941 -0.13652299 0.01229468
0.092662074 -0.13794012 0.012235641
0.094619483 -0.13927138 0.011683345
0.094447598 -0.13747372 0.011306554
0.095405795 -0.13734241 0.011065155
0.09762653 -0.13901168 0.010974824
0.099008165 -0.13946311 0.010628372
0.09934441 -0.13844806 0.010628581
0.099489316 -0.13719054 0.010643661
0.10155509 -0.13858038 0.010329247
0.10245058 -0.1383611 0.010002166
0.10545056 -0.14095943 0.0089270175
0.10438488 -0.13812543 0.0086150169
0.10610247 -0.13899423 0.0083129406
0.10702733 -0.13881762 0.0079350173
0.10907318 -0.14008419 0.0073024929
0.1090459 -0.13868944 0.0067848861
0.11117379 -0.14003621 0.0062730312
0.11172374 -0.13938867 0.0058152378
0.11135463 -0.13761751 0.0054423809
0.069926314 -0.14203782 0.0055460036
0.069208823 -0.13841765 0.0060026944
0.071692757 -0.141213 0.006521821
0.071736105 -0.13918945 0.0068545043
0.072890066 -0.13934866 0.0077216029
0.07330931 -0.138119 0.0081452727
0.074756466 -0.13883343 0.0089037418
0.07459496 -0.13658231 0.0094077885
0.076605745 -0.13831593 0.0098929107
0.077812523 -0.13857025 0.010376066
0.079048656 -0.13886926 0.011107445
0.078910708 -0.13677856 0.011683315
0.079332434 -0.13570021 0.011459798
0.081313357 -0.1372823 0.011595279
0.082309924 -0.1371832 0.011580586
0.082400076 -0.13559507 0.012044996
0.084974542 -0.13808362 0.012028694
0.084626183 -0.13581979 0.01240629
0.086114116 -0.13652238 0.01286599
0.086300492 -0.13516945 0.01304245
0.088439226 -0.13687024 0.012980998
0.087646686 -0.13404787 0.012989372
0.091408499 -0.13817564 0.012918681
0.090512119 -0.13524799 0.012542963
0.09335468 -0.13791032 0.012356758
0.093933418 -0.13720612 0.012232482
0.095212527 -0.13752921 0.011925548
0.0957084 -0.13672629 0.011674911
0.097420231 -0.13765901 0.011594653
0.099798009 -0.1395026 0.011481524
0.099188097 -0.13717502 0.011445403
0.09988147 -0.13667992 0.01141724
0.10162916 -0.13762282 0.011009961
0.10363148 -0.13888755 0.010579109
0.10403002 -0.137999 0.0097726882
0.10421469 -0.13684757 0.009296
0.10787285 -0.14023471 0.0089486241
0.10715164 -0.13791795 0.0084286332
0.10825111 -0.13796709 0.0080820024
0.10974886 -0.13851798 0.0074265599
0.11203959 -0.14004949 0.0064525604
0.11157444 -0.13813978 0.0064208806
0.11219225 -0.13759427 0.005888164
0.11479097 -0.13946566 0.0055457652
0.11498681 -0.13841006 0.0053839982
0.11637004 -0.13878997 0.0052445531
0.068320483 -0.13989432 0.0054024756
0.067410916 -0.13587514 0.0061133206
0.069409095 -0.13775036 0.00655514
0.070737131 -0.13825893 0.0072475672
0.071828425 -0.13829653 0.0075981915
0.072492652 -0.13752283 0.0082655847
0.074080326 -0.13849799 0.0086545944
0.073078483 -0.13467321 0.0092947781
0.074912526 -0.13610867 0.0099541843
0.076573581 -0.13719434 0.010281712
0.077779986 -0.13744684 0.010719776
0.079397187 -0.13840862 0.011267751
0.07952223 -0.13677824 0.012102515
0.081303596 -0.13800216 0.012082279
0.080747135 -0.13527766 0.012836665
0.08268974 -0.13675611 0.012443334
0.08373519 -0.13673215 0.01293236
0.085153691 -0.13731033 0.01254797
0.085218213 -0.13571788 0.013097644
0.086100802 -0.13545126 0.013570428
0.087279141 -0.13565072 0.013608277
0.089591362 -0.13758673 0.013416559
0.088815965 -0.13479128 0.013645619
0.089962304 -0.13494346 0.013382554
0.090892583 -0.13477176 0.012788594
0.092096366 -0.13500489 0.012542516
0.094902657 -0.13755554 0.012468308
0.095920168 -0.13748558 0.012101501
0.093282446 -0.13223556 0.012047946
0.096801788 -0.13573295 0.012046665
0.097349271 -0.13503286 0.011968434
0.099587314 -0.1366677 0.011710852
0.10018536 -0.13604118 0.011469662
0.10052332 -0.13507821 0.011216074
0.10096457 -0.13427247 0.010978729
0.10254507 -0.13498279 0.010396332
0.10601411 -0.13813961 0.0098269284
0.10436518 -0.1346311 0.0094229579
0.10683192 -0.13644868 0.0089738071
0.10959562 -0.13860624 0.0085164309
0.10935794 -0.13696286 0.0080487132
0.11225767 -0.13924269 0.0071947277
0.11100061 -0.13637218 0.0064763427
0.11318283 -0.13774136 0.0060459375
0.11336318 -0.1366715 0.0057795048
0.11579002 -0.13830474 0.0059421957
0.11669128 -0.13810252 0.0055682063
0.11754476 -0.13784795 0.005543828
0.11787741 -0.13699266 0.0051219165
0.067513943 -0.13717119 0.0053709745
0.068492465 -0.13698493 0.0061493218
0.069922686 -0.13769391 0.0070077777
0.070338897 -0.13641483 0.0076343417
0.071739323 -0.13705422 0.0078667104
0.07217034 -0.13585004 0.0084283948
0.07340923 -0.13617945 0.008980453
0.073621348 -0.13462189 0.0095908344
0.075267501 -0.13569354 0.010210007
0.076726779 -0.13640317 0.01088202
0.077156387 -0.13528791 0.011215419
0.079121172 -0.13685824 0.011577904
0.079360716 -0.13544229 0.012921721
0.080997959 -0.13641761 0.012950569
0.082158253 -0.13657476 0.01336956
0.081609331 -0.13392299 0.013416827
0.083537571 -0.13535202 0.013903141
0.084102832 -0.13456452 0.013534784
0.08519049 -0.13462201 0.014049202
0.086139686 -0.13446195 0.014307648
0.086310901 -0.13310598 0.014231235
0.087995097 -0.13408777 0.013974041
0.089435793 -0.13467979 0.01367715
0.090584137 -0.13482291 0.013604313
0.090715475 -0.13346644 0.013161182
0.092214532 -0.13413022 0.012892395
0.094173573 -0.13544065 0.013027012
0.095774747 -0.13621297 0.012635469
0.096090801 -0.13516068 0.012827337
0.097641535 -0.13584909 0.012826055
0.098861717 -0.13606773 0.012769282
0.099571735 -0.13558705 0.012302786
0.10073702 -0.13572988 0.012379587
0.10134728 -0.13512971 0.011973053
0.10288117 -0.13576072 0.011614919
0.10460547 -0.13662755 0.011085868
0.10445666 -0.13505508 0.011169344
0.105256 -0.13472767 0.010388732
0.10696095 -0.13555448 0.0099791884
0.11012748 -0.13819918 0.0094059706
0.10891251 -0.13534759 0.008441776
0.11218724 -0.1380766 0.0080043674
0.11112217 -0.13546321 0.0072917342
0.11405155 -0.13772263 0.0069783926
0.11406032 -0.136446 0.0063375533
0.11625135 -0.13777937 0.0065393448
0.11674877 -0.13709947 0.0060077906
0.11926644 -0.13878277 0.0058988333
0.11982383 -0.13817522 0.0055292547
0.068075195 -0.13723095 0.0051213205
0.068274945 -0.13548309 0.0067099333
0.068577491 -0.13398986 0.0072472095
0.071011387 -0.13664313 0.0077491105
0.070775144 -0.13415587 0.0079810321
0.072274946 -0.13498409 0.0086318552
0.073093794 -0.13453496 0.0090653598
0.073814899 -0.13392133 0.0094431043
0.074809641 -0.13381442 0.010217875
0.077221945 -0.13621093 0.011489302
0.076981328 -0.13392642 0.011792302
0.078640521 -0.13496414 0.012467206
0.079185426 -0.13408732 0.012916595
0.080713823 -0.13487704 0.013174742
0.082037367 -0.13530838 0.013647079
0.082841985 -0.13488375 0.01372093
0.083454825 -0.13416155 0.014267862
0.083579063 -0.13268177 0.014435202
0.084404767 -0.13233833 0.014510781
0.087715909 -0.13585268 0.014634281
0.086644985 -0.13257726 0.014595866
0.088867746 -0.13435957 0.01448065
0.087898716 -0.13133103 0.014571875
0.090208195 -0.13321443 0.013830721
0.091708951 -0.13387398 0.014109612
0.093721494 -0.13525715 0.013615131
0.094179064 -0.13439035 0.013734221
0.094177909 -0.1328955 0.013507992
0.095413499 -0.13315949 0.013098508
0.097379863 -0.13442655 0.013074368
0.098510936 -0.13452569 0.012795329
0.10001414 -0.13512549 0.012769282
0.10040095 -0.13422023 0.01268816
0.1021158 -0.13509069 0.012326062
0.1023584 -0.13401563 0.011915118
0.10315228 -0.13367693 0.011275917
0.10548286 -0.13531639 0.011441648
0.10465381 -0.13291033 0.010791957
0.10718886 -0.13478203 0.010099471
0.10614208 -0.1321573 0.0095539391
0.10963256 -0.135178 0.0085825026
0.10925137 -0.13341273 0.0079624653
0.11049182 -0.13364248 0.0074896216
0.11325749 -0.13569529 0.0071442723
0.11404205 -0.13535832 0.0067964196
0.11614009 -0.13657215 0.0067867637
0.11684961 -0.13614587 0.0063033104
0.11871687 -0.13706402 0.0062748492
0.11765437 -0.13461356 0.0058295131
0.069240414 -0.13631707 0.0068968534
0.069733314 -0.13517535 0.0078854561
0.070635408 -0.13484941 0.0083553493
0.070846222 -0.13323319 0.0086727738
0.072643191 -0.13460356 0.0095136464
0.072708681 -0.13277237 0.0099280775
0.075127035 -0.13522866 0.010621876
0.074955583 -0.13301978 0.011224806
0.076795653 -0.13439238 0.011910826
0.077761017 -0.13421765 0.012502134
0.07828483 -0.13329579 0.013013899
0.078873187 -0.13250695 0.013590068
0.08074522 -0.13386707 0.013590068
0.08148735 -0.13334294 0.013706535
0.082380846 -0.13307676 0.014023513
0.08323282 -0.13275108 0.01417309
0.084425695 -0.13297047 0.014612615
0.085739858 -0.13337311 0.014671981
0.086700223 -0.1332223 0.014654398
0.087570518 -0.13293837 0.014469534
0.088185832 -0.13227874 0.014589846
0.088840224 -0.13169257 0.014330298
0.091682702 -0.13432582 0.014152914
0.091500625 -0.13251814 0.014282405
0.09368059 -0.13413356 0.013783514
0.093966313 -0.13303095 0.013931841
0.096016377 -0.13442293 0.013739586
0.097382702 -0.13483758 0.013258606
0.096935473 -0.13275945 0.013502091
0.096726641 -0.13104901 0.01331082
0.10056567 -0.13480079 0.013377845
0.10067635 -0.13352863 0.013303667
0.10248895 -0.13451675 0.01268816
0.10252099 -0.1331716 0.012187183
0.10263453 -0.13195869 0.011553198
0.10271786 -0.13073182 0.01185298
0.10549816 -0.13292769 0.011060447
0.10774377 -0.13441302 0.010457456
0.1088192 -0.13442372 0.009860456
0.11104937 -0.13584681 0.0088256299
0.10971297 -0.13292149 0.0079049766
0.11209749 -0.13451698 0.0078158379
0.11445621 -0.13605173 0.0074677169
0.11397994 -0.13421936 0.0071129799
0.11457146 -0.13366669 0.0067575276
0.11648528 -0.13465272 0.0061856806
0.11853977 -0.13578191 0.0060512722
0.11912234 -0.13521996 0.0057559013
0.06853722 -0.13598654 0.0051361322
0.06920331 -0.13516273 0.0077520311
0.070055239 -0.13472162 0.0086022913
0.07093098 -0.13433897 0.0086514652
0.070171647 -0.13091725 0.0093132555
0.072655313 -0.13355756 0.010180146
0.073280483 -0.1327545 0.010772884
0.074028544 -0.13219383 0.011483461
0.075030327 -0.13209565 0.012210041
0.076110512 -0.1321363 0.012531519
0.077195182 -0.13218354 0.012899011
0.078523353 -0.13264079 0.013486922
0.079506174 -0.13251029 0.01374805
0.081663065 -0.13431425 0.013521552
0.081071734 -0.13160996 0.013706326
0.082745939 -0.13260567 0.013745338
0.083977036 -0.13287506 0.014386296
0.084481299 -0.13200204 0.014428228
0.086521327 -0.13352057 0.014867306
0.086114638 -0.13127232 0.01518482
0.087157466 -0.13126124 0.014950037
0.089774989 -0.13359372 0.015161991
0.089315593 -0.13134646 0.014969945
0.091090098 -0.1323984 0.014392018
0.092174731 -0.13243496 0.014852971
0.09295667 -0.13204072 0.014267087
0.093835808 -0.13179187 0.014699817
0.094364628 -0.13106199 0.014463842
0.096794367 -0.13295929 0.014023423
0.097036175 -0.13184263 0.013888359
0.098293513 -0.13211495 0.01383394
0.09841796 -0.13087495 0.013989896
0.10037747 -0.13207562 0.013888359
0.10247729 -0.13343397 0.013620138
0.10275637 -0.13241801 0.013206512
0.10242268 -0.13064116 0.012566954
0.10522947 -0.1328655 0.012556612
0.1051377 -0.13142212 0.011660486
0.10783661 -0.13346116 0.010930866
0.10812781 -0.13250957 0.010325909
0.11116232 -0.13490573 0.009263128
0.11174948 -0.13431428 0.0083480775
0.11270323 -0.13417052 0.0081684887
0.11421728 -0.13469018 0.0078074932
0.11594842 -0.13545376 0.0070515573
0.11543584 -0.1336063 0.006313175
0.11624563 -0.13330922 0.0058678389
0.11831117 -0.1344445 0.0059247017
0.11731339 -0.13210967 0.0050826669
0.069656283 -0.13495906 0.0064258873
0.068906121 -0.13145167 0.0087553859
0.070530459 -0.13251178 0.0092083514
0.071330667 -0.13201497 0.010019898
0.071798436 -0.13092656 0.010958999
0.073641323 -0.13234092 0.011284083
0.073768474 -0.13067558 0.011885136
0.075376064 -0.1316427 0.012513369
0.076829098 -0.13231678 0.013033271
0.077996336 -0.13248692 0.013341844
0.079326563 -0.1329256 0.013773263
0.079558276 -0.13153635 0.01404959
0.080837987 -0.13189356 0.013890654
0.081310011 -0.13094079 0.014101803
0.083362386 -0.13252482 0.01428172
0.083115399 -0.13045962 0.014879167
0.084845714 -0.13151085 0.014915645
0.086127222 -0.13184908 0.015365452
0.085456051 -0.12922622 0.015682012
0.087850213 -0.1312461 0.015419871
0.088154048 -0.13013217 0.015639216
0.088951677 -0.1297648 0.015246391
0.091606282 -0.13208348 0.015053064
0.092112683 -0.13128704 0.015053064
0.093879446 -0.13228467 0.01489079
0.094265126 -0.13133569 0.014911592
0.096041337 -0.13232362 0.014643133
0.096247345 -0.13115023 0.01444909
0.097522072 -0.13144279 0.014175415
0.098043151 -0.13072421 0.01412043
0.099050149 -0.1306619 0.013978124
0.10069068 -0.13142782 0.01395759
0.10083102 -0.13024007 0.013990283
0.10194388 -0.13032001 0.013664424
0.10560513 -0.13362281 0.01323089
0.10361464 -0.12977996 0.01294589
0.10750643 -0.13330798 0.01240629
0.10708642 -0.13147244 0.011545092
0.10687415 -0.12992544 0.010322779
0.11005893 -0.13249813 0.0097031295
0.11224161 -0.13382654 0.008482784
0.11158544 -0.13177709 0.0087222457
0.11465102 -0.13412005 0.0079006553
0.11503968 -0.13331702 0.0067440271
0.11537202 -0.13246417 0.0061664283
0.11602398 -0.13199058 0.0055577457
0.11990089 -0.13516101 0.0052973032
0.11867266 -0.13257127 0.005053401
0.068927988 -0.1345737 0.0056825876
0.069033444 -0.13267365 0.0059448183
0.069614261 -0.1317316 0.0091850758
0.070467591 -0.13132598 0.0098930597
0.071633838 -0.1315069 0.011056662
0.072662376 -0.13143341 0.011665434
0.073945232 -0.1318154 0.012177169
0.07323999 -0.12869312 0.012572885
0.075287364 -0.13042741 0.013359845
0.076946802 -0.13145079 0.013656288
0.07823579 -0.13182196 0.014115453
0.078647673 -0.13072519 0.014136553
0.079447031 -0.13029313 0.014545351
0.080618329 -0.1304744 0.014486283
0.08155258 -0.1302723 0.014491677
0.082588404 -0.13023555 0.014130086
0.0833546 -0.12977995 0.015285939
0.08338666 -0.12820698 0.015302777
0.085646868 -0.13005635 0.01548472
0.086769126 -0.13015369 0.015811801
0.087795295 -0.13010627 0.015732437
0.087788634 -0.12854764 0.015809059
0.089530908 -0.12955649 0.01572305
0.090248346 -0.12907612 0.015309215
0.091486163 -0.12934251 0.015548229
0.093924336 -0.1312806 0.015270531
0.093957104 -0.12985083 0.015403956
0.095483691 -0.13049437 0.015196174
0.096102297 -0.12989651 0.014864087
0.098206162 -0.13129736 0.014774531
0.097548388 -0.12901561 0.01456669
0.099551164 -0.13026376 0.014585674
0.10040699 -0.13000064 0.014293969
0.10109083 -0.12952262 0.01412043
0.10167661 -0.12893014 0.013765484
0.10293546 -0.12919451 0.01338312
0.10648985 -0.13230558 0.013016105
0.10760936 -0.13235952 0.01268819
0.10686176 -0.13013858 0.011601239
0.10888606 -0.13130377 0.0104177
0.11021801 -0.13161957 0.0095067918
0.11030262 -0.13045406 0.0090673864
0.1118503 -0.13102463 0.0088639259
0.11317331 -0.13132374 0.0078651905
0.1139688 -0.13101086 0.0069528818
0.11619896 -0.1323377 0.0061012805
0.11741745 -0.13249859 0.0059353113
0.11696362 -0.13078658 0.0055636466
0.11937386 -0.13227914 0.0050679743
0.06814307 -0.1319596 0.005723685
0.069085665 -0.13169454 0.0061603785
0.069540486 -0.13052215 0.0076826811
0.071455084 -0.13208364 0.010511905
0.070507251 -0.12838633 0.011570424
0.072493009 -0.13006099 0.011862516
0.073196441 -0.1294198 0.012505293
0.074787669 -0.13034423 0.0128555
0.076226056 -0.13097997 0.01368463
0.076623708 -0.12983462 0.014209032
0.077766784 -0.12996641 0.014316112
0.079037651 -0.13030532 0.014460236
0.079013579 -0.12852876 0.014666617
0.080737211 -0.12960447 0.014662027
0.08226499 -0.13034193 0.01488924
0.083176993 -0.13009734 0.014677465
0.083880812 -0.12953745 0.01567626
0.084050089 -0.12817639 0.015983701
0.085568987 -0.12888169 0.016077042
0.08823666 -0.13127893 0.016280562
0.088220827 -0.12967399 0.01608938
0.088420071 -0.12841962 0.015743881
0.088922188 -0.12762949 0.015401334
0.090637945 -0.12857941 0.015321493
0.091783598 -0.12870803 0.015316844
0.093794033 -0.13003263 0.015064329
0.093284652 -0.12787335 0.015321493
0.095854245 -0.12993576 0.015108615
0.095845178 -0.12849574 0.014919341
0.096917488 -0.12852103 0.014893889
0.099105462 -0.13000932 0.014757067
0.10098777 -0.13106923 0.014585137
0.099785335 -0.12814538 0.014261603
0.10190857 -0.12950881 0.014163971
0.10157765 -0.12775746 0.013741672
0.10355284 -0.12891272 0.013431013
0.10444766 -0.12871328 0.012708962
0.10624393 -0.1296176 0.012227923
0.10664803 -0.12882237 0.011214793
0.10948651 -0.13095444 0.010445446
0.11001275 -0.13030636 0.0095368624
0.11141941 -0.13070354 0.0092070103
0.11074199 -0.12867165 0.0090299249
0.11324415 -0.1303376 0.0079330206
0.11573417 -0.13195859 0.0066860318
0.11547308 -0.13044181 0.006254822
0.11831462 -0.13242555 0.0060713291
0.11963782 -0.13268922 0.0055645108
0.1206957 -0.13265654 0.0050086081
0.068562612 -0.13168375 0.0051530898
0.068408273 -0.12933439 0.0062430799
0.069581337 -0.12952834 0.0075244606
0.070395008 -0.12905751 0.0096219182
0.070240542 -0.12685232 0.011325657
0.071457215 -0.12715182 0.011801243
0.073824883 -0.12946102 0.012405634
0.074171752 -0.12821117 0.012505293
0.075087562 -0.12796612 0.013219088
0.07672362 -0.1289383 0.013530225
0.077524506 -0.12849952 0.013709307
0.078709558 -0.12870076 0.014239758
0.079884157 -0.12887977 0.014639765
0.081471957 -0.12971193 0.014777243
0.081702434 -0.12838954 0.014853507
0.083518445 -0.12956066 0.014986485
0.083229721 -0.12747844 0.015754879
0.085525349 -0.12935708 0.01625526
0.086767808 -0.12961611 0.016432315
0.086889647 -0.12821521 0.016808569
0.08783938 -0.12805501 0.016759574
0.088589408 -0.12761092 0.016298443
0.089868993 -0.12793115 0.016126364
0.089880772 -0.12646015 0.015813082
0.092502855 -0.12865339 0.015813082
0.092927925 -0.12777589 0.015592992
0.094398744 -0.12833986 0.015646845
0.095279172 -0.12809755 0.015309393
0.096293248 -0.12803827 0.015039355
0.098003149 -0.12889545 0.015153676
0.098777637 -0.12851714 0.014945835
0.10061315 -0.12951268 0.0146963
0.099815056 -0.12713286 0.014194816
0.10186645 -0.12839417 0.014053166
0.1018954 -0.12710664 0.013714075
0.10522947 -0.12992617 0.013097078
0.10349547 -0.12649447 0.012608856
0.10619429 -0.12849508 0.011947334
0.10634564 -0.12740418 0.010529399
0.10903423 -0.12934454 0.01007691
0.1094128 -0.12853348 0.0097312331
0.11174764 -0.13001409 0.0093812048
0.11446342 -0.13190547 0.0086327493
0.11424641 -0.13041335 0.0076134205
0.11463663 -0.12963583 0.0069173872
0.116206 -0.13019376 0.0063872337
0.11808545 -0.13108569 0.0055830479
0.12064449 -0.13270895 0.0052449107
0.069359198 -0.1300485 0.0056451857
0.068808168 -0.12703046 0.0074653029
0.069773726 -0.12686132 0.008356154
0.069941565 -0.12526847 0.010691255
0.070672706 -0.12471654 0.012073368
0.072460264 -0.12601785 0.012670726
0.073963217 -0.12679408 0.012587875
0.075114444 -0.12695399 0.013551116
0.075466581 -0.12577763 0.013700753
0.077530764 -0.12744783 0.013750076
0.078798659 -0.1277816 0.014053732
0.079674542 -0.12747927 0.014174491
0.080344073 -0.12685907 0.014174491
0.081229366 -0.12659122 0.014515668
0.083190948 -0.12798607 0.014637947
0.082999557 -0.12607527 0.015286654
0.085504167 -0.12825625 0.015701622
0.086124137 -0.12759131 0.015913844
0.087324195 -0.12779149 0.01612848
0.088551275 -0.12802593 0.01612848
0.08740069 -0.12485813 0.016523004
0.090666912 -0.12800035 0.016263604
0.091225542 -0.12729146 0.01621297
0.091807969 -0.12663169 0.016355485
0.093536638 -0.12754996 0.015694201
0.094031595 -0.12678418 0.016006649
0.094450809 -0.12593441 0.015446752
0.096406654 -0.12712966 0.015217751
0.098681442 -0.12871492 0.015132755
0.098617047 -0.1272478 0.015031725
0.099153228 -0.12657858 0.014890999
0.10055237 -0.12701352 0.014469266
0.10293003 -0.12866254 0.014427453
0.10259093 -0.12691662 0.013598502
0.10426913 -0.12767649 0.013198018
0.10435957 -0.12649645 0.012344122
0.10607434 -0.12728921 0.011532038
0.10658168 -0.12663171 0.010485291
0.10789464 -0.12693487 0.0099180341
0.10856687 -0.12648568 0.0097215176
0.11150916 -0.12866442 0.00888291
0.1129224 -0.12905417 0.0081988275
0.11391172 -0.12895666 0.0074374676
0.114113 -0.12797719 0.0069614947
0.11733845 -0.13037606 0.006180048
0.11916506 -0.1311909 0.0057087839
0.072630145 -0.13296904 0.0074123144
0.07024274 -0.1266498 0.0084242523
0.072722785 -0.12916435 0.010812312
0.071443848 -0.12502673 0.012091905
0.072921261 -0.12576276 0.012926996
0.074822977 -0.12719905 0.013110727
0.075835519 -0.1271046 0.013377845
0.076778233 -0.12689735 0.01340872
0.077704228 -0.12666854 0.013582081
0.079261974 -0.12746182 0.014123648
0.079601079 -0.12630038 0.014536589
0.0792147 -0.12403354 0.014600992
0.080764465 -0.12481781 0.014983416
0.08217068 -0.12536296 0.015174985
0.083381124 -0.12559941 0.015650809
0.083430305 -0.12410258 0.016300708
0.084619164 -0.12431704 0.016089171
0.086181313 -0.12506799 0.016239047
0.086013332 -0.12332032 0.015804797
0.088119946 -0.12483659 0.016204834
0.089678071 -0.1255493 0.016093045
0.090361223 -0.1250347 0.016543299
0.091585286 -0.12527183 0.016490132
0.093080238 -0.12586987 0.016264081
0.094136931 -0.12586848 0.016163617
0.095335022 -0.12605409 0.016020626
0.095611118 -0.12502992 0.015384495
0.097394951 -0.12597825 0.015069842
0.098320149 -0.12580749 0.014667213
0.099877685 -0.1264409 0.01453647
0.10123999 -0.12681641 0.014071345
0.10269158 -0.12729476 0.01395005
0.10260914 -0.12588131 0.013757914
0.10388307 -0.12614372 0.013252854
0.10528145 -0.12655044 0.012140989
0.10563995 -0.12571155 0.011683345
0.10797267 -0.12721533 0.01046434
0.10874821 -0.1268729 0.010103106
0.11011509 -0.12722035 0.0096817315
0.111511 -0.12759432 0.0090128481
0.11337448 -0.12849107 0.0078678131
0.11281513 -0.12665094 0.0075367689
0.11514223 -0.12805538 0.0069109797
0.11637916 -0.1282326 0.0064065158
0.071637914 -0.13005038 0.0067915916
0.069826677 -0.12484164 0.008204639
0.072582155 -0.12783125 0.0097121
0.07164529 -0.12432565 0.012063205
0.074168094 -0.12683819 0.013038576
0.07495641 -0.12635508 0.013554305
0.07709685 -0.12813279 0.014063746
0.077513576 -0.12703614 0.013854504
0.078027941 -0.12612736 0.014584512
0.079790629 -0.1272337 0.014697373
0.080666035 -0.12691456 0.014723837
0.082845874 -0.12862912 0.014623046
0.08183375 -0.12540756 0.014867395
0.084638156 -0.12804234 0.014885932
0.085614577 -0.12788001 0.015418023
0.086869761 -0.12813289 0.015981525
0.086240962 -0.12563498 0.016399801
0.091171116 -0.13119745 0.016268671
0.087171875 -0.1239311 0.01617986
0.088883683 -0.12486041 0.015818119
0.090410888 -0.12551159 0.015734017
0.091293477 -0.12526314 0.016342789
0.091641963 -0.12429599 0.016164213
0.092988409 -0.124689 0.015985101
0.09289404 -0.12316289 0.015812576
0.094252422 -0.1235754 0.015515447
0.095850825 -0.12429008 0.01516518
0.097750254 -0.12537533 0.014986902
0.09702941 -0.12311259 0.014758021
0.098398551 -0.12352159 0.014763683
0.10029975 -0.12458285 0.014334679
0.10125557 -0.12445997 0.014023572
0.10259855 -0.1248106 0.01357317
0.10517833 -0.1266433 0.012682915
0.10516722 -0.12535083 0.01193887
0.10536736 -0.12433348 0.011354685
0.10792102 -0.12608594 0.011047214
0.10900382 -0.12610246 0.010255814
0.11016997 -0.12621415 0.009842068
0.11192836 -0.12699564 0.008321017
0.11372899 -0.12780972 0.0079395473
0.1156586 -0.12875202 0.0073511004
0.11427645 -0.1260245 0.0071440637
0.11765514 -0.12854914 0.0054503679
0.074341662 -0.13381499 0.0057837963
0.072936311 -0.12929618 0.0087726414
0.072623067 -0.12681939 0.0098782778
0.07391075 -0.12716997 0.011879921
0.074743524 -0.12673903 0.013670415
0.074548416 -0.12460236 0.014254928
0.075934 -0.12513068 0.014644593
0.076381214 -0.12411947 0.014643043
0.077938475 -0.12491509 0.015172869
0.078453459 -0.12404127 0.015242547
0.080004662 -0.12480728 0.015345305
0.080521293 -0.12396041 0.015203118
0.082432397 -0.12525442 0.015731484
0.083139636 -0.12470946 0.015598625
0.084993705 -0.12587675 0.015981615
0.085766643 -0.12543371 0.016457438
0.088534437 -0.12788308 0.016883999
0.087563552 -0.12493824 0.016625702
0.089489967 -0.12614851 0.016611487
0.087756045 -0.12223164 0.016363144
0.09036167 -0.12438018 0.016061097
0.092306688 -0.12558003 0.01590997
0.092767984 -0.12475694 0.015909314
0.095193021 -0.12656344 0.015783936
0.095075175 -0.12498646 0.01562798
0.098835461 -0.1284861 0.01556462
0.09887667 -0.12712714 0.015073836
0.10087795 -0.12829044 0.014850587
0.10185526 -0.12814048 0.014646769
0.10150238 -0.12633808 0.014646769
0.10200051 -0.12562168 0.014428586
0.101485 -0.12368484 0.014221311
0.10324842 -0.12453676 0.013765603
0.10500226 -0.12535985 0.013305843
0.10743697 -0.12697096 0.012248307
0.10686751 -0.12503497 0.011900604
0.10735804 -0.12436525 0.011450201
0.10992853 -0.12609449 0.010471284
0.11106138 -0.1261571 0.0096436739
0.11177228 -0.12574382 0.0088343918
0.11320043 -0.12613763 0.0081435144
0.11288986 -0.12460484 0.0077807903
0.11496462 -0.12570897 0.0064432323
0.11711891 -0.12687883 0.0050945282
0.071513385 -0.12569019 0.0082067847
0.073384389 -0.12705357 0.0094843507
0.073417582 -0.12524176 0.01211682
0.074080177 -0.12454058 0.013883948
0.075643905 -0.12535276 0.014614522
0.076282248 -0.12463015 0.015016675
0.077383749 -0.12467381 0.015364289
0.077947482 -0.12386175 0.015901208
0.079046756 -0.12391113 0.015890002
0.081224509 -0.12562723 0.016094178
0.082329452 -0.12566073 0.01602003
0.082659468 -0.12452595 0.016230524
0.083874173 -0.12473595 0.016022891
0.085375279 -0.12536117 0.016638249
0.085705988 -0.12427369 0.016996562
0.087522 -0.12534015 0.017312527
0.087323077 -0.12353021 0.017322868
0.091200642 -0.12746114 0.017209768
0.088302478 -0.12194151 0.017499834
0.089903176 -0.12269139 0.016922176
0.091969408 -0.12405176 0.017410636
0.093129992 -0.12417332 0.016740769
0.093271859 -0.12294926 0.01645568
0.093575329 -0.12196335 0.016249478
0.09678375 -0.1247435 0.015933007
0.096281394 -0.12273233 0.015836358
0.098857991 -0.12464703 0.015684158
0.10016737 -0.12493995 0.015130937
0.10037819 -0.12387095 0.015109122
0.09973412 -0.12178061 0.014941335
0.10373469 -0.12534608 0.014684409
0.10128687 -0.12112657 0.01435861
0.10442592 -0.1236062 0.013116807
0.10818681 -0.12676434 0.012738585
0.10661732 -0.12367608 0.012360245
0.10873184 -0.12488013 0.012042999
0.10909907 -0.12407345 0.011318713
0.11031996 -0.12424383 0.010015488
0.11276234 -0.12577339 0.0092878938
0.11339558 -0.12527511 0.0086246431
0.1136023 -0.12431949 0.0086579025
0.11537378 -0.12507811 0.0068111718
0.1170881 -0.1257613 0.0056191385
0.072634794 -0.1285077 0.0050595403
0.073575452 -0.12819965 0.0057642758
0.072434358 -0.12432763 0.0095930099
0.073590823 -0.12445507 0.010842264
0.074488088 -0.12414681 0.013778776
0.074643768 -0.12262905 0.014270067
0.075867467 -0.12288392 0.01545468
0.079075076 -0.12630047 0.015637785
0.080294356 -0.12649111 0.016380578
0.078828558 -0.12250384 0.016387194
0.080093324 -0.12280976 0.016622186
0.080655351 -0.12204429 0.016693473
0.082401112 -0.1230666 0.017108172
0.083975315 -0.12380976 0.016812831
0.085231513 -0.12407119 0.017107606
0.085894138 -0.12347282 0.017706931
0.089212447 -0.12665965 0.017791867
0.087592565 -0.12284324 0.01747188
0.088340543 -0.12239955 0.017485619
0.09100344 -0.12458804 0.01788944
0.089299172 -0.12081653 0.01727435
0.090471506 -0.12097934 0.017555118
0.093313351 -0.12334523 0.017456949
0.094451673 -0.12343116 0.017154306
0.095455416 -0.12334127 0.017436385
0.095677696 -0.12225483 0.01665774
0.09683945 -0.12237952 0.016154289
0.099094458 -0.12386808 0.016009957
0.099917345 -0.12355371 0.01556167
0.10098699 -0.12354792 0.015773296
0.10247181 -0.12404483 0.015424669
0.10496102 -0.12573455 0.015146255
0.10776586 -0.12776364 0.014857292
0.1028778 -0.12072396 0.014287084
0.10576016 -0.12285271 0.013442576
0.10711128 -0.12317796 0.012743354
0.10690444 -0.12172288 0.012384593
0.10932373 -0.12325715 0.011648476
0.11074422 -0.12364646 0.010905236
0.11082986 -0.12255225 0.009906292
0.11369385 -0.12452184 0.0092450976
0.11622662 -0.12609492 0.0089175999
0.11546017 -0.12409271 0.0066236258
0.11928377 -0.12701513 0.0056154132
0.075935803 -0.13116184 0.0060576797
0.072156921 -0.12277447 0.0098249614
0.07480935 -0.12541568 0.011226267
0.074708305 -0.12343111 0.013377458
0.075627752 -0.1231652 0.014573514
0.076139636 -0.12225237 0.016226619
0.076724827 -0.12148097 0.016775906
0.079080015 -0.12349482 0.017166495
0.079273239 -0.12212364 0.017343193
0.081963457 -0.12458445 0.017741948
0.081416085 -0.12212413 0.017481863
0.082241863 -0.12176067 0.017698586
0.084549166 -0.12357186 0.017304659
0.083859585 -0.12101257 0.017886698
0.087536283 -0.12473921 0.01841557
0.087626852 -0.12332668 0.018479794
0.088319667 -0.12278588 0.018068999
0.089929305 -0.12351736 0.018068999
0.089331172 -0.12123517 0.018486023
0.090081006 -0.12081452 0.017745227
0.092200533 -0.12221931 0.017495811
0.090583675 -0.11869585 0.017495811
0.093883753 -0.12162214 0.017487288
0.095350459 -0.1221343 0.017642498
0.095734566 -0.12126378 0.017206669
0.099213131 -0.12428898 0.016621768
0.098545067 -0.12211019 0.016204953
0.098769642 -0.12107246 0.016091377
0.10085442 -0.12231281 0.016001135
0.1042406 -0.12508872 0.015560716
0.10666399 -0.12666349 0.015256077
0.10488692 -0.12326916 0.01519832
0.10684033 -0.12428365 0.01439327
0.1051649 -0.12109898 0.014227569
0.10658032 -0.12150156 0.013749599
0.10584483 -0.11946842 0.013273209
0.10992765 -0.12286032 0.012442678
0.110366 -0.12215266 0.011939406
0.1109069 -0.12157102 0.010138005
0.11402833 -0.12380219 0.0094431043
0.11415379 -0.12276917 0.0094917119
0.11681172 -0.12445361 0.0071436167
0.11916494 -0.12578522 0.0062335134
0.11796632 -0.12337762 0.0056996047
0.074365273 -0.12928116 0.0051012337
0.074284405 -0.1271839 0.0069109797
0.073338151 -0.12368971 0.010538012
0.069028318 -0.11470882 0.012171328
0.072908387 -0.11940069 0.014051527
0.070814721 -0.1143152 0.014981061
0.075102635 -0.11952955 0.016437024
0.076315604 -0.1197731 0.017390668
0.077907279 -0.12059619 0.017776638
0.079268038 -0.12104444 0.01760447
0.081529722 -0.12283811 0.01819241
0.080868483 -0.12023867 0.01761055
0.0824496 -0.12099746 0.017653853
0.082931198 -0.12014391 0.017476261
0.08478865 -0.12127997 0.018065125
0.085082933 -0.12017965 0.019118011
0.087878741 -0.12259627 0.018675447
0.088183805 -0.12152158 0.018500745
0.091079898 -0.12400035 0.018339097
0.089704797 -0.12067431 0.018024385
0.092774495 -0.1233355 0.017923683
0.093138129 -0.12237916 0.01791662
0.093250304 -0.12111821 0.01791662
0.0937998 -0.12044747 0.017877907
0.093356974 -0.11853189 0.01791662
0.095885813 -0.12038996 0.017688245
0.099148594 -0.12311858 0.017176658
0.099194959 -0.12183728 0.0172607
0.098860301 -0.12012058 0.01650396
0.099996008 -0.12020797 0.016392469
0.10204269 -0.1213771 0.015543818
0.099568807 -0.11720078 0.01512298
0.10328971 -0.12032718 0.015018761
0.10851394 -0.12512322 0.014599025
0.10949032 -0.1249738 0.01480335
0.11263047 -0.12727243 0.014469326
0.11514393 -0.1288244 0.014306962
0.11630581 -0.1288486 0.013750702
0.11597013 -0.12722938 0.012925178
0.11744426 -0.12760772 0.011515528
0.11755801 -0.12651481 0.010471165
0.11892048 -0.12677372 0.009762913
0.1154699 -0.12194485 0.0077403188
0.11783694 -0.12329236 0.0064038634
0.1189815 -0.12334779 0.0057542622
0.12099893 -0.1242989 0.0050065815
0.07680653 -0.13033836 0.0057185292
0.07513091 -0.12559198 0.0092805326
0.071935527 -0.11848205 0.012525171
0.072943561 -0.11840114 0.013974965
0.075005434 -0.12000869 0.015696794
0.075558543 -0.11919095 0.017858505
0.076671422 -0.11926666 0.018206537
0.076901242 -0.11798546 0.018504113
0.077947319 -0.11797431 0.018622816
0.077833109 -0.11623078 0.019088328
0.08052171 -0.11866357 0.018724412
0.079746842 -0.11599541 0.019208789
0.081665352 -0.11726307 0.018302649
0.082367308 -0.1167739 0.01880905
0.082923777 -0.11609329 0.019369036
0.082853124 -0.11456234 0.019305378
0.0845019 -0.11541723 0.019168675
0.085901327 -0.11591505 0.018671989
0.087896258 -0.11719502 0.018571913
0.090411894 -0.11913097 0.018425882
0.091238372 -0.11882206 0.018134207
0.090818457 -0.11691572 0.018100649
0.092899747 -0.11823604 0.01796639
0.096683018 -0.12166852 0.017865062
0.098356895 -0.1223997 0.01704818
0.096818581 -0.11916133 0.016564578
0.098186329 -0.11953118 0.016803592
0.099668607 -0.12003101 0.016235113
0.10176889 -0.12125655 0.01614359
0.10154111 -0.11971162 0.016064256
0.1021725 -0.11920125 0.015478462
0.10529166 -0.12157388 0.015545309
0.10599191 -0.12113361 0.015309244
0.10933365 -0.12369059 0.015865117
0.10816672 -0.12114673 0.015634269
0.10685053 -0.11848772 0.015717059
0.10986465 -0.1206357 0.01498723
0.10732395 -0.11670177 0.013545722
0.11298206 -0.121673 0.012091339
0.11171903 -0.11916697 0.011102319
0.11827993 -0.12497502 0.010351032
0.11821226 -0.1237362 0.0082041025
0.11620026 -0.12050398 0.0068903863
0.12012321 -0.12342935 0.0057696998
0.12140524 -0.12361261 0.0052520931
0.073471412 -0.12356556 0.0063094795
0.070733331 -0.11718506 0.0094681084
0.071454465 -0.11663891 0.013472319
0.074759007 -0.12026449 0.015005767
0.0735543 -0.1166361 0.016011357
0.07574147 -0.11841272 0.017812222
0.076690845 -0.11823172 0.018719673
0.076402932 -0.11617433 0.019016266
0.078823566 -0.11823535 0.018705577
0.081022851 -0.11991382 0.019180149
0.08164975 -0.11925161 0.01873228
0.081292674 -0.11718814 0.019468725
0.082426094 -0.11729867 0.019219339
0.082653098 -0.11613283 0.019828469
0.083721772 -0.11616396 0.020202368
0.084809601 -0.11622056 0.020084947
0.084170312 -0.11393786 0.019543618
0.084882475 -0.11351753 0.019384682
0.087196909 -0.11522449 0.019996732
0.089700162 -0.11713786 0.018995404
0.087790824 -0.11331141 0.018752366
0.090907142 -0.11598498 0.018671989
0.092803925 -0.1170595 0.018661886
0.092813551 -0.11575623 0.018601865
0.094134949 -0.11609977 0.01823923
0.097727507 -0.11920609 0.017504603
0.097618051 -0.1177783 0.017860979
0.09633518 -0.1149807 0.017396241
0.098819688 -0.11669134 0.017692685
0.097611912 -0.11405181 0.017023861
0.098074898 -0.1133991 0.016658336
0.10424725 -0.11929324 0.016547114
0.10502293 -0.11895454 0.016483486
0.10492606 -0.11764437 0.016745329
0.1073481 -0.11915639 0.016599864
0.10693531 -0.11752296 0.016816825
0.10860868 -0.11819179 0.016217291
0.1099751 -0.11851685 0.015384644
0.11039071 -0.11782085 0.014207155
0.1095916 -0.11585398 0.01232639
0.11170214 -0.11697111 0.011036634
0.12176998 -0.12632214 0.0082592666
0.1177324 -0.12100275 0.0068149865
0.11879387 -0.12097357 0.0060617924
0.12115463 -0.12225603 0.0051620603
0.074981056 -0.12496842 0.0062439144
0.075761661 -0.12438481 0.0092562437
0.072712772 -0.1176236 0.013971061
0.072873846 -0.1161757 0.016167402
0.077259928 -0.12140846 0.016834974
0.076907076 -0.11915181 0.018596798
0.076390505 -0.11670771 0.019749939
0.075528331 -0.11380982 0.020262301
0.077793628 -0.11563917 0.020379901
0.081406295 -0.1193959 0.020807892
0.080148958 -0.11600507 0.020379901
0.081139922 -0.11591417 0.020837545
0.082938552 -0.11696462 0.019996017
0.081937261 -0.11408985 0.020312399
0.086966738 -0.11957926 0.020635933
0.085703261 -0.11638714 0.021422267
0.086903565 -0.11657795 0.021501273
0.087403387 -0.11583581 0.02092278
0.089080468 -0.116653 0.020767629
0.088457651 -0.11447461 0.019648165
0.091662213 -0.11724237 0.019571573
0.091301955 -0.11543926 0.019300908
0.093280904 -0.11660112 0.019257873
0.094480567 -0.11677373 0.019253731
0.095746025 -0.11702292 0.018978804
0.09586858 -0.1158851 0.01867196
0.095555946 -0.11425167 0.01870361
0.098329023 -0.11630315 0.018187821
0.098199733 -0.11491458 0.01862818
0.10061279 -0.11649901 0.018202126
0.10111669 -0.11586287 0.01816079
0.10281607 -0.11659554 0.017823964
0.10161505 -0.1140577 0.017639011
0.10662062 -0.11846736 0.017807484
0.10714059 -0.11785465 0.017448753
0.10488259 -0.11422857 0.017929912
0.10829584 -0.11678962 0.017072767
0.10645729 -0.11369225 0.016402394
0.10834126 -0.11459173 0.01454407
0.11020336 -0.11545113 0.014062285
0.11559699 -0.11995914 0.011283636
0.11636845 -0.11963112 0.007935077
0.11979172 -0.12201007 0.006529808
0.12057375 -0.12167993 0.0060097575
0.12155998 -0.12155998 0.0052470267
0.075035349 -0.12392202 0.0059956908
0.073091693 -0.11891037 0.0095583498
0.073149614 -0.11725453 0.015163928
0.074726716 -0.11804655 0.017066032
0.073013946 -0.11369315 0.017903775
0.074450694 -0.11429754 0.019717515
0.076302454 -0.11551344 0.020167619
0.078637332 -0.11741739 0.020654917
0.07877025 -0.11602645 0.020955622
0.079742193 -0.11589199 0.021337777
0.07823801 -0.11220977 0.020813942
0.080995664 -0.1146562 0.021144867
0.082401559 -0.1151509 0.020874411
0.082347974 -0.11361936 0.020903409
0.084620304 -0.11529516 0.02082032
0.087446772 -0.11767528 0.020781159
0.088329725 -0.1174139 0.021571517
0.090639241 -0.11903226 0.02126804
0.088938557 -0.11540836 0.021505892
0.089178264 -0.11435801 0.020396978
0.091876142 -0.11644766 0.020208746
0.092764907 -0.1162227 0.019875646
0.094119467 -0.11657979 0.019737095
0.094591714 -0.11584828 0.01964578
0.09580563 -0.11603126 0.019291669
0.096200541 -0.11522922 0.019433707
0.098839879 -0.11710377 0.019522965
0.097551361 -0.1143344 0.019176096
0.1004511 -0.11648053 0.019159526
0.099296831 -0.11393005 0.018991739
0.10132547 -0.11504663 0.01882273
0.10264733 -0.11534598 0.01863125
0.10269734 -0.1142246 0.018369853
0.10733347 -0.11817523 0.018404126
0.10375842 -0.11309668 0.018345833
0.10568396 -0.11405497 0.018404126
0.10685275 -0.11418578 0.017816931
0.10889906 -0.11524269 0.016502768
0.1099036 -0.11518742 0.014903158
0.11008199 -0.11427559 0.013034552
0.11154445 -0.11470136 0.010519236
0.11349231 -0.11561366 0.0075115561
0.1185909 -0.11968896 0.0068296492
0.11794548 -0.11794548 0.0060925782
0.07565707 -0.12380248 0.0061545968
0.071607292 -0.11542667 0.010052145
0.072562404 -0.11524617 0.015833855
0.074601546 -0.11676763 0.017472655
0.074503064 -0.11494759 0.017921865
0.07670895 -0.11668403 0.019536197
0.077500902 -0.11625135 0.020615608
0.078008227 -0.11540943 0.021035135
0.079296477 -0.11573 0.021397829
0.079774268 -0.11487494 0.02174443
0.080411427 -0.11426887 0.021544367
0.083065495 -0.11650745 0.021223962
0.083079241 -0.1150328 0.021391273
0.082152568 -0.11230984 0.021551698
0.082092196 -0.11082447 0.022459835
0.086827591 -0.11577012 0.022500008
0.085669003 -0.11283234 0.022607177
0.08663781 -0.11273354 0.022044837
0.088182896 -0.113378 0.022085011
0.088568673 -0.11253431 0.021844774
0.092494324 -0.11615567 0.021509051
0.092474535 -0.11479598 0.021243781
0.094828933 -0.11638096 0.020794898
0.09423209 -0.11434905 0.020906419
0.095199235 -0.11423908 0.020263344
0.099382542 -0.11794851 0.02022627
0.098194011 -0.11527123 0.020358562
0.099905841 -0.11601969 0.019918025
0.10001185 -0.11490723 0.019608706
0.10146005 -0.11534405 0.019427568
0.10452149 -0.11758667 0.019220591
0.10113384 -0.11260262 0.019138992
0.1046446 -0.11532263 0.018916279
0.10532315 -0.11489798 0.019279093
0.10510068 -0.11350874 0.019184977
0.10353368 -0.11070928 0.018872738
0.10596095 -0.11219395 0.018424362
0.10838349 -0.11364483 0.016572773
0.10789353 -0.11204328 0.013754129
0.11083984 -0.1140067 0.012234032
0.11283323 -0.11496216 0.0078389049
0.11419573 -0.11526298 0.0071197152
0.11859933 -0.11859933 0.0053118765
0.075185865 -0.12189224 0.0053460896
0.072522394 -0.11581934 0.010780543
0.073623821 -0.11584925 0.015533149
0.074189492 -0.11504748 0.017118305
0.073537149 -0.11240679 0.0178262
0.075915143 -0.11440732 0.018651247
0.076461643 -0.1136305 0.020471334
0.077818878 -0.11406329 0.020765722
0.080260456 -0.11605228 0.021340191
0.080205083 -0.11442591 0.022222161
0.081184521 -0.11429927 0.021441966
0.082297698 -0.11436173 0.02191937
0.084609173 -0.11606643 0.022190809
0.086078852 -0.11658781 0.022433549
0.081459083 -0.10895152 0.023279011
0.085194729 -0.11254118 0.023173749
0.085499756 -0.11156676 0.023579776
0.086940877 -0.11208041 0.022871077
0.090151697 -0.1148361 0.022871077
0.08934392 -0.11246824 0.022577614
0.092201777 -0.11471616 0.022509605
0.092930287 -0.11429358 0.022267818
0.094633356 -0.11506556 0.022017926
0.094718575 -0.11387514 0.021516383
0.09914653 -0.11787421 0.020972908
0.095966525 -0.11283977 0.020933062
0.09726651 -0.11312518 0.021287858
0.099797592 -0.11482088 0.020609885
0.10135043 -0.11536699 0.020203322
0.098373368 -0.11079948 0.01995033
0.10201152 -0.11370034 0.019894004
0.10416862 -0.11490765 0.019427568
0.10450759 -0.11410522 0.019199699
0.10710486 -0.1157598 0.019730687
0.10150369 -0.10860895 0.019696504
0.1067505 -0.11309212 0.019388765
0.10706668 -0.11231504 0.018828094
0.10425877 -0.10830765 0.016967267
0.10824403 -0.11136646 0.014171511
0.10951929 -0.11160537 0.012021422
0.11220431 -0.11326285 0.0084733069
0.11210543 -0.11210543 0.0058220923
0.073816374 -0.11855357 0.0055274963
0.072049856 -0.11398933 0.010294825
0.073334053 -0.11431485 0.01522398
0.074247308 -0.11406109 0.017112374
0.07420513 -0.11236777 0.017587245
0.077775188 -0.11611507 0.018601477
0.077446975 -0.11401916 0.019503355
0.078804605 -0.1144286 0.019746363
0.077970676 -0.11168773 0.020139128
0.081749424 -0.11553919 0.020946532
0.081706099 -0.11395851 0.020139128
0.08244361 -0.1134938 0.020958155
0.082033977 -0.11148208 0.021278769
0.085384652 -0.11456675 0.021906376
0.085948288 -0.11388148 0.02229178
0.084558852 -0.11065727 0.023356974
0.085349247 -0.11032952 0.023229063
0.087845407 -0.11218811 0.022996962
0.087370962 -0.11025383 0.023056388
0.090114273 -0.1123778 0.023004055
0.092424743 -0.11391887 0.02270624
0.092633575 -0.1128639 0.022545904
0.095135555 -0.1145951 0.022666484
0.094357654 -0.11238103 0.022580385
0.095410615 -0.1123725 0.021767616
0.096623138 -0.11255003 0.021605551
0.097859904 -0.11275163 0.022181839
0.099934109 -0.1139034 0.02172479
0.099808231 -0.11254971 0.020961076
0.10211717 -0.11394125 0.020203322
0.10405699 -0.11489626 0.020123512
0.10310742 -0.11267409 0.019859731
0.10480542 -0.11336096 0.019540876
0.10661343 -0.11415175 0.020111442
0.10110432 -0.10717057 0.019937962
0.10789374 -0.113235 0.019568712
0.10530424 -0.10943382 0.018480539
0.1088088 -0.11197799 0.016560853
0.1091639 -0.11126321 0.012494475
0.11049644 -0.11154879 0.0093005598
0.11080307 -0.11080307 0.0063643456
0.11326196 -0.11220343 0.0051930547
0.071043424 -0.11133671 0.0087336302
0.072874114 -0.11252621 0.014649928
0.074087761 -0.11274225 0.016592503
0.073939107 -0.11090866 0.017708868
0.077573784 -0.11472179 0.018495768
0.076679066 -0.11182363 0.019018352
0.077650264 -0.11168873 0.019182473
0.079748914 -0.11315724 0.019243449
0.080968678 -0.11335615 0.02008146
0.081081197 -0.11202007 0.020003647
0.082111113 -0.11196969 0.020359844
0.083983243 -0.11305436 0.02049461
0.083060689 -0.11039712 0.020965606
0.086321384 -0.11329682 0.021196395
0.086379193 -0.11197302 0.021561742
0.08646065 -0.11071181 0.021700233
0.089484215 -0.11320292 0.021684825
0.087948918 -0.10993615 0.021970242
0.08792565 -0.10861403 0.02195546
0.091543563 -0.11176831 0.021628082
0.091086954 -0.10993253 0.021848112
0.094203919 -0.1124024 0.02203247
0.094864421 -0.1119187 0.021988004
0.096536182 -0.11262554 0.021625787
0.096371248 -0.1111976 0.021972954
0.097918615 -0.11175494 0.021930128
0.09859173 -0.11131324 0.021527052
0.099245287 -0.1108591 0.021084249
0.098999396 -0.10942039 0.020570219
0.098592073 -0.10783508 0.02027595
0.10184044 -0.11023965 0.018705964
0.10374416 -0.11115446 0.018556416
0.10635257 -0.11279818 0.018813908
0.10765179 -0.11303438 0.018717051
0.10433035 -0.10846224 0.018334538
0.11008851 -0.11332641 0.0175367
0.11034559 -0.11248823 0.013655841
0.11001717 -0.11107503 0.009093821
0.1119937 -0.1119937 0.0063817501
0.11239979 -0.11133941 0.0051662922
0.070843741 -0.1099664 0.0089809597
0.07256683 -0.11098456 0.012865126
0.073542684 -0.11084694 0.016749918
0.073402494 -0.10905513 0.018288404
0.076310672 -0.11177901 0.018984109
0.077199116 -0.11150983 0.018930733
0.077216983 -0.11000776 0.019249529
0.078810595 -0.11076084 0.019141734
0.081825338 -0.11346447 0.019528836
0.081143454 -0.11103841 0.019422203
0.082889214 -0.11195426 0.0196473
0.083046615 -0.11072882 0.019325852
0.085286394 -0.11227576 0.020281971
0.08788038 -0.11424449 0.020836949
0.087148316 -0.11189413 0.021278769
0.087712727 -0.11124541 0.021784842
0.087985605 -0.11024702 0.021648884
0.089472681 -0.1107757 0.021707952
0.09253674 -0.11322142 0.021644801
0.091816045 -0.11103336 0.0213826
0.091571853 -0.1094652 0.021973431
0.093623124 -0.1106455 0.022007227
0.092665136 -0.10828286 0.021848321
0.095223412 -0.11003594 0.021243602
0.098951928 -0.11308792 0.021139711
0.097004496 -0.10965725 0.021340936
0.10004203 -0.11187495 0.021083087
0.099364989 -0.10993573 0.020395488
0.10397584 -0.11382619 0.019593686
0.10137345 -0.10982124 0.019180834
0.10258259 -0.10998546 0.018110693
0.10126497 -0.10746486 0.017178386
0.10834915 -0.11382134 0.017461568
0.10877893 -0.11313009 0.016046554
0.11157942 -0.11489365 0.015696168
0.10909889 -0.11123808 0.014548421
0.11155234 -0.11263537 0.0084652305
0.11407891 -0.11407891 0.005610466
0.072200261 -0.11099443 0.0075286329
0.073369704 -0.11113352 0.013038635
0.075647555 -0.11292316 0.017188519
0.075669467 -0.11134222 0.018026739
0.076322488 -0.11072136 0.018975407
0.077616639 -0.11103492 0.019427389
0.078773461 -0.11114611 0.019856423
0.079703897 -0.1109392 0.019499034
0.081425101 -0.1118238 0.01946196
0.081700206 -0.11072528 0.019790024
0.081371039 -0.10884698 0.019824654
0.082833119 -0.10938219 0.019411385
0.085486338 -0.11145687 0.019432962
0.084131315 -0.10831907 0.020513266
0.087596975 -0.11138874 0.020495325
0.087948665 -0.11047211 0.020651191
0.087675475 -0.1088021 0.02106005
0.088812329 -0.10890083 0.021400541
0.087876119 -0.10648518 0.02159974
0.090436362 -0.10831332 0.021648884
0.093593612 -0.11080623 0.021643519
0.094439857 -0.11053757 0.02156657
0.093374781 -0.10806295 0.021419704
0.096041739 -0.10991443 0.020911515
0.096603274 -0.10934217 0.020354927
0.10035811 -0.11235745 0.020949066
0.10215344 -0.11313768 0.020124972
0.099765502 -0.10931752 0.018890738
0.10004196 -0.10846654 0.017968684
0.10160191 -0.10901038 0.017684758
0.10525086 -0.11176122 0.017148495
0.1040444 -0.10935278 0.016032398
0.11162093 -0.11613087 0.014529705
0.11373063 -0.11714255 0.012733102
0.11371554 -0.11596733 0.011657059
0.1127311 -0.1138363 0.0085137486
0.072477981 -0.11033961 0.0076520443
0.073057488 -0.10958624 0.012978464
0.074409127 -0.1099961 0.01589632
0.074167997 -0.10807336 0.018170506
0.076906949 -0.11048604 0.019643039
0.078704648 -0.11149825 0.020071656
0.079793856 -0.11149279 0.020088702
0.080588631 -0.11108163 0.01969254
0.081597328 -0.11097236 0.019558787
0.080812134 -0.10845839 0.019388765
0.083370037 -0.11043824 0.019719809
0.084248096 -0.11017059 0.019480973
0.083700307 -0.10806875 0.019721061
0.08883445 -0.11326392 0.019599766
0.086825073 -0.10933527 0.020421118
0.087724224 -0.10912037 0.020842522
0.087707564 -0.1077852 0.020483613
