ply
format ascii 1.0
comment PCL generated
element vertex 1297
property float x
property float y
property float z
element camera 0
property float view_px
property float view_py
property float view_pz
property float x_axisx
property float x_axisy
property float x_axisz
property float y_axisx
property float y_axisy
property float y_axisz
property float z_axisx
property float z_axisy
property float z_axisz
property float focal
property float scalex
property float scaley
property float centerx
property float centery
property int viewportx
property int viewporty
property float k1
property float k2
end_header
0.010583347 -0.15240018 0.0062697828
0.011431364 -0.14964695 0.0060251057
0.012650246 -0.15180296 0.0060261786
0.013761709 -0.15243739 0.0059829354
0.014767111 -0.15189028 0.0059960485
0.015650716 -0.15024687 0.0059445202
0.016993564 -0.15294208 0.0057707727
0.018012824 -0.1525792 0.0056962967
0.019030124 -0.15224099 0.0053957999
0.020068381 -0.1520972 0.0051839352
0.022477657 -0.1541325 0.0051594079
0.023104267 -0.15122794 0.0050761104
-0.0053792973 -0.1538479 0.0051299036
-0.004233168 -0.15133575 0.0052528083
-0.0031671468 -0.15096733 0.0055172145
-0.0021165402 -0.15133263 0.0056762397
-0.0010425724 -0.14908785 0.0057813227
0 -0.15200993 0.0059509277
0.0010522564 -0.15047267 0.0061733723
0.002124453 -0.15189838 0.0064930022
0.0031795467 -0.1515584 0.0066008568
0.0041901818 -0.149799 0.0066148639
0.0052889585 -0.15126422 0.0064121187
0.0064269621 -0.15317594 0.0066568255
0.0073602134 -0.15035865 0.0067808032
0.008537408 -0.15260617 0.0068632364
0.0095584122 -0.15187256 0.0070774555
0.010645251 -0.15222709 0.0068264604
0.01167724 -0.15180412 0.0067357719
0.012650829 -0.15075572 0.0066979527
0.013842935 -0.15227228 0.0065087974
0.014839676 -0.15157668 0.0066748559
0.016127558 -0.15374939 0.0065982342
0.016711188 -0.14935626 0.0062982738
0.018179193 -0.1529191 0.0063737035
0.019208359 -0.15259974 0.0062637031
0.020173548 -0.15183249 0.006215632
0.02123997 -0.15186578 0.0058527291
0.022164306 -0.15092838 0.0057928562
0.023164941 -0.15057212 0.0055994391
0.024442524 -0.15196873 0.0053471923
0.025310742 -0.15080984 0.005297482
0.02868619 -0.15193056 0.0050305128
-0.0096311439 -0.15195805 0.0050339997
-0.0074088862 -0.15029454 0.0050735474
-0.0064045954 -0.15157542 0.0053411126
-0.005323451 -0.15118602 0.0057775676
-0.0042602913 -0.15124033 0.0061194301
-0.0031676332 -0.14993463 0.0063028038
-0.0021356563 -0.15163159 0.0061598718
-0.0010668333 -0.15149032 0.0065004528
0 -0.1493513 0.0068663061
0.0010734507 -0.15243 0.0070028603
0.0021276209 -0.15106109 0.0074224174
0.0031686968 -0.14998497 0.0072670877
0.0042744707 -0.15174372 0.007301718
0.0052806176 -0.14996955 0.0070669055
0.0063560326 -0.1504261 0.0075063109
0.007386555 -0.14984155 0.0075735748
0.0084853563 -0.15061507 0.0075711608
0.0094376281 -0.1489048 0.0077600777
0.010698902 -0.15192442 0.0074504018
0.011551067 -0.14911377 0.0073207319
0.012589684 -0.14897792 0.0073378682
0.013872748 -0.1515331 0.0076192617
0.014855202 -0.15067419 0.0070017874
0.01587685 -0.15030085 0.0076714456
0.017006507 -0.15093274 0.0069779754
0.017793687 -0.14862962 0.0069947243
0.019050946 -0.1502908 0.0066548288
0.020254061 -0.15137245 0.006387651
0.0210556 -0.14949477 0.0061283708
0.022337455 -0.15104374 0.0060721636
0.023483867 -0.1515777 0.0060560405
0.024115248 -0.14888544 0.0058009028
0.025508527 -0.15092546 0.0056623518
0.026619183 -0.15119696 0.0055256486
0.0275633 -0.15053803 0.0051175058
0.028571241 -0.15026356 0.0051428378
-0.0095390035 -0.14944439 0.00531739
-0.0086048478 -0.15166044 0.0053401589
-0.0073814406 -0.14868331 0.0054355562
-0.0063970629 -0.15033098 0.0057950318
-0.0053638672 -0.15126106 0.0061312616
-0.0042375289 -0.14937289 0.0065168142
-0.0031670388 -0.14885081 0.0069828629
-0.0021222681 -0.14961991 0.0070775449
-0.0010580692 -0.14918776 0.0073639154
0 -0.15006347 0.0075790584
0.0010595472 -0.14939615 0.0080518126
0.0021021676 -0.14820282 0.0082200468
0.0031861931 -0.14975108 0.0081600845
0.004201822 -0.14811423 0.0081637204
0.0053068209 -0.14965235 0.0081017017
0.0063910331 -0.15018928 0.008363843
0.0073942677 -0.14894168 0.0084490478
0.0085159484 -0.15009359 0.0084228516
0.0094209099 -0.14759426 0.0087088346
0.010761425 -0.1517361 0.0083124936
0.011705521 -0.15004349 0.0081017017
0.0126915 -0.14912511 0.0081657767
0.013755798 -0.1491975 0.0081323683
0.014977374 -0.15084356 0.0079515278
0.015958088 -0.15000603 0.0079925954
0.016682025 -0.14701036 0.0078458786
0.01804227 -0.14964472 0.0078340471
0.019333385 -0.15144485 0.007242322
0.020130336 -0.14938828 0.0071098804
0.021345662 -0.15048692 0.006408453
0.022385452 -0.15030232 0.0063117743
0.023322489 -0.14947596 0.0064961314
0.024475781 -0.15004718 0.0059145689
0.025530767 -0.14999326 0.0058250129
0.026902024 -0.15172741 0.0054367781
0.027674783 -0.15008247 0.005249083
0.028632799 -0.14952683 0.0051444769
-0.0096457684 -0.15004529 0.0052211881
-0.0085512614 -0.14964707 0.0053323805
-0.0074901357 -0.14980271 0.0054298639
-0.006384518 -0.14897208 0.0058616698
-0.0053883307 -0.15087326 0.0061218143
-0.0042369571 -0.1482935 0.0066531003
-0.0031841719 -0.14859469 0.0072050393
-0.0021463558 -0.15024491 0.0072451234
-0.0010628353 -0.14879695 0.0077915192
0 -0.14958414 0.0080316961
0.0010676269 -0.14946775 0.0085816979
0.0021177251 -0.14824076 0.0087783337
0.0031550683 -0.14723653 0.0087904036
0.004205015 -0.14717552 0.0087740421
0.0052750572 -0.14770161 0.0086697042
0.0064242659 -0.14989954 0.0088737309
0.007413127 -0.14826255 0.0088756084
0.0085328082 -0.14932415 0.0087055862
0.0094371196 -0.14679964 0.008651197
0.010566713 -0.14793399 0.0087055862
0.011743004 -0.14945643 0.0084582269
0.012780593 -0.14910692 0.0082604587
0.013680138 -0.14732456 0.0083604455
0.014742047 -0.14742047 0.0081478357
0.015783064 -0.1473086 0.0081478357
0.017118411 -0.1497861 0.0077807903
0.018127268 -0.14928338 0.0077807903
0.01900119 -0.14778703 0.007615
0.020125367 -0.14829218 0.0075095594
0.021190444 -0.1483331 0.0073460937
0.022103375 -0.14735584 0.0070230067
0.023276456 -0.14812289 0.0070160329
0.024401905 -0.14853333 0.0062714219
0.025707381 -0.14995973 0.0060698092
0.026355444 -0.14759049 0.005910784
0.027666513 -0.14897352 0.0053575933
0.028796276 -0.14931402 0.0055697262
0.029844776 -0.14922388 0.0051659048
0.030828498 -0.14882724 0.0050952435
-0.0086201811 -0.14977565 0.0053056479
-0.0074398387 -0.14773394 0.0057034791
-0.0064021065 -0.14831546 0.0060549676
-0.0053521292 -0.1487892 0.0064188838
-0.0042614564 -0.14808561 0.0067692995
-0.0032069897 -0.14859052 0.0074984431
-0.0021411022 -0.14880662 0.0077826381
-0.0010684889 -0.14851996 0.0082803369
0 -0.14763185 0.008669734
0.0010618598 -0.14759851 0.009357959
0.002126897 -0.14781934 0.0095707774
0.0032011298 -0.14831902 0.009732157
0.0042299689 -0.14699142 0.0095638633
0.0053328942 -0.14825445 0.0097110271
0.0063417391 -0.14691696 0.0097776651
0.0074675949 -0.14828509 0.009865284
0.008501824 -0.1477192 0.009524405
0.0093579656 -0.14452857 0.0097125173
0.010696569 -0.14868231 0.0095952153
0.011625566 -0.14690487 0.0093857944
0.012651758 -0.14654952 0.0089622736
0.01383427 -0.14792027 0.0088659525
0.014937013 -0.14830321 0.0087197721
0.015872151 -0.14708193 0.0087448061
0.017064076 -0.14824416 0.0081509352
0.017912667 -0.1464624 0.0081509352
0.019167701 -0.14801724 0.0081189871
0.020243857 -0.14809979 0.0078886449
0.021131884 -0.1468666 0.0078456402
0.022352152 -0.14794996 0.0075455904
0.023695752 -0.14971407 0.0078388453
0.024416156 -0.14755851 0.0070811808
0.025750753 -0.14913978 0.0068153739
0.0265333 -0.14752515 0.0062544942
0.027633507 -0.14773297 0.0061433017
0.028935866 -0.14896612 0.0063878298
0.02989525 -0.14840856 0.0054968894
0.030914957 -0.14817858 0.0052144229
-0.008582551 -0.148049 0.0051628351
-0.0075088204 -0.14803103 0.0056703687
-0.0063983612 -0.1471623 0.0059835017
-0.0053955051 -0.14891595 0.0063937902
-0.0042892769 -0.14798005 0.0065540671
-0.0032335473 -0.14874317 0.0072965622
-0.0021485048 -0.14824682 0.0078915954
-0.0010621209 -0.14657269 0.0080431998
0 -0.14679378 0.0087083578
0.0010484402 -0.14468475 0.009108007
0.0021186562 -0.14618728 0.0098383129
0.0032397658 -0.14902923 0.0099032819
0.0041994979 -0.14488266 0.010068804
0.0052711437 -0.14548357 0.0099811256
0.0063397358 -0.14581393 0.010194451
0.0074914112 -0.14768782 0.010390759
0.0084380712 -0.14555673 0.010122329
0.0096559534 -0.14805795 0.010202408
0.010644754 -0.14689761 0.010014862
0.011619287 -0.14576922 0.0098606646
0.012731557 -0.14641291 0.0096528232
0.013879231 -0.14733338 0.0093232691
0.014886841 -0.14674172 0.0091429353
0.0158707 -0.14601044 0.00911057
0.016913947 -0.14588279 0.0088389516
0.018141342 -0.147265 0.0086860955
0.019277856 -0.14779688 0.0086903572
0.020011662 -0.14534786 0.0083626211
0.021232858 -0.14650671 0.0083149672
0.02221356 -0.14597483 0.0080811083
0.023433644 -0.14699286 0.0078454316
0.024722692 -0.14833616 0.0076840818
0.025715986 -0.14786692 0.0071945786
0.026423028 -0.14585511 0.0067911148
0.027798554 -0.14754617 0.0070214868
0.028906321 -0.14774342 0.0069258213
0.029922452 -0.14747494 0.006396383
0.031140123 -0.14818403 0.0057540536
0.032086078 -0.14759596 0.005735755
0.033279669 -0.14814819 0.0055644512
0.033950072 -0.14640969 0.0053106248
-0.008489849 -0.14538866 0.0050799251
-0.0075185308 -0.14714839 0.0056075156
-0.0063650683 -0.14533572 0.0063973069
-0.0053645386 -0.14698836 0.0066367984
-0.0042829751 -0.1466919 0.0067310631
-0.0031760326 -0.14503881 0.0075956583
-0.0021435779 -0.14683509 0.0081726313
-0.0010581692 -0.14496918 0.0082326531
0 -0.1447017 0.0089831054
0.0010591766 -0.14510719 0.0093282759
0.0021170308 -0.1450166 0.010209531
0.0032261636 -0.14732814 0.010453612
0.0041850852 -0.14333917 0.010432631
0.0053384667 -0.14627399 0.010891318
0.0063533364 -0.14506784 0.011039674
0.0075006969 -0.14679936 0.011120379
0.0086206654 -0.1476289 0.010769784
0.0095564658 -0.14547065 0.010751456
0.010540095 -0.1443993 0.010592043
0.011751075 -0.1463543 0.010539979
0.012651448 -0.14443736 0.010328531
0.013649288 -0.14384249 0.010080546
0.014841503 -0.1452347 0.009907186
0.015749244 -0.14384308 0.009907186
0.017028827 -0.14580934 0.0097125769
0.018221213 -0.14684153 0.0092433691
0.019087523 -0.14527725 0.0091729164
0.020279584 -0.14622648 0.0088690519
0.02135987 -0.14631511 0.0088086724
0.022343129 -0.14576232 0.0086390376
0.023092993 -0.14380637 0.0083322525
0.024625288 -0.14668106 0.008076638
0.025604375 -0.14615831 0.0077239871
0.026362758 -0.14446792 0.0075362921
0.027805259 -0.14651233 0.007250309
0.028871793 -0.14649761 0.0069680512
0.029919725 -0.14639294 0.006631732
0.031692792 -0.14972112 0.0064468682
0.032132808 -0.14673983 0.006175667
0.032952495 -0.14562878 0.0059838891
0.033536553 -0.14357837 0.0056404471
0.035486333 -0.14732204 0.005223453
0.035958137 -0.14489014 0.0051878989
0.037679881 -0.14748982 0.005073458
-0.0097043561 -0.14664361 0.0055455267
-0.0084970575 -0.14444998 0.0057861209
-0.0075045577 -0.14580284 0.0063114762
-0.0064248992 -0.14563105 0.0066719353
-0.0053249095 -0.14483754 0.0071219802
-0.0042873137 -0.14576867 0.0072598159
-0.0032224888 -0.14608616 0.0078998208
-0.0021366179 -0.14529002 0.0084386468
-0.0010644052 -0.1447591 0.0088402927
0 -0.14406605 0.0094506741
0.0010457876 -0.14222711 0.0099413395
0.00208373 -0.14169364 0.010494083
0.0031870923 -0.14448152 0.010754615
0.0042334795 -0.1439383 0.011033773
0.005326095 -0.14486979 0.011141539
0.0063434411 -0.14378466 0.01150465
0.0073784026 -0.14335182 0.011428207
0.0084667057 -0.143934 0.011049062
0.0095555102 -0.14439437 0.01117596
0.010738742 -0.14604689 0.010920376
0.011616291 -0.1436196 0.010920376
0.012539884 -0.14211869 0.010748744
0.01395598 -0.14600103 0.010315418
0.014805987 -0.14382958 0.010161281
0.015920857 -0.14434911 0.010166615
0.016958892 -0.14415058 0.0099976063
0.018045267 -0.14436214 0.009883672
0.019362809 -0.14629678 0.0097286105
0.020172961 -0.14439593 0.0092433095
0.021395706 -0.14549081 0.0091915131
0.022140708 -0.14338744 0.0090044439
0.023313228 -0.14411815 0.0085919797
0.024274377 -0.14353545 0.0084424317
0.025579145 -0.14494848 0.0080441833
0.026367377 -0.14343853 0.0077865422
0.027662583 -0.14469658 0.0071451068
0.029039938 -0.14627525 0.0069167018
0.030024489 -0.14583324 0.0067565143
0.031072715 -0.14572032 0.0064898431
0.032314241 -0.14649123 0.0062510073
0.033390898 -0.1464891 0.0060321689
0.034656484 -0.14729005 0.0056695044
0.035167068 -0.14493094 0.0054227412
0.03673391 -0.14693564 0.0053565204
-0.010833174 -0.14624785 0.0053341091
-0.0096409749 -0.14461462 0.0061084032
-0.0085896412 -0.1449502 0.0064806342
-0.0074955085 -0.14455624 0.0066841245
-0.0064285272 -0.14464186 0.0070702136
-0.0052863918 -0.14273258 0.007666558
-0.0042738365 -0.14424199 0.0077372789
-0.0032228851 -0.14502983 0.0083208084
-0.0021176545 -0.14294167 0.008613497
-0.001067676 -0.14413626 0.0093993247
0 -0.14219053 0.0097425282
0.0010569975 -0.14269465 0.010220826
0.0021159933 -0.14282955 0.01102671
0.0031919181 -0.14363632 0.010849506
0.0042605484 -0.14379351 0.011153311
0.0052401214 -0.14148328 0.011508733
0.0063626831 -0.14316037 0.011664778
0.0074033299 -0.1427785 0.01187709
0.0085255811 -0.14386919 0.011387497
0.0096922191 -0.14538328 0.011366427
0.01064932 -0.14376581 0.011308461
0.011570659 -0.14200354 0.011287749
0.012734823 -0.14326677 0.011094838
0.013837437 -0.14369646 0.010825813
0.014853352 -0.14322875 0.010716915
0.016008096 -0.14407286 0.010747939
0.016846102 -0.14213899 0.010366619
0.018059473 -0.14341347 0.010161281
0.019196631 -0.14397474 0.010024905
0.020021064 -0.14225493 0.0095818341
0.021058159 -0.14214258 0.009408921
0.022434374 -0.14422098 0.0091975331
0.023249464 -0.14266716 0.0088401139
0.024563242 -0.14417554 0.0086010098
0.025712941 -0.14463529 0.0083232522
0.026664974 -0.14399086 0.007910341
0.028002953 -0.14539996 0.0073799491
0.028843692 -0.14421846 0.0076045692
0.0300248 -0.14476243 0.0071076453
0.031131366 -0.14492188 0.007227689
0.032131821 -0.14459319 0.0064172149
0.033145569 -0.14434361 0.006365478
0.033956718 -0.14325491 0.0058805645
0.035524409 -0.14532714 0.0054938197
0.036380619 -0.14445247 0.0052385628
0.03729409 -0.14384863 0.0050011873
-0.012886479 -0.14389902 0.0050421357
-0.011859754 -0.14447337 0.0051208436
-0.010641626 -0.14259779 0.0056656599
-0.00966773 -0.14394176 0.0060082972
-0.0086025167 -0.14409216 0.0063786805
-0.0074477694 -0.14257158 0.0068447292
-0.0064670229 -0.14443018 0.0071151555
-0.0054148836 -0.14511888 0.0075546205
-0.0042845379 -0.14353201 0.0078626573
-0.0032029636 -0.14306571 0.008984983
-0.0021322542 -0.14286104 0.0092186928
-0.0010568172 -0.14161351 0.0097012818
0 -0.14248094 0.010188401
0.0010540868 -0.14124763 0.010470688
0.0021148028 -0.14169179 0.011235356
0.003201361 -0.14299412 0.011483073
0.0042380029 -0.14197309 0.011377126
0.0052807429 -0.14152391 0.011642933
0.0064499294 -0.14404842 0.012075692
0.0073675876 -0.14103667 0.012139589
0.0084458403 -0.14146782 0.012020946
0.0095229894 -0.14178674 0.012066483
0.010625604 -0.1423831 0.011748582
0.011638485 -0.1417779 0.011748582
0.012742656 -0.14229299 0.011603534
0.013798124 -0.14222682 0.011311233
0.014911486 -0.14272423 0.011120975
0.015751885 -0.14071684 0.011189461
0.017007358 -0.14243662 0.010853171
0.018068554 -0.14242272 0.01037991
0.019162521 -0.14265433 0.0099895298
0.020102093 -0.14177266 0.0098261833
0.021422086 -0.14352798 0.009870857
0.022022381 -0.14052376 0.009555012
0.023383709 -0.14242804 0.0092183948
0.024590574 -0.14326683 0.0085754693
0.025711637 -0.14355664 0.0084277391
0.026539123 -0.14224969 0.0080371797
0.027955409 -0.14407788 0.0078701675
0.028869359 -0.14327756 0.0080038011
0.030185783 -0.14446053 0.0076481104
0.030901434 -0.14278594 0.0074627697
0.032485373 -0.14510132 0.0072239637
0.033332828 -0.14408384 0.0067673028
0.034255881 -0.14344649 0.0065395236
0.035778467 -0.14528225 0.006024003
0.036949929 -0.14562619 0.0058737397
0.036952548 -0.14147547 0.0054152012
-0.011827791 -0.14300874 0.0052990913
-0.010839297 -0.14416265 0.0059095919
-0.0096191131 -0.14214911 0.0061032176
-0.0085635791 -0.14236949 0.0065796673
-0.0074793319 -0.14210731 0.0071572959
-0.0063918619 -0.14168628 0.0075030327
-0.0053249439 -0.14164351 0.0079180002
-0.004290476 -0.14265832 0.0080918074
-0.0032011752 -0.14191878 0.0090755224
-0.0021353364 -0.14199987 0.0093668997
-0.0010549086 -0.14030284 0.010084122
0 -0.13935538 0.010576904
0.0010700533 -0.1423171 0.010763228
0.0021291599 -0.14158913 0.011348277
0.0031806859 -0.1410104 0.011870772
0.0042249104 -0.14047828 0.01193887
0.0053391964 -0.14202262 0.0122163
0.0063654953 -0.14110181 0.012763411
0.0074078348 -0.14074886 0.012715489
0.0085270004 -0.14176138 0.012567461
0.00948017 -0.14009584 0.012663901
0.010600615 -0.14098817 0.012279987
0.011634481 -0.14067146 0.012308806
0.012697708 -0.14073293 0.012090623
0.013756375 -0.14073829 0.011811674
0.014987052 -0.142377 0.011875749
0.01593866 -0.14132279 0.01177001
0.0170538 -0.14175971 0.011585951
0.017910082 -0.14012006 0.011062294
0.019288467 -0.14252034 0.01099655
0.020437855 -0.14306499 0.010224015
0.020932073 -0.13919829 0.01041609
0.022679774 -0.14363857 0.0099235475
0.023280513 -0.14074129 0.0090523958
0.024345027 -0.14077777 0.0089490116
0.025640458 -0.14209087 0.0087499321
0.026524138 -0.14110841 0.0084857941
0.027674953 -0.14156803 0.0085699558
0.028856488 -0.14214492 0.0087253451
0.02962009 -0.14069542 0.0079925358
0.030952837 -0.14195612 0.0080354512
0.032389555 -0.14359368 0.0074028671
0.033263072 -0.1427093 0.0069259703
0.034490757 -0.1433522 0.0067210793
0.035524663 -0.14317515 0.0060972571
0.036742866 -0.14372945 0.0056696236
0.037610807 -0.14292108 0.0053038299
-0.012701822 -0.13972004 0.0050935745
-0.011746719 -0.14096062 0.005651772
-0.010803066 -0.14260046 0.0060834587
-0.0096992459 -0.1422556 0.0064750016
-0.0086224619 -0.14227062 0.0069265664
-0.0076190219 -0.14367299 0.0071309507
-0.0064010741 -0.14082363 0.0080267489
-0.0054265028 -0.14325967 0.0084339678
-0.0042961584 -0.14177322 0.008611083
-0.0032034675 -0.14095257 0.0093931854
-0.0021557617 -0.14228027 0.009732157
-0.0010626779 -0.14027348 0.010483295
0 -0.14087789 0.011059225
0.001048535 -0.13840662 0.011186749
0.0021097681 -0.13924469 0.011494845
0.0031704879 -0.13950147 0.011837482
0.0042754798 -0.14109083 0.01224786
0.0053032069 -0.14000466 0.012283325
0.0063910922 -0.14060402 0.012805194
0.0074006701 -0.1395555 0.012873918
0.0084504029 -0.13943164 0.012844354
0.0096639562 -0.14173803 0.012867749
0.010618906 -0.14016956 0.012710422
0.011583361 -0.13900033 0.012552977
0.012733184 -0.14006501 0.012259752
0.013773956 -0.13985863 0.012208223
0.014909629 -0.1405765 0.011903167
0.01579864 -0.13902803 0.011811674
0.016880736 -0.13926606 0.011686295
0.018068271 -0.14029481 0.011473626
0.019022267 -0.13949662 0.011319488
0.020052046 -0.13930894 0.01061517
0.020960156 -0.13833703 0.010938168
0.022140091 -0.13916628 0.010517031
0.023421189 -0.14052713 0.0096552968
0.024432037 -0.14021865 0.0095845759
0.025665876 -0.14116232 0.0093854964
0.026565334 -0.14026496 0.0092597902
0.027659247 -0.14042388 0.0096176565
0.028873861 -0.1411611 0.0096565783
0.030127639 -0.1420303 0.0087525547
0.031253383 -0.14225677 0.0084971786
0.032272112 -0.14199729 0.0081605315
0.033064473 -0.14079066 0.0074334443
0.034826174 -0.14365797 0.0069086552
0.034895081 -0.13958032 0.006823957
0.036676314 -0.14239039 0.0061543882
0.037533905 -0.14155644 0.0058925748
0.038998872 -0.14299586 0.0053284764
-0.011957735 -0.14240575 0.0055643618
-0.010773271 -0.14112985 0.0060144961
-0.0096333642 -0.14021896 0.0065180361
-0.0085891029 -0.14064656 0.0070845783
-0.0075370227 -0.14105 0.0072808266
-0.0064455732 -0.14072835 0.0082175732
-0.0053373016 -0.13983729 0.0086542666
-0.0042768521 -0.14006691 0.0087656081
-0.0032506916 -0.14194687 0.0097186565
-0.0021487288 -0.14074174 0.0099329352
-0.0010643853 -0.13943447 0.010647446
0 -0.13961403 0.011113197
0.0010548723 -0.13818827 0.011270463
0.0021292272 -0.13946438 0.011706263
0.003212343 -0.14027232 0.011948973
0.0042271488 -0.13843913 0.011986047
0.0053560291 -0.14032796 0.012031972
0.0063439137 -0.13850878 0.012777507
0.0073643271 -0.13781813 0.013400167
0.0085453512 -0.13993013 0.012823194
0.009556327 -0.13909765 0.012700409
0.010731069 -0.140577 0.012641639
0.011673338 -0.13901883 0.012778819
0.012808563 -0.13982682 0.012667298
0.013776802 -0.13882777 0.01238665
0.014980117 -0.1401711 0.012551814
0.015981011 -0.13956749 0.012408525
0.017084766 -0.13988152 0.012212723
0.018157858 -0.13992232 0.012232572
0.018951328 -0.13792355 0.011857361
0.020267172 -0.13973682 0.011472046
0.021054663 -0.13790804 0.011311561
0.022261826 -0.13887139 0.011640102
0.02338686 -0.13925813 0.010903001
0.024222722 -0.1379642 0.010572106
0.025501715 -0.13919686 0.010368675
0.026877936 -0.14084038 0.010076761
0.027671136 -0.13941996 0.0099596679
0.02884784 -0.13996544 0.0094003975
0.030197091 -0.14127925 0.0088997483
0.0308403 -0.13931307 0.0085194111
0.032302015 -0.14105213 0.008199513
0.033256944 -0.14053741 0.0076143444
0.033809319 -0.1384069 0.0072084665
0.035674714 -0.1416178 0.0069028139
0.036607474 -0.14104645 0.0065951049
0.03751684 -0.14042017 0.0061530769
0.03923953 -0.14278829 0.0057142377
0.039411578 -0.13953829 0.005004853
-0.011955662 -0.14129418 0.0056759417
-0.010928337 -0.14206839 0.0058955848
-0.0096091069 -0.13879821 0.006395489
-0.0086432081 -0.14045213 0.0070335567
-0.0074765421 -0.13885008 0.0074723959
-0.0064151371 -0.13899463 0.007889688
-0.005353855 -0.13920023 0.009085089
-0.0042867684 -0.13931997 0.0093699098
-0.0031812354 -0.13785353 0.0098626614
-0.0021476245 -0.1395956 0.010448128
-0.0010650177 -0.13845229 0.010893315
0 -0.13862284 0.011471748
0.001066029 -0.13858376 0.011800677
0.0021101474 -0.13715959 0.012155265
0.0031801648 -0.13780713 0.012592733
0.0042534564 -0.13823733 0.012375593
0.005323221 -0.13840374 0.012610704
0.0063698115 -0.13801259 0.012807846
0.0075006913 -0.13929856 0.013069361
0.0085432874 -0.13882841 0.012928098
0.0096096415 -0.13880594 0.01292336
0.010664883 -0.13864347 0.012933582
0.011601119 -0.13710414 0.013021529
0.012679877 -0.13736533 0.013196826
0.013939574 -0.13939574 0.013008207
0.014791735 -0.13735183 0.012729198
0.016033296 -0.13895522 0.013043672
0.017140552 -0.13926698 0.012892753
0.017958453 -0.13732934 0.012712389
0.019273879 -0.13920024 0.012236774
0.020404514 -0.13960984 0.012102962
0.020945946 -0.13614865 0.012192786
0.022468405 -0.13909012 0.012060761
0.023436006 -0.13848549 0.011586636
0.024416042 -0.13800372 0.010958612
0.025700679 -0.13921201 0.01071617
0.026577644 -0.13820376 0.010343373
0.027923683 -0.13961841 0.010506302
0.028884133 -0.13907176 0.0099169612
0.029601721 -0.13743657 0.0092537105
0.031200988 -0.1398665 0.0088429153
0.031977568 -0.13856946 0.0081607997
0.033567127 -0.14076537 0.0079060793
0.034305666 -0.13936676 0.0074068606
0.035817068 -0.14109755 0.0071139634
0.036721777 -0.1404068 0.0067536235
0.037924822 -0.14086363 0.0060272515
0.038643941 -0.13954757 0.0057871342
-0.011895271 -0.13949908 0.0052804351
-0.010810987 -0.13946174 0.006147176
-0.009685453 -0.13882482 0.0065864027
-0.0086387675 -0.13930012 0.0070356429
-0.0075038536 -0.13828529 0.0077617168
-0.0064196256 -0.13802195 0.0083068907
-0.0053742644 -0.13865602 0.0092548132
-0.0042952416 -0.13852154 0.0095250309
-0.0031811451 -0.13678923 0.010048658
-0.0021565065 -0.13909467 0.010458231
-0.0010821316 -0.13959497 0.011148036
0 -0.13626312 0.011631489
0.0010806436 -0.13940302 0.011694938
0.002136746 -0.13782011 0.012110025
0.0032114994 -0.13809447 0.012420148
0.0042631025 -0.13748506 0.012420923
0.0052555311 -0.1355927 0.012499779
0.0064214109 -0.13806033 0.012661755
0.0074105398 -0.13656566 0.012960404
0.0085702138 -0.1381947 0.012831897
0.0095429951 -0.13678293 0.012919754
0.010608084 -0.13684429 0.012935758
0.011606643 -0.13611427 0.013026118
0.012949356 -0.13920557 0.013166815
0.013955501 -0.13848151 0.013378143
0.014986987 -0.13809438 0.013065249
0.015886582 -0.1366246 0.013227731
0.016926998 -0.13647392 0.013271868
0.018307693 -0.13892308 0.013271183
0.019322662 -0.13847907 0.013206929
0.02012278 -0.13662308 0.012937546
0.021468343 -0.13847081 0.012626171
0.022417931 -0.13771015 0.012184978
0.023397462 -0.13719422 0.011588663
0.024539724 -0.13763584 0.011154354
0.02588688 -0.13914199 0.011044949
0.026547197 -0.13698354 0.010845751
0.028099122 -0.13941488 0.010749042
0.029061418 -0.13884901 0.0099382102
0.029983213 -0.13813694 0.009468466
0.031331167 -0.13936968 0.0088464916
0.03215301 -0.13825794 0.0083723962
0.033101022 -0.13774297 0.0082159936
0.034525111 -0.13917935 0.0073810518
0.035464045 -0.13863216 0.0073168278
0.036130138 -0.13708198 0.0068639815
0.038054898 -0.14025947 0.0059810579
0.038380485 -0.13753007 0.0054539442
-0.01190416 -0.13852112 0.0050872862
-0.010839905 -0.13875079 0.0061608553
-0.0096423337 -0.13713542 0.0072446465
-0.0085647292 -0.13703567 0.0072863698
-0.0075315684 -0.13772011 0.0083811283
-0.0064333719 -0.13724527 0.0089081526
-0.0053711445 -0.1375013 0.0097803771
-0.0043272814 -0.138473 0.010074198
-0.0031964001 -0.13637975 0.010514379
-0.0021413271 -0.13704494 0.010900348
-0.0010622167 -0.13596374 0.011353701
0 -0.13677977 0.011976063
0.0010670404 -0.13658117 0.011980593
0.0021109562 -0.1351012 0.012312561
0.0032523174 -0.13876554 0.012586296
0.0042374819 -0.13559942 0.012629211
0.0053759082 -0.13762325 0.012756318
0.0063972878 -0.13647547 0.01279828
0.0074590449 -0.13639396 0.013177693
0.008588545 -0.13741672 0.013058811
0.0095887501 -0.13637334 0.013332695
0.010722624 -0.13724959 0.013333559
0.011632404 -0.13535888 0.013699114
0.012774745 -0.13626395 0.013768673
0.013915654 -0.13701567 0.013470411
0.014930724 -0.13650948 0.013531238
0.015966365 -0.13624631 0.013642311
0.016796906 -0.13437524 0.01360181
0.01815448 -0.13669255 0.013694733
0.019219318 -0.13667071 0.01373744
0.020332297 -0.13697548 0.013571143
0.02098714 -0.1343177 0.013420224
0.022193676 -0.13527574 0.012918413
0.023467332 -0.13653721 0.012521207
0.024596388 -0.13688424 0.012090564
0.025777783 -0.13748151 0.012039363
0.026797425 -0.13720281 0.011595041
0.028048985 -0.1380873 0.011249006
0.028776657 -0.13642266 0.010653466
0.029942391 -0.1368795 0.010091752
0.031432025 -0.13873444 0.0094581246
0.032328457 -0.13793476 0.0090211332
0.033742428 -0.13932358 0.0087931454
0.034457717 -0.13783087 0.0080285668
0.035756867 -0.1386933 0.0077576041
0.036835119 -0.13867338 0.0068446994
0.03753487 -0.13727038 0.0060409009
0.039069027 -0.1389121 0.0055790842
-0.013047985 -0.13809118 0.0053107142
-0.011903817 -0.13743497 0.0057806969
-0.010830669 -0.13754949 0.0066659153
-0.0097502992 -0.13758755 0.0072691143
-0.0086030355 -0.13657318 0.008082509
-0.007543839 -0.13686679 0.0090979338
-0.0064653261 -0.1368494 0.0095268786
-0.0053956937 -0.13705061 0.010460764
-0.0042787781 -0.1358512 0.010563016
-0.0032052184 -0.13568757 0.011096597
-0.0021410149 -0.13595444 0.011673808
-0.0010634267 -0.13505518 0.01198718
0 -0.13529775 0.012253553
0.0010667633 -0.13547893 0.012502551
0.0021642519 -0.13742998 0.012855142
0.0032062908 -0.13573298 0.012838751
0.0042713904 -0.13561665 0.012839347
0.0053456482 -0.13577946 0.013056576
0.0063348543 -0.13408776 0.013065428
0.0074525122 -0.13520986 0.014084995
0.0085472763 -0.13568801 0.013717592
0.0096221678 -0.13577949 0.013680786
0.010665675 -0.13545407 0.013641328
0.011691541 -0.13498417 0.013936192
0.012734238 -0.13477069 0.013854325
0.013838526 -0.13519175 0.013483793
0.014961018 -0.13571781 0.013650805
0.015945215 -0.13500282 0.013963491
0.017164789 -0.1362455 0.013885319
0.018177098 -0.13579361 0.014043182
0.019293621 -0.1361272 0.013866156
0.020128027 -0.13453998 0.013949841
0.021137327 -0.13422203 0.013585299
0.022345183 -0.13513516 0.013347656
0.023240013 -0.13415825 0.012681186
0.02431228 -0.13424607 0.012477458
0.025754077 -0.136282 0.012090087
0.02684853 -0.13639054 0.012009919
0.027861038 -0.13609046 0.011764169
0.029025979 -0.13652961 0.011135966
0.030156016 -0.13677908 0.010591447
0.031110529 -0.13624266 0.010092586
0.032594822 -0.13798474 0.009309411
0.033467099 -0.13710715 0.0090546906
0.034445181 -0.13670433 0.0085354149
0.035352081 -0.13605194 0.0076617002
0.03608907 -0.1348033 0.0065101683
0.038017675 -0.13794985 0.0060380399
0.038956784 -0.13743088 0.0056875944
0.040508907 -0.13904409 0.0050566494
-0.012018777 -0.13766964 0.0055963993
-0.010913139 -0.13750556 0.0061835349
-0.0097901998 -0.1370628 0.0070973039
-0.0086394232 -0.13607092 0.008040309
-0.0075014224 -0.13502561 0.0088709891
-0.0064268215 -0.13496326 0.0098205209
-0.0053850687 -0.13570373 0.010528117
-0.0042991098 -0.13542196 0.010670513
-0.0031986476 -0.13434321 0.011146665
-0.0021569047 -0.135885 0.011543483
-0.0010646317 -0.13414361 0.011986315
0 -0.13404636 0.01252833
0.00107107 -0.13495483 0.012601942
0.0021297215 -0.13417245 0.012923717
0.0032378125 -0.13598813 0.013409495
0.0042337766 -0.13336396 0.013770759
0.0053323149 -0.13437434 0.014287919
0.0064997803 -0.13649538 0.01440078
0.0074985013 -0.13497303 0.014724255
0.0084343934 -0.13284169 0.014679819
0.0096400101 -0.13496014 0.014588356
0.010680716 -0.13457702 0.014510781
0.011630716 -0.13322456 0.014812648
0.012833769 -0.13475457 0.014829725
0.013913055 -0.13484961 0.014540225
0.014943715 -0.13449344 0.01426363
0.015984718 -0.13427164 0.01428616
0.016994463 -0.1338314 0.014249384
0.018179383 -0.13474131 0.014466017
0.019349663 -0.13544764 0.014126807
0.020199502 -0.13395458 0.0145666
0.021398298 -0.13480929 0.014367133
0.022442965 -0.13465779 0.013905108
0.023855712 -0.13662817 0.013495713
0.024547936 -0.13448 0.013207316
0.025964437 -0.13631329 0.012929082
0.026828136 -0.13521381 0.01289627
0.027906308 -0.13523826 0.012227535
0.028798392 -0.1343925 0.011902541
0.03010658 -0.13547961 0.011561841
0.03109893 -0.1351195 0.011010349
0.031901691 -0.1339871 0.0099676847
0.033386622 -0.13570046 0.0097430944
0.034708206 -0.13666356 0.0090479553
0.035472192 -0.13543928 0.0081843436
0.036891304 -0.13671483 0.0072346032
0.037856311 -0.13628273 0.0065856874
0.039070822 -0.13674788 0.0058377981
0.040105697 -0.13657616 0.0052476227
-0.011998027 -0.13634121 0.0056083798
-0.010860281 -0.13575351 0.0063686371
-0.0096986014 -0.13470279 0.0074189603
-0.0085966103 -0.13432203 0.0081394613
-0.0075227884 -0.1343355 0.0091115534
-0.0064326106 -0.13401273 0.010053337
-0.0053618778 -0.13404694 0.011123538
-0.0042743497 -0.13357343 0.011157572
-0.0031959882 -0.13316618 0.011674285
-0.0021422615 -0.13389134 0.01205492
-0.0010671443 -0.13339303 0.012415469
0 -0.13375129 0.012752414
0.0010701264 -0.1337658 0.013191938
0.0021670731 -0.13544206 0.013353884
0.0031795271 -0.13248029 0.013901532
0.0042698169 -0.13343178 0.014036179
0.0053627728 -0.13406932 0.014274746
0.0063764323 -0.13284235 0.014426529
0.0074476479 -0.13299371 0.014729023
0.0085460413 -0.1335319 0.014676183
0.0096266884 -0.13370401 0.014802068
0.010650993 -0.13313742 0.014765471
0.011821604 -0.13433641 0.01518333
0.012768781 -0.13300814 0.014972746
0.013937211 -0.13401164 0.014664501
0.015135774 -0.13514085 0.014651388
0.016072448 -0.13393706 0.014764845
0.017017441 -0.13294876 0.014138013
0.0181066 -0.13313678 0.013869435
0.019089252 -0.13256425 0.014047951
0.020172447 -0.13271347 0.014175713
0.02110658 -0.13191614 0.013890326
0.022291793 -0.13268924 0.013877511
0.023637263 -0.13430263 0.013676167
0.024533052 -0.13333181 0.01354745
0.025634706 -0.13351409 0.013260931
0.026948957 -0.13474479 0.012872279
0.027929803 -0.13427791 0.012412667
0.029076578 -0.13461378 0.012521714
0.030038591 -0.13410085 0.012117684
0.031216543 -0.13455406 0.011449873
0.03212313 -0.13384637 0.010451406
0.03371517 -0.13594827 0.010109872
0.034611668 -0.13520184 0.0092953146
0.035790373 -0.13556959 0.008741051
0.036746334 -0.13509682 0.0076128244
0.037846401 -0.13516572 0.0068374276
0.038686387 -0.13432772 0.0061354339
0.03966888 -0.13401648 0.0056060851
0.040540133 -0.13335569 0.0052666366
-0.011931254 -0.13449776 0.0054800212
-0.010925425 -0.13547526 0.006911248
-0.0097153168 -0.13385548 0.0078804195
-0.0085694529 -0.13282652 0.0085607767
-0.0074977735 -0.1328177 0.0094241798
-0.0063334731 -0.13089179 0.010249376
-0.0053962134 -0.13382609 0.011095941
-0.0043249638 -0.13407388 0.011727661
-0.0032353771 -0.13372892 0.012119472
-0.0021300972 -0.13206604 0.012170911
-0.0010675049 -0.13237059 0.012604415
0 -0.13285936 0.012987018
0.0010740689 -0.13318455 0.013328165
0.0021509829 -0.13336094 0.013741195
0.0032142531 -0.13285579 0.014014989
0.0043096882 -0.13360032 0.014194101
0.0053240135 -0.13203554 0.014482677
0.0063961241 -0.13218658 0.014654696
0.0074597667 -0.13214444 0.014878839
0.0085403379 -0.13237524 0.014740825
0.0095928954 -0.13216878 0.014865428
0.010671291 -0.132324 0.014930904
0.011718652 -0.13210116 0.015249193
0.012784538 -0.13210689 0.015090615
0.013988446 -0.13342826 0.014743716
0.014929674 -0.13223426 0.014667034
0.016071619 -0.13285872 0.014673233
0.016952572 -0.13138244 0.014644891
0.018030601 -0.13151732 0.014453441
0.019230878 -0.13247938 0.014582545
0.02035138 -0.13281953 0.014673233
0.021178024 -0.13130374 0.01459235
0.02241442 -0.13235182 0.014109731
0.023313582 -0.13140383 0.014215469
0.024452237 -0.13182946 0.013888955
0.026036507 -0.13452195 0.013344169
0.026734706 -0.13260415 0.013095379
0.027922191 -0.13316737 0.012757927
0.029096043 -0.13362627 0.012411803
0.029957024 -0.13266683 0.011951268
0.03118564 -0.1333455 0.011636287
0.032598142 -0.13473898 0.011145175
0.033274665 -0.13309866 0.010633767
0.03440823 -0.13333189 0.010094315
0.03586724 -0.13477387 0.0091594756
0.036392756 -0.13272652 0.0082215965
0.038063094 -0.13485211 0.0074615777
0.039275032 -0.13528067 0.0065334737
0.039543644 -0.13252465 0.0060772002
0.041542634 -0.13556017 0.0055612922
0.04275354 -0.13593434 0.0051407218
-0.01207377 -0.13500671 0.0052031279
-0.01090761 -0.1341636 0.0065584481
-0.0095633101 -0.13069856 0.0076629221
-0.0086525315 -0.13303268 0.0085362196
-0.007482301 -0.13147472 0.0094719231
-0.0064183064 -0.13157529 0.0098240077
-0.0054254788 -0.13346678 0.010985792
-0.004307068 -0.13244233 0.012024641
-0.0032013529 -0.13125548 0.012134045
-0.0021420287 -0.13173477 0.012222558
-0.0010690539 -0.13149363 0.012474388
0 -0.13278647 0.012799293
0.0010664269 -0.1311705 0.013275892
0.0021306851 -0.13103713 0.013675421
0.0032004572 -0.13121875 0.014097512
0.0043042018 -0.13235421 0.014328122
0.0052935435 -0.13022117 0.014680356
0.0064326338 -0.13186899 0.014811814
0.0074697649 -0.13125443 0.015123278
0.0085484283 -0.13143209 0.015105128
0.0096626924 -0.13205679 0.015439034
0.010690353 -0.13149135 0.015639365
0.011677898 -0.13058014 0.015924543
0.012883308 -0.13205391 0.015712798
0.013975267 -0.13222753 0.015483797
0.014871139 -0.13065358 0.014952362
0.016038479 -0.13151553 0.015007675
0.016980128 -0.13053474 0.01491192
0.018169409 -0.13146101 0.014649868
0.019271614 -0.13168935 0.014714092
0.020130377 -0.1303177 0.01485309
0.02144382 -0.13187949 0.014535457
0.022329189 -0.13078524 0.014265925
0.023397347 -0.13081244 0.014060974
0.024472656 -0.13087551 0.013694763
0.025631798 -0.13136297 0.013114572
0.026573721 -0.13074271 0.012938201
0.028039895 -0.13265027 0.012422055
0.029020457 -0.13220429 0.012396812
0.029971939 -0.13166244 0.012018949
0.031434316 -0.13332485 0.011541516
0.032367848 -0.13270818 0.011056721
0.033427779 -0.13263281 0.010492533
0.034160588 -0.13130476 0.0097024143
0.035936125 -0.13394374 0.0093513727
0.036750689 -0.13295102 0.0085042417
0.037611458 -0.13217741 0.0079417825
0.03903332 -0.13336384 0.0070817769
0.040346481 -0.13412479 0.0065606833
0.041631002 -0.13475297 0.0058021843
0.042524397 -0.13411541 0.0055125356
-0.010674737 -0.1302318 0.0062446594
-0.009589538 -0.12999152 0.007804513
-0.008498189 -0.12959738 0.0083441734
-0.0073952791 -0.12888916 0.0097312927
-0.0063526756 -0.12917107 0.0099512339
-0.0052821254 -0.12888387 0.01079464
-0.0042062225 -0.12828979 0.01183632
-0.0031631554 -0.12863499 0.011890829
-0.0021294693 -0.12989762 0.012132257
-0.0010584126 -0.12912634 0.012405902
0 -0.12940364 0.012543917
0.0010575763 -0.1290243 0.013145447
0.0021346062 -0.13021098 0.013576865
0.0031837628 -0.12947302 0.013987631
0.0042391941 -0.12929541 0.014010668
0.0053502168 -0.13054529 0.014336795
0.0063877953 -0.12988517 0.014796853
0.0074479566 -0.12980725 0.015449733
0.0085650776 -0.13061744 0.01536569
0.0096212476 -0.13042136 0.015502661
0.010628757 -0.12967083 0.015673161
0.011694837 -0.12970637 0.015772521
0.012932666 -0.13148211 0.015848547
0.01374157 -0.12895934 0.015657008
0.015019734 -0.13088626 0.015571177
0.016026706 -0.13035053 0.015572995
0.017030535 -0.12985784 0.014982253
0.018216936 -0.1307333 0.015149623
0.01910067 -0.1294601 0.014823824
0.020291096 -0.1302902 0.015245467
0.021386385 -0.13045695 0.01522854
0.022272557 -0.12939295 0.014873385
0.023544047 -0.13056244 0.014566123
0.024509417 -0.13000648 0.013712198
0.025488446 -0.12956627 0.013350785
0.026883436 -0.13119116 0.013322651
0.027805723 -0.130473 0.01293692
0.028878652 -0.13048872 0.013011813
0.030383827 -0.13238668 0.01243335
0.031285632 -0.13161543 0.011914462
0.032333735 -0.13149051 0.011092335
0.033680562 -0.13254932 0.01030466
0.034701429 -0.1322992 0.0098206103
0.035629597 -0.13172154 0.0095412731
0.037264608 -0.13371418 0.0084940791
0.037850734 -0.13193685 0.0078951418
0.039204571 -0.13285993 0.0070773959
0.040229805 -0.13264963 0.0063656271
0.041283026 -0.13254024 0.0054457784
-0.010962549 -0.13264684 0.0055407584
-0.0099383751 -0.13361593 0.0068329573
-0.0087351361 -0.13211893 0.0086548328
-0.0076335487 -0.13195135 0.0094041228
-0.0065052924 -0.13119006 0.010211736
-0.0053558215 -0.12961088 0.010980636
-0.0043758461 -0.13236934 0.011718005
-0.0032313957 -0.13033296 0.011946023
-0.0021340968 -0.12911285 0.012196213
-0.0010626954 -0.12858614 0.01203984
0 -0.12917225 0.012059599
0.0010732135 -0.12985884 0.012573689
0.0021170049 -0.1280788 0.013169408
0.0031492843 -0.12702113 0.014050186
0.0042608688 -0.12889127 0.014438599
0.0052249511 -0.12644382 0.014991909
0.0063618775 -0.12829787 0.015128553
0.0074055879 -0.12801087 0.015668273
0.008478445 -0.12823647 0.015594184
0.0095098019 -0.127854 0.015743107
0.010624394 -0.12855516 0.015739918
0.01147581 -0.12623391 0.015774518
0.012566229 -0.12670948 0.015766263
0.013742073 -0.12790699 0.015622854
0.014725209 -0.12726788 0.015440106
0.015773846 -0.12724236 0.015555382
0.016824828 -0.12723777 0.015292645
0.01775991 -0.12640877 0.015198976
0.019147608 -0.12871449 0.015276223
0.019933501 -0.12694493 0.015173644
0.021069719 -0.12747179 0.015131295
0.022139287 -0.12756446 0.014962226
0.023004126 -0.12652269 0.014716327
0.02437727 -0.12824564 0.014152735
0.025845941 -0.13030662 0.013653934
0.026905486 -0.13022256 0.013560116
0.02809374 -0.13074395 0.013201207
0.029114904 -0.13047791 0.012993336
0.030064734 -0.1299226 0.012585908
0.030963756 -0.1291936 0.012117654
0.03260516 -0.13150747 0.011684716
0.033451252 -0.13056779 0.01053834
0.034083419 -0.12887794 0.0095960796
0.035709817 -0.130936 0.0089147687
0.036472745 -0.12980007 0.0084966719
0.037685718 -0.13028491 0.0077737272
0.039037146 -0.13120818 0.0073501468
0.040097378 -0.13112926 0.0066566169
0.04130983 -0.1315392 0.0055015981
-0.01123384 -0.13480608 0.0056865811
-0.0096951649 -0.12926885 0.0070914328
-0.0087207081 -0.13081062 0.0085315406
-0.0075485227 -0.12940325 0.0095459223
-0.0064399247 -0.12879848 0.01052776
-0.0054926327 -0.13182318 0.011155218
-0.0043105208 -0.12931561 0.011772484
-0.003240851 -0.12963404 0.012125313
-0.0021876253 -0.13125752 0.011994183
-0.0010769614 -0.12923536 0.012474269
0 -0.12933619 0.012201041
0.0010960348 -0.13152418 0.01282838
0.0021558164 -0.12934899 0.013510466
0.0032867696 -0.13147078 0.013938487
0.0042954544 -0.12886363 0.014118046
0.0054059415 -0.12974259 0.014836997
0.0064578601 -0.1291572 0.014723927
0.007638914 -0.13095281 0.01519236
0.0088417027 -0.13262554 0.01549685
0.0096650375 -0.12886716 0.01558578
0.010914052 -0.13096862 0.015299916
0.011825869 -0.12900947 0.015357614
0.013085091 -0.13085091 0.015337765
0.014238934 -0.13143632 0.015436858
0.015185755 -0.13016361 0.015145838
0.016224222 -0.12979378 0.015203178
0.017394084 -0.13045563 0.015001446
0.018612426 -0.13138182 0.015185982
0.019434255 -0.12956169 0.015017211
0.020461727 -0.12923196 0.014979362
0.021637669 -0.12982601 0.014944196
0.023035262 -0.13163008 0.014894336
0.023895267 -0.13033782 0.013947189
0.025190867 -0.13143061 0.013947189
0.025838342 -0.12919171 0.013599157
0.026915468 -0.12919424 0.013615817
0.027973853 -0.12911008 0.013173699
0.029343169 -0.13041408 0.013066113
0.030075869 -0.12889658 0.012428015
0.03139722 -0.12991953 0.012219131
0.032207604 -0.12883042 0.012024432
0.033465493 -0.12954384 0.011215627
0.034920018 -0.13095006 0.0095072985
0.035945278 -0.1307101 0.0091768205
0.036711086 -0.12956853 0.0083264112
0.038022824 -0.13036397 0.0076543689
0.039180245 -0.13060081 0.0068646073
0.040466931 -0.13124409 0.0061269701
0.041653145 -0.13153625 0.0051628351
-0.01112678 -0.13240868 0.005697161
-0.0095480112 -0.12624593 0.0076390505
-0.0086578904 -0.12878612 0.0092422962
-0.0076212133 -0.12956062 0.010129482
-0.0064290059 -0.12750863 0.011336833
-0.0053965626 -0.12843819 0.011959761
-0.0042582676 -0.12668346 0.012634188
-0.0032197889 -0.12771828 0.012680441
-0.0021505065 -0.12795512 0.012769878
-0.0010664095 -0.12690273 0.013325959
0 -0.1264689 0.013518333
0.001062282 -0.12641156 0.013635755
0.0021210753 -0.12620398 0.014407068
0.0032391702 -0.12848708 0.015020341
0.004242715 -0.12622078 0.015247166
0.0053391401 -0.12707153 0.015351295
0.0064727897 -0.12837699 0.015608698
0.0073884279 -0.12560327 0.015773267
0.0086325305 -0.12840889 0.015975863
0.0097170221 -0.12848063 0.016164243
0.010632815 -0.1265305 0.015942752
0.011719039 -0.12677869 0.01593101
0.012863884 -0.12756684 0.01591593
0.013910734 -0.12733671 0.01591593
0.015097589 -0.1283295 0.015710235
0.016225692 -0.12872382 0.015808851
0.017142251 -0.12749548 0.015468687
0.018386599 -0.12870619 0.015734136
0.019275716 -0.1274339 0.015538424
0.02044197 -0.12803128 0.015399545
0.021503396 -0.1279452 0.01533106
0.022765227 -0.12900296 0.015319079
0.023563672 -0.12745804 0.014362425
0.025561405 -0.13225248 0.014262795
0.025297439 -0.12543313 0.014072239
0.027068604 -0.12884656 0.01365605
0.027898699 -0.1276902 0.013239354
0.029284615 -0.12906922 0.013178647
0.030447781 -0.12940307 0.012653589
0.031425998 -0.12895496 0.012522608
0.032432325 -0.12864822 0.012237549
0.03350544 -0.12861764 0.011655867
0.034774397 -0.1293173 0.010112226
0.035991866 -0.12978885 0.0096286833
0.037004165 -0.12951459 0.0087641478
0.038126398 -0.12962975 0.007912606
0.039072268 -0.12915555 0.0068333745
0.040239237 -0.12941809 0.0061180592
-0.011008784 -0.12990366 0.0051805079
-0.0097776158 -0.12819541 0.0068092644
-0.0087347403 -0.12883742 0.0093009174
-0.0075783171 -0.12774877 0.010286689
-0.0065157027 -0.12814215 0.012250364
-0.005328198 -0.12574546 0.012575895
-0.0043373606 -0.12795214 0.013850212
-0.0032263377 -0.12690261 0.01395309
-0.002202034 -0.12992001 0.014007598
-0.0010773271 -0.12712459 0.014120936
0 -0.12530296 0.014649063
0.0010899551 -0.12861469 0.014783621
0.0021734268 -0.12823218 0.015492767
0.0032338782 -0.12719922 0.015848637
0.0042195846 -0.12447775 0.015881181
0.0054583577 -0.12881725 0.015785009
0.0065810499 -0.12942731 0.015881181
0.0074899341 -0.12625889 0.016019821
0.0086495327 -0.12758061 0.015927672
0.0095697539 -0.1254701 0.01621902
0.010706641 -0.12633836 0.015815854
0.011950955 -0.12820116 0.015975505
0.012792429 -0.12579222 0.015909731
0.013664568 -0.12403224 0.016154706
0.015268843 -0.12869453 0.015861511
0.016265644 -0.12795641 0.016300023
0.017172346 -0.12664606 0.01593551
0.018094376 -0.12559626 0.016471207
0.01927297 -0.12634502 0.015997261
0.020693552 -0.12851785 0.015875399
0.021511143 -0.12691574 0.015212268
0.022838712 -0.12833181 0.015343428
0.023849556 -0.12792034 0.014625341
0.024649898 -0.12646469 0.014625341
0.026290122 -0.12925977 0.014368862
0.026887203 -0.12690759 0.014197141
0.02826589 -0.12828365 0.013763934
0.029333865 -0.12819986 0.013413161
0.030298263 -0.12768553 0.012958348
0.031229563 -0.12707201 0.012957782
0.032418914 -0.12751439 0.012575984
0.033663623 -0.12813896 0.012121618
0.034475699 -0.12712914 0.010669827
0.036056008 -0.12892754 0.010072529
0.036891755 -0.12803608 0.0091904402
0.038442723 -0.1296069 0.0080915987
0.039341692 -0.12895332 0.006949693
0.040441137 -0.12897444 0.0064884722
0.041957345 -0.1302886 0.0050617456
-0.01109892 -0.12985736 0.0050894916
-0.0095936153 -0.124717 0.0073004663
-0.0086483024 -0.12648143 0.0096622705
-0.007539948 -0.12602484 0.011208534
-0.0064961142 -0.12667422 0.012992978
-0.0054612062 -0.12779222 0.013892353
-0.0043626167 -0.12760654 0.014591634
-0.003254249 -0.12691571 0.014682353
-0.0021725255 -0.12709273 0.014623016
-0.0010733992 -0.12558772 0.014759481
0 -0.1264848 0.015321076
0.0010844165 -0.12687673 0.015342236
0.0021446235 -0.12546048 0.015424311
0.0032370051 -0.12624319 0.015580565
0.0043139993 -0.12618448 0.015731245
0.0053953468 -0.12625112 0.015988648
0.0064842594 -0.12644306 0.015717059
0.0076836897 -0.12842739 0.016150951
0.0087689897 -0.12824647 0.016638726
0.0096469522 -0.12541038 0.016839325
0.010971421 -0.12836564 0.016308844
0.011818267 -0.12570338 0.016247481
0.0128853 -0.12563166 0.016204774
0.014069278 -0.1266235 0.016588777
0.015069033 -0.12593406 0.016588777
0.016192451 -0.12630112 0.016857475
0.017296184 -0.12647834 0.016752601
0.018696746 -0.12867761 0.016952425
0.019180737 -0.1246748 0.016667962
0.020682741 -0.12736213 0.016185015
0.021752005 -0.12724924 0.014895707
0.022568066 -0.12573636 0.015391111
0.023488414 -0.12491566 0.015018255
0.024463378 -0.12444413 0.01496017
0.026563445 -0.1294968 0.014832854
0.026745817 -0.12517042 0.014805228
0.028243301 -0.12709485 0.014293402
0.029315239 -0.1270327 0.014110863
0.030227041 -0.12630585 0.013522476
0.03108819 -0.12542477 0.013369948
0.032072101 -0.1250812 0.012878388
0.033314645 -0.12573591 0.012318224
0.034715187 -0.12692741 0.010898411
0.03561582 -0.12627427 0.010134369
0.037290264 -0.12832238 0.0091720521
0.03862758 -0.12912649 0.008238554
0.039499484 -0.12837332 0.0067243874
0.040409118 -0.12778018 0.0055108964
-0.011273514 -0.13077277 0.0054556429
-0.0098831719 -0.1273831 0.0074060261
-0.0086997263 -0.12614603 0.0096493959
-0.0075006611 -0.12429667 0.011147559
-0.0066011753 -0.12762272 0.012940526
-0.0054643238 -0.12677231 0.013553888
-0.0043138331 -0.12510116 0.014489233
-0.0032289736 -0.12485365 0.014609218
-0.0021536401 -0.12491113 0.014608681
-0.0010816222 -0.12546816 0.015103132
0 -0.12810215 0.015366703
0.0010931237 -0.12680234 0.015462071
0.0021535205 -0.12490419 0.015462071
0.0032715641 -0.12650047 0.015473723
0.0042771739 -0.12403804 0.015775472
0.0055194311 -0.1280508 0.015918344
0.0064175297 -0.12407225 0.0157381
0.0075375563 -0.12490807 0.016053766
0.008690143 -0.12600708 0.016192496
0.0096195992 -0.12398594 0.016586334
0.011026785 -0.1279107 0.016327947
0.011960727 -0.12613131 0.016522706
0.012852437 -0.12424023 0.016351551
0.013846925 -0.12355718 0.016731709
0.014939358 -0.12378326 0.016784966
0.016276237 -0.12586957 0.017020553
0.017247645 -0.12504542 0.016887367
0.018336013 -0.12511632 0.016890645
0.019136788 -0.12332597 0.016781569
0.021027658 -0.12837937 0.015762269
0.021326441 -0.12369336 0.015407324
0.022505583 -0.12431655 0.015562266
0.023696613 -0.12494578 0.015350074
0.024991851 -0.12604587 0.015392691
0.026608666 -0.12860855 0.015295237
0.02691656 -0.12489284 0.015322864
0.027872358 -0.1243536 0.014832824
0.028779995 -0.12364738 0.01482439
0.033281412 -0.13788013 0.014457226
0.03383166 -0.13532664 0.014005065
0.036042336 -0.13936369 0.013564736
0.036609221 -0.13698934 0.013063282
0.037867114 -0.13726829 0.012043834
0.038290169 -0.13459575 0.010783553
0.038693614 -0.1320135 0.0096032619
0.0378097 -0.12531215 0.0078602135
0.039932162 -0.12867031 0.0069770217
0.040396709 -0.12664914 0.0056445599
-0.011076742 -0.12738253 0.0058204234
