ply
format ascii 1.0
comment PCL generated
element vertex 1279
property float x
property float y
property float z
element camera 0
property float view_px
property float view_py
property float view_pz
property float x_axisx
property float x_axisy
property float x_axisz
property float y_axisx
property float y_axisy
property float y_axisz
property float z_axisx
property float z_axisy
property float z_axisz
property float focal
property float scalex
property float scaley
property float centerx
property float centery
property int viewportx
property int viewporty
property float k1
property float k2
end_header
0.0074637346 -0.022391204 0.0061326325
0.0087209744 -0.022425361 0.0063908696
0.0099965539 -0.022492245 0.0064290762
0.01128771 -0.022575419 0.0067925155
0.01238656 -0.02229581 0.0065742731
0.013709349 -0.02243348 0.0064734221
0.015088953 -0.02263343 0.0064035654
0.016307913 -0.022580188 0.0063011646
0.017629042 -0.02266591 0.005980134
0.018792553 -0.022551063 0.0060421824
0.020059034 -0.022566414 0.0061571002
0.021086136 -0.022326497 0.0061152577
0.022763083 -0.022763083 0.0058965683
0.02352114 -0.022283185 0.0056609511
0.025237694 -0.022713924 0.0055474043
0.026219137 -0.022473546 0.005371511
0.027486732 -0.022489145 0.0053542256
0.0037557636 -0.021282662 0.0055845678
0.0049449997 -0.021016249 0.0061432421
0.006274208 -0.021332307 0.0062957704
0.0074930014 -0.021230171 0.0068219006
0.0088309534 -0.021446601 0.0073607266
0.0099975877 -0.021244874 0.0072668791
0.011150837 -0.021062693 0.0074705482
0.012325187 -0.020952819 0.0073713064
0.01380181 -0.02133007 0.0072852671
0.015091221 -0.021379229 0.0069683194
0.016266081 -0.021271029 0.0070578456
0.017539697 -0.021298202 0.0063980222
0.018761637 -0.021263188 0.0066449642
0.020191502 -0.021453472 0.0070057511
0.021421287 -0.021421287 0.0068914294
0.02231985 -0.021079859 0.0066024065
0.023921063 -0.021403056 0.0064980984
0.024925305 -0.021186508 0.0065230131
0.026149087 -0.021168308 0.006342113
0.027723595 -0.021422777 0.0059523582
0.029194975 -0.021578895 0.0055311918
0.0024968199 -0.01997456 0.0056901574
0.0037404243 -0.01994893 0.0066368878
0.0049968618 -0.019987447 0.0069274902
0.0062109069 -0.019874902 0.0070821643
0.0075813681 -0.020216981 0.0076123476
0.0087189022 -0.019928919 0.0085816085
0.0099396529 -0.019879306 0.0086339116
0.011339243 -0.020158654 0.0084806979
0.012421957 -0.019875132 0.0084713399
0.013714793 -0.01994879 0.008580327
0.015032799 -0.020043733 0.0085495114
0.016288219 -0.020047039 0.0083694458
0.017474966 -0.019971389 0.0076282024
0.018646676 -0.019889787 0.0084509254
0.020078594 -0.020078594 0.008505106
0.021280663 -0.020028859 0.0081645846
0.022866022 -0.020325353 0.0079642534
0.023873672 -0.020104144 0.0077680349
0.024697954 -0.019758364 0.0075116754
0.026035495 -0.019836567 0.0070388913
0.027913421 -0.02030067 0.0064607263
0.028578557 -0.019880734 0.0058859587
0.030453978 -0.020302651 0.0054076314
0.031599611 -0.020223752 0.0051949024
-0.0025043506 -0.018782629 0.0050184131
-0.0012450059 -0.018675089 0.005214572
0 -0.018853152 0.0056499839
0.0012399548 -0.018599322 0.0062146783
0.0024812252 -0.018609188 0.0069638193
0.0037500774 -0.018750388 0.0075942576
0.0050248224 -0.018843085 0.0082743466
0.0062166536 -0.01864996 0.0082820654
0.0074980641 -0.01874516 0.0084700584
0.0087674065 -0.018787298 0.0091865659
0.0099055236 -0.018572858 0.0093461871
0.011288779 -0.018814633 0.0095126927
0.01229352 -0.01844028 0.009688139
0.01375486 -0.018756628 0.0095235407
0.014933424 -0.01866678 0.0095981061
0.016409881 -0.018934479 0.009532392
0.0175285 -0.018780535 0.0091691017
0.018940305 -0.018940305 0.0091348886
0.020166993 -0.018906556 0.0090574622
0.021332204 -0.018822534 0.008829236
0.022813298 -0.01901108 0.0086616278
0.024069849 -0.019002514 0.0082901716
0.025058886 -0.018794164 0.0079978108
0.026593084 -0.01899506 0.0075168014
0.027361073 -0.018655278 0.0070338845
0.028860681 -0.018822184 0.0063379407
0.030307926 -0.018942453 0.005943954
0.031720843 -0.019032506 0.0055894852
-0.0049787574 -0.017425651 0.0050747991
-0.00380114 -0.017738653 0.0052931011
-0.0024975033 -0.017482523 0.0058782697
-0.0012343425 -0.017280795 0.0062981248
0 -0.017495519 0.0065342784
0.0012250937 -0.017151313 0.0073071718
0.0024915403 -0.017440783 0.0079064965
0.0037542281 -0.017519731 0.0085991025
0.0049814344 -0.01743502 0.0091599226
0.0062393951 -0.017470306 0.0096855164
0.0075049051 -0.017511446 0.0099785924
0.008703839 -0.017407678 0.010253131
0.010007616 -0.017513327 0.010369122
0.01134776 -0.01765207 0.010429859
0.012506902 -0.017509663 0.010322511
0.013719896 -0.017461685 0.010426819
0.014939813 -0.017429782 0.010451734
0.016389096 -0.017649796 0.010547638
0.017527424 -0.017527424 0.010136992
0.018795932 -0.017542871 0.010139287
0.019947838 -0.017454358 0.0099896491
0.021290587 -0.017533425 0.0095047355
0.022490194 -0.017492373 0.0093829632
0.023785422 -0.017526099 0.008993268
0.025225079 -0.017657556 0.0084940791
0.026251998 -0.017501332 0.0082833171
0.027424909 -0.017452216 0.0078228712
0.028839348 -0.017554386 0.0069893599
0.029896427 -0.017439583 0.0065116286
0.031734046 -0.017771065 0.0061906576
0.032873474 -0.017701102 0.0051984787
-0.0087432805 -0.016237522 0.0053422153
-0.0075109676 -0.016273763 0.0056158602
-0.006212513 -0.016152535 0.0060485303
-0.0050044595 -0.016264495 0.0063370168
-0.0037521492 -0.016259313 0.0068208575
-0.0024854108 -0.01615517 0.007073611
-0.0012496525 -0.016245482 0.0073250234
0 -0.016099218 0.0076979995
0.0012528768 -0.016287399 0.0083402395
0.0025267797 -0.016424067 0.0089381337
0.0037238607 -0.01613673 0.0093428493
0.0050127334 -0.016291384 0.010000646
0.0062660454 -0.016291717 0.010712892
0.0075011132 -0.016252412 0.011157721
0.0087343389 -0.016220916 0.011531025
0.0099120522 -0.016107084 0.011751741
0.011123099 -0.016066698 0.012156218
0.012497543 -0.016246807 0.012191147
0.013629332 -0.016107393 0.012033194
0.014991352 -0.016240632 0.011975139
0.016388768 -0.016388768 0.011713564
0.01743431 -0.016189003 0.011500925
0.018717147 -0.016221527 0.011009187
0.020008748 -0.016257107 0.011163384
0.021192018 -0.016205661 0.010714293
0.022467896 -0.016226813 0.010098994
0.023853095 -0.016320538 0.0097130537
0.025034999 -0.01627275 0.0091397166
0.026273198 -0.01626436 0.0088576078
0.027679665 -0.016356166 0.0085275173
0.028782921 -0.016268607 0.0076423883
0.030252973 -0.016387027 0.0070441961
0.031352375 -0.016303236 0.0067842603
0.032746535 -0.016373267 0.005774498
0.033987325 -0.016364267 0.0052244663
-0.011493364 -0.015324485 0.0053469539
-0.010028581 -0.015042871 0.0054787397
-0.0087183705 -0.014945779 0.0059642494
-0.0074750152 -0.01495003 0.0063201785
-0.006312415 -0.015149795 0.0071320832
-0.0049967915 -0.014990375 0.0071178377
-0.0037195745 -0.014878298 0.0073145032
-0.0024815795 -0.014889478 0.0076239407
-0.0012427478 -0.014912973 0.0081477761
0 -0.014795504 0.008439213
0.0012536965 -0.015044358 0.0089759529
0.0025061532 -0.015036919 0.0097170174
0.0037422013 -0.014968805 0.010498852
0.0049980083 -0.014994024 0.011165828
0.0062397327 -0.014975359 0.012304425
0.007395098 -0.014790196 0.012557
0.0086975107 -0.014910019 0.01265192
0.0099103572 -0.014865535 0.013408899
0.01113707 -0.014849426 0.013694465
0.012451625 -0.01494195 0.013782054
0.013592223 -0.01482788 0.014027804
0.014873514 -0.014873514 0.013843864
0.016135432 -0.014894245 0.01369229
0.017455161 -0.014961566 0.01283738
0.018828833 -0.015063066 0.012753367
0.01979431 -0.014845732 0.012659997
0.021291714 -0.015029445 0.011665046
0.022679536 -0.01511969 0.011150241
0.023898663 -0.015093893 0.010386944
0.02499306 -0.014995837 0.009875536
0.026411586 -0.015092335 0.009978354
0.027578738 -0.015042949 0.0094932318
0.029131383 -0.015198982 0.0084328055
0.030075863 -0.015037932 0.0078430176
0.031192224 -0.014972268 0.0073879957
0.03299978 -0.015230668 0.0065113306
0.034314178 -0.015250746 0.0059559941
0.035626587 -0.015268537 0.0055556893
0.036925886 -0.015279677 0.0053068995
0.037668142 -0.015067258 0.0050441623
-0.011293239 -0.013802848 0.0055270791
-0.0099703781 -0.01370927 0.0057041645
-0.0087129958 -0.013691851 0.0067479312
-0.0075539597 -0.013848926 0.007702589
-0.0062662959 -0.013785851 0.00802508
-0.0049650129 -0.013653786 0.0080325902
-0.00370359 -0.01357983 0.008281678
-0.0024897754 -0.013693765 0.0086204112
-0.0012456899 -0.01370259 0.0088037848
0 -0.013761503 0.0096532106
0.0012278709 -0.013506581 0.010435939
0.0025130068 -0.013821538 0.011121005
0.0037253005 -0.013659435 0.011562884
0.0048837671 -0.01343036 0.012580305
0.0061544031 -0.013539687 0.013317615
0.0074445033 -0.013648256 0.01361984
0.0086351028 -0.013569446 0.013977915
0.010029237 -0.0137902 0.014920682
0.011153154 -0.013631633 0.015222698
0.012299252 -0.013529177 0.015262336
0.013605865 -0.013605865 0.015591502
0.014975193 -0.013727261 0.015188068
0.016147591 -0.013663346 0.014928818
0.017487809 -0.013740421 0.014049679
0.018602159 -0.013641583 0.013802856
0.019929843 -0.013701768 0.013693333
0.021107182 -0.013657589 0.013250262
0.022245744 -0.013594621 0.012687951
0.023873663 -0.013821593 0.012031913
0.025091901 -0.013800546 0.011535764
0.026218163 -0.013733324 0.01110065
0.0278464 -0.0139232 0.010611057
0.028693331 -0.013722898 0.0095658302
0.030211879 -0.013847111 0.0086490512
0.031713277 -0.013953841 0.0081843138
0.032875616 -0.013908914 0.0070699453
0.034265526 -0.013960029 0.0066264272
0.03531963 -0.013875569 0.0059989691
0.036868364 -0.013984552 0.0058067441
0.037772488 -0.013849913 0.0053886771
0.039289247 -0.013941347 0.0052570105
-0.012476316 -0.012476316 0.0053549409
-0.011301017 -0.012556686 0.0061942339
-0.0099345073 -0.012418134 0.0070253909
-0.0086943759 -0.012420537 0.0076730549
-0.0074369367 -0.012394894 0.0085687935
-0.0062614996 -0.012522999 0.0089169443
-0.0049487813 -0.012371953 0.0085966885
-0.0037319139 -0.012439713 0.0088717639
-0.0024981962 -0.012490981 0.0098818541
-0.0012448535 -0.012448535 0.010639936
0 -0.01243702 0.011350423
0.0012360977 -0.012360976 0.011674047
0.0024890758 -0.012445378 0.012227833
0.0036819337 -0.012273112 0.012889653
0.004992072 -0.012480181 0.014053375
0.0062238034 -0.012447607 0.014593422
0.0073355255 -0.012225876 0.015182704
0.0086347964 -0.012335422 0.015967846
0.009776446 -0.012220558 0.016373605
0.011192144 -0.012435715 0.01671809
0.012436805 -0.012436805 0.01663959
0.013592676 -0.012356978 0.016729981
0.014803976 -0.012336646 0.016522765
0.016141472 -0.012416516 0.016335458
0.017517786 -0.012512704 0.015802532
0.018544978 -0.012363318 0.014978498
0.019856203 -0.012410127 0.014713079
0.021113645 -0.012419792 0.014388919
0.022602491 -0.012556939 0.013853699
0.023883143 -0.012570076 0.013415247
0.024867471 -0.012433736 0.012907326
0.026153434 -0.012454016 0.012332499
0.0273284 -0.012422 0.0119223
0.028763482 -0.012505862 0.010583401
0.030395731 -0.012664888 0.0096048117
0.031564869 -0.012625948 0.0088325143
0.032808084 -0.012618493 0.0083485246
0.034491874 -0.012774768 0.0076398253
0.035686836 -0.012745298 0.0070329905
0.036826465 -0.012698781 0.0066164136
0.038382266 -0.012794088 0.0060100555
0.039287727 -0.01267346 0.0058979392
0.040494811 -0.012654629 0.0053949356
-0.013844122 -0.011327009 0.0052625537
-0.012538982 -0.011285083 0.0062263012
-0.011103051 -0.011103051 0.0068321228
-0.0099438094 -0.011186785 0.0077616274
-0.0087527232 -0.0112535 0.008990705
-0.0074461056 -0.011169158 0.0091689527
-0.0062457235 -0.011242303 0.009778589
-0.004977752 -0.011199943 0.0099033117
-0.0037228176 -0.011168453 0.010076225
-0.0024700016 -0.011115007 0.010865301
-0.0012440705 -0.011196634 0.011591882
0 -0.011133748 0.012325317
0.0012449824 -0.011204841 0.013192922
0.0024743786 -0.011134704 0.013959378
0.0037248237 -0.011174471 0.014557034
0.0049315514 -0.01109599 0.015384555
0.0061053019 -0.010989543 0.01578781
0.0074409992 -0.011161499 0.016631097
0.0087671895 -0.011272101 0.017183155
0.0098908078 -0.011127159 0.017648786
0.011225032 -0.011225032 0.018149823
0.012341465 -0.011107319 0.018057674
0.013539298 -0.011077607 0.018086046
0.014924406 -0.011193304 0.017523378
0.016300345 -0.011284854 0.017658204
0.017283961 -0.011111118 0.017148107
0.018460367 -0.011076219 0.016535252
0.019887436 -0.011186683 0.016036987
0.021203615 -0.011225443 0.015512407
0.022451729 -0.011225864 0.014977098
0.023512879 -0.011137679 0.014426082
0.024962349 -0.011233057 0.013825595
0.026107695 -0.011189012 0.013186872
0.027391344 -0.011205549 0.012590408
0.028760843 -0.011254243 0.011439979
0.030190459 -0.011321422 0.010519207
0.031505819 -0.011342095 0.0098296404
0.032913882 -0.011393267 0.0091584325
0.034082487 -0.011360829 0.0086551309
0.03599425 -0.011569581 0.0079019666
0.036872271 -0.011443119 0.007417202
0.037976731 -0.011393019 0.0065697432
0.039695583 -0.011524525 0.0067415237
0.040686928 -0.011443199 0.006000936
0.041760031 -0.0113891 0.0055945516
0.042561427 -0.01126626 0.0054720044
0.044624243 -0.011474805 0.0051296353
-0.013816019 -0.010048013 0.0058664083
-0.012631319 -0.010105056 0.006644845
-0.011265495 -0.010013773 0.0077056289
-0.0099622821 -0.0099622821 0.0085853636
-0.0087671764 -0.01001963 0.009870261
-0.007476008 -0.0099680107 0.010042816
-0.0062296116 -0.0099673793 0.010876894
-0.0049641365 -0.009928273 0.01105696
-0.0037025788 -0.0098735439 0.01111877
-0.0024779062 -0.0099116247 0.011985034
-0.0012316101 -0.0098528806 0.013138682
0 -0.0098329745 0.013595372
0.0012293004 -0.0098344032 0.014333248
0.0024890897 -0.0099563589 0.014890134
0.0037372233 -0.0099659292 0.015666753
0.0049230503 -0.0098461006 0.016309083
0.006154249 -0.0098467981 0.01666677
0.00747929 -0.0099723861 0.017446548
0.0086514661 -0.0098873898 0.018228203
0.0099034579 -0.0099034579 0.018711179
0.011056034 -0.0098275859 0.019341052
0.01227829 -0.0098226313 0.019192487
0.013418353 -0.0097588021 0.019127935
0.014880662 -0.0099204415 0.019177765
0.016154215 -0.0099410554 0.018765837
0.017372428 -0.0099271024 0.018134654
0.018461315 -0.0098460345 0.017689168
0.019671714 -0.009835857 0.017290056
0.021066299 -0.0099135526 0.016803503
0.022417836 -0.0099634826 0.01598227
0.023783989 -0.010014311 0.015384942
0.024998758 -0.0099995034 0.014863878
0.026168883 -0.0099690985 0.014090419
0.027715793 -0.01007847 0.013717771
0.028663119 -0.0099697812 0.012592018
0.030220978 -0.010073659 0.011401176
0.031786315 -0.010171621 0.01071161
0.03304309 -0.010167105 0.0099467039
0.033800766 -0.010015042 0.0092463493
0.035525452 -0.010150129 0.0083387494
0.036789503 -0.010148828 0.0077567697
0.03812572 -0.010166859 0.00693959
0.039633382 -0.010227969 0.0067241192
0.040076032 -0.010019008 0.0062157512
0.041933831 -0.010165777 0.006036222
0.042849682 -0.010082278 0.0057765841
0.044350669 -0.010137295 0.0051671267
-0.015257422 -0.0089001628 0.0053786039
-0.01380254 -0.0087834345 0.006831944
-0.012541899 -0.0087793292 0.0073702931
-0.011285095 -0.0087772962 0.008482933
-0.010016169 -0.0087641487 0.009652704
-0.008758177 -0.008758177 0.010991871
-0.0074340324 -0.0086730374 0.011833966
-0.0061767055 -0.0086473878 0.012404501
-0.0049750451 -0.0087063285 0.012438893
-0.0037149575 -0.0086682336 0.013008356
-0.0024686554 -0.008640294 0.013595372
-0.0012329415 -0.0086305905 0.014411509
0 -0.0085425628 0.014762044
0.0012260746 -0.0085825222 0.014889449
0.0024760691 -0.0086662415 0.015909016
0.0037215203 -0.0086835474 0.016550124
0.0049327519 -0.0086323153 0.017064452
0.006210126 -0.0086941766 0.017816305
0.0073541906 -0.0085798893 0.018723488
0.0086037861 -0.0086037861 0.01894629
0.0098630618 -0.0086301789 0.019930273
0.011075675 -0.0086144144 0.020444244
0.012402173 -0.0086815218 0.020516455
0.013517216 -0.0086018648 0.02026695
0.014737713 -0.0085969996 0.019975513
0.016008835 -0.008620142 0.01988402
0.017231189 -0.0086155944 0.019678503
0.018617002 -0.0086879339 0.018968493
0.019633746 -0.0085897641 0.018501222
0.021178689 -0.0087206364 0.018032789
0.022363055 -0.0086967433 0.017420411
0.023961427 -0.008827894 0.016767144
0.024699969 -0.0086449888 0.016042322
0.026153421 -0.008717807 0.015502572
0.027277706 -0.0086792698 0.014637053
0.028642004 -0.0087171318 0.013279021
0.030360488 -0.0088551426 0.012042344
0.031737469 -0.0088864919 0.010959387
0.032828331 -0.0088383965 0.010404229
0.033993699 -0.008813181 0.0093209147
0.035413083 -0.0088532707 0.0086265206
0.037121356 -0.0089603271 0.007809639
0.038241696 -0.0089230621 0.007352829
0.039567206 -0.0089345304 0.0072097778
0.040492523 -0.0088577392 0.0067472458
0.04222922 -0.0089577138 0.0062097907
0.043300204 -0.0089147482 0.0058578253
0.044725306 -0.0089450609 0.0053261518
-0.015100486 -0.0075502428 0.0052435398
-0.013943309 -0.0076054409 0.0071894526
-0.012567233 -0.0075403401 0.0080118179
-0.011135148 -0.0074234321 0.0091043711
-0.010048105 -0.0075360788 0.011018664
-0.0086849174 -0.007444215 0.011652082
-0.00742702 -0.00742702 0.012750119
-0.0061994186 -0.0074393023 0.013081551
-0.0049460642 -0.0074190963 0.013917536
-0.0036895799 -0.0073791598 0.014211386
-0.0024845463 -0.0074536386 0.014607489
-0.0012283107 -0.0073698647 0.015168935
0 -0.0074136322 0.015667588
0.0012323814 -0.0073942887 0.016118586
0.0024730028 -0.0074190083 0.01702863
0.0036921317 -0.0073842634 0.017695665
0.0048996485 -0.007349473 0.018260986
0.0062100501 -0.00745206 0.019054979
0.0074117114 -0.0074117114 0.019753426
0.0086840671 -0.0074434862 0.020350963
0.0098216496 -0.0073662372 0.020978779
0.011037294 -0.0073581962 0.021259069
0.012282373 -0.0073694242 0.021331638
0.01361729 -0.0074276128 0.021298498
0.014816271 -0.0074081356 0.02127102
0.01599209 -0.0073809642 0.020962715
0.017185956 -0.0073654098 0.020562023
0.018744279 -0.0074977116 0.020406634
0.019512141 -0.0073170527 0.019751996
0.021282647 -0.0075115226 0.019347668
0.022470945 -0.007490315 0.018669248
0.023379914 -0.0073831305 0.017916948
0.025090486 -0.0075271456 0.017787367
0.026216803 -0.0074905152 0.017070383
0.027472245 -0.0074924305 0.016591072
0.02878256 -0.0075084935 0.015182197
0.030083464 -0.0075208661 0.013694465
0.031332195 -0.0075197271 0.012446105
0.032846756 -0.0075800205 0.01154834
0.034241993 -0.0076093315 0.010671258
0.03520041 -0.007542945 0.010055602
0.037083801 -0.0076725106 0.0089783669
0.037828457 -0.0075656916 0.0078743696
0.039311152 -0.0076086102 0.0075190663
0.041146975 -0.007715058 0.0070246458
0.042110596 -0.0076564723 0.0062552094
0.043853201 -0.0077388003 0.0058087707
0.04461227 -0.007647818 0.0053694844
-0.015310735 -0.0063794726 0.0059325695
-0.013957025 -0.0063441028 0.0079588294
-0.012327719 -0.0061638593 0.0092850924
-0.011291266 -0.006272926 0.010110974
-0.0099657904 -0.0062286193 0.011743754
-0.0087421536 -0.0062443959 0.01324755
-0.0074892044 -0.0062410035 0.013922244
-0.0061859442 -0.0061859442 0.014725953
-0.0049296995 -0.0061621242 0.015034586
-0.0037261466 -0.0062102443 0.015111625
-0.0024821924 -0.0062054805 0.015213251
-0.0012369164 -0.0061845821 0.015805423
0 -0.0061821714 0.016149759
0.0012145629 -0.0060728146 0.016773939
0.0024623901 -0.0061559752 0.017662287
0.0037071952 -0.0061786585 0.018609792
0.0048427186 -0.0060533984 0.019108802
0.0061583081 -0.0061583081 0.020312816
0.0074239732 -0.0061866441 0.020669043
0.0085359607 -0.0060971151 0.020978779
0.0098637622 -0.0061648511 0.021540672
0.01108139 -0.0061563277 0.021817178
0.012229952 -0.006114976 0.022057891
0.013558272 -0.0061628511 0.022128761
0.014840062 -0.0061833588 0.022026092
0.016012348 -0.0061585954 0.021818876
0.017277472 -0.0061705252 0.021721363
0.018437073 -0.006145691 0.021450371
0.019773088 -0.0061790901 0.021036923
0.021055251 -0.006192721 0.020824373
0.022287009 -0.006190836 0.02052027
0.023652755 -0.0062244092 0.019873321
0.02495894 -0.0062397351 0.019230932
0.026291464 -0.0062598721 0.018425435
0.027806645 -0.0063196919 0.017714947
0.029020511 -0.0063088066 0.016907036
0.030359367 -0.0063248682 0.014962912
0.031528614 -0.0063057225 0.013164401
0.032800354 -0.0063077603 0.012402415
0.034308333 -0.0063533951 0.011023104
0.035856321 -0.0064029144 0.0099858642
0.036921293 -0.0063657397 0.0091712475
0.038112983 -0.0063521639 0.0085366964
0.039479267 -0.0063676238 0.0082538724
0.040266287 -0.0062916069 0.0072928667
0.042453259 -0.0064323116 0.0066629648
0.043168884 -0.0063483655 0.0063493252
0.045081463 -0.0064402088 0.0059012771
-0.015070626 -0.0050235419 0.0061150789
-0.013833755 -0.0050304565 0.0086109042
-0.012500464 -0.0050001857 0.010304153
-0.011347798 -0.0050434656 0.011397272
-0.0099635981 -0.0049817991 0.012795299
-0.0086441701 -0.0049395259 0.014476717
-0.0073964708 -0.0049309805 0.015355438
-0.0061991569 -0.0049593253 0.015916705
-0.0049288571 -0.0049288571 0.016199261
-0.0036961767 -0.0049282354 0.016199261
-0.0024630625 -0.0049261251 0.016449392
-0.0012329397 -0.0049317586 0.017041922
0 -0.0049021374 0.017486036
0.00122298 -0.0048919199 0.018115848
0.0024845609 -0.0049691219 0.018759817
0.00366976 -0.0048930133 0.019121021
0.0049334723 -0.0049334723 0.020450592
0.0061754738 -0.0049403789 0.021035701
0.0073538432 -0.0049025621 0.021452695
0.0086229173 -0.0049273814 0.021750391
0.0098853931 -0.0049426965 0.022121072
0.011015019 -0.0048955642 0.022511601
0.012398468 -0.0049593877 0.022903949
0.013549948 -0.0049272538 0.022947043
0.014716606 -0.0049055354 0.022961795
0.01610983 -0.0049568708 0.022865087
0.017288117 -0.0049394621 0.022625238
0.018368386 -0.0048982361 0.023075819
0.019901758 -0.0049754395 0.022891074
0.020913437 -0.0049208086 0.022300273
0.022324705 -0.0049610455 0.022221208
0.02347813 -0.0049427641 0.021068841
0.024789691 -0.0049579386 0.020096868
0.026258945 -0.0050017037 0.019290119
0.027640454 -0.0050255372 0.018385321
0.028799387 -0.005008589 0.017491758
0.030269777 -0.0050449627 0.015527546
0.031588376 -0.00505414 0.014028192
0.032835707 -0.0050516473 0.012938857
0.034444787 -0.0051029315 0.011906743
0.035329394 -0.0050470559 0.010565937
0.036505677 -0.0050352658 0.0094835162
0.038150065 -0.0050866753 0.0089107752
0.039446231 -0.0050898362 0.008305192
0.040735971 -0.0050919964 0.0074447393
0.042240243 -0.0051200297 0.0069082379
0.043212947 -0.0050838757 0.0062636733
0.044650219 -0.0051028822 0.0052388906
-0.015251474 -0.0038128684 0.0057864785
-0.013860003 -0.0037800008 0.0088658333
-0.012570474 -0.0037711423 0.010679662
-0.011241434 -0.0037471445 0.011968404
-0.0099977674 -0.0037491629 0.01418227
-0.0086354166 -0.0037008927 0.015141547
-0.0074122828 -0.0037061414 0.016338736
-0.0061664884 -0.0036998929 0.016852915
-0.0049425564 -0.0037069174 0.017215669
-0.0036876905 -0.0036876905 0.017184556
-0.002476956 -0.0037154341 0.017569184
-0.0012235533 -0.0036706598 0.017883182
0 -0.003710744 0.018311709
0.0012316286 -0.0036948856 0.018963993
0.0024790203 -0.0037185303 0.019159704
0.0037000761 -0.0037000761 0.020141542
0.0049850559 -0.0037387919 0.021039009
0.0061085084 -0.003665105 0.021667331
0.0074064541 -0.003703227 0.021823794
0.0086443396 -0.0037047171 0.022020042
0.0098093413 -0.003678503 0.022431105
0.011124523 -0.0037081745 0.022840261
0.012226319 -0.0036678957 0.023103118
0.013520847 -0.0036875037 0.023324937
0.014798488 -0.0036996221 0.023923337
0.016060432 -0.0037062538 0.024127632
0.017121954 -0.0036689902 0.023925126
0.018454339 -0.0036908677 0.023744255
0.019780779 -0.0037088962 0.023393452
0.021005651 -0.0037068797 0.022835851
0.022395 -0.0037324999 0.02268973
0.023584606 -0.0037238852 0.021915406
0.024976937 -0.0037465405 0.020878613
0.026068391 -0.0037240558 0.019579172
0.027351465 -0.0037297453 0.018716246
0.02867857 -0.003740683 0.017843723
0.030036036 -0.0037545045 0.016213179
0.031487327 -0.0037784791 0.014786661
0.03260934 -0.0037626163 0.013299406
0.034132797 -0.0037925332 0.012440383
0.035730161 -0.0038282317 0.010909259
0.036954071 -0.0038228349 0.0097765326
0.037903529 -0.0037903527 0.008844316
0.039628774 -0.0038350427 0.0083214045
0.040823653 -0.0038272173 0.0075713992
0.042244729 -0.0038404299 0.0064891577
0.043172382 -0.0038093277 0.0056697726
0.044614796 -0.0038241253 0.0050303936
-0.015377536 -0.0025629227 0.0053557754
-0.013802721 -0.0025095858 0.0091622472
-0.012433445 -0.002486689 0.011172771
-0.011293988 -0.0025097751 0.012702256
-0.010016809 -0.0025042023 0.014686704
-0.0086916154 -0.0024833186 0.015599281
-0.0074469782 -0.0024823262 0.016696841
-0.0061683943 -0.0024673578 0.017258644
-0.0049426225 -0.0024713113 0.017762274
-0.0037114176 -0.0024742784 0.017654061
-0.0024762589 -0.0024762589 0.017943621
-0.0012266684 -0.0024533367 0.018310755
0 -0.0024663345 0.018725753
0.00122248 -0.0024449599 0.019145221
0.0024729811 -0.0024729811 0.01989767
0.0037270784 -0.002484719 0.020756721
0.0048785242 -0.0024392621 0.021283686
0.006145936 -0.0024583745 0.021954954
0.0074302265 -0.0024767423 0.022141457
0.0086266128 -0.0024647466 0.022365957
0.009964372 -0.002491093 0.02289933
0.011090807 -0.0024646237 0.023109823
0.012274454 -0.0024548909 0.024446964
0.013462977 -0.002447814 0.024759769
0.014826362 -0.0024710605 0.024906009
0.015970735 -0.0024570362 0.025034904
0.017281899 -0.0024688428 0.024837494
0.018365435 -0.0024487248 0.024961621
0.019701466 -0.0024626832 0.024460077
0.020949231 -0.0024646155 0.023899049
0.022078715 -0.0024531905 0.023442477
0.023497345 -0.0024734046 0.022884071
0.024766229 -0.0024766228 0.021525323
0.026020344 -0.0024781281 0.020277619
0.027170446 -0.0024700407 0.019286036
0.028669143 -0.0024929689 0.018128037
0.030125067 -0.0025104221 0.016717196
0.031554259 -0.0025243408 0.015458703
0.032987662 -0.0025375125 0.014284909
0.033889424 -0.0025103276 0.013410389
0.035579473 -0.0025413909 0.011877179
0.036894619 -0.0025444564 0.010379314
0.038234364 -0.0025489577 0.0092080832
0.039850395 -0.0025709933 0.0085510612
0.041122105 -0.0025701316 0.0072667003
0.042616308 -0.0025828066 0.0067639947
0.043841083 -0.0025788872 0.0059331656
0.044900827 -0.0025657616 0.0054606795
-0.015317822 -0.0012764852 0.0057085156
-0.013766067 -0.0012514606 0.0097903013
-0.012455964 -0.0012455964 0.012248933
-0.011210481 -0.001245609 0.01455304
-0.0099416114 -0.0012427014 0.015747309
-0.0086504677 -0.001235781 0.016306967
-0.0073636482 -0.0012272747 0.017466664
-0.0061717783 -0.0012343557 0.017888784
-0.0049426579 -0.0012356645 0.018253088
-0.0037250973 -0.0012416991 0.018241107
-0.0024563703 -0.0012281851 0.018592119
-0.0012291676 -0.0012291676 0.018807888
0 -0.0012305672 0.019141495
0.0012381492 -0.0012381492 0.019844502
0.0024933894 -0.0012466947 0.020500988
0.0036775803 -0.0012258601 0.021163791
0.0049348902 -0.0012337225 0.021649718
0.00612748 -0.0012254959 0.022231519
0.0073945951 -0.0012324326 0.022525966
0.0086292299 -0.0012327471 0.022769481
0.0098493835 -0.0012311729 0.02384609
0.011054309 -0.0012282566 0.02462849
0.012312179 -0.0012312179 0.025228232
0.013569877 -0.0012336251 0.025573194
0.014857771 -0.0012381475 0.025835425
0.016106503 -0.0012389617 0.02564159
0.01727354 -0.0012338243 0.025437176
0.018441116 -0.0012294078 0.025233597
0.019656995 -0.0012285622 0.024719834
0.020986507 -0.0012345003 0.024180859
0.022406304 -0.0012447947 0.023950547
0.023600023 -0.0012421064 0.022987157
0.024579715 -0.0012289857 0.022409499
0.026221609 -0.001248648 0.021067232
0.02719065 -0.0012359386 0.019689262
0.028723648 -0.0012488542 0.018307924
0.030055391 -0.001252308 0.01657325
0.031516481 -0.0012606592 0.015724182
0.032625549 -0.0012548288 0.014515162
0.034075934 -0.0012620717 0.013547719
0.035538826 -0.0012692438 0.011746585
0.036766503 -0.0012678105 0.01053369
0.038098209 -0.0012699404 0.0095210671
0.039221957 -0.0012652244 0.0087195039
0.040748421 -0.0012733882 0.007450223
0.042300832 -0.0012818434 0.0067799091
0.043361928 -0.0012753508 0.0062929988
0.045180105 -0.0012908601 0.0054213405
-0.01501643 0 0.0061725378
-0.013950174 0 0.010223746
-0.012426233 0 0.012709737
-0.011109476 0 0.014997274
-0.0098940497 0 0.016090572
-0.0086190524 0 0.016648799
-0.0073916968 0 0.017944574
-0.0062045478 0 0.01851353
-0.0049254326 0 0.019012392
-0.0037169065 0 0.018837839
-0.0024750635 0 0.019020557
-0.0012373613 0 0.019435316
0 0 0.01988858
0.0012339636 0 0.020424396
0.0024546778 0 0.020911634
0.0037136301 0 0.021382034
0.0048977672 0 0.022052228
0.0061083883 0 0.022391051
0.0073895124 0 0.02268371
0.0086458046 0 0.023321003
0.0098518291 0 0.025133401
0.011159155 0 0.025501251
0.012247303 0 0.025895089
0.013567895 0 0.02621007
0.014901446 0 0.026222497
0.016008757 0 0.025992185
0.017315162 0 0.025657296
0.018323841 0 0.025470197
0.01956393 0 0.025047988
0.02114936 0 0.024488479
0.022300465 0 0.024399191
0.023416935 0 0.023958921
0.024851259 0 0.0229159
0.026289014 0 0.021467656
0.02722401 0 0.020133495
0.028708288 0 0.018444359
0.029989926 0 0.016852379
0.031498205 0 0.016055763
0.032806512 0 0.015085697
0.034564529 0 0.013375521
0.035492897 0 0.011979222
0.036862858 0 0.010831773
0.03848828 0 0.0093563199
0.039613735 0 0.0081872344
0.040755939 0 0.0074266195
0.04219877 0 0.0069478154
0.044097565 0 0.0057674646
-0.014026054 0.0012750959 0.0098500848
-0.012306089 0.0012306089 0.013445377
-0.011099598 0.0012332887 0.015571743
-0.0098323822 0.0012290478 0.0167346
-0.0086321766 0.0012331681 0.017685741
-0.0073654633 0.0012275772 0.018374175
-0.0061596264 0.0012319253 0.019367367
-0.0049297791 0.0012324448 0.019544125
-0.0036630225 0.0012210076 0.019519866
-0.0024557614 0.0012278807 0.019937456
-0.0012283772 0.0012283772 0.020189047
0 0.001231232 0.020567447
0.0012303183 0.0012303183 0.021011144
0.0024477546 0.0012238773 0.021734208
0.0036843126 0.0012281042 0.022090077
0.0048885341 0.0012221335 0.022385299
0.006109891 0.0012219782 0.022995293
0.0074054925 0.0012342487 0.023745954
0.0085842041 0.0012263148 0.025060505
0.0098610064 0.0012326258 0.025740355
0.011125251 0.001236139 0.026032865
0.012238173 0.0012238172 0.026232213
0.013530483 0.0012300439 0.0264723
0.014787124 0.0012322604 0.026549786
0.016010268 0.001231559 0.02627933
0.017061314 0.0012186653 0.025986016
0.018417453 0.0012278303 0.025842756
0.019736502 0.0012335314 0.02524969
0.020959655 0.0012329209 0.025301278
0.022338519 0.0012410288 0.024740368
0.02353311 0.0012385848 0.024249464
0.02496985 0.0012484925 0.023399353
0.026393116 0.001256815 0.021783739
0.027203884 0.0012365403 0.020010531
0.028813941 0.0012527801 0.018673897
0.030200422 0.0012583509 0.017459512
0.031582672 0.0012633069 0.016613305
0.03283295 0.0012628058 0.015195549
0.034201309 0.0012667151 0.013480961
0.035817824 0.001279208 0.012094259
0.036822088 0.0012697271 0.010652244
0.038545836 0.0012848611 0.0093846321
0.039776355 0.0012831083 0.0085341334
0.040600676 0.0012687711 0.0073774457
0.042712953 0.0012943319 0.0066814423
-0.013730393 0.0024964351 0.0097639561
-0.012430242 0.0024860485 0.01389575
-0.011040551 0.0024534557 0.01620546
-0.0098812738 0.0024703185 0.017165661
-0.0086146835 0.0024613382 0.018041283
-0.0074054119 0.0024684707 0.019182384
-0.0061513763 0.0024605505 0.019562632
-0.0049692639 0.002484632 0.019998461
-0.0037071991 0.0024714661 0.019955277
-0.0024751427 0.0024751427 0.019963056
-0.0012310336 0.0024620672 0.020515382
0 0.0024583149 0.021008402
0.0012353392 0.0024706784 0.021294802
0.0024501586 0.0024501586 0.021954685
0.003670997 0.0024473313 0.022421032
0.0049733873 0.0024866937 0.022578001
0.0062101944 0.0024840778 0.024326563
0.0073984996 0.0024661666 0.025072843
0.0086876852 0.0024821959 0.025496036
0.0098856399 0.00247141 0.025982767
0.011172051 0.002482678 0.026427478
0.012482379 0.0024964758 0.026434481
0.013700386 0.0024909792 0.026972115
0.014868439 0.0024780731 0.027212858
0.016166903 0.0024872159 0.027041197
0.017393788 0.0024848268 0.026880413
0.018673619 0.0024898159 0.026129395
0.020129915 0.0025162394 0.025850177
0.021119086 0.0024845982 0.025414884
0.022386232 0.0024873591 0.025091767
0.02357197 0.0024812601 0.024599105
0.024818096 0.0024818096 0.02347523
0.02586876 0.0024636914 0.022475809
0.027599232 0.002509021 0.020522237
0.028795432 0.0025039506 0.018550277
0.030351058 0.0025292546 0.017707944
0.031341579 0.0025073262 0.016861379
0.032744315 0.0025187936 0.01504153
0.034540545 0.0025585587 0.013887465
0.03564268 0.0025459055 0.012015104
0.037403811 0.0025795731 0.010388613
0.038421702 0.0025614467 0.0094257593
0.039702483 0.0025614505 0.0083788633
0.041414391 0.0025883995 0.0066460371
0.042243332 0.0025602018 0.0058267117
-0.014128773 0.003853302 0.0094465017
-0.012483951 0.0037451854 0.014276981
-0.011211121 0.0037370406 0.016516596
-0.0099281417 0.0037230533 0.017536253
-0.0086879507 0.0037234074 0.018446296
-0.0074696643 0.0037348322 0.019381762
-0.0062243259 0.0037345954 0.019994467
-0.004980084 0.0037350629 0.020302087
-0.0037329611 0.0037329611 0.020128667
-0.0025141421 0.0037712131 0.020407498
-0.0012464124 0.0037392373 0.02087006
0 0.0036712263 0.021415681
0.0012455636 0.0037366909 0.021737963
0.0024289023 0.0036433537 0.022149831
0.0037578782 0.0037578782 0.023065448
0.0049648066 0.0037236051 0.023808956
0.006203108 0.0037218647 0.024830908
0.0075085824 0.0037542912 0.025345713
0.0086646127 0.0037134052 0.02590102
0.0099543277 0.0037328727 0.026291609
0.011169119 0.0037230398 0.026820421
0.012411222 0.0037233664 0.026910037
0.013510798 0.0036847633 0.027303398
0.014929258 0.0037323146 0.027507871
0.01612879 0.0037220286 0.027427018
0.017268773 0.0037004512 0.027128547
0.018600564 0.0037201131 0.026431113
0.019859059 0.0037235736 0.026803643
0.02092305 0.0036923029 0.026693761
0.022516638 0.0037527729 0.026307017
0.023449581 0.0037025656 0.025471419
0.024948442 0.0037422664 0.024349451
0.026333682 0.0037619546 0.023302764
0.027392237 0.0037353048 0.021317065
0.02896052 0.003777459 0.019406438
0.030234182 0.0037792728 0.01874119
0.031498268 0.0037797922 0.017525256
0.032976422 0.0038049717 0.015422523
0.034613177 0.0038459087 0.013993859
0.035845045 0.0038405405 0.011173368
0.037190624 0.0038473057 0.010252476
0.038482402 0.0038482402 0.0088688731
0.040057518 0.0038765341 0.0067871809
0.041771032 0.0039160345 0.0055539608
0.04280059 0.0038909628 0.0051651597
-0.014036341 0.0051041241 0.0093807578
-0.012423038 0.004969215 0.015595466
-0.011115401 0.0049401782 0.016803175
-0.00988233 0.004941165 0.01771915
-0.00866271 0.0049501201 0.018640757
-0.0075054741 0.0050036493 0.01997602
-0.0061617452 0.0049293963 0.020397931
-0.0048931688 0.0048931688 0.020719975
-0.0037285034 0.004971338 0.020719975
-0.0024706763 0.0049413526 0.02078864
-0.0012381376 0.0049525504 0.021187723
0 0.0048648026 0.021318555
0.0012308039 0.0049232156 0.021988422
0.0024684945 0.0049369889 0.022304267
0.0037426858 0.0049902475 0.024021238
0.0048364406 0.0048364406 0.024417847
0.0061856844 0.0049485476 0.025537819
0.0073920246 0.0049280166 0.025983393
0.0085659912 0.0048948522 0.026706576
0.009872634 0.004936317 0.027029455
0.011215202 0.0049845339 0.027332217
0.012349721 0.0049398886 0.027327955
0.01347718 0.0049007926 0.027459025
0.014885265 0.0049617551 0.027762681
0.015930731 0.0049017631 0.027322471
0.017244635 0.0049270382 0.026943475
0.018397518 0.0049060043 0.026906848
0.019502956 0.0048757391 0.027175725
0.021135682 0.0049731014 0.027194202
0.022263195 0.0049473769 0.026716411
0.023829799 0.0050167996 0.025823712
0.025176633 0.0050353268 0.024889588
0.026476612 0.0050431644 0.023938447
0.027636537 0.0050248252 0.021968126
0.028980598 0.005040104 0.019893229
0.03022754 0.0050379233 0.01942575
0.031848259 0.0050957217 0.018249154
0.033206634 0.0051087132 0.01616168
0.034202252 0.0050670002 0.01411283
0.035854083 0.005122012 0.011565268
0.037256066 0.0051387679 0.010567963
0.038591798 0.0051455731 0.0074672103
0.040187318 0.0051854607 0.0062178969
0.041423466 0.0051779333 0.005030036
-0.013895901 0.0063163186 0.0099350214
-0.012523815 0.0062619075 0.016270131
-0.011215938 0.0062310765 0.017235428
-0.0098563526 0.0061602206 0.018388331
-0.0087031638 0.0062165456 0.019211262
-0.0074394331 0.0061995275 0.020365387
-0.0063018301 0.0063018301 0.020736098
-0.0049499916 0.0061874897 0.02103278
-0.0037211177 0.0062018628 0.021004766
-0.0024643021 0.0061607552 0.021091431
-0.0012361009 0.0061805048 0.021489441
0 0.0061499244 0.021536261
0.0012353132 0.0061765662 0.022003949
0.0024718156 0.0061795386 0.022590488
0.0036684028 0.0061140046 0.023722142
0.0049330266 0.006166283 0.024486661
0.0061227907 0.0061227907 0.025295734
0.0074238023 0.0061865016 0.025994539
0.008732426 0.0062374473 0.02669692
0.009864592 0.0061653703 0.026910156
0.011118347 0.0061768591 0.02721563
0.012330581 0.0061652907 0.027568191
0.013529448 0.0061497488 0.027670979
0.014930601 0.0062210839 0.027497709
0.016126335 0.0062024361 0.027574003
0.01715258 0.0061259214 0.027542472
0.018376123 0.0061253742 0.027546704
0.019651636 0.0061411359 0.027674735
0.02107843 0.0061995382 0.028004825
0.022755034 0.006320843 0.027514905
0.024025667 0.0063225441 0.027182192
0.024879243 0.0062198108 0.026221752
0.026496045 0.0063085821 0.025177836
0.027698185 0.0062950421 0.023322523
0.028954577 0.0062944731 0.020704031
0.030477664 0.0063495133 0.020141363
0.031635437 0.0063270871 0.018912971
0.033411365 0.0064252624 0.016261041
0.034780543 0.0064408411 0.012586951
0.036021996 0.0064324993 0.011379778
0.037493009 0.0064643119 0.0086421967
0.039208472 0.0065347455 0.0064890385
0.040247519 0.0064915353 0.0060133934
-0.014145119 0.0077155195 0.0099633932
-0.012367697 0.0074206181 0.016231418
-0.011070534 0.0073803556 0.017451912
-0.0099989418 0.0074992063 0.018414646
-0.0086426381 0.0074079758 0.019205153
-0.0074366191 0.0074366191 0.020172864
-0.0062452443 0.0074942932 0.021137238
-0.0049178312 0.0073767467 0.021356076
-0.0036951767 0.0073903534 0.021368921
-0.0024649429 0.0073948284 0.021606684
-0.0012378136 0.0074268817 0.02212745
0 0.0074814232 0.022255421
0.0012210946 0.0073265675 0.022748053
0.0024891731 0.007467519 0.023567736
0.0036842732 0.0073685464 0.024922818
0.0048916633 0.0073374952 0.025146842
0.0061640781 0.007396894 0.025991321
0.007467146 0.007467146 0.026729226
0.0087719494 0.0075188139 0.0271523
0.0098666688 0.0074000019 0.027588338
0.011262392 0.0075082611 0.02779144
0.012430072 0.0074580428 0.027912587
0.013763448 0.0075073354 0.028100133
0.014845763 0.0074228817 0.028700292
0.016187929 0.0074713514 0.028751433
0.017277448 0.0074046208 0.028573275
0.018614318 0.0074457275 0.028582871
0.019660654 0.0073727453 0.028741479
0.021227883 0.007492194 0.028704077
0.022486141 0.0074953805 0.028513312
0.02384074 0.0075286548 0.027783334
0.025447045 0.0076341131 0.02696082
0.027112382 0.0077463947 0.02626884
0.028908018 0.0078840051 0.02403754
0.030486301 0.0079529481 0.022101641
0.031731728 0.0079329321 0.020997286
0.033290748 0.00798978 0.019504845
0.034959588 0.0080675976 0.015858471
0.035183694 0.0078185983 0.012333155
0.03661092 0.0078451969 0.01018548
0.037880283 0.0078372993 0.0073276758
0.038873136 0.0077746268 0.0062010884
0.040376712 0.0078148469 0.0057939291
-0.014096451 0.0089704683 0.011138618
-0.01223278 0.0085629467 0.017345726
-0.01119759 0.008709237 0.018351346
-0.0099243885 0.0086838398 0.01929155
-0.0086562671 0.0086562671 0.020409465
-0.0074301278 0.0086684823 0.020834595
-0.006259501 0.0087633012 0.021524221
-0.004943308 0.008650789 0.021899194
-0.0037460756 0.0087408423 0.021771073
-0.002485916 0.0087007061 0.021900654
-0.0012326139 0.0086282976 0.022531331
0 0.0086715631 0.023116857
0.0012280114 0.0085960804 0.023325801
0.0024527302 0.0085845552 0.024030536
0.0036617797 0.0085441526 0.024909049
0.0048517473 0.0084905578 0.025546581
0.0061293091 0.008581033 0.026601523
0.0074406643 0.0086807748 0.026916802
0.0086744931 0.0086744931 0.027506799
0.0099587785 0.0087139318 0.027466476
0.011122395 0.0086507518 0.027839303
0.012490078 0.0087430542 0.028295338
0.013670941 0.0086996891 0.028516173
0.014949016 0.0087202592 0.028880656
0.016137654 0.008689505 0.029054463
0.017409764 0.0087048821 0.029152811
0.018672533 0.0087138489 0.029393733
0.019762494 0.0086460914 0.029237926
0.021163177 0.0087142494 0.029007822
0.022756308 0.0088496758 0.028815717
0.025220027 0.0092915883 0.028528214
0.026293809 0.0092028333 0.02784133
0.026685527 0.0088951755 0.02763474
0.027425768 0.0087263808 0.026374966
0.028719882 0.008740833 0.02415669
0.029981654 0.0087446496 0.021519363
0.031313833 0.008767873 0.020094514
0.032839403 0.0088413768 0.015236259
0.035356376 0.0091664679 0.012263656
0.036691822 0.0091729555 0.0084276199
0.037957061 0.0091620497 0.0072314143
0.039157372 0.0091367196 0.0056060553
0.040782612 0.0092089763 0.0050471425
-0.013929895 0.010130833 0.0077216625
-0.012342985 0.0098743876 0.014053345
-0.011291822 0.010037175 0.018531293
-0.0098687038 0.0098687038 0.019651532
-0.0086473785 0.0098827183 0.020253688
-0.0074065235 0.0098753646 0.020836651
-0.006163232 0.0098611712 0.021669865
-0.0049573593 0.0099147186 0.021723777
-0.0037295418 0.0099454448 0.021732986
-0.0024718696 0.0098874783 0.021824896
-0.0012323742 0.0098589938 0.022157758
0 0.0099229561 0.022608727
0.0012447851 0.0099582812 0.023598313
0.0024966912 0.0099867648 0.024047852
0.0036837736 0.0098233968 0.024989516
0.0049873861 0.0099747721 0.025879323
0.0062143854 0.0099430168 0.026681423
0.0073233494 0.0097644655 0.027244061
0.0087719532 0.01002509 0.027594686
0.0099897627 0.0099897627 0.027543902
0.01117416 0.009932586 0.028605461
0.012350853 0.0098806825 0.029062271
0.013692238 0.0099579915 0.029315531
0.014807397 0.0098715974 0.029690593
0.015999209 0.0098456666 0.029702365
0.017608818 0.010062181 0.02989772
0.01864711 0.0099451253 0.029989541
0.019811889 0.0099059446 0.029930294
0.020931799 0.0098502589 0.029186666
0.022218397 0.0098748431 0.029753834
0.023898197 0.010062399 0.02919507
0.024745436 0.0098981746 0.029141188
0.02638445 0.010051219 0.028840095
0.027413774 0.0099686449 0.027828366
0.028536338 0.009925683 0.025186896
0.029919244 0.0099730818 0.023239374
0.030942153 0.0099014891 0.022064209
0.032647613 0.010045419 0.01504308
0.035184603 0.010425068 0.011847854
0.036576282 0.010450367 0.008662045
0.037735872 0.010409895 0.0064365864
-0.014076142 0.011516843 0.0084074736
-0.012487536 0.011238783 0.013966501
-0.011114188 0.011114188 0.018004656
-0.009987263 0.01123567 0.019455791
-0.0087235859 0.011216039 0.020611256
-0.0074580507 0.011187077 0.021282822
-0.0062473277 0.01124519 0.022190541
-0.0049960641 0.011241144 0.022189021
-0.003702827 0.011108481 0.022377878
-0.0024897722 0.011203974 0.022323132
-0.00123013 0.01107117 0.022844136
0 0.011123496 0.023277074
0.0012530077 0.011277069 0.024503231
0.0024921931 0.011214869 0.024833322
0.0037249778 0.011174934 0.025707304
0.0050009056 0.011252038 0.026660502
0.0061241728 0.011023511 0.026986152
0.0074014072 0.011102111 0.027802408
0.0086274287 0.011092409 0.027953416
0.0098541379 0.011085905 0.028449118
0.011116912 0.011116912 0.02939111
0.012407065 0.011166358 0.029614806
0.013499812 0.011045301 0.029666543
0.014955428 0.011216572 0.0298675
0.016202828 0.011217343 0.029450238
0.017379159 0.011172316 0.029574215
0.018834785 0.011300871 0.029633462
0.019987892 0.011243189 0.029494017
0.021071533 0.011155518 0.029476523
0.022662343 0.011331172 0.029609859
0.023477556 0.011120948 0.029700518
0.02450352 0.011026585 0.02989614
0.026447669 0.011334715 0.030157208
0.027430872 0.01122172 0.029183865
0.028359681 0.011097266 0.027722955
0.029804491 0.011176684 0.025016725
0.030845355 0.011104328 0.023299694
0.032334831 0.011192826 0.015568316
0.035024136 0.011674712 0.0099744201
0.036741234 0.011809682 0.0072729588
0.038151812 0.011840218 0.0054510236
-0.013897547 0.012634134 0.0074860454
-0.012343407 0.012343407 0.013315141
-0.011112981 0.012347757 0.016128659
-0.0099919643 0.012489956 0.019256532
-0.0086849332 0.012407048 0.020414203
-0.007475744 0.012459573 0.02144897
-0.0062381644 0.012476329 0.022012323
-0.0049311365 0.012327841 0.022058636
-0.003791183 0.012637277 0.022434622
-0.0024873195 0.012436598 0.022715628
-0.0012451839 0.012451839 0.023147583
0 0.01242707 0.023825586
0.0012372577 0.012372578 0.024464071
0.00247897 0.01239485 0.024828196
0.0037209389 0.01240313 0.025790364
0.0049308944 0.012327236 0.026301771
0.0061238194 0.012247639 0.026425272
0.0074525126 0.012420855 0.026985228
0.0086620664 0.01237438 0.028059572
0.0097746747 0.012218343 0.028867513
0.011199542 0.012443935 0.029000372
0.012428693 0.012428693 0.029402196
0.013569552 0.012335956 0.029333442
0.014977003 0.012480836 0.029233307
0.01587872 0.0122144 0.029428422
0.017337469 0.012383906 0.02948755
0.018366514 0.012244342 0.029627502
0.01996053 0.012475331 0.029608279
0.021054847 0.012385204 0.02974838
0.022247452 0.012359696 0.030493945
0.023122478 0.012169725 0.030193746
0.02445619 0.012228095 0.030492574
0.026078003 0.012418097 0.030746907
0.027037093 0.012289587 0.029985934
0.028177399 0.012251043 0.028100848
0.029391017 0.012246258 0.025063276
0.030784663 0.012313865 0.020298302
0.031919993 0.01227692 0.011635303
0.035080347 0.012992721 0.0082490444
0.037245564 0.013301987 0.0060251355
-0.01397105 0.01397105 0.0066633821
-0.01245023 0.013695253 0.014040172
-0.01129566 0.013805808 0.015394688
-0.0099598346 0.013694772 0.01852423
-0.0087233009 0.013708044 0.020775288
-0.0075271269 0.013799733 0.021307826
-0.0062398561 0.013727684 0.022338271
-0.0049767816 0.013686149 0.022350729
-0.0037107107 0.013605939 0.022681177
-0.0024827968 0.013655383 0.023027748
-0.0012401397 0.013641537 0.023111522
0 0.01354843 0.023359269
0.0012357847 0.013593632 0.0237028
0.002453764 0.013495702 0.024578303
0.0037036338 0.013579991 0.025049001
0.0049020243 0.013480567 0.025127023
0.0061645573 0.013562026 0.025948197
0.0072876289 0.013360653 0.026867211
0.008616196 0.013539737 0.028162003
0.0098698493 0.013571043 0.028737843
0.011125314 0.013597606 0.028855681
0.01243088 0.013673969 0.029017836
0.013492844 0.013492844 0.029034495
0.014855548 0.013617585 0.028958678
0.016197586 0.01370565 0.028521389
0.017085819 0.013424572 0.02852568
0.018417031 0.013505822 0.029092222
0.019513382 0.01341545 0.029262275
0.020742169 0.013421403 0.03004539
0.022412404 0.013696469 0.030453444
0.02303151 0.013334032 0.03024894
0.024153803 0.013284591 0.030466974
0.025803542 0.013516141 0.03074497
0.026873259 0.013436629 0.029701054
0.027731165 0.013262731 0.028337955
0.029384818 0.013468041 0.025375366
0.030240864 0.01330598 0.012892246
0.031293355 0.013239496 0.0084039569
0.034753382 0.014158785 0.006852746
0.036794767 0.014455087 0.0051350594
-0.013916099 0.015181199 0.0071761608
-0.012168229 0.014601875 0.013662279
-0.010962383 0.01461651 0.01577419
-0.0098343231 0.014751484 0.016610324
-0.0085597225 0.01467381 0.019740939
-0.007397416 0.014794832 0.021966964
-0.0061964644 0.014871514 0.022614241
-0.0049747224 0.014924167 0.022492051
-0.0036551172 0.014620469 0.023121744
-0.0024726992 0.014836195 0.023261875
-0.0012410169 0.014892203 0.023744643
0 0.014863224 0.024179995
0.0012229374 0.014675248 0.024392039
0.0024211821 0.014527093 0.024748951
0.0037548847 0.015019539 0.025022477
0.0049014403 0.014704321 0.025738329
0.0060734241 0.014576217 0.026891828
0.0074326042 0.014865208 0.027903318
0.0086676395 0.01485881 0.028352559
0.0099266972 0.014890046 0.028405726
0.011172936 0.014897248 0.028873205
0.012284894 0.014741872 0.028266698
0.013533124 0.014763408 0.028298348
0.01523017 0.01523017 0.026850998
0.016168108 0.014924408 0.027259648
0.017406981 0.014920269 0.027329683
0.018799137 0.01503931 0.027559161
0.020115273 0.015086455 0.027675509
0.021318965 0.015048681 0.028447032
0.022502096 0.015001397 0.029928207
0.02262602 0.014290118 0.030391127
0.0241655 0.0144993 0.030853897
0.02606423 0.014893846 0.031008661
0.026568567 0.014491946 0.030169666
0.02771825 0.014461695 0.027756989
0.028869975 0.014434988 0.024622619
0.030134765 0.014464688 0.012462795
0.031694539 0.014628248 0.0079531074
0.034923241 0.015521441 0.0056753159
-0.01239575 0.016114473 0.01381439
-0.011399943 0.016466586 0.015769958
-0.010214554 0.016598649 0.016661167
-0.0089427996 0.016608058 0.017621696
-0.0076267603 0.016524648 0.020320356
-0.0063356003 0.016472559 0.021987796
-0.0050874786 0.016534306 0.021213591
-0.0038029978 0.016479656 0.022400886
-0.0025310186 0.016451621 0.022420734
-0.001262982 0.016418766 0.022564977
0 0.01641253 0.022837371
0.0012776103 0.016608933 0.023068696
0.0025616044 0.016650429 0.023464352
