ply
format ascii 1.0
comment PCL generated
element vertex 1258
property float x
property float y
property float z
element camera 0
property float view_px
property float view_py
property float view_pz
property float x_axisx
property float x_axisy
property float x_axisz
property float y_axisx
property float y_axisy
property float y_axisz
property float z_axisx
property float z_axisy
property float z_axisz
property float focal
property float scalex
property float scaley
property float centerx
property float centery
property int viewportx
property int viewporty
property float k1
property float k2
end_header
-0.014677493 -0.075114228 0.012091845
-0.013856431 -0.075344339 0.012481332
-0.012948732 -0.075102642 0.013294935
-0.01200066 -0.074575536 0.01325956
-0.011146691 -0.074597083 0.013278872
-0.010485128 -0.076017171 0.013295174
-0.0094757499 -0.074944571 0.013471484
-0.0085898405 -0.074731618 0.01325956
-0.0077897315 -0.075300738 0.013002366
-0.0069412366 -0.075485945 0.013141453
-0.0060880324 -0.075665548 0.013082594
-0.0052085072 -0.075523354 0.013425887
-0.0043000518 -0.074820898 0.013536274
-0.0034294096 -0.074589655 0.01351887
-0.0026191203 -0.075954489 0.013561517
-0.001707378 -0.074270941 0.013739377
-0.00086942635 -0.07564009 0.013861924
0 -0.074489541 0.013845265
0.00087389507 -0.076028869 0.013945967
0.0017365731 -0.07554093 0.014315456
0.0025692508 -0.074508272 0.01463297
0.0033955683 -0.073853612 0.014183134
0.0043045199 -0.074898653 0.014545083
0.0051391604 -0.074517824 0.01424998
0.0059750206 -0.074260972 0.01390335
0.0068568834 -0.074568607 0.01349923
0.0076573109 -0.074020676 0.011512607
0.0086321319 -0.075099543 0.01001519
0.0095104733 -0.075219199 0.00507465
-0.016442006 -0.074421711 0.006390065
-0.015597651 -0.074522108 0.012413353
-0.01477214 -0.074729651 0.013180047
-0.013893124 -0.074675538 0.013927966
-0.013042093 -0.074774668 0.013896167
-0.012141977 -0.074586429 0.014148533
-0.011160188 -0.073828936 0.014148533
-0.010204519 -0.073132388 0.013892829
-0.0094308229 -0.073731892 0.013997048
-0.0086169215 -0.074105531 0.013626277
-0.0077063222 -0.073638193 0.013299346
-0.0070678391 -0.07597927 0.013536274
-0.0059826961 -0.073501699 0.01361087
-0.0051346621 -0.07359682 0.013785243
-0.0044071847 -0.075803578 0.013671964
-0.00349556 -0.075154543 0.013678193
-0.0025916807 -0.07429485 0.013687313
-0.0017365164 -0.074670203 0.0140827
-0.0008515743 -0.073235385 0.014095694
0 -0.073727779 0.014105409
0.00085342233 -0.073394321 0.014527887
0.0016835805 -0.072393954 0.014905691
0.0025936479 -0.074351244 0.015291125
0.0034252196 -0.073642224 0.014972776
0.0042933314 -0.073845305 0.015191138
0.0051546898 -0.073883891 0.014849722
0.0061087003 -0.075049743 0.014849722
0.0068880799 -0.074046858 0.014967054
0.0078661665 -0.075165592 0.014338762
0.008600831 -0.073967151 0.013234824
0.0092617013 -0.072409667 0.010560542
0.010877383 -0.077954575 0.0064014494
0.011916181 -0.078830115 0.0050175488
-0.017372569 -0.073833421 0.0060757995
-0.01634172 -0.073107697 0.012232661
-0.015693557 -0.074108467 0.013607979
-0.014902261 -0.074511304 0.014056772
-0.013920239 -0.073951274 0.014289409
-0.012935205 -0.073299497 0.014359921
-0.012244147 -0.074339464 0.014451861
-0.011075989 -0.072419934 0.014550656
-0.010365692 -0.073423654 0.014205009
-0.0096809259 -0.07480716 0.014026791
-0.0086171497 -0.073245779 0.013945639
-0.0077875382 -0.073548973 0.01364553
-0.0068830126 -0.073132008 0.013651758
-0.0060992986 -0.074062914 0.01361087
-0.0052059884 -0.073751502 0.013776034
-0.0043101376 -0.07327234 0.013678193
-0.0034906673 -0.074176677 0.013739377
-0.0025607985 -0.072555967 0.013708979
-0.0017160517 -0.072932199 0.014009595
-0.00086894841 -0.073860615 0.014083594
0 -0.072938144 0.014196336
0.00085994223 -0.073095091 0.014492124
0.0017659134 -0.075051323 0.014928848
0.0025695658 -0.072804369 0.015388191
0.0034484414 -0.073279381 0.0152542
0.0043071555 -0.073221646 0.015472263
0.0050828964 -0.072007701 0.014971733
0.0059857536 -0.072684154 0.014971733
0.0068958933 -0.073268868 0.015041798
0.007832082 -0.07396967 0.01495418
0.0085008796 -0.072257482 0.014859915
0.0095071271 -0.07346417 0.013102472
0.010153212 -0.071918584 0.0092270672
0.012697244 -0.083020441 0.0056757927
-0.017225172 -0.072345734 0.012271225
-0.016440572 -0.072684631 0.013331056
-0.015603826 -0.072817862 0.013895482
-0.014837819 -0.073316284 0.014271021
-0.013886244 -0.072902784 0.014350802
-0.012693958 -0.071086168 0.014599293
-0.012056624 -0.072339743 0.014508903
-0.011128107 -0.071904689 0.014416963
-0.010393834 -0.072756842 0.0141038
-0.0094331903 -0.072035275 0.014037788
-0.0086584911 -0.072731331 0.013877451
-0.007779663 -0.072610192 0.013620943
-0.006787213 -0.071265735 0.013678193
-0.0059749968 -0.071699962 0.013616502
-0.0051645855 -0.072304204 0.013776034
-0.0043994342 -0.073910497 0.013678193
-0.0035017407 -0.073536552 0.013739377
-0.0025837545 -0.07234513 0.013708979
-0.0017082073 -0.071744703 0.013949484
-0.0008652106 -0.072677694 0.013964176
0 -0.072266877 0.014048725
0.00086652342 -0.07278797 0.014401317
0.001739476 -0.073057994 0.014677674
0.0026046997 -0.072931595 0.015503198
0.0034719051 -0.072910011 0.01481694
0.00428278 -0.071950711 0.015207231
0.0051653017 -0.072314225 0.014994621
0.006020939 -0.072251268 0.015018016
0.0068244427 -0.071656652 0.015356719
0.0078258384 -0.073041163 0.015177071
0.0086411918 -0.072586015 0.015402883
0.0094390959 -0.072080374 0.014844358
0.010208447 -0.071459129 0.013387352
0.011289384 -0.072946787 0.0092351139
0.013517779 -0.081106678 0.0052959919
-0.017953003 -0.070957102 0.011489958
-0.01723019 -0.071505293 0.013565511
-0.016545096 -0.072275944 0.014202178
-0.015603027 -0.071947299 0.014263541
-0.014652553 -0.071538933 0.014487982
-0.013768136 -0.071422204 0.014599293
-0.012967891 -0.07175567 0.014596641
-0.012230556 -0.072509721 0.014549524
-0.011285716 -0.07205496 0.014442176
-0.010424092 -0.072099976 0.01419878
-0.0095764278 -0.072258502 0.014067173
-0.0087236995 -0.072406717 0.013946891
-0.0077260709 -0.071251549 0.013553619
-0.0070117074 -0.072746471 0.01368776
-0.0060837045 -0.072135359 0.014018774
-0.0051736156 -0.071568355 0.013841808
-0.0044111866 -0.073225699 0.013801008
-0.0034657617 -0.071914554 0.013870478
-0.0026296442 -0.072753496 0.013772428
-0.001722077 -0.0714662 0.013883054
-0.00086313585 -0.071640275 0.013858646
0 -0.07142245 0.013946742
0.00086021039 -0.071397468 0.01419422
0.0017013003 -0.070603967 0.014503807
0.0025870169 -0.071574144 0.015151888
0.0034979999 -0.072583497 0.015069216
0.0042891013 -0.071199082 0.015133858
0.0051567806 -0.071335472 0.015240878
0.0060657361 -0.071922302 0.015244275
0.0067820116 -0.070363373 0.01545161
0.0077760303 -0.071712285 0.015494823
0.0086962441 -0.072178833 0.015419215
0.0094050802 -0.07096561 0.014937341
0.010366802 -0.071703717 0.013638705
0.011103413 -0.07089103 0.01269424
0.012616493 -0.074797779 0.0081391335
0.013966661 -0.07728219 0.005220592
-0.019087711 -0.07114511 0.0084190965
-0.018228695 -0.071178719 0.01280725
-0.017389042 -0.071295075 0.013975263
-0.016522652 -0.071308292 0.014436632
-0.015609657 -0.071110666 0.014434248
-0.0146537 -0.070682555 0.014597684
-0.013757746 -0.07050845 0.01451543
-0.012916096 -0.070607997 0.014550656
-0.012233255 -0.071651928 0.014232934
-0.011263353 -0.071045771 0.013958186
-0.010484415 -0.071643509 0.01371634
-0.0095332135 -0.071065776 0.013493478
-0.0086175399 -0.070663832 0.013332754
-0.0078368476 -0.071402401 0.012650013
-0.0069755195 -0.071499079 0.012684375
-0.0061017638 -0.071477808 0.012782246
-0.0051973183 -0.071030021 0.012726724
-0.0043482641 -0.071311533 0.012580633
-0.0035102426 -0.07195998 0.012580633
-0.0025974358 -0.070996583 0.012260944
-0.0017667726 -0.072437674 0.01292786
-0.00086846092 -0.071213797 0.01308319
0 -0.071145438 0.013123661
0.00086493674 -0.070924819 0.01337415
0.0017279463 -0.070845805 0.013213158
0.0025870425 -0.070712499 0.013355315
0.0034036834 -0.069775514 0.013643503
0.0043148161 -0.070762984 0.014476001
0.0051639904 -0.070574537 0.014590621
0.0060206577 -0.07052771 0.014956683
0.0070209084 -0.071964316 0.015137672
0.0077669765 -0.070765793 0.015260756
0.0084688477 -0.06944456 0.015260756
0.0094819805 -0.070683859 0.014893472
0.010379808 -0.070928693 0.014585495
0.011086393 -0.069929563 0.013347566
0.012048549 -0.070570074 0.012440354
0.014168757 -0.077455878 0.0063180923
-0.021455511 -0.075560711 0.0060050786
-0.018787183 -0.069170989 0.010587066
-0.018238842 -0.070349813 0.013025701
-0.017419018 -0.070547022 0.013975263
-0.01645926 -0.070168421 0.014102936
-0.015451777 -0.069532998 0.014144927
-0.014665933 -0.069878854 0.014362514
-0.013916385 -0.070451699 0.014281213
-0.013108741 -0.070787199 0.014202625
-0.012005101 -0.069458082 0.013877451
-0.011340297 -0.070658773 0.013624281
-0.010420006 -0.070335038 0.013248324
-0.0095391879 -0.070243113 0.012876332
-0.0088153249 -0.071404129 0.012431175
-0.0079826415 -0.071843773 0.011730462
-0.0071247239 -0.072137825 0.01155296
-0.0062013692 -0.071758702 0.011581987
-0.0053163841 -0.071771182 0.011157632
-0.004356964 -0.070582822 0.011093378
-0.0035571381 -0.072032042 0.011065185
-0.0025999611 -0.070198953 0.010998905
-0.0017371583 -0.070354909 0.011254221
-0.00087014085 -0.070481405 0.011469901
0 -0.070733339 0.012168974
0.00088352762 -0.071565732 0.012756348
0.0017261622 -0.069909565 0.012939155
0.0026035469 -0.070295766 0.012945384
0.0034792114 -0.070454024 0.013012588
0.0042380458 -0.06865634 0.013355315
0.0051582693 -0.069636635 0.014214426
0.0060403328 -0.069895282 0.014513016
0.0070100017 -0.070976265 0.014662296
0.0078186328 -0.070367694 0.015019476
0.0086755231 -0.07027173 0.015153676
0.0093164146 -0.068602689 0.0147838
0.010249398 -0.069183432 0.014691263
0.011174122 -0.069623373 0.014565587
0.01198336 -0.069332294 0.013042748
0.012944804 -0.069901936 0.0084766448
0.014814526 -0.074998535 0.0058387816
-0.020117546 -0.069974065 0.0092255771
-0.019112799 -0.069501087 0.01171422
-0.018490909 -0.070441552 0.013268173
-0.01752417 -0.070096679 0.013943911
-0.016456988 -0.069292583 0.013857663
-0.015611914 -0.069386281 0.013840318
-0.014720746 -0.069274098 0.014001906
-0.013830381 -0.069151901 0.013798088
-0.012684865 -0.067652613 0.013733625
-0.012062769 -0.068930104 0.013254642
-0.011305378 -0.069571555 0.012802958
-0.010553418 -0.070356116 0.012666732
-0.0096259825 -0.070007145 0.011870921
-0.0088793598 -0.071034878 0.011915654
-0.0078374753 -0.069666453 0.011285871
-0.0070913439 -0.070913434 0.011100978
-0.0061654495 -0.070462279 0.0099667907
-0.0052551045 -0.070068061 0.010332346
-0.0044885096 -0.071816154 0.010000944
-0.0035024178 -0.070048355 0.010243177
-0.0026666885 -0.071111694 0.0098799467
-0.001787864 -0.071514562 0.010409296
-0.00089764717 -0.071811773 0.010657668
0 -0.070400909 0.010883749
0.00088825991 -0.071060792 0.011129975
0.0017506742 -0.070026964 0.01207909
0.0026675856 -0.07113561 0.012163162
0.0034837639 -0.069675274 0.012332022
0.0043243943 -0.069190308 0.012770146
0.0052195922 -0.069594562 0.013049513
0.006088031 -0.069577493 0.013606012
0.0069392635 -0.069392629 0.014393866
0.0077605424 -0.068982601 0.01464805
0.0085087642 -0.068070114 0.015015662
0.0094090179 -0.068429217 0.014696926
0.010305988 -0.068706587 0.01464805
0.011241673 -0.06917952 0.014585495
0.011960705 -0.06834688 0.014302135
0.012841711 -0.068489119 0.01283294
0.01419459 -0.070972949 0.0074034929
-0.021234311 -0.069896273 0.0072243512
-0.020024108 -0.068778455 0.010341346
-0.019215215 -0.069000088 0.012397319
-0.018283943 -0.068782449 0.013268173
-0.017355671 -0.068554901 0.014091998
-0.016436458 -0.068341054 0.013843328
-0.015698968 -0.068901032 0.013904244
-0.014784671 -0.068705231 0.0139561
-0.013955574 -0.068905644 0.01372087
-0.012760864 -0.06720721 0.013512492
-0.012327159 -0.069560394 0.012593776
-0.011300673 -0.06867332 0.012410611
-0.010620167 -0.069916092 0.012014151
-0.0096082166 -0.069004461 0.011144996
-0.0088196145 -0.069674954 0.010839969
-0.0078826668 -0.069192298 0.0092259645
-0.0070688957 -0.069805339 0.0090451837
-0.006162954 -0.069553338 0.0082316399
-0.0052479268 -0.069097705 0.0077623725
-0.0043707252 -0.069057457 0.0077944696
-0.0034981105 -0.069087677 0.0077359378
-0.0026256121 -0.06914112 0.0077501237
-0.001766825 -0.069789581 0.0084810853
-0.00087695988 -0.069279827 0.0092362165
0 -0.069393456 0.0095375776
0.00087049929 -0.068769448 0.0099352598
0.0017594072 -0.069496587 0.010546118
0.0026205874 -0.069008797 0.010740697
0.0035148594 -0.069418475 0.011923283
0.0043674354 -0.069005482 0.012116581
0.0052066557 -0.068554297 0.01262027
0.0059967386 -0.067677476 0.013049513
0.0069511924 -0.068643019 0.013643503
0.0078153852 -0.068601713 0.014305443
0.0085469168 -0.067520641 0.01465562
0.0094720563 -0.06802658 0.014659435
0.010297995 -0.067795135 0.014561355
0.011135893 -0.067671962 0.014609307
0.012077737 -0.068152942 0.014609307
0.012926751 -0.068080887 0.014174879
0.013730824 -0.06779594 0.012855083
0.01625186 -0.075523347 0.0061690211
-0.020786904 -0.067557439 0.01014787
-0.019942833 -0.067632213 0.011700153
-0.019291319 -0.068396494 0.013111264
-0.018706759 -0.069482245 0.013585448
-0.017292121 -0.067439273 0.014071047
-0.016390821 -0.06728863 0.013827175
-0.015420097 -0.06682042 0.013469577
-0.01483129 -0.068049446 0.013612449
-0.013805238 -0.067300536 0.013290912
-0.013193912 -0.068608344 0.012603521
-0.012056641 -0.067172714 0.011778325
-0.011497305 -0.068983823 0.011380345
-0.010590723 -0.068839699 0.0109348
-0.009546943 -0.067696512 0.0093531311
-0.0086837765 -0.067733459 0.0085380375
-0.0079703964 -0.069076769 0.0076842308
-0.0070722341 -0.068954282 0.0071414411
-0.006234142 -0.069466151 0.0071101487
-0.005305341 -0.068969436 0.0059545934
-0.0043458608 -0.067795426 0.0059407055
-0.0035789988 -0.069790475 0.0058048964
-0.0026568358 -0.06907773 0.0056744218
-0.001786093 -0.069657624 0.0053811371
-0.00086827739 -0.067725636 0.0063187778
0 -0.068155304 0.0070412159
0.00087617734 -0.068341836 0.007699579
0.0017661038 -0.068878047 0.0082708895
0.0026110532 -0.067887381 0.0090028942
0.0034851611 -0.067960642 0.01044476
0.0044077993 -0.068761669 0.010781348
0.0053182663 -0.069137469 0.01177597
0.0061742426 -0.068798706 0.012298375
0.0069913347 -0.068165511 0.013258159
0.0076887589 -0.066635914 0.013592482
0.0085766809 -0.066898108 0.014404178
0.0095732668 -0.067883171 0.014359385
0.010511758 -0.068326421 0.014363617
0.011033836 -0.066203013 0.014563501
0.012245052 -0.068222433 0.014625371
0.012802769 -0.066574402 0.014301002
0.013580382 -0.066204362 0.013661295
0.014866868 -0.068212688 0.010016501
0.016735239 -0.072519369 0.0053124428
-0.021810817 -0.067177318 0.0089761019
-0.021125089 -0.06777633 0.010552138
-0.020128112 -0.067385413 0.012156397
-0.018942524 -0.066298835 0.012993097
-0.017990913 -0.065966681 0.013298362
-0.017593218 -0.067733891 0.013874799
-0.016109809 -0.065287121 0.013624221
-0.015801983 -0.067597374 0.013114691
-0.014854475 -0.067282028 0.013010412
-0.014016533 -0.067454569 0.012289196
-0.013111209 -0.067304209 0.011554897
-0.012208874 -0.067148812 0.010934144
-0.011413199 -0.067601256 0.010453522
-0.010338548 -0.066339016 0.0089840591
-0.0098068574 -0.068648003 0.0081565976
-0.0089709582 -0.069076382 0.0071587563
-0.0078803729 -0.067420974 0.0062782764
-0.0070798458 -0.068143517 0.0050263703
0.001748367 -0.067312129 0.00587672
0.0026054468 -0.066873133 0.0067882836
0.0034585281 -0.066576667 0.0086939037
0.0043119667 -0.06640429 0.0091898739
0.0053124875 -0.068176925 0.010583609
0.0062177749 -0.068395525 0.011335641
0.007162699 -0.068940975 0.012476653
0.0076713362 -0.065632544 0.013338238
0.0088614179 -0.068232924 0.014064133
0.009384823 -0.065693766 0.01428023
0.010375894 -0.066578656 0.014551014
0.011263824 -0.066716492 0.01472497
0.011978487 -0.065881677 0.014976919
0.012906572 -0.066253737 0.014589489
0.013822205 -0.066519365 0.014329135
0.014551406 -0.065909304 0.013089985
0.016303735 -0.06974376 0.0076598227
-0.024110865 -0.07047791 0.0060364306
-0.021427717 -0.065140262 0.010774016
-0.021117577 -0.066872329 0.011515796
-0.020086473 -0.066372693 0.012600631
-0.019409193 -0.067049943 0.013299853
-0.018291911 -0.066199295 0.013703346
-0.017224375 -0.065452628 0.013528913
-0.016776647 -0.06710659 0.013298362
-0.015612127 -0.065917872 0.01313737
-0.015023096 -0.067162082 0.012524188
-0.014000962 -0.066504568 0.011559516
-0.012943048 -0.065578111 0.010473281
-0.012486065 -0.067781493 0.0096930563
-0.01130949 -0.066117018 0.0087670982
-0.010564622 -0.066909268 0.007584244
-0.0097290408 -0.067218833 0.0066322088
0.0035113988 -0.066716582 0.0061156154
0.0044678971 -0.067912035 0.0076057315
0.0052046068 -0.065925024 0.0089950562
0.0060986369 -0.066213772 0.010160893
0.0070203436 -0.066693269 0.011557519
0.0078500491 -0.066289306 0.012475818
0.0088128038 -0.066977307 0.013236076
0.0094952015 -0.065603212 0.013689995
0.010294452 -0.065198198 0.014149755
0.011233211 -0.065671079 0.014359385
0.012057765 -0.065456443 0.014643461
0.012821824 -0.064963907 0.014622062
0.013723222 -0.065185301 0.014488101
0.014312896 -0.063987061 0.013658375
0.015131688 -0.063889354 0.012187183
0.018676471 -0.074705884 0.0056199133
-0.022490568 -0.064876646 0.0097819567
-0.021515209 -0.064545624 0.011076182
-0.020854356 -0.065169863 0.012413442
-0.020175418 -0.065789409 0.01275
-0.019073075 -0.06502185 0.013200551
-0.018243665 -0.065155946 0.013403118
-0.016875446 -0.063282929 0.013348967
-0.016731955 -0.066047192 0.012960523
-0.015917754 -0.066323981 0.012141854
-0.014904724 -0.065756135 0.011445582
-0.014045659 -0.06583903 0.010565549
-0.013348709 -0.066743545 0.009363085
-0.012182326 -0.065262459 0.008474499
-0.01138005 -0.065654144 0.0076861382
-0.010585248 -0.066157803 0.0059545934
0.0044804197 -0.067206301 0.0057363212
0.0052803266 -0.06600409 0.0074230731
0.0060649225 -0.064981312 0.0089950562
0.007059494 -0.066182755 0.010550261
0.0079501504 -0.066251256 0.011710763
0.0089324508 -0.066993386 0.012919009
0.0094323074 -0.064311191 0.013604015
0.010404813 -0.065030083 0.014295667
0.011088814 -0.063973926 0.014428049
0.012158008 -0.065132186 0.014758378
0.01297589 -0.064879455 0.014733166
0.013482261 -0.063198105 0.014646381
0.014691974 -0.064817533 0.014237761
0.015445719 -0.064357162 0.013598025
0.016290622 -0.064305089 0.010310322
0.018600583 -0.069752194 0.0053367615
-0.023753243 -0.065101475 0.0087138414
-0.022786906 -0.064855039 0.010684788
-0.02152336 -0.063709147 0.012462944
-0.020980066 -0.064688541 0.01301229
-0.020027511 -0.064436339 0.013333023
-0.019129051 -0.064343177 0.013464183
-0.01826443 -0.064360373 0.013598502
-0.017753763 -0.06568893 0.013348967
-0.01682937 -0.065545961 0.012574196
-0.015786896 -0.064901687 0.011466503
-0.015131396 -0.065866083 0.010969609
-0.014257111 -0.065939136 0.0096161067
-0.01301947 -0.064229384 0.0086547732
-0.012350554 -0.065281503 0.007655561
-0.011571362 -0.065867752 0.0069219768
0.0051729912 -0.063800231 0.0054415464
0.0062644654 -0.066224352 0.0075159073
0.0069653168 -0.064429186 0.0095237195
0.0077988934 -0.064124241 0.010815263
0.0087812236 -0.064981058 0.012437701
0.0094761085 -0.063748367 0.013593167
0.010501548 -0.064759552 0.014125884
0.011255844 -0.06407173 0.014451951
0.011855591 -0.062665269 0.014692426
0.012784893 -0.063072138 0.014671594
0.013546795 -0.062653929 0.014671594
0.014462306 -0.062953569 0.014462531
0.015501175 -0.063727058 0.013864964
0.016316146 -0.063547097 0.012568235
0.017760949 -0.065715514 0.0071927905
-0.023227232 -0.062799551 0.010465682
-0.022656914 -0.063613646 0.012164295
-0.021860691 -0.063833214 0.01267007
-0.020903133 -0.063580364 0.013191074
-0.020244379 -0.064253904 0.013338208
-0.01902025 -0.063112654 0.013191074
-0.018039797 -0.062709771 0.013034374
-0.017408153 -0.063539766 0.01262641
-0.016569292 -0.063660972 0.011702269
-0.015883429 -0.064416133 0.010932118
-0.014985282 -0.064348564 0.01004684
-0.01381174 -0.063016064 0.008649677
-0.013147536 -0.063984677 0.0077725351
-0.012566699 -0.065526359 0.0053818822
0.0061996561 -0.064653561 0.0056756437
0.0071569672 -0.065307327 0.007935226
0.0078682052 -0.063819893 0.0096489191
0.0087293554 -0.063724302 0.010861158
0.0096617043 -0.064118586 0.012724698
0.010534273 -0.064083494 0.013765424
0.011392562 -0.063973621 0.014062136
0.012246089 -0.063854612 0.014537841
0.012744711 -0.062024262 0.01454398
0.01386161 -0.063243598 0.014605194
0.014562457 -0.062532909 0.014398366
0.015508051 -0.062893771 0.013879865
0.016322244 -0.062711783 0.013504148
0.017039092 -0.06219269 0.011857748
-0.023819108 -0.061249133 0.0091205537
-0.023390969 -0.062375914 0.011705875
-0.022929968 -0.06349837 0.012696415
-0.02188522 -0.063029431 0.013338208
-0.020968344 -0.062905028 0.013527334
-0.020279417 -0.063483387 0.013473898
-0.01917886 -0.06276717 0.013291389
-0.018557407 -0.063625388 0.012781382
-0.017735846 -0.063849047 0.012554109
-0.016739421 -0.063433588 0.011442542
-0.015799737 -0.063198946 0.010687321
-0.015033637 -0.063671872 0.0094050467
-0.013934844 -0.062706791 0.0081240833
-0.013665143 -0.065592684 0.0064326525
0.0070828274 -0.063745439 0.0059536695
0.0077787819 -0.062230255 0.008885026
0.0087835779 -0.063241757 0.010168016
0.0094567593 -0.061898783 0.011725962
0.010532413 -0.063194476 0.013498545
0.011245504 -0.062282789 0.013867944
0.012113753 -0.0622993 0.014530599
0.012878032 -0.061814554 0.014425337
0.013718012 -0.061731052 0.014473438
0.014934764 -0.063253112 0.014692426
0.015375634 -0.061502535 0.014114469
0.01624397 -0.06155609 0.013879865
0.017244348 -0.062079653 0.012880504
0.018118171 -0.062119436 0.0072107315
-0.024085969 -0.061075132 0.010367453
-0.023632348 -0.06214432 0.012151957
-0.022668805 -0.061903276 0.013025403
-0.021566581 -0.061249085 0.013664186
-0.021020547 -0.062185787 0.013586998
-0.020239919 -0.062479749 0.013434201
-0.019171316 -0.061871067 0.013291746
-0.018210355 -0.061568342 0.012388945
-0.017562417 -0.062346581 0.011710405
-0.016859461 -0.063001141 0.011014611
-0.015647866 -0.061722133 0.0098576248
-0.014789282 -0.061767001 0.0089972913
-0.014179872 -0.062923178 0.0078330338
-0.013465867 -0.063738436 0.0051511824
0.0080598127 -0.063582972 0.008344084
0.0087303622 -0.061985571 0.0096791387
0.0095222471 -0.061461776 0.011398107
0.010507445 -0.062169049 0.012759805
0.011290154 -0.061661612 0.01379782
0.012032471 -0.061021816 0.014594764
0.013043794 -0.061740622 0.014425337
0.013777695 -0.061138518 0.014553308
0.014586354 -0.060919475 0.014793128
0.015698606 -0.061922282 0.014394134
0.016223641 -0.060625184 0.014288425
0.017064709 -0.060579721 0.013596714
0.018008901 -0.060887232 0.011382848
-0.025359051 -0.0612115 0.0088856816
-0.02441499 -0.061037477 0.011613041
-0.023533992 -0.061014049 0.012745202
-0.022374559 -0.060239196 0.013580471
-0.021986417 -0.061561964 0.013966769
-0.021042451 -0.061373815 0.013925016
-0.019900976 -0.060568187 0.013474464
-0.019153096 -0.06094167 0.013054818
-0.018151358 -0.060504522 0.012247652
-0.017640691 -0.061742421 0.011589855
-0.016772036 -0.061791711 0.01088801
-0.01593536 -0.061970841 0.0096784532
-0.014939437 -0.061515328 0.0084173381
-0.014304037 -0.062580161 0.0066322982
0.0079865148 -0.062117342 0.0070126653
0.0086698439 -0.060688905 0.0091144145
0.0097006727 -0.061731555 0.010995716
0.010350554 -0.060378235 0.012296975
0.011205227 -0.060335841 0.013513952
0.012091393 -0.060456961 0.014215976
0.013030454 -0.060808782 0.014328182
0.013810463 -0.060420774 0.014545232
0.014713977 -0.060586967 0.014751673
0.015332679 -0.059627086 0.014562339
0.016336577 -0.060187384 0.014350504
0.017650291 -0.06177602 0.013752341
0.018206783 -0.06068927 0.012632847
0.018728236 -0.05958984 0.0083233118
-0.024844781 -0.059113439 0.009955436
-0.024275854 -0.059822641 0.012010098
-0.02364262 -0.060420025 0.013225615
-0.022709807 -0.060268335 0.013902932
-0.021511361 -0.059371352 0.014054567
-0.020871343 -0.060005113 0.013981223
-0.019811375 -0.059434127 0.013518602
-0.01916115 -0.060096335 0.013056397
-0.018344237 -0.060273919 0.012129039
-0.017693726 -0.061043359 0.01132372
-0.01698437 -0.061680079 0.010474473
-0.015716236 -0.060245577 0.0094408095
-0.0149345 -0.060616497 0.0075892508
-0.014342722 -0.061852984 0.0054993331
0.0080563826 -0.061765604 0.0052372217
0.0089426115 -0.061704021 0.0089444816
0.0095038991 -0.05961537 0.010281593
0.010366446 -0.05960707 0.011500567
0.011257573 -0.059751734 0.013319612
0.012045201 -0.05936563 0.014006138
0.013021531 -0.05989904 0.014239162
0.013957495 -0.060191695 0.014583647
0.014519114 -0.05893052 0.01500538
0.015593057 -0.059773386 0.014925271
0.016417578 -0.059621729 0.014704257
0.017104376 -0.0590101 0.014157534
0.018272407 -0.060037911 0.012916297
0.018849632 -0.059119299 0.011106968
-0.026069043 -0.059089832 0.0050358176
-0.024936788 -0.058472466 0.010700434
-0.024405126 -0.059269592 0.012164295
-0.023279931 -0.058630936 0.013272107
-0.022549203 -0.05897484 0.013902932
-0.021730272 -0.059106339 0.014057577
-0.0207475 -0.058784582 0.013981223
-0.020199198 -0.059719369 0.01347512
-0.019257575 -0.059523415 0.012857735
-0.018306464 -0.059278075 0.01192078
-0.017541362 -0.059640635 0.011290401
-0.016593248 -0.059386358 0.010412574
-0.01583302 -0.059813634 0.0092320442
-0.01502749 -0.060109958 0.0073709786
0.0087648425 -0.059600934 0.0084102452
0.009459598 -0.058477517 0.0097674727
0.010495496 -0.059474479 0.011123538
0.011330205 -0.059265688 0.012621701
0.01213936 -0.05896261 0.013421088
0.012825097 -0.058140438 0.013864428
0.013709572 -0.058265682 0.014181405
0.014705866 -0.058823463 0.014699966
0.015474137 -0.058457851 0.014851123
0.016474593 -0.058961701 0.014644444
0.017193129 -0.058456641 0.013858587
0.018166527 -0.058824945 0.012743592
0.018696342 -0.057788696 0.010950685
0.01970778 -0.05826648 0.006352365
-0.026052695 -0.058184355 0.008700937
-0.025317492 -0.058492139 0.01113078
-0.024841776 -0.059442822 0.012206465
-0.023132289 -0.057402346 0.013272107
-0.022975039 -0.05920491 0.013897032
-0.021638615 -0.057991486 0.014031291
-0.020855395 -0.058221314 0.013956368
-0.0199796 -0.058201447 0.013512224
-0.019071253 -0.05808064 0.012703836
-0.018325306 -0.058466453 0.011886001
-0.017619418 -0.059025057 0.01124835
-0.016530417 -0.058291469 0.010182589
-0.015863296 -0.059046715 0.0088449717
-0.015324755 -0.060397562 0.0070101917
0.0089638252 -0.060057629 0.0073855221
0.0095038144 -0.057886869 0.0098452866
0.010456518 -0.058382228 0.011238635
0.011435648 -0.058937576 0.012847811
0.012100581 -0.057909925 0.013668567
0.013126931 -0.058633626 0.013797879
0.013791144 -0.057750415 0.014211625
0.01435336 -0.056569126 0.014630109
0.015397204 -0.057311822 0.01457119
0.016479054 -0.058110349 0.014560133
0.016875817 -0.056533985 0.013795465
0.017957032 -0.057291485 0.012873769
0.018943109 -0.057690378 0.010923088
0.020119077 -0.058607746 0.0074288845
-0.026124375 -0.057473622 0.0087282956
-0.025271993 -0.057515565 0.010927558
-0.02470893 -0.058242477 0.012499601
-0.023890411 -0.058398779 0.013375908
-0.022667414 -0.057540353 0.013902932
-0.021363609 -0.056399923 0.014054567
-0.021045417 -0.057874892 0.014019847
-0.019961409 -0.057280563 0.013872802
-0.019080266 -0.057240799 0.013254493
-0.018191386 -0.057172928 0.012196273
-0.01758687 -0.05803667 0.011290401
-0.016715214 -0.058063369 0.010513753
-0.015851308 -0.058121461 0.0090426803
-0.015401452 -0.059793867 0.0066614449
0.008777394 -0.057930801 0.0073383152
0.0095923329 -0.057553995 0.0097925067
0.010381365 -0.05709751 0.011050403
0.011405094 -0.057902783 0.012457818
0.012092844 -0.05700912 0.013295561
0.012909484 -0.056801729 0.013650119
0.013824607 -0.057026502 0.013875872
0.014563528 -0.056540754 0.014297068
0.015506196 -0.056856055 0.014646113
0.016259624 -0.056480799 0.014196604
0.017415015 -0.057469551 0.013406068
0.018024839 -0.056649495 0.012482077
0.018956034 -0.056868102 0.011039168
0.019781813 -0.056765199 0.0083312094
-0.026527278 -0.057475768 0.0086690187
-0.024980836 -0.055991527 0.010918051
-0.024439659 -0.05673492 0.012586027
-0.023214029 -0.055885624 0.013530523
-0.022640495 -0.056601234 0.013988197
-0.021843661 -0.056793515 0.014075994
-0.020880748 -0.056552023 0.014064372
-0.01996658 -0.056427289 0.013947725
-0.019259732 -0.056903757 0.013335943
-0.018439705 -0.057075277 0.012361765
-0.017621517 -0.057269931 0.011314213
-0.016692165 -0.057104774 0.010305643
-0.015871687 -0.057314426 0.0085912645
-0.015298201 -0.058493119 0.005916208
0.0088181961 -0.057318274 0.0073417425
0.0095935073 -0.056688908 0.010041982
0.010417266 -0.05642686 0.011307657
0.011415891 -0.057079457 0.012671709
0.012202081 -0.05665252 0.013350099
0.012809072 -0.055505976 0.01366818
0.013725229 -0.055758741 0.013858646
0.014586704 -0.055772688 0.013989806
0.015596786 -0.056321729 0.014130712
0.016156435 -0.055272013 0.013920635
0.017420741 -0.056617409 0.013055921
0.017755585 -0.054957759 0.012299836
0.019021746 -0.056200612 0.010606974
0.019854635 -0.056110922 0.0071999729
-0.026433166 -0.056390755 0.0083020627
-0.025617588 -0.056535367 0.010420561
-0.024311304 -0.055568699 0.012378097
-0.023127411 -0.054820526 0.013206184
-0.022427518 -0.055206198 0.01392436
-0.021676432 -0.055491664 0.0140194
-0.021086546 -0.056230791 0.013939083
-0.020205295 -0.056223426 0.013847917
-0.019149562 -0.05570782 0.013260186
-0.018289093 -0.055738185 0.012530178
-0.017865364 -0.057169169 0.011705965
-0.016822124 -0.056663997 0.010572284
-0.015799956 -0.056177624 0.008687377
-0.01542283 -0.058062419 0.0059942305
0.0090046413 -0.057629704 0.007255584
0.0095125306 -0.055345632 0.0099319518
0.010460355 -0.055788562 0.011193901
0.011365611 -0.055953778 0.012621701
0.012303751 -0.056245718 0.013223946
0.01289352 -0.055012353 0.013581663
0.01376238 -0.05504952 0.013741314
0.014622084 -0.055047844 0.013755769
0.015403685 -0.054768663 0.013873488
0.016304469 -0.054920316 0.013657868
0.017137712 -0.05484068 0.013097376
0.018169137 -0.055372603 0.011786908
0.018772604 -0.05461121 0.010537297
0.020170728 -0.056127243 0.0081568658
-0.026522636 -0.055697538 0.0073114634
-0.025224987 -0.05479911 0.0098023415
-0.024285339 -0.054642014 0.011487603
-0.023009755 -0.053689428 0.012854725
-0.022420539 -0.054326691 0.013897032
-0.021866653 -0.055103965 0.01400727
-0.020957591 -0.055013679 0.01397118
-0.020160533 -0.055222332 0.013928235
-0.019253546 -0.055135157 0.013424426
-0.01854248 -0.055627439 0.012508333
-0.017691785 -0.055729128 0.011726111
-0.016656006 -0.055227809 0.010534644
-0.015945785 -0.055810254 0.0090426803
-0.015570998 -0.057704289 0.0060158968
0.0089214165 -0.056204926 0.0079965889
0.0096711945 -0.055389568 0.010022521
0.010398655 -0.054592941 0.011186719
0.011342615 -0.054968059 0.012616962
0.012057366 -0.054258149 0.013037682
0.012826275 -0.053870358 0.013634533
0.013775403 -0.054240651 0.013674974
0.014755618 -0.054682583 0.013487577
0.015224422 -0.053285483 0.013575196
0.016627427 -0.055133048 0.013469845
0.017060107 -0.053739339 0.012659311
0.018197626 -0.054592878 0.011401564
0.018745447 -0.053680144 0.0093813539
0.020031901 -0.054869991 0.0065968335
-0.0252607 -0.054005634 0.0087823868
-0.024483072 -0.054212518 0.010377496
-0.023723006 -0.05447505 0.012491524
-0.022538492 -0.053745639 0.013558686
-0.021801287 -0.054067191 0.013844937
-0.021143122 -0.054619733 0.013872117
-0.019985557 -0.053874109 0.013787508
-0.019296607 -0.054381352 0.013500601
-0.018317014 -0.054078806 0.012815237
-0.017331403 -0.053727351 0.012130857
-0.016561707 -0.054043464 0.010705382
-0.015688553 -0.054038357 0.0097088218
-0.015715092 -0.057313867 0.0067896545
0.0087916916 -0.054508492 0.0083036423
0.009723247 -0.054803759 0.010640383
0.010506694 -0.054284591 0.011266857
0.011346154 -0.054112431 0.01262027
0.011941398 -0.052883338 0.013142854
0.01309761 -0.054136794 0.013581663
0.013830744 -0.053594135 0.013670743
0.014512537 -0.052928079 0.013458848
0.015640879 -0.053874142 0.013409883
0.016272373 -0.053099327 0.013275534
0.017480657 -0.054190036 0.01176095
0.018060487 -0.05332144 0.010234237
0.018963041 -0.053441301 0.0087296963
0.020039517 -0.05401957 0.0059652627
-0.025371268 -0.053367149 0.0085370243
-0.024184091 -0.05268677 0.0098991394
-0.023319403 -0.052684572 0.011911571
-0.022870675 -0.053658124 0.012991935
-0.021780867 -0.053145315 0.013457358
-0.020927191 -0.053189941 0.013690233
-0.020031795 -0.053127803 0.013702959
-0.019238949 -0.053344358 0.013381809
-0.017881423 -0.051941272 0.012869447
-0.017606411 -0.053699553 0.012220323
-0.016704053 -0.053628799 0.011143714
-0.015627231 -0.05295895 0.010161698
-0.015650338 -0.056157093 0.0078819692
-0.014390062 -0.054862108 0.0050392747
0.0082609011 -0.055990554 0.0062731504
0.0087268967 -0.053234074 0.0088876486
0.0094763506 -0.05255067 0.010921597
0.010374709 -0.052738104 0.011493266
0.011193766 -0.052524596 0.012767583
0.012079978 -0.052634191 0.013507217
0.013049212 -0.053066798 0.013532877
0.013938083 -0.053138942 0.013529122
0.014446309 -0.051836751 0.013347656
0.015150295 -0.051342666 0.013343453
0.016353978 -0.052504878 0.012766808
0.017172933 -0.052377447 0.011350125
0.018237913 -0.052976795 0.010163039
0.019208493 -0.053259909 0.0082718134
-0.025848063 -0.053478748 0.0058449805
-0.024172777 -0.051798809 0.0095449686
-0.023745487 -0.052767746 0.011665046
-0.022351827 -0.051581141 0.01301226
-0.021560179 -0.051744428 0.013321668
-0.020924786 -0.052311968 0.013875663
-0.020489199 -0.053450081 0.013875663
-0.019113574 -0.052127931 0.013603777
-0.018224403 -0.052069724 0.012969255
-0.017453903 -0.052361712 0.012703836
-0.016459581 -0.051977623 0.011622936
-0.015949626 -0.053165425 0.010769606
-0.015031345 -0.053051807 0.0083588064
-0.014690377 -0.055088911 0.0054993331
0.008209696 -0.054731313 0.0070846975
0.0086577833 -0.051946703 0.010234237
0.0095382016 -0.052026555 0.011077046
0.010460273 -0.05230137 0.012043536
0.011306808 -0.052185271 0.012955666
0.012061659 -0.051692825 0.013269752
0.013016067 -0.05206427 0.013181776
0.013814043 -0.051802665 0.013159156
0.014546893 -0.051341973 0.012878537
0.015460587 -0.051535293 0.012658119
0.016751418 -0.052899212 0.012102932
0.017517744 -0.052553233 0.010907412
0.018492503 -0.052835722 0.0092265904
0.019257963 -0.052521721 0.0065034628
-0.024663443 -0.051969398 0.0079681575
-0.023383565 -0.051097423 0.010683745
-0.022655744 -0.051411111 0.011772454
-0.021683896 -0.051173992 0.013153136
-0.021169389 -0.052041415 0.013410687
-0.020021511 -0.051359531 0.013932168
-0.0192782 -0.051700633 0.013875663
-0.018203188 -0.051142287 0.013547748
-0.017495183 -0.051610794 0.013198644
-0.016912058 -0.05251639 0.012130857
-0.015445591 -0.050627217 0.01132372
-0.014680249 -0.0509491 0.010046631
-0.01467546 -0.054115757 0.0068120956
0.0079168724 -0.0518995 0.008100003
0.0086126886 -0.050814863 0.010411978
0.0094985543 -0.050946794 0.011436373
0.010582016 -0.052028246 0.01258409
0.011364217 -0.051576063 0.012979597
0.012140316 -0.051162764 0.013416231
0.012963831 -0.05099107 0.013244539
0.013737087 -0.05065551 0.012962937
0.014777585 -0.051286913 0.012567192
0.01544993 -0.05064144 0.012031347
0.016583478 -0.051496066 0.011574
0.017269852 -0.050946064 0.0098352134
0.018389152 -0.051664762 0.0083243847
-0.023873102 -0.051282961 0.0093025565
-0.02262155 -0.050463457 0.011340976
-0.021774447 -0.050516713 0.012715489
-0.021117665 -0.051034361 0.013079226
-0.020122884 -0.050744664 0.013467193
-0.019369924 -0.051066168 0.013715833
-0.018012263 -0.049748156 0.013547748
-0.017403794 -0.050471004 0.013232768
-0.016525267 -0.050445549 0.012688369
-0.015722392 -0.050661046 0.012091845
-0.014886387 -0.050788853 0.011264294
-0.014294805 -0.051818669 0.0096949637
-0.013712003 -0.053019747 0.0055085123
0.0075102174 -0.054449078 0.0069419444
0.0077372687 -0.049862403 0.01010409
0.0086163729 -0.049974963 0.010786802
0.0097481273 -0.05139922 0.012081623
0.010210865 -0.049352519 0.012781858
0.011237341 -0.050135832 0.013223946
0.012156479 -0.050362557 0.013496697
0.01288344 -0.049815968 0.013181776
0.013858734 -0.050237909 0.012918472
0.014866914 -0.050722413 0.012297094
0.015206956 -0.049000196 0.011911333
0.016248109 -0.049599491 0.011033714
0.017202491 -0.049887225 0.0089794397
0.018771581 -0.05184532 0.0056547225
-0.02394652 -0.050553761 0.0066490471
-0.022775145 -0.049930125 0.010671794
-0.021408532 -0.048811451 0.011522025
-0.0212509 -0.050470889 0.012895197
-0.020304604 -0.050320104 0.013295144
-0.018855574 -0.048853077 0.013716906
-0.018388253 -0.04991097 0.013811409
-0.017446082 -0.049721338 0.013609052
-0.016517326 -0.049551975 0.012934029
-0.015758313 -0.049901325 0.012462407
-0.014591205 -0.048923448 0.011986822
-0.013832724 -0.049279079 0.010972083
-0.014442526 -0.054881595 0.0089680254
0.0066771442 -0.054371029 0.0062731504
0.0068016495 -0.04846175 0.0096036196
0.0078573143 -0.04976299 0.0105398
0.0087425141 -0.049832329 0.011838257
0.009592915 -0.049708743 0.012873709
0.010483088 -0.049794666 0.013091892
0.011038148 -0.048398033 0.013476998
0.011989298 -0.04881357 0.013566583
0.012845441 -0.048812676 0.013496697
0.013956256 -0.049719162 0.012741387
0.014652723 -0.049129717 0.012059003
0.015630223 -0.049495704 0.011406481
0.016449731 -0.049349189 0.0097336471
0.017619723 -0.050216213 0.0067770779
-0.022178208 -0.047768451 0.0087684393
-0.021845348 -0.048933577 0.010897279
-0.020944292 -0.048870016 0.012298524
-0.020209001 -0.049204525 0.012895197
-0.019474946 -0.049572591 0.013059318
-0.018205909 -0.048549093 0.013563991
-0.017335102 -0.048538286 0.013366342
-0.016551685 -0.04878391 0.012934029
-0.01581588 -0.04920496 0.0125058
-0.014840355 -0.048885874 0.012329072
-0.013532431 -0.047363508 0.011959136
-0.013153118 -0.049104974 0.010442764
-0.013477946 -0.053911783 0.007124573
0.0061524194 -0.049219355 0.0090013146
0.0069542169 -0.048679519 0.010410547
0.0077703814 -0.048349041 0.011608869
0.0087358812 -0.048920933 0.012542844
0.0093704723 -0.047704224 0.012996912
0.010389657 -0.048485063 0.013378859
0.01132129 -0.048768636 0.01358059
0.011888676 -0.047554705 0.013463736
0.013158549 -0.049125247 0.013170004
0.013823025 -0.048380587 0.012385279
0.014643428 -0.048237175 0.011622161
0.015580244 -0.048471872 0.010823876
0.016311008 -0.048074547 0.0086773634
-0.02314024 -0.048950508 0.0063809752
-0.021876873 -0.048129119 0.01000613
-0.02092245 -0.047947284 0.011090755
-0.020333763 -0.048624214 0.012934089
-0.019251985 -0.048129968 0.013215125
-0.018279232 -0.047874179 0.013742
-0.017425455 -0.047920004 0.013885587
-0.016322279 -0.047248702 0.013715833
-0.015744129 -0.048107065 0.013070703
-0.014917219 -0.04826159 0.013001919
-0.013854763 -0.04762575 0.01244548
-0.012925785 -0.047394544 0.011767626
-0.012312779 -0.048371632 0.0099546015
-0.01259195 -0.053273633 0.0086097121
0.0053338544 -0.048893664 0.009133935
0.0060289446 -0.047370281 0.010069788
0.0068546352 -0.047125615 0.011212677
0.0078833615 -0.048176102 0.012159616
0.0087038269 -0.047871049 0.012744635
0.0093809655 -0.046904828 0.013079166
0.010489557 -0.048077136 0.013540834
0.011231739 -0.047518898 0.013534427
0.012141204 -0.047697589 0.012974888
0.012850629 -0.047118973 0.012710631
0.013765914 -0.047320332 0.012274206
0.014752031 -0.04772716 0.010711193
0.015530136 -0.047453199 0.0093023181
0.017073216 -0.049422469 0.0061981082
-0.022423955 -0.048435744 0.0089206696
-0.02140427 -0.04815961 0.010671794
-0.019825749 -0.046547409 0.012388706
-0.018930528 -0.046465844 0.013072371
-0.018194089 -0.0467848 0.013382077
-0.017579738 -0.047465298 0.013675123
-0.016347222 -0.046460528 0.013468772
-0.015618991 -0.046856977 0.013326764
-0.014557844 -0.046242565 0.013046443
-0.01387678 -0.046834134 0.012938023
-0.013219954 -0.047591835 0.012591571
-0.011944038 -0.04606986 0.011245072
-0.011602158 -0.048193578 0.010745883
-0.011250488 -0.050627194 0.0094819069
0.003782331 -0.05106147 0.0070140064
0.0044755177 -0.048335593 0.0093500316
0.0050601186 -0.04554107 0.010341138
0.0060258862 -0.046485409 0.010962754
0.0069864579 -0.047158591 0.012113065
0.0079403687 -0.047642212 0.012796432
0.0085224891 -0.046021447 0.013067037
0.0094551975 -0.046416428 0.013366103
0.010419131 -0.04688609 0.013408333
0.011316363 -0.047006432 0.01332444
0.012152025 -0.046872098 0.012766749
0.012874848 -0.046349455 0.012072325
0.013768578 -0.046468951 0.011508226
0.014666637 -0.046588145 0.0097186267
0.015649416 -0.04694825 0.0069218874
-0.020999996 -0.046374992 0.009376049
-0.02051099 -0.047264457 0.011593789
-0.018841123 -0.04538998 0.0128344
-0.01846626 -0.046605323 0.013038069
-0.017095271 -0.045302469 0.013125062
-0.016552199 -0.046171922 0.013292432
-0.01575781 -0.046397995 0.013307989
-0.014837772 -0.046258934 0.013213128
-0.014061082 -0.046577331 0.013249874
-0.013120997 -0.046360854 0.012715906
-0.012105267 -0.04582708 0.012092769
-0.010951721 -0.044649322 0.011532247
-0.010373249 -0.045815181 0.010758072
-0.010336337 -0.049802348 0.0094591081
-0.0096746422 -0.051275603 0.0052942336
0.0028591389 -0.050511453 0.0087862015
0.0034687794 -0.045961324 0.01004371
0.0042418661 -0.044963781 0.010690659
0.0052032121 -0.045961708 0.01126644
0.0061370162 -0.046465978 0.01172322
0.0069225156 -0.045861665 0.012768358
0.0078233192 -0.046070661 0.012938529
0.0087585431 -0.046420276 0.01308012
0.0095035005 -0.045789592 0.013158798
0.01055596 -0.046622157 0.013097644
0.011225827 -0.045766834 0.0128721
0.012073128 -0.045705415 0.012271494
0.01288904 -0.045541275 0.011773765
0.013583681 -0.044995941 0.010278761
0.014601633 -0.045522735 0.0081751049
-0.021124089 -0.045768861 0.0069039464
-0.020053834 -0.0453391 0.011034191
-0.019168632 -0.045307677 0.012061119
-0.018203367 -0.045075003 0.012731463
-0.017600823 -0.04576214 0.012948185
-0.016608022 -0.045453534 0.013400048
-0.015576951 -0.045000084 0.013558984
-0.014759363 -0.045146283 0.013828069
-0.013631558 -0.044302564 0.013777643
-0.012745454 -0.044184241 0.013526469
-0.012290217 -0.045649376 0.013267487
-0.011440789 -0.045763157 0.012850732
-0.010272876 -0.0445158 0.012281746
-0.0093722567 -0.044305213 0.010871142
-0.0089795841 -0.046693839 0.010363519
-0.0084384615 -0.048755553 0.0091861784
-0.0078160958 -0.050804622 0.0070860982
-0.0068051186 -0.050552312 0.0051151216
0 -0.051125892 0.0057801008
0.00095089804 -0.049446698 0.0069639981
0.0017532739 -0.045585118 0.0095945001
0.0025788983 -0.044700906 0.011222124
0.0034062904 -0.044281777 0.011345685
0.0043777628 -0.045528732 0.011413991
0.0052411668 -0.045423444 0.012533993
0.0060450449 -0.044906046 0.012533993
0.0069092717 -0.044910267 0.013067037
0.0077393367 -0.044716168 0.012991667
0.0085546337 -0.044484098 0.013150007
0.0094739841 -0.044786111 0.013054758
0.010417208 -0.045141235 0.012924224
0.011163451 -0.044653803 0.012580097
0.012256376 -0.045523681 0.01179266
0.013021898 -0.045142584 0.010404527
0.013921571 -0.045245104 0.0095854402
0.015075685 -0.04611386 0.0064482391
-0.020235166 -0.044869281 0.0088177025
-0.019384621 -0.044937074 0.011244297
-0.018365141 -0.044601057 0.012545526
-0.017399775 -0.044369426 0.012843698
-0.016793499 -0.045077287 0.013352931
-0.015603627 -0.044210281 0.013580471
-0.014908884 -0.044726651 0.013715059
-0.013822502 -0.044059228 0.013859719
-0.012779404 -0.043449976 0.01374653
-0.011984361 -0.043657318 0.013460517
-0.011396468 -0.044709221 0.01358369
-0.010361737 -0.044037383 0.013124317
-0.0095727555 -0.044382777 0.012578577
-0.0085095717 -0.043398816 0.01130724
-0.0075050425 -0.042528573 0.010881782
-0.0067276177 -0.042888563 0.010703117
-0.0061320495 -0.044676363 0.010183811
-0.0054180948 -0.046053804 0.0093910694
-0.004783466 -0.048791356 0.0072841048
-0.0037513964 -0.047830302 0.0076748431
-0.002775321 -0.047180459 0.0089436173
-0.001820121 -0.046413086 0.0072841048
-0.00087789044 -0.044772413 0.0099848509
0 -0.043341208 0.010523647
0.00085012743 -0.043356501 0.011834085
0.001709796 -0.043599799 0.011644393
0.0025922353 -0.044068001 0.011923581
0.0034976096 -0.044594523 0.012914121
0.0043331827 -0.044198465 0.01278457
0.0051136417 -0.043465957 0.012876123
0.0061557563 -0.044849083 0.012848616
0.0068635633 -0.043755215 0.012932956
0.0077232816 -0.043765265 0.012924224
0.0086365528 -0.044046421 0.012826025
0.009521544 -0.044145342 0.012753308
0.01055037 -0.044839073 0.012411863
0.011229855 -0.044055589 0.011857927
0.012116383 -0.044138253 0.010911047
0.013073163 -0.044448752 0.0095923245
0.013986895 -0.044583227 0.0071116984
-0.020655459 -0.044903174 0.0056890547
-0.019421197 -0.044139087 0.010265619
-0.018278204 -0.043519534 0.011885762
-0.017468017 -0.043670043 0.012653053
-0.01689172 -0.044451892 0.012870818
-0.015606292 -0.043350812 0.013264388
-0.014828211 -0.043612387 0.013785094
-0.013923522 -0.043511007 0.013970822
-0.012958409 -0.043194696 0.0137887
-0.012253899 -0.043763924 0.014032692
-0.011294661 -0.043441005 0.014322281
-0.010224161 -0.042600673 0.014016777
-0.0095770592 -0.043532088 0.013724297
-0.008677341 -0.043386709 0.01293394
-0.0078786584 -0.043770328 0.012461334
-0.0070239441 -0.043899652 0.012298048
-0.006019617 -0.042997267 0.011305004
-0.0051181349 -0.042651124 0.011121511
-0.0042815912 -0.042815916 0.010568112
-0.0034040718 -0.042550895 0.010857314
-0.0025356838 -0.042261399 0.01065439
-0.0017350127 -0.043375321 0.011930764
-0.00086454971 -0.043227486 0.012321711
0 -0.043557372 0.012322843
0.00087689259 -0.043844629 0.012279302
0.0017317455 -0.04329364 0.01236403
0.0026108285 -0.043513808 0.013315707
0.0034769159 -0.043461449 0.013228744
0.0042834063 -0.042834066 0.013182998
0.0052302983 -0.043585822 0.013101459
0.0060031018 -0.042879302 0.012876123
0.0068884403 -0.043052755 0.013031483
0.0078900913 -0.043833841 0.012906015
0.0086150412 -0.043075208 0.012808561
0.0095211733 -0.043278061 0.012419909
0.010374389 -0.043226622 0.011856198
0.011207397 -0.043105375 0.010932535
0.012420671 -0.044359542 0.0094178319
0.013212354 -0.044041179 0.0072928071
-0.019290157 -0.042964436 0.0058698356
-0.018224103 -0.042522907 0.010944724
-0.017508386 -0.042895548 0.011916012
-0.016539622 -0.042654812 0.01273784
-0.015724225 -0.042804834 0.013109893
-0.014846086 -0.042791657 0.013518304
-0.013838738 -0.042381134 0.013974994
-0.013185529 -0.043072727 0.01418668
-0.012231378 -0.042809822 0.014195949
-0.011176208 -0.042125706 0.014630318
-0.010267928 -0.041927371 0.014254987
-0.0095134247 -0.042377982 0.014063716
-0.0085305376 -0.041799635 0.013318419
-0.0077182315 -0.042021483 0.01311025
-0.0069016726 -0.042272743 0.013028651
-0.0061104065 -0.042772844 0.012978435
-0.0052819988 -0.043136325 0.012486488
-0.0043618726 -0.042746354 0.012323409
-0.0035082353 -0.04297588 0.012471676
-0.0026599204 -0.043445364 0.012426913
-0.0017533351 -0.04295671 0.012529671
-0.00086323952 -0.042298734 0.013074338
0 -0.04231073 0.013019234
0.00085198221 -0.041747127 0.013350874
0.0017206529 -0.042155996 0.013580143
0.0025943755 -0.042374801 0.013567299
0.0034653868 -0.042450987 0.013547122
0.0043585445 -0.042713735 0.013383299
0.0051207831 -0.041819729 0.013118297
0.0059998478 -0.04199893 0.012867391
0.006866334 -0.042056296 0.012753308
0.007797739 -0.042454358 0.012807995
0.0086479159 -0.04237479 0.012060463
0.0094708316 -0.04218825 0.011398524
0.010396422 -0.042452056 0.010290951
0.011070831 -0.041728515 0.0096336603
0.012415136 -0.043452974 0.0081790984
0.013082106 -0.042734876 0.0058279335
-0.018423788 -0.042111512 0.0091356933
-0.017566817 -0.042160358 0.01109916
-0.016645664 -0.042052206 0.01246655
-0.015743064 -0.041981507 0.012684584
-0.01470861 -0.041530192 0.013177365
-0.01389223 -0.041676689 0.013554901
-0.013194908 -0.042223707 0.013687462
-0.011998696 -0.041138384 0.01358369
-0.011295178 -0.041705273 0.014441401
-0.010306576 -0.041226305 0.01411289
-0.0093671475 -0.040874824 0.014176816
-0.0085790819 -0.041179594 0.013890594
-0.0077929855 -0.041562591 0.013666511
-0.006882912 -0.041297473 0.013724297
-0.0059868093 -0.041052405 0.013680786
-0.005093256 -0.040746048 0.013346702
-0.0043165623 -0.041439001 0.013319552
-0.0034383324 -0.041259989 0.013336629
-0.002606411 -0.041702576 0.013423055
-0.0017084535 -0.041002885 0.013389021
-0.00087148888 -0.041831467 0.013683736
0 -0.041131254 0.013741791
0.00087058084 -0.041787878 0.013820022
