ply
format ascii 1.0
comment PCL generated
element vertex 1259
property float x
property float y
property float z
element camera 0
property float view_px
property float view_py
property float view_pz
property float x_axisx
property float x_axisy
property float x_axisz
property float y_axisx
property float y_axisy
property float y_axisz
property float z_axisx
property float z_axisy
property float z_axisz
property float focal
property float scalex
property float scaley
property float centerx
property float centery
property int viewportx
property int viewporty
property float k1
property float k2
end_header
-0.0026256868 -0.030633014 0.012812346
-0.0017186557 -0.030076474 0.012864232
-0.00086030777 -0.030110773 0.012947619
0 -0.030064093 0.012586743
0.00086765777 -0.030368021 0.012647361
0.0017129459 -0.029976552 0.012871087
0.0025693791 -0.02997609 0.012859821
0.0034371836 -0.030075355 0.01379618
0.0042419983 -0.029693989 0.013642967
0.0051736766 -0.03017978 0.013646394
0.0059617381 -0.029808691 0.013786852
0.006897151 -0.030175034 0.014271319
0.0076905661 -0.029907759 0.014089733
0.0085725039 -0.030003764 0.013657838
0.0094251335 -0.029989062 0.012651891
0.010261559 -0.029929547 0.0088397563
0.011181336 -0.030103598 0.006628722
-0.013910462 -0.029559733 0.010592461
-0.013218078 -0.029960975 0.012320787
-0.012003052 -0.02915027 0.013142169
-0.011255563 -0.02943763 0.012985617
-0.010210554 -0.028929904 0.013496399
-0.0095801372 -0.029611334 0.013389021
-0.00862718 -0.029332412 0.013265491
-0.0076976786 -0.029080121 0.013021797
-0.006858292 -0.029147742 0.013106495
-0.0059685423 -0.028990062 0.012803525
-0.0052177948 -0.029567504 0.012874693
-0.0042757122 -0.029074846 0.01267013
-0.0035057203 -0.029798623 0.013021797
-0.0025848749 -0.029295249 0.012856692
-0.0017128265 -0.02911805 0.012795299
-0.00086140324 -0.029287711 0.012753665
0 -0.029141137 0.012647361
0.00084955577 -0.028884897 0.012956679
0.0017463637 -0.029688183 0.013798654
0.0026058352 -0.029532799 0.01388514
0.0034250396 -0.029112836 0.014141232
0.0043546897 -0.029611891 0.014226764
0.0051470823 -0.029166801 0.01419577
0.0060463594 -0.029368032 0.014091432
0.0069496515 -0.02953602 0.01445362
0.0077069723 -0.02911523 0.014404804
0.0085591534 -0.029101122 0.013999313
0.0094231404 -0.029126072 0.013919234
0.010413148 -0.029503919 0.011760592
0.011032947 -0.0288554 0.010397732
0.011963098 -0.029053239 0.0067038238
-0.014604925 -0.028350735 0.010243624
-0.01363452 -0.028121196 0.01256907
-0.012891987 -0.028362371 0.01297158
-0.011889911 -0.028026219 0.013735086
-0.011173416 -0.028363286 0.013686031
-0.010303789 -0.028335419 0.0139274
-0.0094017116 -0.028205134 0.01394695
-0.0086976206 -0.028702147 0.013705462
-0.0077041998 -0.028248733 0.013269842
-0.0069661639 -0.028735425 0.013137639
-0.0060935509 -0.02872674 0.012914419
-0.0052407538 -0.028824145 0.013021797
-0.0043431381 -0.028664712 0.01261434
-0.003475823 -0.028675538 0.013030261
-0.0025772084 -0.028349292 0.01261434
-0.0017190165 -0.02836377 0.01283285
-0.00087799004 -0.028973671 0.013004422
0 -0.028309977 0.012868226
0.00086559315 -0.028564572 0.013301969
0.0017432021 -0.028762834 0.014079422
0.0026038245 -0.02864207 0.014104128
0.0034500582 -0.028462978 0.01423955
0.004292096 -0.028327834 0.014462024
0.0051098722 -0.028104296 0.014634669
0.005979565 -0.028189378 0.014716327
0.0068456223 -0.02823819 0.014808208
0.0076473341 -0.028040225 0.014818937
0.0087462198 -0.028862527 0.014610916
0.0094110658 -0.028233198 0.014387846
0.010354812 -0.028475733 0.014018983
0.011182891 -0.028387338 0.011965424
0.012044657 -0.028390976 0.010048956
0.012968503 -0.028530706 0.0067445338
-0.015681883 -0.027878905 0.010550886
-0.014717297 -0.027703146 0.01227656
-0.013890889 -0.027781777 0.013533592
-0.012859964 -0.027434589 0.013848782
-0.012001161 -0.027431225 0.014128655
-0.011183566 -0.02752878 0.014159203
-0.010206715 -0.027217908 0.014225215
-0.009539281 -0.027750637 0.014225215
-0.0086999824 -0.027839944 0.01394695
-0.0077615362 -0.027596574 0.013410866
-0.0069471509 -0.027788604 0.013351828
-0.0060552182 -0.027680997 0.012985617
-0.0052068047 -0.027769627 0.013005167
-0.0043528271 -0.027858093 0.012780756
-0.0034592634 -0.027674107 0.012896597
-0.0025861161 -0.02758524 0.012595624
-0.0017332213 -0.027731542 0.012774467
-0.00086576788 -0.027704572 0.012834638
0 -0.027434301 0.012727559
0.00084710796 -0.027107455 0.013290107
0.0017275079 -0.027640127 0.014051586
0.0025660589 -0.027371295 0.014104128
0.0033989712 -0.027191769 0.014330566
0.0042960006 -0.027494406 0.014537215
0.0051236651 -0.027326215 0.014636427
0.0060254396 -0.027544867 0.014818937
0.0068927016 -0.027570806 0.015055597
0.0076702051 -0.027271843 0.015054703
0.0086793229 -0.027773835 0.014933944
0.0094249947 -0.027418166 0.014712065
0.010253374 -0.027342333 0.014368027
0.011103801 -0.027332434 0.013902724
0.011933977 -0.027277661 0.011458695
0.012757013 -0.027214959 0.010114759
0.014597338 -0.029194675 0.0055007041
-0.016309831 -0.026610779 0.0096721053
-0.015453191 -0.026613832 0.011815012
-0.014768703 -0.026931165 0.012772232
-0.013658397 -0.026463145 0.013784766
-0.013021038 -0.026910145 0.014205486
-0.012127693 -0.026854178 0.014225215
-0.011150997 -0.026590841 0.014117956
-0.010504763 -0.027137306 0.014256537
-0.0095498366 -0.026913179 0.014228314
-0.0085764881 -0.026587116 0.014122188
-0.0078757368 -0.027127542 0.013598084
-0.0069548315 -0.026949974 0.013358295
-0.00605002 -0.026792945 0.012881935
-0.0051706228 -0.026714886 0.01304096
-0.0043786019 -0.027147332 0.012672335
-0.0034290587 -0.026575206 0.012753546
-0.0026043127 -0.026911233 0.012595624
-0.0017383023 -0.026943687 0.012736708
-0.00086259365 -0.026740404 0.012834638
0 -0.026917638 0.012631357
0.00085827726 -0.026606597 0.013290107
0.00171204 -0.026536621 0.014079422
0.0026013947 -0.02688108 0.014113396
0.0034441345 -0.026692044 0.014370263
0.0042843795 -0.026563155 0.014643937
0.0051297741 -0.026503833 0.014701456
0.0059930044 -0.026540451 0.014908642
0.0068945363 -0.026716329 0.015176743
0.0077264057 -0.026613178 0.015275091
0.0086214617 -0.026726533 0.015088677
0.0094074514 -0.026511911 0.015011489
0.010234232 -0.026438436 0.014766067
0.011195231 -0.026696322 0.014276266
0.011916746 -0.026387082 0.01354453
0.012723966 -0.026296197 0.01164481
0.01360883 -0.026367107 0.0098132193
-0.017638244 -0.026457367 0.0068863034
-0.016472168 -0.026008686 0.011037111
-0.015550145 -0.02591691 0.012140214
-0.014884067 -0.026266001 0.013005793
-0.013653205 -0.025599759 0.013665199
-0.012980664 -0.025961328 0.013848782
-0.012247392 -0.026244411 0.014043003
-0.011187079 -0.025816338 0.013962716
-0.010217937 -0.025544843 0.013880312
-0.009365106 -0.025541199 0.013544261
-0.0086030355 -0.025809107 0.013274103
-0.0077907862 -0.025969289 0.01268968
-0.0068666618 -0.025749983 0.012427926
-0.0060503152 -0.025929922 0.012377352
-0.0051759793 -0.025879899 0.012402177
-0.0043207598 -0.02592456 0.012173563
-0.0035009685 -0.026257263 0.012102097
-0.0025956857 -0.025956858 0.011954755
-0.0017113915 -0.025670873 0.01187402
-0.0008664662 -0.025993986 0.012066543
0 -0.025839014 0.011669397
0.00085448771 -0.025634632 0.011815667
0.0017256198 -0.025884297 0.012452811
0.0025911254 -0.025911255 0.012643754
0.0034246014 -0.025684509 0.013155788
0.0043423441 -0.026054066 0.01382333
0.0051508094 -0.025754048 0.013844043
0.0060767001 -0.026043002 0.014088809
0.0069177281 -0.02594148 0.014731109
0.0077486592 -0.025828864 0.014779955
0.008576897 -0.025730692 0.014520168
0.0094105713 -0.025665194 0.014712065
0.010239817 -0.025599543 0.014583558
0.011191821 -0.025827279 0.014101774
0.012247392 -0.026244411 0.013531983
0.012874027 -0.025748054 0.012372643
0.013846654 -0.025962478 0.010659605
0.015317824 -0.027031453 0.0069942772
-0.017458035 -0.025314152 0.01043722
-0.016417472 -0.025058245 0.011471391
-0.015531121 -0.025022363 0.012140214
-0.014590337 -0.0248894 0.013005793
-0.013774324 -0.024965962 0.013511837
-0.013179036 -0.025479469 0.01357612
-0.011947564 -0.024748525 0.013616174
-0.011263408 -0.025126066 0.013508677
-0.010461261 -0.025281385 0.013364196
-0.0094958851 -0.025034608 0.013002187
-0.008727422 -0.025309525 0.012781709
-0.0077035665 -0.024822606 0.012233496
-0.0070182281 -0.025441077 0.012110889
-0.0060697272 -0.025146015 0.011935413
-0.0053476808 -0.025847124 0.011121243
-0.0043650316 -0.025317186 0.010769337
-0.0035086644 -0.025437817 0.010565668
-0.0026326505 -0.025448956 0.010555416
-0.0017636417 -0.025572805 0.010046899
-0.00088061282 -0.025537772 0.010416746
0 -0.025227444 0.010248303
0.00088596455 -0.025692973 0.010477662
0.00172472 -0.02500844 0.011410922
0.0025781 -0.024921633 0.011328399
0.0034456621 -0.024981052 0.011439025
0.0042853691 -0.024855142 0.011770368
0.0051207412 -0.024750249 0.012732089
0.0060258862 -0.024964387 0.012840807
0.0069661802 -0.025252404 0.01398325
0.0078753894 -0.025376257 0.014271319
0.0086739212 -0.025154373 0.014104187
0.009406277 -0.024798367 0.014368027
0.010449591 -0.025253179 0.014194608
0.01123259 -0.025057318 0.013970137
0.011947564 -0.024748525 0.013858974
0.013014036 -0.025160471 0.013001859
0.013680985 -0.024796786 0.011673659
0.01451803 -0.024766052 0.010416657
0.017386938 -0.028012289 0.0059905052
-0.018248932 -0.024331909 0.0086602569
-0.017531592 -0.02454423 0.011242926
-0.016588919 -0.024446826 0.011815012
-0.015703404 -0.024427518 0.01226306
-0.014880128 -0.024508446 0.013039082
-0.013833164 -0.024208037 0.013328105
-0.012980781 -0.024230789 0.013155133
-0.012269676 -0.024539351 0.012974918
-0.011161078 -0.024039244 0.012852222
-0.010441957 -0.024364566 0.012846828
-0.0095644519 -0.024345877 0.012648255
-0.008603096 -0.02408867 0.01212132
-0.0078001623 -0.024267172 0.011262894
-0.0069805505 -0.024431925 0.0107885
-0.0062385378 -0.024954151 0.010086268
-0.0053154202 -0.024805296 0.0092753768
-0.0044561266 -0.02495431 0.0090098381
-0.0035360488 -0.024752341 0.0088409781
-0.002633482 -0.024579166 0.0084132254
-0.0017391372 -0.024347922 0.0077250898
-0.00088630407 -0.024816513 0.0084408224
0 -0.024421461 0.0079264641
0.00086215581 -0.024140364 0.0081953406
0.0017716184 -0.024802657 0.0095750093
0.0026593935 -0.024821006 0.0098283589
0.0034579511 -0.024205659 0.0098612607
0.0043895259 -0.024581347 0.011001438
0.005239882 -0.024452783 0.011236757
0.0060192905 -0.024077162 0.011445135
0.0069970917 -0.02448982 0.012778163
0.0076660737 -0.023850009 0.013162613
0.0086055286 -0.024095479 0.013798922
0.0094855279 -0.024144981 0.013970137
0.010411313 -0.024293065 0.014010847
0.011156336 -0.024029033 0.013914376
0.012190527 -0.024381055 0.013805926
0.012887781 -0.024057191 0.013777703
0.013888594 -0.024305038 0.012796938
0.014415221 -0.023742717 0.011385113
0.015412457 -0.023974935 0.0081448853
-0.017938191 -0.02306339 0.010584265
-0.017425215 -0.023524042 0.011745393
-0.016478598 -0.023416957 0.012079924
-0.015443533 -0.0231653 0.012202531
-0.014631575 -0.023238385 0.012401342
-0.013944459 -0.023531275 0.013171345
-0.012972967 -0.023351341 0.01291275
-0.012117705 -0.023369862 0.012778938
-0.011278395 -0.023424359 0.012592524
-0.010440823 -0.023491852 0.012521148
-0.0094630672 -0.02322753 0.012244552
-0.0088837221 -0.023986051 0.011069417
-0.0078775845 -0.023632756 0.010063708
-0.0070454888 -0.023778524 0.0097281933
-0.006185954 -0.02386011 0.0091286898
-0.005211215 -0.02345047 0.0080020428
-0.0044003143 -0.023761699 0.0074099898
-0.0035366535 -0.023872413 0.0073490739
-0.0026415975 -0.02377438 0.0064608157
-0.0017574424 -0.023725472 0.0057147741
-0.0008909576 -0.024055857 0.0063811243
0 -0.023957375 0.0066087246
0.00087325403 -0.02357786 0.0065822005
0.0017748416 -0.023960361 0.0069074929
0.0026483503 -0.023835154 0.0076488853
0.0035244867 -0.023790285 0.0087460577
0.0043987934 -0.023753487 0.0094883144
0.0052126748 -0.023457039 0.0098356307
0.0061914893 -0.02388146 0.01092428
0.0069228658 -0.023364672 0.012044907
0.0076854485 -0.023056347 0.012277186
0.0085899699 -0.02319292 0.012159526
0.0094343023 -0.023156926 0.013000399
0.010425499 -0.023457373 0.013244271
0.011287089 -0.023442417 0.013320655
0.01228369 -0.023689974 0.013807356
0.012754106 -0.022957392 0.013210416
0.013659482 -0.023050375 0.012569278
0.014757639 -0.023438603 0.011553943
0.015161289 -0.022741934 0.010657698
0.018002685 -0.025582762 0.0054548681
-0.019282179 -0.022788029 0.0088153183
-0.018353302 -0.022723135 0.011163116
-0.017627412 -0.022915637 0.012178779
-0.016451284 -0.022512283 0.012199908
-0.015723988 -0.022712428 0.011921287
-0.014684625 -0.022458838 0.01226306
-0.014029442 -0.022797843 0.012492925
-0.012956861 -0.022458559 0.012237698
-0.012124809 -0.022517502 0.011894643
-0.011367218 -0.022734435 0.011707932
-0.010438163 -0.022616019 0.011274844
-0.0097335912 -0.023006672 0.010707825
-0.008821317 -0.022935424 0.010014206
-0.0078953076 -0.022808667 0.0092579722
-0.0070082024 -0.022776658 0.0079060197
-0.0061529051 -0.022853646 0.0072663426
-0.0052978592 -0.02295739 0.0063259304
-0.0044052987 -0.022907555 0.0057576597
-0.0035632784 -0.023161309 0.0055974126
-0.0026648503 -0.023095369 0.0050291121
0.0017417904 -0.022643276 0.0051515102
0.0026186684 -0.022695126 0.005399555
0.0035053547 -0.022784805 0.0060490966
0.0044031693 -0.02289648 0.0075442791
0.0053617414 -0.023234213 0.0087895393
0.0061137248 -0.02270812 0.0094651282
0.0070923981 -0.023050295 0.011026442
0.0079396535 -0.022936776 0.011092901
0.0085889529 -0.022331279 0.011756122
0.009532202 -0.02253066 0.012246698
0.010431594 -0.022601789 0.012651294
0.011208307 -0.022416614 0.012854248
0.012068621 -0.022413153 0.013495415
0.013041684 -0.022605587 0.013210416
0.013437018 -0.021835154 0.012623996
0.014570943 -0.022284972 0.011993021
0.015716327 -0.022701364 0.011266083
0.015981281 -0.021869121 0.0079486072
-0.02043291 -0.022209683 0.0062122941
-0.018861452 -0.021433471 0.010234118
-0.018155839 -0.021614093 0.010936677
-0.017738394 -0.022172993 0.012079924
-0.01660404 -0.021847419 0.011790901
-0.015490104 -0.021514036 0.01191777
-0.014947427 -0.021981511 0.012163967
-0.013743678 -0.021474497 0.01226306
-0.013095748 -0.021826247 0.01186794
-0.012149721 -0.021695931 0.011224061
-0.011348461 -0.021823963 0.011172116
-0.010655156 -0.022198243 0.010360032
-0.0097304517 -0.022114664 0.0095448792
-0.0088513102 -0.022128277 0.0088613927
-0.0080110021 -0.022252787 0.0071789026
-0.0070949839 -0.022171825 0.0062844157
-0.0061734742 -0.022048123 0.0056685209
0.0052066944 -0.021694561 0.0067525506
0.0061832708 -0.022083109 0.0080061257
0.0070394934 -0.021998417 0.0098191202
0.0078653479 -0.021848191 0.010522395
0.008672446 -0.021681117 0.011091024
0.0094567593 -0.021492636 0.012095124
0.010203314 -0.021256905 0.012117326
0.011127849 -0.02139971 0.012330383
0.012190592 -0.021768916 0.012650698
0.012687076 -0.021145128 0.012744337
0.01361817 -0.021278391 0.012664646
0.014432676 -0.021224525 0.012243271
0.015584216 -0.021644747 0.011657983
0.016347632 -0.021510042 0.01017639
0.018044731 -0.022555914 0.0059481859
-0.020184444 -0.021062028 0.010208279
-0.019171841 -0.020914737 0.010810286
-0.018383252 -0.02100943 0.011344224
-0.017480908 -0.020977091 0.012100369
-0.016682805 -0.021073017 0.011697143
-0.01574529 -0.020993721 0.011816561
-0.014552727 -0.020545026 0.011796743
-0.013890761 -0.020836141 0.0117594
-0.012843197 -0.020549115 0.011202008
-0.012288683 -0.021066314 0.010560751
-0.011373125 -0.020996539 0.010271251
-0.010424619 -0.020849237 0.0093576014
-0.0095592607 -0.02085657 0.0086470544
-0.0086281337 -0.020707522 0.0072653592
-0.007969507 -0.021252019 0.005979389
0.0061037 -0.020926971 0.0058898926
0.0070025935 -0.02100778 0.008448869
0.0078479275 -0.020927807 0.0093728304
0.0088465745 -0.02123178 0.010274529
0.0096783917 -0.021116491 0.01120159
0.010384466 -0.020768931 0.011706591
0.011295622 -0.020853456 0.012040973
0.012150722 -0.020829808 0.012560278
0.012876041 -0.020601666 0.013072193
0.013798318 -0.020697476 0.013186216
0.014598215 -0.020609245 0.012958616
0.015495746 -0.020660996 0.012037069
0.016312001 -0.020604633 0.011123925
0.016894888 -0.020273866 0.010661364
-0.020999318 -0.020124346 0.0073924363
-0.020072769 -0.020072769 0.010952204
-0.01887911 -0.019737251 0.011346728
-0.01811274 -0.019837761 0.011972964
-0.017219594 -0.019802533 0.012281448
-0.016753409 -0.020280443 0.012181908
-0.015676437 -0.020031005 0.011693627
-0.014747168 -0.019952051 0.011560917
-0.013899602 -0.019980678 0.011345387
-0.013086882 -0.020066554 0.01082921
-0.012354358 -0.020296445 0.010023415
-0.011277501 -0.019952502 0.0094465315
-0.010486748 -0.020099601 0.0085648298
-0.0096490169 -0.020175219 0.0072320104
-0.0088880342 -0.020442478 0.0059195459
0.0071526114 -0.020563759 0.0059407651
0.0079054926 -0.020202927 0.0080948174
0.0087078996 -0.02002817 0.0089603364
0.0096483482 -0.02017382 0.01032415
0.010597005 -0.020310925 0.011205792
0.011237161 -0.019881133 0.011725396
0.012042625 -0.019784313 0.012419701
0.012822262 -0.019660803 0.012902707
0.013709823 -0.019707872 0.013143152
0.014607584 -0.019763203 0.013096392
0.015210117 -0.019435152 0.012580961
0.016061367 -0.019442709 0.011832625
0.016847501 -0.019374626 0.011563241
0.017913586 -0.019619642 0.0082594752
-0.020955577 -0.019209279 0.010178566
-0.019853286 -0.018990099 0.010941416
-0.019288326 -0.019288326 0.011370599
-0.018241676 -0.019110326 0.011671484
-0.01746645 -0.019213095 0.011986911
-0.016672555 -0.019305063 0.011740416
-0.015688485 -0.019174814 0.011597455
-0.014828856 -0.019190283 0.01128903
-0.013896681 -0.019107936 0.010978937
-0.013168111 -0.019313229 0.010485858
-0.012404644 -0.019493012 0.0091593862
-0.011468936 -0.019408969 0.0086137056
-0.010514507 -0.019276597 0.0073207021
-0.0097173154 -0.019434631 0.006013155
0.0080024684 -0.019561589 0.0058239102
0.0087310309 -0.019208269 0.0080948174
0.0096095316 -0.019219063 0.0093335211
0.010510855 -0.0192699 0.01051259
0.011272751 -0.019076964 0.011311978
0.012277718 -0.019293556 0.011937112
0.013033045 -0.019115131 0.012182355
0.013859694 -0.019057078 0.012810707
0.014735788 -0.019069843 0.013059467
0.015401646 -0.018824235 0.012642533
0.016403327 -0.018993326 0.012590051
0.017509013 -0.019259915 0.012236804
0.017825438 -0.018674267 0.011035264
0.020156313 -0.020156313 0.00508219
-0.021489508 -0.018051187 0.010011256
-0.020787695 -0.018189235 0.010952204
-0.020075459 -0.018329766 0.011100411
-0.019038094 -0.018172728 0.011820108
-0.018374365 -0.018374365 0.012042344
-0.017288769 -0.018153207 0.01231119
-0.016948672 -0.018732743 0.011991292
-0.015675254 -0.018287797 0.011273086
-0.014753272 -0.018224631 0.011006802
-0.014064033 -0.018459043 0.010644197
-0.013170788 -0.018439103 0.0095740259
-0.012235058 -0.018352587 0.0086924434
-0.011319358 -0.018285118 0.0074667037
-0.010653955 -0.018644422 0.0061190724
0.0089428201 -0.018779924 0.0063007474
0.0095880534 -0.018304465 0.0085595846
0.010450912 -0.018289097 0.01003179
0.01148946 -0.018559899 0.011108756
0.012075741 -0.018113611 0.011657983
0.012872322 -0.018021252 0.012074351
0.013873229 -0.018208614 0.012681574
0.014568145 -0.017995944 0.012815982
0.015582182 -0.018179214 0.012677431
0.016194036 -0.017898671 0.012632698
0.016841162 -0.017683221 0.012703121
0.018079383 -0.018079383 0.012164444
0.018592672 -0.017747553 0.010786802
-0.02300412 -0.017695475 0.0054163635
-0.021615326 -0.017292259 0.010566056
-0.020755328 -0.017296106 0.010982543
-0.019996908 -0.017388616 0.011600286
-0.019065939 -0.017332671 0.011958867
-0.018173642 -0.01730823 0.012208849
-0.017200952 -0.017200952 0.012228698
-0.016372938 -0.01723467 0.011982441
-0.015619212 -0.01735468 0.011276603
-0.014930995 -0.017565876 0.010888755
-0.014075564 -0.017594455 0.010453045
-0.013187073 -0.017582765 0.0091024339
-0.01209688 -0.017281257 0.0074157119
-0.01154869 -0.017767215 0.0058512688
0.0089141307 -0.017828261 0.0054700971
0.0096508851 -0.017547064 0.0069798827
0.010518719 -0.017531196 0.0089603364
0.011286777 -0.017364273 0.010557711
0.012175271 -0.017393244 0.011520475
0.01301637 -0.017355159 0.012029141
0.013652042 -0.017065052 0.012681574
0.014673439 -0.017262869 0.012892962
0.015667396 -0.017408218 0.012885958
0.016197257 -0.017049743 0.012903839
0.017244747 -0.017244747 0.012995541
0.018168533 -0.017303364 0.012577564
0.018522803 -0.016838912 0.011929095
0.020236032 -0.01759655 0.0058836043
-0.02280147 -0.016662613 0.010029495
-0.021701528 -0.01649316 0.010981798
-0.020883329 -0.016532637 0.011421055
-0.020048283 -0.016561626 0.011878818
-0.019183312 -0.016567405 0.012069613
-0.018375102 -0.016625091 0.012310654
-0.017514493 -0.016638769 0.012226015
-0.016618827 -0.016618827 0.011696428
-0.015505015 -0.016366405 0.01120317
-0.01495867 -0.016718514 0.01050508
-0.013996453 -0.016620789 0.010100216
-0.013238887 -0.016769256 0.0088339746
-0.012319915 -0.016719885 0.0068962872
0.0098094419 -0.016943583 0.0059222281
0.010354159 -0.016394086 0.0083680153
0.011219299 -0.016397437 0.0097507238
0.012166523 -0.01651171 0.011075824
0.012985083 -0.016447771 0.011526227
0.013727703 -0.016301649 0.012345552
0.014684532 -0.016412124 0.012573302
0.015536776 -0.016399931 0.012613595
0.016364522 -0.016364522 0.01278916
0.017282119 -0.016418014 0.012989968
0.017797766 -0.016102741 0.012379736
0.018511668 -0.015987352 0.011827409
0.019625919 -0.016212715 0.01104942
-0.023365498 -0.015576997 0.0069116354
-0.022317318 -0.015450451 0.010377467
-0.021647787 -0.015586405 0.011095256
-0.020733962 -0.015550471 0.011572391
-0.019996036 -0.015649071 0.012166232
-0.019121291 -0.015644692 0.012201905
-0.018389991 -0.015762849 0.012182921
-0.017462971 -0.015716674 0.012000352
-0.016358312 -0.015497347 0.011544585
-0.015802544 -0.015802544 0.010841131
-0.014889006 -0.015764829 0.01023829
-0.013951321 -0.015695237 0.0093615055
-0.013312546 -0.015975054 0.0082524717
0.010695101 -0.016042652 0.0078611076
0.011324274 -0.015679764 0.0090045333
0.012242925 -0.015740903 0.010363847
0.01312354 -0.015748248 0.011260748
0.013777002 -0.015499126 0.012023687
0.014614835 -0.015474531 0.012246221
0.015369881 -0.015369881 0.012382418
0.016291261 -0.015433825 0.01280269
0.016967749 -0.015270974 0.012821525
0.017861132 -0.015309541 0.012548119
0.018801486 -0.015383034 0.011970341
0.019672932 -0.015396208 0.011460334
0.02069602 -0.015522013 0.0071826875
-0.023235103 -0.014629509 0.0082475841
-0.022771798 -0.014889253 0.01038602
-0.02164102 -0.014715892 0.011095256
-0.020574216 -0.014573403 0.011608243
-0.019946454 -0.014743032 0.012197793
-0.018988211 -0.014672709 0.012141794
-0.01838816 -0.014885653 0.012061685
-0.017486777 -0.014863761 0.011773258
-0.016604051 -0.014856256 0.011095256
-0.015698006 -0.014825894 0.010459512
-0.014831647 -0.014831647 0.0096752346
-0.01428983 -0.015182944 0.008892864
-0.013254641 -0.015021927 0.0073597133
0.010603467 -0.015021578 0.0057556629
0.011294639 -0.014769912 0.0089711845
0.012232328 -0.014853542 0.010044724
0.013211722 -0.014973286 0.010900944
0.01372104 -0.014578606 0.011601299
0.014375338 -0.014375338 0.012194455
0.015584077 -0.014718296 0.012379318
0.016215572 -0.014508669 0.012812227
0.017326146 -0.014727226 0.012963057
0.017938454 -0.014521605 0.012426883
0.018949401 -0.014642719 0.012370557
0.019543581 -0.014445256 0.011976928
0.020639893 -0.014619924 0.010032386
-0.023447569 -0.013894856 0.0094356835
-0.022638185 -0.013931192 0.010560006
-0.021813504 -0.013960643 0.011754245
-0.021055082 -0.014036722 0.012129337
-0.019784816 -0.01376335 0.012269735
-0.019168165 -0.013940483 0.012283057
-0.018414324 -0.014029961 0.012047619
-0.017504396 -0.014003517 0.011814743
-0.01673642 -0.014093827 0.010982215
-0.015782882 -0.014029228 0.01039058
-0.014841451 -0.013968425 0.0097946525
-0.014004926 -0.014004926 0.0085947514
-0.013369247 -0.01426053 0.005058676
0.0112768 -0.013879139 0.0081426799
0.012260864 -0.014012416 0.0099574327
0.013011249 -0.013878665 0.010759652
0.013750698 -0.013750698 0.011434764
0.014657252 -0.013795061 0.012095004
0.015510083 -0.013786742 0.012417078
0.016412653 -0.013821182 0.01285854
0.017039495 -0.013631596 0.012935013
0.017885353 -0.013626936 0.012670338
0.018785389 -0.013662102 0.012397736
0.019776423 -0.013757511 0.012033999
0.020625954 -0.013750636 0.011206955
0.021555068 -0.013795243 0.0055666268
-0.024138883 -0.012931545 0.006468147
-0.023582786 -0.013101548 0.0096264184
-0.022536024 -0.013001553 0.010741413
-0.021599716 -0.012959829 0.011762828
-0.02113886 -0.013211788 0.012070239
-0.019990999 -0.013037608 0.012049854
-0.019104423 -0.013025744 0.012142539
-0.018317709 -0.013084077 0.01207763
-0.017295519 -0.01297164 0.011912614
-0.016512532 -0.013036209 0.010870814
-0.015988203 -0.013323503 0.010421962
-0.015082987 -0.013308518 0.009521544
-0.013995564 -0.01312084 0.0084105432
0.011488485 -0.013255944 0.0080550015
0.012357533 -0.013240214 0.0099239945
0.013118455 -0.013118455 0.010734737
0.014107591 -0.013225866 0.011538893
0.014607957 -0.012889373 0.012246221
0.01550172 -0.012918101 0.012605727
0.016372606 -0.012925741 0.013047427
0.016963242 -0.012722431 0.013144404
0.017968861 -0.0128349 0.012786239
0.018681457 -0.012737358 0.012470275
0.019648209 -0.01281405 0.012061685
0.020734506 -0.012959066 0.011279494
0.021599716 -0.012959829 0.0079228878
-0.024755521 -0.01237776 0.0072075427
-0.023458509 -0.012163671 0.010151207
-0.022576001 -0.012156309 0.011288404
-0.022022838 -0.012332789 0.01193127
-0.020787472 -0.012126026 0.012229323
-0.020044578 -0.012201047 0.012266099
-0.01889197 -0.012022163 0.012294024
-0.018366646 -0.01224443 0.012252927
-0.017407849 -0.012185495 0.012021333
-0.016604234 -0.012234698 0.011231095
-0.015676253 -0.012192641 0.010460734
-0.014871137 -0.012246818 0.009550631
-0.013971498 -0.012225061 0.0083525479
0.011310582 -0.012180626 0.0082498491
0.012137823 -0.012137823 0.0096442401
0.013107765 -0.012233915 0.011028707
0.01366364 -0.011955685 0.011522174
0.014682763 -0.012091688 0.01263088
0.015598453 -0.01213213 0.012927532
0.016200606 -0.011937289 0.013525128
0.017455325 -0.012218727 0.013634712
0.017869525 -0.011913016 0.013299555
0.018830394 -0.011982978 0.012993068
0.019560428 -0.011906348 0.012552917
0.020618124 -0.012027238 0.011872053
0.021650318 -0.012124177 0.0099954307
-0.024568645 -0.011406871 0.0080455542
-0.023389881 -0.011261794 0.0099449456
-0.022317 -0.0111585 0.010749847
-0.021755537 -0.011312879 0.011862546
-0.021003839 -0.011377079 0.01213479
-0.020195995 -0.011415127 0.012049854
-0.018965848 -0.011207093 0.012283057
-0.018168814 -0.011247361 0.012217313
-0.017550528 -0.011407843 0.011921972
-0.016718978 -0.011439301 0.011142313
-0.015653463 -0.01130528 0.010473251
-0.014948986 -0.011431577 0.0095442235
-0.01381386 -0.01122376 0.008321166
0.011384384 -0.011384384 0.0079789162
0.01223264 -0.01135888 0.0090972781
0.013139929 -0.011387938 0.010688752
0.013788529 -0.011203179 0.011418581
0.014535979 -0.011115748 0.012345552
0.015451822 -0.01115965 0.013102591
0.016266739 -0.011129874 0.013574153
0.017083064 -0.011103992 0.013658077
0.017996276 -0.011140551 0.013348579
0.019109093 -0.011291737 0.013044953
0.019546678 -0.011048121 0.012848854
0.020368729 -0.011033062 0.011932194
0.021603474 -0.011233807 0.010105819
-0.024117719 -0.010336165 0.0078064799
-0.023851423 -0.010600631 0.0094676316
-0.023016095 -0.010622813 0.010532081
-0.021617319 -0.010376313 0.011630684
-0.021122282 -0.010561141 0.012082517
-0.019881278 -0.010372841 0.012132734
-0.019085141 -0.010410077 0.012281865
-0.018453978 -0.010545129 0.012118042
-0.017539719 -0.010523831 0.01188156
-0.016549086 -0.010452054 0.01110974
-0.015810309 -0.010540206 0.010678679
-0.014885969 -0.010507743 0.0095193386
-0.014078023 -0.010558518 0.0083147585
0.011353595 -0.010480242 0.0082498491
0.012159404 -0.010422346 0.0096442401
0.013150088 -0.010520071 0.010774016
0.013928941 -0.010446705 0.011418581
0.014637525 -0.01033237 0.012403131
0.015479328 -0.010319552 0.013037801
0.01630155 -0.010295716 0.01342231
0.017275533 -0.01036532 0.013506234
0.018107599 -0.010347199 0.013196737
0.018635292 -0.010164704 0.012775242
0.019843493 -0.010353126 0.012345552
0.020657962 -0.010328981 0.011421472
0.0216158 -0.010375584 0.0097385645
-0.024831094 -0.0097550722 0.0070565641
-0.023526371 -0.0095848171 0.0091754496
-0.022321912 -0.0094438856 0.010370374
-0.021815056 -0.0095986249 0.011630684
-0.020933963 -0.0095947329 0.012082517
-0.019773534 -0.0094569074 0.012132734
-0.019169522 -0.0095847612 0.012293875
-0.01820093 -0.0095338197 0.012229323
-0.017271901 -0.0094995452 0.011939168
-0.016409144 -0.0095000304 0.011273861
-0.015706223 -0.0095982468 0.010751575
-0.014811462 -0.0095838867 0.0099941492
-0.013982561 -0.009613011 0.0085732937
0.011465285 -0.0097013945 0.0083931684
0.012181598 -0.0095712552 0.01037842
0.013015811 -0.0095449286 0.011232793
0.013723354 -0.0094348053 0.011561811
0.014622007 -0.0094612986 0.012548506
0.015667859 -0.0095748035 0.013036966
0.016464669 -0.009532176 0.013383061
0.017089272 -0.0093990993 0.013383061
0.017947836 -0.0094012469 0.013004839
0.018830772 -0.0094153862 0.012617797
0.019770736 -0.0094555691 0.012171745
0.020576205 -0.0094307605 0.010843307
0.021720763 -0.0095571354 0.0088271201
-0.024476867 -0.0087417383 0.006468147
-0.023477003 -0.0086951852 0.0090796351
-0.022800995 -0.0087696128 0.0099720061
-0.021667428 -0.0086669708 0.011187315
-0.020928031 -0.0087200133 0.011842966
-0.019997377 -0.0086945109 0.012007415
-0.0191922 -0.0087237274 0.01201722
-0.017987359 -0.0085654091 0.012041271
-0.017426452 -0.0087132258 0.011842966
-0.016564082 -0.0087179374 0.01143539
-0.015806995 -0.0087816641 0.010964811
-0.014803113 -0.0087077133 0.010178685
-0.013765182 -0.0086032385 0.0086648762
0.011319513 -0.0087073166 0.0086868703
0.012225891 -0.008732779 0.010410875
0.012862248 -0.0085748313 0.011149555
0.013631673 -0.0085197948 0.011767209
0.014572236 -0.0085719032 0.012753606
0.015519814 -0.0086221192 0.013293535
0.016468061 -0.0086674001 0.013544202
0.017108653 -0.0085543264 0.013544202
0.017983524 -0.0085635828 0.013243943
0.018911006 -0.0085959118 0.012764454
0.019928792 -0.0086646918 0.012207538
0.020980604 -0.008741918 0.010649651
0.021848422 -0.0087393681 0.0081670582
-0.023714865 -0.0079049543 0.0084485412
-0.02266632 -0.0078460332 0.0095338523
-0.021676313 -0.0078034722 0.011063904
-0.021012511 -0.0078796912 0.01187104
-0.019845985 -0.0077658198 0.011960596
-0.019166553 -0.0078408625 0.012055486
-0.018150782 -0.0077789063 0.012065351
-0.017115753 -0.0077020889 0.012142539
-0.016413502 -0.0077748168 0.011645794
-0.015886856 -0.0079434281 0.011294216
-0.014805026 -0.0078379549 0.010503739
-0.014058373 -0.0079078339 0.0091367364
-0.013657982 -0.0081947884 0.0069085062
0.010701016 -0.0080257608 0.0056654513
0.011277411 -0.0078074383 0.0092285573
0.012151559 -0.0078117158 0.010606736
0.013078658 -0.0078471946 0.011485487
0.013885872 -0.0078108031 0.012289584
0.014565852 -0.0077113328 0.013242811
0.015486753 -0.0077433763 0.013402909
0.016482919 -0.0078076981 0.013567597
0.017079223 -0.0076856506 0.013567597
0.018135441 -0.0077723311 0.013242066
0.018886682 -0.0077263699 0.01259461
0.019770397 -0.0077362419 0.011677772
0.020737952 -0.0077767321 0.010367185
0.021886218 -0.0078790374 0.0076700747
-0.023706267 -0.0070240786 0.0078627765
-0.022778239 -0.007008689 0.0093665123
-0.021866078 -0.0069971448 0.010568678
-0.020790167 -0.006930056 0.011612833
-0.020103207 -0.0069924197 0.011842966
-0.019300146 -0.0070182355 0.012055486
-0.018243792 -0.0069500157 0.012092054
-0.017366299 -0.0069465199 0.012076169
-0.016260492 -0.0068465224 0.011802018
-0.015696954 -0.0069764243 0.011680871
-0.01468777 -0.0069118915 0.01098597
-0.013705326 -0.0068526631 0.0093129277
-0.013698914 -0.0073060873 0.0076859295
0.01061676 -0.0070778397 0.0079937279
0.011284347 -0.0069442135 0.0098057687
0.012121497 -0.0069265692 0.011374444
0.01305742 -0.0069639576 0.011934698
0.013609812 -0.0068049058 0.012569517
0.01478303 -0.0069567203 0.01367861
0.015596101 -0.0069316006 0.013635814
0.016334539 -0.0068777003 0.013600856
0.01721408 -0.0068856329 0.013600856
0.017999604 -0.0068569924 0.013313323
0.018906429 -0.0068750656 0.012601286
0.019694451 -0.006850244 0.011675507
0.020683551 -0.0068945172 0.010267437
0.021580108 -0.0069056344 0.0074701607
-0.023799343 -0.0061701997 0.0057519972
-0.022632197 -0.0060932836 0.0089066327
-0.022035953 -0.0061700665 0.0098572969
-0.02095326 -0.0061113676 0.011519581
-0.020234337 -0.0061582765 0.011819988
-0.019209981 -0.0061122668 0.012055486
-0.017990217 -0.005996739 0.012102395
-0.017396338 -0.0060887188 0.012169451
-0.016474148 -0.0060694232 0.011912286
-0.015728384 -0.0061165937 0.011793435
-0.014748516 -0.006072918 0.011384487
-0.013972054 -0.0061127739 0.010465384
-0.013250854 -0.0061837318 0.0081890225
0.010510491 -0.00613112 0.008903265
0.011181897 -0.0060210214 0.010649443
0.012252574 -0.0061262869 0.011639118
0.013061686 -0.0060954536 0.012230843
0.013798561 -0.0060368706 0.012951165
0.01461183 -0.0060166358 0.01358974
0.015263559 -0.0059358287 0.013638169
0.0161629 -0.0059547527 0.013516665
0.017432872 -0.0061015054 0.013495415
0.017743459 -0.0059144865 0.013094664
0.018781424 -0.0059759077 0.012516379
0.020109745 -0.0061203567 0.011476606
0.020776534 -0.0060598222 0.0092958808
-0.022935245 -0.0052927486 0.0081606209
-0.02169304 -0.0052063293 0.010005265
-0.02114399 -0.0052859974 0.011512429
-0.020051761 -0.0052308943 0.011932909
-0.018912097 -0.0051578446 0.012306988
-0.018295247 -0.0052272137 0.012412816
-0.017371468 -0.0052114408 0.012731969
-0.016519945 -0.0052168244 0.012376696
-0.015791511 -0.0052638375 0.012291431
-0.014857844 -0.0052439449 0.011734724
-0.01399504 -0.0052481396 0.011356384
-0.0130019 -0.00520076 0.0099113286
-0.012958536 -0.0055536581 0.0071321726
0.0098984977 -0.0053991806 0.0078608394
0.01038221 -0.005191105 0.010298729
0.011242555 -0.0051888716 0.011371911
0.012223214 -0.0052385204 0.012099773
0.012987277 -0.0051949108 0.012422949
0.013840059 -0.0051900223 0.013037443
0.014644524 -0.0051686554 0.013609529
0.015438493 -0.0051461644 0.013644248
0.016508374 -0.0052131703 0.013489336
0.017168086 -0.0051504262 0.013379514
0.018017795 -0.0051479414 0.012782574
0.019051382 -0.0051958319 0.01168099
0.01963177 -0.0051213312 0.010532081
0.020897144 -0.0052242861 0.007777065
-0.02281264 -0.0043870462 0.0064649582
-0.021941757 -0.004388351 0.0097216964
-0.020973815 -0.0043695448 0.011144847
-0.020025849 -0.004353445 0.011676013
-0.01930383 -0.0043872343 0.012335837
-0.018219158 -0.0043378947 0.012726009
-0.017407382 -0.0043518455 0.012805015
-0.016510097 -0.0043447618 0.012551218
-0.0154763 -0.0042989724 0.012421012
-0.014829357 -0.0043615755 0.012186468
-0.013660205 -0.0042688139 0.011698991
-0.013178731 -0.0043929103 0.010574609
-0.012737182 -0.0045489934 0.0084645152
0.0095689883 -0.0043495405 0.0092619061
0.010520786 -0.0043836609 0.011223108
0.011369694 -0.004372959 0.012181222
0.012249226 -0.0043747234 0.012416065
0.012960305 -0.0043201013 0.012597799
0.01372064 -0.0042876997 0.013173044
0.014552861 -0.0042802528 0.013637811
0.015289917 -0.0042471993 0.013565749
0.016331896 -0.0042978674 0.01330027
0.017390331 -0.0043475828 0.013202608
0.018161619 -0.004324195 0.012132972
0.018706487 -0.0042514745 0.011485487
0.019841047 -0.0043132706 0.0084727108
-0.021948457 -0.0035117529 0.0084272921
-0.020962717 -0.0034937861 0.009906888
-0.019907404 -0.0034621572 0.011298984
-0.019048553 -0.0034633733 0.012070894
-0.018159574 -0.0034589663 0.012623042
-0.017343322 -0.0034686644 0.012828976
-0.016460802 -0.003465432 0.012845695
-0.015546905 -0.0034548678 0.012774408
-0.014791456 -0.0034803427 0.012410432
-0.013820452 -0.0034551129 0.012022972
-0.013125179 -0.0035000478 0.010966957
-0.011911745 -0.0034033558 0.0098655224
-0.012276319 -0.0037773289 0.0077353716
0.008947975 -0.0035791902 0.0085818768
0.0095290309 -0.0034651021 0.010533363
0.010287784 -0.0034292613 0.01153183
0.011091149 -0.0034126614 0.012539029
0.012064449 -0.0034469853 0.012557834
0.012854651 -0.0034279069 0.013236314
0.013778537 -0.0034446341 0.013425529
0.014645437 -0.003445985 0.013591945
0.015233335 -0.0033851857 0.013543874
0.016458487 -0.0034649447 0.013221949
0.017177682 -0.0034355368 0.012897521
0.018071344 -0.0034421608 0.011931062
0.018875774 -0.0034319591 0.010367125
0.020107614 -0.0034969761 0.0077673197
-0.021643138 -0.0025971765 0.0055315197
-0.021281617 -0.0026602021 0.0095667541
-0.020185055 -0.0026328331 0.010789871
-0.019036913 -0.0025959427 0.011498302
-0.018415706 -0.0026308151 0.012448788
-0.017383892 -0.0026075838 0.012801617
-0.016461162 -0.0025991309 0.012809128
-0.015467205 -0.0025778676 0.012852311
-0.014629187 -0.0025816213 0.012648612
-0.01374667 -0.0025775004 0.012448967
-0.012810148 -0.0025620295 0.011781901
-0.012126137 -0.0025984577 0.010892481
-0.011328273 -0.0026142169 0.0097751021
-0.011235848 -0.002808962 0.0071935356
0.0083703902 -0.00279013 0.007561028
0.0085678129 -0.0025703439 0.010017335
0.0094320215 -0.0025723695 0.011264324
0.010486206 -0.0026215515 0.012178481
0.011177748 -0.0025794802 0.012569517
0.012153436 -0.0026043076 0.012878805
0.012893319 -0.0025786639 0.013300806
0.01389094 -0.0026045511 0.01336053
0.014572228 -0.0025715695 0.013510495
0.015539568 -0.0025899282 0.013232738
0.016456533 -0.0025983998 0.012613147
0.017000236 -0.0025500355 0.012300879
0.018076854 -0.0025824076 0.011458486
0.018892258 -0.0025762171 0.0083394349
-0.021163626 -0.0017636354 0.0081650019
-0.019852143 -0.0017262733 0.0098069906
-0.019114897 -0.0017377179 0.011491448
-0.018110381 -0.0017247982 0.012351632
-0.017342752 -0.0017342753 0.012762934
-0.016581768 -0.0017454491 0.012899131
-0.015534328 -0.0017260365 0.013097256
-0.014477178 -0.0017031974 0.01284042
-0.013906755 -0.0017383443 0.01284042
-0.013073575 -0.0017431433 0.012594908
-0.012000063 -0.0017142948 0.011901706
-0.011272199 -0.0017341846 0.010882705
-0.010551462 -0.0017585771 0.0099058747
-0.010586719 -0.001924858 0.007191956
0.0076232576 -0.0019058144 0.0075138807
0.0077763484 -0.0017280775 0.0093888044
0.0085880626 -0.0017176126 0.011318862
0.0093584182 -0.0017015307 0.012163579
0.010389098 -0.0017315164 0.012721807
0.011184259 -0.0017206554 0.013235539
0.012157891 -0.0017368415 0.013198823
0.012832284 -0.0017109711 0.013510495
0.013840467 -0.0017300583 0.013388813
0.014532065 -0.0017096547 0.013388813
0.015340258 -0.0017044733 0.013116479
0.016258905 -0.0017114636 0.012231588
0.017246531 -0.0017246532 0.011873871
0.018376354 -0.0017501289 0.010105193
0.019436358 -0.0017669415 0.0053474903
-0.020240163 -0.00088000711 0.0095953941
-0.019137844 -0.00086990203 0.011328518
-0.018265277 -0.00086977507 0.012284935
-0.017468367 -0.00087341835 0.012763321
-0.016459256 -0.00086627662 0.012999475
-0.015558596 -0.00086436648 0.013160199
-0.014701013 -0.00086476543 0.013055235
-0.013715819 -0.00085723872 0.013055235
-0.013156869 -0.00087712461 0.012887329
-0.012152033 -0.00086800236 0.012163103
-0.010853198 -0.00083486142 0.01177609
-0.01038627 -0.00086552254 0.011531323
-0.0095965248 -0.00087241136 0.01056847
-0.0095262621 -0.00095262623 0.007191956
0.0065158112 -0.0009308302 0.0083234012
0.0069049387 -0.00086311734 0.00986588
0.0076655964 -0.00085173297 0.010988057
0.0085418159 -0.00085418165 0.012163579
0.009570376 -0.00087003422 0.012482613
0.010408943 -0.0008674119 0.012921751
0.011231108 -0.00086393137 0.013301313
0.012076104 -0.00086257886 0.013172835
0.012794016 -0.00085293438 0.013239175
0.013893236 -0.00086832728 0.012921751
0.014634731 -0.00086086651 0.012886167
0.015430311 -0.00085723953 0.012515932
0.016444212 -0.00086548482 0.012049645
0.017027456 -0.00085137284 0.011510611
0.01839059 -0.00087574241 0.0076922476
-0.020370439 0 0.0071404874
-0.019112455 0 0.009990871
-0.018260218 0 0.011727333
-0.017118856 0 0.01265648
-0.016373673 0 0.012809128
-0.015794381 0 0.013230175
-0.014790124 0 0.013292223
-0.013811395 0 0.013325125
-0.013064598 0 0.01302439
-0.012038604 0 0.012803614
-0.011384049 0 0.012687087
-0.010247341 0 0.012147099
-0.0096173398 0 0.01183334
-0.0085192891 0 0.010851592
-0.0085955672 0 0.0090633631
-0.0077023623 0 0.0057035089
0.0053628115 0 0.0091792941
0.0060092625 0 0.0098912418
0.0068844771 0 0.011474192
0.007832407 0 0.011925817
0.0086314492 0 0.012668133
0.0095134154 0 0.012846053
0.010256848 0 0.01298216
0.011257287 0 0.013300806
0.01211368 0 0.01317659
0.012865348 0 0.013170749
0.01369539 0 0.012837797
0.014585065 0 0.012721807
0.015758198 0 0.012209594
0.016439635 0 0.011697173
0.017233349 0 0.0091589093
-0.019507529 0.00088670588 0.0089091063
-0.018338164 0.00087324588 0.011422455
-0.017498817 0.00087494089 0.01270774
-0.01659118 0.00087321998 0.012956619
-0.015430311 0.00085723953 0.013374358
-0.014693762 0.00086433894 0.013358355
-0.013769435 0.00086058967 0.013487309
-0.01298504 0.00086566928 0.013047814
-0.011914008 0.0008510006 0.013033837
-0.011271513 0.00086703949 0.013103008
-0.010420646 0.00086838711 0.012563854
-0.0094517013 0.0008592456 0.012405097
-0.0085162148 0.0008516215 0.011947185
-0.0077237519 0.00085819472 0.011805385
-0.0071063614 0.00088829518 0.010415047
-0.0066818218 0.00095454598 0.007037878
0.0036100517 0.00090251293 0.0087517798
0.0043505607 0.00087011221 0.010282665
0.0050946544 0.00084910908 0.011292219
0.006010951 0.0008587073 0.011693805
0.0068508033 0.00085635041 0.01251632
0.0078515848 0.00087239838 0.01249218
0.0086094774 0.00086094777 0.013018191
0.0093631987 0.0008511999 0.012958467
0.010347508 0.00086229231 0.013025641
0.011216847 0.00086283439 0.013238609
0.012236493 0.00087403518 0.013018191
0.01290278 0.00086018536 0.012903184
0.01379283 0.00086205185 0.012706816
0.014515632 0.00085386069 0.01241985
0.01547417 0.0008596761 0.011843204
0.016345847 0.00086030777 0.01005739
0.017467149 0.00087335747 0.0077716112
-0.019538153 0.0017761958 0.0062097609
-0.018346943 0.001747328 0.010014445
-0.017371982 0.0017371983 0.011700124
-0.016466046 0.0017332679 0.012749344
-0.015533232 0.0017259148 0.013052851
-0.014716409 0.0017313422 0.013297617
-0.013761506 0.0017201883 0.013237298
-0.01298766 0.001731688 0.013107359
-0.012152772 0.0017361103 0.013043642
-0.011242886 0.0017296749 0.013314903
-0.010345947 0.0017243247 0.01301229
-0.0095005576 0.001727374 0.012819916
-0.0084960191 0.001699204 0.012501478
-0.0075415326 0.0016758962 0.012251914
-0.0069141402 0.001728535 0.01202473
-0.0061009405 0.0017431258 0.011361539
-0.0052873879 0.0017624625 0.010266989
-0.0044050883 0.0017620354 0.0095393956
-0.003713914 0.001856957 0.0071214139
-0.0027979352 0.0018652901 0.0059320927
-0.0018834893 0.0018834893 0.0058785379
-0.00094279007 0.0018855801 0.0055531263
0 0.0018502207 0.0054344833
0.00088785193 0.0017757039 0.0087317228
0.0017781262 0.0017781262 0.0098222494
0.002571298 0.0017141987 0.010470271
0.0033705209 0.0016852604 0.011070997
0.0042590653 0.0017036261 0.011680543
0.0050770482 0.0016923494 0.012296945
0.0059972382 0.0017134966 0.012526572
0.0069790045 0.0017447511 0.012829691
0.0079195425 0.0017598984 0.012848437
0.0085173538 0.0017034707 0.013104767
0.0095220134 0.0017312751 0.013041556
0.010396412 0.0017327353 0.013077587
0.011151778 0.001715658 0.013398558
0.012111822 0.0017302603 0.012897223
0.012877983 0.0017170644 0.012677491
0.013619184 0.0017023979 0.012417436
0.01467602 0.0017265906 0.012009382
0.015559546 0.0017288385 0.010980248
0.016482249 0.0017349735 0.0084738135
-0.018391412 0.0026273443 0.0082412362
-0.017420432 0.0026130648 0.011051059
-0.016397515 0.0025890812 0.01240924
-0.015649211 0.0026082017 0.01289314
-0.014836311 0.0026181724 0.013025999
-0.013891915 0.0026047339 0.013303995
-0.012995683 0.0025991364 0.013221592
-0.012002435 0.0025719504 0.01317057
-0.011241919 0.0025942889 0.013444632
-0.010312143 0.0025780357 0.013117462
-0.00950108 0.0025912034 0.013117462
-0.008606825 0.0025820476 0.013079941
-0.0078195697 0.0026065232 0.012669176
-0.0069935266 0.0026225725 0.012563795
-0.0059224633 0.0025381984 0.012548357
-0.0050733108 0.0025366554 0.012159258
-0.004271497 0.0025628984 0.012099147
-0.0034450968 0.0025838225 0.012059152
-0.0025933904 0.0025933904 0.011657834
-0.0017404171 0.0026106257 0.011910468
-0.00087033864 0.0026110159 0.011516631
0 0.0025363921 0.011790335
0.0008580829 0.0025742487 0.011752337
0.0017000529 0.0025500793 0.012096912
0.0025697944 0.0025697944 0.012846708
0.003488264 0.002616198 0.013082206
0.0042763744 0.0025658247 0.013106734
0.0052309716 0.0026154858 0.013083845
0.0060475017 0.0025917864 0.012855262
0.0068447804 0.0025667925 0.013213009
0.0078398688 0.0026132895 0.013222456
0.0085385554 0.0025615667 0.013514608
0.0093207257 0.0025420163 0.013477236
0.010371383 0.0025928458 0.013199449
0.011143682 0.0025716187 0.013447225
0.012030588 0.0025779833 0.01271379
0.012907028 0.0025814057 0.012435585
0.013860721 0.002598885 0.012173176
0.014712036 0.0025962417 0.011661053
0.015700743 0.0026167904 0.0093098283
0.016806006 0.0026535799 0.0056965947
-0.01856363 0.0035359294 0.0060947537
-0.017297041 0.0034594082 0.0096047223
-0.016769767 0.0035304772 0.011467487
-0.015518398 0.0034485329 0.012571335
-0.014804919 0.0034835103 0.012650341
-0.013909157 0.0034772893 0.01293996
-0.012738581 0.0033969549 0.013391167
-0.01219156 0.0034833029 0.013472646
-0.011318518 0.0034826209 0.013620704
-0.010282664 0.0034275546 0.01369521
-0.0096061314 0.0034931388 0.013769984
-0.0084835095 0.003393404 0.013794482
-0.0078089749 0.0034706558 0.01371637
-0.0069363145 0.0034681573 0.013836056
-0.006081508 0.0034751475 0.013719082
-0.0052297595 0.0034865064 0.013458848
-0.00428817 0.003430536 0.012934744
-0.0034533131 0.0034533131 0.012829602
-0.0025311436 0.0033748583 0.012743443
-0.0017202583 0.0034405165 0.012928098
-0.00085269858 0.0034107943 0.012912005
0 0.0034232435 0.01329124
0.0008666612 0.0034666448 0.013336211
0.0017079419 0.0034158838 0.01352042
0.0025792494 0.0034389994 0.013742507
0.0034813592 0.0034813592 0.013742507
0.0043061553 0.0034449245 0.013436258
0.0052202493 0.0034801662 0.013307959
0.0060665724 0.0034666129 0.013244152
0.0069012009 0.0034506004 0.013330489
0.0077491757 0.0034440784 0.01363945
0.0085871303 0.0034348522 0.013706923
0.0095263487 0.003464127 0.013617605
0.010393096 0.0034643656 0.013297796
0.011213944 0.0034504444 0.013323903
0.012110515 0.0034601474 0.012393892
0.012920455 0.0034454546 0.012119621
0.013619647 0.0034049118 0.011872232
0.01483081 0.0034896024 0.01036188
0.015812233 0.0035138295 0.0077716112
-0.017611988 0.004402997 0.0081327856
-0.016515883 0.0043462845 0.010789484
-0.01550919 0.0043081087 0.011569709
-0.014734086 0.0043335543 0.01256147
-0.013485724 0.0042142887 0.012913436
-0.012969444 0.0043231477 0.013330877
-0.012082878 0.004315313 0.013235152
-0.01099815 0.0042300578 0.013498455
-0.01034015 0.0043083956 0.013657928
-0.0094248476 0.0042840214 0.013813853
-0.0085679954 0.0042839977 0.013827026
-0.0076469183 0.004248288 0.013967454
-0.0068849144 0.0043030716 0.013914555
-0.0060608545 0.0043291817 0.014034241
-0.0052120555 0.0043433793 0.014086366
-0.0043468815 0.0043468815 0.013955861
-0.0034493143 0.0043116426 0.014007986
-0.0025910661 0.0043184436 0.013866901
-0.0017502073 0.0043755183 0.013828516
-0.00086419797 0.0043209898 0.013919443
0 0.0043752673 0.014004737
0.00085450365 0.0042725182 0.014168918
0.0017365499 0.0043413746 0.014044434
0.0025837498 0.0043062498 0.014256805
0.0034312678 0.0042890846 0.014296353
0.0042968891 0.0042968891 0.014088541
0.00516304 0.0043025333 0.01371187
0.0059264344 0.004233167 0.013387263
0.0069487994 0.0043429993 0.0134978
0.0077324999 0.0042958334 0.013706923
0.0085905474 0.0042952737 0.01373437
0.009505298 0.0043205898 0.013617605
0.010364283 0.004318451 0.013136238
0.011191448 0.004304403 0.013018638
0.011971978 0.0042757066 0.012135595
0.013002345 0.004334115 0.011828184
0.013926313 0.0043519726 0.011076152
0.014695769 0.0043222848 0.0086506605
-0.017740479 0.0053221439 0.0060131848
-0.01671781 0.0052793082 0.0084419847
-0.015743272 0.0052477578 0.010926723
-0.014785357 0.005218361 0.011972219
-0.013827387 0.0051852702 0.012446791
-0.013053077 0.0052212309 0.0126037
-0.012044076 0.0051617469 0.012828052
