ply
format ascii 1.0
comment PCL generated
element vertex 1294
property float x
property float y
property float z
element camera 0
property float view_px
property float view_py
property float view_pz
property float x_axisx
property float x_axisy
property float x_axisz
property float y_axisx
property float y_axisy
property float y_axisz
property float z_axisx
property float z_axisy
property float z_axisz
property float focal
property float scalex
property float scaley
property float centerx
property float centery
property int viewportx
property int viewporty
property float k1
property float k2
end_header
-0.01804281 0.023197899 0.014543891
-0.017310983 0.023369828 0.014928937
-0.01637353 0.023267647 0.014986634
-0.015525579 0.023288371 0.015093535
-0.014411483 0.022888826 0.015287459
-0.013698387 0.023116028 0.015217125
-0.012859889 0.023147801 0.015029281
-0.012050461 0.023240175 0.014860928
-0.011099748 0.023053324 0.01471442
-0.010170097 0.022882719 0.014184952
-0.0093259308 0.022890924 0.013898462
-0.008526111 0.0230205 0.013917327
-0.0077073444 0.023122035 0.013690561
-0.0068703126 0.023187306 0.013277769
-0.0059969011 0.023130905 0.012985975
-0.0051177796 0.023030009 0.012936771
-0.0042816908 0.023121133 0.012881815
-0.0034198521 0.023084002 0.013096571
-0.0025842905 0.023258615 0.012976438
-0.0017001344 0.022951815 0.013177961
-0.00085555046 0.023099864 0.013399571
0 0.022750059 0.013620168
0.00086309423 0.023303546 0.013777733
0.0017098683 0.023083221 0.014010042
0.0025727926 0.023155134 0.014236778
0.0034381021 0.02320719 0.014222294
0.0042838203 0.023132632 0.014646918
0.0051269042 0.023071069 0.014794201
0.0059598573 0.022988021 0.014816374
0.0068221395 0.023024721 0.014936239
0.0076794275 0.023038283 0.014932185
0.0085826721 0.023173217 0.014873564
0.0093292752 0.022899132 0.0146088
0.010137259 0.022808835 0.014107198
0.0111535 0.023164963 0.013277203
0.012413923 0.023941139 0.0073738396
-0.020694185 0.024143217 0.010549664
-0.019699335 0.0239818 0.012823671
-0.019009821 0.024194317 0.014020532
-0.018058866 0.024078488 0.014760911
-0.017046798 0.023865519 0.014905423
-0.016391514 0.024155917 0.014715672
-0.015439802 0.024017472 0.014838368
-0.014556759 0.023975838 0.015012622
-0.01376412 0.024087209 0.014818639
-0.012949781 0.024172924 0.014611185
-0.012076486 0.024152972 0.014431745
-0.011199013 0.024120953 0.013947606
-0.010110721 0.023591682 0.013445288
-0.0094534243 0.024063261 0.013026178
-0.0085599218 0.023967782 0.0127002
-0.0077339392 0.024061145 0.012224644
-0.0069941725 0.024479603 0.011756927
-0.0060733575 0.02429343 0.011419326
-0.0052292999 0.024403399 0.011129409
-0.004416592 0.024732916 0.011051506
-0.0034949319 0.024464523 0.010404915
-0.0026114024 0.02437309 0.010547429
-0.0017542221 0.024559109 0.011352867
-0.00085947954 0.024065426 0.011934131
0 0.023873046 0.012021869
0.00086045271 0.024092676 0.012561888
0.0017132254 0.023985155 0.013113648
0.0025922426 0.024194263 0.0135158
0.0034616005 0.024231203 0.013877302
0.0042535891 0.023820098 0.014111251
0.0050982935 0.023792036 0.014385253
0.0059848069 0.023939228 0.014616519
0.0068676784 0.024036873 0.014852375
0.0076709995 0.023865333 0.014803201
0.0084857363 0.023760062 0.014815688
0.0093564419 0.023816397 0.014848322
0.010148659 0.023680205 0.014405578
0.01099906 0.023690283 0.013486385
0.0119667 0.023933399 0.012768656
-0.020359797 0.024601422 0.012166411
-0.019923482 0.025120912 0.013089389
-0.018790038 0.02476869 0.014067024
-0.018058226 0.024937551 0.014601737
-0.017326836 0.025123913 0.014624357
-0.016273195 0.024838036 0.014566183
-0.015381298 0.024780983 0.014417738
-0.014612028 0.024926402 0.014337927
-0.013635287 0.024713958 0.014164597
-0.012933814 0.025005376 0.013861358
-0.012006276 0.024870144 0.013748556
-0.011100628 0.024762942 0.013103813
-0.010402175 0.02513859 0.012474597
-0.0096389921 0.025411891 0.012072057
-0.0086277146 0.025020374 0.0114218
-0.0078288773 0.025226384 0.010602713
-0.0069909883 0.025342332 0.0098548234
-0.0061139949 0.025329407 0.0089407563
-0.0052393186 0.025323376 0.0087787211
-0.0043349303 0.025142599 0.0086642206
-0.0034741226 0.02518739 0.0088072717
-0.0026142236 0.025270829 0.0086642206
-0.001748073 0.02534706 0.008936286
-0.00088255887 0.025594208 0.0098516941
0 0.025444375 0.010082245
0.0008687537 0.025193859 0.011045903
0.0017349368 0.025156585 0.011790305
0.0025791945 0.024932215 0.012913972
0.0034089312 0.024714751 0.013444602
0.0042345915 0.024560634 0.013706535
0.0051287678 0.024789046 0.013970315
0.0059982184 0.024849763 0.014385253
0.0068718125 0.02491032 0.014730692
0.0077216248 0.024880793 0.01482603
0.008520104 0.024708303 0.014838964
0.0093882205 0.024750765 0.01482603
0.010315369 0.02492881 0.014560729
0.011039784 0.024627211 0.013986856
0.011895658 0.024641009 0.013302594
0.012866356 0.024874955 0.012130201
-0.021173725 0.025408469 0.011952519
-0.020724626 0.025905784 0.012899071
-0.019900294 0.025956905 0.013842702
-0.019006995 0.025918631 0.014376879
-0.018009018 0.025727168 0.014477909
-0.017134191 0.025701286 0.014477909
-0.01630253 0.025740838 0.014453918
-0.015586226 0.025977045 0.014115036
-0.014557716 0.025690086 0.013966978
-0.013643485 0.025581533 0.013809532
-0.01288223 0.02576446 0.01297906
-0.011924958 0.025553482 0.012776464
-0.011473867 0.026478156 0.012301624
-0.010568017 0.026420042 0.011204362
-0.0095148729 0.025949653 0.010317713
-0.0086553115 0.025965935 0.009001404
-0.0078608161 0.02620272 0.0079827607
-0.0069853296 0.026194986 0.007894367
-0.0061137252 0.026201678 0.0077924728
-0.0052431002 0.026215503 0.0076493919
-0.0043803439 0.026282065 0.0074458122
-0.0034839441 0.026129579 0.0069288015
-0.0026334445 0.026334444 0.0067660809
-0.0017576027 0.026364041 0.0074310601
-0.0008704185 0.026112555 0.0078353584
0 0.025926573 0.0086241663
0.00087017525 0.026105257 0.0091125369
0.0017415504 0.026123255 0.010009706
0.0026330797 0.026330797 0.011751443
0.003451111 0.025883332 0.012324482
0.0043262318 0.025957393 0.01292333
0.0050581531 0.025290765 0.0130831
0.0059690312 0.025581563 0.013647705
0.0068170554 0.025563957 0.013944954
0.007758507 0.025861692 0.014391214
0.0085750734 0.025725223 0.014575988
0.0092888856 0.025333324 0.014574707
0.0101275 0.025318751 0.014426768
0.01101169 0.025411593 0.014176905
0.011927511 0.025558952 0.013717234
0.012699942 0.025399884 0.012837589
-0.021341136 0.026463008 0.012231678
-0.020878008 0.026967429 0.013124466
-0.019812778 0.026704179 0.013787121
-0.018921942 0.026662737 0.014263928
-0.018143306 0.026782976 0.014294893
-0.017130952 0.026552979 0.014256239
-0.016340984 0.026661607 0.014115363
-0.015402905 0.026527228 0.013816148
-0.014620014 0.026660027 0.013534009
-0.013828482 0.026792686 0.01298672
-0.013020125 0.02690826 0.012439698
-0.012245924 0.027115976 0.011804968
-0.011289229 0.026920469 0.01071474
-0.010282359 0.026562762 0.0093169808
-0.0096481023 0.02719011 0.0081475973
-0.0086384779 0.026779285 0.0076052547
-0.007811191 0.026905214 0.0065131485
-0.0070136678 0.027177963 0.0059197247
-0.0061797937 0.027367659 0.0057068467
-0.00087687996 0.027183279 0.0057582557
0 0.027330363 0.0055759549
0.0008809531 0.027309548 0.006729573
0.0017274814 0.026775962 0.0082529783
0.0026086897 0.026956461 0.0093324482
0.0034718548 0.026906876 0.010823548
0.0042570247 0.026393553 0.011526614
0.0051713521 0.026718654 0.012470663
0.0059870477 0.02651407 0.013061643
0.0067861034 0.02629615 0.01349023
0.0077105421 0.026558535 0.014078826
0.0085503552 0.026506102 0.014325023
0.0092817787 0.026157741 0.014285415
0.010294026 0.026592903 0.014245778
0.0111273 0.026534332 0.014130861
0.01190654 0.026364483 0.013926208
0.012749481 0.026348928 0.013198614
0.013440687 0.026041333 0.012392461
-0.022319425 0.027470062 0.011849433
-0.02176314 0.027856817 0.012990594
-0.02063076 0.027507681 0.013810158
-0.019803332 0.027552461 0.014116585
-0.019022394 0.027668938 0.014177144
-0.018005924 0.027437599 0.014051288
-0.01720774 0.027532386 0.01392892
-0.016258199 0.02738223 0.013722599
-0.015402083 0.027381482 0.013363898
-0.01459135 0.02746607 0.012911677
-0.013887974 0.027775947 0.011971474
-0.013124179 0.027998248 0.011092722
-0.012272445 0.028051304 0.010175914
-0.011199361 0.027567659 0.009001404
-0.010542807 0.028114155 0.0078577697
-0.0095960908 0.027915901 0.0067618489
0.0008781064 0.028099405 0.0050560534
0.0017519419 0.02803107 0.0055843294
0.0026052617 0.027789459 0.0081198215
0.0034687449 0.027749959 0.0092430115
0.0043728836 0.027986456 0.010452181
0.0052144625 0.027810469 0.011421204
0.0059497175 0.027198708 0.012600511
0.0068790894 0.027516358 0.013156831
0.0076926281 0.027351568 0.013900936
0.0084952125 0.02718468 0.014253974
0.0094156368 0.027390946 0.014283419
0.010184844 0.027159585 0.014739454
0.011144869 0.027433524 0.014272839
0.01197905 0.027380684 0.014001638
0.012661348 0.027010877 0.01350686
0.013561472 0.027122945 0.013088405
0.015076558 0.028379403 0.005951345
-0.023645798 0.028900418 0.0077152848
-0.022321247 0.028330812 0.01238054
-0.02155255 0.028449362 0.0133726
-0.020783845 0.028577788 0.013921648
-0.019909585 0.028565925 0.014051288
-0.018700859 0.028051289 0.014089942
-0.01805965 0.02837945 0.013944149
-0.017050115 0.02813269 0.013590723
-0.016297599 0.028306356 0.013288617
-0.015437228 0.028301585 0.012688607
-0.014766973 0.0286653 0.011925131
-0.013948325 0.02876842 0.010921568
-0.01306597 0.028745133 0.010140628
-0.012133934 0.028601414 0.0085059702
-0.011396868 0.028930511 0.0074564219
-0.010718536 0.029475972 0.0060917139
0.0026413789 0.029055169 0.0053255558
0.0034690171 0.02861939 0.0078679323
0.0043352386 0.028612576 0.0091212392
0.0051415898 0.028278744 0.010041803
0.0061160931 0.028833009 0.011388212
0.0068577733 0.028288314 0.012794107
0.0076363985 0.028000128 0.01348722
0.0085931299 0.028357329 0.014176905
0.0093556046 0.028066812 0.014222503
0.010208302 0.02807283 0.014450431
0.010953911 0.027806081 0.014490873
0.011858452 0.027952066 0.014311075
0.012798164 0.02815596 0.014115721
0.01336249 0.027560133 0.013447136
0.014328308 0.027813774 0.012127012
-0.022958389 0.028910562 0.011777908
-0.022001352 0.028771 0.012673676
-0.02149806 0.02923736 0.013697296
-0.020548105 0.029109817 0.013869286
-0.019792456 0.029258413 0.013931066
-0.01887716 0.029173793 0.014005929
-0.017953973 0.029068338 0.013814092
-0.017120609 0.029105037 0.013400942
-0.016457956 0.029451078 0.012538463
-0.015511594 0.02929968 0.011767387
-0.014747397 0.029494794 0.010982007
-0.013967771 0.029681513 0.010080427
-0.013071453 0.029628627 0.0083813369
-0.012287827 0.029841866 0.0069182515
-0.011665273 0.030509178 0.0055049062
0.0043698777 0.029715169 0.0074371397
0.0051798867 0.029352693 0.0087068081
0.0060782521 0.029522939 0.0099070072
0.0068884217 0.029275792 0.011972934
0.0077228253 0.029175119 0.01298058
0.0084935576 0.028878096 0.013652921
0.009373703 0.028973266 0.014101237
0.010186505 0.028861765 0.014180809
0.011053472 0.028909082 0.014470726
0.011924845 0.028960338 0.014311075
0.012842865 0.029110493 0.014186502
0.013476277 0.028637089 0.013842195
0.014395507 0.028791014 0.0129233
0.015558572 0.029388415 0.011455029
-0.024076147 0.030095182 0.0098183453
-0.02307786 0.029915744 0.012528986
-0.02212432 0.02978274 0.013378024
-0.021425271 0.029995378 0.013879895
-0.020683428 0.030163333 0.013924867
-0.019857975 0.030218655 0.013780653
-0.018814418 0.029932031 0.013715148
-0.017929761 0.029882934 0.013398141
-0.017091475 0.02991008 0.013146162
-0.01641755 0.030242855 0.011925608
-0.015628431 0.030388618 0.011187702
-0.01488972 0.030655304 0.010068923
-0.013785128 0.030154968 0.008577019
-0.013052272 0.030455299 0.0069182515
0.0052979439 0.030904673 0.007450819
0.0060051028 0.030025514 0.0087289512
0.0068854904 0.03012402 0.010570437
0.0078567183 0.030553905 0.01228705
0.0084795952 0.029678583 0.013344795
0.0093356306 0.02970428 0.013778001
0.010357005 0.030207928 0.01405713
0.010950875 0.029483123 0.01441589
0.011948643 0.029871607 0.014261335
0.01282282 0.029919913 0.014498711
0.013450089 0.029422069 0.014120638
0.014507985 0.029869379 0.01308161
0.015142364 0.029443486 0.012378126
-0.023482248 0.030191461 0.011631131
-0.02307117 0.030761557 0.012942165
-0.022437759 0.031067666 0.013388842
-0.021617567 0.031129295 0.01378271
-0.020657068 0.030985601 0.013755739
-0.01978668 0.030970456 0.013686836
-0.018897004 0.030922368 0.013505548
-0.018058278 0.030957047 0.013150722
-0.017355816 0.031240471 0.012417048
-0.01658107 0.031416763 0.011437684
-0.015585686 0.031171372 0.010552585
-0.01469459 0.031117953 0.0090455115
-0.013967543 0.03142697 0.0078923702
-0.013612888 0.03267093 0.005777806
0.0060879407 0.031309407 0.0080646574
0.0069408081 0.031233635 0.0091696382
0.0077435179 0.030974071 0.011544555
0.0086610792 0.031179884 0.012683839
0.0093516074 0.03060526 0.013497621
0.010077921 0.030233761 0.01379779
0.011124431 0.030806115 0.014210075
0.011958761 0.030751098 0.014466971
0.012779037 0.030669689 0.0143525
0.013681123 0.030782526 0.01405558
0.014318096 0.030320674 0.013285577
0.015157604 0.030315207 0.012530237
0.015892977 0.030113008 0.01186654
-0.024679955 0.031488221 0.010982186
-0.024026448 0.031749237 0.012554377
-0.023190282 0.031779278 0.013133615
-0.022035724 0.031358533 0.013489515
-0.021458166 0.031758085 0.013681173
-0.020656774 0.03184586 0.013624102
-0.019683231 0.031664327 0.013518572
-0.018951429 0.031872857 0.013236552
-0.018010912 0.031733513 0.012816608
-0.017320367 0.032042682 0.011793226
-0.016354928 0.031849071 0.011164457
-0.015748121 0.032371137 0.010051817
-0.014784086 0.032177128 0.008246541
-0.014363343 0.033215232 0.0062360466
0.0061996002 0.032769319 0.0054942667
0.006914957 0.031981677 0.008531183
0.0077947597 0.032045126 0.010287434
0.0086245229 0.031910736 0.011882663
0.0093241232 0.031362962 0.012814492
0.010306506 0.031778399 0.013467312
0.011069849 0.031506494 0.0139606
0.011893196 0.031432018 0.014400274
0.012825296 0.031635731 0.014182568
0.013496514 0.031210689 0.014134943
0.014338583 0.031207504 0.013766199
0.015406388 0.031668689 0.013061762
0.016046105 0.031247679 0.012130827
-0.024619823 0.032260459 0.011865437
-0.023997156 0.032567568 0.012810498
-0.023016486 0.032393575 0.013099462
-0.022252692 0.032523166 0.013441145
-0.021500153 0.032680236 0.013859123
-0.020702893 0.032779582 0.013486534
-0.019712126 0.032567862 0.013429046
-0.018817695 0.032503292 0.012995332
-0.018272799 0.033065066 0.012369841
-0.017478833 0.033209782 0.011617094
-0.016473256 0.032946512 0.010784984
-0.015598202 0.03292954 0.0090455115
-0.015092025 0.033735115 0.0076822042
0.0070036575 0.033267375 0.0074458718
0.0077847568 0.032868974 0.0095770955
0.0085830763 0.032615691 0.011495501
0.0095655881 0.033044759 0.012436271
0.010184705 0.03225157 0.013296872
0.011095674 0.03243351 0.013977826
0.011979614 0.032516096 0.014326364
0.012767727 0.032344908 0.01428166
0.013587519 0.032270357 0.014308095
0.014536306 0.032492921 0.013969094
0.015001126 0.031669047 0.013620526
0.01611151 0.03222302 0.012651503
0.016788894 0.031898901 0.011859953
-0.025501689 0.033152197 0.011017591
-0.02466489 0.033170022 0.012366831
-0.024105037 0.033574872 0.012988508
-0.023114024 0.03338692 0.013476074
-0.022441085 0.03366163 0.013538539
-0.021257309 0.033161402 0.01393351
-0.020748863 0.033716902 0.013492614
-0.019661456 0.03333899 0.013200969
-0.018846549 0.033409789 0.012883693
-0.018301545 0.033988584 0.012119919
-0.017308598 0.033751767 0.011532187
-0.016433632 0.033732191 0.010362774
-0.015665423 0.033941753 0.0083825886
-0.015153371 0.034763616 0.0057096779
0.0077981916 0.033792164 0.0087624192
0.0086568678 0.033761784 0.010675132
0.0095399534 0.033823472 0.012050629
0.010279821 0.03340942 0.012913942
0.0110402 0.033120599 0.013528258
0.01201752 0.033477377 0.014038414
0.01267554 0.032956403 0.014235556
0.013601748 0.03315426 0.014439166
0.014360707 0.032945152 0.014283627
0.015360955 0.033282071 0.013792276
0.016256258 0.033368107 0.012824029
0.016844304 0.032846395 0.01218462
0.017921004 0.033281866 0.0079708099
-0.025660668 0.034214221 0.011651188
-0.024969518 0.034440711 0.012491524
-0.02405172 0.0343596 0.013070613
-0.023188487 0.034353312 0.013440967
-0.022136524 0.03405619 0.013568014
-0.021297548 0.034076076 0.013644964
-0.020560658 0.034267765 0.013330787
-0.019669205 0.034207311 0.012899578
-0.01894325 0.034442272 0.012372673
-0.018034969 0.034352321 0.011685133
-0.017226811 0.034453623 0.011299223
-0.016403139 0.034532923 0.0099340677
-0.015756521 0.035014492 0.0077834129
0.0079491427 0.035329524 0.0083307624
0.0085255587 0.034102235 0.0097625554
0.009501596 0.034551255 0.011773169
0.010313698 0.034378994 0.012782902
0.011010701 0.033879079 0.013480067
0.011994211 0.034269173 0.014080435
0.012836146 0.034229722 0.014388114
0.01353441 0.033836026 0.014444679
0.014355142 0.033776805 0.014333665
0.015255742 0.03390165 0.014101177
0.016023144 0.033732932 0.013518989
0.016794143 0.033588286 0.01276049
0.017831385 0.033964541 0.011928231
-0.026151977 0.034588099 0.0085172057
-0.025637943 0.035038523 0.011668593
-0.024917677 0.035228442 0.012629986
-0.024260901 0.03552489 0.013260633
-0.022903277 0.034779049 0.013454527
-0.022308843 0.035179332 0.013663679
-0.021482939 0.035232019 0.013645351
-0.020498851 0.035018872 0.013391644
-0.019894114 0.035463419 0.012864321
-0.019034458 0.035473309 0.012394845
-0.018095339 0.035328995 0.011702359
-0.017450297 0.035773113 0.011286199
-0.016473867 0.035548873 0.0094671547
-0.015950007 0.036330573 0.0072686672
0.0079318704 0.036134083 0.0078518987
0.0085216053 0.034938585 0.0093797147
0.0094578648 0.035252046 0.011366844
0.010293655 0.035169989 0.012422174
0.01105208 0.034856565 0.01316607
0.011936894 0.034958046 0.013970912
0.012667455 0.034624379 0.014361739
0.013722066 0.035162795 0.014497697
0.014365977 0.034647357 0.014359623
0.015251927 0.034740504 0.014225304
0.01609627 0.034734055 0.01381135
0.016940191 0.034727395 0.013357759
0.017737884 0.034631107 0.012286246
-0.026445204 0.035828985 0.010432899
-0.025593303 0.035830624 0.012317449
-0.024977973 0.036174994 0.012790412
-0.02368048 0.035520721 0.01331839
-0.022987278 0.035757989 0.01360622
-0.022156814 0.035791777 0.014021605
-0.021245938 0.035693172 0.013891697
-0.020711534 0.036245186 0.013430238
-0.019752562 0.036069896 0.012949735
-0.018957652 0.036191884 0.012639165
-0.0181632 0.036326401 0.011905193
-0.017289568 0.036308095 0.011286199
-0.016391387 0.036233593 0.0092380047
0.0078730891 0.036741085 0.0070530176
0.0086139925 0.036178771 0.0091692209
0.0094907805 0.036237527 0.011406243
0.010268467 0.035939638 0.012370557
0.011047673 0.035692483 0.013028324
0.011904987 0.035714958 0.01402837
0.012744202 0.035683766 0.014366746
0.013613844 0.035736341 0.014636368
0.014346847 0.035445154 0.014408886
0.015322175 0.035751745 0.014303088
0.016053017 0.035485618 0.013889462
0.016831679 0.035346527 0.013384104
0.017711727 0.035423454 0.012354702
0.01888172 0.036046922 0.0080052316
-0.02667628 0.037002582 0.01058495
-0.025980201 0.037238289 0.012123525
-0.02471542 0.036646999 0.012683362
-0.023853796 0.036632612 0.01331839
-0.023267085 0.037054986 0.013604432
-0.022243826 0.036787868 0.01397416
-0.021184407 0.03643718 0.014037609
-0.02064947 0.036996968 0.01334396
-0.019428594 0.036323022 0.013053089
-0.018988647 0.037114173 0.01257211
-0.018056728 0.036973301 0.011818528
-0.017408565 0.037428416 0.011146665
-0.016519414 0.037386041 0.0089347064
0.0079173911 0.037827536 0.0050741434
0.0085790036 0.036889717 0.0093018711
0.0093762949 0.036652789 0.011124581
0.010313041 0.036955062 0.012231886
0.011036897 0.03650666 0.013331056
0.011857755 0.036420248 0.013826936
0.012842641 0.036815573 0.014332205
0.013623843 0.036614079 0.014505237
0.014393543 0.036407195 0.014478058
0.015302896 0.036556918 0.014375776
0.016020045 0.036255892 0.013946682
0.016726755 0.035962526 0.01340422
0.017923228 0.036699943 0.012482107
0.018637056 0.036426973 0.010255516
-0.026755329 0.037975304 0.01058495
-0.02555077 0.037474461 0.012061536
-0.024987565 0.037912164 0.012683362
-0.023942225 0.037623495 0.013356239
-0.022893483 0.037307896 0.013754487
-0.022261465 0.037673246 0.014176667
-0.021494815 0.037830874 0.014102101
-0.02038257 0.037368044 0.013395101
-0.01967808 0.037645023 0.013308078
-0.018789172 0.037578344 0.01262936
-0.017997233 0.037708487 0.011854053
-0.017459592 0.038411103 0.011259228
-0.016352791 0.037869621 0.0089298785
0.007904903 0.038646195 0.0050741434
0.0085706413 0.037710819 0.0095462501
0.0094377585 0.037751034 0.011701375
0.010359708 0.037985597 0.012467951
0.011058347 0.037428252 0.013637066
0.011935135 0.037510425 0.01401034
0.012687473 0.037216585 0.014325023
0.013449647 0.03698653 0.014552206
0.014440125 0.037374441 0.014498591
0.015156019 0.037048046 0.014486074
0.016076718 0.03723029 0.01417923
0.017033422 0.03747353 0.013384104
0.017704885 0.037095949 0.012482107
0.018361781 0.036723562 0.009200722
-0.026334127 0.038226958 0.010403365
-0.025895469 0.038843203 0.011662275
-0.024928154 0.038681619 0.012708932
-0.023818895 0.038280372 0.013293654
-0.023091264 0.038485441 0.013523877
-0.022212926 0.03844545 0.013797343
-0.02139066 0.038503189 0.013724476
-0.020670228 0.03875668 0.013405234
-0.019516859 0.038185161 0.013225675
-0.018975699 0.03881393 0.012920886
-0.017940203 0.038443293 0.012200624
-0.017380975 0.039107196 0.011384487
-0.016410409 0.038866758 0.0092390776
0.0077958726 0.038979366 0.0073742867
0.0086288629 0.038829885 0.010188609
0.0093039107 0.038061455 0.01181823
0.01036704 0.038876399 0.012851834
0.011053738 0.038262945 0.013577789
0.011820801 0.037995432 0.014039248
0.012728498 0.038185496 0.01431334
0.013522487 0.038031999 0.014629096
0.014365153 0.038025409 0.014557004
0.015371961 0.038429905 0.014477372
0.01612751 0.038196735 0.014222771
0.016668065 0.037503149 0.01333344
0.017940203 0.038443293 0.012098551
0.018680202 0.038209509 0.0088584423
-0.026792986 0.039757334 0.010043532
-0.025969792 0.039820351 0.011489987
-0.024691658 0.039166078 0.012568563
-0.023712412 0.038956106 0.013230473
-0.023225155 0.039568782 0.013484091
-0.022146992 0.039183144 0.013916105
-0.02146781 0.039500773 0.013855934
-0.020729754 0.039732028 0.013616264
-0.019551737 0.039103474 0.013601542
-0.01887458 0.039465033 0.013139755
-0.017879283 0.039164145 0.012299895
-0.017350698 0.039906606 0.011384487
-0.016389718 0.039680369 0.0098365247
0.0079599265 0.04068407 0.0081836283
0.0085961632 0.039542355 0.010674566
0.009436518 0.039461803 0.012135983
0.010384478 0.039807163 0.013147503
0.011084484 0.039222021 0.013596922
0.011818334 0.03883167 0.014080346
0.012840247 0.039376758 0.014154255
0.013432505 0.038618453 0.014376819
0.014431092 0.039048836 0.014497489
0.015094243 0.038574178 0.014256507
0.015953993 0.038625456 0.0139229
0.016826753 0.038701534 0.013029337
0.017869122 0.039141886 0.011808544
0.018869257 0.039453901 0.0077541173
-0.026884556 0.040760454 0.0085650086
-0.025538437 0.040010221 0.011312097
-0.024908829 0.040369481 0.012210727
-0.023737786 0.039845567 0.013251901
-0.022859612 0.039792657 0.013515323
-0.022319794 0.040347319 0.014053285
-0.021313595 0.040069558 0.014068365
-0.020539574 0.040223334 0.01397571
-0.019671302 0.040197879 0.013960779
-0.018938359 0.040459223 0.013365537
-0.018063406 0.040427621 0.012672007
-0.017575575 0.041302603 0.011717111
-0.016353996 0.040454622 0.010695457
0.0077827335 0.040643167 0.0086231828
0.0086487923 0.040649325 0.010770202
0.0094591184 0.040416233 0.012287825
0.010392399 0.040703561 0.013445854
0.011019934 0.039841298 0.013904303
0.0120039 0.040298805 0.014175177
0.012682253 0.039737727 0.014262974
0.013670704 0.040157694 0.014367193
0.014480447 0.040034179 0.014369905
0.015463443 0.040376771 0.014109284
0.015965519 0.03949365 0.013633311
0.01686186 0.039625369 0.012808055
0.017714152 0.039645959 0.011129558
0.018858541 0.040288702 0.0062900186
-0.0267551 0.041427251 0.006636709
-0.026092481 0.041747969 0.010286808
-0.025060931 0.041480161 0.011954635
-0.023845863 0.040878624 0.0129008
-0.023117164 0.041097179 0.013278961
-0.022410678 0.041373558 0.013805926
-0.021218253 0.040739045 0.014024228
-0.020581447 0.041162893 0.013937771
-0.019591887 0.040887412 0.013994366
-0.018904904 0.041247062 0.013528079
-0.017879112 0.040866539 0.013065398
-0.017467652 0.041922361 0.012301683
-0.016228575 0.040998504 0.010891825
-0.016238404 0.043302409 0.0069103241
0.0077445046 0.041304026 0.0093185306
0.0085016126 0.040807743 0.011850417
0.0093751354 0.040909681 0.012692213
0.010268814 0.041075256 0.013587266
0.011067056 0.040862978 0.014012247
0.011896201 0.040786974 0.014241964
0.01280378 0.040972095 0.014404505
0.013524428 0.040573284 0.014590561
0.01437236 0.040580783 0.014487922
0.015167166 0.040445775 0.014047712
0.016260749 0.041079786 0.013569385
0.01695852 0.040700447 0.011915386
0.018110186 0.041394711 0.010099441
-0.025986953 0.042445358 0.0095658898
-0.0246806 0.041701701 0.01117447
-0.024004454 0.042007793 0.012497216
-0.02293583 0.041624282 0.013111204
-0.022006717 0.041474193 0.013670474
-0.021683116 0.042498901 0.013986766
-0.02049122 0.041836239 0.013933778
-0.019511005 0.041566923 0.014068395
-0.018843433 0.041969463 0.013900429
-0.018085754 0.042200089 0.013324857
-0.01729198 0.04236535 0.012648076
-0.016316781 0.042080116 0.011172563
-0.015886385 0.043246269 0.0090702474
0.0070454474 0.043153364 0.0077112615
0.0076588728 0.041698307 0.011001766
0.008507546 0.041686978 0.012544572
0.0093743335 0.041758392 0.013253063
0.010194606 0.041627977 0.013843328
0.011076337 0.041749265 0.014030665
0.011806277 0.041321967 0.01423648
0.012818105 0.041872475 0.014333308
0.013566841 0.04154845 0.014477849
0.014304342 0.041230157 0.014128536
0.01551091 0.042224143 0.013857782
0.016045695 0.041381001 0.013200343
0.016958302 0.041547839 0.011639446
0.018339608 0.042792413 0.0084511042
-0.026123891 0.043539818 0.007894665
-0.02514565 0.043354567 0.010580331
-0.024199981 0.043214254 0.012064695
-0.022937024 0.042475972 0.012738556
-0.022325 0.042932693 0.0134767
-0.021448568 0.042897135 0.013918161
-0.020502394 0.042713322 0.013963759
-0.019730153 0.042891636 0.014142424
-0.01890151 0.042957976 0.014172792
-0.017790955 0.042359415 0.013849318
-0.017308479 0.043271203 0.013140321
-0.016384164 0.043116219 0.011798263
-0.015358227 0.042661745 0.010217309
-0.015871294 0.046680275 0.0063934922
0.0069474811 0.043421756 0.0098154545
0.0077033592 0.042796444 0.012123227
0.0085055605 0.042527806 0.013019025
0.0093854517 0.042661145 0.013761044
0.010213275 0.042555317 0.013964981
0.011013217 0.042358533 0.01423648
0.011964377 0.042729918 0.014195442
0.012665465 0.042218219 0.014329016
0.013589798 0.042468119 0.014359415
0.014551768 0.04279932 0.014028609
0.01523093 0.042308144 0.013585627
0.016056893 0.042254984 0.012090325
0.01692535 0.042313378 0.010510355
0.01822618 0.043395665 0.0059524179
-0.025041655 0.044038769 0.0093789101
-0.023957655 0.04363716 0.011305928
-0.023073325 0.043582946 0.012484014
-0.022147032 0.043442257 0.012984514
-0.021226106 0.043301258 0.013637722
-0.020629365 0.043837402 0.013685554
-0.019700434 0.04368357 0.014168739
-0.018692361 0.04333229 0.014235944
-0.017893264 0.043455068 0.014077455
-0.017278951 0.044061325 0.013614804
-0.016219519 0.043536603 0.012776256
-0.015404585 0.043646328 0.011068285
-0.015121545 0.045364633 0.0090079606
0.0061925869 0.045117419 0.0080966949
0.0068311496 0.043548577 0.011625051
0.0076960698 0.043611065 0.013012677
0.0085258977 0.04348208 0.013227433
0.0094211139 0.04367971 0.013842732
0.01011724 0.042998269 0.014072508
0.010997226 0.043142967 0.014195442
0.011900579 0.043352108 0.014151603
0.012609858 0.04287352 0.014235586
0.013567211 0.043245483 0.014128536
0.01428631 0.042858932 0.013758183
0.01523926 0.043177906 0.012907326
0.016227555 0.043558173 0.011725247
0.017167794 0.043777876 0.0084582269
-0.025290871 0.045349143 0.0073411465
-0.023821741 0.044240374 0.01036641
-0.023274558 0.044825073 0.012138546
-0.022118088 0.044236176 0.012726098
-0.021426115 0.044566318 0.01338315
-0.020590989 0.044613808 0.013585895
-0.019690052 0.044516638 0.013878644
-0.018782098 0.04439405 0.014028162
-0.017874934 0.044261739 0.013835192
-0.017336303 0.045074392 0.013734102
-0.016070947 0.043983642 0.013444275
-0.015566079 0.044968672 0.012755066
-0.014396822 0.044037338 0.010666937
-0.014730706 0.047874793 0.0082808137
0.0055048931 0.047709078 0.0076753795
0.0060767848 0.045141831 0.011410654
0.0067772381 0.044052046 0.013082564
0.0077393367 0.044716168 0.0136877
0.0084204385 0.04378628 0.013881564
0.0092758471 0.043849461 0.014225304
0.010278678 0.044540942 0.014290363
0.010985891 0.043943565 0.014338672
0.011866358 0.044075042 0.014128536
0.012759049 0.04423137 0.013982922
0.013601591 0.04420517 0.01401493
0.014366012 0.043943096 0.013474494
0.015243143 0.044035748 0.01222375
0.015918316 0.043565918 0.010158628
0.01737133 0.045165461 0.005802989
-0.024337521 0.046067446 0.0091308653
-0.022938143 0.045026723 0.011249304
-0.022161169 0.045174692 0.012473404
-0.021387557 0.045341618 0.013194472
-0.020419277 0.045092572 0.01337567
-0.019637918 0.045252588 0.014026463
-0.018701699 0.045054089 0.014146924
-0.017775375 0.044861659 0.013946891
-0.017123044 0.045376062 0.013883144
-0.016372085 0.0456695 0.013590842
-0.01512954 0.044548091 0.013116121
-0.014696089 0.045817215 0.012591422
-0.013510236 0.044752654 0.010223746
-0.014026174 0.04955915 0.0079714656
0.004584576 0.048596505 0.0065697432
0.0051277825 0.04529541 0.01171723
0.0058780992 0.044505607 0.012960672
0.0067934254 0.045006443 0.013461173
0.0076911543 0.045292355 0.014031857
0.0085192453 0.045151997 0.013996929
0.0093333432 0.044969745 0.014321387
0.010151383 0.044835277 0.014388353
0.011009055 0.044883072 0.014461219
0.011890445 0.045013826 0.014199525
0.01268517 0.044820935 0.013887584
0.013525697 0.044803869 0.013834208
0.01437884 0.044828147 0.013323247
0.015240412 0.044874549 0.011972904
0.016424857 0.045816708 0.00842309
-0.023230176 0.046460353 0.010135591
-0.022461224 0.046650235 0.012345999
-0.021288583 0.045983337 0.013186127
-0.020673182 0.04651466 0.013518929
-0.019549621 0.045899112 0.01397565
-0.018590705 0.045631733 0.01415953
-0.017837986 0.045869108 0.014107525
-0.017071564 0.046093225 0.014163911
-0.016128175 0.045837969 0.013860673
-0.015232156 0.045696471 0.013526291
-0.014542447 0.046193659 0.013180494
-0.013463297 0.045438629 0.012373418
-0.012990789 0.046766844 0.0099618733
-0.013024556 0.050237577 0.0081294775
0.00367115 0.049560525 0.0066159666
0.0042924369 0.046358317 0.011797994
0.0050905705 0.04581514 0.01269716
0.0059692138 0.04604822 0.013416797
0.0067810453 0.045772057 0.013905466
0.0076108789 0.045665279 0.014113814
0.0085104071 0.045956202 0.014314681
0.0093329372 0.045816239 0.014465451
0.010119061 0.045535777 0.014400601
0.011084744 0.04604432 0.014374703
0.01180538 0.045535039 0.014158636
0.012798763 0.046075549 0.013595343
0.013463297 0.045438629 0.013583958
0.014318702 0.045482937 0.01258257
0.015261495 0.045784488 0.0098283887
-0.023199661 0.047258567 0.0080140233
-0.022248423 0.047063973 0.011566877
-0.021243811 0.046736382 0.012594074
-0.020268308 0.046448208 0.013311684
-0.019651301 0.046992242 0.013866425
-0.018814078 0.047035195 0.014084339
-0.017813036 0.046653189 0.014222682
-0.017102068 0.047030687 0.014332145
-0.016271835 0.047102682 0.014126182
-0.015306369 0.046769466 0.013730407
-0.014430888 0.046688169 0.013652503
-0.013608496 0.046779204 0.013208777
-0.012623352 0.046285626 0.012297243
-0.011962024 0.046993665 0.011632323
-0.011767817 0.049786918 0.0084255636
0.0027240498 0.049940914 0.010143399
0.0033901299 0.046614286 0.012059867
0.0042016055 0.046217665 0.013136655
0.0050696619 0.046471905 0.013330519
0.0059262076 0.046563063 0.013746262
0.0067894086 0.046677183 0.014325291
0.0076561659 0.046787683 0.014324844
0.0084278509 0.04635318 0.014283419
0.0092567541 0.04628377 0.014339119
0.01019031 0.046705589 0.014272869
0.010970372 0.046413112 0.014170259
0.011940894 0.046910655 0.013680041
0.012744687 0.046730522 0.013206482
0.013443352 0.046211522 0.012920201
0.014429863 0.04668485 0.011398345
0.015516017 0.047410052 0.0078836381
-0.022264384 0.047954056 0.0097715855
-0.021263732 0.047630757 0.011702716
-0.020472657 0.047769535 0.012894452
-0.019652955 0.047850672 0.01326856
-0.018698918 0.047597248 0.01373443
-0.017682882 0.047154352 0.013944447
-0.016931007 0.047406819 0.014289618
-0.015999274 0.047155753 0.01396662
-0.015373926 0.047829993 0.01410979
-0.014475219 0.047683071 0.014108419
-0.013369273 0.046792455 0.013565034
-0.012934065 0.048287176 0.012834698
-0.011950355 0.04780142 0.012673438
-0.01089995 0.04695363 0.01200968
-0.010605504 0.049492352 0.01134491
-0.010197825 0.051916201 0.0073702335
0.00091908261 0.051468626 0.0097824633
0.0017359753 0.048607305 0.011146426
0.002543055 0.047470357 0.012904674
0.0033662717 0.047127806 0.013469815
0.0042487839 0.047586381 0.013407737
0.0050693867 0.047314275 0.013851941
0.0059343353 0.047474682 0.013957083
0.0069044679 0.048331276 0.014448076
0.0076041175 0.047314513 0.014386535
0.0083724633 0.046885796 0.014361292
0.009327976 0.047487877 0.014463812
0.010168014 0.047450732 0.014247537
0.010888965 0.046906311 0.014068872
0.011905574 0.047622297 0.013359785
0.012676994 0.047327448 0.012825549
0.013390513 0.046866793 0.011591017
0.01451009 0.047797944 0.0094008148
-0.022660809 0.049679462 0.0064088404
-0.021420581 0.048838925 0.01088044
-0.020529231 0.048756924 0.012608767
-0.019707166 0.048839495 0.01301527
-0.018693792 0.048433915 0.013473064
-0.017976813 0.048794203 0.01381743
-0.016977012 0.048384484 0.01415199
-0.016100297 0.048300888 0.014223367
-0.015165625 0.048024479 0.014409781
-0.014337953 0.048074313 0.014445007
-0.013633914 0.048570819 0.01408866
-0.012838202 0.048785165 0.013635904
-0.011642162 0.047400229 0.013367653
-0.011021677 0.048325814 0.013312966
-0.010141326 0.0481713 0.012558728
-0.0091528306 0.047428306 0.011598378
-0.0086538037 0.049326681 0.011109799
-0.0080354698 0.05089131 0.0094313622
-0.0073298672 0.052225303 0.0059319735
-0.0018654007 0.05316392 0.006760776
-0.00090807973 0.051760543 0.010201693
0 0.048161577 0.011203557
0.00083533919 0.047614336 0.011895567
0.0017181099 0.048966132 0.013440549
0.0025153731 0.047792088 0.013884753
0.0033709018 0.04803535 0.014054567
0.00419993 0.0478792 0.014199525
0.0050752372 0.048214752 0.014154613
0.005947914 0.048433013 0.014217883
0.0067524007 0.048110854 0.014285177
0.0076253861 0.048294116 0.014276206
0.0084395707 0.048105553 0.014162034
0.0093486458 0.048442982 0.014171839
0.010163049 0.048274484 0.013932258
0.010991871 0.048195127 0.013691962
0.011878653 0.04836309 0.012961596
0.012662659 0.048118103 0.011942446
0.013797016 0.049151868 0.010275215
0.014664001 0.049167532 0.0055751503
-0.021635918 0.050195333 0.0091596544
-0.020491669 0.049521532 0.011475027
-0.019527039 0.049242098 0.012784123
-0.018566599 0.04894831 0.013291001
-0.017951518 0.049580384 0.013804644
-0.01707351 0.049513184 0.014024973
-0.016221767 0.049519081 0.014301747
-0.015185255 0.048930269 0.014816105
-0.014339063 0.048921511 0.014903873
-0.013703408 0.049674854 0.014692932
-0.012701625 0.04911295 0.014256924
-0.011775692 0.048785008 0.01409182
-0.010822566 0.048285298 0.013957262
-0.010181913 0.049212579 0.013693959
-0.0093214689 0.049149565 0.013216287
-0.0084565086 0.049047753 0.012634099
-0.007554289 0.0486832 0.0124062
-0.0067249262 0.048755717 0.011402994
-0.0058812015 0.048729956 0.011668861
-0.0051197903 0.049491305 0.011459321
-0.0042820228 0.049671464 0.011555582
-0.003436815 0.049833819 0.011516362
-0.0025680719 0.049649395 0.011461616
-0.001685523 0.048880167 0.011736095
-0.00084367435 0.048933115 0.012414128
0 0.049475763 0.012830228
0.00084675191 0.049111612 0.013356775
0.0016873332 0.048932664 0.013906777
0.0025401935 0.049110409 0.014204144
0.0034092993 0.049434841 0.014087915
0.0042228894 0.048985522 0.014369637
0.0051255827 0.049547303 0.014131844
0.0059331506 0.049160391 0.014211029
0.0067833285 0.049179133 0.014284313
0.0076248748 0.049138088 0.014239639
0.0084221233 0.048848316 0.014097154
0.0094170189 0.049653374 0.013920516
0.010156579 0.049090132 0.013747722
0.010998983 0.049072385 0.01332593
0.011844926 0.049071837 0.012340605
0.012757707 0.049329802 0.01099816
0.013619474 0.049370594 0.0077075958
-0.021951821 0.051806297 0.005148083
-0.020516155 0.050435551 0.010616064
-0.019769408 0.050712828 0.012395859
-0.018828977 0.050495896 0.013094962
-0.017770529 0.049926724 0.013658226
-0.017065004 0.050341766 0.013958156
-0.01608317 0.049942475 0.01441592
-0.01528722 0.050108112 0.014918864
-0.014391316 0.049946334 0.014866173
-0.013552885 0.049976263 0.014731318
-0.01284809 0.050535824 0.014558315
-0.011772326 0.049611948 0.014320761
-0.010973888 0.049804568 0.014509261
-0.010226751 0.050281525 0.014382899
-0.0092219561 0.04946322 0.014063716
-0.0083262417 0.049124829 0.014075756
-0.0075656991 0.049597364 0.013977826
-0.0068103326 0.050226204 0.01328367
-0.0060412213 0.050918866 0.013504446
-0.0051610242 0.050750073 0.01333493
-0.0042642043 0.050317612 0.012819469
-0.0034271404 0.050550323 0.013247073
-0.0025772869 0.050686643 0.013268173
-0.001707842 0.05038134 0.013619125
-0.0008430708 0.049741179 0.013553798
0 0.050453141 0.013898671
0.0008446392 0.049833715 0.014246494
0.0016932441 0.049950704 0.014533222
0.0025508662 0.050167035 0.014567018
0.0033533089 0.049461305 0.014439851
0.0042011715 0.049573828 0.014535278
0.0050879209 0.050031226 0.01442647
0.0059090732 0.049805045 0.014362395
0.0068079205 0.050208412 0.014261484
0.0076194336 0.049949624 0.014131844
0.0084323771 0.049751028 0.013989538
0.0093950788 0.050391786 0.013820231
0.010145712 0.049883083 0.013172239
0.010980941 0.049836583 0.012587756
0.011956322 0.050387356 0.011373401
0.012888781 0.05069587 0.0096140802
-0.020895895 0.052239735 0.0071436167
-0.019899324 0.051911276 0.011384159
-0.018742669 0.051116373 0.012818217
-0.018043565 0.051553041 0.01340735
-0.016981721 0.050945163 0.013869017
-0.016196357 0.051146388 0.014139414
-0.015450828 0.05150276 0.014903873
-0.014404527 0.050839506 0.014921337
-0.013622196 0.051083237 0.014751822
-0.012737668 0.050950672 0.014635056
-0.011849045 0.050781623 0.014784366
-0.011132087 0.051378861 0.014824957
-0.010212183 0.051060915 0.014903426
-0.0092902146 0.050673898 0.014635414
-0.0085528912 0.051317349 0.014610946
-0.0077099851 0.051399905 0.014265835
-0.0067306864 0.05048015 0.014011621
-0.0059208521 0.050750162 0.013755083
-0.0050133555 0.050133556 0.013897717
-0.0041939155 0.050326988 0.013816595
-0.0033942978 0.050914466 0.013903588
-0.0025159295 0.050318591 0.014065057
-0.0016940754 0.050822262 0.014305055
-0.00085018115 0.051010869 0.014255106
0 0.050283793 0.014573455
0.00085162837 0.051097702 0.014558434
0.0016800858 0.050402574 0.014571697
0.0025076084 0.050152168 0.014619946
0.0033991218 0.050986826 0.014457911
0.0042216517 0.050659824 0.014531851
0.0049883937 0.049883939 0.014457911
0.0059208521 0.050750162 0.014285117
0.0067875995 0.050906997 0.014374346
0.0076573556 0.051049039 0.014119238
0.0084998431 0.05099906 0.013891399
0.0093830433 0.051180236 0.013485193
0.010115262 0.050576311 0.012675494
0.011125035 0.051346313 0.011657685
0.012004287 0.051446944 0.010200351
0.013011548 0.052046191 0.0055509806
-0.019802021 0.052518401 0.0090540051
-0.018907905 0.052426461 0.011477321
-0.017718347 0.051467579 0.012819201
-0.017117545 0.052208513 0.013521433
-0.016126316 0.051773958 0.013708115
-0.015363831 0.052066319 0.01471737
-0.014294782 0.051293038 0.014845252
-0.013647044 0.052029353 0.015124649
-0.012702246 0.051655799 0.014952749
-0.011779729 0.051325962 0.014924765
-0.010900842 0.051150106 0.015179068
-0.010111528 0.051400263 0.015024841
-0.0092788301 0.05145533 0.014912724
-0.0084858555 0.051763721 0.014963478
-0.0076621203 0.051932149 0.014698118
-0.0068299309 0.052078225 0.014427304
-0.0059216172 0.051602665 0.014208794
-0.005083106 0.051678244 0.014401615
-0.0042613796 0.051988829 0.014386356
-0.0033805058 0.051552713 0.014393479
-0.0025687066 0.052230366 0.014666319
-0.0017024911 0.051925976 0.01467514
-0.00084625027 0.051621266 0.014672548
0 0.051610392 0.014716327
0.00084631052 0.051624943 0.014790475
0.0016671682 0.050848629 0.014663339
0.0025506234 0.051862676 0.014667124
0.0033660398 0.051332105 0.014497846
0.0041748863 0.050933611 0.014542103
0.0050986563 0.051836342 0.014356792
0.0060131671 0.052400455 0.014218807
0.00676195 0.051559869 0.014170736
0.007629578 0.051711585 0.01378864
0.0084496997 0.051543169 0.013501018
0.0091853719 0.050937064 0.01306361
0.010261193 0.052161064 0.011555314
0.011136591 0.052256312 0.010448128
0.01200323 0.052299786 0.0080970526
-0.020058889 0.054071788 0.0058147609
-0.018964365 0.05344503 0.0098176301
-0.017774897 0.052478269 0.012089133
-0.01702447 0.052775864 0.012813359
-0.016239209 0.052991107 0.013364553
-0.015223716 0.05243725 0.014082432
-0.014573944 0.053152032 0.014601916
-0.013597613 0.052690752 0.014701724
-0.012846516 0.053098932 0.014792472
-0.01173653 0.051976066 0.014757782
-0.010935118 0.052152105 0.01501894
-0.01008027 0.052081395 0.015003473
-0.0093555199 0.052731119 0.015004039
-0.008325452 0.051617805 0.015202731
-0.0076440647 0.052659117 0.014995903
-0.0066755516 0.051735524 0.014763832
-0.0059037912 0.052290723 0.014707625
-0.0051263855 0.052972652 0.014595389
-0.0042420053 0.052600868 0.014580071
-0.0033748986 0.052310932 0.014865845
-0.0025778648 0.053275876 0.015126586
-0.0016754601 0.051939268 0.015084743
-0.00084032869 0.052100379 0.01505667
0 0.052391935 0.014917254
0.00084117224 0.052152682 0.014899164
0.0016905239 0.052406244 0.014772505
0.0025404468 0.052502573 0.014717668
0.0033276603 0.051578734 0.014523923
0.0042308588 0.052462652 0.014505237
0.0050624004 0.052311473 0.014407784
0.005878909 0.052070338 0.014214307
0.0068673696 0.053222116 0.014044851
0.0076337634 0.052588154 0.013602614
0.0084097842 0.052140668 0.013137907
0.0093343174 0.052611608 0.01190114
0.010200969 0.052705009 0.01058057
0.011113625 0.053003445 0.0088888109
-0.019006113 0.054426596 0.0073348582
-0.018082675 0.054248024 0.010188103
-0.016989119 0.053515729 0.012046158
-0.016227316 0.053806365 0.013013303
-0.015432384 0.054013345 0.013573796
-0.014398568 0.0533594 0.01393798
-0.013649252 0.053743932 0.014283806
-0.012671883 0.053221911 0.014146626
-0.011743859 0.052847367 0.014302075
-0.01098339 0.053227197 0.014891922
-0.010207198 0.053587791 0.01479131
-0.0092817498 0.053159118 0.014724165
-0.0083830971 0.052813511 0.014899701
-0.0076162214 0.053313553 0.014602304
-0.0067245574 0.052955892 0.014353603
-0.0059348452 0.053413607 0.01435706
-0.005064446 0.053176682 0.014522761
-0.0042211153 0.053186055 0.014519215
-0.0033697572 0.053073678 0.014707625
-0.0025546567 0.053647794 0.014937282
-0.0016987938 0.053512007 0.014933676
-0.00084874214 0.053470753 0.014762878
0 0.052749924 0.014711499
0.00084344164 0.053136826 0.014648974
0.0016919273 0.053295709 0.014598101
0.0025326121 0.053184856 0.014585376
0.0033866218 0.053339295 0.014204323
0.0042256322 0.053242967 0.014172435
0.0050492687 0.053017326 0.014027774
0.0059711002 0.053739902 0.013787687
0.0067587635 0.053225264 0.013475001
0.0076319384 0.053423572 0.012792557
0.0084234411 0.05306768 0.011619151
0.0093618911 0.053618107 0.010624409
0.010263551 0.053883646 0.0090642273
0.011303484 0.054778423 0.0055434704
-0.018136306 0.055272549 0.0076403022
-0.017197849 0.055033118 0.010108382
-0.016153628 0.05441222 0.011811435
-0.015241279 0.054191217 0.012683153
-0.014316306 0.05389668 0.013108879
-0.013523654 0.054094616 0.013529837
-0.01266518 0.0540381 0.013632923
-0.011847994 0.054162256 0.013700128
-0.010996353 0.054135893 0.013846755
-0.010084089 0.053781807 0.013994783
-0.0093443664 0.054367222 0.014112055
-0.0084153665 0.053858351 0.014412254
-0.0076295272 0.05425442 0.014262289
-0.0068018986 0.054415189 0.014105678
-0.0059388699 0.054298237 0.014011681
-0.0050841593 0.054231036 0.014294446
-0.0042390483 0.054259822 0.014273614
-0.0033973525 0.05435764 0.014369816
-0.0025319932 0.054015853 0.014389992
-0.001700906 0.054428991 0.014446616
-0.00084154971 0.053859182 0.014496565
0 0.053682085 0.014539748
0.00084504188 0.05408268 0.014319539
0.001685372 0.053931903 0.0142335
0.0025585447 0.05458229 0.014227688
0.0033795312 0.054072499 0.013914555
0.0041950988 0.053697266 0.013914555
0.0050910227 0.054304242 0.013395071
0.0059211706 0.054136414 0.013272256
0.0067335134 0.053868107 0.012613058
0.0076121911 0.054131139 0.01152283
0.0085550109 0.054752074 0.010473311
0.0093695251 0.054513603 0.009119004
0.010318082 0.055029768 0.0056583881
-0.017401503 0.056554887 0.0074059069
-0.016192988 0.055397063 0.0094034374
-0.015286171 0.055200063 0.010727197
-0.014497766 0.055432636 0.011915058
-0.01340673 0.054464843 0.012571722
-0.012671039 0.054907832 0.012928814
-0.011855135 0.055041693 0.013049692
-0.010916183 0.054580912 0.013349444
-0.0102043 0.055273294 0.013471305
-0.0092804739 0.054839164 0.013593972
-0.0084373336 0.05484267 0.014130682
-0.0076942244 0.055569403 0.01401791
-0.0067997095 0.055247638 0.013865501
-0.0059087356 0.054866828 0.013851851
-0.0051038275 0.055291463 0.014130443
-0.0042286576 0.054972548 0.014013886
-0.0033972219 0.055204857 0.014034241
-0.0025425542 0.055088673 0.014276952
-0.0017051729 0.055418123 0.014262289
-0.00084615435 0.055000033 0.014150411
0 0.055219274 0.014249355
0.00084031635 0.054620564 0.013919413
0.0016897655 0.05491738 0.014061034
0.0025246793 0.054701384 0.014009386
0.0033856665 0.05501708 0.013317734
0.0041991682 0.05458919 0.013220787
0.0050431662 0.054634303 0.012652934
0.0059436983 0.055191483 0.012334645
0.0068059671 0.055298481 0.011343777
0.0077510863 0.055980071 0.010388702
0.0084295115 0.054791827 0.0089802742
0.0094677638 0.055945881 0.0056971014
-0.016386367 0.056921061 0.0062846243
-0.015540815 0.05698299 0.0082905293
-0.0145809 0.056608196 0.0096090138
-0.013673598 0.056403589 0.011372328
-0.012602868 0.055452615 0.012002945
-0.011767921 0.05547734 0.012560576
-0.01098688 0.055779546 0.012876689
-0.010229102 0.056260061 0.013019592
-0.0093052248 0.055831347 0.013090074
-0.0084971236 0.056081016 0.013403624
-0.0076386509 0.056016773 0.013399035
-0.0067686094 0.055841025 0.013429761
-0.0060044909 0.056613769 0.013510495
-0.0051122601 0.056234863 0.013654232
-0.0042347922 0.055899259 0.013673604
-0.0034127124 0.056309752 0.013567954
-0.0025355846 0.055782862 0.013558418
-0.0016923406 0.055847239 0.013501048
-0.0008486447 0.056010548 0.013455093
0 0.055617623 0.013181299
0.00085255527 0.056268647 0.01310581
0.0016859636 0.055636797 0.012990147
0.0025451502 0.055993307 0.01295349
0.0033900924 0.055936523 0.012794167
0.0042200536 0.055704709 0.012173414
0.0050693094 0.055762403 0.011268884
0.005928698 0.055899154 0.010550141
0.0068422328 0.056448422 0.010157883
0.0076743779 0.056278773 0.0084366202
0.0086029768 0.056779649 0.0054254234
-0.014489212 0.057104543 0.0071519315
-0.01371615 0.057436381 0.008274287
-0.012742912 0.056918342 0.010182947
-0.011872553 0.056818649 0.011141181
-0.010947279 0.056420594 0.01186797
-0.010141294 0.056622222 0.01205793
-0.0092882384 0.056573819 0.01259923
-0.0084864758 0.056859393 0.012980551
-0.0076014735 0.05658875 0.013034731
-0.0068505304 0.057373192 0.012925386
-0.0059587108 0.057033375 0.012966275
-0.0050420049 0.056302391 0.013143241
-0.004275775 0.057295389 0.013055712
-0.0034000273 0.056950457 0.013039738
-0.002564868 0.057282057 0.012925386
-0.0016935808 0.056734957 0.012716115
-0.0008470387 0.056751594 0.012528181
0 0.056675207 0.012423754
0.00084547512 0.056646831 0.012140632
0.0016837183 0.056404565 0.011899054
0.0025322142 0.056552783 0.011533588
0.0033699595 0.056446824 0.01105085
0.0042279689 0.056654789 0.0106318
0.0051394175 0.057390165 0.010056108
0.0059919618 0.057351638 0.0091442764
0.0068538976 0.057401396 0.0076157451
-0.013868148 0.058939632 0.0050865412
-0.012941337 0.058667395 0.0060856938
-0.011899652 0.057798311 0.0076322854
-0.011061517 0.057860244 0.009550333
