ply
format ascii 1.0
comment PCL generated
element vertex 1293
property float x
property float y
property float z
element camera 0
property float view_px
property float view_py
property float view_pz
property float x_axisx
property float x_axisy
property float x_axisz
property float y_axisx
property float y_axisy
property float y_axisz
property float z_axisx
property float z_axisy
property float z_axisz
property float focal
property float scalex
property float scaley
property float centerx
property float centery
property int viewportx
property int viewporty
property float k1
property float k2
end_header
-0.0034298184 0.064309098 0.010286093
-0.002542933 0.063573323 0.010325581
-0.0017025059 0.063843973 0.010201573
-0.0008410124 0.06307593 0.011007249
0 0.063539095 0.011068583
0.00083969394 0.062977046 0.011312336
0.0016706228 0.062648356 0.011459678
0.0025154252 0.062885627 0.011674583
0.0033435216 0.062691033 0.011935443
0.0042044576 0.063066863 0.011442691
0.0049703959 0.062129956 0.010794669
0.0059227268 0.063457787 0.0066360235
-0.01515431 0.063984871 0.0051517785
-0.014376997 0.064273633 0.010133475
-0.013391849 0.063611284 0.011054814
-0.01246444 0.063153163 0.011741638
-0.011760218 0.063841186 0.011705846
-0.010846369 0.063409545 0.011985481
-0.01010907 0.064024113 0.012094557
-0.0093068127 0.064301617 0.012117654
-0.0083720442 0.063627534 0.012117654
-0.0074576545 0.062975749 0.01221016
-0.0068315631 0.064899854 0.012091339
-0.0059590214 0.064697951 0.012132019
-0.0050206021 0.063594297 0.012132019
-0.0042100302 0.063992463 0.012167305
-0.0033391234 0.063443348 0.012329936
-0.0025261398 0.063995548 0.012286007
-0.0017048453 0.064784124 0.012421429
-0.00084697915 0.064370416 0.012541413
0 0.063555673 0.012505889
0.00084476272 0.064201966 0.01258418
0.0016695025 0.06344109 0.012628466
0.0025279371 0.064041071 0.012894541
0.0034009414 0.064617887 0.012753606
0.0041779839 0.063505352 0.012918919
0.0050554625 0.064035855 0.012529254
0.0059200302 0.064274609 0.012417674
0.0067572966 0.064194322 0.011018127
-0.016237088 0.065802932 0.007825464
-0.015231319 0.065156199 0.010774463
-0.014471061 0.065545395 0.01172334
-0.013423975 0.064602882 0.012337357
-0.012793481 0.065673202 0.013205171
-0.011802554 0.064914048 0.01320681
-0.01093551 0.064771861 0.01323384
-0.010135296 0.065034814 0.013086051
-0.0091965208 0.064375646 0.013201892
-0.008350228 0.06429676 0.013390988
-0.0076379329 0.065346763 0.013486654
-0.0067259255 0.064737037 0.013190329
-0.0059587881 0.065546669 0.013299406
-0.0050617526 0.064959161 0.013265908
-0.0042125792 0.064873725 0.013164461
-0.003387159 0.06520281 0.013156831
-0.0025838919 0.066319898 0.013023555
-0.0016753187 0.064499773 0.013089448
-0.00084173854 0.064813867 0.013029963
0 0.064712636 0.013070911
0.00084018172 0.064693995 0.013503015
0.00167472 0.064476721 0.013335913
0.0025415006 0.065231852 0.013631344
0.0033840456 0.065142877 0.013485849
0.0042278464 0.065108843 0.013468206
0.00505852 0.064917669 0.013445586
0.0059554353 0.065509789 0.013443053
0.0067805224 0.065262526 0.01319471
0.0075921388 0.064954966 0.01169467
0.0084226569 0.064854458 0.0069593191
-0.017146267 0.066870444 0.0091734231
-0.016059142 0.065926999 0.011063874
-0.015347989 0.066507958 0.011884034
-0.014404343 0.066090517 0.012996674
-0.013593778 0.066269666 0.01342538
-0.012764192 0.066373803 0.013635397
-0.011704939 0.065213233 0.013737261
-0.011034613 0.066207677 0.013748556
-0.010236814 0.066539288 0.01335898
-0.0093199024 0.066086583 0.013566762
-0.0083840266 0.065395407 0.013497025
-0.0075896741 0.065777183 0.013599098
-0.0067754434 0.066060573 0.013228565
-0.0059350641 0.066133566 0.013418496
-0.0050741117 0.065963455 0.013370812
-0.0041857786 0.065298147 0.013332248
-0.003393478 0.066172816 0.013190329
-0.0025514457 0.066337593 0.013145268
-0.0016744172 0.065302268 0.013364077
-0.00085187901 0.066446565 0.013141602
0 0.065401085 0.013476849
0.00084858731 0.066189811 0.013658911
0.0016735793 0.065269589 0.01367721
0.0025151786 0.065394647 0.013850003
0.0033745666 0.065804049 0.013804823
0.0041983454 0.065494195 0.013919294
0.0050428743 0.065557368 0.013772398
0.0058906632 0.065638818 0.013926834
0.0067361905 0.065677859 0.013707221
0.0075455168 0.065394484 0.013398767
0.0085000983 0.066300765 0.012480736
0.0092718611 0.065745927 0.0079802275
-0.017715629 0.066644505 0.0091368556
-0.016927874 0.066865101 0.011199087
-0.016186681 0.06730251 0.012136042
-0.015391313 0.067550771 0.013135016
-0.014277658 0.066349119 0.013373107
-0.013585453 0.067078173 0.01361835
-0.012683747 0.066801071 0.013936371
-0.01182915 0.066750206 0.014214456
-0.010978885 0.066717841 0.014029652
-0.010124353 0.066651985 0.013492346
-0.0092766946 0.066623539 0.013371795
-0.0084285093 0.06658522 0.01335001
-0.007564561 0.066400036 0.013492346
-0.0067942548 0.067093261 0.013157219
-0.0059330994 0.066959262 0.013168037
-0.0050867889 0.066976056 0.013139784
-0.0042555798 0.067238167 0.013096124
-0.003375126 0.066658743 0.012928337
-0.0025448571 0.067014568 0.013027936
-0.0016901365 0.066760391 0.013128966
-0.00083382975 0.06587255 0.0133982
0 0.066151574 0.013662308
0.00084926322 0.067091793 0.013938069
0.001688342 0.066689506 0.013828427
0.0025441393 0.066995665 0.014128625
0.0033717763 0.066592582 0.014179766
0.0041963626 0.06630253 0.014207214
0.0050422875 0.066390119 0.01414153
0.0059121656 0.066723011 0.014289707
0.0067133936 0.06629476 0.014361441
0.0075311889 0.066107102 0.014181077
0.0084159505 0.066486008 0.013856351
0.0091615822 0.065796822 0.012582868
0.010278623 0.067667596 0.0078224838
-0.018587397 0.067590535 0.0080313385
-0.017916594 0.068253689 0.011393785
-0.017109714 0.068438858 0.012295455
-0.016163075 0.068055049 0.013236195
-0.015278602 0.067904897 0.013525128
-0.014389669 0.067716084 0.013773113
-0.013507277 0.067536384 0.014004529
-0.012796897 0.06825012 0.014388353
-0.011862825 0.067787565 0.014223784
-0.010987628 0.067616172 0.013984978
-0.01014749 0.067649931 0.013634533
-0.009376144 0.068190143 0.013365805
-0.0083539505 0.066831604 0.013300449
-0.0076142089 0.067681856 0.013442785
-0.0067670969 0.067670971 0.013087958
-0.0058867428 0.067277059 0.013167053
-0.0050664227 0.067552306 0.013117999
-0.0042212619 0.067540191 0.013117999
-0.0033794923 0.067589842 0.012928337
-0.0025522506 0.068060018 0.013108402
-0.0016907639 0.067630552 0.013275445
-0.00085519534 0.068415627 0.013502061
0 0.06790401 0.013865173
0.00084329688 0.067463748 0.014026254
0.0016943512 0.067774042 0.014102429
0.0025370044 0.067653447 0.014304936
0.0033424234 0.066848464 0.014288992
0.0041901725 0.067042761 0.014341563
0.0050883042 0.067844056 0.014230072
0.005870841 0.067095324 0.014378816
0.0067044473 0.067044474 0.014356822
0.0074581909 0.066295028 0.01436764
0.0083712842 0.066970274 0.01413101
0.0093031656 0.067659386 0.013400495
0.010097287 0.067315243 0.012191087
-0.01846553 0.067986719 0.011058182
-0.017901689 0.069049366 0.012283862
-0.016801814 0.068047345 0.01295194
-0.015953379 0.068011768 0.013456762
-0.015268007 0.068706036 0.013784677
-0.01434212 0.06833598 0.014012605
-0.013460628 0.068144426 0.014108747
-0.012619616 0.068145923 0.014428467
-0.011714108 0.067774482 0.014288247
-0.010917094 0.068021886 0.014026403
-0.010103879 0.068201177 0.013438284
-0.0093374439 0.068757534 0.013326645
-0.0084186206 0.068190821 0.013207823
-0.0075841811 0.06825763 0.013186485
-0.0067843818 0.068691865 0.012852699
-0.0059679714 0.069057949 0.01304543
-0.005097318 0.068813793 0.012894839
-0.0042207157 0.068375595 0.012867153
-0.0033876593 0.068600103 0.012694895
-0.0025325511 0.068378873 0.012797892
-0.0016862412 0.068292767 0.012852699
-0.00085018022 0.068864599 0.013004035
0 0.06800314 0.013475418
0.00084097683 0.068119116 0.01366806
0.0016656831 0.067460164 0.013517201
0.0024990251 0.067473672 0.013894022
0.003341764 0.067670718 0.014003366
0.0041800803 0.067717299 0.01415506
0.0050320644 0.067932867 0.014056474
0.0058985376 0.068254501 0.014169991
0.0066954717 0.067791648 0.01427719
0.0075922469 0.068330221 0.014219522
0.0084341541 0.068316646 0.014110655
0.0092303278 0.067968778 0.013490349
0.010082373 0.068056017 0.013003081
0.011062303 0.068926647 0.011151046
-0.019665968 0.07011345 0.010237843
-0.018591687 0.069296293 0.011927634
-0.017807772 0.069535114 0.012693524
-0.016943965 0.069470257 0.013259321
-0.016140593 0.069659404 0.0134103
-0.015375491 0.070043907 0.013661414
-0.014320916 0.069077358 0.013737202
-0.013577252 0.069583416 0.013646245
-0.012741495 0.069653511 0.013849497
-0.0118722 0.069537178 0.013672203
-0.010855103 0.068470649 0.013472229
-0.010154829 0.06939134 0.01298359
-0.0093000391 0.06932757 0.012779176
-0.0083780801 0.068700269 0.012515336
-0.0075595132 0.068875566 0.012636334
-0.0067423652 0.069109246 0.012286484
-0.005878095 0.068857685 0.012034893
-0.0050837174 0.069477476 0.011927545
-0.004276888 0.070140965 0.011918813
-0.0033972324 0.069643266 0.011914849
-0.0025022831 0.068395741 0.012073606
-0.0016836248 0.069028616 0.01228103
-0.00084391062 0.069200672 0.012435883
0 0.068309419 0.012342244
0.00084552343 0.06933292 0.012845606
0.0016553116 0.067867778 0.013078451
0.0025271913 0.069076568 0.013399988
0.0033926929 0.069550209 0.013668239
0.0041938648 0.068779387 0.013924956
0.0050715334 0.069310956 0.013783813
0.005849666 0.068524666 0.014198035
0.0067151319 0.068830103 0.014288992
0.0075777872 0.069042072 0.014309496
0.0083512086 0.068479918 0.014373958
0.0092573455 0.069009304 0.014027327
0.010063118 0.068764649 0.013423353
0.010817848 0.068235666 0.012755156
0.012010103 0.070344895 0.0083932579
-0.019565787 0.070606969 0.010826766
-0.018582521 0.070106789 0.012010068
-0.017675031 0.069858454 0.013004869
-0.017203953 0.071396403 0.013170838
-0.015979655 0.069805868 0.013277501
-0.015225111 0.070204683 0.013390988
-0.014345284 0.070038736 0.01340434
-0.013451232 0.069778264 0.013178796
-0.012855127 0.071131706 0.013408482
-0.011750221 0.069662027 0.013194829
-0.01093585 0.069821194 0.012882799
-0.010077482 0.069702588 0.012515336
-0.0091818683 0.069281377 0.01216951
-0.0084384009 0.070038736 0.011178046
-0.0077695847 0.071652837 0.011264473
-0.0068393159 0.070957907 0.010709286
-0.0059871776 0.070990823 0.010179907
-0.0052183885 0.072187714 0.010067552
-0.004349398 0.072200008 0.0099210739
-0.0034695822 0.071993835 0.0098653734
-0.0025803901 0.071390793 0.01016283
-0.0017176589 0.071282849 0.010971785
-0.0008468965 0.070292413 0.011336297
0 0.070738606 0.011118293
0.00084922492 0.070485666 0.01172778
0.0016648814 0.069092579 0.01194188
0.0025227177 0.069795191 0.012948692
0.0033668966 0.069863111 0.013105243
0.0041971644 0.069672935 0.013454884
0.0050625787 0.070032343 0.013567984
0.0058693397 0.069593601 0.013983577
0.0067877416 0.070422821 0.0141128
0.0075949929 0.070042714 0.014357269
0.0083411131 0.069231249 0.014437526
0.0092849405 0.070059098 0.0140329
0.010055282 0.069549039 0.013751298
0.011008771 0.070286773 0.012943506
0.011812038 0.070028514 0.012545437
-0.020393427 0.071376994 0.010308892
-0.019599887 0.071582191 0.011567831
-0.018608654 0.071051225 0.012842774
-0.017832668 0.071330674 0.013247699
-0.016835371 0.070708565 0.013391733
-0.016054362 0.070977181 0.013359368
-0.015343066 0.071600981 0.013390988
-0.014426305 0.071282916 0.013314992
-0.013593351 0.071365088 0.013086677
-0.012861231 0.072022893 0.013157696
-0.011767733 0.070606396 0.012926102
-0.011032736 0.071288452 0.012604117
-0.010338719 0.072371036 0.012109756
-0.0094187539 0.071925037 0.010662377
-0.0085290372 0.071643919 0.0093217492
-0.0077759041 0.072575107 0.0092120171
-0.0068826731 0.072268069 0.0085387826
-0.0059971325 0.071965598 0.008095175
-0.005109095 0.071527332 0.0080688298
-0.0043009794 0.072256453 0.0079186261
-0.0034554361 0.072564155 0.0076614618
-0.0025628097 0.071758673 0.0078218579
-0.0017194259 0.072215885 0.0078575015
-0.000860019 0.072241597 0.0081628561
0 0.07231199 0.0090795457
0.00085184368 0.071554869 0.010402948
0.0017156067 0.072055481 0.010701537
0.0025219936 0.070615821 0.011476308
0.0033492213 0.070333645 0.012182623
0.0042231106 0.070948258 0.012708157
0.005001693 0.070023708 0.012981921
0.0058960598 0.070752718 0.013458371
0.0067409151 0.070779607 0.013603836
0.0075568338 0.070530452 0.013934225
0.0084294118 0.07080707 0.014129639
0.0093019549 0.071033113 0.013722628
0.010033797 0.070236579 0.013680488
0.010879989 0.070301466 0.013394088
0.011668374 0.070010245 0.012836903
0.012706481 0.071156293 0.010642529
-0.021495763 0.073085591 0.0083613694
-0.020304561 0.071911991 0.011424631
-0.019491395 0.07203342 0.011857897
-0.018828573 0.072746761 0.012854993
-0.017694836 0.071621962 0.013164282
-0.017041344 0.072425716 0.013255417
-0.016064378 0.071866944 0.01324147
-0.015257029 0.072047085 0.013160467
-0.014330889 0.071654446 0.013099194
-0.01356265 0.072051577 0.012790143
-0.012776957 0.07240276 0.012685776
-0.011991286 0.072804235 0.012534767
-0.011220911 0.073367491 0.011032224
-0.010298442 0.072947301 0.0093370676
-0.0094599063 0.073099278 0.0089809895
-0.0085563315 0.07272882 0.0075897574
-0.0077451421 0.073148564 0.0065255761
-0.0069779474 0.07414069 0.0061797798
-0.0017568476 0.074666023 0.005012244
0 0.073323444 0.0060668886
0.00086578727 0.073591918 0.0067619383
0.0016963696 0.072095707 0.0078631639
0.0025727865 0.072895624 0.0098307729
0.0034804088 0.073958687 0.01085031
0.0041956301 0.071325712 0.012008935
0.0050707306 0.071835354 0.012422502
0.0058955853 0.071589246 0.013033569
0.0067322622 0.071530282 0.013372391
0.0076539093 0.072286926 0.013627321
0.0084645078 0.07194832 0.013771385
0.0092008486 0.071097463 0.013543725
0.010146773 0.071872979 0.013664335
0.010863646 0.071031533 0.013473034
0.011790999 0.071588211 0.01283589
0.01268934 0.071906261 0.012328535
-0.021081693 0.072521023 0.010443181
-0.020274227 0.072649315 0.011857897
-0.019705977 0.073683217 0.012638479
-0.018587181 0.072658986 0.013078272
-0.017903361 0.073318526 0.013213664
-0.0171184 0.073609121 0.013133645
-0.0160494 0.072644651 0.013125926
-0.015180642 0.072529733 0.013012648
-0.01441876 0.072941966 0.012848049
-0.013558591 0.072877422 0.012542844
-0.013044773 0.074790031 0.011597991
-0.011995176 0.073684648 0.010002345
-0.011031607 0.072978325 0.0092886388
-0.010273878 0.073629461 0.0081148148
-0.0096097775 0.075130992 0.0068095326
0.0017329397 0.074516408 0.0054732263
0.0025516215 0.073146485 0.0068487525
0.0034030448 0.073165461 0.0094575584
0.0042960141 0.073891439 0.010544449
0.0052147736 0.074745089 0.01186043
0.0059213629 0.072748169 0.012540102
0.0067679225 0.072755165 0.013171405
0.0075749066 0.072382443 0.013364702
0.0083618527 0.071911938 0.013803095
0.0093987025 0.07348077 0.013736069
0.010150889 0.072748043 0.013851732
0.01080233 0.071461573 0.013627321
0.011722425 0.072009183 0.013491422
0.012604228 0.072264239 0.012613416
0.013535718 0.07275448 0.011977404
-0.022165457 0.074169025 0.009747386
-0.021166004 0.073657691 0.011501998
-0.020510757 0.074351497 0.01242125
-0.019534381 0.073890917 0.012731403
-0.018535728 0.073300377 0.013070554
-0.017832913 0.073879205 0.013078272
-0.017033407 0.074095324 0.012863368
-0.016032083 0.073410064 0.012818545
-0.015237106 0.073646016 0.01268962
-0.014375907 0.073570818 0.012433529
-0.013737356 0.074696876 0.011379689
-0.012741525 0.073900841 0.0098741055
-0.011863939 0.073725909 0.0089449286
-0.011135851 0.074524544 0.0077237189
-0.010605195 0.07688766 0.0062598586
0.0034594375 0.075242765 0.0061818957
0.0042589423 0.074105605 0.0090484023
0.0050951932 0.0738803 0.010103881
0.0059687654 0.074183226 0.011835188
0.0067067645 0.072936058 0.012492687
0.0075763576 0.073238127 0.012869239
0.0084385462 0.073415354 0.013250351
0.009235302 0.07304284 0.013451636
0.010054887 0.072897933 0.013693452
0.010984111 0.073509052 0.013640404
0.01173472 0.072922908 0.013817042
0.012472688 0.072341591 0.0131827
0.0135516 0.073686831 0.012364477
0.014241307 0.072881982 0.011257976
-0.021832529 0.073894717 0.011407852
-0.020994511 0.073900677 0.011791855
-0.020355986 0.07463862 0.012712061
-0.01929858 0.07383804 0.012923121
-0.018637283 0.074549131 0.013017327
-0.017821135 0.074679032 0.013009846
-0.017001938 0.074808523 0.012789547
-0.016032778 0.074257076 0.01263538
-0.015268793 0.074647434 0.012240082
-0.014606123 0.075608164 0.011455923
-0.013734007 0.075537041 0.0097102821
-0.012919669 0.07579539 0.0090102851
-0.012152722 0.076388538 0.0075674951
0.0043811742 0.077108674 0.0057585835
0.0051714918 0.075848542 0.0085490644
0.0059744045 0.0751068 0.010415077
0.0067451829 0.074197009 0.012078345
0.0076018772 0.074329466 0.012385666
0.0083412733 0.073403209 0.013008714
0.0093143051 0.074514441 0.013359308
0.010115364 0.074179329 0.01361081
0.010820535 0.073246703 0.013693452
0.01169361 0.07350269 0.014158219
0.012609019 0.073972911 0.013693452
0.013349361 0.073421486 0.013147235
0.014270303 0.073869802 0.012205124
0.015719639 0.076851569 0.0086181462
-0.023017582 0.075872764 0.0095807612
-0.022020297 0.075377166 0.011637509
-0.021155773 0.075314552 0.012475967
-0.020269714 0.075166851 0.012867421
-0.019591868 0.075812005 0.013010174
-0.018611796 0.075293176 0.012984723
-0.017729377 0.075138785 0.012928307
-0.016968029 0.07550773 0.012685776
-0.016085345 0.07534714 0.01240167
-0.015520849 0.076741979 0.011642635
-0.014543844 0.076141298 0.010074705
-0.013590701 0.07559827 0.009204179
-0.013135025 0.077934481 0.0082426965
0.005227685 0.077543989 0.0055539608
0.0059966678 0.076243341 0.0091431439
0.0067997086 0.075646758 0.010794908
0.0075973361 0.075129211 0.012067884
0.0084630232 0.075320907 0.012616336
0.0092596589 0.074919052 0.012901157
0.010154299 0.07531105 0.013603836
0.01089372 0.074580088 0.014041543
0.011918969 0.075770587 0.014117807
0.012487285 0.074091218 0.014288276
0.013400381 0.074539617 0.014229268
0.0142173 0.074431747 0.013334692
0.015089507 0.074609227 0.011588365
-0.0229012 0.07633733 0.011283338
-0.021888217 0.075766906 0.012514949
-0.021082202 0.075895928 0.012628406
-0.020559687 0.077098832 0.012942344
-0.019369723 0.07579457 0.012995869
-0.018511737 0.07572984 0.013040632
-0.017738674 0.076022893 0.012873739
-0.017029127 0.076631077 0.012574583
-0.016068894 0.076115817 0.01184392
-0.015501902 0.077509515 0.011017531
-0.01448458 0.076683074 0.0094924867
-0.013784153 0.077535868 0.0083318055
0.0060496833 0.077781647 0.0071051717
0.0068465252 0.077023417 0.0094629824
0.0076832171 0.076832175 0.011366814
0.0084840916 0.076356828 0.012307346
0.0092318347 0.075533204 0.012616336
0.010044003 0.075330026 0.013153136
0.011023192 0.076314412 0.013984919
0.011851033 0.076185219 0.013893634
0.012550199 0.0753012 0.014192432
0.013573012 0.076348193 0.01412046
0.014158209 0.074955225 0.013654798
0.01515423 0.07577116 0.012309104
0.015943568 0.075522169 0.01086691
-0.023345817 0.075873904 0.010245055
-0.022826461 0.07693363 0.012355328
-0.021986026 0.076951094 0.012512803
-0.021110959 0.076843895 0.012787372
-0.020389121 0.077308752 0.012813836
-0.019493142 0.077125043 0.012815326
-0.018696427 0.077335224 0.01279372
-0.017823927 0.077237017 0.012565017
-0.016965352 0.077192359 0.012435734
-0.016296117 0.078049824 0.011608601
-0.015371691 0.077712446 0.0099389255
-0.014600008 0.078152984 0.008749485
-0.013983025 0.079528458 0.0067488253
0.0068994355 0.078481086 0.0082577169
0.0077293743 0.078152567 0.0097114146
0.0085330242 0.077650525 0.011946946
0.0092425635 0.076461211 0.01241675
0.010088526 0.076504663 0.013103276
0.010882073 0.076174513 0.013822317
0.011739846 0.076309003 0.014272958
0.012592476 0.076394357 0.014283895
0.01312275 0.074635647 0.014184684
0.014245536 0.076255515 0.014041305
0.015087288 0.076274626 0.013751417
0.015661921 0.075012363 0.012829781
0.017019987 0.077440947 0.0095614791
-0.023628674 0.077637076 0.011283696
-0.02269724 0.077338748 0.012465388
-0.0219032 0.077503629 0.01279372
-0.021295268 0.078366593 0.012840539
-0.020474898 0.078487106 0.012809038
-0.019470304 0.077881217 0.012809038
-0.018707188 0.078230061 0.012613565
-0.017682161 0.077464707 0.01232183
-0.01720188 0.079128653 0.012041658
-0.016305327 0.078952111 0.010933936
-0.015397552 0.078698605 0.0093538463
-0.014846445 0.080345467 0.0075433552
0.0069436939 0.079852484 0.0066630542
0.0077593969 0.079318285 0.0092575252
0.0085295802 0.078472145 0.01142031
0.0093179177 0.07793168 0.01226303
0.01007521 0.077243283 0.012886286
0.010854548 0.076816805 0.013713717
0.011785858 0.077449925 0.014198184
0.012673829 0.077732816 0.01438117
0.013444354 0.077305034 0.014195174
0.014228725 0.077002518 0.014148533
0.01489317 0.076120652 0.01360184
0.015937649 0.077171773 0.013097018
0.016831513 0.077424966 0.011737943
-0.024611425 0.078926288 0.010229856
-0.023755137 0.078900985 0.012142748
-0.022736046 0.078313045 0.01263836
-0.022182496 0.079345085 0.012829244
-0.021024272 0.078210294 0.012829244
-0.020317135 0.078728899 0.012938529
-0.019511482 0.07889425 0.012793005
-0.018443832 0.077967115 0.012609273
-0.017824449 0.078936845 0.012239873
-0.017114161 0.079580851 0.011633873
-0.016157752 0.079087943 0.010513127
-0.015428637 0.079714634 0.0085836947
-0.014853445 0.081257075 0.0063793361
0.0069997413 0.081371993 0.0050930381
0.0077059777 0.079628438 0.0079761446
0.0084589981 0.078668684 0.010354221
0.0092239911 0.077984653 0.011753231
0.010128816 0.078498319 0.012334615
0.011020688 0.078840308 0.013517201
0.011676355 0.077564359 0.013966471
0.012554712 0.077839211 0.014179945
0.01339521 0.077859662 0.014108956
0.014160405 0.077465743 0.013904601
0.015124252 0.078141972 0.013715744
0.015936814 0.078006513 0.013318628
0.016657388 0.077456862 0.012896687
0.017622663 0.078043222 0.0092280507
-0.024376348 0.07901299 0.010885537
-0.023423664 0.078636587 0.012422919
-0.023160096 0.080631442 0.012631655
-0.021845264 0.078979038 0.012822539
-0.02108673 0.079286106 0.012829244
-0.02030592 0.079531521 0.012945235
-0.01936576 0.079147018 0.012769431
-0.018536661 0.079202101 0.012305111
-0.017844478 0.079875275 0.012172252
-0.017059645 0.080180332 0.011354536
-0.016207404 0.080183998 0.00988397
-0.015469209 0.08078365 0.0083589256
0.0078112008 0.081583656 0.0076111853
0.0085148429 0.080039531 0.0098927617
0.0092254132 0.078835353 0.011527181
0.010145993 0.079476953 0.012026906
0.010854164 0.078483962 0.013217509
0.01176956 0.079024188 0.013840288
0.012767542 0.08000993 0.014019668
0.013152445 0.077270612 0.014036953
0.01426348 0.078868657 0.013906121
0.014977124 0.078213871 0.013749212
0.015739862 0.07787089 0.01319325
0.016693242 0.078458242 0.012958676
0.017652763 0.079017125 0.011257321
-0.025029873 0.079261266 0.0091407597
-0.024633938 0.08069738 0.01091814
-0.023722192 0.080486014 0.012367427
-0.022645319 0.079677969 0.012757212
-0.021885438 0.079966024 0.013065577
-0.021240788 0.080714993 0.013131022
-0.020277547 0.080265291 0.013141245
-0.019382209 0.08005695 0.012903124
-0.018525021 0.07999441 0.012481213
-0.017879317 0.080882616 0.012061417
-0.017130714 0.081370898 0.01129815
-0.016172463 0.080862314 0.0097776651
-0.015543787 0.082036659 0.0080345869
0.0077315685 0.081611007 0.0067756474
0.008572951 0.081443034 0.009431839
0.0092698345 0.080057666 0.011386961
0.010175904 0.080559239 0.012080789
0.010987624 0.080294169 0.013275653
0.011852632 0.080428578 0.013922781
0.012619904 0.079926059 0.014059633
0.013467586 0.079963788 0.014112681
0.014370391 0.080305129 0.013907373
0.014888751 0.078579523 0.013742954
0.015894346 0.079471722 0.013452888
0.016522754 0.078483082 0.01300469
0.017562043 0.079447329 0.011718124
0.018538054 0.080050692 0.0065607131
-0.025482392 0.081543654 0.010244697
-0.02456693 0.081325002 0.011311322
-0.023786709 0.081554428 0.012334317
-0.022971248 0.081675544 0.013023078
-0.021828514 0.080597594 0.013083637
-0.021108994 0.081058539 0.013131022
-0.020307334 0.081229337 0.013135552
-0.019521078 0.081479274 0.013031065
-0.018734727 0.081751533 0.012522519
-0.017926449 0.08194948 0.012098312
-0.0169967 0.081584163 0.011392623
-0.016146472 0.081582174 0.0097776651
-0.015536096 0.082859181 0.0080345869
0.0077442783 0.082605638 0.0066781044
0.0085272137 0.081861258 0.009553194
0.0094041293 0.0820724 0.011580348
0.010160208 0.081281662 0.012084365
0.010855849 0.080166273 0.013238817
0.011766307 0.080683246 0.013854802
0.012525688 0.080164403 0.014045417
0.013340553 0.080043316 0.014034182
0.014275682 0.080615617 0.013828456
0.015001914 0.080010206 0.013762385
0.01584713 0.080069706 0.013467252
0.016546613 0.079423748 0.013100296
0.017640444 0.080642022 0.012537599
0.018492451 0.080694333 0.0076734722
-0.025604473 0.082787797 0.010382742
-0.024604429 0.082297571 0.011253208
-0.023695415 0.082087688 0.012276202
-0.022827301 0.082009189 0.013068795
-0.022191312 0.082790665 0.013352066
-0.021197565 0.082246549 0.013317108
-0.020407965 0.082482196 0.01325506
-0.019281372 0.081317089 0.013057023
-0.018510584 0.081614845 0.012654424
-0.017839208 0.082400151 0.012129247
-0.017219057 0.083512425 0.011392623
-0.016292501 0.083177499 0.0099824667
-0.015716942 0.084696852 0.0080906451
0.0078198472 0.084280573 0.0073377192
0.008460748 0.082069255 0.0098330975
0.0093518589 0.082466394 0.011443377
0.010211287 0.082541242 0.012093186
0.010894329 0.081288457 0.013022125
0.011713179 0.081155598 0.01358059
0.012634037 0.081700109 0.01398319
0.01334528 0.08090575 0.013998657
0.0141347 0.080650933 0.013708234
0.015204375 0.081934683 0.013490468
0.015739145 0.08035247 0.013208687
0.016661504 0.080808297 0.012966722
0.017552121 0.081074074 0.012380034
0.01847153 0.081442654 0.0075972676
-0.025657164 0.083813399 0.010470927
-0.024434444 0.082571566 0.011196315
-0.023542879 0.082400069 0.012487561
-0.022611585 0.082071677 0.012878209
-0.022040293 0.08307495 0.013302296
-0.021064233 0.08257179 0.01328814
-0.020392014 0.083267383 0.013302296
-0.019411761 0.082710981 0.013123274
-0.018395886 0.081945308 0.01282528
-0.017682411 0.082517914 0.012281507
-0.017145291 0.084011927 0.011662036
-0.016123535 0.083163492 0.010364056
-0.01564615 0.085184596 0.0085420609
0.007767926 0.084584087 0.0081673861
0.0084777921 0.083082363 0.010044426
0.009377744 0.083547175 0.011614591
0.01015001 0.082891747 0.012080133
0.010887302 0.082073502 0.013013989
0.011799262 0.082594827 0.013316929
0.012537117 0.081909157 0.013805538
0.013354661 0.081797294 0.013878793
0.014295585 0.082409844 0.013583243
0.015153048 0.082499929 0.013366967
0.015942561 0.082230046 0.013108999
0.016700452 0.081832215 0.012654483
0.017515972 0.081741199 0.011341155
0.01863268 0.083000124 0.0070552826
-0.025736218 0.084929526 0.010281563
-0.024637792 0.084108323 0.010824233
-0.023578884 0.083368205 0.0121997
-0.022860052 0.083820194 0.012954056
-0.022087453 0.084102228 0.013550341
-0.021010701 0.083202377 0.013646275
-0.020517781 0.084635854 0.01367864
-0.019382864 0.083430588 0.013517976
-0.018359233 0.082616553 0.013320476
-0.01790059 0.084388494 0.012671053
-0.017034862 0.084322579 0.011579484
-0.016119817 0.083992735 0.010505706
-0.015442303 0.084932677 0.0084995031
0.0076153628 0.083769001 0.0087428391
0.0085054198 0.084203668 0.010488749
0.0093124285 0.083811857 0.011768073
0.010122117 0.083507463 0.012322366
0.011010965 0.083852738 0.012949198
0.011738591 0.08300861 0.013164699
0.012599058 0.083153784 0.013586879
0.013480355 0.083409697 0.013521671
0.014361703 0.0836358 0.013436973
0.015043153 0.082737349 0.013255835
0.016080497 0.083787851 0.012734592
0.01651697 0.081759006 0.012256533
0.017561695 0.082790852 0.010699719
0.018468462 0.083108082 0.0061964691
-0.025600873 0.085336246 0.008787781
-0.024459157 0.084341921 0.010630965
-0.023727093 0.084739618 0.011983722
-0.02267619 0.083985887 0.012812078
-0.021835119 0.083981223 0.013284951
-0.021131298 0.08452519 0.013403445
-0.020181242 0.084088519 0.013426363
-0.019382419 0.084271386 0.013376921
-0.018590234 0.084501065 0.013371468
-0.017682949 0.084204517 0.012533873
-0.016938645 0.084693238 0.011734694
-0.016091311 0.084691115 0.010994703
-0.01536307 0.085350394 0.0094388425
-0.015211391 0.089478776 0.0058044493
0.0069945939 0.087432422 0.0062588453
0.0076880855 0.085423179 0.0091382861
0.008509906 0.085099064 0.011101902
0.0092276223 0.08388748 0.012080103
0.010241787 0.085348226 0.012809724
0.010855409 0.083503157 0.01340133
0.011731725 0.083798043 0.013456255
0.012722929 0.084819533 0.013667822
0.013438426 0.083990164 0.013587922
0.014039815 0.082587153 0.013412803
0.015148188 0.084156603 0.013157129
0.015724171 0.082758792 0.012604296
0.016800387 0.084001936 0.011936188
0.017772276 0.084629886 0.010563165
-0.025587598 0.086144917 0.0053606033
-0.02449267 0.085302055 0.010331005
-0.023855178 0.086049035 0.011652082
-0.022664446 0.084781818 0.012632459
-0.021742499 0.084461249 0.013048619
-0.021183776 0.085582457 0.013403445
-0.020337926 0.085588776 0.013544619
-0.019491836 0.085594587 0.013473421
-0.018545514 0.085140772 0.013522863
-0.017735766 0.085300587 0.013307184
-0.017027872 0.085990757 0.012508839
-0.016264729 0.086459875 0.0116705
-0.015051017 0.084452927 0.010708064
-0.015086941 0.08963418 0.0082219541
0.0068996726 0.087108366 0.0084430277
0.0076830145 0.086220503 0.010048032
0.0084629199 0.085475489 0.011604041
0.0093437424 0.085792549 0.012644619
0.010120153 0.085177958 0.01312688
0.010923518 0.084867336 0.013509333
0.011745485 0.084735282 0.013554841
0.01271188 0.08559332 0.013794035
0.013140321 0.082948275 0.013618261
0.014392043 0.085505664 0.013381153
0.014860712 0.08338511 0.013108999
0.015978595 0.084938847 0.012591362
0.016627507 0.083968922 0.010745853
0.017941592 0.086290516 0.0078640282
-0.024698639 0.086871073 0.0096569657
-0.02345149 0.085430436 0.010460585
-0.02281815 0.086201899 0.01242277
-0.021846116 0.085703999 0.013174683
-0.021004591 0.085698731 0.013431042
-0.02048723 0.087070733 0.01371938
-0.019305225 0.085614473 0.013649672
-0.018386522 0.085246608 0.013718158
-0.017771076 0.08631666 0.013559937
-0.017098011 0.087199859 0.013302982
-0.016112637 0.086499423 0.012463123
-0.015220569 0.086249903 0.011570394
-0.014574164 0.087444983 0.0097646415
-0.014329373 0.091349758 0.0053066313
0.0060868156 0.088693604 0.0062112212
0.0068199486 0.086954348 0.0097594857
0.0077050207 0.087323576 0.011604041
0.0083816834 0.08549317 0.012518942
0.0092810057 0.086060233 0.013091862
0.010003568 0.085030325 0.013362765
0.010821817 0.084909648 0.01349932
0.011783138 0.085848577 0.013523996
0.012668001 0.086142413 0.013771951
0.013323323 0.084936179 0.013563842
0.013974015 0.083844088 0.013053387
0.01501019 0.08505775 0.012712359
0.01599713 0.085879326 0.011901736
0.016647132 0.084900372 0.010607481
0.018146548 0.088140383 0.0058285296
-0.024878608 0.088361949 0.0051097572
-0.023899348 0.087915458 0.010084957
-0.022732904 0.086721815 0.011597008
-0.021813121 0.086413518 0.013083458
-0.021053901 0.086742066 0.013431042
-0.02026557 0.086973071 0.013709068
-0.019217722 0.086061969 0.01387471
-0.018558417 0.086887129 0.013931274
-0.01767621 0.086697601 0.013778657
-0.016880147 0.086932763 0.013624996
-0.016164616 0.087629236 0.013222694
-0.015304884 0.087577954 0.012528837
-0.014304643 0.086669303 0.011302263
-0.013917651 0.089594878 0.0093157887
0.0059236307 0.087161988 0.0090601444
0.0067502009 0.08690884 0.011224926
0.0076345094 0.08737272 0.01232779
0.0083548073 0.086054519 0.012730658
0.0091832299 0.085988425 0.013436109
0.010071224 0.086444676 0.013591349
0.010912763 0.086462662 0.013622195
0.011695095 0.086042486 0.01356858
0.012649776 0.086861797 0.013818443
0.013273788 0.085450009 0.013339698
0.014446065 0.087526157 0.01292485
0.014950217 0.085548468 0.01249826
0.016086165 0.087203942 0.011287719
0.016930873 0.087193996 0.0080602467
-0.02413057 0.089627832 0.0082559884
-0.022684203 0.087376185 0.010733128
-0.021985242 0.087940969 0.012463599
-0.021069167 0.087647736 0.013174683
-0.020162836 0.087372288 0.013528943
-0.019403972 0.087739691 0.013828099
-0.018421443 0.087083183 0.013940275
-0.017489772 0.086616017 0.013920188
-0.01690531 0.087907612 0.013704002
-0.015954345 0.087329052 0.013698071
-0.015200115 0.087822884 0.013289034
-0.014325055 0.087635629 0.012400895
-0.013646933 0.088705063 0.011022478
-0.012945544 0.089755774 0.0089486837
0.0052012615 0.090155199 0.0088944137
0.0058733677 0.087261461 0.011423826
0.00680889 0.088515572 0.01232779
0.0075390842 0.087118313 0.01279819
0.0084388303 0.087763838 0.013437569
0.009260729 0.08755599 0.013907164
0.009995047 0.086623736 0.014165848
0.010771967 0.086175732 0.01429987
0.011824258 0.087837338 0.014235616
0.012622657 0.08751709 0.014149487
0.013270471 0.086258061 0.013488591
0.014113553 0.086341731 0.012817919
0.014979376 0.086547509 0.012121409
0.01602043 0.087690778 0.010956854
-0.022821354 0.088749707 0.0098740458
-0.021844834 0.088219523 0.01232785
-0.020929767 0.08790502 0.013097167
-0.020411974 0.089302383 0.013480484
-0.019408401 0.088603571 0.013828099
-0.018589018 0.088720314 0.014066756
-0.017628778 0.088143893 0.014030188
-0.016783074 0.088111132 0.013832927
-0.016237896 0.089735731 0.013941437
-0.015187659 0.088594683 0.013743699
-0.014444542 0.089216284 0.013198614
-0.013205797 0.086663045 0.012315482
-0.012739608 0.089177258 0.010892987
-0.012127319 0.090954892 0.0085424781
0.0043000295 0.090300627 0.008701086
0.005072121 0.088762112 0.010693163
0.0058648256 0.087972388 0.012440801
0.0067839739 0.089039654 0.012764603
0.0074511627 0.086930238 0.013687998
0.0085457005 0.089729853 0.013896167
0.0092408052 0.088207684 0.014206827
0.0099663045 0.087205164 0.014411271
0.010930915 0.088288166 0.0144822
0.011740295 0.088052213 0.014265597
0.012458471 0.087209292 0.013865322
0.013333094 0.087498426 0.013221323
0.014238177 0.087941684 0.012320906
0.015086904 0.088006943 0.011294901
0.016308418 0.090125456 0.007848531
-0.023169423 0.090961426 0.0071919262
-0.022222966 0.090601318 0.010622412
-0.020968394 0.088905983 0.012389123
-0.02024268 0.089405164 0.013455153
-0.019357223 0.089211546 0.013850272
-0.018545222 0.089354247 0.01408571
-0.017729199 0.089490235 0.01422447
-0.016611444 0.08804065 0.014102101
-0.016035492 0.089461163 0.014266402
-0.015082923 0.088821657 0.014095247
-0.014226413 0.088705868 0.01362741
-0.013640577 0.090368815 0.013209224
-0.012478192 0.088179223 0.012495309
-0.011880688 0.08995378 0.010852516
-0.011265757 0.091859251 0.0090515316
-0.010575254 0.093414746 0.0053601265
0.0026098455 0.09221454 0.0053182244
0.0034787797 0.092187658 0.0093363225
0.0041762646 0.088536814 0.011238068
0.0050445963 0.0891212 0.012341112
0.0058814264 0.089061595 0.012981385
0.0067269928 0.089132652 0.013515294
0.007650225 0.09010265 0.013840944
0.0083725033 0.088748537 0.013951749
0.0090536391 0.08724416 0.014202118
0.010119242 0.089386635 0.014159292
0.010980858 0.089536227 0.014183223
0.011673688 0.088386491 0.013875157
0.01262751 0.089234404 0.013388216
0.013216518 0.087559432 0.012833714
0.014342547 0.089429997 0.011952639
0.015236613 0.089726724 0.010405421
-0.022362059 0.092028476 0.0086131394
-0.021145035 0.09050075 0.011916488
-0.02015252 0.089846656 0.013187081
-0.01954814 0.090941347 0.013690323
-0.01855961 0.090267204 0.013951123
-0.017641615 0.08988823 0.014302522
-0.016798835 0.089873768 0.01430738
-0.015973002 0.089953229 0.014613658
-0.015089457 0.089698449 0.014449775
-0.014407691 0.090683699 0.014184743
-0.013364652 0.089376114 0.013982117
-0.012656759 0.090284877 0.013014495
-0.011709302 0.089492522 0.012568533
-0.010954907 0.090167321 0.012021482
-0.010267695 0.091553621 0.010397077
-0.0095111383 0.092517443 0.0072546303
0.0017394304 0.093059525 0.0081198514
0.0025589222 0.091268227 0.010789692
0.0033658831 0.090037376 0.011951953
0.0042025312 0.08993417 0.012387335
0.0050594853 0.090227492 0.013206691
0.0058485013 0.089398518 0.013673842
0.0066997283 0.08960887 0.013837755
0.0075718015 0.090020314 0.014220655
0.0083178384 0.089000873 0.014277279
0.0092306752 0.089789301 0.014419138
0.010128504 0.090312496 0.014244944
0.010814843 0.089014478 0.014244944
0.011733203 0.089675196 0.013865948
0.012507534 0.089220405 0.012909293
0.01336936 0.0894076 0.012370676
0.014377674 0.090494774 0.011597484
0.015450672 0.091845669 0.0058838129
-0.021149464 0.09136568 0.010305882
-0.020388179 0.091746807 0.012849241
-0.019599469 0.092032291 0.013486415
-0.018417399 0.090412691 0.0137918
-0.01767504 0.090900205 0.014325678
-0.016915342 0.091342844 0.014375389
-0.015767489 0.089625724 0.014822036
-0.015104371 0.090626232 0.014863938
-0.014241694 0.090476654 0.01472643
-0.013294175 0.089735687 0.014308721
-0.01251471 0.090105921 0.014203668
-0.011746452 0.090615496 0.013743877
-0.010990887 0.091308907 0.013239264
-0.010227375 0.09204638 0.012752831
-0.0092553208 0.090870425 0.011734903
-0.0085751051 0.092611134 0.010210454
-0.0077132541 0.092559054 0.0081097186
-0.0068650399 0.09267804 0.0069700778
-0.0060380735 0.093158849 0.0062086582
-0.0051799258 0.093238667 0.0057181716
-0.0043759006 0.094519459 0.0056227446
-0.0035062279 0.094668157 0.0053271055
-0.0026090622 0.093926251 0.0054276884
-0.0017361038 0.093749605 0.0056227446
-0.00085781654 0.092644192 0.0064445138
0 0.092307501 0.0079493821
0.00086393877 0.093305387 0.011070043
0.0016741756 0.090405487 0.012298614
0.0025205866 0.09074112 0.012454361
0.0033769605 0.09117794 0.013142914
0.0042549362 0.091906622 0.013528734
0.005028063 0.090505138 0.013771594
0.0058955164 0.0909594 0.014101237
0.0066686948 0.090027377 0.014101237
0.0074971425 0.089965716 0.01460728
0.0084456336 0.091212846 0.014501661
0.0092002982 0.090330213 0.01444307
0.010027545 0.090247907 0.014220655
0.010876151 0.090355717 0.014054686
0.011678088 0.090088107 0.013373375
0.012560598 0.09043631 0.012418747
0.013472999 0.090942748 0.011671185
0.014330686 0.091042005 0.0089075863
-0.021492906 0.093709067 0.007134527
-0.020193515 0.091712214 0.011912405
-0.01938583 0.091871977 0.013165593
-0.018652661 0.092415459 0.013725072
-0.017608384 0.0913959 0.014125317
-0.016963447 0.09245079 0.014518201
-0.015917229 0.091314629 0.015123218
-0.015060998 0.091202714 0.015016794
-0.014197742 0.09103258 0.01485759
-0.01332906 0.090804227 0.014549017
-0.012509465 0.090902112 0.014473587
-0.011717643 0.091230221 0.014334947
-0.010891459 0.091320701 0.014324725
-0.010133419 0.092045233 0.013975143
-0.0092811789 0.091968045 0.013358891
-0.0083215004 0.090704359 0.012599796
-0.0075426991 0.091350473 0.01254034
-0.0068799993 0.093739994 0.011514038
-0.0059799105 0.093115747 0.0095666051
-0.0051166546 0.092952557 0.0095113516
-0.0043299003 0.094391838 0.0088454783
-0.0034228319 0.093272164 0.0088196397
-0.0025758238 0.09358827 0.0096406341
-0.001722065 0.093852542 0.01150164
-0.00084756792 0.092384905 0.012375712
0 0.090429351 0.012536496
0.0008497446 0.092622168 0.01279965
0.0016750011 0.091287561 0.013170928
0.0025294079 0.091901816 0.013550401
0.0033232952 0.090559795 0.013869375
0.0041522458 0.090518959 0.014180839
0.0050259475 0.091304719 0.014419138
0.0059103239 0.092032187 0.014565438
0.0066842483 0.091072887 0.01439023
0.007529465 0.091190197 0.014616787
0.0084314812 0.09190315 0.014584035
0.0092022568 0.091186002 0.014472604
0.0099732326 0.090590194 0.014101237
0.010921271 0.09157066 0.013771594
0.011697063 0.091069996 0.012935162
0.012575606 0.091382734 0.011925131
0.013478613 0.091823056 0.010848612
-0.020541325 0.094147749 0.0088143349
-0.019438336 0.092965953 0.012400717
-0.018458702 0.092293516 0.01359427
-0.017582407 0.092098325 0.01397568
-0.01695385 0.093246184 0.014471889
-0.015912697 0.092126139 0.015055805
-0.015138126 0.092510775 0.015198886
-0.014206696 0.091925688 0.015005141
-0.013316829 0.091553196 0.014983445
-0.012545579 0.092000917 0.014672488
-0.011703611 0.091956951 0.014807761
-0.010767652 0.0911109 0.014659524
-0.0099027148 0.090774894 0.014663577
-0.0092920847 0.092920855 0.014361411
-0.0083814487 0.092195936 0.013927519
-0.0075781052 0.092621297 0.013903648
-0.0067801606 0.093227208 0.013292283
-0.0059102671 0.092875622 0.013253152
-0.005033684 0.09228421 0.013291866
-0.0042086858 0.092591092 0.013291866
-0.0033411689 0.091882147 0.012799263
-0.00252868 0.092718266 0.013114423
-0.0016846354 0.092654951 0.013206422
-0.00084332452 0.092765696 0.013301343
0 0.092850044 0.013523757
0.00083344727 0.091679201 0.01377961
0.0016872223 0.092797227 0.013828903
0.0025267398 0.092647135 0.014036536
0.003315066 0.091164313 0.01439023
0.0041801734 0.091963813 0.014758766
0.005084123 0.093208924 0.014788091
0.0058329063 0.091659963 0.014758766
0.0066546015 0.091500774 0.014646947
0.0075595896 0.092394993 0.01463744
0.0083238482 0.091562338 0.014501661
0.0093108332 0.093108334 0.014248371
0.0099943941 0.091615282 0.013753146
0.010911271 0.092326142 0.013588369
0.0116378 0.091439858 0.012393326
0.012669845 0.092912197 0.011174589
0.013620446 0.093640566 0.0060892701
-0.019429954 0.093770646 0.011202127
-0.018415915 0.092916667 0.012874514
-0.017709175 0.093605638 0.013803363
-0.016782198 0.093141206 0.014361978
-0.015950466 0.0931843 0.01505056
-0.015122095 0.093252927 0.014849603
-0.014209573 0.092780158 0.015030891
-0.013435115 0.093206108 0.015031308
-0.01255692 0.092921205 0.014811367
-0.01171091 0.092850789 0.01483047
-0.010816483 0.092356123 0.014944673
-0.010031684 0.092793085 0.015019149
-0.0090755057 0.091580108 0.014795214
-0.0084124934 0.093378678 0.014733851
-0.0074786139 0.092236243 0.014847845
-0.0066860514 0.09276896 0.014124572
-0.005902776 0.09360116 0.01412192
-0.0050466703 0.093363404 0.014064521
-0.0042224363 0.093738094 0.014054894
-0.0033832081 0.093884021 0.013857782
-0.002541159 0.094022885 0.014085799
-0.0016586427 0.092054673 0.014052927
-0.00083890569 0.093118533 0.014165998
0 0.092531838 0.014403492
0.00083767186 0.092981577 0.01453492
0.0016655758 0.092439458 0.014569223
0.0025025578 0.092594646 0.014788479
0.0032967243 0.0914841 0.014761925
0.0041886549 0.092988141 0.014862031
0.0049983789 0.092470005 0.014863372
0.0058813919 0.093262069 0.014855444
0.0066978 0.092931978 0.014692396
0.0075478703 0.093090408 0.014692396
0.0083296727 0.092459366 0.01444754
0.0092163514 0.093001373 0.014086157
0.010104275 0.093464546 0.013563365
0.010917258 0.093216583 0.012760967
0.011889308 0.09426523 0.011543304
0.012585104 0.093129769 0.0087578297
-0.019697908 0.095920242 0.0072106421
-0.018509822 0.094231822 0.012002587
-0.01759308 0.093829758 0.013018757
-0.016834715 0.094274409 0.013691068
-0.015883338 0.093628094 0.014529824
-0.015182028 0.094465949 0.014796555
-0.014318093 0.094330959 0.014722496
-0.013423628 0.093965396 0.014781475
-0.012450231 0.092961729 0.014843255
-0.011662271 0.093298167 0.015064836
-0.010810261 0.093134552 0.015214741
-0.0099766068 0.093115002 0.015276134
-0.0091400202 0.093062028 0.015098035
-0.008333683 0.093337253 0.015051484
-0.0075799762 0.094328597 0.015217692
-0.0067977346 0.095168285 0.015124798
-0.005866495 0.093863919 0.014968187
-0.0050169886 0.093650453 0.014661402
-0.0041859476 0.093765229 0.014661402
-0.0033380422 0.093465179 0.014651448
-0.0025039345 0.093480222 0.014738053
-0.0016749508 0.093797244 0.014834791
-0.00083953777 0.094028227 0.014906675
0 0.093456358 0.015173107
0.00084488105 0.094626673 0.015156746
0.0016498201 0.092389926 0.015082836
0.0025083383 0.093644626 0.014925212
0.003296942 0.092314377 0.014863372
0.0041818377 0.093673162 0.015038252
0.0050194548 0.09369649 0.014930934
0.0058582756 0.093732409 0.014839113
0.0066220853 0.092709191 0.014682353
0.0075445785 0.093888089 0.014638841
0.0083207693 0.093192622 0.014438748
0.0092078149 0.093752302 0.014024168
0.010132965 0.09457434 0.013142467
0.010769062 0.092779607 0.012285739
0.011916138 0.095329106 0.0095243752
-0.018633159 0.095706679 0.0087620318
-0.017581649 0.09460602 0.012214065
-0.016789781 0.094862267 0.013285398
-0.01579728 0.093952239 0.014047623
-0.015119396 0.09491621 0.014758259
-0.014191169 0.094329536 0.014722496
-0.013338906 0.09420602 0.014660299
-0.012553844 0.094572291 0.014966398
-0.011769628 0.094997711 0.015120178
-0.010842875 0.094249599 0.015364319
-0.0099870069 0.094044313 0.015388876
-0.0090579335 0.093049675 0.015184283
-0.0082373312 0.093081839 0.015120178
-0.0075180191 0.094392911 0.015253246
-0.0067243152 0.094980948 0.015357554
-0.005881567 0.094945289 0.015370637
-0.0050285072 0.094703555 0.015296698
-0.0041717798 0.094282225 0.015296698
-0.00336239 0.094987512 0.014916837
-0.00252466 0.095095523 0.015250951
-0.0016746812 0.09461949 0.015211821
-0.00083552895 0.094414771 0.01525104
0 0.094401769 0.015292168
0.00082549482 0.093280911 0.015282363
0.0016837177 0.095130049 0.015151441
0.0025332854 0.09542042 0.015021712
0.0033332864 0.09416534 0.014910161
0.0041409754 0.093586043 0.015016288
0.0050168899 0.094484754 0.014944673
0.0057916245 0.093493365 0.014823586
0.0067135203 0.094828472 0.014579713
0.0075238263 0.094465822 0.014443815
0.008301273 0.093804382 0.014053851
0.0090811616 0.093288295 0.013429046
0.010089065 0.095005363 0.012393326
0.01098774 0.095508814 0.010919809
0.012108717 0.097734645 0.0059118271
-0.017720185 0.096195288 0.010035574
-0.016904134 0.096353568 0.01259324
-0.015993953 0.095963709 0.013495117
-0.0151116 0.095706806 0.014392793
-0.014273509 0.095716476 0.014598101
-0.01342767 0.095672145 0.014609635
-0.012744278 0.096856505 0.014944106
-0.011743041 0.095621906 0.015200496
-0.010800715 0.094713964 0.015358329
-0.01003884 0.095368974 0.01549983
-0.0091712838 0.095047854 0.015392601
-0.0082160998 0.093663543 0.015405804
-0.0074597946 0.094490737 0.015532464
-0.0066795661 0.095183812 0.015520394
-0.0058842748 0.095829614 0.015504152
-0.004966456 0.094362661 0.015446335
-0.0041473471 0.094559513 0.015446335
-0.0033489247 0.095444351 0.015343904
-0.0024895789 0.094604 0.015464664
-0.0016729957 0.095360756 0.015355647
-0.00083726749 0.095448494 0.015316069
0 0.094586395 0.015155584
0.00082671229 0.094245195 0.01528278
0.0016734649 0.095387496 0.015199184
0.0025033003 0.095125414 0.015093058
0.0033723798 0.096112825 0.014955044
0.0041980674 0.095715933 0.015035152
0.0050519449 0.095986947 0.014823586
0.0058883787 0.095896453 0.014650762
0.0066373525 0.094582267 0.014121264
0.0075041172 0.095052153 0.013889849
0.0084769754 0.096637517 0.013568491
0.0091055129 0.094366223 0.012561589
0.010081746 0.095776588 0.011449188
0.011116927 0.097486891 0.0062047541
-0.01803666 0.098772183 0.0084775984
-0.016986636 0.097673163 0.011972874
-0.016037902 0.097071499 0.013285398
-0.015156427 0.09683273 0.013973564
-0.014328788 0.096930034 0.014599353
-0.013494696 0.096993126 0.014437318
-0.0125997 0.096597701 0.014608085
-0.011741024 0.09644413 0.015263289
-0.010773021 0.095299795 0.015455723
-0.010015337 0.095980309 0.015527129
-0.0091504036 0.095663309 0.015423357
-0.0083805667 0.096376516 0.015476227
-0.0075323777 0.096247047 0.01568374
-0.0067951456 0.097680211 0.015626967
-0.0058061467 0.095386699 0.015604585
-0.0050194245 0.096205637 0.015358508
-0.004213457 0.096909516 0.015460908
-0.0033549147 0.096453793 0.015425414
-0.0024949647 0.095640309 0.015503854
-0.0016679048 0.095904522 0.015426069
-0.00083489722 0.096013181 0.015342802
0 0.096768245 0.01530233
0.00083735853 0.096296228 0.015390098
0.0016681391 0.095917992 0.015306503
0.0025079742 0.096139006 0.015163869
0.0033403819 0.09603598 0.014975786
0.0041469489 0.095379822 0.015118361
0.0050443867 0.096684076 0.014823586
0.0059082755 0.097064525 0.014609128
0.0067407731 0.096898615 0.01407519
0.0074622477 0.095350944 0.013600409
0.008286831 0.095298551 0.012892514
0.0092264423 0.096458264 0.011881083
0.010199504 0.09774524 0.0092650354
-0.017115736 0.099271275 0.011137843
-0.016072813 0.098128758 0.012926787
-0.015121075 0.097446933 0.013800055
-0.014259576 0.097300641 0.014612228
-0.013325611 0.09661068 0.014403343
-0.012746702 0.098574497 0.014560342
-0.011741406 0.097285941 0.015263289
-0.010821401 0.096560203 0.015455723
-0.0100171 0.09683197 0.015613467
-0.0092743933 0.097802699 0.015560746
-0.0082374057 0.095553905 0.015886843
-0.0075621405 0.097467594 0.015937746
-0.0066777328 0.096827127 0.015985996
-0.0057932632 0.096002653 0.01573956
-0.0050252168 0.097154193 0.015612751
-0.0041863495 0.09712331 0.015711039
-0.0033695453 0.097716816 0.015523106
