ply
format ascii 1.0
comment PCL generated
element vertex 1259
property float x
property float y
property float z
element camera 0
property float view_px
property float view_py
property float view_pz
property float x_axisx
property float x_axisy
property float x_axisz
property float y_axisx
property float y_axisy
property float y_axisz
property float z_axisx
property float z_axisy
property float z_axisz
property float focal
property float scalex
property float scaley
property float centerx
property float centery
property int viewportx
property int viewporty
property float k1
property float k2
end_header
0.00086334272 -0.097557724 0.012970358
0.0016972139 -0.095892578 0.01308924
0.0025885599 -0.097502418 0.013457209
0.0035050907 -0.099018812 0.013473451
0.0043058516 -0.097312257 0.013716668
0.0052094543 -0.098111391 0.013835996
0.0060474873 -0.097623721 0.013947934
0.0068158377 -0.096273705 0.013679028
0.0077667008 -0.097515248 0.013785809
0.0086403396 -0.097635843 0.013275146
0.0093915239 -0.096476562 0.010414004
0.01039665 -0.097901784 0.0071836412
-0.014639243 -0.096446775 0.0085478723
-0.013772854 -0.096409976 0.011882305
-0.012850716 -0.095952012 0.012508065
-0.012179042 -0.097432338 0.013763011
-0.011360349 -0.097873785 0.013763011
-0.010397787 -0.097046018 0.013884276
-0.0095990878 -0.097736165 0.013994932
-0.0085784635 -0.096078791 0.014157057
-0.0077511556 -0.09645883 0.013827235
-0.0069625825 -0.097476155 0.013496369
-0.0060366332 -0.096586131 0.013318419
-0.0052716779 -0.098404653 0.013002187
-0.0043327301 -0.097053163 0.012893438
-0.0034606382 -0.09689787 0.012789667
-0.002565234 -0.095768735 0.012732416
-0.0017394216 -0.097407609 0.012325794
-0.00087641209 -0.098158151 0.012075394
0 -0.098664813 0.012849599
0.00084147544 -0.094245248 0.013238043
0.0017117074 -0.095855616 0.01333937
0.0025846101 -0.096492112 0.013666719
0.0034373873 -0.096246839 0.013881266
0.0043588574 -0.097638406 0.014385283
0.0051948833 -0.096971162 0.015093863
0.0059474548 -0.095159277 0.015053868
0.0068954225 -0.096535914 0.014342964
0.0077474578 -0.096412808 0.014358193
0.0086265979 -0.0966179 0.013862491
0.0094318613 -0.096033499 0.013575792
0.010242837 -0.095599823 0.010631472
0.01120547 -0.096539438 0.0078017116
-0.015477113 -0.095442198 0.0076347589
-0.014523946 -0.094832823 0.01098001
-0.01381087 -0.095812909 0.012933969
-0.012888963 -0.095378332 0.013676554
-0.011994537 -0.095099546 0.014238894
-0.011164613 -0.095328622 0.014142156
-0.010340373 -0.095648453 0.014318854
-0.009360428 -0.094455227 0.01458329
-0.0086591942 -0.096117057 0.01455614
-0.007699071 -0.094955213 0.014180571
-0.0069562756 -0.096518323 0.013610244
-0.0060849502 -0.096489921 0.013471752
-0.0052482975 -0.0970935 0.013186663
-0.0043255445 -0.096027091 0.01310119
-0.0034835576 -0.09666872 0.013106346
-0.0025924512 -0.095920697 0.012972057
-0.0017240954 -0.0956873 0.013072789
-0.00087433506 -0.097051196 0.012831271
0 -0.09585797 0.012970358
0.00087609771 -0.097246841 0.013382107
0.0017105818 -0.094937287 0.01338914
0.002615365 -0.096768506 0.013816386
0.0034384355 -0.095416591 0.014402717
0.0043196697 -0.095896669 0.015409023
0.0051407865 -0.095104553 0.015512377
0.005987078 -0.09493795 0.015405297
0.0069069304 -0.095833659 0.015302956
0.0078026908 -0.096233197 0.015445322
0.0086721163 -0.096260495 0.015034705
0.009380457 -0.094657339 0.014591664
0.010243114 -0.09474881 0.013811052
0.011204313 -0.095667601 0.012030542
0.012078391 -0.095764391 0.0074447393
-0.01645056 -0.095240086 0.0064533055
-0.015552579 -0.095043547 0.01090616
-0.01491773 -0.096526489 0.012939125
-0.013927822 -0.095753781 0.014196098
-0.012766791 -0.093623132 0.014347374
-0.012079555 -0.094910786 0.014548182
-0.011156494 -0.094401106 0.014513284
-0.010474649 -0.096017621 0.014420241
-0.0094711641 -0.094711646 0.014763594
-0.0087899417 -0.096689366 0.014815301
-0.0077198804 -0.094354093 0.014258862
-0.0069842516 -0.096033461 0.013610244
-0.0059333104 -0.093237735 0.013424665
-0.0052319132 -0.09591841 0.012933373
-0.0043709427 -0.09616074 0.012932539
-0.0034561625 -0.095044471 0.013002187
-0.0026177492 -0.095984139 0.012773573
-0.0017220273 -0.094711505 0.012686521
-0.00087471987 -0.096219182 0.012820154
0 -0.094201684 0.013048828
0.00086225575 -0.094848134 0.01347515
0.0017194404 -0.094569229 0.013521105
0.0025734792 -0.094360903 0.014055341
0.0034533408 -0.094966874 0.014304489
0.0043556574 -0.095824473 0.015409023
0.005203343 -0.095394619 0.015461713
0.0060814475 -0.09556561 0.015458852
0.0068807956 -0.094610937 0.015406311
0.0076733273 -0.093785115 0.015675515
0.0086047975 -0.094652779 0.015472353
0.0096224444 -0.096224442 0.015236259
0.010418233 -0.095500462 0.014832646
0.011116005 -0.094058506 0.014011174
0.011887881 -0.093404785 0.011830419
0.0136155 -0.099847004 0.0074810386
-0.016287941 -0.093441352 0.011304319
-0.015576219 -0.094322667 0.013033509
-0.014757337 -0.094620571 0.013634115
-0.013603712 -0.092675284 0.014410853
-0.013076514 -0.095022671 0.014444202
-0.01213416 -0.094473109 0.014548182
-0.011109319 -0.09314736 0.01451236
-0.010252678 -0.093128487 0.01444158
-0.0094616665 -0.093756519 0.014474332
-0.008749662 -0.095371321 0.014096349
-0.0076782126 -0.092991695 0.013269722
-0.0070526935 -0.096092954 0.01284349
-0.0060383794 -0.094026193 0.012592256
-0.0052257148 -0.094933823 0.012151957
-0.0043757851 -0.095392123 0.011991829
-0.0035178976 -0.095862709 0.012095064
-0.0026663614 -0.096877798 0.011867821
-0.001759363 -0.095885284 0.011669993
-0.00088098348 -0.096027195 0.011691391
0 -0.095213085 0.012223154
0.00087021751 -0.094853714 0.012689561
0.0017218296 -0.093839712 0.013102978
0.0026091798 -0.094800204 0.013410419
0.0034477746 -0.093951859 0.014309287
0.0043028407 -0.093801931 0.014882863
0.0051297131 -0.093189798 0.015585214
0.0060214973 -0.093763322 0.015521884
0.006954818 -0.094759397 0.015512377
0.00777773 -0.09419696 0.01586473
0.0085602822 -0.093307085 0.015628099
0.0094674882 -0.093814209 0.015366286
0.010370525 -0.094198935 0.01511392
0.0111269 -0.093294777 0.014768511
0.012055137 -0.093857855 0.013847709
0.012575606 -0.091382734 0.010927349
0.015645726 -0.10658651 0.0069826245
-0.017211691 -0.092943132 0.010697514
-0.016426701 -0.093372829 0.012308627
-0.015930094 -0.095580563 0.013561219
-0.014888636 -0.094586626 0.013669699
-0.013716765 -0.092588164 0.014176041
-0.012837682 -0.092431314 0.014007777
-0.012119579 -0.093493894 0.014322221
-0.011246364 -0.093431331 0.014007777
-0.010409554 -0.093685985 0.013774544
-0.0094462782 -0.092745282 0.013359874
-0.0085115461 -0.091924705 0.012963951
-0.0078631546 -0.094357856 0.012442023
-0.0069022379 -0.093180209 0.01218462
-0.0062238923 -0.096025765 0.011833429
-0.0053215465 -0.095787846 0.011515349
-0.0044135731 -0.095333181 0.011492759
-0.0035380148 -0.095526405 0.011445582
-0.0026240733 -0.094466642 0.011014819
-0.0017734255 -0.09576498 0.010736018
-0.0008750647 -0.094506986 0.011050493
0 -0.093820632 0.011144489
0.00087630091 -0.094640501 0.011298388
0.001756354 -0.094843119 0.011603773
0.0026540949 -0.095547423 0.01255697
0.0034226398 -0.09241128 0.013118953
0.0043491176 -0.093940951 0.01357463
0.005195112 -0.093512021 0.014223307
0.0060677389 -0.093616545 0.014644206
0.0068645691 -0.092671685 0.014958352
0.0077090161 -0.092508204 0.015472353
0.0087422403 -0.094416194 0.015409023
0.0094611663 -0.092891455 0.015260369
0.010278922 -0.092510298 0.015144527
0.011156871 -0.092687853 0.014999598
0.012033093 -0.092826717 0.014482319
0.012841212 -0.092456728 0.012699962
0.013921001 -0.09396676 0.0101569
0.016187517 -0.10283834 0.0062085092
-0.017943053 -0.09142413 0.0090553463
-0.017475447 -0.093493648 0.011783957
-0.016647164 -0.093749814 0.012794524
-0.015644521 -0.092997991 0.013506323
-0.014738868 -0.09276817 0.0133937
-0.014165157 -0.094729483 0.013815284
-0.012873974 -0.091834351 0.013513684
-0.012135409 -0.092749201 0.013940185
-0.01122968 -0.092428908 0.013380617
-0.010456347 -0.093235761 0.013001263
-0.0096050575 -0.093431026 0.012445033
-0.0087229833 -0.093335927 0.012298882
-0.0078845099 -0.093738072 0.011784047
-0.0070003215 -0.093629301 0.011443377
-0.0062331515 -0.095278181 0.011413157
-0.0052693989 -0.093970947 0.010264426
-0.0044699386 -0.095656686 0.010223687
-0.0034801525 -0.093094081 0.010258377
-0.0026902168 -0.095951073 0.010166198
-0.0017616961 -0.094250746 0.010068923
-0.00089440373 -0.095701203 0.0098679662
0 -0.093527012 0.010163486
0.00087531871 -0.093659103 0.010496795
0.0017562768 -0.093960814 0.010953993
0.0026234209 -0.093568683 0.011074424
0.003521384 -0.09419702 0.011458069
0.0043453644 -0.092990801 0.012922585
0.005245015 -0.093536101 0.013238996
0.0060286643 -0.092152447 0.014090359
0.0069277645 -0.092658855 0.01463908
0.0078696702 -0.093561642 0.015325427
0.0085881306 -0.091893002 0.015325427
0.0094211055 -0.091641665 0.015590787
0.010406181 -0.09278845 0.015693933
0.011279429 -0.092838384 0.015430063
0.012026615 -0.091917709 0.015081197
0.012887219 -0.091928832 0.013697416
0.013689563 -0.091548949 0.012349278
0.015630342 -0.098379217 0.0083056986
-0.019425737 -0.093596734 0.0077908039
-0.018165568 -0.091692865 0.011036068
-0.017576952 -0.093157843 0.01296252
-0.016271539 -0.090778053 0.013487816
-0.015782483 -0.092941284 0.013593316
-0.01495125 -0.093225434 0.01352784
-0.013679213 -0.090624787 0.01329425
-0.013008315 -0.09192542 0.012998849
-0.012067072 -0.091364972 0.013092875
-0.011055147 -0.090141967 0.012649506
-0.010472033 -0.092502952 0.012142628
-0.0097406507 -0.093864448 0.01195237
-0.0087437239 -0.092683472 0.011220843
-0.0078114499 -0.09200152 0.01092267
-0.0070461589 -0.093361601 0.010023117
-0.0061475076 -0.093090825 0.0097115636
-0.0053532976 -0.094574921 0.0090013146
-0.0043966887 -0.093209796 0.009020716
-0.0035476198 -0.094011925 0.0091459453
-0.0026347768 -0.093095452 0.0089171827
-0.0017458164 -0.092528269 0.008020699
-0.00087480195 -0.092729002 0.0090435743
0 -0.093735166 0.0089913011
0.0008633674 -0.091516942 0.0095596015
0.001779884 -0.094333842 0.0096827149
0.0026524588 -0.093720205 0.010285765
0.0034450672 -0.091294274 0.010877013
0.004428809 -0.093890756 0.01123023
0.0052896477 -0.093450442 0.012277722
0.0060893409 -0.092210017 0.013109744
0.0069645997 -0.092280939 0.013703316
0.0076634837 -0.090258814 0.014535487
0.008721333 -0.092446133 0.014621377
0.0094671426 -0.091228828 0.015163958
0.010381537 -0.091703579 0.015249848
0.011149348 -0.090910062 0.015580267
0.011981303 -0.090715572 0.015194088
0.012965905 -0.09162572 0.014661431
0.013830933 -0.09162993 0.013533682
0.014412628 -0.089866973 0.011814445
0.016761864 -0.098708756 0.006700635
-0.018850744 -0.089969464 0.010080397
-0.018359806 -0.091799028 0.011783957
-0.017438136 -0.091550216 0.012854069
-0.01625021 -0.089803785 0.01325509
-0.015574776 -0.090852864 0.01340881
-0.014742068 -0.091053948 0.012982368
-0.014046895 -0.092182748 0.012889028
-0.012955325 -0.090687267 0.012411267
-0.012134747 -0.091010593 0.012283504
-0.01146045 -0.092565164 0.011961341
-0.010525176 -0.092095293 0.011203259
-0.0096636424 -0.092243858 0.011020064
-0.0088428594 -0.092850029 0.010044038
-0.0080258809 -0.093635276 0.0094298422
-0.0070019136 -0.091900118 0.0086800456
-0.0062342668 -0.093513995 0.0081794262
-0.0052536344 -0.0919386 0.0076524019
-0.004447463 -0.093396716 0.0070118606
-0.0035663205 -0.093615912 0.0076524019
-0.0026705486 -0.093469195 0.0067538023
-0.001759868 -0.092393063 0.0062704384
-0.00087811338 -0.092201903 0.0071608126
0 -0.092103094 0.0070801675
0.00087929296 -0.092325762 0.0080393255
0.0017694222 -0.092894666 0.0084457994
0.0026335707 -0.09217497 0.0088669956
0.0034627607 -0.090897463 0.0093892217
0.0044288863 -0.093006611 0.010317594
0.005266726 -0.092167698 0.010968655
0.0061339606 -0.092009403 0.01129958
0.0069717229 -0.091503866 0.013046652
0.0078221029 -0.09125787 0.013665795
0.0087390896 -0.091760449 0.014244586
0.0092771221 -0.088554345 0.014858007
0.010436039 -0.091315344 0.015252143
0.011153918 -0.090089336 0.01536274
0.012034071 -0.090255529 0.015430063
0.012826249 -0.089783736 0.014974922
0.013863965 -0.090982273 0.014511228
0.014525685 -0.08971747 0.013338119
0.015550381 -0.090710558 0.010106713
-0.020040922 -0.090619817 0.0091438293
-0.019160427 -0.090576559 0.012018204
-0.018170502 -0.089987241 0.012642205
-0.017493576 -0.090966597 0.013071001
-0.016533423 -0.090498738 0.01325649
-0.015726488 -0.090864159 0.01333046
-0.01467188 -0.089757383 0.012789458
-0.013928099 -0.090532638 0.012540579
-0.012842929 -0.089044303 0.0121966
-0.012345285 -0.091707826 0.011879116
-0.011556399 -0.092451192 0.011408746
-0.010474978 -0.090783142 0.010642856
-0.0097370362 -0.092059247 0.0098153055
-0.0088624246 -0.09216921 0.00877285
-0.0078205122 -0.090370364 0.0080453753
-0.0070118592 -0.091154166 0.0073798299
-0.0062566646 -0.092956163 0.0069359243
-0.0053060586 -0.091971688 0.0060020685
-0.0044746711 -0.093073159 0.0054681301
-0.003573694 -0.092916042 0.0054681301
-0.002672005 -0.0926295 0.0051924288
-0.0017492597 -0.090961501 0.0050630569
-0.0009112258 -0.094767481 0.0055175424
0 -0.092546016 0.0059866309
0.00087634893 -0.091140285 0.006493032
0.0017561051 -0.091317467 0.0069184601
0.0026481049 -0.091800973 0.0077892244
0.0034592133 -0.089939542 0.0086818635
0.0044389707 -0.092330597 0.0095930696
0.0052904808 -0.091701664 0.010323644
0.0062252739 -0.092489786 0.010806054
0.0070132753 -0.091172576 0.012124389
0.0079198079 -0.091517784 0.013217956
0.0086942846 -0.090420559 0.013456792
0.0093541732 -0.088439457 0.014535487
0.010564877 -0.091562271 0.014904439
0.011120091 -0.08896073 0.015081197
0.012110782 -0.089965805 0.015293926
0.012851775 -0.089105636 0.014969528
0.013747889 -0.08936128 0.014675975
0.014838275 -0.090775326 0.013762206
0.015487711 -0.08948455 0.01135245
0.017593015 -0.096298605 0.0077866912
-0.021667635 -0.092990272 0.0067807436
-0.019770984 -0.088539615 0.010820717
-0.019218715 -0.089978531 0.012709796
-0.018244654 -0.089485675 0.012776285
-0.017032318 -0.087716438 0.013306439
-0.016731717 -0.090703517 0.013477862
-0.015299574 -0.08754757 0.013013721
-0.014887379 -0.0902 0.012673587
-0.013726947 -0.088367224 0.012478024
-0.013054293 -0.089639477 0.011796415
-0.012408947 -0.091294393 0.011158079
-0.011267238 -0.089271195 0.010801762
-0.010575529 -0.090773292 0.0097525418
-0.0096234623 -0.090110607 0.0086092651
-0.0087208059 -0.089824304 0.0075948536
-0.007950644 -0.090990707 0.006772548
-0.0070907343 -0.091293201 0.0058028996
-0.00628071 -0.09241616 0.0052650273
0.0017700428 -0.091157205 0.0057462156
0.0026615793 -0.091380894 0.0065439343
0.0034972113 -0.090053186 0.0069532692
0.0043802555 -0.090233266 0.0073516965
0.0052164597 -0.089549229 0.0086593926
0.0060798526 -0.089460686 0.009608537
0.0070907343 -0.091293201 0.01067847
0.0077354596 -0.088528045 0.012150705
0.0088660251 -0.09132006 0.012993753
0.00958905 -0.089788377 0.014100969
0.010273796 -0.088183418 0.014459133
0.011149847 -0.088341095 0.014768511
0.012191651 -0.089695722 0.015194088
0.013057834 -0.089663789 0.015119731
0.013704289 -0.088221356 0.015577376
0.014597516 -0.088443771 0.01444903
0.015361163 -0.08789999 0.013525218
0.016257638 -0.088133514 0.010701954
0.019339625 -0.099599071 0.0061059296
-0.020916171 -0.088893726 0.0099830031
-0.020206172 -0.089609981 0.012078553
-0.018929098 -0.087762184 0.012971371
-0.018534411 -0.090024285 0.01302126
-0.017309286 -0.088277362 0.013466209
-0.016601579 -0.089124262 0.013306439
-0.01571464 -0.089049637 0.013242036
-0.014609288 -0.087655731 0.012585372
-0.014094155 -0.089850239 0.012097836
-0.013280012 -0.090304077 0.011552393
-0.012111343 -0.088239782 0.010400027
-0.011411429 -0.089535832 0.0098981559
-0.01050109 -0.089259259 0.0086222887
-0.0095967604 -0.088988148 0.0075532496
-0.0090066176 -0.091867499 0.0069721341
-0.0079362839 -0.089944549 0.0051698387
0.0035607594 -0.090799361 0.0056203604
0.0044443328 -0.090664394 0.0063264966
0.0052823378 -0.089799739 0.006878376
0.0061302367 -0.089326307 0.0081644952
0.0070609697 -0.090027362 0.0089862347
0.0077698808 -0.08805865 0.011113048
0.0087514454 -0.08926475 0.01224032
0.0094167935 -0.087319359 0.013328314
0.010350131 -0.08797612 0.014010221
0.01120875 -0.08794558 0.014697731
0.012237002 -0.089155309 0.015008241
0.012752142 -0.086714566 0.014974922
0.013749359 -0.087652162 0.015565723
0.014595238 -0.087571435 0.014713913
0.015455386 -0.087580524 0.014300913
0.016526444 -0.088720903 0.012325525
0.017475711 -0.089126125 0.0098899007
-0.021754716 -0.087889053 0.0092525184
-0.020830862 -0.087663218 0.011085778
-0.020026751 -0.087943561 0.012599975
-0.019011782 -0.087281369 0.012970179
-0.018321007 -0.08811532 0.013233483
-0.017437683 -0.088060305 0.013476163
-0.016835874 -0.089495964 0.013116509
-0.015507108 -0.087012112 0.012850493
-0.014833886 -0.088130735 0.012211263
-0.014163984 -0.089410149 0.011520952
-0.013221454 -0.089024454 0.010396034
-0.012466807 -0.08993911 0.0092299581
-0.011227717 -0.087230727 0.0087863207
-0.010539965 -0.088711374 0.0074799955
-0.0097474484 -0.089499302 0.0067538023
0.0053354963 -0.089814194 0.0056912601
0.0061707171 -0.089034639 0.0063110888
0.0071583334 -0.090373963 0.0081651807
0.0077973851 -0.087503992 0.0099708736
0.0088736834 -0.089624211 0.010834843
0.009626532 -0.088389076 0.012584716
0.010528618 -0.088615872 0.013069302
0.011181626 -0.086872637 0.014305055
0.012135925 -0.087552033 0.014980227
0.012920139 -0.086995609 0.015037626
0.013642227 -0.08611656 0.015396774
0.014627022 -0.086901717 0.01502499
0.015509233 -0.087024033 0.014446974
0.016045921 -0.085296735 0.013456225
0.01718967 -0.08680784 0.012154073
0.019327819 -0.092957608 0.0078387856
-0.021588909 -0.086355634 0.011059821
-0.020922501 -0.08717709 0.012557477
-0.019965194 -0.086805195 0.013037264
-0.019386865 -0.088122122 0.013248354
-0.018413689 -0.087684236 0.013302743
-0.017215168 -0.086075842 0.013466209
-0.016422525 -0.086434342 0.013115793
-0.015849218 -0.088051215 0.012558877
-0.014771297 -0.086889982 0.012145579
-0.013934009 -0.087087557 0.010955334
-0.013298422 -0.08865615 0.010091335
-0.012311938 -0.087942421 0.0087312162
-0.011219742 -0.086305708 0.0079705417
-0.010595857 -0.08829882 0.0067112744
0.0062898761 -0.089855373 0.0052465796
0.0070863855 -0.088579819 0.0061800778
0.0079850908 -0.088723235 0.0086002648
0.0087287147 -0.087287158 0.0096477568
0.0097766221 -0.088878386 0.011218399
0.010510711 -0.087589256 0.012361497
0.011138267 -0.08567898 0.013828605
0.012120742 -0.08657673 0.01440388
0.012702534 -0.084683567 0.015226901
0.01379971 -0.086248189 0.015393078
0.014581393 -0.085772909 0.015289366
0.015580081 -0.08655601 0.015018255
0.016350668 -0.08605615 0.013988674
0.017193897 -0.085969485 0.013494253
0.01795713 -0.08551015 0.010872781
-0.022509819 -0.085710473 0.0094818771
-0.021617757 -0.085606322 0.011909395
-0.020974426 -0.08651951 0.012672663
-0.019948311 -0.085864469 0.013113976
-0.019230448 -0.086537026 0.013248354
-0.018384725 -0.086670846 0.013278991
-0.017097529 -0.084632777 0.013278991
-0.016468074 -0.085807331 0.012854069
-0.015738206 -0.086560145 0.012529522
-0.014858355 -0.08652807 0.012028366
-0.01385983 -0.085757695 0.010736048
-0.013217476 -0.087235346 0.0092821121
-0.012265312 -0.086733282 0.0081273019
-0.011873107 -0.090418287 0.0068064928
0.0071146796 -0.088044167 0.0053732991
0.0078102867 -0.085913166 0.007278651
0.0091012847 -0.090102725 0.0087635517
0.0095773255 -0.086195938 0.010458857
0.010342918 -0.085329078 0.011638582
0.011480875 -0.087431282 0.012936503
0.012213137 -0.086364329 0.014059961
0.012871445 -0.084951542 0.015159786
0.01367719 -0.084627613 0.015289366
0.014725646 -0.085755236 0.01527226
0.015451883 -0.084985368 0.014974862
0.016575921 -0.086369276 0.014649391
0.0168173 -0.083245642 0.014594853
0.018107899 -0.08536581 0.013192624
0.019252554 -0.086636499 0.0087246597
-0.023426948 -0.085031144 0.0053754151
-0.022157088 -0.083515175 0.010468721
-0.022061802 -0.086482264 0.012501925
-0.020775134 -0.084831797 0.012785971
-0.020004736 -0.08523757 0.013033926
-0.019028205 -0.084762007 0.013170302
-0.018309668 -0.085445113 0.013154924
-0.017211543 -0.084336564 0.013145506
-0.016889021 -0.087111786 0.012608796
-0.015942225 -0.086796559 0.011935174
-0.015071176 -0.086880893 0.011259019
-0.014376334 -0.088055044 0.010324538
-0.012867369 -0.084066801 0.0087865889
-0.012416611 -0.086916275 0.0068980455
-0.011790728 -0.088883951 0.0061358213
0.0082107568 -0.089406021 0.0059997141
0.0089271702 -0.087486275 0.008009553
0.009547716 -0.085061468 0.0092787147
0.010692036 -0.087318286 0.011004537
0.011439823 -0.08623866 0.012282372
0.012214419 -0.085500933 0.013871193
0.012809662 -0.083689794 0.014711291
0.013700268 -0.083914138 0.015269995
0.014725127 -0.084886022 0.015279144
0.015413977 -0.083920538 0.015044004
0.016262919 -0.083882414 0.014818549
0.016934702 -0.082980044 0.014588207
0.018074911 -0.08434958 0.013895541
0.018788809 -0.083695605 0.011174887
-0.023188118 -0.083305456 0.0085306466
-0.023010878 -0.085848272 0.01115337
-0.021669278 -0.084076799 0.012664586
-0.021071006 -0.085161977 0.012932092
-0.020258438 -0.085437752 0.013217032
-0.019002672 -0.083784506 0.013192326
-0.01833136 -0.08467342 0.013168663
-0.017359925 -0.084195636 0.012964576
-0.016620915 -0.084854141 0.01249367
-0.015890637 -0.085632883 0.011940151
-0.014799009 -0.084441401 0.010960221
-0.014031207 -0.085064195 0.0094874203
-0.013171448 -0.085175365 0.0080707371
-0.012600353 -0.087302439 0.0060991347
0.0087800547 -0.085166529 0.0063027143
0.0097558554 -0.086028911 0.0087625086
0.010565974 -0.085408285 0.010364115
0.01116767 -0.083327994 0.012261778
0.012186614 -0.084435828 0.013612568
0.013038206 -0.084313728 0.014711291
0.013831303 -0.083852276 0.015277714
0.014869467 -0.084843427 0.015433878
0.015501685 -0.083536856 0.015241385
0.016289126 -0.083160274 0.015083313
0.017262856 -0.083724856 0.014984787
0.017979646 -0.083048835 0.014466137
0.01890894 -0.083371237 0.012714803
0.019818895 -0.083584026 0.009965837
-0.024381336 -0.083593152 0.0055110455
-0.023632588 -0.084026977 0.010224521
-0.022699319 -0.083812863 0.012302995
-0.021696383 -0.083314106 0.012877315
-0.021254867 -0.085019469 0.013017625
-0.020048011 -0.083678655 0.013346195
-0.01914373 -0.083536282 0.013527244
-0.01853577 -0.084734946 0.013330072
-0.017291626 -0.082999803 0.013171673
-0.016685514 -0.084305748 0.012473732
-0.015859164 -0.084582217 0.011892855
-0.014807432 -0.08361844 0.010976732
-0.014080905 -0.084485434 0.0093635619
-0.013392257 -0.085710436 0.0069434047
0.0089925174 -0.086328171 0.0052293837
0.0096518816 -0.084234603 0.0081059933
0.010357922 -0.082863376 0.0094732642
0.011456769 -0.084603831 0.011675209
0.012235035 -0.083897382 0.013231963
0.013055405 -0.083554588 0.013994664
0.013646742 -0.08188045 0.015208244
0.014687587 -0.082941666 0.015277833
0.015412413 -0.082199536 0.015377164
0.016341157 -0.082565844 0.015179306
0.017251354 -0.082806498 0.014879405
0.018214945 -0.083268315 0.014748812
0.018842839 -0.082223296 0.013187587
0.019662682 -0.082070321 0.010817021
-0.024419906 -0.08285325 0.0059989989
-0.023426909 -0.082428008 0.01032728
-0.022421142 -0.08192341 0.012302995
-0.021832947 -0.082965195 0.01287356
-0.020696854 -0.081925049 0.012922585
-0.020235043 -0.083579518 0.013239324
-0.019326547 -0.083455548 0.013249755
-0.018135624 -0.082042113 0.013178378
-0.017338108 -0.082356013 0.01280871
-0.016747838 -0.083739191 0.012416035
-0.015863838 -0.08372581 0.011716545
-0.014840974 -0.082934856 0.010953993
-0.014012018 -0.083196357 0.0093297958
-0.013422043 -0.085006274 0.0063568354
0.009669723 -0.083511248 0.0076992214
0.010548072 -0.083505571 0.009419769
0.011271294 -0.082367152 0.011336982
0.012291742 -0.083408251 0.012992054
0.012910702 -0.081767783 0.013842702
0.013699017 -0.081337914 0.015041798
0.014665639 -0.081955045 0.014948577
0.015470176 -0.081648149 0.015224874
0.01602158 -0.080107898 0.015055269
0.017180489 -0.081607319 0.014834166
0.018192858 -0.082301021 0.014334202
0.018724427 -0.080855481 0.013088375
0.019974833 -0.082504742 0.012186468
0.020780716 -0.082257003 0.0052138567
-0.024652384 -0.082761578 0.0083162189
-0.023459151 -0.081672601 0.010650218
-0.023199139 -0.083873808 0.012302995
-0.021914735 -0.082399406 0.012894869
-0.020992834 -0.082221933 0.012865663
-0.020028234 -0.081854515 0.013310969
-0.019146943 -0.08180967 0.013168663
-0.018333726 -0.082065247 0.013140798
-0.017526839 -0.082376145 0.012780517
-0.016531868 -0.08178924 0.012449473
-0.015562075 -0.081268616 0.011809647
-0.014918833 -0.082492366 0.010953993
-0.013854719 -0.081396475 0.0089378655
0.0098069785 -0.083805092 0.0066958964
0.010476361 -0.08206483 0.0094767213
0.011326185 -0.081897035 0.011711866
0.012231339 -0.082124703 0.013077348
0.012846733 -0.080506191 0.013824493
0.013612719 -0.079974726 0.014875084
0.014638544 -0.080942534 0.01536116
0.015519378 -0.081045642 0.015313923
0.016557779 -0.081917435 0.015107363
0.01716755 -0.080687486 0.01503253
0.017706294 -0.079256743 0.014587313
0.018823547 -0.080427885 0.013388276
0.019825131 -0.081024446 0.012417316
0.020965813 -0.082116105 0.0082235038
-0.024515009 -0.081424855 0.0084509254
-0.023544105 -0.081096359 0.010650218
-0.022575475 -0.080750741 0.012302995
-0.021602271 -0.080360442 0.012861878
-0.021088384 -0.081717491 0.012869
-0.019982018 -0.080796853 0.01326704
-0.019242335 -0.0813426 0.013168663
-0.018357562 -0.081297778 0.013140798
-0.01723755 -0.080154605 0.013027161
-0.016740533 -0.081940502 0.012425095
-0.016149551 -0.08343935 0.011364758
-0.014820155 -0.081074961 0.010724187
-0.014007665 -0.081419557 0.0085716844
0.0097457962 -0.082396284 0.006365329
0.010549841 -0.081761263 0.0095468462
0.011430462 -0.081771769 0.01172778
0.012356112 -0.082079887 0.013444453
0.012987386 -0.080521792 0.013966799
0.013684821 -0.079543024 0.015050918
0.014424709 -0.07891164 0.0157004
0.015485243 -0.080007091 0.015606791
0.016485777 -0.080693543 0.015277445
0.016906537 -0.078615397 0.015186846
0.01823674 -0.080762707 0.014641643
0.018673468 -0.078937843 0.014070898
0.019751523 -0.079864852 0.012356758
0.020635879 -0.079964034 0.0081989169
-0.024518443 -0.080560602 0.0082013607
-0.023774708 -0.081010111 0.010326296
-0.022751264 -0.080504477 0.011842728
-0.02184541 -0.080391102 0.012684524
-0.021001684 -0.080506451 0.012821674
-0.02003389 -0.080135562 0.01306507
-0.019622311 -0.08205694 0.013109773
-0.018029872 -0.078988016 0.013109773
-0.01717695 -0.079013981 0.013002902
-0.016519619 -0.079989731 0.012425095
-0.015807897 -0.080795921 0.011357784
-0.014908015 -0.080678664 0.010664493
-0.014286111 -0.08214514 0.0086784959
0.0098583046 -0.082451284 0.006678015
0.010423762 -0.079915509 0.0098684132
0.011186562 -0.079166442 0.012127697
0.012303022 -0.080848433 0.013559669
0.012947295 -0.079410076 0.014526278
0.013658119 -0.078534186 0.015341341
0.014618332 -0.07911098 0.015800238
0.015610205 -0.079785496 0.015571177
0.016248936 -0.078679055 0.015447944
0.017054683 -0.078451551 0.015141606
0.017976282 -0.07875324 0.014587313
0.018722851 -0.078295566 0.013973683
0.019852394 -0.079409577 0.012272805
0.020931918 -0.080239028 0.0080222785
-0.025041612 -0.08138524 0.006542325
-0.023270177 -0.07842911 0.010085195
-0.022752782 -0.079634741 0.011747688
-0.021710359 -0.079025701 0.012568563
-0.020980295 -0.079550289 0.012771845
-0.019827653 -0.078448541 0.013104379
-0.019068684 -0.078875013 0.013091832
-0.018416228 -0.079803653 0.013153434
-0.017044928 -0.077554435 0.01311186
-0.016710263 -0.080033362 0.012469977
-0.01576622 -0.079707012 0.011735976
-0.01478886 -0.079163894 0.010645151
-0.013945952 -0.079317607 0.0090706646
0.0098192021 -0.081231587 0.006678015
0.010528553 -0.079841532 0.0099651217
0.011284569 -0.078991987 0.01255998
0.012336322 -0.080186099 0.013816327
0.012813507 -0.077735275 0.014593601
0.013940249 -0.079285167 0.015345901
0.01449296 -0.07757996 0.015730321
0.015247664 -0.07708542 0.015646964
0.016254364 -0.07784985 0.015666217
0.01750814 -0.07966204 0.015009105
0.01794488 -0.077761151 0.014460951
0.018705571 -0.077373043 0.01311779
0.019712962 -0.077994764 0.011154413
0.020671174 -0.078378208 0.0079320967
-0.024438495 -0.078552313 0.0053959787
-0.023829171 -0.079430573 0.0094148219
-0.0228684 -0.079159848 0.011000425
-0.021597307 -0.077750303 0.012363046
-0.020890353 -0.078338832 0.01265645
-0.020361502 -0.079675443 0.013055354
-0.018946923 -0.077510148 0.013147235
-0.018364979 -0.078707054 0.013349235
-0.017229959 -0.077534825 0.013349235
-0.016468585 -0.078009084 0.01307705
-0.01582497 -0.079124853 0.012306839
-0.015013037 -0.07948079 0.011006773
-0.013777496 -0.077498421 0.0092110336
0.0098584983 -0.080660447 0.0081421435
0.010479985 -0.078599893 0.010368675
0.01140117 -0.078931183 0.013182372
0.012153178 -0.078127578 0.014004052
0.012837336 -0.07702402 0.014954239
0.013806028 -0.077658914 0.015571773
0.014691719 -0.077779688 0.015920907
0.015631344 -0.078156725 0.015824318
0.016404226 -0.077704236 0.015617251
0.016867511 -0.075903803 0.015119404
0.018023131 -0.077241994 0.014349103
0.018962607 -0.077574305 0.012710005
0.019910693 -0.077911407 0.01091826
0.020984422 -0.078691587 0.0057469904
-0.023832191 -0.078557961 0.0083559752
-0.022795593 -0.078031071 0.010316789
-0.021928098 -0.078064024 0.01216808
-0.021093965 -0.078223452 0.012454152
-0.019974576 -0.077292919 0.012652695
-0.018900767 -0.076462187 0.013033122
-0.018334795 -0.077704601 0.013272077
-0.017363962 -0.077269629 0.013455659
-0.016505582 -0.077315614 0.0130274
-0.015703876 -0.077646948 0.012370288
-0.015087747 -0.078988791 0.011202961
-0.013758183 -0.076529883 0.0098177195
0.0098022269 -0.079308927 0.009417206
0.010546249 -0.078218013 0.011910886
0.011266486 -0.077132098 0.013611913
0.012191292 -0.077501781 0.014184117
0.012745133 -0.075621113 0.015046567
0.013740102 -0.076429315 0.015522242
0.014726831 -0.077099286 0.015881628
0.015497302 -0.076625548 0.01568526
0.016397133 -0.076807626 0.015432507
0.017230794 -0.076677032 0.014701456
0.018141311 -0.076884598 0.014032483
0.018913841 -0.076515086 0.012223274
0.020206934 -0.07819204 0.010368407
-0.023592817 -0.076895103 0.006565541
-0.022755032 -0.077017032 0.010028124
-0.022095654 -0.0777767 0.012097597
-0.020798292 -0.076260403 0.012415111
-0.01994542 -0.076312907 0.012541443
-0.019210296 -0.076841183 0.013033122
-0.017787412 -0.074537724 0.01345256
-0.017488489 -0.076949351 0.013571501
-0.01634473 -0.075701907 0.013347
-0.015811736 -0.077301823 0.013025105
-0.014755825 -0.076383092 0.012065142
-0.013540733 -0.074474029 0.010326117
-0.013762353 -0.080739133 0.0063360333
0.0091455737 -0.080481052 0.0066654086
0.0095565924 -0.07645274 0.0099830031
0.010248225 -0.075153649 0.012658328
0.011410928 -0.077243209 0.014069766
0.012146888 -0.076351866 0.014758199
0.01286343 -0.075465456 0.015395403
0.013735913 -0.075547516 0.015745252
0.014680973 -0.075995624 0.015801549
0.015489398 -0.075725943 0.015527755
0.016561741 -0.076707013 0.015162617
0.016956732 -0.074609622 0.014597684
0.017786164 -0.074532494 0.013206333
0.01893164 -0.075726561 0.011760175
0.020053456 -0.076726258 0.0091207325
-0.022919919 -0.07669358 0.0088003278
-0.021708682 -0.075546212 0.010551363
-0.020987552 -0.076079875 0.012230605
-0.019883282 -0.075210676 0.012496531
-0.019395692 -0.076701149 0.012782454
-0.018294012 -0.075789474 0.013449758
-0.017330965 -0.075389698 0.013638079
-0.016432405 -0.075243115 0.013440341
-0.015582112 -0.075313546 0.013381243
-0.014907223 -0.076289907 0.012722045
-0.014203175 -0.077229761 0.011140496
-0.013854375 -0.080355376 0.0083647966
0.0093856268 -0.081654951 0.0087516606
0.0095085092 -0.075203665 0.011910886
0.010307171 -0.074726991 0.013940275
0.011340235 -0.075892344 0.014521182
0.012056516 -0.074922636 0.015494794
0.012797792 -0.074227192 0.015771598
0.013651622 -0.074230701 0.015848696
0.014519615 -0.074306265 0.015885711
0.01565497 -0.075665697 0.015674144
0.016224327 -0.074290335 0.015480638
0.017058402 -0.07420405 0.014965355
0.018019101 -0.074650556 0.013069212
0.019387837 -0.076670088 0.010854661
-0.02310341 -0.076418974 0.0064256191
-0.021874564 -0.075248495 0.0096915066
-0.020908376 -0.074921682 0.011493444
-0.019985242 -0.074727423 0.012290061
-0.019379489 -0.075756192 0.012718022
-0.018249677 -0.074736774 0.013420433
-0.017385149 -0.074756145 0.013684213
-0.016567595 -0.074990168 0.013630062
-0.015600867 -0.074537478 0.013376623
-0.01483897 -0.075067729 0.013134301
-0.013713944 -0.073712446 0.012067825
-0.012889287 -0.073898576 0.010404855
-0.013138725 -0.080709316 0.005823493
0.0084245494 -0.080501251 0.0052382648
0.00889285 -0.076478511 0.011051685
0.0093311863 -0.072952911 0.013378114
0.010430475 -0.074751742 0.014470369
0.011233774 -0.074315734 0.014812857
0.01207358 -0.074166276 0.015476912
0.013029583 -0.074702941 0.015688658
0.013660571 -0.073425569 0.015745252
0.014828845 -0.075016506 0.015734613
0.015609442 -0.074578449 0.015319318
0.016007537 -0.072455168 0.014973313
0.017523287 -0.075350136 0.013697386
0.018295936 -0.074926212 0.011884004
0.019004945 -0.074292056 0.0085402727
-0.022055371 -0.074988261 0.0087324083
-0.021276277 -0.075353481 0.010320038
-0.020055689 -0.074118845 0.012074888
-0.019173173 -0.074078172 0.012471437
-0.01820269 -0.073677555 0.013308436
-0.017323719 -0.07362581 0.013658613
-0.016466241 -0.073664762 0.013764858
-0.015807247 -0.074645333 0.013704926
-0.014996476 -0.074982382 0.013234466
-0.013864934 -0.073657461 0.012949318
-0.012945934 -0.073360294 0.011966884
-0.013013579 -0.079011016 0.0084748864
0.0084122159 -0.079448707 0.010131747
0.0085992627 -0.073093735 0.011929214
0.009530738 -0.073646612 0.013898283
0.010479443 -0.074229389 0.014774024
0.011244935 -0.073524579 0.0150626
0.012222449 -0.074207731 0.015592068
0.012936993 -0.073309623 0.015697837
0.013854443 -0.07360173 0.015697837
0.01448285 -0.072414249 0.015516162
0.015325672 -0.072371237 0.014999568
0.016160598 -0.072297409 0.013919502
0.017202189 -0.073109306 0.013232082
0.018153908 -0.073480099 0.011182725
-0.021957781 -0.073778145 0.0055194497
-0.021215511 -0.074254297 0.009527415
-0.020128833 -0.073514 0.011175692
-0.019241832 -0.073468819 0.012290061
-0.018483449 -0.073933795 0.012950778
-0.017399212 -0.073076695 0.01353842
-0.016518721 -0.073030137 0.013603836
-0.015633874 -0.072958082 0.013519943
-0.014804371 -0.073151007 0.013283432
-0.014165781 -0.074370354 0.013221532
-0.012769097 -0.071506947 0.012555659
-0.012286234 -0.073717408 0.010703683
-0.012138413 -0.078432828 0.0071860552
0.0076396721 -0.080216557 0.0090223253
0.0076486501 -0.071387403 0.011408627
0.008585114 -0.072114967 0.013113767
0.0095827989 -0.07317774 0.014227897
0.010232068 -0.071624473 0.014948964
0.011242087 -0.072641179 0.015147656
0.01201738 -0.072104283 0.015517563
0.013160892 -0.073700994 0.015631616
0.013764125 -0.072261661 0.015501201
0.014445563 -0.071378075 0.015324801
0.015616705 -0.072877958 0.014399946
0.016400933 -0.072509386 0.013752699
0.017352723 -0.072881438 0.012155175
0.018296976 -0.073187903 0.0087969601
-0.020991497 -0.072595596 0.0077383816
-0.020259522 -0.073110446 0.010730952
-0.019191097 -0.072402775 0.012174547
-0.018160855 -0.071778625 0.012617797
-0.017051293 -0.070762873 0.013635606
-0.016562093 -0.072350197 0.013603836
-0.015530021 -0.071610659 0.013649046
-0.014690074 -0.071722127 0.013666809
-0.013741409 -0.071283564 0.013464838
-0.013058282 -0.072255827 0.013183564
-0.012067659 -0.071543984 0.012535125
-0.011198056 -0.071495287 0.010428488
-0.011412362 -0.078935504 0.0071160793
0.0068375343 -0.081073619 0.0089064837
0.0068116183 -0.070670545 0.011365414
0.0077808653 -0.071756877 0.012826473
0.0087493649 -0.072619736 0.013506114
0.0094352793 -0.071193479 0.014136344
0.010351047 -0.071594745 0.014785618
0.011142202 -0.071138673 0.014876425
0.012086038 -0.071652941 0.015276015
0.012839017 -0.071042567 0.015139461
0.013644047 -0.070778497 0.014913052
0.014592721 -0.071246818 0.014188945
0.015647046 -0.072150275 0.013779849
0.016303735 -0.071221583 0.012945652
0.017465144 -0.072480351 0.010692835
-0.020361416 -0.072592877 0.0093553066
-0.019178255 -0.071482591 0.011052132
-0.018447926 -0.072034761 0.012465984
-0.017133689 -0.070248127 0.01364395
-0.016429689 -0.070907079 0.013732135
-0.015615028 -0.071135134 0.013900697
-0.014662832 -0.070726603 0.013941497
-0.013681347 -0.070116907 0.013704181
-0.013132784 -0.07179255 0.0134978
-0.01244805 -0.072910011 0.013048351
-0.011060004 -0.069763102 0.012058765
-0.010592605 -0.072382808 0.010591209
-0.010604501 -0.07905174 0.0078411698
-0.0095909014 -0.078645401 0.0050083995
0.0048595434 -0.079696514 0.0057122707
0.0058036656 -0.079316773 0.0089064837
0.005960037 -0.06981758 0.011235863
0.0069200974 -0.070931002 0.012522548
0.0078744702 -0.07174518 0.013766646
0.0086366488 -0.070820525 0.01382488
0.0093985638 -0.070062026 0.014154524
0.010439276 -0.071335055 0.01445061
0.011157798 -0.070379958 0.014422089
0.012062757 -0.070653297 0.014795214
0.012804172 -0.069996141 0.01445061
0.013812182 -0.07078743 0.014223695
0.014745014 -0.071123011 0.013779849
0.015553801 -0.070856214 0.012956977
0.016358264 -0.070598826 0.011565208
0.018007139 -0.073829278 0.0054553747
-0.02046741 -0.072080873 0.0068871975
-0.019120652 -0.070398763 0.010219753
-0.018408045 -0.071002461 0.011768699
-0.017482292 -0.070803277 0.01356107
-0.016531851 -0.070477888 0.013529807
-0.015452852 -0.069537833 0.013952941
-0.014649691 -0.069801465 0.014110893
-0.013850459 -0.070117943 0.014195353
-0.013019158 -0.070303448 0.01411131
-0.011990886 -0.069375835 0.013966799
-0.0113931 -0.070987776 0.013880551
-0.010387031 -0.070112459 0.013261229
-0.0092539852 -0.06814298 0.01120016
-0.0094139669 -0.076253131 0.0098692477
-0.0089096921 -0.080187231 0.0069628656
0.0028871726 -0.077953659 0.005746305
0.0039137839 -0.079254121 0.0068660378
0.0045457999 -0.073641956 0.0099360943
0.00513855 -0.069370419 0.011478722
0.0060118902 -0.069566153 0.012544245
0.0069999639 -0.070874631 0.013744712
0.0077912086 -0.070120879 0.014005452
0.0086342981 -0.069937818 0.014044851
0.0093768723 -0.069047876 0.014257133
0.010335418 -0.06976407 0.014334083
0.011179557 -0.069657236 0.01426509
0.012148089 -0.070285365 0.014326602
0.013030804 -0.070366338 0.013727248
0.013722426 -0.06946978 0.013665646
0.014540062 -0.069279112 0.013113499
0.015834363 -0.071254633 0.011984497
0.016625997 -0.070879243 0.0090475976
-0.019497655 -0.070900567 0.0078944564
-0.018492162 -0.070446327 0.010631442
-0.017481171 -0.069924682 0.012465984
-0.016486494 -0.069416814 0.013308436
-0.015593637 -0.069305055 0.013649046
-0.014662858 -0.069001682 0.013952374
-0.013668829 -0.068344139 0.014401406
-0.01276015 -0.068054132 0.014401406
-0.011999188 -0.068566784 0.014176548
-0.011221474 -0.069055222 0.014401406
-0.010532619 -0.07021746 0.014013231
-0.0095740426 -0.069629401 0.013113588
-0.0084537724 -0.067630179 0.011614799
-0.0076841475 -0.068303533 0.010398209
-0.0075160209 -0.075160205 0.0098098516
-0.00690825 -0.078951426 0.008161068
-0.005874597 -0.078327961 0.0068894029
-0.0050203148 -0.080325037 0.0067767799
-0.0039357659 -0.078715317 0.0050819516
-0.0029743076 -0.079314865 0.0050537586
-0.00098350749 -0.078680597 0.0050712228
0 -0.077499352 0.0061002672
0.00097926229 -0.078340985 0.0068586767
0.0019616161 -0.078464642 0.0072525442
0.0028216639 -0.075244375 0.0089809597
0.0033876235 -0.067752466 0.011391193
0.0042176745 -0.067482792 0.012369275
0.0051977108 -0.069302812 0.013634294
0.0061332267 -0.070094019 0.013761818
0.0069765663 -0.069765657 0.013981044
0.0077255731 -0.068671763 0.014290869
0.0086133676 -0.068906941 0.01421392
0.009340642 -0.067931935 0.014252126
0.010280169 -0.068534456 0.014290869
0.011344222 -0.069810599 0.014087558
0.012123004 -0.069274306 0.013934672
0.012849777 -0.068532147 0.013257116
0.01364971 -0.068248548 0.013114005
0.014889331 -0.070067436 0.011934817
0.015623742 -0.069438852 0.0098614097
-0.019739551 -0.070882931 0.0056465864
-0.018425709 -0.069315761 0.0092755854
-0.017554035 -0.069338441 0.011443913
-0.01643078 -0.068317451 0.012463063
-0.015686059 -0.068844371 0.013475746
-0.0147928 -0.068743005 0.014041811
-0.014023478 -0.06924092 0.014326572
-0.012675677 -0.066758566 0.014334738
-0.012249319 -0.06912116 0.014418125
-0.011090811 -0.067398004 0.014602333
-0.01044222 -0.068744607 0.014362127
-0.0096549187 -0.069339871 0.013759285
-0.0087364903 -0.069018275 0.013207883
-0.0077965464 -0.068436354 0.011998951
-0.0068196137 -0.067343682 0.011666089
-0.0058694598 -0.066241048 0.010504425
-0.0052113212 -0.068615727 0.010118037
-0.0044308398 -0.070007272 0.0096702874
-0.0036923969 -0.072924837 0.0096117556
-0.0028350365 -0.074655965 0.0090210736
-0.0018962739 -0.074902818 0.0086984634
-0.00091004028 -0.071893178 0.009116143
0 -0.068963408 0.009375453
0.00086086831 -0.068008594 0.010220259
0.0016912132 -0.066802919 0.010064632
0.0025541887 -0.067260303 0.011441946
0.0034442751 -0.068024427 0.013634294
0.0043061245 -0.068036765 0.013760775
0.0052691009 -0.069376498 0.013903946
0.0059557082 -0.067214422 0.014308751
0.0069310968 -0.06844458 0.014376611
0.0078514479 -0.068918265 0.014440745
0.0084835272 -0.067019865 0.014346629
0.0094832387 -0.068106897 0.014339119
0.010314498 -0.067903779 0.014193743
0.011125788 -0.067610562 0.013849884
0.012144695 -0.068530776 0.013543427
0.013080087 -0.068888456 0.013004333
0.013868543 -0.068475932 0.012304306
0.014786704 -0.068714678 0.0099623501
-0.018833529 -0.069953106 0.00714764
-0.017435584 -0.067998782 0.010267019
-0.016519174 -0.067815557 0.01193741
-0.015469602 -0.067034945 0.013039291
-0.01490753 -0.068399251 0.013706058
-0.013815764 -0.067351848 0.014431179
-0.013010003 -0.067652009 0.014451683
-0.011863206 -0.066095002 0.014524192
-0.011309117 -0.067854702 0.01487422
-0.01034593 -0.067248546 0.014801085
-0.0093146376 -0.066049248 0.014046133
-0.0084360791 -0.065801419 0.013973534
-0.007819077 -0.067765333 0.013614476
-0.007026758 -0.06851089 0.013059765
-0.0061826203 -0.068892054 0.012769431
-0.0052640499 -0.068432651 0.011618435
-0.0042656697 -0.066544451 0.011424601
-0.003441833 -0.067115739 0.011598289
-0.0025528821 -0.066374935 0.01134336
-0.0017248088 -0.067267545 0.011503279
-0.00085678656 -0.066829354 0.01174444
0 -0.067217007 0.012270838
0.00087204785 -0.068019733 0.012363046
0.0017361799 -0.067711018 0.012815952
0.0025975876 -0.067537278 0.013587952
0.0034356089 -0.066994376 0.01379776
0.0043153404 -0.067319311 0.014019787
0.0052166553 -0.067816518 0.014271975
0.0060004089 -0.066861697 0.014339119
0.0069568688 -0.067829467 0.014517397
0.0076752966 -0.066519238 0.014430225
0.0085832616 -0.066949442 0.01412183
0.0095476024 -0.067701183 0.013962895
0.01054119 -0.068517737 0.013671905
0.011071939 -0.066431634 0.013168752
0.012313718 -0.068604998 0.012957811
0.012990267 -0.067549385 0.012222737
0.013909534 -0.067808971 0.010180563
0.014877034 -0.068259336 0.0057432353
-0.017808512 -0.068562776 0.0082612932
-0.016118901 -0.065323964 0.010267019
-0.01582244 -0.067684881 0.011382759
-0.014744637 -0.066784531 0.013142079
-0.013725519 -0.066054061 0.013639897
-0.012899391 -0.066216871 0.014273256
-0.012032105 -0.066176578 0.014346808
-0.011155683 -0.066075966 0.014676064
-0.010220762 -0.065583222 0.014646292
-0.0095849773 -0.06709484 0.014093101
-0.0087907854 -0.067689046 0.014001906
-0.0076244646 -0.065231532 0.013774157
-0.0068111732 -0.065557539 0.01319626
-0.0060740332 -0.06681437 0.013049752
-0.0052219643 -0.067015208 0.012850523
-0.0044011753 -0.067778103 0.012212068
-0.0034918175 -0.067217484 0.012866586
-0.0026110152 -0.067016058 0.012744874
-0.00175651 -0.067625634 0.012432605
-0.00086628774 -0.066704154 0.012564003
0 -0.066418506 0.012980014
0.00086257537 -0.066418305 0.012883097
0.0017045381 -0.065624714 0.013627678
0.0025463505 -0.065356329 0.013646573
0.0033694364 -0.064861648 0.013866842
0.0042464072 -0.06539467 0.014061093
0.0051637706 -0.066268392 0.014267623
0.0061855065 -0.068040572 0.014221877
0.0070247706 -0.067613415 0.01412183
0.007589445 -0.064931922 0.014077097
0.0088195167 -0.067910284 0.01399067
0.0095230872 -0.066661611 0.013690442
0.010398159 -0.066721514 0.013330758
0.01132373 -0.067071319 0.012960523
0.012011997 -0.066065989 0.01228112
0.013030431 -0.066889547 0.0098895431
0.013986858 -0.067311749 0.0081998408
-0.017446948 -0.066298403 0.0066885948
-0.016836906 -0.067347623 0.0081671178
-0.01556473 -0.065717757 0.01056996
-0.014733115 -0.065865695 0.011911184
-0.013644688 -0.064812265 0.013170302
-0.01284158 -0.065064006 0.013548881
-0.012135713 -0.065879591 0.01424253
-0.011230876 -0.065657429 0.014435083
-0.010275052 -0.06507533 0.014198303
-0.0095492154 -0.065976396 0.013955384
-0.0086900378 -0.066044286 0.013908058
-0.0077783619 -0.065683946 0.013475716
-0.0069973455 -0.06647478 0.013024718
-0.0059279958 -0.064361103 0.013053119
-0.0051834029 -0.065656438 0.012744874
-0.0042878995 -0.06517607 0.012678057
-0.0034951058 -0.06640701 0.012902498
-0.0025744811 -0.065220192 0.012734354
-0.0016949013 -0.064406253 0.012688488
-0.00086333288 -0.0656133 0.012723237
0 -0.065791048 0.01308319
0.00086111639 -0.065444842 0.012972176
0.0017224569 -0.065453358 0.013778746
0.0026097037 -0.066112496 0.013705671
0.0034347256 -0.065259784 0.0138686
0.0043588802 -0.066254981 0.014031202
0.0051801684 -0.065615468 0.014035672
0.0059757922 -0.064880028 0.013950706
0.0069082254 -0.065628141 0.013990939
0.007706135 -0.065074034 0.013893783
0.0087684877 -0.066640511 0.013168752
0.0094352597 -0.065189071 0.012977719
0.010323194 -0.065380231 0.012334555
0.011300928 -0.066066965 0.011203974
0.012149124 -0.06595239 0.0097786188
0.012978069 -0.065755546 0.0083024502
-0.016838877 -0.066469245 0.0071955621
-0.015926376 -0.066359907 0.0088855624
-0.014967836 -0.066034578 0.0099667609
-0.013972838 -0.065497681 0.011254191
-0.01301901 -0.065095052 0.012675792
-0.012049836 -0.064552695 0.013281584
-0.0111332 -0.064230002 0.013445944
-0.010319987 -0.064499922 0.013614476
-0.0095153423 -0.064877339 0.013612419
-0.0087760771 -0.065820582 0.013691872
-0.0077641099 -0.064700924 0.012939483
-0.0068562464 -0.064277314 0.01277405
-0.0061186128 -0.065556571 0.012862176
-0.0052565965 -0.065707453 0.012663215
-0.0043111267 -0.064666905 0.01267612
-0.0034787201 -0.065226004 0.012913585
-0.0026157473 -0.065393686 0.01281625
-0.0017509297 -0.065659866 0.012701541
-0.00085977081 -0.064482816 0.01281172
0 -0.066074185 0.013089329
0.00086834101 -0.065125577 0.012998432
0.001713533 -0.064257488 0.01309377
0.0025751151 -0.064377882 0.01384294
0.003464577 -0.064960822 0.013901561
0.0043312022 -0.064968042 0.013905525
0.0051634731 -0.064543419 0.013940096
0.0059827091 -0.064100452 0.013774931
0.0069060996 -0.064744689 0.013332933
0.0077565596 -0.064638004 0.013322592
0.0087604998 -0.06570375 0.012640804
0.0094362609 -0.064338148 0.011755764
0.010560807 -0.066005044 0.010807484
0.011270253 -0.065020688 0.0099810958
0.012295529 -0.065868907 0.0089259148
0.013278637 -0.066393189 0.0054991841
-0.015853744 -0.065176509 0.006768018
-0.01500104 -0.065298647 0.0088646412
-0.014061558 -0.06503471 0.0096833706
-0.013023963 -0.064251557 0.010635823
-0.012155086 -0.064248316 0.011879325
-0.011227797 -0.063912079 0.012839675
-0.010364903 -0.063916907 0.012766749
-0.0093996301 -0.063233875 0.012988359
-0.0087422626 -0.064692751 0.013078779
-0.0077158115 -0.06344112 0.012823164
-0.0069063292 -0.06388355 0.012761772
-0.0059111239 -0.062489025 0.012613237
-0.0052197534 -0.064376958 0.012266874
-0.004331653 -0.064108469 0.012318254
-0.003470693 -0.064207822 0.012804359
-0.0026331129 -0.064950123 0.012814999
-0.0017366083 -0.064254515 0.012580007
-0.00087538717 -0.064778656 0.012603074
0 -0.063381217 0.013020784
0.00084804633 -0.062755428 0.012699336
0.0017138245 -0.063411511 0.012883335
0.0025719574 -0.063441619 0.012898058
0.0035167385 -0.065059669 0.013397366
0.0043298546 -0.064081855 0.013140321
0.0050744307 -0.062584646 0.013128847
0.0061402502 -0.064911216 0.012572795
0.0068492601 -0.063355662 0.012705624
0.0077066408 -0.06336572 0.01228109
0.0086817229 -0.064244755 0.01199314
0.0095117101 -0.063987873 0.010483772
0.01064107 -0.065619938 0.0099265873
