ply
format ascii 1.0
comment PCL generated
element vertex 1258
property float x
property float y
property float z
element camera 0
property float view_px
property float view_py
property float view_pz
property float x_axisx
property float x_axisy
property float x_axisz
property float y_axisx
property float y_axisy
property float y_axisz
property float z_axisx
property float z_axisy
property float z_axisz
property float focal
property float scalex
property float scaley
property float centerx
property float centery
property int viewportx
property int viewporty
property float k1
property float k2
end_header
-0.012880838 -0.053240795 0.010048687
-0.01211676 -0.053659938 0.013292193
-0.011215406 -0.053488862 0.013610423
-0.010284809 -0.053138182 0.013649076
-0.0094337035 -0.053171784 0.013828456
-0.0085579697 -0.053059414 0.014490008
-0.0076657515 -0.052808516 0.013987482
-0.0068625505 -0.053184766 0.013936639
-0.0060227187 -0.053344082 0.013923287
-0.0051451833 -0.053166896 0.013923287
-0.0042838799 -0.053120114 0.013692141
-0.0034349107 -0.053241115 0.013692141
-0.0025897953 -0.053522438 0.013692141
-0.0017102876 -0.05301892 0.013963163
-0.00085099397 -0.052761629 0.014362544
0 -0.053389419 0.013822287
0.00084912602 -0.052645817 0.013989568
0.0017106492 -0.05303013 0.014185041
0.0025686459 -0.053085353 0.01383996
0.0034064713 -0.052800309 0.013952047
0.0042094695 -0.052197423 0.014380097
0.0051509673 -0.053226665 0.014149219
0.0059982585 -0.053127434 0.013653904
0.0068080896 -0.052762695 0.013452232
0.0076982817 -0.053032611 0.012468636
0.0084338794 -0.052290052 0.010067493
0.0094780959 -0.053421997 0.0062062442
-0.016165951 -0.054784615 0.0054054856
-0.014513883 -0.052079223 0.0087817609
-0.013881224 -0.052922167 0.013077915
-0.013014878 -0.05292717 0.014147639
-0.01210022 -0.052722387 0.014433891
-0.01123606 -0.05272305 0.014748544
-0.010222874 -0.051966272 0.015082479
-0.0095585408 -0.053006452 0.015425265
-0.0085955299 -0.052432731 0.01550433
-0.0077743912 -0.052693099 0.015359789
-0.0069957855 -0.053342864 0.015801132
-0.0060241357 -0.052496038 0.015460223
-0.0051713446 -0.052575335 0.015028268
-0.0042930231 -0.052374884 0.014670074
-0.0034410227 -0.052475594 0.01449427
-0.0025723234 -0.052303907 0.014594704
-0.0017076749 -0.052084085 0.014796406
-0.00087078358 -0.053117797 0.015232146
0 -0.052272253 0.015021235
0.00086764916 -0.052926596 0.015154809
0.0017411895 -0.053106278 0.015033841
0.0026242218 -0.053359177 0.014646471
0.0034188414 -0.05213733 0.014601082
0.0042538447 -0.051896907 0.014706641
0.0051854486 -0.052718725 0.014604241
0.0059549459 -0.0518931 0.0146119
0.0069504646 -0.052997291 0.014267296
0.0076778489 -0.052038755 0.013791174
0.0085732331 -0.052296724 0.013310134
0.0093616825 -0.051914785 0.01114136
0.010180937 -0.0517531 0.0075539052
0.011742803 -0.055100843 0.0051038265
-0.015431309 -0.051437702 0.0084273517
-0.014710766 -0.051920351 0.013166338
-0.014134113 -0.05300292 0.014220029
-0.013002509 -0.052010037 0.01457864
-0.01214603 -0.052054413 0.015100002
-0.011330313 -0.052293755 0.015407443
-0.010467506 -0.052337531 0.015227586
-0.0094553176 -0.051574461 0.015738606
-0.0086306566 -0.051783942 0.015597254
-0.0076448764 -0.050965846 0.015496761
-0.0068941913 -0.051706433 0.015868336
-0.0060331156 -0.05171242 0.015790403
-0.0052416301 -0.052416302 0.015532047
-0.0043359133 -0.052030962 0.015308559
-0.0034328885 -0.051493328 0.014935613
-0.0026137955 -0.052275911 0.014859408
-0.0017071003 -0.051213007 0.014883131
-0.00086513575 -0.051908143 0.015315145
0 -0.05153564 0.015282869
0.00085693481 -0.051416088 0.015313804
0.0017136127 -0.05140838 0.014887363
0.0025671236 -0.051342472 0.014684558
0.0034205876 -0.051308814 0.014761657
0.0042906911 -0.051488295 0.014808059
0.0051917061 -0.051917065 0.015116066
0.0060833385 -0.052142903 0.015102148
0.0068855095 -0.051641323 0.014612764
0.0077544763 -0.051696513 0.014337808
0.0085299844 -0.051179908 0.013974875
0.0094937757 -0.051784232 0.013584077
0.010311274 -0.051556371 0.012326002
0.011156376 -0.051490963 0.00862661
0.013463903 -0.057702441 0.0051530898
-0.016446093 -0.05106945 0.0082325935
-0.015377252 -0.050403219 0.013562679
-0.014687422 -0.050973993 0.014378875
-0.013639682 -0.050296329 0.015301973
-0.013044307 -0.051307611 0.015452981
-0.012178297 -0.051322825 0.015272945
-0.011125944 -0.050494667 0.015620172
-0.010091445 -0.049616273 0.015575826
-0.0094640628 -0.050761793 0.015840769
-0.0086723901 -0.051167104 0.015918702
-0.0076785954 -0.05033746 0.015818208
-0.0070337253 -0.051873725 0.016151547
-0.0060483986 -0.050979361 0.015588045
-0.0051313485 -0.050458264 0.015670389
-0.0043830313 -0.05171977 0.0151245
-0.0034918035 -0.051504102 0.014980674
-0.0025561142 -0.050270248 0.014770508
-0.0017544108 -0.051755119 0.014800131
-0.00086394249 -0.050972607 0.015204102
0 -0.050634652 0.015028864
0.00086762215 -0.051189706 0.015213519
0.0016977079 -0.050082386 0.014887393
0.0025877827 -0.050893065 0.014771432
0.0033977043 -0.05011614 0.014791071
0.0042952681 -0.050684165 0.015347213
0.0050799591 -0.049952932 0.015124261
0.0060319328 -0.050840575 0.01504457
0.0069126207 -0.050980579 0.014780849
0.0077323299 -0.05068972 0.014725417
0.0085644452 -0.050530229 0.014216185
0.0094793187 -0.050843619 0.013918519
0.010356991 -0.050921869 0.013215154
0.011289757 -0.051238127 0.012322545
0.012133565 -0.051134311 0.0083044767
-0.017700326 -0.05133095 0.0083524585
-0.016353473 -0.049921133 0.012795746
-0.015567218 -0.050161041 0.014443874
-0.014705997 -0.050173402 0.015362591
-0.013720774 -0.049737807 0.016033947
-0.012720621 -0.049186401 0.015981942
-0.012047561 -0.049911328 0.016171634
-0.011220875 -0.05006237 0.016207218
-0.010575668 -0.051115733 0.015930653
-0.009466785 -0.049915776 0.016117334
-0.0086133564 -0.049957469 0.016274601
-0.007830116 -0.050460752 0.015922993
-0.0069773584 -0.050585847 0.016151547
-0.0059580691 -0.049366858 0.015588045
-0.0052175377 -0.050436202 0.015460283
-0.0043121921 -0.050021432 0.015022337
-0.0035046388 -0.050817262 0.014772028
-0.0026269061 -0.050786857 0.014633536
-0.0017352462 -0.050322138 0.014772087
-0.00086877757 -0.0503891 0.015144706
0 -0.050221261 0.014829159
0.00085139845 -0.049381111 0.015213519
0.0017123155 -0.049657151 0.014955461
0.0025783908 -0.049848888 0.014831573
0.0033714047 -0.048885368 0.014831573
0.0042403876 -0.049188502 0.015347213
0.0051494762 -0.049778275 0.015175164
0.0059694722 -0.049461346 0.015078276
0.0069242655 -0.050200928 0.014950693
0.0077236951 -0.049774926 0.014908135
0.0085940519 -0.049845506 0.014629692
0.0096048014 -0.0506435 0.014352411
0.010171779 -0.049163602 0.013918519
0.011213819 -0.050030883 0.013172477
0.012097375 -0.050117701 0.011289716
0.013605267 -0.052607033 0.0071004331
-0.02007453 -0.054488007 0.0051141381
-0.017183209 -0.048972148 0.01155591
-0.016397029 -0.049191084 0.01420626
-0.015609598 -0.049430396 0.015302688
-0.014827025 -0.049714144 0.015437961
-0.013664797 -0.048680838 0.01592803
-0.012961264 -0.049252801 0.01586625
-0.012141328 -0.04943255 0.015496761
-0.011118936 -0.048752259 0.015877545
-0.010365789 -0.049237497 0.015588313
-0.0094867107 -0.049158409 0.015742958
-0.0086513897 -0.049312923 0.015379459
-0.007759003 -0.049140353 0.015349805
-0.0069223573 -0.049321797 0.014958143
-0.0060831136 -0.049533926 0.014219284
-0.0051690354 -0.049105834 0.013936639
-0.0043272916 -0.049331125 0.013706148
-0.003474243 -0.049507961 0.01370728
-0.0026213119 -0.049804926 0.013670743
-0.0017134014 -0.04883194 0.013633519
-0.00087210181 -0.049709801 0.013903767
0 -0.049703076 0.013750553
0.00086310739 -0.049197119 0.014043331
0.0017037431 -0.048556678 0.014254361
0.0025903452 -0.049216561 0.014396846
0.0033923909 -0.048341569 0.014499664
0.004332724 -0.049393058 0.014971167
0.0051219552 -0.048658576 0.015165329
0.0060619889 -0.049361907 0.015163898
0.0068311025 -0.048671603 0.015048832
0.0077698659 -0.049209151 0.015105098
0.0086598387 -0.04936108 0.014993459
0.0094694532 -0.049068984 0.014949858
0.010391131 -0.049357872 0.014502674
0.011209137 -0.049147751 0.014211178
0.011950446 -0.048655387 0.013494909
0.012901543 -0.049025863 0.011289716
0.01570501 -0.055949099 0.0067727864
-0.017950093 -0.047866914 0.0092978179
-0.017273583 -0.048366033 0.012795746
-0.016788924 -0.049483143 0.014540106
-0.015669286 -0.048748892 0.015335649
-0.014697788 -0.048416242 0.015337676
-0.013703312 -0.047961593 0.015640408
-0.012858935 -0.048006691 0.015803993
-0.012001893 -0.048007574 0.015370071
-0.011442123 -0.049289145 0.015811294
-0.010132522 -0.047285106 0.015352488
-0.0094853453 -0.048289035 0.014568448
-0.0088360915 -0.049482115 0.014513701
-0.0077258269 -0.048071813 0.013681561
-0.0068725897 -0.048108127 0.013221622
-0.0060945172 -0.048756137 0.01277566
-0.0051704627 -0.048257653 0.012362778
-0.0043315073 -0.048512883 0.012280613
-0.0035447665 -0.04962673 0.012463212
-0.0026539217 -0.049539872 0.012326241
-0.0017330768 -0.048526149 0.012052029
-0.00087705359 -0.049115002 0.012265623
0 -0.04841515 0.011858135
0.00086914294 -0.048672006 0.012279451
0.0017115794 -0.047924221 0.012671769
0.0026013867 -0.048559219 0.013116449
0.0034087822 -0.047722951 0.013396442
0.0042726351 -0.047853515 0.013848633
0.0050998176 -0.047598299 0.014090657
0.0060459133 -0.048367307 0.014308602
0.0069344142 -0.048540898 0.014548928
0.0078160223 -0.048633032 0.014571637
0.0086513655 -0.048447646 0.014279395
0.0093140313 -0.047416888 0.014320642
0.010351267 -0.048305914 0.014216185
0.011275783 -0.048572607 0.014084399
0.011932611 -0.047730446 0.013641089
0.012973893 -0.048435863 0.012639165
0.013727447 -0.048046064 0.0093600154
-0.019884959 -0.049712401 0.0061113238
-0.018124679 -0.047469396 0.011555821
-0.017497854 -0.048119102 0.013288826
-0.01629935 -0.047182329 0.014895946
-0.015596399 -0.047655668 0.014761925
-0.014812566 -0.047923006 0.015038311
-0.013655818 -0.046941876 0.0153777
-0.013069755 -0.04792244 0.015288532
-0.012111623 -0.047581378 0.014671594
-0.011135982 -0.047113772 0.014748544
-0.010385219 -0.047598921 0.013812125
-0.0093763163 -0.046881583 0.013438106
-0.0086241141 -0.047432628 0.013458341
-0.0078958627 -0.048252497 0.01262778
-0.0070952508 -0.048779849 0.012201607
-0.0062720473 -0.049280372 0.011627913
-0.0053034122 -0.04861461 0.011242807
-0.0044465382 -0.048911922 0.011207402
-0.003556604 -0.048903305 0.011366159
-0.0026990417 -0.049482435 0.010899514
-0.0017672527 -0.048599448 0.010951608
-0.00089166861 -0.049041774 0.010980964
0 -0.047965467 0.010726392
0.00090314593 -0.049673028 0.0108459
0.001761212 -0.04843333 0.011467993
0.0026421398 -0.048439231 0.012537867
0.0034449771 -0.047368433 0.012655228
0.0042852634 -0.047137897 0.01344642
0.0051867184 -0.047544919 0.013834715
0.0060906718 -0.04785528 0.013987511
0.0068357922 -0.046996072 0.014320642
0.0078050932 -0.047697794 0.014294893
0.0085733868 -0.047153629 0.014291018
0.0093982359 -0.046991181 0.014314324
0.010453328 -0.047911089 0.014231682
0.011230954 -0.047515575 0.014162004
0.0120364 -0.047285859 0.013848633
0.012892281 -0.047271699 0.013194919
0.013578556 -0.046676289 0.011661708
0.016281817 -0.052676469 0.0080903769
-0.018910617 -0.046416972 0.010662198
-0.01813706 -0.046638157 0.012429029
-0.017577324 -0.047458779 0.014064342
-0.016293321 -0.046307337 0.014703006
-0.015784157 -0.047352474 0.014761925
-0.014687164 -0.046653345 0.014937371
-0.013778239 -0.046501562 0.015092373
-0.013206366 -0.047542918 0.014884025
-0.012053104 -0.046490546 0.013989896
-0.011251195 -0.046735737 0.013591796
-0.010479291 -0.047156811 0.013102114
-0.0097960625 -0.048089765 0.013079315
-0.0087574795 -0.047290392 0.012595624
-0.0079632038 -0.047779229 0.011051416
-0.006862727 -0.046323407 0.010711908
-0.0062386193 -0.048126493 0.010506332
-0.0052167294 -0.046950568 0.0097072721
-0.004392134 -0.047435053 0.0095271766
-0.0035449839 -0.047857281 0.0095254481
-0.0026700338 -0.048060611 0.0092965961
-0.0017500783 -0.047252115 0.0091757476
-0.00089788873 -0.048485994 0.0089927316
0 -0.047686685 0.0086799264
0.00088163384 -0.047608227 0.0097047389
0.0017416185 -0.047023702 0.010187775
0.0026404855 -0.047528744 0.011146188
0.0035261312 -0.047602773 0.011298418
0.0043746117 -0.047245812 0.012094229
0.0050706319 -0.045635689 0.012871623
0.0060229255 -0.046462569 0.013252765
0.0069506923 -0.046917174 0.013834715
0.0077843233 -0.046705943 0.013906747
0.0085835019 -0.046350915 0.01390782
0.0095076896 -0.046674114 0.013985276
0.010457546 -0.047058959 0.013978481
0.011144415 -0.046292186 0.013912141
0.01213427 -0.046803612 0.013662994
0.012933725 -0.046561409 0.012901992
0.01362753 -0.045992915 0.012325853
0.014532184 -0.046161056 0.0094533563
-0.020265309 -0.046698317 0.0084386766
-0.018907517 -0.045549929 0.011904955
-0.018359775 -0.046336573 0.013197631
-0.017266732 -0.045756835 0.014364809
-0.016453538 -0.045896709 0.014553994
-0.015731722 -0.046321183 0.014630765
-0.014885 -0.046406172 0.014588922
-0.013995367 -0.046359651 0.014437199
-0.012866387 -0.045461234 0.013971835
-0.012000394 -0.04543006 0.013354331
-0.011324789 -0.046170294 0.013114989
-0.010549434 -0.046593335 0.012547433
-0.009762058 -0.04703537 0.011943102
-0.0087319538 -0.046279356 0.010491371
-0.0078575844 -0.046272442 0.0095873177
-0.0071023717 -0.04705321 0.0094318986
-0.0061255936 -0.046379492 0.0086923838
-0.0052822684 -0.046660036 0.00819996
-0.0044129188 -0.046776939 0.0080738068
-0.0035224541 -0.046672516 0.0079975128
-0.0026542281 -0.046891365 0.0076448917
-0.0017558518 -0.046530072 0.0073380172
-0.00087436754 -0.046341479 0.0072475672
0 -0.046357639 0.0073252022
0.00087569735 -0.046411958 0.0075220168
0.0017570606 -0.046562105 0.0081043839
0.0026651083 -0.047083583 0.0096634328
0.0034762747 -0.046060637 0.0099356771
0.0043521738 -0.046133041 0.010778099
0.0052713891 -0.046563938 0.011245608
0.0061920155 -0.046882402 0.011880189
0.0068993079 -0.045707915 0.013239056
0.0078581292 -0.046275649 0.013388902
0.0087132212 -0.046180069 0.013591707
0.0095054945 -0.045799199 0.013699442
0.010474754 -0.046263497 0.013716817
0.011204623 -0.045680381 0.013716817
0.011969101 -0.045311596 0.013769507
0.012901725 -0.045586094 0.013377875
0.013529563 -0.044816677 0.012848169
0.014414774 -0.044940177 0.01112926
0.015980639 -0.047054105 0.0075629354
-0.01988305 -0.044952981 0.011538863
-0.019314745 -0.045653034 0.012399554
-0.018281989 -0.045269687 0.013860226
-0.017552508 -0.045636524 0.014233559
-0.016539168 -0.045265086 0.014553994
-0.015599784 -0.045066044 0.014490038
-0.014710065 -0.04499549 0.014163673
-0.01374273 -0.044663873 0.014170408
-0.012812526 -0.044416755 0.013563573
-0.012445886 -0.046227574 0.013304293
-0.011427433 -0.045709733 0.012757391
-0.010610857 -0.045980379 0.011366129
-0.0096847536 -0.045782473 0.01030919
-0.0089741442 -0.046665549 0.0093909502
-0.0078704553 -0.045473747 0.0080909729
-0.007022927 -0.045649026 0.007956624
-0.0061588865 -0.045751728 0.0076041222
-0.0051954584 -0.045027308 0.0058816075
-0.0044052727 -0.045814838 0.0055120587
-0.0035332646 -0.045932438 0.0056721568
-0.0026859215 -0.046555974 0.0053046346
0.00087217049 -0.045352865 0.0053166747
0.0017708091 -0.046041034 0.0063644052
0.0026721356 -0.046317019 0.0076570809
0.0034529686 -0.04488859 0.0083786845
0.0044122259 -0.04588715 0.009316206
0.0052549513 -0.045542911 0.0095737278
0.0060941363 -0.045270726 0.01025632
0.0070224432 -0.045645878 0.012094229
0.0076827537 -0.044389244 0.012925625
0.0085576558 -0.044499811 0.013186693
0.0094859526 -0.044842687 0.01354757
0.010374416 -0.044955801 0.013657779
0.011150094 -0.044600375 0.013754159
0.012190386 -0.045278575 0.013793051
0.013029149 -0.045167714 0.013535112
0.013638325 -0.044324558 0.013423949
0.014615579 -0.044706475 0.012324542
0.015233357 -0.044007476 0.010919064
-0.020587342 -0.043748103 0.0090814531
-0.019917104 -0.044164013 0.011730462
-0.019336788 -0.044826191 0.013050377
-0.018237025 -0.044289913 0.013931811
-0.017213706 -0.043894954 0.014186442
-0.016910592 -0.045391586 0.014241278
-0.015411111 -0.043664817 0.014024496
-0.014894499 -0.044683497 0.013699561
-0.013926939 -0.04439212 0.013563573
-0.012958922 -0.044060338 0.01266703
-0.012201013 -0.044446547 0.011862069
-0.011592159 -0.045476932 0.011261523
-0.010420503 -0.044287141 0.009444654
-0.0095714256 -0.044376612 0.0081846714
-0.0088246074 -0.045005497 0.0077233911
-0.0078353947 -0.044400573 0.0062265098
-0.0070686908 -0.045062907 0.0056016743
-0.0063648853 -0.046372734 0.0051605403
0.0035585766 -0.045371853 0.0065602362
0.004367657 -0.044550106 0.0074201226
0.0052497205 -0.044622622 0.0082324147
0.006285721 -0.045795966 0.0090847015
0.0069724168 -0.044449158 0.010311931
0.0079001589 -0.04476757 0.011297733
0.0086698094 -0.044216033 0.012438953
0.0095261997 -0.044166926 0.012893468
0.010556899 -0.044866823 0.013099253
0.011177199 -0.043849014 0.013244778
0.01211469 -0.044132087 0.013389349
0.013006977 -0.044223718 0.013355941
0.013714196 -0.043714002 0.013335556
0.01444555 -0.043336648 0.012524307
0.015555769 -0.044074684 0.01189816
0.016527172 -0.044362407 0.0079343617
-0.021093808 -0.043945435 0.011196911
-0.02022754 -0.043972913 0.012568682
-0.019276323 -0.043809827 0.013119429
-0.01822618 -0.043395665 0.013731658
-0.017559869 -0.043899674 0.01415205
-0.016806744 -0.044228274 0.01415205
-0.015662868 -0.043507967 0.013857454
-0.014736749 -0.04334338 0.013657331
-0.014026057 -0.04383143 0.013195306
-0.013274932 -0.044249777 0.011919647
-0.012337708 -0.044063244 0.011101902
-0.011603619 -0.044629306 0.0099535882
-0.010432447 -0.043468531 0.0081261694
-0.009710785 -0.044139937 0.0072618425
-0.0087741185 -0.043870598 0.0057374835
0.0044255811 -0.044255815 0.0056751668
0.005365693 -0.044714108 0.0068016946
0.0060365559 -0.043118257 0.0078693628
0.0070418501 -0.044011563 0.0090847015
0.0079233004 -0.044018336 0.010222018
0.008788636 -0.043943182 0.011044979
0.0094340192 -0.042881906 0.012259007
0.010370035 -0.04320848 0.012842953
0.011109129 -0.042727418 0.013157934
0.01229538 -0.043912075 0.013367027
0.012963851 -0.043212838 0.013303965
0.013523054 -0.042259544 0.013203651
0.014364733 -0.042249214 0.013009101
0.015605202 -0.043347787 0.011983871
0.016169429 -0.04255113 0.010416716
-0.021492831 -0.042125948 0.011105031
-0.020831969 -0.042531934 0.011649251
-0.020194773 -0.043023646 0.013119429
-0.01919709 -0.042757154 0.013372362
-0.018163178 -0.042380746 0.013645023
-0.017399577 -0.042628966 0.013761908
-0.016502865 -0.042560019 0.013797492
-0.015717693 -0.042787053 0.013500482
-0.015067101 -0.0434287 0.012783438
-0.013909374 -0.042597458 0.012155145
-0.013334312 -0.043558754 0.011089504
-0.012471027 -0.043648593 0.0095542073
-0.011199799 -0.042214628 0.0082894266
-0.010506041 -0.042899668 0.0065767765
-0.0099233761 -0.044204131 0.0052481592
0.0052453261 -0.04283683 0.0053851306
0.0061248094 -0.042873662 0.0067977905
0.0069205519 -0.04238838 0.0080879331
0.0079338821 -0.043195583 0.0091415346
0.0087289931 -0.042772066 0.010141015
0.00967847 -0.043113183 0.010804862
0.010349961 -0.042262342 0.012211204
0.011024434 -0.041553635 0.012723297
0.012301664 -0.043055821 0.013105482
0.013014065 -0.042512611 0.012818694
0.013988717 -0.042840447 0.012800306
0.014390691 -0.041479047 0.012800306
0.01528236 -0.041601982 0.01224795
0.01626624 -0.041949775 0.011443883
0.016998198 -0.041645586 0.00986287
-0.022662006 -0.041837551 0.007846266
-0.021419166 -0.041124798 0.011505842
-0.021305205 -0.042610411 0.012521565
-0.019590495 -0.04088451 0.013519973
-0.019125672 -0.041728739 0.013530314
-0.018214297 -0.041632678 0.013901561
-0.017294714 -0.041507315 0.013931811
-0.016557191 -0.041828692 0.013797492
-0.015695164 -0.041853774 0.01329577
-0.014812467 -0.041823436 0.012417227
-0.014158402 -0.042475201 0.011777639
-0.013399093 -0.0428771 0.010114282
-0.012154557 -0.041672766 0.0084412396
-0.011505208 -0.042480767 0.0065767765
-0.01075535 -0.0430214 0.0054959655
0.0070867753 -0.04252065 0.0066837072
0.0077003809 -0.041068699 0.0081721246
0.0089077195 -0.042757057 0.0091445744
0.0095222564 -0.041551664 0.0099001527
0.010509904 -0.042039614 0.010681063
0.011130773 -0.041098241 0.012079269
0.01197159 -0.04104545 0.012965798
0.012964406 -0.041486099 0.012870669
0.013667678 -0.041003034 0.013291359
0.014640743 -0.041338567 0.013275564
0.015532955 -0.041421212 0.013267905
0.016333135 -0.041262653 0.012026936
0.016980287 -0.04075269 0.010898679
0.018493619 -0.042271126 0.0056723356
-0.022421924 -0.040531941 0.011361599
-0.021568965 -0.040549651 0.012491316
-0.020861659 -0.040854085 0.01335451
-0.019920221 -0.040706538 0.013826221
-0.019306857 -0.04124647 0.013930231
-0.018319948 -0.041001786 0.013950914
-0.017100168 -0.040185396 0.01409322
-0.016457437 -0.040710501 0.013645023
-0.015681239 -0.040945455 0.012678623
-0.015093486 -0.041729048 0.011819094
-0.013851754 -0.040689528 0.010560304
-0.013004507 -0.040747456 0.0087396801
-0.012430098 -0.041729618 0.007022053
-0.011595913 -0.041923687 0.0054583549
0.0079614585 -0.041576508 0.0072458684
0.0087795593 -0.04126393 0.0080501437
0.0096489005 -0.041227121 0.0090468526
0.010658982 -0.041747678 0.010216862
0.011057704 -0.039977852 0.011660784
0.012132691 -0.040731177 0.012334138
0.013052617 -0.0408982 0.012784362
0.013584536 -0.039904576 0.013410568
0.014474276 -0.040017117 0.013610452
0.015440574 -0.040317055 0.013634145
0.016020687 -0.039630122 0.012750655
0.0171292 -0.040253621 0.011870533
0.018180246 -0.040689122 0.010171652
-0.023084812 -0.039329678 0.0095784068
-0.022370175 -0.039578002 0.012309313
-0.02169 -0.039909601 0.013372362
-0.021266717 -0.04076121 0.013489723
-0.019978773 -0.039957546 0.014035225
-0.019259149 -0.040269133 0.013833314
-0.018151145 -0.039759651 0.013907105
-0.017591493 -0.040460438 0.013627678
-0.01670013 -0.040431894 0.013383597
-0.015625814 -0.039932642 0.012231022
-0.014862193 -0.040215347 0.0117293
-0.014132699 -0.04063151 0.010033071
-0.012830259 -0.039346129 0.0077752173
-0.012460781 -0.040942568 0.0055758059
0.0079424847 -0.040594924 0.0054186583
0.0088771516 -0.0408349 0.0077620447
0.0095743984 -0.040038396 0.0088338554
0.010498553 -0.040244456 0.009860754
0.011189953 -0.03959522 0.011241555
0.012014966 -0.039477751 0.011804879
0.012685885 -0.038903382 0.012563735
0.013652344 -0.039250489 0.012937069
0.014721236 -0.039833933 0.013625771
0.015622547 -0.039924286 0.013815373
0.016557571 -0.04008675 0.012562484
0.017523732 -0.040304586 0.012237698
0.017875474 -0.0391558 0.01115039
0.01889587 -0.039509546 0.0080632567
-0.023125544 -0.038542576 0.011229157
-0.022700295 -0.039288975 0.01276505
-0.021824582 -0.039284248 0.013528675
-0.020842975 -0.039080583 0.01377061
-0.020136023 -0.039396569 0.014135689
-0.018971706 -0.038805764 0.013848633
-0.018391313 -0.039409958 0.013768047
-0.017159477 -0.038608823 0.013339281
-0.016611658 -0.039343406 0.013119698
-0.015994117 -0.039985295 0.012003243
-0.01496516 -0.03961366 0.011302054
-0.013939042 -0.039203554 0.0091597736
-0.013367921 -0.040103763 0.0068202913
0.0089517264 -0.040282771 0.0069230497
0.0095817484 -0.039198067 0.0079991221
0.010536383 -0.039511438 0.0095809102
0.011346616 -0.039276749 0.010416716
0.012287087 -0.039494209 0.011531711
0.012832949 -0.038498849 0.012735724
0.013702671 -0.038538765 0.013115138
0.014437195 -0.038216107 0.013813943
0.015485278 -0.038713198 0.014225096
0.016033212 -0.037973396 0.01408121
0.016905298 -0.038036924 0.013444602
0.01816131 -0.038917094 0.012002975
0.018666891 -0.038182277 0.011200577
-0.024182631 -0.038001277 0.0080680251
-0.023507414 -0.038308375 0.012384772
-0.022387272 -0.03788615 0.01338318
-0.021869874 -0.038490977 0.014322221
-0.020832708 -0.0381933 0.014324814
-0.02007195 -0.038398508 0.014231443
-0.019153984 -0.038307969 0.013918221
-0.018335341 -0.038416903 0.013670623
-0.017355472 -0.038182039 0.013195306
-0.016687531 -0.038644806 0.012809753
-0.016009402 -0.039134093 0.011716694
-0.014979557 -0.03877062 0.010411203
-0.01400585 -0.038516089 0.0077808201
-0.013674125 -0.040110767 0.005345583
0.0088317897 -0.038859874 0.0054751039
0.0095957099 -0.038382839 0.0074864328
0.010497837 -0.038492072 0.0085431933
0.011329254 -0.038345166 0.01033479
0.0121005 -0.038030144 0.011390835
0.012835561 -0.03765098 0.012517661
0.013458368 -0.037010513 0.013144433
0.014508069 -0.037550297 0.013863683
0.015414323 -0.037679456 0.014055252
0.016149187 -0.037398115 0.014125526
0.017233191 -0.037913021 0.01381442
0.017866312 -0.037434176 0.013109356
0.018827783 -0.037655566 0.011531711
0.019341275 -0.037000701 0.0071901679
-0.024216192 -0.037189152 0.01068756
-0.023644362 -0.037655834 0.012532353
-0.022530112 -0.037261341 0.013372958
-0.021952881 -0.037758954 0.014295578
-0.020780191 -0.037231177 0.014054954
-0.019996582 -0.037384912 0.014118165
-0.018968672 -0.037075128 0.013855189
-0.018117756 -0.037098262 0.013389379
-0.017678624 -0.038009044 0.012870371
-0.01664253 -0.03766467 0.012363076
-0.015597246 -0.037260089 0.011258036
-0.014975339 -0.037878796 0.0098518133
-0.013840957 -0.037197571 0.0070246458
0.0097962786 -0.038294546 0.0075278282
0.010497748 -0.037616931 0.0085861385
0.011319692 -0.037442058 0.010338992
0.012281034 -0.037720319 0.011087954
0.012746313 -0.036539428 0.012075067
0.013729491 -0.036898009 0.012984157
0.014761156 -0.037337042 0.01385808
0.015489317 -0.037002262 0.014128447
0.016278936 -0.036841799 0.014343053
0.017128818 -0.036826957 0.01381442
0.0178266 -0.036502086 0.013013661
0.019088531 -0.037309401 0.012143254
0.019746 -0.036916431 0.010698438
-0.024956923 -0.03614451 0.0057829618
-0.024115808 -0.036173712 0.011014968
-0.023260098 -0.036182374 0.012877136
-0.022591077 -0.036493279 0.013374388
-0.021668101 -0.036402412 0.014221579
-0.021009363 -0.036766388 0.014071494
-0.019749776 -0.036064807 0.014054954
-0.019326655 -0.036896344 0.013764501
-0.018258583 -0.036517166 0.01337865
-0.017466426 -0.036679495 0.012794286
-0.016690627 -0.036895066 0.01187411
-0.015653677 -0.036525249 0.011017442
-0.014796956 -0.036557186 0.0094985366
-0.014173252 -0.037204783 0.0062076747
0.0097455047 -0.037210111 0.0057515204
0.010346297 -0.036212042 0.0080684125
0.01131242 -0.036547821 0.010228902
0.012286801 -0.036860406 0.010616183
0.013052354 -0.036546592 0.0119569
0.013755392 -0.036107905 0.013046414
0.014469417 -0.035747971 0.014100283
0.015429041 -0.036001101 0.014022559
0.016555969 -0.036597405 0.014370441
0.017138151 -0.035990119 0.013963401
0.017966079 -0.035932157 0.013455302
0.018820442 -0.035929937 0.011908114
0.019877886 -0.036298748 0.010965198
0.020887326 -0.036552824 0.0064875782
-0.025415961 -0.03593291 0.0078157485
-0.024125356 -0.035326418 0.011678606
-0.02357325 -0.035796419 0.012787551
-0.022285234 -0.035142101 0.013786912
-0.021504128 -0.035266768 0.014226735
-0.020965328 -0.035815772 0.014121354
-0.020080756 -0.035796132 0.014169365
-0.019139722 -0.035669487 0.013899833
-0.018164031 -0.03546311 0.013346314
-0.0172843 -0.035432819 0.012616724
-0.016734043 -0.036110304 0.011797428
-0.015727494 -0.03582374 0.01076442
-0.014890381 -0.035912097 0.009251684
-0.014488175 -0.037125949 0.0056315362
0.0096933106 -0.036129616 0.0054315627
0.010442806 -0.035679594 0.0085768998
0.011221531 -0.035390984 0.010228902
0.012167739 -0.035634093 0.010616183
0.012986597 -0.035496697 0.011717349
0.013442776 -0.034447115 0.012883067
0.014413369 -0.034761656 0.0138565
0.015612965 -0.035562869 0.014079601
0.016537184 -0.035685506 0.014468849
0.016943825 -0.034734845 0.014128447
0.018038096 -0.035217237 0.013724655
0.018488141 -0.034455173 0.012115359
0.019763187 -0.035230029 0.011342913
0.020783678 -0.035505451 0.0078288317
-0.025474945 -0.035137851 0.0092326701
-0.024912648 -0.035589498 0.011639357
-0.023734407 -0.035162084 0.012769163
-0.022463959 -0.034559935 0.013786912
-0.021660885 -0.034657411 0.014171004
-0.020880442 -0.034800734 0.014036566
-0.020018898 -0.034815472 0.014054954
-0.018980568 -0.034510124 0.013899833
-0.018116402 -0.034507431 0.013364822
-0.017467992 -0.034935985 0.012721747
-0.016560895 -0.03486504 0.011761785
-0.015775068 -0.035055708 0.010427594
-0.014802387 -0.034829143 0.0091863871
-0.01443942 -0.036098551 0.0055141449
0.0099726059 -0.036264021 0.0051810145
0.010550945 -0.035169818 0.0082711279
0.011227493 -0.034546129 0.010223687
0.012184368 -0.034812476 0.010624975
0.013123537 -0.0349961 0.011794955
0.0136188 -0.034047 0.012860715
0.014752924 -0.034712758 0.013828844
0.015314657 -0.034032572 0.01388815
0.01643423 -0.034598377 0.013854086
0.016881404 -0.033762809 0.013690382
0.01792936 -0.034151159 0.013460368
0.018556735 -0.033739515 0.012438774
0.019665025 -0.034200042 0.011275351
0.020563565 -0.034272607 0.0092456043
-0.025110757 -0.033769637 0.0092324317
-0.02425082 -0.033777926 0.010812789
-0.023185959 -0.033490829 0.012317449
-0.022864653 -0.034296978 0.013625056
-0.021681303 -0.033822834 0.014071494
-0.020965494 -0.034068931 0.013955444
-0.020014023 -0.033936821 0.014042437
-0.019123841 -0.033901356 0.013559282
-0.01822391 -0.033844404 0.01300779
-0.017583782 -0.034288373 0.012688249
-0.016654775 -0.034186114 0.011591583
-0.01573745 -0.034097809 0.010303497
-0.015055448 -0.034538966 0.0091609657
-0.014470111 -0.035270896 0.0050110817
0.010518583 -0.034185395 0.0087796152
0.011193175 -0.033579525 0.010428339
0.01212281 -0.033770684 0.01084283
0.012807444 -0.033299353 0.011812091
0.013792885 -0.03362016 0.012780666
0.014290615 -0.03278435 0.013497859
0.015388236 -0.033341181 0.013799697
0.016460123 -0.033786569 0.013970286
0.016894007 -0.032943316 0.013690382
0.018153911 -0.033714406 0.013455302
0.018671907 -0.033100199 0.012438774
0.019827288 -0.033620182 0.011275351
0.020831736 -0.033851571 0.0094485581
-0.025413444 -0.033300374 0.008581847
-0.024612639 -0.033402868 0.010389358
-0.023219261 -0.032678958 0.011712343
-0.022714159 -0.033197619 0.012717187
-0.021475919 -0.032643396 0.013851494
-0.020682534 -0.032747347 0.013826996
-0.020007629 -0.03305608 0.014003456
-0.018953705 -0.03273822 0.013764501
-0.018453566 -0.033392169 0.013482839
-0.017794095 -0.033808779 0.01253134
-0.016664498 -0.033328995 0.011272609
-0.015855808 -0.033473372 0.010201991
-0.014824991 -0.033138216 0.0088019371
-0.014512375 -0.034466892 0.0051799119
0.010433717 -0.033040103 0.0089248121
0.011303895 -0.033042155 0.010619909
0.012200437 -0.033115469 0.011257142
0.013142606 -0.033294603 0.012049556
0.013620515 -0.032348722 0.012968391
0.01456002 -0.032545928 0.013659745
0.015640771 -0.033019409 0.013954788
0.016270494 -0.032540988 0.014271528
0.017255725 -0.032785878 0.01338166
0.018174777 -0.032887693 0.012831628
0.018651012 -0.032215383 0.011954904
0.019862665 -0.032816578 0.011107892
0.020859955 -0.033028264 0.0094485581
-0.025257748 -0.0322254 0.0061152279
-0.02464886 -0.032571707 0.0099460781
-0.02365808 -0.032420333 0.011520147
-0.022610718 -0.032176793 0.012591451
-0.021777825 -0.032231182 0.013418734
-0.021133883 -0.032581404 0.013388455
-0.020055482 -0.032263167 0.013482839
-0.019094141 -0.032112878 0.013559282
-0.01817135 -0.032016188 0.013447672
-0.017676936 -0.032702334 0.012619227
-0.016504729 -0.032140791 0.011463881
-0.015840923 -0.032561902 0.010283738
-0.014916086 -0.032464422 0.0088091195
-0.014472061 -0.033466641 0.0051483512
0.010599271 -0.032681089 0.009154737
0.011164518 -0.031775936 0.010766298
0.012187128 -0.032208838 0.011420608
0.012920858 -0.031871449 0.01185593
0.013644059 -0.031551886 0.01267159
0.014594334 -0.031764142 0.013508946
0.015470803 -0.031801097 0.013494909
0.016560042 -0.032248504 0.013571233
0.017159062 -0.031744264 0.013078153
0.017758798 -0.031289313 0.012629509
0.01880338 -0.03162387 0.011992157
0.019751547 -0.031774227 0.010863245
0.020777507 -0.032031991 0.0091872215
-0.024143813 -0.031042045 0.0094449222
-0.023812287 -0.031749714 0.010987997
-0.022459818 -0.031098209 0.012255192
-0.021644844 -0.031168571 0.013062388
-0.020881126 -0.031321689 0.013156772
-0.019842461 -0.031057762 0.013534784
-0.018744921 -0.030673506 0.013563722
-0.018135969 -0.03109023 0.013563722
-0.017381292 -0.031286322 0.012618423
-0.016598359 -0.031449519 0.011827677
-0.015746217 -0.031492434 0.01053682
-0.014934926 -0.031626903 0.0090348423
-0.014660774 -0.032986742 0.0055968761
0.0098731443 -0.032312106 0.0062045455
0.010410088 -0.031230262 0.0099540055
0.01112364 -0.030803928 0.010981202
0.012229817 -0.0314481 0.011627257
0.013050311 -0.031320747 0.011870861
0.01366559 -0.030747574 0.012622446
0.014606914 -0.030932287 0.012969047
0.015487402 -0.030974803 0.013062894
0.016440455 -0.031150332 0.013119817
0.017375225 -0.031275406 0.012759179
0.018123232 -0.031068398 0.012216091
0.018768935 -0.0307128 0.011505663
0.019662568 -0.030776193 0.010461986
0.021022255 -0.031533383 0.0075752139
-0.024746343 -0.030932928 0.0083606541
-0.023197317 -0.030070595 0.010208547
-0.022348117 -0.030084003 0.011494428
-0.02164959 -0.030309424 0.012409985
-0.021019591 -0.03065357 0.012667269
-0.020118805 -0.03061557 0.013172954
-0.019061277 -0.030324757 0.013482839
-0.018278802 -0.03046467 0.013507843
-0.017517366 -0.030655392 0.013058007
-0.016796833 -0.030941535 0.012108207
-0.015808659 -0.03073906 0.01060465
-0.014551316 -0.029958593 0.0093050897
-0.014757225 -0.032281429 0.0067349076
0.0097423997 -0.030998543 0.0079473853
0.010496896 -0.030615946 0.010563791
0.011298935 -0.030420208 0.011572748
0.012029383 -0.030073458 0.011861145
0.012847404 -0.029977277 0.012081385
0.01386476 -0.030329162 0.012476504
0.014641076 -0.030143391 0.012847126
0.015550879 -0.03023782 0.012840211
0.016244626 -0.029924309 0.012659401
0.017167917 -0.030043855 0.012301594
0.017807471 -0.029679116 0.011687845
0.01882109 -0.029942645 0.010868371
0.020049063 -0.030509444 0.0096783042
-0.024734642 -0.030034924 0.0051754713
-0.023753839 -0.029912241 0.0097804666
-0.022784807 -0.029795516 0.011006385
-0.022025619 -0.029954839 0.012031913
-0.02082175 -0.02949748 0.012372941
-0.020403516 -0.030161718 0.012671053
-0.019209484 -0.029687384 0.013131887
-0.018262317 -0.02956756 0.013237059
-0.017564796 -0.029860154 0.013086945
-0.016675889 -0.029841064 0.01225853
-0.015781445 -0.0298094 0.01119712
-0.014973391 -0.029946782 0.0095022619
-0.014417497 -0.030637182 0.0072670579
0.009648948 -0.029824022 0.0092971623
0.010410232 -0.02949566 0.011057884
0.011208988 -0.029315814 0.011790693
0.012128863 -0.029455811 0.011861593
0.012882935 -0.029201319 0.012018114
0.013535528 -0.028762996 0.012429804
0.014719535 -0.029439069 0.012831628
0.015264684 -0.028833294 0.012886912
0.016297678 -0.029164266 0.01243645
0.017273525 -0.029364994 0.011685163
0.017761579 -0.02875684 0.011373818
0.018849131 -0.029130476 0.010504276
0.019997537 -0.029561576 0.0090506077
-0.02360487 -0.028850395 0.0083766878
-0.023223115 -0.029475491 0.010505527
-0.021549517 -0.028445361 0.011426836
-0.021056091 -0.028952125 0.012160331
-0.020164942 -0.028932307 0.01254651
-0.019098666 -0.028647998 0.013023764
-0.018308161 -0.028769966 0.013329446
-0.017308671 -0.028559307 0.01318571
-0.016539797 -0.028727015 0.012731791
-0.015651407 -0.028694246 0.011996508
-0.014748394 -0.028629236 0.010106981
-0.013697669 -0.028251441 0.0087403059
-0.013668075 -0.030069765 0.0051209629
0.0093379281 -0.030815164 0.0073722601
0.0094304439 -0.028291332 0.010439008
0.010486015 -0.028836541 0.011648834
0.011328174 -0.028756134 0.012036234
0.012017449 -0.028326843 0.012007743
0.012879235 -0.028334316 0.012209117
0.013856029 -0.02857806 0.012463242
0.014429459 -0.028010126 0.012662411
0.015579286 -0.028562024 0.012462676
0.016476365 -0.028616842 0.011819422
0.01679156 -0.027706074 0.011451572
0.018035438 -0.0283414 0.010973573
0.019105339 -0.02865801 0.01002866
0.020025402 -0.028732097 0.0072308481
-0.022721563 -0.027965 0.0092929304
-0.02185565 -0.027975233 0.011139095
-0.020825883 -0.027767846 0.01199019
-0.019954065 -0.027762176 0.012591451
-0.019205315 -0.027935004 0.01293084
-0.018281253 -0.027857145 0.013518721
-0.017302442 -0.027683908 0.013154417
-0.016566196 -0.027900964 0.012821943
-0.015861129 -0.028197566 0.01218909
-0.014733815 -0.027734239 0.011341751
-0.013892831 -0.027785663 0.0095098615
-0.014274879 -0.030453075 0.0071491003
0.0088883461 -0.028442709 0.009126395
0.0095432913 -0.027762301 0.011014611
0.010409391 -0.027758377 0.012000144
0.011337565 -0.027907854 0.012470245
0.01205899 -0.027563406 0.012285709
0.013029426 -0.027796108 0.012288809
0.013710147 -0.027420294 0.012371033
0.01463987 -0.027557403 0.012557805
0.015418478 -0.02741063 0.012298971
0.016383937 -0.027593998 0.011608511
0.017450565 -0.027920904 0.011172205
0.018166533 -0.027682334 0.010509372
0.019189294 -0.0279117 0.0088758469
-0.023091927 -0.027532682 0.0077762306
-0.021938791 -0.027204102 0.010505527
-0.021108124 -0.027264662 0.011448711
-0.020090571 -0.027078597 0.012040883
-0.018998062 -0.026769999 0.012489468
-0.018056612 -0.026654998 0.013019651
-0.017223243 -0.026696028 0.013034433
-0.016424056 -0.026797146 0.012493312
-0.015542831 -0.026768213 0.012328535
-0.014975215 -0.027307745 0.011757165
-0.01375073 -0.026642039 0.010888964
-0.013021949 -0.026912028 0.008767426
0.0085562076 -0.029471384 0.0082434118
0.0085825659 -0.026605956 0.010412514
0.009435527 -0.026591033 0.011693209
0.010357466 -0.026756788 0.012414753
0.011251315 -0.026830059 0.012642324
0.012086014 -0.026761889 0.012255251
0.0128643 -0.026586222 0.0125283
0.013643819 -0.0264349 0.012006193
0.014639633 -0.026695801 0.012255251
0.015611703 -0.026886823 0.01175186
0.016263681 -0.026535479 0.011361361
0.017441828 -0.027034836 0.010649472
0.018088484 -0.026702048 0.0091947317
-0.02188528 -0.026262334 0.0091908574
-0.020788724 -0.025985904 0.01111871
-0.02013067 -0.026257394 0.011788338
-0.019006995 -0.025918631 0.012199521
-0.018225793 -0.026036847 0.012838721
-0.01741476 -0.02612214 0.013019651
-0.016564488 -0.026154455 0.012808412
-0.015596068 -0.025993446 0.012470216
-0.014965654 -0.026409978 0.012041301
-0.013560855 -0.025426604 0.011279583
-0.013419065 -0.026838129 0.0098407567
-0.012621722 -0.027046548 0.0080707371
0.0076691261 -0.028759222 0.0075695515
0.0077377171 -0.025792392 0.0096098185
0.0085854074 -0.025756221 0.01117146
0.0095015001 -0.025913183 0.012043178
0.010308375 -0.025770938 0.012586951
0.01118629 -0.025814515 0.012668312
0.012078944 -0.025883451 0.012680054
0.012979752 -0.025959505 0.012561858
0.01385443 -0.025977056 0.011827916
0.014747743 -0.026025429 0.012229592
0.015622308 -0.026037181 0.011709601
0.016307147 -0.025748126 0.011029482
0.017364962 -0.026047442 0.010422736
0.018192641 -0.025989486 0.0081084073
-0.021907488 -0.025412684 0.007558167
-0.020677419 -0.024985215 0.010025859
-0.02006313 -0.02529699 0.011119515
-0.019021157 -0.025073344 0.011898965
-0.018188315 -0.025117198 0.012676775
-0.017488405 -0.025358189 0.012928128
-0.016559439 -0.025274934 0.01297757
-0.01546113 -0.024909601 0.012662709
-0.014659544 -0.025007457 0.012325317
-0.013866691 -0.025133379 0.011975944
-0.013034091 -0.025199244 0.011190504
-0.012013083 -0.024884244 0.0094837546
-0.012305672 -0.027451115 0.0078245699
0.0067554452 -0.027986845 0.0070686638
0.0069652069 -0.025248876 0.010018259
0.0078983717 -0.025450312 0.010869443
0.0086988471 -0.02522666 0.011683911
0.0095059155 -0.025061052 0.012464136
0.010418952 -0.025179137 0.012727141
0.011264988 -0.02512959 0.012668312
0.01198245 -0.024820792 0.012590706
0.012988511 -0.025111124 0.012634307
0.013875442 -0.025149239 0.012398213
0.014648181 -0.024988076 0.012311101
0.015647041 -0.025209123 0.01174742
0.01633437 -0.024931407 0.010592848
0.017413085 -0.025248976 0.0090633631
-0.021196932 -0.024729755 0.009477973
-0.020072261 -0.024435796 0.010937512
-0.018959045 -0.024129696 0.011729091
-0.018356085 -0.024474779 0.012558669
-0.017526733 -0.024537425 0.012743831
-0.01648964 -0.024300521 0.012760192
-0.015632307 -0.024316922 0.012553036
-0.014830538 -0.024426768 0.012331724
-0.013916794 -0.024354389 0.012210846
-0.013335457 -0.024892854 0.011787415
-0.011932658 -0.023865316 0.011124253
-0.011061496 -0.023824761 0.0097884834
-0.011255454 -0.026262727 0.0079239011
0.0058317818 -0.027214983 0.0067747235
0.0060188645 -0.024075458 0.0092765689
0.0069231414 -0.024230994 0.010514319
0.0076633375 -0.023841495 0.011441618
0.008561139 -0.023971189 0.011759847
0.0096052503 -0.024449728 0.012468278
0.010444145 -0.024369672 0.012668312
0.011224305 -0.024175426 0.012602836
0.012287548 -0.024575096 0.012463391
0.012979869 -0.024229089 0.012375325
0.013982921 -0.024470111 0.01209718
0.014549526 -0.023963926 0.011643946
0.015425583 -0.023995353 0.010700554
0.016467705 -0.024268197 0.0090375245
0.017891239 -0.025047736 0.0061665773
-0.021697547 -0.024409743 0.0074147284
-0.019935988 -0.023403116 0.010077745
-0.019161405 -0.023516269 0.011173517
-0.018331148 -0.023568619 0.012237519
-0.017394833 -0.023483027 0.012618363
-0.016514393 -0.02346782 0.012931138
-0.015510264 -0.023265397 0.012466997
-0.014563378 -0.02313007 0.012552321
-0.013886102 -0.023432797 0.01241231
-0.013107019 -0.023592634 0.01212725
-0.012287095 -0.02369654 0.011562407
-0.011219109 -0.023301229 0.011380285
-0.010558307 -0.023756193 0.0099888444
-0.0097640976 -0.023966424 0.0085994899
0.0047534467 -0.025668614 0.0073366463
0.0052696122 -0.023713255 0.0094833076
0.006076525 -0.023438025 0.010505944
0.0068498757 -0.02311833 0.011887431
0.0077483989 -0.023245199 0.012243062
0.0086884955 -0.023458941 0.012342364
0.0093714204 -0.023002578 0.012824446
0.010461984 -0.023539467 0.012842804
0.011229385 -0.023322569 0.012744546
0.012331357 -0.023781903 0.012565643
0.012858977 -0.023146158 0.012140065
0.013687687 -0.023097973 0.011755913
0.014911601 -0.023683131 0.011266083
0.015430405 -0.023145609 0.0095993876
0.016692201 -0.023720497 0.0068275332
-0.020260617 -0.022903305 0.0081372857
-0.019446583 -0.022982327 0.010342926
-0.018368615 -0.022742094 0.011552185
-0.017431727 -0.022661244 0.012702614
-0.016524037 -0.02261184 0.012977809
-0.015771035 -0.022780385 0.01254034
-0.014729064 -0.022526802 0.012680382
-0.01380181 -0.022427941 0.012693882
-0.013064486 -0.022645108 0.012443155
-0.012195471 -0.022648731 0.012071311
-0.01136959 -0.022739179 0.011933118
-0.010102437 -0.021888614 0.011451662
-0.0094385333 -0.022309262 0.010887086
-0.0088979611 -0.023134699 0.0092425048
-0.0083699785 -0.024179937 0.0079654157
0.0028809735 -0.024968438 0.0069644451
0.003705167 -0.024083585 0.007883817
0.0042507588 -0.022103947 0.010190874
0.0052047735 -0.022554019 0.011104256
0.0060294038 -0.022394927 0.011476368
0.0070159892 -0.022801964 0.0124228
0.0078799771 -0.022764379 0.012678653
0.0085421158 -0.022209501 0.012973666
0.0095643178 -0.02260657 0.012984276
0.010461518 -0.022666622 0.0129866
0.011250209 -0.022500418 0.0128088
0.012135025 -0.022536475 0.012509376
0.01290761 -0.022373192 0.011901855
0.013625738 -0.022141824 0.011473596
0.014459327 -0.022114266 0.01032716
0.015826836 -0.022860987 0.0086430609
-0.019150211 -0.021761604 0.0094140172
-0.018123932 -0.02157611 0.010667562
-0.017701926 -0.022127409 0.012322575
-0.016568234 -0.021800308 0.012294769
-0.0155295 -0.021568751 0.012445748
-0.014914351 -0.021932868 0.012609392
-0.013677519 -0.021371122 0.012680382
-0.013063821 -0.021773035 0.012489706
-0.012130989 -0.021662479 0.012286007
-0.01134609 -0.021819403 0.012416691
-0.010542743 -0.021964049 0.012168825
-0.0096340906 -0.02189566 0.011838883
-0.0084522134 -0.021130534 0.011191905
-0.0077645951 -0.021568321 0.010190755
-0.0072624283 -0.022695089 0.0086942613
-0.006567888 -0.023456743 0.0073049664
0.00095228525 -0.023807133 0.0071026087
0.0018214232 -0.022767792 0.0077364445
0.0026165284 -0.021804404 0.0098157227
0.0033934531 -0.021209082 0.01069057
0.0042891619 -0.021445811 0.011375964
0.0051869797 -0.021612415 0.011754006
0.0061636777 -0.022013135 0.012108326
0.0069090421 -0.021590756 0.013220161
0.0076917671 -0.021366021 0.013114691
0.0086049167 -0.021512292 0.013233393
0.0094460528 -0.021468304 0.013229877
0.010291639 -0.021440916 0.012991101
0.011233807 -0.021603474 0.012754768
0.012239126 -0.021855583 0.0122329
0.012814786 -0.021357978 0.011370838
0.01356174 -0.021190219 0.010464936
0.014669379 -0.021572616 0.0090967417
0.015855609 -0.022021679 0.0061873794
-0.019313568 -0.021069346 0.0069611073
-0.018549191 -0.021199074 0.01019299
-0.017606137 -0.021127366 0.011680603
-0.0167036 -0.021099282 0.012030631
-0.015700415 -0.020933887 0.01235804
-0.014665411 -0.020704109 0.012577474
-0.013898544 -0.020847816 0.012846231
-0.01265799 -0.020252783 0.012569636
-0.012061303 -0.02067652 0.012543261
-0.011093956 -0.020481151 0.012773186
-0.010207059 -0.020414118 0.012693226
-0.0095933937 -0.020931041 0.012630522
-0.0085770218 -0.020584852 0.011955976
-0.0078167105 -0.020844564 0.011663407
-0.0067732958 -0.020319887 0.011260897
-0.0059358571 -0.020351509 0.010190755
-0.0050884481 -0.020353792 0.0099166036
-0.0043543293 -0.020900782 0.0088694096
-0.0035702302 -0.021421382 0.0087689459
-0.0027215534 -0.021772427 0.008603096
-0.0018165885 -0.021799061 0.0083229244
-0.00087902619 -0.021096628 0.0085456669
0 -0.020651152 0.010093212
0.00082893355 -0.019894404 0.009968251
0.0016907188 -0.020288626 0.010470569
0.0025683579 -0.020546863 0.011689216
0.0034913516 -0.02094811 0.012373179
0.0043640672 -0.020947523 0.012487054
0.0051819282 -0.020727713 0.012576997
0.0059886803 -0.020532619 0.012606323
0.006946608 -0.020839823 0.013229877
0.0077679697 -0.020714587 0.013070941
0.0086378688 -0.020730887 0.012738168
0.0095465453 -0.020828826 0.01260221
0.010389576 -0.020779151 0.012515098
0.011345445 -0.020945437 0.012052804
0.012161793 -0.020848788 0.011351198
0.012840459 -0.020544734 0.010464936
0.013845025 -0.020767536 0.0095467567
0.01472227 -0.02078438 0.0076446533
-0.018225083 -0.019960806 0.0080197752
-0.01722689 -0.019810924 0.010681897
-0.016641343 -0.020144783 0.011799812
-0.015704898 -0.020067371 0.012124985
-0.014794729 -0.020016398 0.012394577
-0.013948264 -0.020050628 0.012847513
-0.012908947 -0.019793719 0.01277557
-0.012142276 -0.019948026 0.012674719
-0.011220551 -0.019851744 0.013030022
-0.010315888 -0.019772118 0.013140976
-0.0094087124 -0.019672763 0.013140976
-0.0087145939 -0.020043567 0.012642086
-0.007910422 -0.020215526 0.012521714
-0.006973431 -0.020048615 0.012080878
-0.0061143921 -0.020090146 0.011661828
-0.0052224942 -0.020019563 0.011650115
-0.0042828354 -0.019701045 0.011582077
-0.0034037202 -0.019571392 0.011575609
-0.0025669071 -0.019679623 0.011292398
-0.0016865834 -0.019395709 0.011034101
-0.00086144026 -0.019813126 0.011263788
0 -0.019419754 0.011111498
0.00085754425 -0.019723518 0.011865914
0.0017049673 -0.019607125 0.012084186
0.0025961266 -0.019903637 0.012671381
0.0034840712 -0.02003341 0.01305142
0.0043044444 -0.019800447 0.012858123
0.0051863384 -0.019880965 0.012879312
0.0060040425 -0.019727569 0.012757421
0.0069393474 -0.019950623 0.013104171
0.0077888244 -0.019904776 0.012897104
0.0086531295 -0.019902198 0.01275143
0.0094569074 -0.019773534 0.012593389
0.010456081 -0.020040821 0.012108326
0.01133445 -0.020053258 0.011498183
0.012004296 -0.019721346 0.010369569
0.013116994 -0.020112725 0.0093830526
0.013935612 -0.020032441 0.0083773732
-0.018716646 -0.019607915 0.0053177476
-0.017437261 -0.019180987 0.0088881552
-0.016688732 -0.019323794 0.010313302
-0.015758552 -0.019260453 0.011694759
-0.014793697 -0.019144783 0.012076467
-0.013740944 -0.018893797 0.012463599
-0.012905278 -0.018927742 0.01254487
-0.012318606 -0.01935781 0.012696952
-0.011248228 -0.019035462 0.013210088
-0.010365531 -0.019003473 0.01338017
-0.0093999887 -0.018799977 0.013358742
-0.0084906155 -0.018679354 0.013314307
-0.007695144 -0.018810352 0.013277233
-0.0070099565 -0.019277381 0.013314307
-0.0061259028 -0.019252837 0.012712896
-0.0052166516 -0.019127721 0.012525588
-0.004285262 -0.018855153 0.012294352
-0.0034908913 -0.019199902 0.012087762
-0.0026143899 -0.019172193 0.011941999
-0.0017551304 -0.019306432 0.011795789
-0.00087057182 -0.01915258 0.012403309
0 -0.01931873 0.012503654
0.00087988691 -0.019357512 0.012531608
0.0017093465 -0.01880281 0.012511343
0.0025926551 -0.019012803 0.012660801
0.0034122337 -0.018767284 0.01305142
0.0043434012 -0.019110966 0.012928575
