ply
format ascii 1.0
comment PCL generated
element vertex 1294
property float x
property float y
property float z
element camera 0
property float view_px
property float view_py
property float view_pz
property float x_axisx
property float x_axisy
property float x_axisz
property float y_axisx
property float y_axisy
property float y_axisz
property float z_axisx
property float z_axisy
property float z_axisz
property float focal
property float scalex
property float scaley
property float centerx
property float centery
property int viewportx
property int viewporty
property float k1
property float k2
end_header
-0.00084876991 0.044136036 0.014366806
0 0.044211637 0.014150947
0.00085070485 0.044236653 0.014347762
0.0016792634 0.043660849 0.014257431
0.0025627541 0.044421069 0.014494866
0.003390328 0.044074263 0.014643639
0.0042142123 0.043827809 0.014683396
0.0051015033 0.04421303 0.014757514
0.0059138509 0.043931466 0.014963806
0.0066452045 0.043193828 0.014874846
0.0077431444 0.04473817 0.014395475
0.0083787292 0.043569393 0.013965666
0.0091621522 0.043311995 0.012122869
-0.018550321 0.044689409 0.011935681
-0.017834956 0.045012031 0.013162583
-0.017152021 0.045452856 0.013820678
-0.016298663 0.045464691 0.014353812
-0.01522302 0.044823337 0.014911175
-0.014612926 0.045557946 0.014799654
-0.013396201 0.044374913 0.014691979
-0.012842828 0.045377996 0.014887154
-0.011954723 0.045257166 0.014886051
-0.010961931 0.044690948 0.014888495
-0.010214462 0.045113873 0.014426976
-0.0093632536 0.045113862 0.014389992
-0.0084159113 0.044604331 0.014426589
-0.0077009443 0.045350008 0.014150679
-0.0068383897 0.045304328 0.014242589
-0.0059534051 0.045075782 0.014177769
-0.0051096501 0.045135241 0.014171362
-0.0042315908 0.044854864 0.014196962
-0.0033875424 0.044884935 0.014226854
-0.0025457889 0.044975601 0.014413506
-0.0017062856 0.045216568 0.014209121
-0.00084771035 0.044928648 0.014366806
0 0.045156248 0.014311135
0.00084499025 0.044784483 0.01464197
0.0016998784 0.045046773 0.014737785
0.0025356337 0.044796195 0.014961243
0.0033597378 0.044516526 0.015042484
0.0042491192 0.045040663 0.015033722
0.0050828145 0.044898193 0.015033722
0.0058941757 0.044627327 0.015142292
0.0067707016 0.044855896 0.014985979
0.0076302388 0.044933628 0.01509428
0.0084122857 0.044585116 0.014275312
0.0093419841 0.045011379 0.013948143
0.010244189 0.045245167 0.011752337
-0.019555172 0.045912143 0.011647284
-0.018665044 0.045814198 0.013133496
-0.017797435 0.04576483 0.01411435
-0.01719589 0.046428908 0.014407158
-0.016100651 0.045759741 0.014599979
-0.015206078 0.045618236 0.014961869
-0.014533211 0.046164315 0.01487577
-0.013591786 0.045872279 0.014834732
-0.012828654 0.046183154 0.014774531
-0.011784243 0.045453511 0.014486998
-0.010946557 0.045470316 0.014508605
-0.010206762 0.04593043 0.014245421
-0.0093462272 0.04588148 0.014221758
-0.0085061789 0.04593337 0.014021307
-0.0076337149 0.045802291 0.013852775
-0.0067621954 0.04564482 0.013748735
-0.0059252288 0.04570891 0.013905853
-0.0050876709 0.045789041 0.013774216
-0.0042827688 0.046253908 0.013905853
-0.00338788 0.045736384 0.01400128
-0.0025547415 0.045985349 0.014085323
-0.0016888055 0.045597751 0.014036119
-0.00085589173 0.046218157 0.014141172
0 0.045581996 0.014125377
0.00084682764 0.045728695 0.014438391
0.0017046374 0.046025209 0.014467508
0.0025166732 0.045300119 0.0146918
0.0033818374 0.045654807 0.014906436
0.0042613186 0.046022244 0.01499173
0.0050941962 0.04584777 0.01499173
0.0059561026 0.045947079 0.015083313
0.0067534954 0.045586094 0.015067577
0.0075652068 0.045391243 0.014930785
0.0084312716 0.04552887 0.014795989
0.0093056951 0.045682505 0.014147013
0.010011064 0.04504979 0.01344198
0.011396448 0.047339093 0.0073685646
-0.019412717 0.046421714 0.012672603
-0.01882204 0.047055103 0.013630509
-0.017805435 0.046633281 0.014220804
-0.017133441 0.047116965 0.014516622
-0.016211072 0.046926785 0.014800042
-0.015256402 0.046616785 0.014916092
-0.014418577 0.046648338 0.014706284
-0.013640366 0.046888757 0.014321297
-0.012707563 0.0465944 0.014061898
-0.011853839 0.046568654 0.013846248
-0.011027669 0.046655521 0.013733804
-0.010151183 0.046526257 0.013505191
-0.0093696732 0.046848368 0.013344765
-0.0084399283 0.046419606 0.013362795
-0.007631707 0.046638213 0.013014346
-0.0067966557 0.046727009 0.012529016
-0.0059875119 0.047044739 0.012574077
-0.0050819837 0.046584852 0.012385547
-0.0042375452 0.046613 0.012447774
-0.0034200903 0.047026243 0.012696624
-0.0025500818 0.046751499 0.013203979
-0.0017006847 0.046768829 0.013253927
-0.00084835675 0.046659622 0.013587356
0 0.046915591 0.013620198
0.00084618211 0.046540014 0.013721496
0.0016760387 0.046091065 0.01398015
0.0025649415 0.04702393 0.014247268
0.0033855392 0.046551164 0.014494866
0.0042151962 0.046367161 0.014698654
0.0050171134 0.04599021 0.014735878
0.0059524206 0.046769019 0.014882714
0.0067236982 0.046225425 0.014960468
0.0076452955 0.046721254 0.014960468
0.0084381159 0.04640964 0.014775634
0.0092089288 0.046044644 0.014596909
0.010164951 0.04658936 0.013795137
0.010958598 0.046363302 0.012091607
-0.020526186 0.047894437 0.011860996
-0.01962661 0.047786526 0.013112694
-0.018704224 0.047610756 0.013506532
-0.017736072 0.047296189 0.014226228
-0.016970811 0.047518276 0.014481127
-0.016162017 0.047635421 0.014387906
-0.015245792 0.047431353 0.014508724
-0.014458807 0.04762901 0.014631212
-0.013433957 0.047018848 0.013930827
-0.012736737 0.047550485 0.013637304
-0.011838827 0.047355309 0.01349625
-0.010987828 0.047332179 0.013335675
-0.010181776 0.047514956 0.012823939
-0.0093173515 0.04743379 0.012227774
-0.0084310211 0.047213722 0.011759162
-0.0077149603 0.048004199 0.011482686
-0.0069300672 0.048510469 0.011722475
-0.0059512411 0.047609929 0.01177302
-0.0051255398 0.047838375 0.01177302
-0.0043061469 0.048228849 0.011888385
-0.0034244817 0.047942743 0.011889875
-0.0025666049 0.04790996 0.011874974
-0.0017110963 0.047910694 0.011853158
-0.00084679993 0.047420796 0.012253165
0 0.047532536 0.012561113
0.0008422106 0.047163796 0.012944788
0.0016834396 0.047136307 0.013303012
0.0025656992 0.047893051 0.013466507
0.0033725519 0.047215726 0.014045
0.0042358018 0.047440983 0.014277667
0.0050795302 0.04740895 0.014458179
0.0058886898 0.047109518 0.014474154
0.0068146298 0.047702409 0.014808595
0.0076057478 0.047324657 0.014808595
0.0083181327 0.046581544 0.014701724
0.0092907911 0.047298573 0.014629453
0.010173084 0.047474392 0.014228702
0.010819134 0.046605501 0.013591141
0.011969787 0.047879148 0.0096673667
-0.021718821 0.049518909 0.0077622831
-0.02045981 0.04859205 0.012133271
-0.019651718 0.048702084 0.013208956
-0.018624835 0.048255254 0.013721287
-0.017837556 0.04841622 0.014099211
-0.016972188 0.048370738 0.014353812
-0.016161017 0.048483048 0.014251649
-0.015311083 0.048485097 0.014294475
-0.014403572 0.048294332 0.014175326
-0.013592415 0.048422981 0.013574004
-0.012869872 0.048905514 0.013267547
-0.011853316 0.048259929 0.012937129
-0.010850689 0.047576096 0.012149483
-0.010391131 0.049357872 0.011591315
-0.0094336094 0.048883248 0.011425525
-0.0086260438 0.049168453 0.010838419
-0.0077888765 0.049329553 0.01041317
-0.0068668318 0.048926175 0.0096269548
-0.0060362159 0.049152046 0.0099534988
-0.0051791756 0.049202166 0.0098696947
-0.0043128054 0.049165979 0.0097298324
-0.0034713454 0.049466673 0.0099234581
-0.0026113519 0.049615685 0.0098519325
-0.0017143673 0.048859466 0.011078179
-0.00086618605 0.049372602 0.011261672
0 0.048615765 0.01155138
0.00085085316 0.048498627 0.011930645
0.0017021736 0.048511945 0.012889564
0.0025445288 0.048346046 0.013214767
0.0033549659 0.047808263 0.013357282
0.0042144163 0.048044346 0.013936013
0.0050708917 0.048173469 0.014226705
0.0059022848 0.04806146 0.014427722
0.0067731622 0.048258781 0.014664233
0.0075960555 0.048108354 0.014693111
0.0084238797 0.048016116 0.014670342
0.0093234219 0.048312277 0.014705867
0.010034888 0.047665719 0.014326394
0.010967556 0.048088517 0.013923943
0.011758719 0.047874782 0.012946576
-0.021348324 0.049528111 0.012029648
-0.020435287 0.049385276 0.012976468
-0.019463297 0.049081359 0.013653725
-0.018541412 0.048881907 0.013836771
-0.018027451 0.049790099 0.014265031
-0.017068688 0.049499199 0.014265031
-0.016265288 0.049651936 0.014257967
-0.015236255 0.049094602 0.014211118
-0.014390311 0.049096357 0.014137685
-0.013638769 0.04944054 0.013494879
-0.012741425 0.049266845 0.012946963
-0.011873632 0.049190763 0.012074262
-0.011218524 0.050051875 0.01158151
-0.010472886 0.050618954 0.010866016
-0.0093785338 0.049450453 0.010413378
-0.0085717319 0.049716044 0.0090458095
-0.0077426983 0.049897391 0.0087011158
-0.0069160601 0.050141439 0.0084537268
-0.0060176202 0.049860284 0.0080986917
-0.0051744562 0.050019745 0.0079933405
-0.0043580509 0.050553393 0.0080493093
-0.0034544347 0.050089307 0.0077257454
-0.0026077172 0.05041587 0.0078238249
-0.0017306601 0.050189145 0.0085129142
-0.00086431211 0.050130103 0.0086018443
0 0.049717259 0.0097119808
0.0008658811 0.050221104 0.010811329
0.0017165396 0.04977965 0.011513799
0.0025771235 0.049824387 0.012114882
0.0034153333 0.049522333 0.012736678
0.0042177606 0.048926026 0.013304979
0.0050843116 0.049148347 0.013874322
0.0059808758 0.049555831 0.01411134
0.0067524379 0.048955176 0.014386415
0.0076107578 0.049047109 0.014547527
0.0083937692 0.048683867 0.014547527
0.009342039 0.049258024 0.014633775
0.010103741 0.048834749 0.014473766
0.010969972 0.048942953 0.014188319
0.011727565 0.048585627 0.013048559
0.012745043 0.049280837 0.011164427
-0.022236282 0.050459255 0.011015713
-0.021342216 0.050367627 0.012653023
-0.020355737 0.050041191 0.013208956
-0.01979157 0.050769679 0.013755411
-0.018781273 0.050367959 0.013918817
-0.017803421 0.050019138 0.014198214
-0.017043315 0.050277781 0.014172256
-0.016171325 0.05021622 0.014151514
-0.015242745 0.049962334 0.01403293
-0.014476356 0.050241474 0.01366812
-0.013645468 0.050317664 0.013031334
-0.013056966 0.0513574 0.012097836
-0.012009494 0.05061144 0.010885715
-0.011124376 0.050487556 0.010495454
-0.010292594 0.050605256 0.0092324913
-0.0094647259 0.05076535 0.0079318285
-0.0086181154 0.050846886 0.0072543621
-0.0078848489 0.051689569 0.0065794885
-0.0026693975 0.052498151 0.005000174
-0.0017483786 0.051577169 0.0056200624
-0.00086828572 0.051228859 0.0064917207
0 0.051186305 0.0069760084
0.00086074538 0.050783977 0.0078160167
0.0017316091 0.05108247 0.0099515915
0.0025622668 0.050391249 0.011040241
0.00340253 0.05018732 0.011925399
0.0042548547 0.050207291 0.012555212
0.005109997 0.050248306 0.013041347
0.0059394715 0.050061259 0.013818145
0.0067818658 0.050016262 0.014190733
0.0075879525 0.04974325 0.014326096
0.0084474543 0.049839981 0.014526159
0.009351301 0.050156977 0.014633626
0.01007625 0.049541567 0.014664143
0.010929995 0.049605366 0.014525771
0.011875296 0.050045893 0.013841242
0.012658204 0.049788937 0.012770802
0.013909717 0.05129208 0.0061293542
-0.021974759 0.050710984 0.012124896
-0.021342006 0.051220812 0.013070583
-0.020531835 0.051329587 0.01369825
-0.019729007 0.051466975 0.013831913
-0.018697631 0.050993539 0.013918817
-0.018018272 0.051480778 0.014032394
-0.016961243 0.050883729 0.013923079
-0.016110521 0.050875328 0.013978153
-0.015327212 0.05109071 0.013598502
-0.014532554 0.051291365 0.013263583
-0.013875743 0.052034039 0.012155414
-0.01299347 0.051973879 0.011137158
-0.01192751 0.051117897 0.010010689
-0.011279386 0.052058704 0.008569628
-0.010439297 0.052196488 0.006831944
0.00088678376 0.053207025 0.0052809119
0.0017233815 0.051701441 0.0067434609
0.0025705607 0.051411215 0.0084123909
0.0034806447 0.052209672 0.010185212
0.0042698886 0.051238667 0.011642694
0.0050864322 0.050864324 0.012491912
0.0059280265 0.050811656 0.013216138
0.0067871176 0.05090338 0.013971329
0.0076177479 0.050784986 0.014220536
0.0084576458 0.050745875 0.014430553
0.0093856957 0.051194705 0.014558494
0.010070417 0.050352089 0.014520049
0.011070973 0.051096797 0.014553457
0.011821203 0.050662298 0.014267445
0.012595757 0.050383028 0.013492078
0.013346474 0.050049279 0.012478262
-0.02308231 0.05214892 0.011933357
-0.021966672 0.05153719 0.012857705
-0.0214996 0.052459024 0.013759375
-0.020449176 0.051974989 0.013831913
-0.019579168 0.051927358 0.013896525
-0.018827129 0.052202497 0.013931602
-0.017717082 0.051463902 0.014027536
-0.01704289 0.051980816 0.013831913
-0.016013056 0.05141034 0.013528734
-0.015386594 0.052143462 0.012773365
-0.014641861 0.052538443 0.012249798
-0.013758834 0.052455552 0.011056602
-0.012858562 0.052291483 0.009935528
-0.012123835 0.05282528 0.0076501369
-0.011373907 0.053369872 0.0065740347
0.0026618347 0.054123972 0.0066188276
0.0034542833 0.052677821 0.0074982941
0.0042517358 0.051871173 0.009998858
0.0051409677 0.052266505 0.011582971
0.0060473396 0.052698243 0.012376726
0.0067330212 0.051339287 0.013451129
0.0076274085 0.051696882 0.013787717
0.0084900744 0.051789455 0.014048487
0.009229118 0.051179655 0.014460564
0.010270593 0.052208845 0.014451087
0.010972115 0.05148454 0.014539897
0.011892744 0.051818386 0.014333904
0.012601951 0.051247936 0.014002979
0.013289508 0.05066625 0.013208449
0.014600907 0.052391492 0.0098839998
-0.024377033 0.053977717 0.0067186654
-0.02269383 0.052111756 0.012712151
-0.02231805 0.05321997 0.013484299
-0.021045009 0.052191623 0.013988793
-0.02055124 0.053090706 0.014109433
-0.019667314 0.053016238 0.014172256
-0.018723454 0.052766103 0.014063686
-0.01782418 0.052623771 0.01393646
-0.017048543 0.052850489 0.01369217
-0.016185461 0.052815717 0.012858689
-0.01547618 0.053306848 0.012120038
-0.014761236 0.053835094 0.01120773
-0.013700692 0.053090181 0.0099269748
-0.013150901 0.054357059 0.0073597133
-0.012276946 0.05436933 0.005361855
0.0034628683 0.053674459 0.0058507025
0.0043730522 0.054225851 0.0074650645
0.0051455451 0.053170633 0.010135084
0.0059611462 0.052798726 0.01157847
0.0069295415 0.053703949 0.012558669
0.0075974376 0.052337907 0.013278037
0.0084435176 0.052349813 0.014092714
0.0092919124 0.052372601 0.014444619
0.010151098 0.052447345 0.014463902
0.010982877 0.052379876 0.014653951
0.011897558 0.052689191 0.014444411
0.012574646 0.051975206 0.014243931
0.013390495 0.051888168 0.013680249
0.014255651 0.051991198 0.01248008
-0.023531577 0.052946046 0.011794478
-0.023124965 0.053958252 0.012921751
-0.022161108 0.053698067 0.013435543
-0.021230899 0.053501863 0.013923079
-0.020419329 0.05360074 0.014023751
-0.01963356 0.053778883 0.014020711
-0.018673994 0.053475533 0.013878882
-0.017833825 0.053501476 0.01376614
-0.017062513 0.05374692 0.013355404
-0.016309625 0.054079283 0.012464285
-0.015501704 0.054255966 0.01149255
-0.014564306 0.053973604 0.010428965
-0.013877478 0.054642573 0.0076836646
-0.013215415 0.055504747 0.0055692196
0.0043873456 0.055280559 0.0056708455
0.0052176625 0.05478546 0.0077648461
0.0060368646 0.054331783 0.010142893
0.0068247658 0.053745031 0.011638194
0.0076698763 0.053689137 0.012686014
0.0084403008 0.0531739 0.013468981
0.0093175154 0.053363953 0.013992339
0.01014651 0.053269181 0.014312804
0.011040522 0.053504068 0.014629304
0.011818864 0.053184889 0.014545351
0.012578887 0.052831326 0.014583081
0.013408508 0.052795999 0.01429221
0.014235903 0.052756581 0.013727307
0.01494281 0.052299839 0.012232274
-0.024805991 0.054744255 0.010531664
-0.023551105 0.053831097 0.01221329
-0.023120921 0.054805145 0.012939423
-0.02202446 0.05421406 0.013335854
-0.021327877 0.054599367 0.013838589
-0.020397028 0.054392077 0.014011562
-0.019715855 0.054861505 0.013879061
-0.018738214 0.054511167 0.013713598
-0.017776432 0.05417579 0.013439298
-0.01715455 0.054894563 0.012773067
-0.016245047 0.05472016 0.011763006
-0.015453489 0.054945745 0.010650665
-0.014608789 0.054997794 0.0090787709
-0.014049238 0.05619695 0.0064129531
0.0053063091 0.056600634 0.0061127245
0.0060707694 0.055504177 0.0095891654
0.0068100858 0.054480687 0.011092931
0.0076631163 0.054493275 0.012224257
0.0085670492 0.054829117 0.013070792
0.0092642568 0.053901132 0.013668656
0.010164975 0.054213203 0.014072001
0.010940809 0.053862445 0.014588535
0.011753642 0.053730935 0.014594913
0.0126724 0.054068908 0.014614582
0.013266638 0.053066552 0.014574558
0.014297898 0.053827379 0.014110744
0.015171986 0.053944841 0.013138413
0.016267901 0.054797139 0.0085557401
-0.024697062 0.055355482 0.011863858
-0.023789033 0.055224542 0.012381881
-0.023006486 0.055385984 0.012943536
-0.022129843 0.055324607 0.013307333
-0.021327041 0.055450302 0.013751715
-0.020481329 0.055470265 0.013751715
-0.019735778 0.05577502 0.013658762
-0.018693853 0.055231839 0.013419658
-0.017867921 0.055305466 0.012973905
-0.01736784 0.056445483 0.012007326
-0.016234111 0.055537745 0.011145234
-0.015394399 0.055590887 0.0095645487
-0.014913828 0.057023458 0.0068613887
0.0061479998 0.057088573 0.0067442656
0.0068589211 0.055728734 0.0099425912
0.007782496 0.056206916 0.011749595
0.0084439525 0.054885693 0.012678415
0.0093307709 0.055136375 0.01357311
0.010137161 0.054909624 0.014155626
0.010996731 0.054983653 0.014608651
0.011831556 0.054932222 0.014663309
0.012699006 0.055029023 0.014759898
0.013476011 0.054746296 0.014630973
0.014253446 0.054498468 0.014279544
0.014998283 0.054160472 0.013759464
0.016015934 0.054791354 0.012525648
-0.025517793 0.056139145 0.010471612
-0.024525423 0.055816479 0.012257695
-0.023556083 0.055525053 0.012722462
-0.023002218 0.056227639 0.013298869
-0.022022715 0.055903815 0.013588458
-0.021189468 0.055940192 0.013618529
-0.020434275 0.056194257 0.013537377
-0.019544194 0.056083333 0.013422579
-0.018648095 0.055944286 0.013006181
-0.018047551 0.056720871 0.012403309
-0.017165044 0.056644645 0.01154685
-0.016387509 0.056925029 0.010316074
-0.015574353 0.057105962 0.0079295635
0.0069071958 0.056984361 0.0093218684
0.0076787085 0.056310531 0.010570854
0.0085771149 0.056608956 0.012179852
0.0093475627 0.056085378 0.013047367
0.010058076 0.055319417 0.013938189
0.010924344 0.055462055 0.014582098
0.011863883 0.055929732 0.014506251
0.012620002 0.055528007 0.014571786
0.01335234 0.055078402 0.014568985
0.014184418 0.055068918 0.014369041
0.015047491 0.055174135 0.014080584
0.016079215 0.055854116 0.013290226
0.016672313 0.055018634 0.011302412
-0.025457153 0.056854311 0.011922598
-0.024585139 0.056800146 0.012441665
-0.023874177 0.057127498 0.012897044
-0.022691611 0.056308813 0.01353693
-0.021962354 0.056595299 0.013781697
-0.021288976 0.057054453 0.0137254
-0.020447653 0.057083033 0.013599485
-0.019574983 0.057022776 0.013402164
-0.018760797 0.057135157 0.012974948
-0.01790154 0.057114441 0.012333512
-0.017218184 0.05768092 0.011173397
-0.016453944 0.058021802 0.009766221
-0.015771374 0.058704566 0.0064599216
0.0069890614 0.058533393 0.0062309206
0.007662077 0.057039909 0.010029733
0.0085592205 0.05734678 0.012016833
0.0093636233 0.057032984 0.012812763
0.010274742 0.057367306 0.013734579
0.010880861 0.056078289 0.014539391
0.011821226 0.056573015 0.014554471
0.012696037 0.056708965 0.014528543
0.01345944 0.056361407 0.014645427
0.0141838 0.055900857 0.014453351
0.01521769 0.056643628 0.014214844
0.016097838 0.056766063 0.013861001
0.016838575 0.056409229 0.012697339
-0.026470385 0.05806407 0.0084150434
-0.0256464 0.05813184 0.012261152
-0.024835935 0.058235984 0.01268959
-0.023956787 0.058180768 0.013128161
-0.022909073 0.057696924 0.013600171
-0.022227896 0.0581345 0.013893843
-0.021157278 0.057547797 0.013802916
-0.02060204 0.058372445 0.013678253
-0.01938891 0.057323735 0.013371259
-0.018776895 0.058037676 0.012850732
-0.017721506 0.057383921 0.012077898
-0.01719553 0.058464803 0.011103958
-0.016366208 0.058573794 0.0095712245
-0.015793024 0.05966254 0.0060636401
0.007722761 0.058349751 0.0099323392
0.0084884064 0.057721164 0.011933774
0.0093987864 0.058101587 0.012601376
0.010145791 0.057492815 0.013604999
0.010927172 0.05715752 0.014341861
0.011809655 0.057361186 0.0146254
0.012588113 0.057066113 0.01458025
0.013465462 0.057228215 0.014700979
0.014353611 0.057414442 0.014496714
0.015079581 0.056967311 0.01437664
0.015929243 0.05700992 0.014084905
0.016834088 0.0572359 0.013248146
0.017653428 0.057163481 0.01049158
-0.026281139 0.058496729 0.010626227
-0.025628604 0.058945786 0.012341529
-0.024697039 0.058761917 0.012722462
-0.023940159 0.058995392 0.013492167
-0.022781415 0.058219172 0.013724953
-0.022115793 0.058691911 0.014011651
-0.021355428 0.058940981 0.013939261
-0.020594941 0.059210457 0.013704181
-0.019442964 0.058328893 0.013417333
-0.018960509 0.059467055 0.01258558
-0.017985091 0.059093866 0.011505812
-0.017285623 0.059635397 0.010686219
-0.016354855 0.059393946 0.008495152
0.0076584565 0.058714837 0.0093683302
0.0085641704 0.059092779 0.011872113
0.0093387179 0.058579233 0.012549639
0.010130043 0.058247749 0.013504982
0.011019446 0.058487829 0.014319718
0.011817361 0.058242708 0.014649481
0.012669355 0.05827903 0.01458025
0.013625105 0.058758263 0.014728159
0.014210891 0.057679497 0.014561206
0.015138155 0.058029596 0.014416188
0.016045799 0.058271587 0.014146864
0.016875116 0.058219153 0.013453305
0.017818749 0.058547314 0.01192379
-0.026661856 0.060204186 0.010980368
-0.025472302 0.059435371 0.012452483
-0.02475965 0.059764668 0.012871504
-0.023529125 0.058822811 0.013575941
-0.023090625 0.059864581 0.013802916
-0.021949105 0.05909374 0.014053047
-0.021226559 0.059434365 0.014004767
-0.020594923 0.060068525 0.013781697
-0.019249979 0.058586888 0.013437986
-0.018720318 0.059564646 0.012820899
-0.017928403 0.059761338 0.011803865
-0.017310746 0.060587615 0.010189086
-0.016443731 0.060582161 0.0077732503
0.0079292292 0.061671786 0.0093551576
0.0084795021 0.059356514 0.01166141
0.0091934483 0.058503762 0.012372494
0.010198541 0.059491489 0.013269246
0.010842334 0.058381796 0.014135778
0.011803142 0.05901571 0.01455605
0.012659519 0.059077751 0.014528453
0.01327944 0.058097549 0.014726251
0.014274281 0.058776453 0.014589727
0.015181469 0.059039045 0.014476568
0.015840698 0.058360469 0.014164656
0.016960405 0.059361417 0.013589472
0.017680254 0.058934178 0.012066692
-0.026466813 0.060617533 0.011490703
-0.025465071 0.060267333 0.012402028
-0.02471613 0.060511898 0.012701422
-0.023777388 0.060292661 0.013630718
-0.022885093 0.060179316 0.013920248
-0.021832278 0.059618913 0.014109999
-0.021175578 0.060138639 0.014068574
-0.020236628 0.059866689 0.013959676
-0.019542325 0.060326304 0.013720483
-0.018728171 0.060440913 0.01317212
-0.017765893 0.060065635 0.011964858
-0.017135467 0.060830913 0.010195136
-0.016497113 0.061647102 0.0078083873
0.007716245 0.060872599 0.0096897185
0.0084794825 0.060204323 0.011624873
0.0094027575 0.060690526 0.012281239
0.010201389 0.060358219 0.013219446
0.010921175 0.059646416 0.014110655
0.011969469 0.060702309 0.014389306
0.012601021 0.059644829 0.014561206
0.013495498 0.059886273 0.014697731
0.014127471 0.059002962 0.014596522
0.015223578 0.060048558 0.014395386
0.015922824 0.059501074 0.014156282
0.016874025 0.059902783 0.013648659
0.017714269 0.059891101 0.011927217
0.018629255 0.060121685 0.0052904189
-0.026249517 0.060966615 0.010827899
-0.025631854 0.061516449 0.012290686
-0.025014475 0.062104899 0.012660861
-0.023364821 0.060080964 0.013341576
-0.022821877 0.060858335 0.013779819
-0.022070443 0.061118148 0.01373446
-0.021040658 0.060597088 0.014053047
-0.02050826 0.061524779 0.013959676
-0.019445697 0.060873479 0.013749093
-0.018710859 0.061235536 0.013171762
-0.017798496 0.061023414 0.012274414
-0.017158037 0.06176893 0.010708988
-0.016497958 0.062518582 0.0083696544
0.0078165801 0.062532641 0.009768039
0.0084980102 0.061185673 0.011725605
0.0093590962 0.061259538 0.012345999
0.010203455 0.061220728 0.013121665
0.011014699 0.061004486 0.014010817
0.011669573 0.060014948 0.014339298
0.012588375 0.060424201 0.014462441
0.013415789 0.060371049 0.014589727
0.014333379 0.060706072 0.014543772
0.015101532 0.060406126 0.014329553
0.01600934 0.060666971 0.014118552
0.01655026 0.059580933 0.013594925
0.017845063 0.061183069 0.012097836
0.018763591 0.06140811 0.0054205358
-0.026553279 0.062528692 0.010326266
-0.02578399 0.062741041 0.012278706
-0.024550684 0.061799999 0.012615681
-0.023497047 0.06126016 0.013266772
-0.022968667 0.06210047 0.013746023
-0.021928508 0.061568506 0.013767838
-0.021392193 0.062465202 0.014073551
-0.020502172 0.062360778 0.013766676
-0.019420665 0.061639503 0.013766676
-0.018852897 0.062557347 0.013299763
-0.017768066 0.061765186 0.012251526
-0.017222425 0.062861852 0.010520905
-0.016300613 0.062628679 0.0086399019
0.0076798382 0.062292028 0.010189772
0.008455907 0.061728127 0.01173237
0.0093655484 0.062153187 0.012256116
0.010150056 0.061746184 0.0132204
0.010880492 0.061098147 0.01428476
0.011870927 0.061898407 0.014410734
0.012608937 0.061363496 0.014555067
0.013488552 0.06154152 0.014593124
0.014286349 0.061347265 0.014584213
0.015312811 0.062101964 0.014265954
0.015877103 0.061001502 0.013981014
0.016879724 0.061611 0.01342985
0.017405761 0.060505744 0.011658579
0.018657872 0.061910216 0.0050534308
-0.026558228 0.063397057 0.0094293952
-0.025460461 0.062802479 0.01189819
-0.024898848 0.06353499 0.012368977
-0.02382163 0.062957168 0.013017684
-0.022541754 0.061781101 0.013564706
-0.021831682 0.06213633 0.013585091
-0.021294452 0.063031577 0.01360628
-0.020366682 0.062797271 0.01347965
-0.019500181 0.062739715 0.01347965
-0.018631166 0.062668473 0.013142645
-0.01777654 0.062641144 0.012432128
-0.017247129 0.063814379 0.010728359
-0.016368493 0.063750975 0.0086160898
-0.015935687 0.06551338 0.0056309402
0.0069806632 0.064571135 0.007054776
0.0077163517 0.063445561 0.010695219
0.0084773274 0.062732227 0.012054831
0.00936139 0.062976629 0.012708008
0.010148428 0.062581979 0.013611704
0.010828919 0.06164154 0.014349073
0.011819518 0.062474601 0.014601827
0.012691421 0.062611014 0.014559835
0.013511327 0.06248989 0.014587075
0.014267792 0.062106859 0.01445964
0.015084993 0.062016085 0.014155805
0.016049864 0.062509991 0.013861567
0.016757263 0.062001877 0.012922555
0.01765834 0.06222463 0.010799348
-0.026385183 0.063835122 0.0077824891
-0.025834577 0.064586446 0.011510342
-0.024801023 0.064140573 0.012255132
-0.024001813 0.064290568 0.012947261
-0.022686657 0.063018493 0.0133681
-0.02216712 0.063943617 0.013390511
-0.021059092 0.06317728 0.013548404
-0.020462366 0.063944899 0.013508409
-0.019401982 0.063267335 0.013542801
-0.018678105 0.063675359 0.013396144
-0.017856546 0.063773379 0.012983233
-0.017251361 0.064692609 0.011734873
-0.016155265 0.063770786 0.010042727
-0.016232446 0.067635193 0.0065760314
0.0068979505 0.06466829 0.0092802048
0.0076832226 0.064026862 0.011248082
0.0085166525 0.0638749 0.012068868
0.0093644299 0.063848391 0.012828648
0.010191311 0.063695699 0.013712347
0.010913603 0.062963098 0.014555067
0.011795758 0.063191563 0.014667779
0.012612953 0.063064769 0.014448911
0.013643232 0.063952655 0.014473438
0.014220667 0.06273824 0.014397442
0.015348724 0.06395302 0.013969541
0.015901614 0.062769525 0.013295949
0.016512701 0.061922632 0.01206845
0.01770195 0.063221246 0.010104418
-0.02564723 0.064972989 0.010359913
-0.024619967 0.06452129 0.012034237
-0.023524063 0.063851029 0.0127711
-0.022976547 0.064674728 0.013284832
-0.022099553 0.064598694 0.013485312
-0.021393336 0.065035746 0.013676375
-0.020516228 0.064968057 0.013715833
-0.019508721 0.064463601 0.013850421
-0.018749895 0.064772367 0.013654321
-0.017866021 0.064657986 0.013374835
-0.0171801 0.065284379 0.012685657
-0.016095623 0.064382493 0.011360347
-0.015898669 0.067127712 0.0083689392
0.0062336405 0.067679524 0.0059375465
0.0068497704 0.06507282 0.010442555
0.0076851142 0.064896524 0.011860102
0.0084313313 0.064078122 0.012780309
0.0092356727 0.06381011 0.013032168
0.010116975 0.064074174 0.013886571
0.010977911 0.064178556 0.014610559
0.011870017 0.06443724 0.014712781
0.012684438 0.064267822 0.01456964
0.013437821 0.063829646 0.014425576
0.01424269 0.063673198 0.014395386
0.014988418 0.063284434 0.013792396
0.01604446 0.064177841 0.012868881
0.016803158 0.063852005 0.011262923
0.01817256 0.065767363 0.0051478446
-0.025597848 0.065701142 0.0085665882
-0.025046872 0.066503763 0.011318743
-0.023894617 0.065710194 0.012289196
-0.022691768 0.064713553 0.012891501
-0.021789555 0.064530604 0.013026744
-0.021286389 0.065562077 0.013194442
-0.020297358 0.06512069 0.013420284
-0.019561626 0.065488927 0.013612568
-0.01865972 0.065309025 0.013606787
-0.017821388 0.065345086 0.013486654
-0.017035842 0.065587997 0.013130337
-0.016300727 0.066060841 0.012219489
-0.01523455 0.06517002 0.010188818
-0.015497226 0.070193321 0.0078136623
0.0060497271 0.066546999 0.009922266
0.0068413448 0.065847948 0.011521101
0.0076492471 0.06544356 0.012519509
0.0084980773 0.065435201 0.013050228
0.0093150334 0.065205231 0.013669342
0.010196343 0.065426536 0.014264882
0.01088105 0.064449295 0.01456964
0.011936598 0.06565129 0.014643401
0.012617565 0.064770162 0.014435381
0.013575226 0.065330774 0.014357388
0.014336815 0.064937338 0.013988137
0.015087038 0.064539 0.013322741
0.016206404 0.065678582 0.01206845
0.016921017 0.065145917 0.0099738538
-0.024754783 0.066581823 0.010710776
-0.023542468 0.065582588 0.012131155
-0.022958551 0.066324703 0.012737513
-0.021931609 0.065794826 0.013142794
-0.021177929 0.066075131 0.013227135
-0.020465715 0.066513576 0.013495833
-0.019361494 0.065660715 0.013772398
-0.01831446 0.064933091 0.013710767
-0.017942373 0.066643097 0.013730645
-0.017194089 0.067056946 0.013240069
-0.016173868 0.06639798 0.012890875
-0.015298483 0.066293433 0.012233615
-0.014758099 0.067713626 0.009667933
-0.014525736 0.070812963 0.0057193935
0.0052776942 0.068610027 0.0087122917
0.005951819 0.06632027 0.010941058
0.0067462437 0.065775871 0.012275964
0.0075649032 0.065562494 0.012696981
0.0085210381 0.066464096 0.013532519
0.0092356661 0.06548927 0.014043748
0.01011334 0.065736711 0.014210075
0.010941298 0.065647788 0.014481455
0.01179454 0.065712437 0.014482737
0.012530942 0.0651609 0.01426214
0.01330577 0.064865626 0.013985306
0.014033306 0.064388111 0.013775498
0.015151041 0.065654516 0.012668461
0.015930787 0.065400071 0.010899782
-0.024971565 0.068025984 0.008395046
-0.023810461 0.067179516 0.011601835
-0.022952588 0.067157567 0.012257934
-0.02201442 0.066889971 0.012688905
-0.021214237 0.067036986 0.012968391
-0.020474715 0.06739594 0.013288081
-0.019318037 0.066353254 0.01374355
-0.018726356 0.067244649 0.013797492
-0.017640356 0.06636133 0.013788134
-0.01692907 0.066869825 0.013609886
-0.016072009 0.066825718 0.013338864
-0.015531156 0.06816452 0.013002455
-0.014214662 0.066056371 0.011934727
-0.014257791 0.070397846 0.0094476342
-0.013471942 0.070952229 0.0052235425
0.0044682249 0.070597954 0.0086831748
0.005138109 0.067651771 0.010786623
0.0059393798 0.067030139 0.011942327
0.006726312 0.066422328 0.012882024
0.0075823227 0.066555947 0.01342231
0.0084817326 0.067005686 0.014147013
0.0091984188 0.06606137 0.01434499
0.010066234 0.066269368 0.014355689
0.010866182 0.066032946 0.014536232
0.011785627 0.066504613 0.014481455
0.012739343 0.067093872 0.01425305
0.013312884 0.06573236 0.013891488
0.01432338 0.066561587 0.013755888
0.015089038 0.066224113 0.011945456
0.016185544 0.067297786 0.009927839
-0.023844233 0.068126373 0.0097921789
-0.022936838 0.067960992 0.011780024
-0.022022562 0.067761727 0.012514859
-0.021134013 0.067628838 0.012890875
-0.020379012 0.067930043 0.01322791
-0.019542247 0.067973033 0.013682306
-0.018525664 0.067366049 0.013877541
-0.017753581 0.067632683 0.013965875
-0.017109714 0.068438858 0.013797492
-0.01615059 0.068002485 0.013543606
-0.015149578 0.067331456 0.013443589
-0.014406933 0.067797333 0.012956351
-0.013474775 0.067373872 0.012547165
-0.013418907 0.071567506 0.0097955763
-0.012749608 0.072854899 0.00507918
0.0034878294 0.069756582 0.0087072253
0.0042702872 0.068324596 0.011026382
0.005087228 0.067829706 0.011795789
0.0059264982 0.06773141 0.012559623
0.0067321854 0.067321852 0.013267756
0.0075324336 0.066954963 0.01384902
0.0084053557 0.067242846 0.01425752
0.009358393 0.068061039 0.014400154
0.010075771 0.067171805 0.014466822
0.010906831 0.067118958 0.014524907
0.011866172 0.067806691 0.014339089
0.012554905 0.066959493 0.014173537
0.013426023 0.067130111 0.013757437
0.014511538 0.068289585 0.012230098
0.015181835 0.06747482 0.010001004
-0.023906212 0.069157258 0.0055586398
-0.023189846 0.069569536 0.011040986
-0.021853788 0.068082951 0.011812061
-0.020943394 0.067856587 0.012575477
-0.020324809 0.068596229 0.012984991
-0.019482054 0.068610705 0.013442844
-0.018574499 0.068387926 0.013970375
-0.017741259 0.068430573 0.014164776
-0.016961785 0.068695232 0.013965875
-0.015938634 0.067948915 0.013857365
-0.015251886 0.068633489 0.013788313
-0.014522807 0.069196895 0.013334334
-0.013487382 0.068279862 0.013254046
-0.012627678 0.068189457 0.012269109
-0.012072831 0.069849953 0.010776818
-0.011663329 0.07267151 0.0061279833
0.0026089253 0.070440985 0.0089692771
0.0033874204 0.06859526 0.011254013
0.0042308746 0.068540163 0.012089491
0.0050363666 0.067990944 0.012458712
0.0059173596 0.068472303 0.013065994
0.006747575 0.068319194 0.013796896
0.0076401057 0.068760946 0.013937831
0.0084018921 0.068055324 0.014226884
0.0092191566 0.067886516 0.014306575
0.010129685 0.068375371 0.01428467
0.0110227 0.068679899 0.014297098
0.011864622 0.068645313 0.014164954
0.012518385 0.067599282 0.013813585
0.013442473 0.068052523 0.013051003
0.014355317 0.068398856 0.011838675
0.015336786 0.06901554 0.0074191391
-0.023193043 0.070438132 0.0091555417
-0.022033788 0.069491185 0.011268944
-0.021234278 0.06964843 0.012195975
-0.020422239 0.069775991 0.012913018
-0.019462958 0.069389679 0.013495475
-0.018518204 0.069022402 0.013796866
-0.017851619 0.069706321 0.01412192
-0.016831798 0.069010384 0.014162272
-0.016138326 0.069649622 0.014282763
-0.015265928 0.069544785 0.014132142
-0.014305697 0.069003955 0.013679057
-0.013492255 0.06914781 0.01358059
-0.012735226 0.069619238 0.013198137
-0.011717582 0.06863156 0.012854964
-0.011129857 0.070203714 0.011446327
-0.010485848 0.071653306 0.0078614652
0.00088930788 0.072923243 0.0056860745
0.0017127743 0.070223749 0.010455251
0.0025343592 0.069272488 0.011844903
0.003383853 0.069368988 0.012444407
0.0041801273 0.068554088 0.01295045
0.0050736833 0.069340341 0.013246179
0.0058994172 0.069107458 0.01365757
0.0067165652 0.068844795 0.014136493
0.0076213228 0.069438726 0.014245689
0.0083356826 0.068352602 0.014473379
0.0092448657 0.068916276 0.014473379
0.010072433 0.0688283 0.014286458
0.010916417 0.068857409 0.014021128
0.011726775 0.068685405 0.013890952
0.012661804 0.069217868 0.013381571
0.013327041 0.068301082 0.011873096
0.014431505 0.069610797 0.0099567473
-0.022215033 0.070917226 0.010682851
-0.021368328 0.070942856 0.011375368
-0.020271994 0.070107318 0.012494028
-0.019526027 0.070463486 0.013089687
-0.018608753 0.070205756 0.013617575
-0.017712593 0.070006922 0.013924569
-0.017071569 0.070847012 0.014027029
-0.015959259 0.069716766 0.014165223
-0.015187534 0.070031412 0.01417923
-0.014307762 0.069855548 0.014068276
-0.013412096 0.06957525 0.013679266
-0.012826488 0.070973232 0.013710886
-0.011820392 0.070078038 0.013528973
-0.010820262 0.069083214 0.013055533
-0.010188484 0.070470348 0.012071222
-0.0093236743 0.070351362 0.010022789
-0.0086067151 0.071435742 0.0075157285
-0.0080011189 0.073788106 0.0063239932
-0.00087328552 0.072482698 0.0063285828
0 0.073201448 0.010450929
0.0008485085 0.070426211 0.011844426
0.001676225 0.069563337 0.012505144
0.002531494 0.070038006 0.012773782
0.0033434937 0.069377497 0.012859076
0.0041914927 0.069578782 0.013315439
0.0050654439 0.070071973 0.013691753
0.0058743539 0.069653057 0.013906419
0.0067996802 0.070546687 0.014038384
0.0075165611 0.069319397 0.014255702
0.0083381291 0.069206476 0.014319241
0.0093223602 0.070341453 0.01425603
0.010084644 0.069752119 0.014130652
0.010971535 0.070049033 0.013854951
0.011820392 0.070078038 0.013679296
0.012649287 0.069992729 0.012947023
0.013515186 0.07011003 0.010741442
-0.022428488 0.072461277 0.0074091256
-0.021216227 0.071286522 0.010706872
-0.020516383 0.07180734 0.012353748
-0.019486148 0.071166798 0.012874633
-0.018655846 0.071231417 0.013568521
-0.01783517 0.07134068 0.013951033
-0.016815105 0.07062345 0.014095068
-0.015853895 0.070090905 0.014233738
-0.015200344 0.070934944 0.014356583
-0.014392857 0.071117647 0.014327049
-0.013570452 0.071244873 0.014169931
-0.012746735 0.07138171 0.014233649
-0.011702606 0.070215642 0.014010459
-0.011042041 0.071348578 0.013762116
-0.010249962 0.071749732 0.013005406
-0.0091326609 0.069740325 0.012217849
-0.0084180776 0.070711859 0.011795223
-0.0076932157 0.071803354 0.011427522
-0.0069065383 0.072518654 0.0098994672
-0.0060957 0.0731484 0.0097746551
-0.0051832017 0.072564825 0.009765774
-0.0043132114 0.072461955 0.0078785419
-0.0034592547 0.072644353 0.0096228719
-0.0025898411 0.072515555 0.0096371174
-0.001711907 0.0719001 0.011697441
-0.00085011311 0.071409501 0.012291223
0 0.071048811 0.012619078
0.00084152014 0.070687689 0.012733102
0.0016899472 0.070977785 0.012859076
0.0025196665 0.070550665 0.013314188
0.0033382419 0.070103079 0.013492346
0.0042192321 0.070883103 0.013938159
0.005008853 0.070123948 0.013953656
0.0058881245 0.070657492 0.014250755
0.0067213457 0.070574127 0.014313579
0.0075928089 0.07086622 0.014261305
0.0084055495 0.070606619 0.014231682
0.0092684906 0.070777565 0.014052808
0.010065291 0.070457041 0.013937116
0.010954424 0.07078243 0.013442576
0.011747694 0.070486166 0.012874305
0.012608086 0.070605278 0.011873096
0.013666812 0.071750768 0.0072945654
-0.021476416 0.073019817 0.01001814
-0.020274552 0.071805708 0.011000246
-0.019443458 0.071856253 0.012686223
-0.018829884 0.072751828 0.013272405
-0.017723607 0.071738407 0.013594061
-0.016984154 0.072182655 0.013879538
-0.015955703 0.071380779 0.014186531
-0.015190531 0.071733065 0.014415145
-0.014276183 0.071380913 0.014343113
-0.013541671 0.071940131 0.014343351
-0.012703644 0.071987316 0.014346123
-0.011813532 0.071725011 0.014240831
-0.010920219 0.071401432 0.014023662
-0.010092402 0.071487851 0.01346916
-0.0093005365 0.071867786 0.01337567
-0.0085593127 0.072754167 0.013119251
-0.0076141953 0.071911849 0.013363302
-0.0067666103 0.071895234 0.01268068
-0.0058120959 0.070575453 0.01302141
-0.0050675105 0.071789734 0.013075083
-0.0042042774 0.071472719 0.01294288
-0.0033596954 0.071393527 0.012932688
-0.0025282339 0.071633294 0.01308313
-0.001700306 0.072263002 0.013624012
-0.00084920629 0.072182536 0.013396502
0 0.071863361 0.013579816
0.0008407369 0.071462639 0.013281405
0.00166285 0.070671126 0.013837636
0.0025074785 0.07104522 0.013962686
0.003408601 0.072432771 0.01406312
0.0041717743 0.070920162 0.014202714
0.0050846855 0.072033048 0.014178544
0.0058797225 0.071396627 0.014221519
0.0066840793 0.071018338 0.014338851
0.0076549822 0.072297059 0.014196455
0.0084537752 0.071857087 0.013976663
0.0091969129 0.071067058 0.013652742
0.010150351 0.071898319 0.013448328
0.010889996 0.07120382 0.013129056
0.011793504 0.071603417 0.012093872
0.012886032 0.073020846 0.0095825791
-0.020239949 0.072526485 0.010405868
-0.019637529 0.073427282 0.012136996
-0.018597657 0.072699934 0.012976855
-0.017898362 0.073298052 0.013417482
-0.017101727 0.073537432 0.013686597
-0.015987171 0.072362982 0.014225304
-0.015177425 0.07251437 0.014323592
-0.014349907 0.072593644 0.014531434
-0.013392754 0.071986057 0.014630198
-0.012781162 0.073278658 0.014671981
-0.011769135 0.072296113 0.014565587
-0.010882887 0.071994483 0.014343262
-0.010148745 0.072732672 0.013895661
-0.0093442956 0.073055409 0.013576001
-0.0082665002 0.071091905 0.013561845
-0.0074896202 0.071567483 0.013688475
-0.0067660152 0.072734661 0.013366252
-0.0058975806 0.072455995 0.013670951
-0.0051339464 0.073586568 0.013630241
-0.0042471346 0.073050715 0.013736993
-0.0033861152 0.072801478 0.013510436
-0.0025212197 0.072274968 0.013823718
-0.0016871571 0.072547756 0.014094412
-0.00083923433 0.072174154 0.013976276
0 0.072297417 0.0142425
0.00084036693 0.072271556 0.014157325
0.0016834612 0.072388835 0.014197558
0.0025031574 0.071757182 0.014235109
0.0033458185 0.071935095 0.014235109
0.0041973609 0.072194614 0.014262825
0.0051124883 0.073278993 0.01414597
0.0058487644 0.071856245 0.014242649
0.0067822263 0.07290893 0.014222085
0.0075765159 0.072397821 0.01383394
0.0083302669 0.071640298 0.013791502
0.0093757603 0.073301405 0.013587087
0.010144453 0.072701924 0.013284445
0.01081395 0.071538441 0.012124181
0.011875899 0.07295195 0.011299431
0.013091241 0.075056449 0.0057311654
-0.020841945 0.075552054 0.0068499148
-0.019507017 0.073787414 0.010566533
-0.018589394 0.073512599 0.012363017
-0.017802922 0.073754959 0.01318115
-0.016966755 0.073805384 0.013348907
-0.016071662 0.073591299 0.014073431
-0.015234962 0.073635653 0.014315724
-0.014284824 0.073104687 0.014583141
-0.013435384 0.073054902 0.014672935
-0.012500376 0.072502181 0.014807254
-0.011698038 0.072694957 0.014685482
-0.010891209 0.072887324 0.014523804
-0.01023213 0.074182943 0.014078528
-0.0091979578 0.072747484 0.013940185
-0.0084528411 0.073539719 0.014058888
-0.0075870804 0.073341779 0.014066815
-0.0067034285 0.072899789 0.013702333
-0.0059337355 0.073747858 0.013944358
-0.005042647 0.073118381 0.013944358
-0.0042208126 0.073442139 0.013840258
-0.0033905634 0.073744752 0.013927042
-0.0025286761 0.073331609 0.014312536
-0.0016843794 0.0732705 0.014521211
-0.00084660633 0.073654748 0.014615208
0 0.072302029 0.014888376
0.00083331944 0.072498791 0.014575303
0.0016712714 0.072700307 0.014367223
0.0024664737 0.071527734 0.014388174
0.0033345583 0.072526641 0.014377922
0.0041642138 0.072457321 0.014377922
0.005005829 0.072584517 0.014053077
0.0058732685 0.072996341 0.014210016
0.0067410776 0.073309213 0.014162093
0.0075924415 0.073393606 0.013859838
0.0084474804 0.073493086 0.013427824
0.009258233 0.073224209 0.013331175
0.010012722 0.072592229 0.012718946
0.011063852 0.0740427 0.011252046
0.012105703 0.075228296 0.0072598755
-0.019654136 0.075198434 0.0096216798
-0.018600652 0.074402608 0.010937542
-0.017806148 0.074616238 0.012397647
-0.017007886 0.074834697 0.013058305
-0.01599887 0.074100025 0.013579637
-0.015215249 0.074385665 0.014029801
-0.01432189 0.074136838 0.014186919
-0.013540733 0.074474029 0.014523804
-0.012754524 0.074826539 0.014750838
-0.011761934 0.073932163 0.014669269
-0.010908746 0.073843822 0.014539421
-0.010021075 0.073487878 0.014439166
-0.0093607977 0.074886382 0.014454156
-0.0084651029 0.074492909 0.014439166
-0.007492031 0.07325542 0.014449596
-0.0067280354 0.07400839 0.01437819
-0.0058435299 0.073461518 0.014363468
-0.0050300132 0.073773526 0.014436185
-0.004175439 0.073487729 0.014528245
-0.0033625932 0.073977046 0.014435649
-0.0025198536 0.073915705 0.014743775
-0.0016929096 0.074488021 0.014755487
-0.00083860155 0.073796935 0.014956295
0 0.073891483 0.01490286
0.00083973305 0.073896505 0.014651299
0.0016706376 0.073508054 0.014517337
0.0025162806 0.073810898 0.014457434
0.0033018535 0.072640777 0.014377922
0.0042400481 0.074624844 0.014302731
0.005063239 0.074260838 0.014025331
0.0058902116 0.07404837 0.014124572
0.0066989795 0.073688768 0.014044851
0.0076249186 0.074554756 0.013367832
0.0083490126 0.073471308 0.013287753
0.0092619192 0.074095353 0.012648493
0.010166079 0.074551247 0.011675
0.010971421 0.07426808 0.0087440312
-0.018824928 0.076155387 0.0099245608
-0.017799281 0.075435042 0.011510462
-0.016822971 0.074862227 0.012357056
-0.016039029 0.075130187 0.013179123
-0.015217946 0.075244293 0.013481259
-0.014430615 0.075548507 0.013991326
-0.013429881 0.074703708 0.014184415
-0.012749594 0.075647585 0.014635444
-0.011819033 0.075135276 0.014684021
-0.010833398 0.074167103 0.014643103
-0.010142876 0.075226329 0.014663607
-0.0091470871 0.074008249 0.014751077
-0.0084564779 0.075262658 0.014910221
-0.0076144738 0.075298689 0.015001595
-0.0067787617 0.075413726 0.014724195
-0.0058346177 0.074182995 0.014903158
-0.0050459299 0.074847959 0.014825493
-0.0042166845 0.075056985 0.014910221
-0.0033415372 0.074349202 0.014739364
-0.0025622714 0.076014057 0.014917791
-0.0016683284 0.07424061 0.014990419
-0.00083333842 0.074167117 0.014963806
0 0.074347444 0.014859051
0.00083476695 0.074294254 0.014651299
0.0016629718 0.074002244 0.014359772
0.0025224537 0.07483279 0.014399409
0.003337252 0.07425385 0.014279157
0.0041881171 0.074548483 0.014242411
0.0050470014 0.074863851 0.013853341
0.0058850241 0.074823879 0.013885409
0.0067273462 0.074841723 0.013721138
0.0075368187 0.074530765 0.013039559
0.0084017366 0.07477545 0.012497097
0.0092387153 0.074749604 0.011758626
0.010312079 0.076481253 0.010197788
0.011182188 0.076554984 0.0050400794
-0.018833226 0.077045023 0.0050207376
-0.01786593 0.076568276 0.0099547803
-0.017038632 0.07667385 0.011596203
-0.015970666 0.075650521 0.012364089
-0.015177764 0.075888827 0.013045728
-0.014421932 0.076351412 0.013564974
-0.013602495 0.076514035 0.013741225
-0.012640265 0.075841591 0.013999641
-0.011720355 0.075345144 0.014289021
-0.010836136 0.075019404 0.014376789
-0.010076113 0.075570852 0.014403403
-0.0092880912 0.075993478 0.014529318
-0.0083931014 0.075537913 0.014671266
-0.0075986446 0.075986452 0.014779747
-0.0066866511 0.075224824 0.014559865
-0.0059035411 0.075902678 0.014819354
-0.0050289673 0.075434513 0.014797091
-0.0042108702 0.075795673 0.014724195
-0.0033783047 0.076011859 0.014715821
-0.002509332 0.075279966 0.014892757
-0.0016667261 0.075002678 0.015036374
-0.00083902187 0.07551197 0.014956295
0 0.075233795 0.014895141
0.0008346198 0.075115785 0.014585495
0.0016755302 0.075398862 0.014296502
0.0025220024 0.07566008 0.014332354
0.003380208 0.076054685 0.014219046
0.0042043272 0.075677894 0.013962686
0.0050071971 0.075107962 0.013691366
0.0058594071 0.075335242 0.013419569
0.0067475555 0.075910002 0.013121635
0.0076211258 0.076211266 0.012113929
0.0084436517 0.075992867 0.01158902
0.0092808949 0.075934604 0.010259569
0.010263777 0.076978333 0.0058387816
-0.017997252 0.077988088 0.0051458478
-0.017011672 0.077403121 0.0099484622
-0.016162958 0.077412061 0.011505753
-0.01508408 0.076258413 0.012004048
-0.014340467 0.076763675 0.012679935
-0.013458305 0.076544113 0.012830704
-0.012451659 0.075540066 0.013642401
-0.011778113 0.076557741 0.013727993
-0.01089907 0.076293491 0.013727993
-0.010067845 0.076347828 0.013958991
-0.0092536779 0.076553158 0.014274448
-0.0084290067 0.076703966 0.014403403
-0.007628263 0.077130221 0.014413834
-0.0067705587 0.077015102 0.014274448
-0.0059157643 0.076904938 0.014239758
-0.0050654998 0.076826751 0.014312536
-0.0042178207 0.076764345 0.014497459
-0.0034245257 0.077907965 0.014428169
-0.0025013825 0.075875275 0.014421612
-0.0016925847 0.077012606 0.014441401
-0.00084035425 0.076472238 0.014500499
0 0.076423772 0.014453173
0.00084326754 0.076737352 0.014467776
0.0016778396 0.076341704 0.014084488
0.0025375905 0.07697358 0.014034718
0.0033360587 0.075895339 0.013689637
0.0041206167 0.074995227 0.013556212
0.0050811945 0.07706479 0.012948722
0.005931993 0.077115908 0.012874842
0.006702078 0.076236144 0.012129068
0.0076443125 0.077292502 0.011231899
0.0084801242 0.077169135 0.010354102
0.0092857135 0.076818183 0.0058387816
-0.017317027 0.079658322 0.0050268769
-0.016270366 0.078782819 0.0095928609
-0.015256496 0.07797765 0.01136291
-0.014424538 0.078062214 0.01178503
-0.01337215 0.076889865 0.011774331
-0.012677392 0.077754676 0.012462437
-0.011647005 0.07653746 0.013276488
-0.010817485 0.076554514 0.013276488
-0.010076636 0.077254206 0.013399154
-0.0093316399 0.078046449 0.013469607
-0.0083555188 0.076870777 0.014031053
-0.0076166349 0.07785894 0.01409772
-0.0068163127 0.078387596 0.013940185
-0.0058551552 0.076953471 0.01412794
-0.0050755828 0.077825606 0.014039934
-0.0042244424 0.077729747 0.014345974
-0.0033504092 0.077059411 0.014095724
-0.0025494038 0.078181721 0.014191061
-0.0016795426 0.077258959 0.014175266
-0.00084215577 0.077478334 0.014288664
0 0.077921398 0.014173299
0.00083971937 0.077254184 0.013934821
0.0016624287 0.076471724 0.013757169
0.0025255161 0.077449158 0.013908088
0.0033499338 0.077048481 0.013312429
