ply
format ascii 1.0
comment PCL generated
element vertex 1266
property float x
property float y
property float z
element camera 0
property float view_px
property float view_py
property float view_pz
property float x_axisx
property float x_axisy
property float x_axisz
property float y_axisx
property float y_axisy
property float y_axisz
property float z_axisx
property float z_axisy
property float z_axisz
property float focal
property float scalex
property float scaley
property float centerx
property float centery
property int viewportx
property int viewporty
property float k1
property float k2
end_header
-0.072234958 -0.029383712 0.011041105
-0.070850663 -0.029317517 0.011232078
-0.069089733 -0.029090412 0.011136353
-0.06837754 -0.029304659 0.011189044
-0.067411713 -0.029416021 0.011323273
-0.065999478 -0.0293331 0.011467338
-0.065118633 -0.029487683 0.011501342
-0.063433006 -0.029276771 0.011499852
-0.062593445 -0.02945574 0.011470884
-0.061515141 -0.029527267 0.01146239
-0.059674967 -0.029228555 0.011470467
-0.058892678 -0.029446339 0.01147902
-0.058154713 -0.029696023 0.011446089
-0.055218536 -0.02880967 0.01132068
-0.054866992 -0.029262397 0.011357754
-0.053769033 -0.029328564 0.011125296
-0.052303225 -0.029192496 0.01107502
-0.051375125 -0.029357215 0.01107502
-0.050443079 -0.029527657 0.011125296
-0.048727948 -0.029236769 0.011181146
-0.04750479 -0.029233716 0.011331707
-0.04640146 -0.029306185 0.01139003
-0.044773329 -0.02904216 0.011331707
-0.044202235 -0.029468156 0.011535615
-0.042588715 -0.029203691 0.011825174
-0.041325007 -0.029170591 0.012192756
-0.040360346 -0.02935298 0.012322992
-0.038566042 -0.028924532 0.012626857
-0.037669446 -0.029163443 0.012781441
-0.036734607 -0.029387686 0.01299116
-0.035301626 -0.029215138 0.012748688
-0.034252033 -0.029358884 0.012482435
-0.032834146 -0.029185906 0.012090057
-0.031699151 -0.029260755 0.011958271
-0.030423976 -0.029207017 0.011924177
-0.029002739 -0.029002739 0.011577517
-0.027998412 -0.029215733 0.011200666
-0.026925368 -0.029373128 0.011138678
-0.025727922 -0.02940334 0.011109948
-0.024505911 -0.029407095 0.010841846
-0.023290379 -0.029419426 0.010692209
-0.022051774 -0.029402364 0.010353237
-0.020744089 -0.029285774 0.010275424
-0.019695342 -0.029543012 0.010018915
-0.018236022 -0.029177636 0.0093617141
-0.017341498 -0.029728282 0.0087716877
-0.015976721 -0.029495485 0.0087596178
-0.014926475 -0.029852951 0.0085183382
-0.013717751 -0.02992964 0.0083799958
-0.012446526 -0.029871663 0.008351773
-0.010934466 -0.029158577 0.0082666874
-0.0098891407 -0.029667422 0.0085469782
-0.0085672643 -0.029373478 0.0086942315
-0.007375102 -0.029500408 0.0095086396
-0.0061232843 -0.029391764 0.010245621
-0.0048419833 -0.0290519 0.010052592
-0.0036110962 -0.028888769 0.010540992
-0.0024410661 -0.029292794 0.010562271
-0.0012040334 -0.028896803 0.010656387
0 -0.028981702 0.010806948
0.0012073844 -0.028977225 0.01051268
0.0023850142 -0.028620172 0.010244459
0.0036736054 -0.029388843 0.0091392994
0.0049133864 -0.029480318 0.0082110763
0.006116278 -0.029358136 0.0068929195
-0.15970401 -0.029622519 0.0069443583
-0.15397201 -0.028791517 0.011067033
-0.15409958 -0.029051561 0.016937494
-0.14891352 -0.028305875 0.017879367
-0.14565586 -0.027917372 0.019289702
-0.14608365 -0.028234655 0.019717783
-0.14367892 -0.028005213 0.02006802
-0.14391211 -0.028290415 0.020080984
-0.14366691 -0.02848568 0.020090699
-0.14189695 -0.02837939 0.020090699
-0.14041533 -0.028329408 0.019844323
-0.14089142 -0.028677015 0.019070208
-0.13773136 -0.028284118 0.018861145
-0.1385968 -0.028718255 0.018624723
-0.13722296 -0.028692074 0.018055737
-0.13446654 -0.028373674 0.017641127
-0.13653123 -0.029076098 0.017451912
-0.13206443 -0.028387681 0.017431438
-0.12960047 -0.028120855 0.017312974
-0.13012126 -0.028502753 0.017539322
-0.12747057 -0.028190607 0.016416371
-0.12630309 -0.028203605 0.016408503
-0.12574807 -0.028354958 0.016619116
-0.12365269 -0.028158534 0.016861618
-0.12245926 -0.028165629 0.017053515
-0.12128215 -0.028176662 0.016793907
-0.11885088 -0.027893575 0.016966313
-0.11868202 -0.028141096 0.016989917
-0.11740591 -0.028128499 0.016914517
-0.1154432 -0.027949406 0.017134041
-0.11511692 -0.028166905 0.017277688
-0.11446851 -0.028309416 0.017107189
-0.11089083 -0.027722707 0.016880631
-0.11189116 -0.028280184 0.016867578
-0.10958163 -0.028004194 0.016769409
-0.10776539 -0.027849484 0.015809804
-0.10854798 -0.028370496 0.015692532
-0.10601863 -0.028027914 0.015519142
-0.10516141 -0.028124565 0.015582621
-0.10509083 -0.02843634 0.01564756
-0.10262977 -0.02810101 0.01564756
-0.10115661 -0.028031351 0.015519142
-0.10091706 -0.028306004 0.015123308
-0.099009559 -0.028113825 0.015128344
-0.098450944 -0.028304646 0.014581472
-0.097568892 -0.028406134 0.014376044
-0.094205804 -0.027778635 0.014003515
-0.09478724 -0.028313071 0.013841629
-0.092948861 -0.028129261 0.013378918
-0.090541556 -0.027766077 0.012541294
-0.090952635 -0.028269064 0.012524366
-0.089124598 -0.028080352 0.012293607
-0.087860189 -0.028066451 0.012291312
-0.087077715 -0.028208273 0.012100756
-0.085451022 -0.028076764 0.011754215
-0.083930224 -0.02797674 0.011754215
-0.083658934 -0.028296405 0.011590093
-0.082067899 -0.028172564 0.011199385
-0.08034008 -0.0279973 0.010977507
-0.080049388 -0.028325168 0.010900319
-0.077320307 -0.027786987 0.010869384
-0.077639185 -0.028344464 0.010879546
-0.075984262 -0.028187711 0.010753274
-0.074085049 -0.027933707 0.010695279
-0.073848143 -0.028308453 0.010748088
-0.072554819 -0.028284082 0.011187881
-0.070221074 -0.02784629 0.011787951
-0.070055656 -0.028268071 0.011928856
-0.068053029 -0.027950352 0.012318671
-0.067205735 -0.028104216 0.012339056
-0.066351429 -0.028260794 0.012285978
-0.065038428 -0.028224222 0.012435019
-0.063687325 -0.028169395 0.012243867
-0.063431583 -0.028606402 0.012378454
-0.060973916 -0.028048001 0.012150466
-0.060142994 -0.028230386 0.012151927
-0.059664812 -0.02858939 0.012479335
-0.056877654 -0.027833745 0.012035578
-0.056229096 -0.028114548 0.012059331
-0.055161089 -0.028193444 0.01153931
-0.053044155 -0.027727626 0.011620462
-0.052784968 -0.028233819 0.011620462
-0.051568378 -0.028239826 0.011493266
-0.049548402 -0.027795445 0.011740267
-0.048812695 -0.0280673 0.011962771
-0.047187805 -0.027828706 0.012158155
-0.0460326 -0.027861835 0.01203835
-0.045323152 -0.028173853 0.011789382
-0.043787066 -0.027975069 0.011832535
-0.042773411 -0.028108241 0.012035549
-0.041911051 -0.028351592 0.012284607
-0.040368244 -0.028135443 0.012212485
-0.039213091 -0.028184408 0.012259066
-0.037983805 -0.028181532 0.012288243
-0.036424663 -0.027925577 0.012363613
-0.035498887 -0.028154291 0.012028575
-0.034331903 -0.028201206 0.012003869
-0.033241063 -0.028316462 0.01193127
-0.031785995 -0.028118381 0.01180476
-0.030735508 -0.028276667 0.011851847
-0.029405499 -0.02818027 0.011317164
-0.028440379 -0.028440379 0.010855347
-0.026906546 -0.02812957 0.010568649
-0.025776386 -0.02823128 0.010622144
-0.024741905 -0.02845319 0.010077298
-0.023186242 -0.028067557 0.0099033415
-0.02208785 -0.028223364 0.010064155
-0.020864055 -0.028227838 0.0099200308
-0.019512162 -0.028048733 0.0093052387
-0.018523624 -0.028402889 0.0091119409
-0.01729113 -0.028406857 0.0085473955
-0.016404891 -0.029024037 0.0084201992
-0.015012627 -0.028774202 0.0087622106
-0.013757201 -0.028765056 0.0088742077
-0.012193722 -0.028045561 0.0088632703
-0.01114986 -0.028494086 0.0088665485
-0.0098418323 -0.028295267 0.0087552965
-0.0086073149 -0.028281178 0.0087236464
-0.0073732468 -0.028264113 0.0093831718
-0.0061144298 -0.028126378 0.0097628832
-0.0048500132 -0.027887577 0.0096174479
-0.0036821822 -0.028230064 0.0099122226
-0.0024101113 -0.027716279 0.010245621
-0.0011986094 -0.027568016 0.010310024
0 -0.027904384 0.010078907
0.0011983657 -0.02756241 0.0095319152
0.0024406931 -0.028067969 0.0097898543
0.0036646375 -0.028095555 0.0079205036
0.004852694 -0.027902989 0.0060754418
-0.15579909 -0.027641773 0.0077466965
-0.15664962 -0.028018631 0.01067555
-0.15397047 -0.027765166 0.01575765
-0.14797436 -0.026904428 0.017922223
-0.14637648 -0.026835686 0.019033283
-0.14357454 -0.026543191 0.019600719
-0.14163056 -0.026405696 0.019836187
-0.1437403 -0.027028089 0.019836187
-0.13892195 -0.026347267 0.019996643
-0.1405226 -0.026882583 0.019914865
-0.14167011 -0.027339846 0.019663632
-0.1394794 -0.02715528 0.01933834
-0.13990527 -0.027481392 0.019126534
-0.13830909 -0.027412614 0.018379748
-0.13532883 -0.027065767 0.018382013
-0.1370347 -0.027658381 0.018154919
-0.13559635 -0.027621478 0.017950594
-0.1345823 -0.027671127 0.017880201
-0.13162833 -0.027319089 0.018100888
-0.12966871 -0.027168684 0.017680407
-0.12773347 -0.02702054 0.017473608
-0.12793684 -0.027326316 0.017501771
-0.12446477 -0.026845343 0.017635107
-0.12329996 -0.026857417 0.01750055
-0.12279536 -0.027014978 0.017511427
-0.120614 -0.02680311 0.017379314
-0.11924452 -0.026769178 0.017276585
-0.12006522 -0.027231285 0.017483503
-0.115739 -0.026523521 0.0174613
-0.11723303 -0.027148701 0.017501503
-0.11579064 -0.027099939 0.017628789
-0.11270742 -0.02666197 0.01756689
-0.11363753 -0.027174192 0.017192185
-0.11147413 -0.026949791 0.01707834
-0.10934559 -0.026728923 0.017005205
-0.10889201 -0.026917126 0.016392678
-0.10738488 -0.026846219 0.016390324
-0.10637009 -0.026898185 0.016016841
-0.1061748 -0.027160995 0.015577465
-0.10323625 -0.026719971 0.015589148
-0.10256396 -0.026861992 0.015539259
-0.10245794 -0.027157526 0.015130907
-0.099986523 -0.026825653 0.015026301
-0.099231303 -0.026951712 0.015026301
-0.098607861 -0.027117161 0.0142501
-0.096543588 -0.026885556 0.013890326
-0.095846824 -0.02703372 0.013648152
-0.094528541 -0.027008153 0.013452172
-0.091656461 -0.026532134 0.013388425
-0.092247359 -0.027059225 0.013166159
-0.091186829 -0.027109597 0.013265908
-0.088310249 -0.026614048 0.0124605
-0.088338673 -0.026992371 0.012562811
-0.08680021 -0.02689584 0.012362361
-0.086067811 -0.027049884 0.012191474
-0.085288174 -0.027193332 0.01199311
-0.082976259 -0.02684526 0.011862934
-0.081829749 -0.02686947 0.01163125
-0.081485875 -0.02716196 0.011648834
-0.079599246 -0.026941283 0.011712134
-0.078543968 -0.026999488 0.011677474
-0.07761196 -0.02710259 0.011641175
-0.074957274 -0.026597742 0.011557341
-0.075142421 -0.027100544 0.011418223
-0.073471583 -0.026939582 0.011882603
-0.071832411 -0.026784966 0.011886954
-0.071381405 -0.027075704 0.012263626
-0.069886602 -0.026973777 0.012414396
-0.06923829 -0.027200757 0.012714207
-0.068144485 -0.027257793 0.01273483
-0.065988995 -0.026884405 0.012416244
-0.064410552 -0.026736455 0.012414038
-0.063859537 -0.027017497 0.012714207
-0.062441707 -0.026935637 0.012958974
-0.060786031 -0.026745854 0.012974888
-0.060263921 -0.02705727 0.01290974
-0.058198143 -0.026674148 0.013012588
-0.057644948 -0.026982741 0.01207453
-0.056133959 -0.026846677 0.012250274
-0.054749265 -0.026766308 0.012184948
-0.054157391 -0.027078696 0.01216352
-0.052534457 -0.026878094 0.012232691
-0.050929252 -0.026677229 0.012421399
-0.05058156 -0.027141323 0.012502342
-0.048824392 -0.026853416 0.012315601
-0.047627222 -0.026866637 0.012315601
-0.046845667 -0.027121175 0.01231876
-0.045239698 -0.02689928 0.012275934
-0.043878425 -0.026814593 0.012473822
-0.043008771 -0.027034085 0.012350321
-0.04158045 -0.026904996 0.012750089
-0.040287737 -0.026858492 0.012792051
-0.039307933 -0.027024204 0.012724847
-0.037605029 -0.026687438 0.012686819
-0.036816154 -0.026998512 0.012669057
-0.035570797 -0.026984742 0.012351662
-0.034297548 -0.026948072 0.012298524
-0.033140637 -0.027003484 0.012213916
-0.032085985 -0.027149681 0.011903614
-0.030411467 -0.026762092 0.011499584
-0.02967811 -0.027204933 0.011222154
-0.02825685 -0.027028292 0.010877758
-0.027045455 -0.027045455 0.010455608
-0.025986914 -0.027224384 0.010425031
-0.024522629 -0.02697489 0.010359019
-0.023817239 -0.027577857 0.010064334
-0.0228018 -0.027868865 0.010123253
-0.02172154 -0.028110227 0.010123253
-0.020857839 -0.028679529 0.0095019042
-0.01958259 -0.028721131 0.0092485845
-0.017580722 -0.027626848 0.0091780126
-0.01639677 -0.027748382 0.0091780126
-0.015038753 -0.027571047 0.0093126297
-0.013506535 -0.027013069 0.0096569061
-0.012454849 -0.027400669 0.0098689497
-0.011095478 -0.02712228 0.010073394
-0.0098207826 -0.027007153 0.0098901689
-0.0085513797 -0.026875764 0.0096714497
-0.007349785 -0.02694921 0.010728538
-0.0060452395 -0.026599053 0.010977149
-0.0049118572 -0.027015213 0.010421187
-0.0036604002 -0.026842935 0.010715961
-0.0024264166 -0.026690582 0.01152572
-0.0012233923 -0.02691463 0.011192322
0 -0.026656071 0.011044472
0.0012184583 -0.026806081 0.010311007
0.0024530964 -0.026984062 0.0098294914
0.0036582074 -0.026826853 0.0071183145
0.004976179 -0.027368983 0.005432725
-0.15804805 -0.026766201 0.0080267787
-0.15535837 -0.026524602 0.011477351
-0.14939791 -0.025716035 0.016415298
-0.14956719 -0.02595794 0.018590808
-0.14741816 -0.025798179 0.01968804
-0.14451809 -0.025503192 0.020322293
-0.14366302 -0.025567148 0.020643115
-0.14218599 -0.025520561 0.020718217
-0.14019653 -0.025380408 0.020966798
-0.1398748 -0.025542354 0.020923764
-0.14013907 -0.025815094 0.020534039
-0.14003414 -0.026024045 0.020227879
-0.1386421 -0.025995394 0.019479126
-0.13657431 -0.025838384 0.018724799
-0.13751087 -0.026252074 0.018840671
-0.13568117 -0.026140409 0.018131942
-0.13331446 -0.025922256 0.018073499
-0.13492669 -0.026480939 0.017951101
-0.13288735 -0.026326738 0.017912
-0.12989599 -0.025979197 0.01737231
-0.12873127 -0.025993811 0.017143339
-0.12658636 -0.025808871 0.01711446
-0.125848 -0.02590988 0.017100245
-0.12544586 -0.026082801 0.017433971
-0.12239792 -0.025703564 0.017506003
-0.12097552 -0.025661474 0.017486662
-0.12104625 -0.025938483 0.017217189
-0.11830659 -0.025612768 0.017021179
-0.11813722 -0.025842518 0.017010152
-0.11699504 -0.02586206 0.017083734
-0.11321963 -0.025293747 0.017222136
-0.1142124 -0.025789896 0.016903609
-0.1131008 -0.025816487 0.017353475
-0.11081334 -0.025572309 0.017071128
-0.11061715 -0.02581067 0.016963273
-0.10993306 -0.025939262 0.016895562
-0.10715843 -0.025571898 0.016514927
-0.10732669 -0.025906442 0.016149729
-0.10510813 -0.025665937 0.015789002
-0.10409591 -0.025717814 0.015675932
-0.10317853 -0.025794633 0.015229434
-0.10097644 -0.025548255 0.015130311
-0.10064577 -0.025775136 0.015032142
-0.099558793 -0.02581154 0.014739752
-0.09686245 -0.025426393 0.014391154
-0.097684704 -0.025966821 0.014151275
-0.096204557 -0.025901226 0.013804525
-0.09324231 -0.025429722 0.013605624
-0.093774594 -0.025911402 0.01371026
-0.09193176 -0.025740894 0.013421476
-0.09000659 -0.02554241 0.013280541
-0.089901321 -0.025862025 0.013148636
-0.088423759 -0.025790263 0.013005733
-0.086960822 -0.025720807 0.012675345
-0.086007774 -0.025802333 0.012357593
-0.084193535 -0.025624119 0.012128353
-0.082587212 -0.025504874 0.011990696
-0.082891166 -0.025980813 0.011790365
-0.080504969 -0.025615217 0.011961251
-0.079113543 -0.025559759 0.011985719
-0.079451233 -0.026069935 0.011955976
-0.076970205 -0.025656734 0.012003601
-0.076042235 -0.025756242 0.011817545
-0.075100891 -0.025854405 0.01183176
-0.073138028 -0.02559831 0.012172908
-0.072880171 -0.025940401 0.012163669
-0.071583107 -0.025918022 0.012311101
-0.06965185 -0.02566121 0.012200058
-0.069227085 -0.025960155 0.012510478
-0.067250662 -0.025677526 0.012510478
-0.066395462 -0.025820456 0.01255843
-0.065692909 -0.026029265 0.013274193
-0.064169511 -0.025914609 0.013082892
-0.062382229 -0.0256868 0.012672722
-0.06161014 -0.025876259 0.012868106
-0.059774209 -0.025617518 0.012811869
-0.05879239 -0.025721671 0.012902319
-0.05756731 -0.025721563 0.012842536
-0.055526353 -0.025348987 0.012582183
-0.055393983 -0.025850525 0.012811035
-0.054103266 -0.025822014 0.012735337
-0.052314937 -0.025549155 0.01270926
-0.051455162 -0.025727581 0.01270926
-0.050300039 -0.025763435 0.012671798
-0.048758209 -0.02559806 0.012654096
-0.048243556 -0.0259773 0.012278169
-0.046524648 -0.025710991 0.012359291
-0.045265935 -0.025691478 0.012396425
-0.044264309 -0.025820848 0.012414664
-0.042878557 -0.025727134 0.012456834
-0.041782029 -0.025806546 0.012517154
-0.040533517 -0.025794055 0.012517154
-0.039109144 -0.025665376 0.012387156
-0.038257699 -0.025916506 0.012205184
-0.03701783 -0.02591248 0.012024045
-0.035432823 -0.025658252 0.012062162
-0.034433112 -0.025824834 0.011951923
-0.033494517 -0.02605129 0.011530578
-0.031721998 -0.025621613 0.011183918
-0.030719513 -0.025804391 0.011139303
-0.029503977 -0.025815981 0.0099079907
-0.028375277 -0.025907863 0.0092612803
-0.027169447 -0.025934473 0.009128809
-0.025773168 -0.025773168 0.0091071427
-0.025556369 -0.026834186 0.0092072487
-0.023967082 -0.026489932 0.0091627836
-0.022327134 -0.026048323 0.0091071427
-0.02109007 -0.02605244 0.0092110336
-0.019882675 -0.026096012 0.0093954802
-0.018522209 -0.025931092 0.0096294284
-0.017473027 -0.026209541 0.0097528696
-0.016302289 -0.026334468 0.0095885694
-0.014765983 -0.025840471 0.010064662
-0.013659014 -0.0260763 0.010374695
-0.012366953 -0.025970601 0.01051566
-0.010993362 -0.025651177 0.010761112
-0.0099584889 -0.026141034 0.010786563
-0.008593021 -0.025779063 0.010449737
-0.0073303017 -0.025656056 0.011280507
-0.0061517302 -0.025837267 0.011718988
-0.0048725554 -0.025580917 0.011229783
-0.0036744124 -0.025720887 0.011322051
-0.0024858247 -0.026101161 0.011441767
-0.0012203883 -0.025628157 0.011229783
0 -0.025910908 0.010838509
0.0012231901 -0.025686992 0.010745704
0.0024208988 -0.025419438 0.0093268752
0.003720457 -0.026043199 0.0064769089
0.005021892 -0.026364934 0.0050051212
-0.15909813 -0.02566099 0.0074827075
-0.15309986 -0.024894288 0.011907756
-0.15316948 -0.025109753 0.016332
-0.15038994 -0.024857843 0.019025207
-0.14638664 -0.024397774 0.020681053
-0.1449257 -0.024357261 0.021418691
-0.14376414 -0.024366803 0.021520495
-0.14366789 -0.024558615 0.021517545
-0.14324106 -0.024696734 0.021867782
-0.14182466 -0.02466516 0.021658868
-0.14079106 -0.024700185 0.021377176
-0.14042239 -0.024853518 0.020779729
-0.1380156 -0.024645641 0.020267695
-0.13874769 -0.024999583 0.019701242
-0.13692039 -0.024894617 0.019240737
-0.13435917 -0.024653058 0.018633932
-0.13665231 -0.025305981 0.018356651
-0.13374043 -0.02499821 0.018114775
-0.13061944 -0.024645176 0.017854661
-0.13231206 -0.025202297 0.017601013
-0.12917638 -0.02484161 0.017184138
-0.12632893 -0.024529887 0.016876847
-0.12653792 -0.024811357 0.016558796
-0.12407766 -0.024569834 0.016788632
-0.12344155 -0.024688309 0.017143339
-0.12256535 -0.024760677 0.017407298
-0.11960048 -0.024408262 0.017041028
-0.11895325 -0.024526443 0.017229825
-0.11797582 -0.024578294 0.017169029
-0.11630606 -0.024485486 0.017529368
-0.11525192 -0.024521684 0.017330885
-0.11419921 -0.024558971 0.016935438
-0.1123451 -0.024422849 0.016994208
-0.11240556 -0.024704518 0.016776234
-0.11048671 -0.024552602 0.017073959
-0.10840181 -0.024359958 0.016722292
-0.10895706 -0.024762968 0.016543448
-0.10662043 -0.024510443 0.016252726
-0.10508054 -0.024437336 0.01613307
-0.10446358 -0.024579665 0.015954435
-0.10251065 -0.024407297 0.015925109
-0.1015883 -0.024479108 0.015572757
-0.1011575 -0.02467256 0.015495956
-0.099600352 -0.024592679 0.015016854
-0.099039264 -0.024759816 0.014545798
-0.097602472 -0.024709487 0.014255553
-0.094622009 -0.024262054 0.014037848
-0.094972037 -0.024668062 0.013723642
-0.093672648 -0.024650697 0.013844669
-0.091076955 -0.024287187 0.013521314
-0.091072865 -0.024614289 0.013338089
-0.090052567 -0.024671936 0.01304543
-0.087774634 -0.024381844 0.013115942
-0.08711236 -0.024538692 0.01294589
-0.085422322 -0.024406377 0.012818366
-0.084556296 -0.02450907 0.012797058
-0.083741032 -0.024629716 0.012208283
-0.08175052 -0.02440314 0.012028664
-0.080459751 -0.024381742 0.012138784
-0.080292001 -0.024705231 0.011985123
-0.077509753 -0.024221798 0.011985123
-0.077226378 -0.024516311 0.011962891
-0.076193653 -0.024578599 0.011650413
-0.074566796 -0.02444813 0.011718661
-0.073606327 -0.024535442 0.011765331
-0.072665326 -0.024632312 0.011930645
-0.070676185 -0.024371099 0.012171596
-0.070172794 -0.024622032 0.01246199
-0.068705432 -0.024537655 0.013061225
-0.0673986 -0.024508582 0.013000667
-0.066524416 -0.024638673 0.013147891
-0.065032303 -0.024540493 0.013340086
-0.063869774 -0.024565298 0.01347819
-0.063265175 -0.024809873 0.013504744
-0.061089106 -0.024435643 0.013732851
-0.060152106 -0.02455188 0.013731062
-0.059116218 -0.024631757 0.013798833
-0.057585992 -0.024504676 0.013585746
-0.056905665 -0.024741594 0.013290167
-0.055509884 -0.024671059 0.012487411
-0.053585365 -0.024356985 0.012361199
-0.053102788 -0.024698971 0.012227029
-0.051990811 -0.024757529 0.012172252
-0.04992637 -0.024354326 0.012439221
-0.049329232 -0.024664616 0.012372613
-0.047883164 -0.024555469 0.012084603
-0.046691827 -0.024574647 0.012347102
-0.045664351 -0.024683435 0.013070703
-0.044256788 -0.024587104 0.013010353
-0.042847902 -0.024484515 0.01319322
-0.042092644 -0.024760379 0.012960166
-0.040470537 -0.024527596 0.012805402
-0.039595895 -0.024747433 0.012281865
-0.038620118 -0.024916204 0.011994392
-0.036605246 -0.024403499 0.011920959
-0.035888284 -0.02475054 0.011448294
-0.034585439 -0.024703884 0.010888904
-0.033232894 -0.02461696 0.010139823
-0.032162156 -0.02474012 0.010007292
-0.030755304 -0.024604242 0.0095083416
-0.029640464 -0.024700386 0.0091196895
-0.028441757 -0.024731962 0.0083624125
-0.028033031 -0.025484575 0.0082458854
-0.026595075 -0.025328642 0.00862661
-0.02523577 -0.02523577 0.0088769197
-0.023610501 -0.024853159 0.0089143515
-0.022317855 -0.024797617 0.0090757906
-0.02132955 -0.025093589 0.0095229447
-0.019499579 -0.024374474 0.0096827447
-0.018781036 -0.025041381 0.0098269284
-0.01739507 -0.0248501 0.010120511
-0.015918123 -0.02448942 0.010736227
-0.015046881 -0.025078135 0.011481136
-0.013689497 -0.024889994 0.011973053
-0.012283262 -0.024566524 0.011230409
-0.01114655 -0.024770111 0.012235641
-0.0099436408 -0.024859102 0.012193859
-0.0085190916 -0.024340261 0.011987358
-0.0073860413 -0.024620138 0.012154579
-0.0061080516 -0.024432207 0.012349844
-0.0048505277 -0.024252638 0.011718988
-0.0037010044 -0.024673363 0.011626422
-0.0024389958 -0.024389958 0.011566937
-0.0012122623 -0.024245247 0.011337429
0 -0.024772711 0.011426151
0.0012262692 -0.024525383 0.010483414
0.0024840608 -0.024840608 0.0070880353
0.0037485047 -0.024990031 0.0059024096
-0.15447058 -0.023668878 0.0066171885
-0.15758546 -0.02434247 0.012944758
-0.15389064 -0.023966577 0.017342746
-0.14950481 -0.023475962 0.020088077
-0.14779741 -0.023401257 0.021060705
-0.14572832 -0.023267547 0.022460043
-0.14453296 -0.023272257 0.022493005
-0.14430746 -0.023434546 0.02260223
-0.14077492 -0.02305796 0.023022532
-0.14015219 -0.023155577 0.023244917
-0.14143538 -0.023572564 0.022298038
-0.13785619 -0.02317936 0.021710455
-0.13894501 -0.023571029 0.021180838
-0.13774768 -0.023578431 0.020446658
-0.13474685 -0.023274455 0.01972425
-0.13678323 -0.023842948 0.018654227
-0.13420416 -0.02360999 0.017866075
-0.13084149 -0.023233537 0.017436415
-0.13237593 -0.02372776 0.016977161
-0.13031097 -0.02358008 0.016481876
-0.12920381 -0.023604542 0.016295433
-0.13153763 -0.024264222 0.016221881
-0.12552962 -0.023382967 0.015949279
-0.12434898 -0.023392383 0.01619783
-0.12389342 -0.02353975 0.016118973
-0.12115191 -0.023251377 0.016649306
-0.12035698 -0.023334518 0.016669005
-0.12019607 -0.023543559 0.017058939
-0.11669957 -0.023096789 0.017291814
-0.11726572 -0.023453146 0.017386496
-0.11578962 -0.023404285 0.017404467
-0.11338001 -0.023163658 0.017058879
-0.11302487 -0.023342093 0.016886443
-0.11221899 -0.023430338 0.016796201
-0.1094413 -0.023104275 0.016889483
-0.10949429 -0.023375187 0.016810954
-0.10702304 -0.023107246 0.01642552
-0.10616738 -0.023185981 0.0160923
-0.10527251 -0.02325788 0.0157713
-0.10410652 -0.023270868 0.015760511
-0.10292862 -0.023281474 0.01571396
-0.10237262 -0.023434697 0.015680283
-0.10068528 -0.023329515 0.015680283
-0.098935477 -0.023207087 0.015436888
-0.099012762 -0.02351553 0.015204012
-0.096344516 -0.023171466 0.014692426
-0.09671291 -0.023558272 0.014253587
-0.095268831 -0.023507893 0.013919085
-0.092447132 -0.023111783 0.013343364
-0.093067743 -0.023577161 0.013442725
-0.091584474 -0.023514932 0.013165712
-0.089407332 -0.023270402 0.012957603
-0.088907264 -0.02346164 0.012957603
-0.086854659 -0.023242796 0.012967467
-0.085743442 -0.023273218 0.01283136
-0.085510544 -0.023546383 0.012762338
-0.08343263 -0.023312058 0.012382716
-0.082730226 -0.023460809 0.012348205
-0.081306264 -0.023406349 0.012241155
-0.079266228 -0.023170127 0.012065381
-0.079024002 -0.023460252 0.011967331
-0.0774896 -0.02336988 0.011855453
-0.075788677 -0.023225561 0.011984378
-0.075431436 -0.023495037 0.012137204
-0.074092135 -0.02346251 0.012137204
-0.072286591 -0.023278732 0.012727916
-0.071555138 -0.023440477 0.012577742
-0.070727542 -0.023575848 0.012646616
-0.068382762 -0.023201294 0.012720883
-0.06823954 -0.023573659 0.012781203
-0.066535622 -0.023410682 0.013163954
-0.065244891 -0.023389678 0.013237268
-0.064238556 -0.02347178 0.013193369
-0.062142044 -0.023150956 0.013272226
-0.061875984 -0.023512874 0.013470083
-0.060713165 -0.02354184 0.013677776
-0.058391966 -0.023113487 0.014077246
-0.058135845 -0.023501724 0.013901025
-0.056917965 -0.023509596 0.013773739
-0.054830294 -0.023150569 0.013484657
-0.053962104 -0.023301817 0.013533145
-0.052890405 -0.02337018 0.013494283
-0.05117286 -0.023149628 0.01335898
-0.050506182 -0.023405304 0.013463497
-0.049109716 -0.023327114 0.013336658
-0.04808037 -0.02342377 0.012937486
-0.046966951 -0.023483476 0.012924045
-0.045357946 -0.023291918 0.012336254
-0.04438436 -0.023425078 0.012358963
-0.043379616 -0.023548935 0.012283385
-0.041720111 -0.023314178 0.011942536
-0.040637624 -0.02339742 0.011761248
-0.040260978 -0.023904955 0.011426032
-0.037822884 -0.023181768 0.010919362
-0.03713252 -0.023517264 0.010897487
-0.036193702 -0.023713117 0.010026515
-0.034460284 -0.023383765 0.010017991
-0.033563301 -0.023618618 0.0095558465
-0.032511953 -0.023758734 0.0090453029
-0.030664785 -0.023305237 0.008354634
-0.030784756 -0.024371265 0.0066494942
-0.029544115 -0.024406008 0.0069191754
-0.027478367 -0.023731317 0.0074511468
-0.026562314 -0.02403257 0.007910639
-0.024945501 -0.023698226 0.0081952512
-0.023786616 -0.023786616 0.0087914467
-0.022433262 -0.023679554 0.0090269744
-0.02091831 -0.023379287 0.0094799399
-0.019931266 -0.023668379 0.010118902
-0.018571448 -0.023523835 0.010551333
-0.017004354 -0.023077339 0.011583
-0.016062459 -0.023475902 0.011988789
-0.014749159 -0.023352835 0.012722671
-0.013427293 -0.023192596 0.014029771
-0.012418656 -0.023595447 0.01367557
-0.011093626 -0.023419876 0.013520479
-0.0097499909 -0.023156228 0.013129711
-0.0085427212 -0.023187386 0.012875617
-0.0073277433 -0.02320452 0.012772113
-0.00607287 -0.023076905 0.012723565
-0.0049183466 -0.023362147 0.012206018
-0.0037052811 -0.023466779 0.011991441
-0.0024452605 -0.023229975 0.012020946
-0.0012262342 -0.023298452 0.01140818
0 -0.023200182 0.010805696
0.0012392651 -0.023546036 0.0087478459
0.0025266106 -0.024002802 0.0061596632
-0.15688933 -0.022774259 0.0069529414
-0.15649234 -0.022901317 0.013293386
-0.15190351 -0.022411995 0.017826796
-0.14972624 -0.022273324 0.020499736
-0.14749229 -0.022123843 0.022300392
-0.14514087 -0.021954082 0.023323625
-0.14463919 -0.022063605 0.023556978
-0.14307937 -0.022012211 0.023729801
-0.14102885 -0.021883788 0.024174124
-0.1414606 -0.02214166 0.024379879
-0.1396755 -0.022054026 0.024181366
-0.13807744 -0.021994635 0.02281186
-0.13789013 -0.022160916 0.022197962
-0.13524921 -0.021932304 0.021753699
-0.13690001 -0.022401819 0.021278262
-0.13396783 -0.022123128 0.020219326
-0.13114633 -0.021857722 0.019168526
-0.13149859 -0.022121256 0.018069595
-0.13120513 -0.022280116 0.017519563
-0.12827869 -0.021990633 0.016145349
-0.13003948 -0.022506835 0.016108274
-0.12791346 -0.022353807 0.015492737
-0.1277646 -0.022546694 0.01566714
-0.12626521 -0.022502713 0.015761763
-0.12343476 -0.022218257 0.015841991
-0.12214307 -0.02220783 0.015876025
-0.12212685 -0.022431463 0.015693396
-0.11947487 -0.022170594 0.016156882
-0.11944148 -0.022395277 0.016333431
-0.11773485 -0.022307655 0.016614914
-0.11425941 -0.021879463 0.016726911
-0.11511401 -0.022280131 0.016575873
-0.11401498 -0.02230728 0.016880184
-0.11061627 -0.021880142 0.01679045
-0.11106865 -0.022213729 0.016273856
-0.10992994 -0.022233022 0.016661912
-0.10824957 -0.022141958 0.016071081
-0.10737022 -0.022214528 0.016208977
-0.10550987 -0.022083461 0.015754163
-0.1039008 -0.022002522 0.015774041
-0.10303554 -0.022079043 0.015709817
-0.10183001 -0.022083616 0.015351892
-0.10019301 -0.021993589 0.015328288
-0.10085624 -0.022412498 0.014907628
-0.096946165 -0.021812886 0.01486662
-0.09788461 -0.022302823 0.014739811
-0.096509308 -0.02227138 0.014276534
-0.094920449 -0.022189194 0.013977498
-0.09423542 -0.022318915 0.013977498
-0.092826799 -0.022278432 0.01374191
-0.09073969 -0.022071818 0.013298035
-0.090467006 -0.022306932 0.013464481
-0.088145003 -0.022036251 0.013282955
-0.087128557 -0.02208893 0.013028473
-0.086189903 -0.022163117 0.013024509
-0.084903263 -0.022148676 0.012937665
-0.083213598 -0.022027129 0.012973696
-0.083129823 -0.022333385 0.012960941
-0.080665246 -0.021999612 0.012973696
-0.079978548 -0.022147905 0.012947261
-0.079109877 -0.022249652 0.012497962
-0.077225596 -0.022064455 0.012494206
-0.07665167 -0.022253711 0.012637109
-0.075814418 -0.022371467 0.012637109
-0.072901078 -0.021870323 0.012594819
-0.073361024 -0.022381328 0.012475938
-0.071654089 -0.022237476 0.012542516
-0.069800913 -0.022042394 0.012670368
-0.069342874 -0.022288781 0.012831151
-0.067338161 -0.022037944 0.012855709
-0.066657193 -0.022219066 0.012859583
-0.065860093 -0.02236758 0.012597322
-0.064013459 -0.022158505 0.013199925
-0.062805332 -0.022166589 0.013381362
-0.062040005 -0.022334401 0.013661385
-0.060186937 -0.022109486 0.013703763
-0.059498493 -0.022311933 0.013752699
-0.057605226 -0.022061575 0.013752878
-0.056139726 -0.021967718 0.013752878
-0.055737849 -0.02229514 0.013841629
-0.054231901 -0.022185776 0.01379925
-0.052521579 -0.021985779 0.013220161
-0.052028216 -0.022297807 0.013220161
-0.05069318 -0.022255544 0.013326317
-0.049134705 -0.022110617 0.013105422
-0.048355218 -0.022317793 0.013077885
-0.047218677 -0.02236674 0.012784332
-0.045502212 -0.022136211 0.012692302
-0.044649154 -0.022324577 0.012599945
-0.04311911 -0.022175541 0.011851281
-0.041943513 -0.02220539 0.011299014
-0.041447189 -0.022607557 0.011226654
-0.039239906 -0.022072446 0.011226386
-0.038427535 -0.022312762 0.010900289
-0.037440855 -0.022464512 0.010825455
-0.035885982 -0.022274058 0.0087184608
-0.03497947 -0.022486802 0.0079167485
-0.033760559 -0.02250704 0.0070608556
-0.032025822 -0.022171723 0.0070560277
-0.032205652 -0.023188071 0.0064587295
-0.029976962 -0.022482721 0.0063771307
-0.029015912 -0.022708105 0.0061757267
-0.027708746 -0.022670792 0.0069694519
-0.026266377 -0.022514038 0.0072684288
-0.024949465 -0.022454519 0.0080188513
-0.023992581 -0.022729814 0.0088488162
-0.022419315 -0.022419315 0.0091922581
-0.021009615 -0.022245474 0.0098259747
-0.019965591 -0.02246129 0.010813981
-0.018244073 -0.021892887 0.011242151
-0.017219301 -0.022139102 0.012629867
-0.015905259 -0.022022666 0.013632178
-0.014502541 -0.021753812 0.014798999
-0.013576794 -0.022216573 0.015900612
-0.012237443 -0.022027398 0.015667766
-0.010933273 -0.021866547 0.014904857
-0.009839749 -0.022139434 0.014680892
-0.0085010957 -0.021859961 0.014642447
-0.0073417374 -0.022025213 0.014153779
-0.0061655054 -0.02219582 0.01342842
-0.0048994236 -0.022047406 0.012584865
-0.0036815887 -0.022089532 0.012447953
-0.0024595447 -0.022135902 0.012203217
-0.0012181551 -0.021926792 0.011324197
0 -0.022391524 0.009865284
0.001251154 -0.022520771 0.0072636902
0.0025182359 -0.022664122 0.005458802
-0.15622747 -0.021418283 0.0072675347
-0.1511969 -0.020897133 0.013775468
-0.15182009 -0.021155259 0.018498123
-0.15139931 -0.021270977 0.021263987
-0.15075533 -0.021357005 0.023363084
-0.14859435 -0.021227764 0.024305046
-0.14509599 -0.02090366 0.025104254
-0.14513247 -0.021087624 0.025438279
-0.14463949 -0.021197166 0.02541846
-0.14181238 -0.02096357 0.025553346
-0.13986431 -0.020856958 0.025225818
-0.14074086 -0.021173405 0.024982095
-0.13659179 -0.020732682 0.024745882
-0.13663164 -0.020925567 0.023019344
-0.13415717 -0.020733381 0.02237305
-0.13121 -0.020463945 0.02099061
-0.13316053 -0.020960456 0.020413041
-0.13272741 -0.021087533 0.018452853
-0.12911065 -0.020706424 0.017797381
-0.13039501 -0.021111574 0.016609073
-0.1293851 -0.021149486 0.016441524
-0.12852213 -0.02121239 0.015873581
-0.12871656 -0.02145276 0.015523165
-0.12662418 -0.021312982 0.015135735
-0.12442255 -0.021151833 0.015063405
-0.12325026 -0.021164186 0.014736593
-0.12096908 -0.020984434 0.015746951
-0.11991818 -0.021016588 0.016088665
-0.11967003 -0.021191567 0.016125649
-0.11647563 -0.020843009 0.016618431
-0.11640579 -0.021052109 0.016963691
-0.11508767 -0.02103753 0.016997337
-0.11218759 -0.020730317 0.017046481
-0.11242201 -0.021001915 0.016709179
-0.11125161 -0.021014193 0.016331196
-0.10842376 -0.020710157 0.016014636
-0.1092554 -0.021106156 0.015717119
-0.10670373 -0.020850154 0.015748203
-0.10528075 -0.02081131 0.015561342
-0.10552686 -0.021105371 0.015561342
-0.10321689 -0.020889131 0.015636921
-0.1022814 -0.020949202 0.015348494
-0.10118695 -0.020977784 0.015327454
-0.099595726 -0.020902807 0.015289485
-0.099607505 -0.021166595 0.015249908
-0.097961061 -0.021080228 0.014726967
-0.095634036 -0.020843316 0.014537722
-0.095611893 -0.021109119 0.01416859
-0.09398631 -0.021023255 0.014197618
-0.091705769 -0.020786641 0.014246434
-0.092056349 -0.02114808 0.013930231
-0.090419754 -0.021056656 0.013863474
-0.088887967 -0.020987436 0.013566822
-0.088031717 -0.021078017 0.013012081
-0.085603103 -0.020789323 0.013169408
-0.084593661 -0.020841917 0.012950808
-0.084802076 -0.021200519 0.012837499
-0.082708158 -0.020985654 0.012982666
-0.081221133 -0.020920595 0.012840301
-0.080225416 -0.020982031 0.012924075
-0.07761018 -0.020615203 0.01275751
-0.077950016 -0.021034131 0.0126912
-0.076947026 -0.021098377 0.012426525
-0.074243829 -0.020690903 0.012426525
-0.073898889 -0.020938018 0.012503386
-0.073436238 -0.021159595 0.012527585
-0.071036234 -0.020820966 0.012360811
-0.070670754 -0.021077244 0.012172103
-0.069188163 -0.02100355 0.012315631
-0.06736207 -0.020821003 0.012397856
-0.066452555 -0.020920249 0.012690008
-0.065099373 -0.020880932 0.012690008
-0.064607359 -0.021121636 0.012738943
-0.063400306 -0.021133434 0.012602538
-0.061883442 -0.021040371 0.012938321
-0.060735259 -0.021071417 0.013118565
-0.059565704 -0.021096187 0.012988478
-0.057540428 -0.020812495 0.012996733
-0.057055578 -0.021085756 0.012996733
-0.055939749 -0.021132793 0.012996733
-0.053468235 -0.02065818 0.012787968
-0.052878678 -0.020905523 0.012742251
-0.052196454 -0.021127136 0.012748718
-0.050194532 -0.020812366 0.012651563
-0.049445294 -0.021014249 0.012604892
-0.047949165 -0.020900918 0.012612671
-0.047039397 -0.021043941 0.012289405
-0.045762781 -0.021026142 0.012292206
-0.044577461 -0.021050468 0.012001485
-0.043057922 -0.020913849 0.011967629
-0.043047216 -0.021523608 0.01160717
-0.040852796 -0.021045379 0.010820031
-0.04005583 -0.021279659 0.010554969
-0.038625382 -0.02118166 0.0093214214
-0.037126038 -0.021038089 0.0083619952
-0.036382798 -0.021327848 0.0077077448
-0.034938887 -0.021212894 0.0073490739
-0.033352431 -0.020999677 0.0070691705
-0.033772938 -0.022082305 0.0069562793
-0.031816866 -0.021635469 0.0065637827
-0.030214867 -0.021402197 0.006426394
-0.029132074 -0.021532401 0.0070030391
-0.027506962 -0.02125538 0.0074704885
-0.02624611 -0.021246852 0.0077246428
-0.025157556 -0.021383923 0.0082722306
-0.023641473 -0.021152897 0.0087777674
-0.022351595 -0.02110984 0.0098313093
-0.021289976 -0.021289976 0.010460585
-0.019487862 -0.020705853 0.011784941
-0.018301744 -0.020741977 0.013253838
-0.017031213 -0.020680757 0.014301091
-0.015697381 -0.020527344 0.015808761
-0.014638513 -0.020737894 0.017211944
-0.013418259 -0.020737309 0.017550677
-0.012005693 -0.020409677 0.016990334
-0.011046767 -0.020866115 0.016750008
-0.0097526759 -0.020724436 0.016162097
-0.0085305804 -0.020717124 0.015935332
-0.0074166725 -0.021013906 0.014997125
-0.0061549023 -0.020926667 0.01471734
-0.0049016587 -0.020832051 0.013721555
-0.0037365886 -0.021174002 0.013132006
-0.0024572518 -0.020886641 0.012723148
-0.0012242545 -0.020812327 0.011383772
0 -0.021000739 0.0092552602
0.0012409342 -0.021095881 0.0072332919
-0.15279624 -0.019715643 0.0075650811
-0.15437584 -0.02008141 0.012925565
-0.15157245 -0.019878354 0.01884073
-0.14826977 -0.019605922 0.020421088
-0.14883891 -0.019845188 0.023154885
-0.14585949 -0.019611361 0.024630785
-0.14559317 -0.019741446 0.025716752
-0.14537266 -0.019880021 0.026024878
-0.14095767 -0.019442437 0.026260942
-0.13990936 -0.01946565 0.02649498
-0.14016572 -0.019672383 0.026302278
-0.13721995 -0.019429373 0.026109934
-0.13710505 -0.019586435 0.025777459
-0.13594244 -0.019595308 0.025158346
-0.13295738 -0.019339254 0.023893625
-0.13474512 -0.019779101 0.022443533
-0.13187295 -0.019536734 0.021146894
-0.13032453 -0.019487781 0.019985795
-0.13157542 -0.019860443 0.018629342
-0.13097066 -0.019957434 0.017570943
-0.12861985 -0.019787669 0.016945064
-0.12970063 -0.02014767 0.016138166
-0.12706238 -0.019931354 0.015886188
-0.12651734 -0.020042351 0.015427709
-0.12696248 -0.020313999 0.015200377
-0.12261903 -0.019817216 0.01500988
-0.12177514 -0.019881656 0.014764309
-0.12093449 -0.019947957 0.014790058
-0.11811354 -0.019685589 0.016129971
-0.11914326 -0.020066231 0.016368121
-0.11598301 -0.019741789 0.016597867
-0.11453682 -0.01970526 0.016353399
-0.11508641 -0.020015027 0.016832978
-0.1125576 -0.019790348 0.016616374
-0.11030611 -0.019609977 0.016237348
-0.11039703 -0.019846657 0.01602149
-0.10845017 -0.019718213 0.015675902
-0.10672504 -0.019627592 0.015841186
-0.10701635 -0.019910019 0.015864938
-0.10425189 -0.019623885 0.015809685
-0.10288715 -0.019597555 0.015694439
-0.10368185 -0.019986862 0.015469402
-0.10063976 -0.019637026 0.015509695
-0.099779852 -0.0197096 0.015549809
-0.098476119 -0.019695224 0.014851958
-0.097074494 -0.019660657 0.014720887
-0.096389465 -0.019772198 0.014496446
-0.095303841 -0.019803395 0.014544427
-0.09335494 -0.01965367 0.014142305
-0.093276717 -0.019899033 0.014213443
-0.091401078 -0.019762395 0.01415047
-0.089366585 -0.019587196 0.013789833
-0.088914178 -0.019758707 0.013755918
-0.087274566 -0.019667508 0.013453901
-0.086178526 -0.019697949 0.013132721
-0.085256271 -0.01976957 0.013044924
-0.083014965 -0.019532934 0.01282087
-0.082330368 -0.019660983 0.012775093
-0.08221636 -0.019931238 0.012759298
-0.079714105 -0.019621933 0.012710065
-0.079487823 -0.019871956 0.012461901
-0.077541143 -0.019692987 0.012394071
-0.075623304 -0.019515691 0.012111396
-0.075668395 -0.019847447 0.012032121
-0.074538417 -0.01987691 0.012062222
-0.07212539 -0.019559428 0.012040585
-0.071483746 -0.019719653 0.012040585
-0.070993789 -0.019928081 0.011840463
-0.06884066 -0.01966876 0.011971593
-0.068095297 -0.01980954 0.012418717
-0.066537462 -0.019714803 0.012055308
-0.065499365 -0.019773392 0.011987358
-0.064805217 -0.019940065 0.01182881
-0.062969305 -0.019755077 0.011939883
-0.061518177 -0.019685816 0.012305737
-0.060859717 -0.019872561 0.012518078
-0.05873327 -0.019577757 0.012518078
-0.057753738 -0.019660847 0.012419075
-0.057183634 -0.01988996 0.012782753
-0.055281136 -0.019655515 0.012544304
-0.054613199 -0.019859346 0.012538433
-0.053139061 -0.019772675 0.012544304
-0.051571082 -0.019646127 0.012732357
-0.051051188 -0.019922415 0.012486845
-0.049210399 -0.01968416 0.0125238
-0.048296608 -0.019813992 0.012584388
-0.047267437 -0.01990208 0.012334466
-0.04560589 -0.019721467 0.011988252
-0.044564445 -0.01980642 0.011446625
-0.044208288 -0.020209504 0.010753304
-0.042075925 -0.019800434 0.010239989
-0.04094895 -0.019854037 0.0094055235
-0.039925747 -0.019962873 0.0089192986
-0.038542632 -0.019892972 0.0085740089
-0.037506666 -0.020003555 0.00821051
-0.036266588 -0.020009153 0.0077824891
-0.035244916 -0.020139953 0.006996572
-0.035123337 -0.020813828 0.0067690015
-0.033112649 -0.020377016 0.0064669847
-0.031186525 -0.019959377 0.0063213706
-0.030389817 -0.020259878 0.0063512325
-0.028944733 -0.020135466 0.0068459511
-0.027632643 -0.020096468 0.0073938668
-0.026340565 -0.020069001 0.0082225204
-0.025062697 -0.020050159 0.0087488294
-0.023558313 -0.019838579 0.010147154
-0.022586929 -0.02007727 0.011054009
-0.020970525 -0.019736964 0.012378365
-0.019630004 -0.019630004 0.014142126
-0.018326439 -0.019548202 0.015156031
-0.01688906 -0.019301783 0.016738594
-0.015878562 -0.019542845 0.018189818
-0.014689668 -0.019586224 0.018014252
-0.01316331 -0.019146632 0.01873678
-0.012083647 -0.019333834 0.018381208
-0.010848542 -0.019286295 0.018437415
-0.0096728681 -0.019345736 0.017573595
-0.008574063 -0.019597858 0.017494738
-0.0073155346 -0.019508092 0.01667124
-0.0060660569 -0.019411381 0.015974134
-0.0049162791 -0.019665116 0.01499337
-0.0036761514 -0.019606141 0.014099032
-0.0024638309 -0.019710647 0.013125598
-0.0012257188 -0.0196115 0.011180103
0 -0.019608637 0.008774519
0.0012454393 -0.019927029 0.0068608224
-0.15859991 -0.019185474 0.0059272647
-0.15345982 -0.018714612 0.012665749
-0.14806384 -0.01820457 0.019108295
-0.14877777 -0.018443525 0.020528197
-0.14595671 -0.018244589 0.023348987
-0.14654022 -0.018471457 0.02480939
-0.14509054 -0.018443713 0.026177138
-0.14203043 -0.018209029 0.026560724
-0.13969688 -0.018064253 0.027079433
-0.14076415 -0.018360542 0.027568102
-0.13776369 -0.018126801 0.027406454
-0.13710789 -0.018200163 0.02741769
-0.13574649 -0.018180333 0.026906937
-0.13486205 -0.018224601 0.026080281
-0.13461049 -0.018355977 0.025565743
-0.1334458 -0.018364102 0.023797065
-0.13122591 -0.018225823 0.022848666
-0.13270925 -0.018604102 0.021669626
-0.13160032 -0.018622687 0.020062625
-0.12843615 -0.018348021 0.018681258
-0.13049446 -0.018821316 0.017793894
-0.12792148 -0.018629342 0.017023087
-0.12799466 -0.018822744 0.016504347
-0.12704158 -0.018867562 0.015337825
-0.12461782 -0.018692674 0.014838487
-0.12642081 -0.019154668 0.014565349
-0.12213997 -0.018694893 0.014241487
-0.1200048 -0.018557442 0.014302224
-0.12024979 -0.018789031 0.014621377
-0.11805721 -0.018640611 0.015166402
-0.11521436 -0.018385271 0.015484095
-0.11588752 -0.018691536 0.015749425
-0.11455132 -0.018676845 0.016552925
-0.11141798 -0.018365601 0.01621449
-0.11161543 -0.018602571 0.016094774
-0.1098628 -0.018516202 0.016192675
-0.1091824 -0.018610636 0.016154468
-0.10818926 -0.01865332 0.016391307
-0.10595173 -0.018479953 0.016232848
-0.10477305 -0.018489363 0.016130954
-0.10442814 -0.018647883 0.015366882
-0.10271703 -0.018563317 0.015044034
-0.10083524 -0.018445471 0.01514107
-0.10077988 -0.018662943 0.015128642
-0.097783715 -0.018334446 0.014839768
-0.098612107 -0.018723818 0.014571816
-0.097013637 -0.018656468 0.014776677
-0.094553523 -0.018419517 0.014571816
-0.095072515 -0.018764311 0.01432249
-0.092926502 -0.0185853 0.014284104
-0.091166168 -0.018479628 0.014218003
-0.090651467 -0.018627014 0.01401329
-0.088763036 -0.018492298 0.014161587
-0.087538198 -0.018493986 0.01400125
-0.086778454 -0.018595383 0.013614446
-0.084908448 -0.018458357 0.013751417
-0.083741121 -0.018472306 0.013534516
-0.082933456 -0.018567191 0.013370007
-0.081407547 -0.018501716 0.013370007
-0.079522632 -0.018351378 0.012779146
-0.078868315 -0.018484762 0.01281926
-0.077468999 -0.018445 0.012335986
-0.077174388 -0.018671222 0.012251765
-0.075888313 -0.018661061 0.011988014
-0.073638938 -0.018409735 0.01181069
-0.073535532 -0.018695474 0.011847347
-0.071937673 -0.018604571 0.01181069
-0.070049047 -0.01843396 0.011954129
-0.069738284 -0.018679898 0.012022316
-0.067876182 -0.018511686 0.011873394
-0.066576347 -0.018493429 0.011768401
-0.065924414 -0.018657852 0.011761576
-0.063860297 -0.018421238 0.011992693
-0.063147664 -0.018572843 0.012093723
-0.062007144 -0.018602144 0.012338191
-0.060877208 -0.01863588 0.01264286
-0.059957109 -0.018736597 0.012607992
-0.05825071 -0.018590651 0.012727141
-0.056443576 -0.018405514 0.013043761
-0.056383166 -0.018794389 0.013160527
-0.054663524 -0.018635292 0.013043761
-0.052873462 -0.018444231 0.013005793
-0.052392017 -0.018711435 0.012637824
-0.051073272 -0.018685343 0.012153149
-0.049653504 -0.018620064 0.011997104
-0.048605856 -0.018694559 0.011945695
-0.046675522 -0.018424548 0.011369705
-0.045935318 -0.018622426 0.011001974
-0.044946112 -0.018727547 0.010203004
-0.043185201 -0.018507943 0.0099204481
-0.042296343 -0.01866015 0.00922212
-0.041154906 -0.018706776 0.0088917911
-0.03953921 -0.018534005 0.0083242655
-0.038644005 -0.018698711 0.0083431005
-0.037564699 -0.018782349 0.0077809691
-0.037549585 -0.0194222 0.0076367855
-0.035945002 -0.019256251 0.0072866678
-0.03429829 -0.019054605 0.0069348812
-0.03251709 -0.01875986 0.0066940784
-0.031695031 -0.019017018 0.0068056583
-0.03029626 -0.018935163 0.0066966414
-0.028814565 -0.018792108 0.0070847869
-0.02771266 -0.018894995 0.0077207983
-0.026012393 -0.01858028 0.008615911
-0.024948264 -0.018711198 0.0093586743
-0.023727976 -0.018732611 0.010982364
-0.022220176 -0.018516812 0.012004256
-0.020872237 -0.018416679 0.014008313
-0.01970485 -0.018473297 0.015743375
-0.017984305 -0.017984305 0.017462224
-0.017148741 -0.018373651 0.018904358
-0.015790746 -0.018220091 0.018995792
-0.014531949 -0.018164936 0.019972473
-0.01332726 -0.018173536 0.020744145
-0.012069637 -0.018104455 0.020572901
-0.010683711 -0.017806184 0.020658433
-0.0097074136 -0.0182014 0.019987762
-0.0084228264 -0.018048914 0.019595563
-0.0073414361 -0.018353591 0.018097639
-0.0061621908 -0.018486572 0.01744166
-0.0048651421 -0.018244283 0.016520202
-0.0036631764 -0.018315881 0.014881819
-0.002482564 -0.01861923 0.013713926
-0.0012280269 -0.018420404 0.011381328
0 -0.018845849 0.0084544122
0.0012426324 -0.018639486 0.0072849691
-0.15848324 -0.017893268 0.0059089065
-0.15316567 -0.017433491 0.011966884
-0.15059894 -0.017281845 0.018740237
-0.14929886 -0.017274247 0.021254778
-0.14598441 -0.017031515 0.024065733
-0.14568588 -0.017139517 0.025564969
-0.14265175 -0.016924784 0.026924014
-0.1413331 -0.016911654 0.027201444
-0.14074768 -0.016986789 0.027997851
-0.13867861 -0.016882613 0.0282076
-0.13702288 -0.016827371 0.028109968
-0.13697523 -0.016970383 0.028475702
-0.13395436 -0.016744295 0.028290212
-0.13549308 -0.017089218 0.027457058
-0.13515218 -0.017201185 0.026695192
-0.13273489 -0.017048519 0.02571097
-0.13399206 -0.017369341 0.024051547
-0.13162023 -0.017221337 0.022635072
-0.12927991 -0.017074706 0.021737784
-0.13119209 -0.017492278 0.019863188
-0.12878448 -0.017336372 0.018579394
-0.12876439 -0.017501958 0.017291129
-0.12807782 -0.017579308 0.016385078
-0.12620619 -0.017493926 0.015543729
-0.12449884 -0.017429838 0.015149266
-0.12499248 -0.017675703 0.0147852
-0.124792 -0.017827429 0.014675915
-0.12137506 -0.017518049 0.014675915
-0.11885703 -0.017333318 0.014726371
-0.11810133 -0.017404405 0.015089661
-0.11744672 -0.017492065 0.015319049
-0.11580942 -0.017433677 0.015416235
-0.11373746 -0.017307876 0.016006082
-0.11345305 -0.017454317 0.015613556
-0.11206876 -0.017432917 0.015821546
-0.11002064 -0.017306617 0.015768856
-0.11003927 -0.017506247 0.015549749
-0.10690542 -0.017203171 0.015141934
-0.10569517 -0.017206192 0.015590638
-0.10546042 -0.017369952 0.015547216
-0.10346679 -0.017244466 0.014981359
-0.10210793 -0.017223025 0.014934272
-0.10128916 -0.017293273 0.014902979
-0.1001075 -0.017302532 0.014859557
-0.099095866 -0.017341776 0.01480028
-0.098082975 -0.017381793 0.014782578
-0.095633805 -0.017165042 0.014730901
-0.09594699 -0.017444907 0.014782578
-0.093617678 -0.017245362 0.014664531
-0.092400879 -0.017248165 0.014386445
-0.092192724 -0.017441867 0.014282376
-0.090786114 -0.017411036 0.0139153
-0.088697642 -0.017246764 0.013930529
-0.088435076 -0.017437903 0.013995379
