ply
format ascii 1.0
comment PCL generated
element vertex 1293
property float x
property float y
property float z
element camera 0
property float view_px
property float view_py
property float view_pz
property float x_axisx
property float x_axisy
property float x_axisz
property float y_axisx
property float y_axisy
property float y_axisz
property float z_axisx
property float z_axisy
property float z_axisz
property float focal
property float scalex
property float scaley
property float centerx
property float centery
property int viewportx
property int viewporty
property float k1
property float k2
end_header
0.14073791 -0.019246209 0.026806712
0.1424308 -0.019312652 0.027631015
0.13724276 -0.018452808 0.028610498
0.1433603 -0.019114707 0.02850768
0.14308774 -0.018920694 0.028511435
0.14519329 -0.019041743 0.02860868
0.14724751 -0.019154146 0.02754432
0.14642972 -0.018894158 0.025720924
0.14666376 -0.018772962 0.02361533
0.15068755 -0.019134926 0.021673739
0.15350637 -0.019339385 0.019540966
0.15907128 -0.01988391 0.015243739
0.16124411 -0.019999269 0.010764927
0.16104327 -0.019820711 0.0079733431
0.17075716 -0.020855837 0.0054742694
0.0050547626 -0.018955359 0.0054884553
0.0061746654 -0.018523997 0.0081974864
0.0075290976 -0.018822744 0.012729615
0.0087588876 -0.018769044 0.015265137
0.0098675564 -0.018501669 0.017341912
0.011092201 -0.018487001 0.019275427
0.012130475 -0.018195711 0.02064997
0.013433658 -0.018318625 0.020994037
0.014696188 -0.018370235 0.022270977
0.015849259 -0.018287607 0.022823423
0.017068703 -0.018287895 0.023159534
0.018634712 -0.018634712 0.022983551
0.019590044 -0.018365666 0.022460908
0.020901179 -0.018442215 0.02046293
0.022386514 -0.018655427 0.020059973
0.023269447 -0.018370615 0.018545926
0.024498483 -0.018373862 0.017582297
0.025909016 -0.018506439 0.016291142
0.026734095 -0.018227793 0.015278459
0.028297523 -0.018454907 0.015127718
0.029424407 -0.018390253 0.014569223
0.031429298 -0.018857578 0.013428211
0.032687616 -0.018858239 0.013005406
0.033699904 -0.018722167 0.012642443
0.035137575 -0.0188237 0.012748718
0.035984725 -0.018612789 0.012107253
0.036901996 -0.018450998 0.01233241
0.038138032 -0.018453885 0.013743222
0.039657626 -0.018589512 0.01498583
0.040378321 -0.018353783 0.015572548
0.041675761 -0.018386366 0.016159147
0.042790525 -0.018338796 0.016275883
0.043905266 -0.018293861 0.01756236
0.045486886 -0.018440628 0.017856091
0.04665941 -0.018418187 0.017963082
0.04771528 -0.018352032 0.018186927
0.049861815 -0.018698182 0.01874581
0.049529355 -0.018120496 0.01903981
0.051703118 -0.0184654 0.01881516
0.053026974 -0.018497782 0.018777639
0.053676032 -0.018298646 0.0188483
0.055060536 -0.018353513 0.018904448
0.056668852 -0.018478973 0.018777639
0.057656981 -0.018401165 0.018625587
0.059258115 -0.018518161 0.01857844
0.060752887 -0.018597823 0.018512577
0.061086215 -0.018325865 0.018385738
0.062645808 -0.018425237 0.01835683
0.064528741 -0.018614061 0.018080741
0.064258471 -0.018186361 0.017629534
0.066475384 -0.018465383 0.017978042
0.068022095 -0.01855148 0.017830074
0.068135068 -0.018250464 0.017120034
0.070275716 -0.01849361 0.016794801
0.071137704 -0.018397683 0.016758621
0.071443245 -0.018163538 0.016652256
0.074162565 -0.018540641 0.016946614
0.074390955 -0.018292859 0.017324716
0.076078132 -0.018406 0.017324716
0.077548534 -0.018463938 0.017489642
0.077514485 -0.018167457 0.017799705
0.080229379 -0.018514471 0.017761201
0.081185609 -0.018451275 0.017429024
0.081517853 -0.018250266 0.017564505
0.083594248 -0.018439908 0.017583758
0.08406838 -0.018275734 0.017551571
0.08382415 -0.017962318 0.016911596
0.087385044 -0.018461628 0.016727686
0.088090263 -0.018352138 0.016706496
0.088815801 -0.018249821 0.016706496
0.091374308 -0.018521819 0.016335666
0.091441505 -0.018288301 0.015539497
0.092391469 -0.018235158 0.015458375
0.094769813 -0.018461652 0.015074164
0.09532693 -0.018332101 0.015028119
0.096470624 -0.018317206 0.014846593
0.09876246 -0.018517962 0.014640987
0.099069454 -0.018346196 0.014938772
0.10119703 -0.018511653 0.014938772
0.10246477 -0.018517729 0.014853239
0.10178142 -0.018175254 0.014684826
0.1047933 -0.018492935 0.014781237
0.10603872 -0.018495126 0.015003115
0.10633695 -0.018333957 0.015054673
0.10857039 -0.018506316 0.015048981
0.1087683 -0.018331736 0.01481685
0.11039698 -0.018399497 0.014666438
0.11271951 -0.018580139 0.014453471
0.11299064 -0.018422388 0.013976991
0.11388071 -0.018367857 0.012821436
0.1170077 -0.018671442 0.012004912
0.11677459 -0.018438092 0.012069374
0.11956234 -0.018681616 0.010700375
0.12193259 -0.018855555 0.01030162
0.12197197 -0.018669181 0.010289788
0.12649101 -0.019165304 0.0097981393
0.12810157 -0.019215237 0.0099704862
0.12605219 -0.018720621 0.0098417103
0.12930606 -0.019015599 0.010098457
0.12956671 -0.018868938 0.01036936
0.12980834 -0.018722355 0.010426313
0.13096432 -0.01870919 0.010850281
0.13060249 -0.018481486 0.011899173
0.13266522 -0.018597929 0.01245445
0.13445611 -0.018674461 0.013427079
0.13365063 -0.018392289 0.014311105
0.13442329 -0.018330447 0.015634149
0.13685411 -0.018493799 0.017756075
0.13606815 -0.018223414 0.019199073
0.13912663 -0.018468136 0.020130813
0.13869123 -0.018248845 0.022015989
0.13707098 -0.017878825 0.024575204
0.13907303 -0.017983582 0.02750209
0.13991159 -0.017937385 0.02876386
0.13955888 -0.017740536 0.029600054
0.14164583 -0.017854517 0.029864222
0.14196903 -0.017746128 0.029922962
0.14256723 -0.017673623 0.029800951
0.14653675 -0.018016813 0.029780716
0.1469622 -0.017922219 0.029260129
0.14767814 -0.017864292 0.028150201
0.14950463 -0.017940557 0.024367839
0.14902806 -0.017741436 0.022425234
0.14968333 -0.017679134 0.019474417
0.1559772 -0.018278578 0.014596462
0.15618503 -0.018161051 0.010565251
0.16260137 -0.018761696 0.007810533
0.16815722 -0.019254643 0.0053953528
0.0049388437 -0.017285952 0.0051724911
0.0062065399 -0.017378312 0.0085611939
0.0074826377 -0.017459488 0.013066024
0.0084870737 -0.016974147 0.015517861
0.0099000596 -0.017325103 0.017670661
0.01111453 -0.017289268 0.020002782
0.012236825 -0.017131556 0.021669865
0.013661686 -0.017387601 0.022503585
0.014785088 -0.017249269 0.023431987
0.016019097 -0.017251335 0.02411446
0.017339278 -0.017339278 0.024326563
0.018430192 -0.017201513 0.024233937
0.019566508 -0.017120695 0.023738921
0.020937139 -0.01724235 0.023434371
0.021765869 -0.016929008 0.022139102
0.023293477 -0.017163614 0.021042109
0.024461787 -0.01712325 0.019460678
0.025374081 -0.016916055 0.018772781
0.026784666 -0.017044786 0.017229527
0.028241351 -0.017190387 0.01612705
0.02947223 -0.017192135 0.015221924
0.031252768 -0.01750155 0.014724135
0.032592464 -0.017549789 0.013508618
0.033822432 -0.017537557 0.012850255
0.035492335 -0.017746167 0.012636751
0.036443677 -0.017593499 0.011928409
0.036867045 -0.017204622 0.012425572
0.038543873 -0.017406911 0.013052672
0.039078798 -0.017096974 0.013911337
0.040872253 -0.017339744 0.015972137
0.042178363 -0.01736756 0.016258419
0.042478275 -0.01699131 0.017144024
0.044251788 -0.017209029 0.017415375
0.045629933 -0.017265379 0.017664671
0.046092711 -0.016981525 0.017832816
0.048024271 -0.017239481 0.018379629
0.04926547 -0.017242914 0.01829201
0.05050933 -0.017247088 0.018458933
0.051789042 -0.017263014 0.018692821
0.052768905 -0.017180575 0.018712789
0.053827293 -0.017126866 0.018316835
0.05529952 -0.017204294 0.018655539
0.056395806 -0.017163942 0.019025624
0.057579786 -0.017151425 0.018805802
0.058866043 -0.017169263 0.01862672
0.059642464 -0.017040703 0.018394887
0.061598949 -0.017247707 0.018403083
0.063436404 -0.017413914 0.018219441
0.063442416 -0.01708065 0.018084168
0.065025344 -0.017176505 0.017519712
0.066868812 -0.017336357 0.017307997
0.066449881 -0.016914515 0.017246962
0.06890738 -0.017226845 0.016685247
0.069653578 -0.017107897 0.016683191
0.070993923 -0.017136464 0.016653717
0.072455041 -0.017192721 0.016540438
0.073161744 -0.017071074 0.016895115
0.074849099 -0.017178483 0.016659647
0.076468982 -0.017267188 0.016853899
0.076915473 -0.017092329 0.016953737
0.078933023 -0.017266599 0.017389208
0.079764098 -0.01717996 0.017205358
0.080202244 -0.017012598 0.017098606
0.08188726 -0.017110771 0.017126113
0.083915852 -0.017276794 0.017177582
0.083856821 -0.017014427 0.017177582
0.085984662 -0.017196933 0.017197937
0.08793737 -0.017339762 0.016876996
0.087317802 -0.016978461 0.016708374
0.089702368 -0.017203193 0.016693056
0.090789087 -0.017176313 0.016269267
0.092118278 -0.017195413 0.016042292
0.093976609 -0.01731148 0.015728503
0.094262987 -0.017138725 0.015882105
0.09542416 -0.017127413 0.015829623
0.097262353 -0.017236367 0.015452981
0.09749192 -0.017061086 0.015087664
0.099928759 -0.017271636 0.015568256
0.10191486 -0.017400097 0.015556991
0.10115842 -0.017062865 0.015491039
0.10397705 -0.017329508 0.014903694
0.10465089 -0.017236618 0.015398443
0.10522446 -0.017129563 0.015249312
0.10796076 -0.017372996 0.014969409
0.10790543 -0.017166773 0.014822066
0.10960828 -0.017241752 0.014693111
0.11126728 -0.017308243 0.014338195
0.11220032 -0.017261587 0.012982994
0.11472501 -0.017458154 0.012722611
0.11682371 -0.017586365 0.012253404
0.1178755 -0.017555926 0.010861337
0.11889441 -0.017521281 0.010864079
0.12212911 -0.017810494 0.010773897
0.12209787 -0.017622374 0.010487825
0.12345394 -0.017636279 0.010513097
0.1241562 -0.017557442 0.010154247
0.12373135 -0.017322389 0.010310441
0.12633729 -0.0175121 0.01027444
0.12881163 -0.017680027 0.010601282
0.12611784 -0.017142231 0.010663271
0.13178588 -0.017740406 0.0107328
0.12976441 -0.017301921 0.012014538
0.13202976 -0.017437892 0.012745678
0.13392879 -0.017523393 0.013536274
0.13295779 -0.01723527 0.01434809
0.13283728 -0.017061669 0.015833199
0.13506827 -0.017190507 0.017498434
0.13562326 -0.017105637 0.018769383
0.13700639 -0.017125798 0.019879133
0.13821277 -0.017123707 0.021220982
0.13646244 -0.016758544 0.023599476
0.13813379 -0.016816288 0.028084517
0.13922895 -0.016803494 0.029774249
0.13734891 -0.016434912 0.030490041
0.14017217 -0.016630596 0.031180829
0.14159048 -0.016657703 0.031413555
0.14217217 -0.016586754 0.031428546
0.14432269 -0.016698495 0.030944318
0.14403696 -0.016528832 0.030338287
0.14539541 -0.016549071 0.030273646
0.14982638 -0.01691588 0.029345244
0.14705782 -0.016470475 0.025925756
0.14782169 -0.016424632 0.023117065
0.15462689 -0.017045485 0.019304425
0.15280151 -0.016712666 0.013230771
0.15953988 -0.017314404 0.01044777
0.16430861 -0.017694773 0.0069393516
0.0062420168 -0.016229244 0.0089658499
0.0073357765 -0.015894182 0.013607144
0.0086091552 -0.01598843 0.016661167
0.009769965 -0.015876193 0.017951488
0.010888266 -0.015727496 0.020375937
0.012305357 -0.015996965 0.022234559
0.013321612 -0.015743723 0.023110569
0.014536737 -0.015748132 0.024388224
0.015947688 -0.015947688 0.025246203
0.016967852 -0.015755862 0.025299817
0.018141726 -0.01572283 0.025634527
0.019380435 -0.015746603 0.025940448
0.020349877 -0.01556167 0.025049865
0.021756819 -0.015713258 0.024413705
0.022984829 -0.015726462 0.022613734
0.024111422 -0.015672425 0.021214843
0.025556182 -0.015820494 0.020694315
0.026921922 -0.015908409 0.018261701
0.027967099 -0.015807491 0.017135412
0.029885687 -0.016188081 0.016154408
0.030893946 -0.016064852 0.014983356
0.032481357 -0.016240679 0.013762712
0.034129906 -0.016432919 0.013027161
0.035194233 -0.016340179 0.012542129
0.036629505 -0.016420122 0.012013555
0.038810249 -0.016817775 0.011544466
0.038426615 -0.016114388 0.012632996
0.039751608 -0.016149091 0.013348311
0.04112567 -0.016201023 0.014047325
0.04180871 -0.015985683 0.014804035
0.043612543 -0.016198944 0.01558888
0.044687368 -0.016137106 0.015980542
0.045136075 -0.01585862 0.016709745
0.046860781 -0.016031321 0.017178684
0.047985729 -0.015995244 0.017595232
0.049131513 -0.015967742 0.017615199
0.050888181 -0.016135277 0.017962545
0.051648445 -0.015986424 0.018008918
0.052622449 -0.015909113 0.018140793
0.054614116 -0.016135989 0.018230617
0.055105511 -0.015919371 0.018127203
0.05634214 -0.015922779 0.018457383
0.058078762 -0.016064338 0.01845333
0.058839079 -0.015935583 0.017468333
0.060677297 -0.016098058 0.017426372
0.062059831 -0.016135557 0.017426372
0.062573545 -0.015950119 0.017225891
0.064630553 -0.016157638 0.017557532
0.065136276 -0.015976822 0.017218083
0.065526351 -0.015774863 0.017181724
0.06818945 -0.016117506 0.017190158
0.068595946 -0.015924059 0.016564757
0.069632016 -0.015880987 0.016661465
0.071425967 -0.016009269 0.016344517
0.071903579 -0.01584316 0.016095191
0.073110238 -0.015840553 0.016590506
0.075699218 -0.016132621 0.016621739
0.076404482 -0.016020294 0.017068714
0.076698638 -0.015826704 0.016871423
0.078928024 -0.016032254 0.017000496
0.078486569 -0.015697313 0.016911805
0.081239268 -0.016001675 0.016601563
0.082573667 -0.016021756 0.016814113
0.082397379 -0.01575244 0.016968131
0.085489884 -0.01610679 0.017060161
0.085928954 -0.015958235 0.017249316
0.085579768 -0.015669534 0.016909629
0.088786952 -0.016030978 0.016838253
0.090068176 -0.016039539 0.016838253
0.090274341 -0.015859006 0.016489804
0.092848107 -0.016093673 0.016196609
0.093843542 -0.016052185 0.015944213
0.093755759 -0.015828894 0.015871942
0.096331283 -0.016055213 0.015679449
0.097270496 -0.016006537 0.015524715
0.098497853 -0.016005902 0.015503049
0.10078236 -0.016174948 0.015346944
0.10056445 -0.015943145 0.015605748
0.10300656 -0.016133556 0.015266657
0.10471088 -0.016205255 0.015262127
0.10379463 -0.015874473 0.015158594
0.10660956 -0.016115399 0.014847517
0.10707479 -0.015999682 0.013970345
0.10887677 -0.016084068 0.013423055
0.1108068 -0.016185263 0.013324797
0.11095063 -0.016026203 0.012995362
0.11141069 -0.015915813 0.011586547
0.11589083 -0.016375879 0.01142025
0.11555432 -0.016152754 0.011020929
0.11857532 -0.016398715 0.010706216
0.12021994 -0.01645115 0.010958165
0.1189464 -0.016107325 0.010426134
0.12085715 -0.01619735 0.010426134
0.12214323 -0.016202673 0.010715932
0.12238274 -0.016070461 0.010426134
0.12496355 -0.016245261 0.010842323
0.12732467 -0.016388323 0.011039436
0.12510522 -0.015944783 0.011019051
0.12980656 -0.016383354 0.011230081
0.12975059 -0.016218824 0.011842459
0.13048592 -0.016155401 0.013196737
0.13355556 -0.016379455 0.014280081
0.13082637 -0.015894793 0.015511274
0.13294369 -0.016002482 0.016275465
0.13635552 -0.016262583 0.018061727
0.13362132 -0.01579161 0.019796669
0.13394944 -0.015687773 0.020908803
0.13867201 -0.016095858 0.021972746
0.13575669 -0.015618025 0.024310768
0.13628818 -0.015541635 0.027043611
0.13877182 -0.015687248 0.028924406
0.13545218 -0.015179985 0.030629188
0.14010902 -0.01556767 0.031537563
0.14131474 -0.015568573 0.03226164
0.13861242 -0.015142534 0.032268584
0.14184992 -0.015367075 0.032272935
0.14310989 -0.015375443 0.032060564
0.14425665 -0.01537161 0.031396002
0.14628205 -0.015460704 0.030960292
0.14813901 -0.015530703 0.030257702
0.14833525 -0.015426866 0.027700841
0.15491487 -0.015983282 0.024022222
0.15475841 -0.015841411 0.020676434
0.15774146 -0.016020617 0.012868673
0.16061424 -0.01618593 0.0092648864
0.1615306 -0.01615306 0.0060664415
0.0061554941 -0.014773186 0.0081874132
0.0073695537 -0.014739107 0.012846828
0.0085557457 -0.014666992 0.016318053
0.0096593145 -0.014488971 0.018160194
0.010902824 -0.014537099 0.020996273
0.01202293 -0.014427516 0.022997737
0.013232386 -0.014435329 0.023921013
0.014543737 -0.014543737 0.025973707
0.015577458 -0.014379191 0.026478291
0.016814316 -0.01441227 0.026955813
0.018176923 -0.014541538 0.02714321
0.019035796 -0.014276846 0.027108818
0.020464178 -0.014445303 0.02647543
0.021863574 -0.014575716 0.025469691
0.022810051 -0.014406349 0.024913996
0.024234885 -0.014540931 0.022968858
0.025554372 -0.014602498 0.022167385
0.026793065 -0.0146144 0.020315051
0.028691417 -0.014969435 0.019240588
0.029428851 -0.014714425 0.017787248
0.030864397 -0.01481491 0.016823798
0.032439526 -0.014972089 0.015328765
0.033930741 -0.015080329 0.014083564
0.035417609 -0.015178975 0.013348699
0.036647905 -0.015164649 0.012641668
0.037387908 -0.014955163 0.01219371
0.039589453 -0.01532495 0.012125522
0.040008731 -0.015003273 0.012106508
0.040750589 -0.014818395 0.012729168
0.042405397 -0.014966611 0.01374653
0.043492738 -0.014911796 0.014282137
0.044289388 -0.01476313 0.014708281
0.045876939 -0.014879008 0.015043825
0.047527064 -0.015008546 0.01560238
0.047828849 -0.014716569 0.016042978
0.050006874 -0.015002063 0.016420245
0.050767921 -0.014858903 0.017488748
0.051403411 -0.014686689 0.017926335
0.053367734 -0.014893321 0.017755836
0.054152615 -0.014768896 0.018050194
0.05539814 -0.014772837 0.018040717
0.057058156 -0.014884736 0.018466085
0.0578986 -0.014782621 0.018435627
0.059290092 -0.014822523 0.018089652
0.061459955 -0.015051417 0.017579615
0.061002146 -0.014640515 0.017560661
0.062744573 -0.014763429 0.017365277
0.064287186 -0.014835505 0.017230481
0.064636327 -0.014634641 0.017090529
0.066478901 -0.014773089 0.016801625
0.068055362 -0.014848443 0.016968071
0.068948776 -0.014774738 0.016715288
0.070045985 -0.014746523 0.016715735
0.071295284 -0.014750749 0.016712874
0.072086811 -0.014661725 0.016550958
0.074332431 -0.014866486 0.016572654
0.075198695 -0.014793186 0.016693085
0.076358177 -0.014779001 0.016550958
0.077870741 -0.014832522 0.016449213
0.078257486 -0.01467328 0.016449213
0.080155589 -0.014797955 0.016481996
0.081439652 -0.014807209 0.016508609
0.08164344 -0.014622706 0.016977251
0.083313458 -0.014702375 0.016734332
0.084644303 -0.014720748 0.016679734
0.084970951 -0.014566449 0.016699612
0.087636568 -0.014811814 0.016552687
0.088573948 -0.014762325 0.016350091
0.089079075 -0.014643135 0.016301692
0.091126986 -0.014777349 0.016301692
0.091873139 -0.014699702 0.016509295
0.093260288 -0.014725309 0.016035914
0.096191891 -0.014990944 0.016002357
0.096320063 -0.014818471 0.015772521
0.096971594 -0.014729863 0.015217721
0.099364489 -0.014904673 0.014894962
0.099630892 -0.014760132 0.014944822
0.10086557 -0.014760816 0.014859676
0.10308853 -0.014904366 0.014744848
0.10266836 -0.014666908 0.014032334
0.10556814 -0.014903737 0.013814062
0.107344 -0.014978233 0.013320863
0.10679355 -0.014730144 0.012444645
0.10935569 -0.01491214 0.012070358
0.10947806 -0.014761087 0.011047393
0.11242819 -0.014990426 0.010951042
0.11523052 -0.015195234 0.011385471
0.11522292 -0.015029077 0.011217147
0.11679198 -0.015069933 0.011198372
0.1192074 -0.015217966 0.010919392
0.11802442 -0.014908347 0.011562407
0.12050589 -0.015063236 0.011083543
0.12196737 -0.015088747 0.011379749
0.12033422 -0.014734803 0.011879623
0.12294763 -0.014902744 0.011586547
0.12417617 -0.014901141 0.01209271
0.12481994 -0.014830092 0.012741596
0.12775481 -0.015029977 0.01321575
0.1290333 -0.015033005 0.014194518
0.1299074 -0.014989315 0.014329404
0.1311076 -0.014983726 0.015528113
0.13018058 -0.014737424 0.016343951
0.13142174 -0.014738888 0.017363638
0.13501577 -0.015001751 0.018391401
0.13138819 -0.014464755 0.020029843
0.13398075 -0.014616082 0.021254003
0.13597788 -0.01470031 0.021649659
0.13539553 -0.014506663 0.023490965
0.13702524 -0.014551353 0.025511175
0.13902797 -0.014634524 0.027781397
0.13719663 -0.01431617 0.029530019
0.13954502 -0.014435692 0.031296968
0.13971119 -0.014329352 0.032253057
0.13753296 -0.013986403 0.033145934
0.14090835 -0.014209244 0.033172965
0.14187661 -0.014187661 0.033209801
0.14324951 -0.014206563 0.033111155
0.14593086 -0.014353855 0.032187641
0.1448787 -0.014134507 0.03184852
0.14775559 -0.014298928 0.030551761
0.15142615 -0.014536911 0.02763772
0.15331145 -0.01460109 0.023821145
0.15541187 -0.014684587 0.017821252
0.16114368 -0.01510722 0.013052702
0.15996189 -0.014880176 0.0075073242
0.0062273769 -0.013700229 0.0082387924
0.0074134902 -0.013591398 0.012019515
0.0085312445 -0.013406242 0.017123073
0.0098118018 -0.013491228 0.01913628
0.010879004 -0.01329656 0.021682292
0.012039648 -0.013243613 0.023323655
0.0133571 -0.0133571 0.025217146
0.014441955 -0.013238458 0.026933372
0.015611839 -0.013210018 0.027693778
0.016976414 -0.013338611 0.027822524
0.01798318 -0.013187665 0.027858913
0.019231744 -0.013221825 0.027980775
0.020511173 -0.013271935 0.027855247
0.021425555 -0.013093394 0.026972085
0.023123426 -0.013387247 0.025955915
0.02458897 -0.013523933 0.023945749
0.025392985 -0.013301088 0.023370385
0.027190451 -0.013595225 0.022258043
0.028272994 -0.013521866 0.020915687
0.029566437 -0.013551284 0.019375831
0.031292941 -0.013768895 0.01855734
0.032520585 -0.01375871 0.01668489
0.033611838 -0.013693712 0.015197933
0.035304341 -0.013869563 0.013980538
0.036502477 -0.013845767 0.013531268
0.037423167 -0.013721827 0.012817025
0.039253537 -0.013928674 0.012106478
0.040853325 -0.01404333 0.011824369
0.041509483 -0.013836495 0.011897564
0.042758498 -0.013833632 0.013094366
0.043158531 -0.01356411 0.013463885
0.044608697 -0.013630436 0.014552683
0.046328217 -0.013773253 0.014717042
0.04640748 -0.013433744 0.01497066
0.048816662 -0.013768802 0.015514731
0.049463142 -0.013602364 0.015528738
0.050158728 -0.01345722 0.016005844
0.052176841 -0.013665363 0.0158149
0.052908555 -0.013534747 0.016477436
0.055015597 -0.013753899 0.016562492
0.055684887 -0.013611862 0.016562492
0.056567356 -0.013526976 0.016676009
0.058172368 -0.013614809 0.016786605
0.059453648 -0.013624794 0.016851097
0.060440548 -0.013568287 0.016368449
0.062207524 -0.013685655 0.016253084
0.063478224 -0.013691382 0.016313642
0.063253589 -0.013380567 0.016268134
0.065152325 -0.013522181 0.016334355
0.066584498 -0.013563509 0.01642701
0.066920124 -0.013384026 0.016749084
0.06966199 -0.013683604 0.016043156
0.070009798 -0.013510663 0.016322166
0.071275927 -0.013517848 0.016189158
0.07299374 -0.013609003 0.016313016
0.074103013 -0.013585553 0.016324401
0.075240672 -0.013567991 0.016459197
0.077265359 -0.013708371 0.016356915
0.078004889 -0.013619902 0.016141415
0.079485446 -0.013661561 0.016320884
0.080059804 -0.013548583 0.016690046
0.081069142 -0.013511525 0.016720235
0.082947589 -0.013618261 0.016973108
0.084693544 -0.013700427 0.016973108
0.084526345 -0.013475215 0.016906887
0.086378001 -0.013573686 0.016973108
0.088267781 -0.01367529 0.016537577
0.089019902 -0.013600262 0.016518921
0.090561956 -0.013646321 0.01638037
0.090885669 -0.013510032 0.01638037
0.091956049 -0.013486886 0.016306221
0.093762033 -0.013570821 0.016169488
0.095159113 -0.013594159 0.016082197
0.095870569 -0.013520208 0.015585393
0.098284371 -0.013685166 0.015293926
0.098441012 -0.013535639 0.014588356
0.10144879 -0.013776996 0.014242351
0.10196238 -0.01367788 0.013424963
0.10230979 -0.01355913 0.013752341
0.10446595 -0.013680064 0.012986064
0.10530245 -0.013627375 0.013059318
0.10542344 -0.013484393 0.012666762
0.108518 -0.013720667 0.011507392
0.10882492 -0.013603115 0.011250913
0.11103423 -0.013723332 0.01104176
0.1139847 -0.013931463 0.011115909
0.11488727 -0.013887473 0.01131776
0.11574341 -0.013838886 0.011208355
0.11889908 -0.014063332 0.01134336
0.11871985 -0.013892749 0.011290491
0.11888725 -0.013765893 0.011821508
0.12083773 -0.013845989 0.011529982
0.11766379 -0.013343317 0.012145847
0.12302943 -0.013809426 0.012803376
0.12286864 -0.013652071 0.012677044
0.12097486 -0.013307234 0.013792634
0.1255973 -0.013678914 0.014281005
0.12708427 -0.013705167 0.01486361
0.1267852 -0.013540167 0.015327573
0.13113478 -0.013870025 0.016828537
0.13081405 -0.013704328 0.017663896
0.12917429 -0.01340488 0.018892735
0.13283351 -0.013655783 0.019657791
0.1331225 -0.013558774 0.020845592
0.13294014 -0.013415978 0.021718085
0.1353651 -0.01353651 0.022131294
0.13505118 -0.013383449 0.023381948
0.13652788 -0.013408988 0.02503553
0.13681091 -0.013317876 0.027246743
0.13676444 -0.013196569 0.029070169
0.13943979 -0.013337718 0.030670166
0.13916981 -0.013197137 0.031908512
0.13720199 -0.012899333 0.032988608
0.14007844 -0.013058159 0.03382796
0.14060092 -0.012996724 0.033742934
0.14086072 -0.012912232 0.033742934
0.14368418 -0.013062198 0.033278376
0.14560905 -0.013128685 0.032827854
0.14741549 -0.0131835 0.031991541
0.15129079 -0.013420957 0.030785203
0.15004452 -0.013203918 0.02666989
0.15344755 -0.013396215 0.022689611
0.16006987 -0.013864319 0.015334278
0.15921187 -0.013682269 0.011022508
0.16604538 -0.014158908 0.0057752132
0.0063025397 -0.012605079 0.0065028667
0.0073337015 -0.012222836 0.011740863
0.0086122407 -0.012303201 0.016356766
0.0096548609 -0.012068576 0.019910038
0.010951964 -0.012168849 0.021865875
0.012183328 -0.012183328 0.023404241
0.013152735 -0.011957033 0.024880797
0.014394821 -0.011995684 0.0261603
0.015655592 -0.012042763 0.027883232
0.016769977 -0.011978555 0.028607041
0.017769346 -0.011846231 0.028611571
0.019259332 -0.012037082 0.028984338
0.020430995 -0.012018233 0.028505147
0.021851333 -0.01213963 0.027581871
0.023232289 -0.01222752 0.026756972
0.023977179 -0.01198859 0.024865389
0.02574411 -0.0122591 0.024473906
0.026903646 -0.01222893 0.023630857
0.027943904 -0.012149523 0.022886753
0.029865488 -0.012443953 0.021245867
0.030888209 -0.012355283 0.02033028
0.032347422 -0.012441316 0.01785028
0.034236342 -0.012680126 0.015805215
0.03531149 -0.012611246 0.014504701
0.036323462 -0.012525332 0.01337111
0.038376804 -0.012792269 0.012854457
0.039197516 -0.01264436 0.012638927
0.040659677 -0.012706149 0.012349248
0.04231184 -0.01282177 0.012287438
0.041708365 -0.012267166 0.012864947
0.043364808 -0.012389945 0.014157444
0.045010459 -0.012502906 0.014127553
0.045437124 -0.012280304 0.014320523
0.047385868 -0.012469965 0.014728457
0.048722826 -0.012493032 0.015407562
0.049822029 -0.012455507 0.015574932
0.051347505 -0.012523782 0.015674233
0.052634723 -0.012532077 0.015631795
0.053512491 -0.012444765 0.015926272
0.054686494 -0.012428748 0.015983135
0.055691119 -0.012375804 0.016048223
0.056779426 -0.012343354 0.015586376
0.058536518 -0.012454579 0.016003281
0.058935754 -0.012278282 0.015812159
0.06114829 -0.012479243 0.015939057
0.062117856 -0.012423571 0.016172558
0.062383916 -0.01223214 0.015557319
0.064932287 -0.012486978 0.015556365
0.065236434 -0.012308761 0.015276462
0.066097409 -0.012240261 0.014942348
0.068587907 -0.012470528 0.015212953
0.068873808 -0.012298894 0.015133351
0.070954576 -0.012448171 0.015398353
0.072037987 -0.012420343 0.015549004
0.072292075 -0.012252894 0.015509754
0.073822722 -0.012303787 0.016008407
0.075700231 -0.012409874 0.016405702
0.076461688 -0.01233253 0.016285837
0.077529244 -0.012306229 0.016388118
0.079267554 -0.012385556 0.016492605
0.079709977 -0.012263074 0.01657486
0.082282238 -0.012467006 0.016857117
0.08309754 -0.012402618 0.017288923
0.082460783 -0.012126586 0.017260343
0.085718662 -0.012422994 0.017432958
0.086756773 -0.012393825 0.016915679
0.086653695 -0.012204745 0.016167015
0.089628898 -0.012448458 0.016163111
0.089716151 -0.012289884 0.016167015
0.091506734 -0.012365775 0.016062468
0.093746275 -0.012499503 0.015964955
0.094816975 -0.012475918 0.01592958
0.094590515 -0.012284483 0.014743894
0.097268924 -0.012470375 0.014596403
0.098427266 -0.012459148 0.014034986
0.099587642 -0.012448455 0.013257563
0.10049917 -0.012407305 0.012946308
0.10140709 -0.012366719 0.012760818
0.10272671 -0.012376713 0.013139278
0.10546243 -0.012555051 0.012515217
0.10474295 -0.0123227 0.011919022
0.10703089 -0.012445453 0.011710644
0.10900047 -0.01252879 0.011782438
0.11182159 -0.012706999 0.011293381
0.11453868 -0.012869515 0.010583311
0.11340948 -0.012601053 0.010748118
0.11404703 -0.012532641 0.011194199
0.1168192 -0.01269774 0.011551112
0.11690626 -0.012570566 0.011763662
0.11808708 -0.012562456 0.011933565
0.11939498 -0.012567893 0.012452483
0.11837568 -0.0123308 0.012621641
0.12100858 -0.012475112 0.01335448
0.12109211 -0.012356338 0.014345258
0.12178374 -0.012301388 0.01514414
0.12439953 -0.012439953 0.015615821
0.12413444 -0.012290538 0.016061008
0.12411709 -0.012168342 0.017653406
0.12733968 -0.012363075 0.018152684
0.12803324 -0.012310888 0.019470662
0.13001955 -0.012382814 0.01998508
0.13243611 -0.012493973 0.020988882
0.13010767 -0.012159596 0.021714151
0.13101353 -0.012130882 0.022922784
0.13624325 -0.012499381 0.023333967
0.13278122 -0.01207102 0.025322616
0.13509972 -0.012171146 0.025532126
0.13590121 -0.012134036 0.028771371
0.13506815 -0.011952934 0.030260205
0.13593444 -0.011924074 0.03180775
0.13709715 -0.011921491 0.032661825
0.13672055 -0.011786254 0.03367281
0.13837399 -0.011826837 0.033969074
0.14140393 -0.011983383 0.034454644
0.13915515 -0.01169371 0.033996761
0.14286426 -0.011905354 0.033838004
0.14270206 -0.011793558 0.033663124
0.14553493 -0.011929092 0.033091933
0.14739794 -0.011983572 0.031642109
0.14832647 -0.011961812 0.02971679
0.15102082 -0.012081666 0.024839371
0.15689385 -0.012451892 0.020145416
0.15865913 -0.012492846 0.014401585
0.1649169 -0.012884133 0.0074210167
0.0075332732 -0.01129991 0.01085186
0.0086714542 -0.011149012 0.015550256
0.0098261368 -0.011054404 0.019135207
0.011074059 -0.011074059 0.021531552
0.012070411 -0.01086337 0.022625297
0.013140886 -0.010751634 0.024932593
0.014521891 -0.010891418 0.027769893
0.015564159 -0.010775188 0.028705299
0.016529489 -0.0106261 0.029002756
0.018073991 -0.010844395 0.029248267
0.019053526 -0.010717609 0.029301912
0.020601634 -0.010906747 0.029299349
0.021837363 -0.010918682 0.02912122
0.022726001 -0.010764948 0.027427405
0.02467576 -0.011104092 0.02690056
0.025713746 -0.011020177 0.025812119
0.026544672 -0.010859184 0.025251716
0.028145226 -0.01101335 0.024533391
0.029313684 -0.010992631 0.022532165
0.030914232 -0.011129124 0.021420568
0.032658357 -0.011304815 0.019108474
0.033535488 -0.011178496 0.01713413
0.03502804 -0.011259014 0.016399264
0.036604993 -0.01136017 0.014578104
0.037785765 -0.01133573 0.014221072
0.039109338 -0.011354324 0.013589025
0.040830426 -0.011483558 0.013198376
0.041610073 -0.011348202 0.013113618
0.043383203 -0.011483789 0.01339215
0.044467382 -0.011434469 0.013947904
0.04455078 -0.011137695 0.013771594
0.046158779 -0.011227812 0.014381886
0.048078422 -0.011386994 0.014833391
0.048189804 -0.011120724 0.01513344
0.05007159 -0.011266108 0.015495807
0.050965931 -0.011187644 0.015774876
0.052726433 -0.011298521 0.015782326
0.053697411 -0.011238993 0.015286714
0.054548621 -0.011157672 0.015693933
0.056197245 -0.011239449 0.015489608
0.057438374 -0.011237943 0.015381604
0.058349624 -0.011173332 0.015381604
0.060002584 -0.011250484 0.015414655
0.061048165 -0.011212928 0.014815122
0.061412506 -0.011054251 0.014598489
0.063691765 -0.011239723 0.014375508
0.06479165 -0.01121394 0.013807416
0.064818598 -0.011006932 0.013964504
0.067815967 -0.011302661 0.01376459
0.068306819 -0.01117748 0.01378724
0.068567671 -0.011019804 0.014068514
0.070828177 -0.011183397 0.014291108
0.071710542 -0.011127498 0.014502555
0.072473846 -0.011055333 0.014535934
0.07530614 -0.011295921 0.014881223
0.075660542 -0.011163031 0.014928192
0.076395385 -0.011089653 0.015143514
0.078487292 -0.011212471 0.015341908
0.078488313 -0.011037419 0.015658885
0.080959089 -0.01120972 0.015835643
0.082338318 -0.011227953 0.015877128
0.0823671 -0.011064237 0.016067535
0.084226727 -0.011147656 0.016277581
0.085438296 -0.011144126 0.016092181
0.086015567 -0.011059145 0.015932709
0.087938353 -0.011147115 0.016007364
0.0895392 -0.0111924 0.015936255
0.090398289 -0.011144995 0.015634447
0.09230841 -0.011226699 0.015305817
0.092321813 -0.011078618 0.014952719
0.094386525 -0.011177352 0.014732987
0.09597078 -0.011217363 0.014580965
0.096352801 -0.011117631 0.013873398
0.097358488 -0.011091474 0.013467699
0.10005599 -0.011256299 0.013027161
0.0993369 -0.011037434 0.013019919
0.10227266 -0.011225048 0.012752146
0.10356288 -0.01122971 0.012706667
0.10340899 -0.011079535 0.012274116
0.10578555 -0.011200823 0.011793882
0.10997652 -0.011509172 0.011793882
0.10946662 -0.011324133 0.011425316
0.11198427 -0.011452937 0.010856569
0.1125002 -0.011376425 0.01066041
0.11366129 -0.011366129 0.010856569
0.11617375 -0.011489712 0.011772811
0.11494467 -0.011244588 0.01229021
0.11703945 -0.011326398 0.013035178
0.11858332 -0.011353722 0.012581527
0.11708622 -0.011092379 0.013537526
0.11938749 -0.011192577 0.014170229
0.11936481 -0.011075086 0.014799505
0.11933418 -0.010959261 0.016134024
0.12250409 -0.011136735 0.016621053
0.1224248 -0.011018232 0.017003477
0.12165318 -0.010840382 0.018922329
0.12603013 -0.011120305 0.020574093
0.12734735 -0.011127438 0.020958751
0.12660897 -0.010956545 0.022036076
0.12986681 -0.01113144 0.023473918
0.12869938 -0.010927306 0.02450642
0.13051204 -0.010977649 0.025112152
0.13277824 -0.011064854 0.026295125
0.1328748 -0.010971313 0.026627302
0.13442817 -0.010998669 0.027957469
0.13564827 -0.010998508 0.029060692
0.13388364 -0.010758507 0.030466288
0.13462786 -0.010722573 0.031607717
0.13598394 -0.010735575 0.032860726
0.13545348 -0.010600707 0.033645958
0.13788219 -0.010697756 0.03418237
0.139934 -0.010764154 0.0345231
0.13660996 -0.010419403 0.034979701
0.14140584 -0.01069456 0.034408689
0.14308402 -0.010731301 0.034178346
0.14290968 -0.010629646 0.033334315
0.14731206 -0.010867283 0.032810003
0.14744389 -0.010788578 0.030576169
0.14897062 -0.010812383 0.026710778
0.15415074 -0.011098853 0.023561954
0.15656714 -0.011183368 0.015797883
0.15787365 -0.011187896 0.0097815394
0.0076069166 -0.010142555 0.0081619024
0.0086076492 -0.0098373136 0.012895256
0.0099622821 -0.0099622821 0.018434376
0.011028142 -0.0098027922 0.021929681
0.0121118 -0.00968944 0.023610145
0.013331469 -0.0096956138 0.025679916
0.014514678 -0.0096764518 0.027319431
0.015339989 -0.0094399936 0.028971881
0.017030559 -0.0097317481 0.029370457
0.01792833 -0.0095617762 0.030151159
0.01941129 -0.009705645 0.030236125
0.020367393 -0.0095846551 0.030556828
0.021657132 -0.009625392 0.030164719
0.023133384 -0.0097403722 0.029197931
0.024635734 -0.0098542944 0.028524727
0.025411731 -0.0096806595 0.027047843
0.026954737 -0.0098017221 0.026153088
0.028330948 -0.0098542431 0.025338829
0.029603571 -0.0098678563 0.023776323
0.031743851 -0.010158032 0.022898674
0.032273512 -0.0099303108 0.021581054
0.033198204 -0.0098365052 0.018583268
0.035146855 -0.010041959 0.017814994
0.036344707 -0.010026126 0.016739905
0.037678402 -0.010047575 0.015442669
0.039447397 -0.010179974 0.01519084
0.039773572 -0.0099433931 0.014082134
0.042447586 -0.010290324 0.013947606
0.043483913 -0.010231509 0.014208555
0.04464525 -0.010204629 0.01433748
0.046316151 -0.010292478 0.014438689
0.047809232 -0.010337131 0.014417052
0.047751781 -0.010053006 0.014833629
0.048916578 -0.01003417 0.015025318
0.049773999 -0.0099547999 0.014627546
0.051156878 -0.0099818297 0.014926106
0.052688301 -0.010035867 0.015082628
0.053816963 -0.010012458 0.014627546
0.05497938 -0.0099962503 0.014716238
0.056363061 -0.0100201 0.01494506
0.057263393 -0.0099588512 0.014755666
0.058463205 -0.0099511836 0.01484412
0.060115572 -0.010019262 0.014722556
0.060486514 -0.0098753497 0.014494836
0.061898272 -0.0099037234 0.014756411
0.063667201 -0.0099870116 0.014472634
0.064058259 -0.0098551167 0.014068723
0.066224135 -0.0099960957 0.0140827
0.067399576 -0.0099851228 0.01413396
0.068674587 -0.0099890307 0.013769001
0.070118695 -0.010016956 0.013767451
0.070221186 -0.0098556057 0.013760298
0.07194452 -0.0099233827 0.013760298
0.073574029 -0.0099761393 0.013881117
0.074249372 -0.0098999161 0.013767451
0.075378492 -0.0098857041 0.013622791
0.077561378 -0.01000792 0.014527738
0.077428237 -0.0098321568 0.014868408
0.07966803 -0.0099585038 0.015234917
0.081403844 -0.010018935 0.015265584
0.081107415 -0.0098312013 0.01551792
0.083877787 -0.010015259 0.014871418
0.084410392 -0.0099306339 0.015382409
0.083834887 -0.0097199865 0.015308678
0.08757101 -0.010008115 0.015245676
0.088066153 -0.0099229468 0.015267193
0.088742577 -0.0098602865 0.015225679
0.091345921 -0.010010512 0.014630318
0.091985747 -0.0099444054 0.014368445
0.093119897 -0.009932789 0.01430276
0.095743932 -0.010078309 0.014144927
0.095787197 -0.0099519165 0.013879418
0.09718629 -0.0099678244 0.013564557
0.099257648 -0.010051408 0.013359368
0.098654248 -0.0098654246 0.013270319
0.10142717 -0.010017497 0.012761742
0.10237065 -0.0099873804 0.012095869
0.10357803 -0.0099834241 0.011440635
0.10633802 -0.010127431 0.011394143
0.10925318 -0.010282652 0.011313558
0.10857082 -0.010099611 0.011313558
0.11054177 -0.01016476 0.01113385
0.11181184 -0.010164713 0.01110369
0.11148635 -0.010021245 0.011084616
0.11429667 -0.010159704 0.011327982
0.11347663 -0.009975967 0.011931419
0.11546289 -0.010040252 0.012709409
0.11667079 -0.010036197 0.013613403
0.1162416 -0.0098929023 0.013877481
0.11698025 -0.0098509686 0.0155164
0.11897383 -0.0099144857 0.015532851
0.11815076 -0.0097443927 0.016973913
0.12123906 -0.0098970663 0.018067837
0.12168696 -0.0098332893 0.019755214
0.12168863 -0.0097350897 0.020897835
0.12321436 -0.0097595537 0.022087365
0.12514773 -0.0098155085 0.022585958
0.12387967 -0.0096217226 0.023255199
0.12744854 -0.0098037347 0.024088383
0.12722518 -0.009693346 0.025551885
0.12887517 -0.0097264275 0.026290566
0.13121088 -0.009810159 0.026652813
0.12994593 -0.0096256239 0.027932197
0.13060647 -0.0095857959 0.028505325
0.13403617 -0.0097480854 0.029692709
0.13362733 -0.0096307984 0.030563563
0.13653457 -0.0097524701 0.031715274
0.13606453 -0.0096328873 0.03276068
0.13411303 -0.0094114402 0.033919811
0.13495864 -0.0093884273 0.034531236
0.13800631 -0.0095176762 0.034995675
0.13657029 -0.0093381396 0.035306454
0.14220704 -0.0096411556 0.035211414
0.14106143 -0.0094831213 0.034976274
0.14426026 -0.009617351 0.034138709
0.14510208 -0.0095935259 0.033640563
0.14683871 -0.0096287681 0.032396376
0.14764625 -0.0096030086 0.030269802
0.15175959 -0.0097909411 0.026045084
0.1527015 -0.0097728958 0.019230604
0.15669271 -0.0099487435 0.015434951
0.16254826 -0.010239261 0.0055916905
0.0088194227 -0.0088194227 0.0097969174
0.0099204164 -0.0086803641 0.016009629
0.010983816 -0.008542968 0.020153075
0.012272168 -0.0085905176 0.023078889
0.013381569 -0.0085155433 0.024246126
0.0145205 -0.0084702913 0.02621612
0.015839074 -0.0085287318 0.028277814
0.016672572 -0.0083362861 0.029541492
0.018028561 -0.0084133279 0.030808359
0.019311197 -0.0084486483 0.030915886
0.020481989 -0.0084337601 0.031165332
0.022003543 -0.0085569331 0.029842436
0.023324791 -0.0085933441 0.029396623
0.02398378 -0.0083943233 0.02860117
0.025722671 -0.0085742241 0.027885497
0.026993368 -0.0085887993 0.026978821
0.028111752 -0.0085557504 0.026307374
0.030054757 -0.0087659713 0.025030285
0.031135501 -0.0087179402 0.023985088
0.032041561 -0.0086265737 0.023152322
0.033383071 -0.0086548701 0.020508528
0.03458814 -0.0086470349 0.0188604
0.036103636 -0.0087146703 0.018351674
0.037570853 -0.0087665319 0.017265975
0.039058201 -0.008819594 0.017033964
0.04052354 -0.0088645238 0.01620388
0.042397104 -0.0089933258 0.016013026
0.042717576 -0.0087947948 0.016026616
0.044460442 -0.0088920882 0.015320241
0.045620508 -0.0088706547 0.014974773
0.0465951 -0.0088152895 0.014882207
0.048491694 -0.0089326799 0.015216649
0.050208911 -0.0090118553 0.015278459
0.05116453 -0.008953793 0.015323758
0.051587861 -0.0088076834 0.015369713
0.052276712 -0.0087127853 0.015275389
0.053956922 -0.008783685 0.014647037
0.055186369 -0.0087796496 0.014685303
0.055987671 -0.0087091932 0.014455616
0.057396404 -0.0087342355 0.014331013
0.059223171 -0.0088204723 0.014316618
0.059197083 -0.0086329076 0.014310002
0.061308015 -0.0087582879 0.014209062
0.062736243 -0.0087830741 0.014288217
0.062796772 -0.0086191641 0.01382336
0.065111041 -0.0087649487 0.013206333
0.066009842 -0.0087182811 0.013164073
0.0667748 -0.0086559923 0.013453513
0.069290139 -0.0088187456 0.013477951
0.069666654 -0.0087083317 0.013477951
0.070889756 -0.0087057594 0.013759106
0.072369836 -0.0087342905 0.013499588
0.07353466 -0.0087244511 0.013773292
0.074660242 -0.0087103611 0.013834536
0.076807573 -0.0088139838 0.013787687
0.076831169 -0.0086744875 0.013834536
0.078570321 -0.0087300353 0.014204502
0.079613946 -0.0087077757 0.014204502
0.080023125 -0.0086178752 0.014182448
0.082468726 -0.0087466827 0.014336616
0.083789036 -0.0087540783 0.014537394
0.083986409 -0.0086456602 0.015257567
0.086016923 -0.0087263547 0.015266359
0.087637678 -0.0087637678 0.014594615
0.087292656 -0.0086063184 0.014310449
0.090297155 -0.0087788906 0.014625221
0.090943992 -0.0087206569 0.014229327
0.091919154 -0.0086950557 0.014552891
0.093370549 -0.0087145846 0.013858765
0.094677038 -0.0087202536 0.013766408
0.095727205 -0.0087024728 0.013655245
0.097265102 -0.0087289196 0.013030469
0.09874849 -0.0087498659 0.012414455
0.1007043 -0.0088116257 0.011948228
0.10297082 -0.0088987127 0.011392415
0.1037569 -0.0088572968 0.011392415
0.10528675 -0.0088796057 0.010008276
0.10680712 -0.008900593 0.010217011
0.10794351 -0.0088894647 0.010209739
0.11093632 -0.0090297004 0.010665774
0.11127999 -0.0089535629 0.01062566
0.11137244 -0.0088591715 0.010665774
0.11314929 -0.0088993823 0.01095134
0.1125723 -0.0087556234 0.011682451
0.1132661 -0.0087127769 0.012429655
0.1160293 -0.0088283159 0.013063878
0.11507384 -0.0086614713 0.014178842
0.11615263 -0.008649664 0.015258193
0.11840168 -0.0087243346 0.016422361
0.11754969 -0.0085713314 0.017637193
0.12023101 -0.0086764647 0.018864483
0.12241933 -0.0087442379 0.02041465
0.12130751 -0.0085772984 0.021019161
0.12272691 -0.0085908836 0.022796661
0.12386952 -0.0085850162 0.023836732
0.12248673 -0.0084059518 0.025258601
0.12497784 -0.0084936395 0.026104629
0.12516694 -0.0084246974 0.026530087
0.1269604 -0.0084640263 0.027438074
0.1312362 -0.0086665405 0.028478146
0.12952749 -0.0084737614 0.028754801
0.13074537 -0.0084742364 0.030072153
0.13232702 -0.0084980661 0.030896485
0.13193512 -0.0083958711 0.031234831
0.13284162 -0.0083773993 0.031968385
0.13533555 -0.0084584719 0.032794833
0.13392392 -0.0082961721 0.033449501
0.13893944 -0.0085313693 0.034689963
0.13879639 -0.008448476 0.035352796
0.1365246 -0.008238554 0.035635561
0.13907729 -0.0083208634 0.03572005
0.14281355 -0.00847199 0.035665065
0.13971797 -0.0082187038 0.035274386
0.14577062 -0.0085032862 0.034214705
0.14530054 -0.0084058158 0.033723444
0.14528652 -0.0083361119 0.032153666
0.15095647 -0.0085910186 0.028554112
0.15104766 -0.008526884 0.024787605
0.15471862 -0.0086642429 0.017203957
0.15965185 -0.0088695474 0.0092698336
0.0089200707 -0.0076457746 0.0062068105
0.0099825012 -0.0074868756 0.01198256
0.011189269 -0.0074595124 0.017407984
0.012245324 -0.0073471945 0.021289438
0.013479668 -0.0073525459 0.024316102
0.01465959 -0.007329795 0.02545324
0.015715003 -0.0072530783 0.027326882
0.016936034 -0.0072583002 0.029271692
0.018413691 -0.0073654763 0.02990374
0.019123608 -0.0071713529 0.030350834
0.020901863 -0.0073771281 0.030419677
0.022029566 -0.0073431889 0.030162424
0.022682298 -0.0071628313 0.029642463
0.024635376 -0.0073906132 0.029206306
0.025693128 -0.0073408936 0.028781891
0.026616741 -0.0072591114 0.028244615
0.028191032 -0.0073541822 0.027795762
0.029268352 -0.0073170881 0.026487529
0.030693969 -0.0073665525 0.025095761
0.032074336 -0.0074017695 0.024346471
0.033315606 -0.0074034678 0.023028851
0.034608137 -0.0074160295 0.020743012
0.036500357 -0.0075517981 0.01954636
0.037304983 -0.0074609965 0.019048631
0.038798496 -0.0075093862 0.018889159
0.040970612 -0.0076819896 0.017837524
0.041898787 -0.0076179611 0.016751111
0.043046325 -0.0075964108 0.016615331
0.044175871 -0.0075730062 0.016615331
0.044534925 -0.0074224873 0.016026616
0.046728756 -0.0075776363 0.015987277
0.048143823 -0.007601656 0.015708625
0.048484012 -0.0074590784 0.01537782
0.050803352 -0.0076205027 0.015335679
0.051678848 -0.0075627584 0.01540339
0.053567912 -0.0076525589 0.015213549
0.056231778 -0.0078462949 0.015053809
0.055972237 -0.0076325783 0.014958918
0.05667989 -0.0075573185 0.014587164
0.058076005 -0.007575131 0.014187098
0.058615424 -0.0074828202 0.014325082
0.060039174 -0.0075048967 0.014187098
0.061641209 -0.0075479029 0.014059842
0.06239482 -0.0074873785 0.014065027
0.063844405 -0.0075111068 0.01393652
0.065761961 -0.0075879181 0.013278723
0.065906964 -0.007461166 0.012653351
0.067739889 -0.0075266543 0.013029754
0.069279321 -0.0075577442 0.012371361
0.069932148 -0.0074927299 0.012319386
0.071814783 -0.0075594513 0.012408018
0.072076082 -0.0074561466 0.012371361
0.073501967 -0.0074747764 0.012459993
0.075748287 -0.0075748288 0.012533069
0.075601131 -0.0074361768 0.012925267
0.077846773 -0.0075335591 0.013012588
0.078913607 -0.0075155818 0.013458133
0.078687742 -0.0073769758 0.01380229
0.082100354 -0.007578494 0.013458133
0.082823977 -0.0075294524 0.014007449
0.082944967 -0.0074279075 0.013800502
0.08522813 -0.007520129 0.014118731
0.085801236 -0.007460977 0.014440835
0.086840704 -0.007443489 0.014551997
0.089297011 -0.007546226 0.014219463
0.090588987 -0.0075490819 0.014343083
0.091283515 -0.0075027547 0.013486624
0.092678852 -0.0075145015 0.013802528
0.093522005 -0.0074817603 0.01346916
0.095919296 -0.0075725759 0.0131917
0.098561175 -0.007680092 0.013167918
0.09884125 -0.0076031731 0.012499869
0.10167684 -0.0077222916 0.011450231
0.10270051 -0.0077025383 0.010704875
0.10106886 -0.0074865827 0.010012388
0.10408764 -0.0076161688 0.010012388
0.10494477 -0.0075863693 0.0098215342
0.10513239 -0.007509456 0.0093384981
0.1091093 -0.0077018333 0.0092763901
0.11141497 -0.0077731377 0.010203183
0.10873695 -0.0074991002 0.010509491
0.11127723 -0.0075870836 0.010884881
0.11119998 -0.007496628 0.011449516
0.11277944 -0.0075186291 0.012425482
0.11422505 -0.0075313221 0.013656259
0.11469333 -0.0074799997 0.014546871
0.11423646 -0.0073700943 0.015279919
0.11703057 -0.0074700359 0.017044097
0.11747408 -0.0074194157 0.019002944
0.11974459 -0.007484037 0.020345092
0.12047091 -0.0074518085 0.021913409
0.11942798 -0.0073119169 0.023257941
0.12137133 -0.0073558381 0.02428481
0.12199541 -0.0073197247 0.025122911
0.11985222 -0.0071199336 0.026822746
0.12475722 -0.0073386598 0.027750432
0.12497772 -0.0072802552 0.028084427
0.12493458 -0.0072077643 0.029073983
0.12751584 -0.0072866194 0.029737353
0.12777974 -0.007232815 0.030160129
0.13061419 -0.0073241605 0.030728072
0.13361576 -0.0074230982 0.031977296
0.13091454 -0.0072063054 0.032327414
0.13060115 -0.0071236989 0.032276958
0.13338797 -0.0072101606 0.032808512
0.1331006 -0.0071303896 0.033388138
0.1360261 -0.0072226245 0.033778816
0.13608769 -0.00716251 0.035100043
0.13750024 -0.0071739256 0.035262585
0.13899682 -0.0071894908 0.035804212
0.14147337 -0.0072550443 0.035977155
0.1402275 -0.0071302117 0.03525576
0.1433305 -0.0072267484 0.034954309
0.14437367 -0.0072186841 0.03436324
0.14524469 -0.007202216 0.033514798
0.14884034 -0.0073200166 0.031698585
0.14980598 -0.0073076086 0.02793631
0.15323605 -0.0074146474 0.020857155
0.15801759 -0.0075848447 0.015585363
0.010171305 -0.0063570659 0.008805275
0.011175397 -0.0062085539 0.014947474
0.012254242 -0.0061271209 0.019481868
0.013635084 -0.0061977655 0.022846758
0.014735873 -0.0061399466 0.025301307
0.015882911 -0.0061088121 0.026815712
0.017156787 -0.0061274236 0.028333902
0.018203981 -0.0060679936 0.029488683
0.019490492 -0.0060907784 0.03017047
0.020820022 -0.0061235358 0.030122727
0.021792203 -0.00605339 0.03017047
0.023286153 -0.0061279349 0.030356556
0.02463012 -0.00615753 0.030008823
0.025380643 -0.0060430104 0.029602647
0.026888607 -0.0061110472 0.028968453
0.028219886 -0.0061347582 0.028695971
0.029572079 -0.0061608497 0.027780235
0.030817771 -0.0061635543 0.026678234
0.031774357 -0.0061104535 0.025873363
0.033247959 -0.0061570294 0.025141984
0.035067357 -0.0062620281 0.024033725
0.03610605 -0.0062251813 0.022812665
0.037357014 -0.0062261689 0.020610839
0.039295275 -0.0063379477 0.019817382
0.039717931 -0.0062059266 0.019083977
0.041648146 -0.0063103251 0.018602461
0.043216217 -0.0063553262 0.018266559
0.043541681 -0.0062202401 0.017879635
0.045209371 -0.0062790788 0.017600924
0.04608772 -0.0062280702 0.017308265
0.046761714 -0.0061528571 0.016336441
0.049049057 -0.0062883403 0.016252607
0.050408158 -0.0063010198 0.016035885
0.051006384 -0.0062202904 0.015922725
0.053584486 -0.0063791056 0.015797555
0.05407466 -0.0062877508 0.015079141
0.055333402 -0.0062878868 0.014843762
0.057716452 -0.0064129392 0.014488816
0.058827147 -0.006394255 0.014197052
0.060114417 -0.0063951509 0.014145613
