ply
format ascii 1.0
comment PCL generated
element vertex 1271
property float x
property float y
property float z
element camera 0
property float view_px
property float view_py
property float view_pz
property float x_axisx
property float x_axisy
property float x_axisz
property float y_axisx
property float y_axisy
property float y_axisz
property float z_axisx
property float z_axisy
property float z_axisz
property float focal
property float scalex
property float scaley
property float centerx
property float centery
property int viewportx
property int viewporty
property float k1
property float k2
end_header
0.032090586 -0.02221656 0.012287974
0.033378407 -0.022252271 0.012095958
0.034445483 -0.022143526 0.011896044
0.036018059 -0.022356037 0.01159665
0.03698368 -0.022190209 0.011507362
0.038209252 -0.022186017 0.011413336
0.039507914 -0.022223203 0.010861367
0.04053811 -0.022111695 0.010038912
0.042191029 -0.022336427 0.010143161
0.043378096 -0.022308735 0.010158062
0.043952774 -0.021976387 0.010054469
0.048167065 -0.023432627 0.0090169907
0.048699658 -0.02306826 0.0088034272
0.048348133 -0.022314522 0.0090858936
0.050377853 -0.022670032 0.0093013644
0.051063187 -0.022417985 0.010033339
0.05256737 -0.022528872 0.010893613
0.054302059 -0.022731096 0.011418939
0.054165326 -0.022158543 0.011967778
0.0551906 -0.02207624 0.013449818
0.057283275 -0.022415195 0.014315963
0.058304366 -0.022329332 0.015009671
0.059150293 -0.02218136 0.015657514
0.060711071 -0.022302026 0.016902238
0.060203396 -0.021673221 0.017977357
0.062099967 -0.021917636 0.01965037
0.063165762 -0.021865072 0.020760417
0.06245321 -0.021210525 0.021596849
0.065164916 -0.021721639 0.023678869
0.066130601 -0.021642741 0.024147153
0.067050129 -0.021551827 0.024113834
0.068179235 -0.021530284 0.024399489
0.069291599 -0.021504289 0.024650604
0.070038222 -0.021367593 0.023660421
0.072366394 -0.021709917 0.023055583
0.073960274 -0.021824343 0.02240482
0.075491518 -0.021916892 0.021530509
0.077615865 -0.022175962 0.020637333
0.077751622 -0.021867642 0.018929809
0.079673849 -0.022063527 0.018209815
0.08131548 -0.022176949 0.015241295
0.082413673 -0.022140985 0.012770802
0.085658535 -0.022674318 0.0074162781
-0.078203849 -0.021102626 0.0083010495
-0.075980991 -0.020833498 0.011218935
-0.072870843 -0.020308267 0.014244974
-0.072208367 -0.020459037 0.016517669
-0.072046891 -0.020759275 0.018101901
-0.069554642 -0.020386705 0.018835932
-0.069440924 -0.02071045 0.020367652
-0.067456186 -0.02047777 0.021811038
-0.065531075 -0.020255059 0.022221118
-0.064608641 -0.020339757 0.022731513
-0.063442543 -0.020349495 0.022731513
-0.062648512 -0.020481244 0.022724539
-0.06167255 -0.020557517 0.022242337
-0.060276628 -0.020494053 0.021830887
-0.059074242 -0.020495145 0.02115044
-0.058205016 -0.020614276 0.020420551
-0.056469128 -0.020425003 0.018778563
-0.056599334 -0.020917146 0.018136621
-0.055441573 -0.020944595 0.017370254
-0.053675909 -0.020738419 0.015482515
-0.053224832 -0.021042375 0.014212012
-0.052628733 -0.021302106 0.012724757
-0.0507656 -0.021049151 0.012016475
-0.050080106 -0.021284046 0.011639565
-0.048497371 -0.021139881 0.011351883
-0.047582887 -0.02128708 0.011095017
-0.04710624 -0.021643408 0.0111745
-0.044431221 -0.020981409 0.011439323
-0.043011226 -0.020891167 0.011961967
-0.042814173 -0.021407086 0.012500197
-0.040610544 -0.020920582 0.012881279
-0.039972331 -0.0212353 0.013710141
-0.038218979 -0.020958794 0.013791233
-0.036583338 -0.020730557 0.014070302
-0.03584224 -0.021010969 0.014731824
-0.034541 -0.020971322 0.014727503
-0.032939173 -0.020739481 0.014853418
-0.031964492 -0.02089986 0.015152544
-0.030843237 -0.020973401 0.015242368
-0.029312124 -0.020762755 0.015126944
-0.028180154 -0.02082881 0.015484661
-0.026750086 -0.02067052 0.015702158
-0.025717588 -0.020818999 0.015583724
-0.02452646 -0.020847492 0.015702158
-0.023058033 -0.020630872 0.01555565
-0.021935629 -0.020716984 0.015692919
-0.020933265 -0.020933265 0.015471607
-0.019435307 -0.020650014 0.015514642
-0.018461429 -0.020922951 0.015423983
-0.017250108 -0.02094656 0.015443146
-0.015822353 -0.020690769 0.015446693
-0.014815945 -0.020989256 0.015591383
-0.013566191 -0.020965932 0.015408754
-0.012115842 -0.020596931 0.01505506
-0.01106046 -0.020891981 0.014986485
-0.0097458586 -0.02070995 0.014370203
-0.0084875487 -0.020612618 0.0143345
-0.0074268985 -0.021042878 0.01423502
-0.0061092493 -0.020771448 0.013912022
-0.0048736576 -0.020713046 0.013815135
-0.0036965949 -0.020947371 0.013233185
-0.0024391115 -0.020732448 0.013234645
-0.0012173756 -0.020695386 0.013128728
0 -0.02081239 0.013186872
0.0012130535 -0.020621909 0.013617098
0.0024907328 -0.021171229 0.014119267
0.0036881943 -0.020899767 0.014519274
0.0048753619 -0.020720288 0.014974296
0.006183207 -0.021022905 0.015162051
0.0073889163 -0.020935263 0.015467435
0.0085293017 -0.02071402 0.015410304
0.0098773222 -0.02098931 0.015931815
0.010983777 -0.020747134 0.015821606
0.012211386 -0.020759357 0.015567094
0.013546109 -0.020934897 0.015535533
0.014761182 -0.020911675 0.015486151
0.01586823 -0.020750761 0.015352994
0.017274808 -0.020976553 0.01553455
0.018422192 -0.020878484 0.0153175
0.019736033 -0.020969534 0.015101016
0.020966351 -0.020966351 0.015520096
0.021948764 -0.020729389 0.01506415
0.023398854 -0.020935817 0.014513195
0.024645627 -0.020948783 0.014440626
0.025718864 -0.020820033 0.014448553
0.027157944 -0.020985683 0.013950825
0.028679179 -0.021197654 0.013771296
0.029634427 -0.020991053 0.013516039
0.030897919 -0.021010585 0.013220429
0.032011874 -0.020930842 0.01260823
0.033322912 -0.020981092 0.012101889
0.034858968 -0.021164373 0.011459768
0.035562277 -0.020846853 0.011702031
0.036810979 -0.020859554 0.010491699
0.038649842 -0.021195075 0.010210037
0.039069384 -0.020755611 0.0099381208
0.040926874 -0.021083541 0.0097327232
0.042612065 -0.021306032 0.0094405413
0.043788079 -0.021268496 0.0086001754
0.046417486 -0.021919368 0.0087068975
0.046675615 -0.021445552 0.008844018
0.047297321 -0.021159329 0.009115845
0.048953425 -0.021338673 0.0096471012
0.049830541 -0.021177979 0.0099645257
0.051180247 -0.021221077 0.010608822
0.052883014 -0.02140503 0.011434585
0.053373188 -0.021101028 0.011994421
0.054290947 -0.020976046 0.012724519
0.056489643 -0.021340532 0.013916671
0.056207076 -0.02077218 0.015022635
0.057705242 -0.020872109 0.015792012
0.059542492 -0.021087967 0.016740322
0.059438422 -0.020621493 0.017778069
0.061336763 -0.020854499 0.019814998
0.062146835 -0.020715613 0.021644175
0.06215252 -0.020319093 0.022637904
0.063855149 -0.020481842 0.02433151
0.065403543 -0.020590004 0.025478184
0.065182783 -0.020147407 0.025985658
0.067631744 -0.020531066 0.026515722
0.068159558 -0.020328289 0.026708126
0.068908192 -0.020197228 0.026421905
0.070703745 -0.020372264 0.025250971
0.071074128 -0.02013767 0.024668306
0.07224676 -0.020134343 0.023208082
0.074705377 -0.020483732 0.022519797
0.075839773 -0.020464702 0.021770984
0.079210632 -0.021040324 0.019817114
0.078788072 -0.020606112 0.018231064
0.080162659 -0.020647958 0.015061438
0.083689719 -0.021234704 0.011617452
0.086116195 -0.021529049 0.0064227879
-0.077927522 -0.019791117 0.0086343288
-0.075063899 -0.019371329 0.011027157
-0.074335985 -0.019497963 0.014330477
-0.073346555 -0.019559082 0.01682803
-0.070686504 -0.019169223 0.018387973
-0.06984514 -0.019267624 0.019286454
-0.068881392 -0.019335127 0.021030337
-0.067024529 -0.019149866 0.022221118
-0.066413805 -0.01932038 0.023206711
-0.064788274 -0.019196525 0.02326268
-0.063353471 -0.019125575 0.023631334
-0.062790155 -0.019320047 0.023310483
-0.061174054 -0.019191859 0.023038477
-0.060144126 -0.01924612 0.022779584
-0.059432808 -0.019406632 0.021947205
-0.057601944 -0.019200647 0.021385193
-0.056909893 -0.019373581 0.020587325
-0.056669042 -0.019710971 0.019287825
-0.054532625 -0.019389378 0.01790154
-0.054469444 -0.01980707 0.01651451
-0.053092219 -0.019755244 0.014920622
-0.05138294 -0.019574452 0.013597727
-0.051224966 -0.019990232 0.01282528
-0.049571369 -0.019828549 0.012167126
-0.048667539 -0.01996617 0.011763841
-0.047794729 -0.020124096 0.011063188
-0.046137366 -0.019951293 0.010868818
-0.04608557 -0.020482477 0.010856271
-0.044167966 -0.02019107 0.011331797
-0.041993443 -0.01976162 0.011992097
-0.040814832 -0.019789008 0.012967467
-0.039584033 -0.019792017 0.013469428
-0.037978265 -0.019601686 0.013559759
-0.037067834 -0.01976951 0.013831377
-0.035856389 -0.019782836 0.014181703
-0.034326859 -0.019615347 0.014247507
-0.03336725 -0.019773185 0.014971197
-0.032354634 -0.019910542 0.014794499
-0.030516777 -0.019530738 0.014784425
-0.02964469 -0.019763127 0.014963686
-0.02818862 -0.019609474 0.01516366
-0.027001558 -0.019637497 0.01516813
-0.025904022 -0.019736398 0.015265435
-0.024525311 -0.019620247 0.015355021
-0.023318039 -0.019636244 0.015315741
-0.022191819 -0.01972606 0.015366465
-0.020758597 -0.019537503 0.015111446
-0.019686442 -0.019686442 0.015150547
-0.018513473 -0.019747704 0.015099943
-0.016973371 -0.019398136 0.01532796
-0.016013797 -0.019709289 0.01532796
-0.014872914 -0.019830553 0.014916927
-0.013410943 -0.019506825 0.015000761
-0.012269839 -0.019631742 0.014857084
-0.010997504 -0.019551119 0.014360577
-0.0097721815 -0.019544363 0.014352411
-0.0085659688 -0.019579357 0.0143525
-0.0073856441 -0.019695051 0.013974488
-0.0060949661 -0.019503891 0.013903141
-0.0049162791 -0.019665116 0.013714641
-0.0036763342 -0.019607116 0.01321587
-0.0024521449 -0.019617159 0.013325781
-0.0012303445 -0.019685512 0.013343573
0 -0.019463534 0.013416946
0.0012312576 -0.019700121 0.013562649
0.0024769779 -0.019815823 0.01434657
0.0036496755 -0.019464936 0.014672697
0.0049050804 -0.019620322 0.015047848
0.0061552189 -0.019696699 0.015193135
0.0073067704 -0.019484721 0.01544103
0.00863072 -0.01972736 0.015741408
0.00972642 -0.01945284 0.015946895
0.011044603 -0.01963485 0.016026765
0.012296611 -0.019674579 0.016001433
0.013433698 -0.019539922 0.015881121
0.014769245 -0.019692326 0.015881121
0.016029613 -0.019728756 0.015943497
0.017184569 -0.019639507 0.015961319
0.018362934 -0.019587129 0.01570192
0.019747747 -0.019747747 0.015883684
0.020818558 -0.019593937 0.015698105
0.022197291 -0.019730926 0.015255511
0.023437021 -0.019736439 0.014772236
0.024441419 -0.019553136 0.014724821
0.0258619 -0.019704305 0.014638573
0.027306404 -0.019859202 0.014338076
0.027976181 -0.019461691 0.014135718
0.029822586 -0.019881723 0.013593972
0.03077192 -0.019694028 0.01269117
0.032141443 -0.019779349 0.011620492
0.03346727 -0.019832455 0.011143148
0.034529172 -0.019730955 0.010728061
0.036238421 -0.019993611 0.010101378
0.037655979 -0.020083189 0.0098035634
0.039084427 -0.020172609 0.0092876256
0.041209102 -0.020604551 0.0088261366
0.042560406 -0.020635348 0.0087400675
0.043342013 -0.020396242 0.0085188448
0.044617884 -0.020396747 0.0085789263
0.045989547 -0.020439798 0.0090005696
0.046260703 -0.020004628 0.0093290806
0.04782236 -0.020135731 0.0098158717
0.049177863 -0.020175533 0.0099827945
0.049992904 -0.019997161 0.010313094
0.0511356 -0.019955356 0.011043936
0.051700749 -0.019695522 0.011702001
0.053183302 -0.019789135 0.01243341
0.05474098 -0.019905811 0.013226748
0.055534273 -0.019745519 0.014822066
0.056707982 -0.019724516 0.01583603
0.057924211 -0.01971888 0.016671389
0.058692656 -0.019564219 0.01798597
0.060057446 -0.019610595 0.019595653
0.061234307 -0.019594977 0.021578729
0.061220244 -0.019206351 0.023374498
0.062601835 -0.019262102 0.025096178
0.063893937 -0.019288737 0.026028335
0.064377852 -0.019074919 0.027233064
0.065942861 -0.019183377 0.027870983
0.066079333 -0.01887981 0.028011084
0.067012861 -0.018810628 0.028018415
0.069757789 -0.019243529 0.027849019
0.070107408 -0.019012177 0.026958644
0.071537092 -0.019076558 0.025591493
0.072265796 -0.018954962 0.024517715
0.0737027 -0.019020051 0.023578823
0.074525863 -0.018927203 0.022309542
0.077283673 -0.019320918 0.020344436
0.077167876 -0.01899517 0.017345548
0.081391893 -0.019731369 0.014418691
0.083444521 -0.019927049 0.0092667043
-0.077571258 -0.018469349 0.0085582137
-0.076965578 -0.018620703 0.011048645
-0.074937783 -0.018427324 0.013638228
-0.072198085 -0.018049521 0.016501009
-0.071890831 -0.018277328 0.018840551
-0.069929019 -0.018085092 0.019837022
-0.068077773 -0.017915202 0.021875679
-0.067500532 -0.018080499 0.023219883
-0.065276407 -0.017802656 0.023931444
-0.063759178 -0.017710881 0.024065137
-0.063516632 -0.017976405 0.02409476
-0.062021278 -0.017890753 0.024304092
-0.061475839 -0.018081129 0.023765564
-0.060485348 -0.018145604 0.023787677
-0.059441634 -0.018196419 0.023351789
-0.058701236 -0.018344136 0.022565752
-0.057097346 -0.018222557 0.02212131
-0.055450704 -0.018081751 0.020972937
-0.055580337 -0.018526778 0.020080835
-0.05395551 -0.018393924 0.018478453
-0.052524805 -0.018322606 0.0165658
-0.052086968 -0.018602489 0.014707655
-0.05121227 -0.018736197 0.013695002
-0.049949016 -0.018730881 0.012870729
-0.048827905 -0.018779963 0.012020528
-0.047202736 -0.01863266 0.011408418
-0.046170745 -0.01871787 0.010970831
-0.045264691 -0.018860288 0.010943592
-0.044640832 -0.019131785 0.011024565
-0.042250983 -0.01864014 0.011363119
-0.041166913 -0.018712234 0.012042165
-0.039432444 -0.018483957 0.01238966
-0.038442742 -0.018601326 0.013414949
-0.037198756 -0.018599378 0.013678372
-0.035660841 -0.018445263 0.014103085
-0.034996487 -0.018748118 0.014037907
-0.033380214 -0.018544564 0.014305741
-0.031762347 -0.018324431 0.013822764
-0.030963127 -0.018577876 0.014206171
-0.029468145 -0.018417591 0.0143978
-0.02827237 -0.018438503 0.014801562
-0.027290219 -0.018606968 0.014924675
-0.025649941 -0.018321386 0.014936209
-0.024645573 -0.018484179 0.014949739
-0.02344385 -0.018508302 0.014801562
-0.021952067 -0.018293388 0.0147008
-0.020787477 -0.018341893 0.014270753
-0.019842034 -0.018601907 0.014453769
-0.018346453 -0.018346453 0.014453769
-0.017288383 -0.018523268 0.014495999
-0.01602559 -0.018491065 0.014228523
-0.014737067 -0.018421333 0.014219731
-0.013519312 -0.018435426 0.014236957
-0.012340366 -0.018510548 0.013990968
-0.010930119 -0.018216865 0.014184624
-0.0099459244 -0.018648608 0.014130652
-0.0085267536 -0.018271616 0.014423072
-0.007435997 -0.018589992 0.013985813
-0.0062400815 -0.018720245 0.013969272
-0.0048838849 -0.018314568 0.013536423
-0.0036827109 -0.018413555 0.012758613
-0.0024806166 -0.018604625 0.012955666
-0.0012231583 -0.018347375 0.012826681
0 -0.018634068 0.012897551
0.00122541 -0.01838115 0.013362527
0.0024561523 -0.018421143 0.014087439
0.0037058967 -0.018529484 0.014498949
0.0049564228 -0.018586587 0.014627576
0.0060785189 -0.018235557 0.014712602
0.0074546169 -0.018636543 0.014743239
0.0086298306 -0.018492494 0.015542805
0.0097848084 -0.018346515 0.01582095
0.011177622 -0.01862937 0.015909672
0.012224773 -0.01833716 0.015741378
0.013510613 -0.018423563 0.015533954
0.014845099 -0.018556375 0.015381724
0.015997915 -0.018459132 0.015759587
0.017261136 -0.018494075 0.016031265
0.01869492 -0.01869492 0.015863866
0.019602692 -0.018377524 0.015993029
0.021145117 -0.018657455 0.015811682
0.022683073 -0.018902561 0.015656739
0.023311025 -0.018403441 0.015154123
0.024671102 -0.018503327 0.014625788
0.026326349 -0.018804535 0.014616758
0.02709103 -0.018471157 0.013990313
0.028546263 -0.018617127 0.013872176
0.029697044 -0.018560652 0.012562841
0.031107383 -0.018664429 0.01191321
0.032305509 -0.018637793 0.011319667
0.03330972 -0.0185054 0.011319667
0.035605032 -0.019074125 0.010613114
0.036625456 -0.018944202 0.009578526
0.037446357 -0.018723179 0.009578526
0.039001383 -0.018871637 0.0095388889
0.040360358 -0.018918917 0.0092796981
0.041128885 -0.018694948 0.0092796981
0.042420045 -0.018714726 0.0090197623
0.04395121 -0.018836232 0.0090197623
0.044871919 -0.018696634 0.0097047985
0.046800796 -0.018973297 0.010100931
0.047932543 -0.01892074 0.010224402
0.04882082 -0.018777238 0.010370284
0.050845247 -0.019066967 0.011805892
0.05051478 -0.018481016 0.012589276
0.052437775 -0.018727776 0.013281703
0.054083351 -0.018866286 0.014229894
0.054418646 -0.018551812 0.015634418
0.055542234 -0.018514078 0.016528249
0.057133302 -0.018630425 0.016885161
0.057605848 -0.018384844 0.01799503
0.058878161 -0.018399425 0.019365728
0.060300019 -0.01845919 0.021284223
0.060446095 -0.018133828 0.023421049
0.061839148 -0.018187985 0.025631368
0.063411526 -0.018291786 0.026736915
0.062893108 -0.017799936 0.028049916
0.064811133 -0.018003093 0.029140532
0.066254638 -0.018069446 0.029072881
0.066626355 -0.017846344 0.028636962
0.067964442 -0.017885379 0.028830975
0.068933435 -0.017827611 0.028416961
0.069741711 -0.017730942 0.028301269
0.072151139 -0.018037785 0.027533621
0.072350435 -0.017791091 0.026432872
0.073773749 -0.017848488 0.024795473
0.075120762 -0.017885895 0.023185313
0.075414509 -0.017675275 0.020871222
0.078718267 -0.018165754 0.017773896
0.080817036 -0.018367508 0.013821006
0.081405245 -0.018225055 0.0071378946
-0.078695312 -0.017487846 0.0074224472
-0.077140056 -0.017418722 0.011082679
-0.074170254 -0.017022682 0.013400882
-0.072992049 -0.017031478 0.01695022
-0.071531594 -0.016973598 0.019251794
-0.068810947 -0.016609538 0.020334095
-0.068671525 -0.01686669 0.022723794
-0.066943325 -0.016735831 0.024020076
-0.064812012 -0.016497603 0.024388731
-0.064801037 -0.016800268 0.024495095
-0.063385241 -0.016743271 0.024699241
-0.062454022 -0.016814545 0.025004417
-0.061724819 -0.016944068 0.024829209
-0.060210224 -0.016858863 0.024545968
-0.059476733 -0.016993353 0.024356753
-0.058344051 -0.017017014 0.023750603
-0.056616906 -0.016864611 0.023384064
-0.056231745 -0.017114008 0.022289187
-0.055021975 -0.017117947 0.021341205
-0.053449389 -0.017006624 0.019909769
-0.053323023 -0.017360985 0.017550528
-0.052274499 -0.017424833 0.016035289
-0.05052422 -0.017252171 0.014654577
-0.050372262 -0.01763029 0.013880789
-0.048451774 -0.017392945 0.01283294
-0.047008857 -0.017319053 0.011552095
-0.046562526 -0.017618254 0.010967672
-0.044936847 -0.017475441 0.010812163
-0.043674845 -0.017469939 0.010315865
-0.043691434 -0.017990589 0.010926515
-0.04076419 -0.017293898 0.011639059
-0.039837699 -0.017428994 0.011753976
-0.038760148 -0.017504582 0.012219459
-0.036867045 -0.017204622 0.013172805
-0.035968486 -0.017364096 0.013822317
-0.034797207 -0.017398603 0.014092386
-0.033189718 -0.017209483 0.014269292
-0.0321078 -0.017288815 0.013911545
-0.030961268 -0.017338309 0.013863623
-0.029505758 -0.017211692 0.014064908
-0.028512407 -0.017355379 0.014228821
-0.027033279 -0.017202996 0.014411181
-0.025816867 -0.017211245 0.014421612
-0.024875036 -0.017412525 0.014421612
-0.023333894 -0.017193396 0.014455229
-0.022075512 -0.017169842 0.014761448
-0.02109216 -0.017370014 0.014314771
-0.019593745 -0.017144527 0.014585257
-0.01857065 -0.017332608 0.014455974
-0.017249886 -0.017249886 0.014596432
-0.015880741 -0.017102337 0.014455229
-0.014889454 -0.017371031 0.014507979
-0.013618867 -0.017333103 0.014244556
-0.012155924 -0.017018294 0.014007479
-0.011126027 -0.017307153 0.013546228
-0.0098066162 -0.01716158 0.013534546
-0.0085607488 -0.017121498 0.013644636
-0.0074417531 -0.01736409 0.013675928
-0.0060918522 -0.017057186 0.013656735
-0.0048865173 -0.017102811 0.013499737
-0.0037279427 -0.017397067 0.013110638
-0.002454059 -0.017178413 0.013110638
-0.001221808 -0.017105313 0.01318711
0 -0.01729022 0.013207436
0.0012153583 -0.017015016 0.013453066
0.0024934874 -0.017454412 0.013747633
0.0037118797 -0.017322104 0.013947815
0.0049042837 -0.017164994 0.013928294
0.006186462 -0.017322093 0.014213741
0.0074329921 -0.017343648 0.014550269
0.0085722469 -0.017144494 0.015164137
0.0099428874 -0.017400052 0.015790224
0.01111891 -0.017296081 0.016132355
0.01228488 -0.017198831 0.016070932
0.013655665 -0.017379938 0.015781134
0.014765382 -0.017226279 0.01599738
0.016016724 -0.01724878 0.016133517
0.017355453 -0.017355453 0.016110748
0.018452995 -0.017222794 0.016018122
0.019703671 -0.017240712 0.015692592
0.021004315 -0.01729767 0.015964895
0.021963907 -0.01708304 0.015977472
0.023535985 -0.017342305 0.015138596
0.02480454 -0.017363178 0.014515609
0.02588705 -0.017258033 0.013917416
0.027197683 -0.017307617 0.013551474
0.028541747 -0.017373238 0.013306051
0.029720042 -0.017336691 0.012806565
0.031146491 -0.017442035 0.012023836
0.032619301 -0.017564239 0.011142045
0.034166656 -0.017716045 0.010904014
0.035415854 -0.017707927 0.010763526
0.036470078 -0.017606245 0.01042062
0.037757184 -0.01762002 0.010540038
0.039410852 -0.017798448 0.010561079
0.039552383 -0.017304167 0.010561079
0.041496627 -0.017604629 0.010691792
0.042899851 -0.017664645 0.0098308027
0.043061707 -0.017224682 0.01083985
0.045080844 -0.01753144 0.011095196
0.046620816 -0.017640308 0.011343181
0.047041085 -0.017330926 0.011432052
0.049240645 -0.017676128 0.011828184
0.049849138 -0.017447198 0.013725102
0.051102474 -0.017449625 0.014267206
0.052327871 -0.017442623 0.015205801
0.053203356 -0.017322022 0.016463071
0.054058824 -0.017200535 0.017034084
0.055454619 -0.017252548 0.017809063
0.056059338 -0.017061537 0.018966854
0.057085562 -0.017004211 0.019880593
0.058549948 -0.017077068 0.02157113
0.059136391 -0.016896112 0.023291171
0.060726468 -0.017003411 0.024705261
0.06235281 -0.017116457 0.026836932
0.061873537 -0.01665826 0.028701574
0.063215792 -0.016698511 0.029665232
0.064781494 -0.016795203 0.029816538
0.064553402 -0.016431775 0.03056106
0.066103034 -0.016525758 0.030339181
0.067280851 -0.016525121 0.030489564
0.068548985 -0.016546307 0.030340165
0.069627874 -0.016521867 0.029223084
0.070879839 -0.016538629 0.029257208
0.072574057 -0.016656341 0.027363002
0.074973971 -0.016929606 0.025847048
0.075347707 -0.016743934 0.023694694
0.077156395 -0.01687796 0.020925164
0.078557737 -0.016920129 0.017602623
0.079671264 -0.016899964 0.013400853
0.082233064 -0.017183028 0.0060685277
-0.076590858 -0.016059374 0.010643303
-0.075501099 -0.016090399 0.013375163
-0.073821418 -0.01599464 0.016968787
-0.071086809 -0.015663195 0.019810647
-0.070385285 -0.015776012 0.021228105
-0.068107679 -0.015533331 0.02344802
-0.067128196 -0.015583332 0.024612546
-0.066472284 -0.01571163 0.024989516
-0.064888217 -0.015621237 0.025087386
-0.063068099 -0.015469534 0.025138974
-0.062948987 -0.015737247 0.025393873
-0.06105306 -0.015562545 0.025419235
-0.060520411 -0.015735306 0.024756044
-0.059999686 -0.015918285 0.024904698
-0.057856154 -0.015669376 0.024308652
-0.057402868 -0.015877388 0.0243541
-0.056233712 -0.015892137 0.023453504
-0.054558676 -0.015761394 0.022166044
-0.054603476 -0.016132845 0.020927489
-0.053839754 -0.016277134 0.018516451
-0.050914027 -0.015759103 0.01716134
-0.050997358 -0.016169894 0.015606761
-0.049528632 -0.016096804 0.014723122
-0.048519429 -0.016173143 0.013824701
-0.047951695 -0.016404526 0.012952119
-0.046131279 -0.016208287 0.012584448
-0.04533305 -0.016370269 0.012025058
-0.044155579 -0.016400643 0.011558264
-0.042859852 -0.016387591 0.011444807
-0.042546283 -0.016760657 0.011885613
-0.040457994 -0.016436059 0.012070328
-0.038229179 -0.016031591 0.012316048
-0.03747071 -0.016237307 0.01281023
-0.036071688 -0.016170066 0.013419926
-0.034473728 -0.016005659 0.013524234
-0.03349074 -0.016125172 0.013884455
-0.032276157 -0.016138079 0.013783455
-0.030701162 -0.015964605 0.013758421
-0.029920666 -0.016207028 0.013828933
-0.028284207 -0.015986726 0.013972521
-0.02696736 -0.015935259 0.013904124
-0.026118824 -0.016168796 0.013908386
-0.02467286 -0.01603736 0.013908386
-0.023490546 -0.01607248 0.01414758
-0.022427419 -0.016197581 0.014408797
-0.020831395 -0.015929891 0.014194459
-0.01982395 -0.016106959 0.014733225
-0.018634165 -0.016149608 0.014541358
-0.017130433 -0.015906829 0.014714748
-0.016151628 -0.016151628 0.014223009
-0.014818409 -0.016053276 0.014084667
-0.013405901 -0.015843337 0.013877511
-0.012356445 -0.016063379 0.013740957
-0.011235315 -0.016228789 0.013750523
-0.0098522007 -0.016009826 0.013657004
-0.0086479029 -0.01606039 0.01356557
-0.0073193521 -0.015858596 0.013504833
-0.0061535053 -0.015999114 0.013287365
-0.0049565225 -0.016108697 0.013035983
-0.0037087128 -0.016071089 0.012920737
-0.0024739734 -0.016080828 0.012926221
-0.0012463672 -0.016202774 0.01293394
0 -0.015939461 0.013157696
0.0012351124 -0.016056461 0.013292134
0.0024929545 -0.016204204 0.013450056
0.0036795116 -0.01594455 0.013695598
0.0049747727 -0.016168011 0.013775557
0.0062088631 -0.016143043 0.01408115
0.0073733698 -0.015975634 0.014252603
0.0086696176 -0.01610072 0.014997035
0.0098332232 -0.015978988 0.015433669
0.011074929 -0.015997119 0.01519236
0.012426994 -0.016155092 0.015255183
0.013533003 -0.015993549 0.015363663
0.01481403 -0.016048532 0.01537624
0.016285216 -0.016285216 0.015481561
0.017309183 -0.016072813 0.015369892
0.01850923 -0.016041333 0.015535682
0.019893005 -0.016163068 0.015728295
0.020893395 -0.015977301 0.015352637
0.022274263 -0.016086968 0.014844507
0.023590999 -0.01614121 0.014718413
0.024665568 -0.016032619 0.014149189
0.026186442 -0.016210655 0.013855815
0.027399018 -0.01619033 0.013265491
0.02832472 -0.016009623 0.01230678
0.030011032 -0.016255975 0.011668205
0.031375144 -0.016315077 0.011173278
0.033011716 -0.016505858 0.010527164
0.03431838 -0.016523665 0.010634184
0.035421941 -0.016445901 0.010839522
0.036969122 -0.016572366 0.010823578
0.038313381 -0.016602466 0.010978132
0.038838409 -0.016287075 0.011125207
0.039978661 -0.016241331 0.01116702
0.041323759 -0.016279057 0.011297733
0.041891154 -0.016017206 0.011655837
0.044017699 -0.016349431 0.011655837
0.044938225 -0.016227692 0.01176706
0.045747992 -0.016073618 0.012993276
0.048156526 -0.016474601 0.014025033
0.049494732 -0.016498243 0.014501929
0.049828891 -0.01619439 0.015256882
0.051431604 -0.016307581 0.016575217
0.051783133 -0.016028114 0.016816914
0.052825332 -0.01597045 0.017725408
0.055085089 -0.01627514 0.018473238
0.054876983 -0.015853351 0.019437373
0.056050215 -0.015840277 0.020233959
0.057692535 -0.01595751 0.022682101
0.057966333 -0.015699215 0.022355437
0.059804395 -0.015866471 0.024329066
0.06151047 -0.015992722 0.026557297
0.061237734 -0.015609618 0.027629107
0.063087024 -0.015771756 0.029328853
0.063250303 -0.015514225 0.030504256
0.063286357 -0.015235605 0.031586379
0.065275565 -0.01542877 0.03219071
0.065792046 -0.015273154 0.031656206
0.067335211 -0.015357153 0.031880468
0.068855703 -0.015433175 0.03106606
0.069382265 -0.015287617 0.030201435
0.070965886 -0.015375941 0.030095518
0.073883146 -0.015745588 0.027876437
0.074835166 -0.015691245 0.026005089
0.075710416 -0.015622785 0.023362845
0.077836074 -0.015810452 0.019427419
0.077772245 -0.015554449 0.016264141
0.081306621 -0.016014941 0.0092106164
0.084398896 -0.016375905 0.005189538
-0.075829625 -0.014917304 0.011497915
-0.073018603 -0.01460372 0.014061153
-0.072001599 -0.014644393 0.018622756
-0.070569031 -0.014600489 0.020841122
-0.068233564 -0.014364961 0.022501767
-0.067491405 -0.014462444 0.024079651
-0.065804861 -0.014357423 0.025142312
-0.064411812 -0.014313736 0.025165856
-0.064371064 -0.01457458 0.025310278
-0.062248316 -0.014364996 0.025324821
-0.061947532 -0.014575889 0.025450796
-0.061104756 -0.014665141 0.02513805
-0.059270661 -0.014515264 0.025562376
-0.058553752 -0.014638438 0.024903774
-0.057177383 -0.014598481 0.024490356
-0.0558962 -0.014581618 0.023534805
-0.055683754 -0.014849001 0.022491932
-0.05515293 -0.015041709 0.021465153
-0.05250952 -0.01465382 0.019827247
-0.051634628 -0.01475275 0.017804593
-0.050643872 -0.014822597 0.016876251
-0.049551718 -0.014865515 0.015787154
-0.048865374 -0.015035499 0.014933884
-0.047082949 -0.014868299 0.014342815
-0.045937449 -0.014898633 0.013765544
-0.04515088 -0.015050293 0.013571739
-0.043530911 -0.014924884 0.013478994
-0.043468725 -0.015341903 0.013395369
-0.041774858 -0.015190857 0.013453662
-0.040321119 -0.015120419 0.012896925
-0.040948708 -0.015851112 0.013299644
-0.038643513 -0.015457406 0.013322979
-0.035991658 -0.014893099 0.013574541
-0.034885816 -0.014951064 0.013833702
-0.033665288 -0.01496235 0.013554901
-0.031958181 -0.014749929 0.013271868
-0.03111482 -0.014935113 0.013150573
-0.029708639 -0.014854319 0.013148487
-0.028441405 -0.014838994 0.01304847
-0.027437102 -0.014965692 0.013135374
-0.025798015 -0.014741722 0.013059318
-0.024781646 -0.014868988 0.013506949
-0.02368048 -0.014956092 0.013220787
-0.022182958 -0.014788639 0.013106287
-0.020963179 -0.014797539 0.013106287
-0.019884748 -0.014913561 0.013249159
-0.01846504 -0.014772032 0.013101041
-0.01741516 -0.014927281 0.013594866
-0.016118836 -0.014878925 0.013010889
-0.014707167 -0.014707167 0.013267219
-0.013641717 -0.014881874 0.01284191
-0.01238048 -0.014856576 0.013245344
-0.011117367 -0.014823156 0.013314098
-0.009929331 -0.014893997 0.013129741
-0.0086442949 -0.014818792 0.013079852
-0.0073841508 -0.014768302 0.012636632
-0.0062436862 -0.014984847 0.012468725
-0.004926723 -0.014780168 0.011957526
-0.0036998671 -0.014799468 0.011670589
-0.0024863239 -0.014917944 0.011812329
-0.0012305216 -0.014766259 0.011769563
0 -0.014863386 0.01220566
0.0012449375 -0.01493925 0.012323022
0.0024638183 -0.01478291 0.012548983
0.003729793 -0.014919172 0.013105422
0.0050028744 -0.015008623 0.013377279
0.0061478917 -0.01475494 0.013426483
0.0074118846 -0.014823769 0.014228702
0.0086723929 -0.01486696 0.014626712
0.009862192 -0.014793288 0.014705181
0.011215881 -0.014954508 0.015281796
0.012379264 -0.014855118 0.015142143
0.013594898 -0.014830799 0.014829725
0.014906346 -0.014906346 0.015385896
0.016067464 -0.014831505 0.014988273
0.017378565 -0.014895913 0.015298218
0.018771391 -0.015017114 0.015369326
0.019769024 -0.014826769 0.01538983
0.02125762 -0.01500538 0.014738232
0.02261172 -0.01507448 0.014699101
0.023590436 -0.014899223 0.014528483
0.024835108 -0.014901065 0.013787717
0.026109265 -0.01491958 0.013464153
0.027180556 -0.014825758 0.012007415
0.029012663 -0.015137042 0.011619091
0.030585894 -0.015292947 0.011217415
0.031469967 -0.015105585 0.011102617
0.032797772 -0.015137434 0.011190772
0.03406347 -0.01513932 0.011611342
0.035517849 -0.015221936 0.011829853
0.036973391 -0.015299333 0.012250543
0.037253249 -0.014901299 0.012324542
0.038557325 -0.014925416 0.012252986
0.040018432 -0.015006912 0.011958688
0.040704578 -0.014801664 0.012522906
0.042339455 -0.014943337 0.012490749
0.043365482 -0.014868165 0.012386918
0.044145443 -0.014715147 0.012669027
0.045870215 -0.014876827 0.014977008
0.047632914 -0.015041973 0.015472323
0.04845218 -0.014908363 0.016478777
0.050692033 -0.01520761 0.017342895
0.050770398 -0.014859629 0.017917305
0.051850598 -0.014814457 0.018382043
0.053014047 -0.014794618 0.01924181
0.054147296 -0.014767445 0.020538837
0.054897636 -0.014639369 0.021207005
0.05673014 -0.014799167 0.022816688
0.057018377 -0.014557884 0.024259031
0.058243558 -0.014560889 0.02546826
0.060187798 -0.014739869 0.026720613
0.059520323 -0.014284877 0.028212428
0.06098431 -0.01434925 0.029841959
0.06231419 -0.014380197 0.030471534
0.06250459 -0.014151982 0.031671047
0.063327812 -0.014072847 0.032279074
0.064674631 -0.01411083 0.032860547
0.065973304 -0.014137136 0.032920957
0.067749567 -0.014263067 0.032812923
0.068840683 -0.0142429 0.032190323
0.069558822 -0.014147556 0.031241179
0.072264232 -0.014452846 0.030607641
0.072796002 -0.014320524 0.02809611
0.074375428 -0.014395244 0.026161373
0.07742025 -0.014746713 0.023081124
0.078245953 -0.014671116 0.018579602
0.08065515 -0.014890181 0.011650562
0.082418084 -0.014985106 0.0071735978
-0.075126976 -0.013547488 0.0086710453
-0.074478328 -0.013654361 0.012462676
-0.072230503 -0.013466705 0.01486817
-0.069708459 -0.01322057 0.019569427
-0.069772989 -0.013464963 0.021755546
-0.067604475 -0.01327945 0.02282393
-0.066108227 -0.013221646 0.024323225
-0.065569036 -0.013356655 0.024637699
-0.063832596 -0.013248275 0.025111437
-0.062538542 -0.013229307 0.025163412
-0.062072109 -0.013388102 0.024899215
-0.060125493 -0.013227608 0.024766684
-0.058923103 -0.013227635 0.025155693
-0.058476858 -0.013400947 0.024638057
-0.056645028 -0.013257347 0.024626464
-0.056117106 -0.013419308 0.024118721
-0.055478193 -0.013561335 0.022826701
-0.053291954 -0.013322989 0.02215454
-0.052705742 -0.013482864 0.020625055
-0.05171195 -0.013543606 0.018601239
-0.050094236 -0.013439917 0.018166035
-0.049676154 -0.013660943 0.017111182
-0.047839336 -0.013493147 0.015809506
-0.047019467 -0.013610898 0.015260279
-0.046390954 -0.013791905 0.014825761
-0.045077529 -0.013773689 0.014457405
-0.044403266 -0.013955312 0.014459014
-0.043123178 -0.013951617 0.013933778
-0.041027442 -0.013675814 0.014026016
-0.040826164 -0.014033994 0.013431787
-0.038984742 -0.013833295 0.013583124
-0.037153896 -0.013623095 0.01381135
-0.036936969 -0.014010574 0.013919234
-0.036315076 -0.014266637 0.013756812
-0.034196716 -0.013931996 0.013329268
-0.032627884 -0.013804104 0.012823701
-0.031082014 -0.013676086 0.012526691
-0.029611602 -0.013571984 0.012213826
-0.028665403 -0.01370954 0.012034684
-0.027214497 -0.013607249 0.012078404
-0.025936302 -0.013585681 0.012253642
-0.024916969 -0.013704333 0.012474269
-0.023430446 -0.013564995 0.012058914
-0.022244651 -0.013593953 0.012172788
-0.021257993 -0.013755172 0.012356043
-0.019737331 -0.013569416 0.012635648
-0.0186997 -0.013713114 0.012563705
-0.017486958 -0.013739753 0.012810767
-0.016006146 -0.013543662 0.012528896
-0.014933614 -0.013689146 0.012437761
-0.013692131 -0.013692131 0.012525827
-0.012279188 -0.013507107 0.012523562
-0.011177778 -0.013661729 0.012705773
-0.0098760109 -0.013579515 0.012338609
-0.0086389333 -0.013575466 0.012232095
-0.0074652997 -0.013686383 0.012010276
-0.006179336 -0.013594539 0.011953592
-0.0049331472 -0.013566155 0.011324584
-0.0037205573 -0.013642043 0.011220694
-0.0024708011 -0.013589406 0.011362314
-0.0012442912 -0.013687204 0.011573672
0 -0.013711997 0.011573672
0.0012341958 -0.013576155 0.011694968
0.00250279 -0.013765345 0.012051433
0.0037262128 -0.013662781 0.012278944
0.0049071191 -0.013494578 0.01289922
0.0061860252 -0.013609256 0.013047814
0.0074590975 -0.013675012 0.013291717
0.0086023277 -0.013517943 0.014184237
0.010004915 -0.013756759 0.014346361
0.011131814 -0.01360555 0.014847428
0.012376464 -0.013614111 0.014903963
0.013726236 -0.013726236 0.014916241
0.014932885 -0.013688478 0.014829963
0.016166555 -0.013679393 0.015057087
0.017531207 -0.013774519 0.015078187
0.01860854 -0.013646263 0.015078187
0.019892896 -0.013676366 0.014444858
0.021178456 -0.013703707 0.014049053
0.022281833 -0.013616676 0.013360649
0.023828648 -0.013795533 0.01258105
0.025067607 -0.013787184 0.012862682
0.026116131 -0.013679878 0.012318492
0.028351383 -0.014175692 0.011592329
0.029203044 -0.013966673 0.011161447
0.03050473 -0.013981335 0.010987997
0.03190751 -0.014039304 0.010987997
0.032881923 -0.013911583 0.011571705
0.034039438 -0.013867919 0.012061536
0.035455529 -0.013928958 0.012607157
0.036518309 -0.013851772 0.013222814
0.037459556 -0.01373517 0.013641387
0.038819328 -0.0137746 0.013367534
0.039439104 -0.013557192 0.013773471
0.041097447 -0.013699149 0.01404056
0.042453565 -0.013734977 0.014705479
0.04260084 -0.013388835 0.015182972
0.044268522 -0.013526493 0.016253203
0.046142235 -0.013717962 0.017704964
0.0464742 -0.013453058 0.018504143
0.048594758 -0.013706214 0.019169599
0.049494606 -0.013611017 0.01957503
0.050292678 -0.013493158 0.01958707
0.052021876 -0.013624777 0.020505279
0.052801948 -0.013507475 0.020924181
0.054651186 -0.013662796 0.021795303
0.055434674 -0.013550699 0.023260802
0.055839173 -0.013352846 0.024346113
0.056826718 -0.01329987 0.026138186
0.057929043 -0.013275405 0.027095973
0.059062127 -0.013258845 0.028139234
0.060372923 -0.013282043 0.029750168
0.061598279 -0.013285903 0.030738026
0.060957909 -0.012894942 0.031644285
0.062995382 -0.013074514 0.03274107
0.064062111 -0.01304969 0.032702059
0.063423999 -0.0126848 0.033006579
0.066585831 -0.01307936 0.032671958
0.067192107 -0.012966898 0.032626748
0.06854596 -0.013000095 0.032338113
0.070743084 -0.013189388 0.031149656
0.072132617 -0.013224313 0.029107273
0.073857993 -0.013318655 0.027386665
0.075849354 -0.013457144 0.025196463
0.077459849 -0.013524736 0.020091951
0.080865294 -0.013898723 0.016854674
0.081628457 -0.013814047 0.010201722
0.083267272 -0.013877879 0.0060962439
-0.074407242 -0.012401207 0.011220872
-0.071479291 -0.012115134 0.013207585
-0.071629614 -0.012349933 0.016489893
-0.070460454 -0.012361483 0.020555884
-0.068040833 -0.012150149 0.02211985
-0.067116819 -0.012203058 0.023286551
-0.065036565 -0.012043809 0.023940861
-0.064028762 -0.012080899 0.024434924
-0.063242182 -0.012161959 0.024625152
-0.0615041 -0.012059628 0.024802893
-0.060515884 -0.012103177 0.024915308
-0.059796732 -0.012203415 0.025331497
-0.057515759 -0.011982449 0.0248456
-0.057128668 -0.012155036 0.024635285
-0.056031924 -0.012180854 0.024394602
-0.054475654 -0.012105701 0.023603886
-0.053654626 -0.012194233 0.022564292
-0.052761175 -0.012270041 0.021984577
-0.050943136 -0.012129319 0.020365059
-0.050452199 -0.012305414 0.018973231
-0.049110491 -0.012277623 0.018479079
-0.048061952 -0.012323578 0.017546833
-0.047712505 -0.012555922 0.016691625
-0.046308592 -0.012515835 0.015873998
-0.045370195 -0.012602832 0.015390068
-0.044062324 -0.012589236 0.015213162
-0.042167742 -0.012402277 0.01474911
-0.041445926 -0.012559371 0.014622092
-0.040023491 -0.012507341 0.013851225
-0.03815636 -0.012308504 0.013859749
-0.03768738 -0.01256246 0.013890564
-0.036073718 -0.012439214 0.014074445
-0.034647413 -0.012374076 0.01378876
-0.034223236 -0.012675272 0.013752162
-0.033364981 -0.012832685 0.013403714
-0.032059468 -0.012823788 0.012822539
-0.030905582 -0.012877326 0.012389213
-0.028932426 -0.012579315 0.012362152
-0.027208187 -0.012367357 0.012014657
-0.026206991 -0.012479519 0.012294054
-0.024909982 -0.012454991 0.012293786
-0.023573872 -0.012407301 0.012082487
-0.022592651 -0.012551473 0.011938602
-0.021135332 -0.012432548 0.011770636
-0.019996185 -0.012497616 0.012087941
-0.018783774 -0.012522516 0.011860818
-0.017264264 -0.012331617 0.012074023
-0.016244968 -0.01249613 0.01214084
-0.015011106 -0.012509255 0.011877686
-0.013545205 -0.012313822 0.0117881
-0.012424649 -0.012424649 0.011716753
-0.011227158 -0.012474621 0.011849076
-0.0099374251 -0.012421781 0.012191534
-0.0087484233 -0.012497747 0.012104869
-0.0074504339 -0.012417389 0.012022823
-0.0062034354 -0.012406871 0.01198864
-0.0049679945 -0.012419987 0.011195868
-0.0037348326 -0.012449441 0.010967106
-0.0024855491 -0.012427745 0.011339277
-0.0012475289 -0.012475289 0.011545062
0 -0.012356151 0.011686534
0.0012514812 -0.012514812 0.012242824
0.0024972234 -0.012486118 0.012493193
0.00370437 -0.0123479 0.012273282
0.005016393 -0.012540982 0.01250717
0.0062459954 -0.012491991 0.012695342
0.007340997 -0.012234995 0.013127178
0.0087411888 -0.012487411 0.013582617
0.0099097043 -0.01238713 0.013985693
0.011180654 -0.012422949 0.013972372
0.012523729 -0.012523729 0.013924807
0.013616077 -0.012378251 0.013414443
0.014919939 -0.012433283 0.013531834
0.016262349 -0.012509499 0.012922883
0.017574787 -0.012553419 0.01302284
0.018594196 -0.01239613 0.012989342
0.019987436 -0.012492148 0.012972593
0.021043418 -0.012378481 0.012427747
0.022652786 -0.012584881 0.012310445
0.024231652 -0.012753501 0.01163882
0.024715649 -0.012357824 0.01171428
0.027021814 -0.012867531 0.011747003
0.027916107 -0.01268914 0.011603355
0.02895337 -0.012588421 0.011323333
0.030797781 -0.01283241 0.011588216
0.031528458 -0.012611383 0.011887789
0.032776531 -0.012606358 0.012480736
0.034324795 -0.012712887 0.012621224
0.035170522 -0.012560901 0.01313132
0.036015682 -0.012419201 0.01412046
0.037816532 -0.012605512 0.014632165
0.0386074 -0.012454 0.015298575
0.03983729 -0.012449154 0.016344219
0.040769994 -0.012354543 0.016669482
0.041234571 -0.012127815 0.01707983
0.042726655 -0.012207615 0.018186927
0.044450145 -0.012347262 0.019306242
0.044767287 -0.012099266 0.019912511
0.046704981 -0.012290784 0.021101624
0.048142202 -0.012344155 0.021799743
0.049149215 -0.012287304 0.02201727
0.050596043 -0.012340498 0.022543132
0.051748291 -0.012321021 0.023160994
0.052932754 -0.012309943 0.024449438
0.05426364 -0.012332645 0.025338799
0.055242456 -0.012276102 0.025764257
0.055759601 -0.012121653 0.026674092
0.057296135 -0.012190667 0.027511299
0.057167999 -0.01191 0.02905798
0.058587138 -0.011956559 0.029987097
0.059532378 -0.011906476 0.031323671
0.060722724 -0.011906416 0.031282932
0.06200362 -0.011923773 0.032938063
0.062587872 -0.011809031 0.033463061
0.062986486 -0.011664163 0.033288419
0.065496631 -0.011908478 0.033217579
0.06649629 -0.011874338 0.033055246
0.067828566 -0.011899749 0.032743692
0.069674999 -0.012012932 0.031706333
0.069853708 -0.011839611 0.029850036
0.071769685 -0.011961615 0.028573871
0.074185781 -0.012161604 0.026111066
0.076048136 -0.012265828 0.024063081
0.07721515 -0.012256373 0.020040184
0.080455013 -0.012571095 0.013072908
0.08191818 -0.012602798 0.0080162287
-0.074220292 -0.011133043 0.00593853
-0.073708765 -0.01124371 0.012262762
-0.072150245 -0.011195728 0.014631689
-0.069565654 -0.010984051 0.017228276
-0.068995878 -0.011088624 0.021856278
-0.066657126 -0.010907529 0.022832215
-0.064910583 -0.010818431 0.023405582
-0.064036004 -0.010874038 0.023817658
-0.062951386 -0.010895433 0.024817437
-0.061514162 -0.01085544 0.024891287
-0.060408071 -0.010873453 0.025065809
-0.058913283 -0.010820807 0.025597274
-0.058078699 -0.010889756 0.024872243
-0.05701866 -0.010918466 0.025217474
-0.055079605 -0.010776444 0.024542123
-0.054840636 -0.010968127 0.023738682
-0.053673822 -0.010978736 0.0230501
-0.052044302 -0.010892993 0.022172749
-0.051474489 -0.011030247 0.021038502
-0.050494805 -0.011084225 0.019796818
-0.049183547 -0.011066299 0.019367158
-0.048649963 -0.011226915 0.01878351
-0.04717458 -0.011172927 0.018165976
-0.046270773 -0.011255053 0.017939985
-0.045134965 -0.011283741 0.017221332
-0.043678846 -0.011231704 0.016277999
-0.042452272 -0.011237366 0.015789121
-0.041436125 -0.011300761 0.015476882
-0.039209235 -0.011027597 0.01461637
-0.038673412 -0.011227765 0.014556825
-0.037591159 -0.011277349 0.014441162
-0.035892837 -0.011139155 0.014431238
-0.035053514 -0.0112672 0.01415652
-0.03390725 -0.011302417 0.013582647
-0.032412294 -0.01121964 0.013354897
-0.031501271 -0.011340457 0.012936532
-0.030114725 -0.011293022 0.012679905
-0.028959068 -0.011331809 0.012763798
-0.028314138 -0.011583056 0.012611777
-0.027104678 -0.01161629 0.012427241
-0.025411664 -0.011435248 0.012217671
-0.024035541 -0.011385256 0.011815399
-0.022379581 -0.01118979 0.011511594
-0.021221168 -0.011234736 0.011151224
-0.020054605 -0.011280715 0.01117152
-0.018585209 -0.011151126 0.010648668
-0.017528931 -0.011268599 0.010840297
-0.016249793 -0.011249856 0.01103121
-0.014807735 -0.011105801 0.010942489
-0.013781285 -0.011275597 0.0107131
-0.012491578 -0.01124242 0.01064074
-0.011081717 -0.011081717 0.011075288
-0.0099846544 -0.011232736 0.011245728
-0.0087267673 -0.01122013 0.011388779
-0.0074409992 -0.011161499 0.011320174
-0.0062688231 -0.011283882 0.011099875
-0.0049478435 -0.011132647 0.011233479
-0.0037288361 -0.011186508 0.010947287
-0.0024904278 -0.011206926 0.010942519
-0.0012393893 -0.011154504 0.01105839
0 -0.011250837 0.011361718
0.0012471101 -0.01122399 0.01162979
0.0024697585 -0.011113913 0.011829913
0.0037512681 -0.011253804 0.012238413
0.0049828584 -0.011211432 0.01230678
0.0061648744 -0.011096775 0.011762857
0.007527438 -0.011291157 0.012371987
0.0087429369 -0.011240918 0.012162328
0.009962773 -0.01120812 0.012530506
0.011338808 -0.011338808 0.012458444
0.012431411 -0.01118827 0.012194455
0.013652937 -0.011170586 0.012531757
0.015078994 -0.011309246 0.012912154
0.016224515 -0.011232357 0.012796521
0.017514471 -0.011259302 0.012171149
0.018927844 -0.011356706 0.012310445
0.020183871 -0.011353428 0.011933446
0.022060638 -0.011679161 0.011674106
0.022957871 -0.011478935 0.01222378
0.023864781 -0.01130437 0.011387527
0.026256856 -0.011815585 0.011939168
0.027141651 -0.011632136 0.011938572
0.02760368 -0.011292415 0.012103796
0.029112622 -0.011391896 0.011926651
0.030135114 -0.011300668 0.012103796
0.031392053 -0.011301139 0.01250416
0.032835014 -0.011365967 0.013050675
0.033691071 -0.011230358 0.01380527
0.034919366 -0.011224082 0.0147084
0.03633244 -0.011275585 0.01549539
0.037263792 -0.011179138 0.016655535
0.038609527 -0.011209218 0.017713517
0.039917052 -0.011226671 0.01814729
0.040366434 -0.011009027 0.018906564
0.041663449 -0.01102856 0.020309687
0.043369368 -0.011152123 0.021227032
0.043641802 -0.01091045 0.022398025
0.045050055 -0.010958121 0.022719026
0.046680108 -0.011055815 0.023710638
0.047120806 -0.010874032 0.023940057
0.049021427 -0.011029821 0.024722785
0.05008319 -0.010993871 0.02486515
0.051700499 -0.011078678 0.026207209
0.052452382 -0.010978405 0.026076704
0.053229775 -0.010887909 0.027281433
0.055041816 -0.011008363 0.027598917
0.05651876 -0.011058019 0.028366953
0.05715204 -0.010944008 0.029291928
0.057719421 -0.010822391 0.030340821
0.058910325 -0.010820264 0.031412721
0.058546994 -0.010538459 0.032140166
0.060379226 -0.010655157 0.03265205
0.062336922 -0.010789082 0.033280671
0.062259976 -0.010572448 0.033771038
0.064777188 -0.010796199 0.033666551
0.065047175 -0.010644083 0.03348875
0.065779239 -0.010571663 0.033096075
0.067791954 -0.010703992 0.031085879
0.069365442 -0.010763602 0.030562848
0.070181422 -0.010705641 0.028991222
0.073404998 -0.01101075 0.027372211
0.073339798 -0.010820626 0.024209172
0.075870164 -0.011013411 0.020291865
0.079304554 -0.011329222 0.015799522
0.078980111 -0.011106579 0.0090880394
-0.074407801 -0.010089193 0.010147572
-0.071937546 -0.0099224197 0.013435602
-0.070704833 -0.0099234851 0.015633851
-0.068456747 -0.0097795352 0.019967079
-0.067094758 -0.0097592371 0.022072166
-0.066667683 -0.0098766936 0.022654384
-0.065176606 -0.0098379785 0.023126781
-0.062967479 -0.0096873045 0.023436189
-0.061868258 -0.0097048245 0.023891568
-0.060302939 -0.0096484702 0.024051785
-0.058990613 -0.0096311206 0.024587989
-0.058418017 -0.0097363358 0.024619967
-0.056238737 -0.0095725516 0.024679214
-0.05610507 -0.0097574033 0.024281234
-0.054634329 -0.0097127696 0.023588121
-0.053006809 -0.0096376017 0.022959143
-0.052450031 -0.0097581455 0.022580504
-0.051687956 -0.0098453248 0.021824449
-0.049607418 -0.0096794963 0.021042347
-0.049631264 -0.009926253 0.019890994
-0.048008226 -0.0098478412 0.019834816
-0.046859607 -0.0098651806 0.019419163
-0.045905732 -0.0099255629 0.019450754
-0.044308938 -0.0098464312 0.018630624
-0.043611031 -0.0099682352 0.017733604
-0.042145442 -0.0099165747 0.01669848
-0.040750399 -0.009878885 0.016379595
-0.039748367 -0.0099370917 0.016146243
-0.038534384 -0.0099443579 0.015987754
-0.036932871 -0.009848766 0.015491635
-0.036219884 -0.0099916914 0.014888823
-0.034898981 -0.0099711381 0.014603078
-0.033596091 -0.0099543976 0.014033973
-0.032670919 -0.010052591 0.013405889
-0.031602807 -0.010112898 0.013196588
-0.029935572 -0.0099785244 0.012747735
-0.028956212 -0.010071727 0.012563348
-0.027590284 -0.010032831 0.012500465
-0.026340961 -0.010034652 0.011904866
-0.02539699 -0.010158796 0.011636913
-0.023945486 -0.01008231 0.011311293
-0.023265978 -0.010340434 0.010959983
-0.021811662 -0.010264311 0.010982931
-0.019908816 -0.0099544078 0.010687292
-0.01876926 -0.010010273 0.010637641
-0.017636059 -0.010077748 0.011039019
-0.01614158 -0.0099332798 0.010908842
-0.01513583 -0.010090553 0.011050999
-0.013813345 -0.010046069 0.011047006
-0.012414398 -0.0099315178 0.010533333
-0.011292839 -0.01003808 0.010849535
-0.0099613108 -0.0099613108 0.010798186
-0.0087237852 -0.0099700401 0.011032522
-0.0075011691 -0.010001559 0.011157572
-0.006229308 -0.0099668931 0.011238664
-0.0049799387 -0.0099598775 0.010947555
-0.0037498048 -0.0099994792 0.010926455
-0.0024950462 -0.009980185 0.010890812
-0.0012449819 -0.0099598551 0.011237741
0 -0.010006567 0.011082709
0.0012436447 -0.0099491579 0.011134952
0.0025186292 -0.010074517 0.011233598
0.0037629332 -0.010034489 0.01129961
0.0049874755 -0.0099749509 0.011411607
0.0062672934 -0.010027669 0.011657476
0.007504086 -0.010005448 0.011525869
