ply
format ascii 1.0
comment PCL generated
element vertex 1299
property float x
property float y
property float z
element camera 0
property float view_px
property float view_py
property float view_pz
property float x_axisx
property float x_axisy
property float x_axisz
property float y_axisx
property float y_axisy
property float y_axisz
property float z_axisx
property float z_axisy
property float z_axisz
property float focal
property float scalex
property float scaley
property float centerx
property float centery
property int viewportx
property int viewporty
property float k1
property float k2
end_header
-0.029367195 -0.13215238 0.022664905
-0.028510908 -0.1330509 0.022821069
-0.026741548 -0.12959366 0.023110867
-0.02609328 -0.13151014 0.023110867
-0.024781832 -0.13010463 0.022945553
-0.024129041 -0.13218518 0.022945553
-0.023018874 -0.13183537 0.022789866
-0.021745333 -0.130472 0.022429317
-0.02089219 -0.13162079 0.022087753
-0.020139534 -0.13355692 0.021710694
-0.01862606 -0.13038242 0.021137714
-0.017824989 -0.13211463 0.020288378
-0.017026868 -0.13408659 0.019035697
-0.015574555 -0.13082626 0.017875284
-0.014585052 -0.13126548 0.016848087
-0.013582308 -0.13164391 0.015896678
-0.012434053 -0.13055755 0.014087468
-0.011699544 -0.13401295 0.012814105
-0.010814806 -0.13626656 0.012021989
-0.0095981713 -0.13437441 0.010904282
-0.0088859377 -0.13995352 0.010162205
-0.0077888956 -0.14020012 0.0083435178
-0.0066875424 -0.14043839 0.0057340264
-0.13926867 -0.13600455 0.0060327947
-0.14025155 -0.13804287 0.0075974762
-0.13389996 -0.13283727 0.010551333
-0.13429019 -0.13429019 0.012705505
-0.13218841 -0.13325444 0.014284968
-0.13060698 -0.13273066 0.016485274
-0.13191934 -0.13516325 0.016853273
-0.13154131 -0.13588978 0.017496318
-0.12468259 -0.1298777 0.017401397
-0.1276504 -0.13408655 0.017554075
-0.12460481 -0.13199662 0.017575949
-0.12479644 -0.13332953 0.017176151
-0.12383618 -0.13344416 0.017058849
-0.12297924 -0.13367309 0.016856849
-0.12143712 -0.13315473 0.017361611
-0.12032433 -0.13310213 0.017387509
-0.11765254 -0.13130865 0.017463446
-0.11988826 -0.1350093 0.017528385
-0.1186913 -0.13487649 0.017456293
-0.1154981 -0.13245195 0.017566264
-0.11506839 -0.13318101 0.017958939
-0.11349732 -0.13259032 0.017446429
-0.11104713 -0.13095179 0.017114639
-0.11259405 -0.13404053 0.01625365
-0.1107275 -0.13308595 0.015908509
-0.11105509 -0.13477559 0.015036017
-0.10937921 -0.13404316 0.013313591
-0.1099303 -0.13605236 0.012546629
-0.1070612 -0.13382649 0.012195826
-0.10838015 -0.13684364 0.011265308
-0.10550348 -0.13457078 0.010699362
-0.1047829 -0.13502951 0.0094629228
-0.1046847 -0.13630819 0.0090846717
-0.10209946 -0.13434139 0.0087027252
-0.1023903 -0.13615732 0.0080536604
-0.10202015 -0.13712387 0.0076078176
-0.099798538 -0.13559584 0.0065606236
-0.057453368 -0.13550323 0.0061832666
-0.056814421 -0.13657312 0.0069355965
-0.056173388 -0.13767987 0.0086562634
-0.05424469 -0.13561173 0.0095644891
-0.052339587 -0.13351935 0.0096911192
-0.051948607 -0.13528283 0.010384887
-0.04994487 -0.13283211 0.010540962
-0.049334586 -0.13406138 0.011285126
-0.047914907 -0.13309696 0.011389107
-0.04665371 -0.13253894 0.011191517
-0.046051487 -0.1338706 0.012145132
-0.045430414 -0.13520958 0.012886465
-0.04400925 -0.13417454 0.01304546
-0.044090625 -0.1377832 0.014038324
-0.042025868 -0.1346983 0.01439324
-0.04034831 -0.1327247 0.01514414
-0.039723825 -0.13420211 0.016009748
-0.038553774 -0.13386728 0.016582847
-0.037112188 -0.13254352 0.017732292
-0.036036991 -0.13248894 0.019429296
-0.034587745 -0.13101418 0.020719856
-0.03386768 -0.13229562 0.022249848
-0.032409854 -0.1306849 0.022434771
-0.030875752 -0.12864897 0.022654772
-0.030365949 -0.13088772 0.023259699
-0.029270506 -0.1306719 0.023544073
-0.027691444 -0.12820113 0.023537517
-0.02727671 -0.13113803 0.023846447
-0.026103593 -0.13051796 0.023537517
-0.02521744 -0.13134083 0.023283094
-0.024178315 -0.13140388 0.022692978
-0.023035849 -0.1308855 0.022389293
-0.022000339 -0.1309544 0.022239029
-0.021069646 -0.13168529 0.021771461
-0.020124901 -0.13240066 0.021424711
-0.019089252 -0.13256425 0.020476252
-0.017991111 -0.13228758 0.01923728
-0.016834354 -0.13151839 0.018471628
-0.016230697 -0.1352558 0.017319113
-0.014746887 -0.13166863 0.016406834
-0.013660543 -0.13135137 0.015286505
-0.012763773 -0.13295597 0.013791203
-0.011737657 -0.13338245 0.012164325
-0.010468538 -0.13085672 0.010865033
-0.0097828573 -0.13587302 0.0097947717
-0.0086505171 -0.13516434 0.0077982545
-0.0077194055 -0.13784653 0.0063633621
-0.13608967 -0.13287495 0.0070564747
-0.13631135 -0.13414769 0.0093715489
-0.13403131 -0.13295905 0.011272818
-0.13327634 -0.13327634 0.013643116
-0.13398501 -0.13507432 0.014756411
-0.13501517 -0.13722855 0.016827941
-0.12733066 -0.13048762 0.017231524
-0.12922733 -0.13353489 0.017260373
-0.12723264 -0.13257855 0.017641127
-0.12442619 -0.13075294 0.018237233
-0.12542532 -0.1329294 0.017974943
-0.12448681 -0.13307211 0.018155813
-0.12342662 -0.1330861 0.018155813
-0.1198166 -0.13032682 0.018335909
-0.11936697 -0.13098675 0.018950731
-0.11935157 -0.13213925 0.019349635
-0.11899228 -0.13292831 0.019197494
-0.1150899 -0.1297377 0.019218892
-0.11670274 -0.13276276 0.019188911
-0.11408222 -0.13098329 0.019267321
-0.11166089 -0.1294014 0.018823564
-0.11406322 -0.13343245 0.018815756
-0.11344247 -0.13397014 0.018585235
-0.10996213 -0.13110869 0.017819822
-0.11078009 -0.13336632 0.016300052
-0.10914782 -0.13268951 0.015542865
-0.10658322 -0.13085465 0.014119476
-0.10768612 -0.1335308 0.013347119
-0.10591132 -0.1326566 0.0124152
-0.1050535 -0.13292484 0.011795372
-0.10634243 -0.13594291 0.011155367
-0.10345218 -0.13362573 0.0099676251
-0.1043627 -0.13622078 0.0096594691
-0.10315561 -0.13607761 0.0093245804
-0.10098694 -0.13464925 0.00825122
-0.10038217 -0.13529772 0.0076116621
-0.099316359 -0.13533218 0.0064947605
-0.060839493 -0.13471602 0.0054379702
-0.060549971 -0.13651267 0.0066529214
-0.058394726 -0.1340916 0.0071796179
-0.05682642 -0.13295238 0.0083802044
-0.057064325 -0.13607647 0.0092922151
-0.05536785 -0.13461986 0.01095593
-0.053664584 -0.13308817 0.01255393
-0.053407945 -0.1351548 0.012844026
-0.050480999 -0.13040926 0.013124257
-0.050780617 -0.13397439 0.013646722
-0.049790215 -0.1342171 0.013563454
-0.047442377 -0.13073009 0.014139116
-0.046776235 -0.13182393 0.013493419
-0.046508346 -0.13411708 0.013998121
-0.044737607 -0.13208246 0.014634281
-0.043997206 -0.13306472 0.014646322
-0.043371521 -0.13445172 0.014984876
-0.04230177 -0.13449794 0.015447021
-0.040826887 -0.13322458 0.015930653
-0.039299563 -0.13170664 0.016779542
-0.037986767 -0.1308433 0.017770231
-0.037297297 -0.132139 0.018703103
-0.035638578 -0.12997599 0.020128489
-0.034397062 -0.12924957 0.021442533
-0.03314605 -0.12844095 0.022980422
-0.031977914 -0.12791166 0.023012668
-0.03120373 -0.12897542 0.023593307
-0.030369146 -0.12985428 0.024131894
-0.028685128 -0.12703414 0.024009556
-0.028142679 -0.12924786 0.023966104
-0.027223865 -0.12983689 0.023966104
-0.025506226 -0.12651089 0.023330927
-0.024941344 -0.12886362 0.023239017
-0.023912326 -0.12891862 0.022903025
-0.023206087 -0.13079794 0.022112072
-0.02218915 -0.13102165 0.021928817
-0.020953918 -0.12991428 0.021432191
-0.019891553 -0.12981854 0.020408362
-0.019120349 -0.13171797 0.019882619
-0.018043777 -0.13161343 0.018739432
-0.017233063 -0.13355623 0.017400175
-0.016104717 -0.13313232 0.016910315
-0.015079965 -0.1335654 0.015930891
-0.013931069 -0.13288097 0.014687181
-0.012842515 -0.13270599 0.012871653
-0.011635975 -0.13116917 0.011522532
-0.010814465 -0.13409936 0.0099591911
-0.0096208155 -0.13255346 0.0084255338
-0.008511222 -0.13192394 0.0064107478
-0.1395186 -0.13512433 0.0057336986
-0.13715717 -0.13389152 0.0088952482
-0.13464925 -0.13249485 0.010906309
-0.13533512 -0.1342437 0.013213277
-0.13361751 -0.13361751 0.014837623
-0.12980084 -0.13086478 0.015468687
-0.13083871 -0.13300133 0.017011851
-0.12645473 -0.1296161 0.01729852
-0.12585202 -0.13008234 0.017905146
-0.12641938 -0.13177614 0.018953532
-0.12408649 -0.13044991 0.018746614
-0.12302543 -0.13044938 0.018931568
-0.12227437 -0.13078041 0.019707441
-0.11882327 -0.12820406 0.020057082
-0.1199296 -0.13054284 0.020057082
-0.11931682 -0.13103543 0.020278156
-0.11732098 -0.13000433 0.020300001
-0.11764216 -0.13154532 0.020431459
-0.11611589 -0.13102986 0.020315886
-0.11351217 -0.12927775 0.020368308
-0.11586602 -0.13319178 0.019817948
-0.11252398 -0.13057028 0.019771844
-0.11104278 -0.13007869 0.019223154
-0.11218001 -0.13267443 0.018903404
-0.10917451 -0.13037345 0.017940223
-0.1088447 -0.1312539 0.016147763
-0.10852426 -0.1321632 0.01571101
-0.10700045 -0.13161056 0.014483929
-0.10567415 -0.13129212 0.013811707
-0.10640609 -0.13355051 0.01330474
-0.10534475 -0.13358149 0.012584448
-0.10317759 -0.13219629 0.01176542
-0.10513593 -0.13612336 0.011404127
-0.10071064 -0.13178094 0.01061675
-0.1012461 -0.13390614 0.0096327364
-0.10016203 -0.13391228 0.0084560812
-0.097629584 -0.13196087 0.0080010295
-0.097692892 -0.13351361 0.0068801939
-0.097160481 -0.13427797 0.0055540502
-0.096559167 -0.13496338 0.0055854619
-0.0990863 -0.14008753 0.0051704943
-0.086906806 -0.1336192 0.0050795972
-0.08691106 -0.13531722 0.0050389171
-0.068400361 -0.13569748 0.0051557422
-0.067213319 -0.1355285 0.0061869025
-0.064213961 -0.13163863 0.0062354803
-0.064856656 -0.13520965 0.0077117682
-0.062939331 -0.1334748 0.007979095
-0.061369501 -0.13242891 0.0080182254
-0.061227102 -0.13448095 0.0081187189
-0.05928449 -0.13258168 0.0091790557
-0.058627993 -0.13354154 0.0093216598
-0.057905611 -0.13438472 0.010407209
-0.0555433 -0.13138127 0.012435764
-0.055077866 -0.13283485 0.013289481
-0.054425873 -0.13388765 0.01396364
-0.052681971 -0.1322425 0.014613986
-0.051120691 -0.13099676 0.014752626
-0.050317835 -0.13168284 0.015677243
-0.048357453 -0.12930362 0.015541941
-0.047962539 -0.1310976 0.016034037
-0.047193754 -0.131928 0.015594393
-0.045650512 -0.13058169 0.015897959
-0.04440305 -0.1300375 0.015978217
-0.044162694 -0.13248809 0.01622659
-0.043169592 -0.13274649 0.016347736
-0.042814139 -0.13502921 0.016367108
-0.040420182 -0.13083375 0.016958714
-0.039519265 -0.13137485 0.017544329
-0.038656496 -0.13207637 0.018220663
-0.037411585 -0.131475 0.018988341
-0.035814069 -0.12956266 0.020464152
-0.035119172 -0.13089873 0.021728814
-0.032897778 -0.12645084 0.023239225
-0.031964287 -0.12682605 0.023627132
-0.031215681 -0.12798429 0.024025083
-0.030178739 -0.12799948 0.024309635
-0.029166393 -0.1281238 0.024371415
-0.02823551 -0.12862843 0.024291456
-0.026685923 -0.12624495 0.024130791
-0.025763266 -0.12675527 0.023827374
-0.024571855 -0.12593076 0.023200721
-0.023983203 -0.128258 0.022575885
-0.023386855 -0.13075377 0.021391004
-0.02188343 -0.12817438 0.02102074
-0.020808138 -0.12797004 0.020329773
-0.020158704 -0.13050109 0.019536793
-0.018835722 -0.12871076 0.018411189
-0.017902702 -0.12953132 0.018039137
-0.016948629 -0.13029259 0.01731956
-0.015982097 -0.13105319 0.016493469
-0.015367345 -0.1350131 0.015457183
-0.014117231 -0.13357072 0.014595032
-0.012661305 -0.12977839 0.012798488
-0.011901767 -0.13308339 0.011273623
-0.010797787 -0.13281278 0.0093004405
-0.0095563261 -0.13060312 0.0076684952
-0.14168949 -0.13611117 0.0052798986
-0.137514 -0.13314848 0.0085851848
-0.13798009 -0.13466857 0.010586619
-0.13506331 -0.13288486 0.012698114
-0.12992147 -0.12886518 0.014391154
-0.13122836 -0.13122836 0.015444666
-0.12793224 -0.12898953 0.016862273
-0.12613407 -0.12823631 0.017616749
-0.12758137 -0.13079771 0.018219709
-0.12657191 -0.13086249 0.019199818
-0.12357888 -0.12886003 0.019351959
-0.12275515 -0.12910455 0.019530892
-0.12067739 -0.12802297 0.020329714
-0.11967142 -0.12806942 0.020524621
-0.12067428 -0.1302855 0.020510852
-0.11540384 -0.12570775 0.021062016
-0.11709351 -0.12869737 0.021130681
-0.11486043 -0.12739065 0.021394342
-0.11384826 -0.12742649 0.021343857
-0.11491802 -0.1298148 0.021218121
-0.1131498 -0.12901191 0.020802021
-0.11065175 -0.12735389 0.020843178
-0.11292269 -0.13120541 0.020459056
-0.10964951 -0.1286273 0.019415885
-0.10949374 -0.12969162 0.01897043
-0.10987073 -0.13141401 0.018003494
-0.10702871 -0.12928221 0.016791224
-0.10649341 -0.12992196 0.016170651
-0.10641317 -0.13113542 0.015504658
-0.10622249 -0.13223615 0.014568359
-0.10383256 -0.13059352 0.014179975
-0.10435358 -0.13261601 0.013170928
-0.10115605 -0.12990567 0.012442231
-0.10388783 -0.13483314 0.01172328
-0.10163496 -0.13332759 0.010731488
-0.097115852 -0.12878406 0.010088354
-0.09841308 -0.13193841 0.0089497268
-0.097114243 -0.13164374 0.0081264675
-0.095907785 -0.1314691 0.0079573095
-0.098264575 -0.13623042 0.0077390373
-0.097034037 -0.13607071 0.0075868964
-0.094955958 -0.13470496 0.0072723031
-0.094300568 -0.13534905 0.0072251856
-0.091069087 -0.13226701 0.0063740313
-0.089352861 -0.13133794 0.0068746805
-0.090484113 -0.13462271 0.0071319938
-0.08764296 -0.13200544 0.0071916282
-0.087328061 -0.1331753 0.0073026121
-0.086679153 -0.13385895 0.0072054267
-0.083922952 -0.13126411 0.0071916282
-0.084787048 -0.13433792 0.0072713792
-0.085320793 -0.13696232 0.0067662001
-0.083067365 -0.13512291 0.0065048039
-0.081051439 -0.13362534 0.0055903196
-0.080638453 -0.13476564 0.0053228736
-0.078851566 -0.13360959 0.0053856969
-0.078845888 -0.13548167 0.0051693916
-0.078047551 -0.13602573 0.0052904785
-0.075760819 -0.13395391 0.0057513714
-0.075594187 -0.13562487 0.0057486296
-0.072513498 -0.1320395 0.0063312352
-0.071451187 -0.13207644 0.0062916577
-0.071223781 -0.13368157 0.0068245828
-0.068885498 -0.13131298 0.0069178641
-0.069746047 -0.13506377 0.0076927841
-0.067598611 -0.13301663 0.0083421171
-0.065980934 -0.13196187 0.0090206563
-0.065223731 -0.13262159 0.0092361867
-0.064870648 -0.13413931 0.0098052919
-0.062465627 -0.13139322 0.010216713
-0.062063586 -0.13283785 0.010248899
-0.060216226 -0.13118535 0.010702372
-0.058154188 -0.12899657 0.010928214
-0.05884197 -0.13293926 0.011922061
-0.056360874 -0.12973635 0.013593078
-0.055388544 -0.12995005 0.014223844
-0.055017028 -0.13160937 0.015116006
-0.053631224 -0.13086018 0.016586244
-0.052722193 -0.1312675 0.01663205
-0.051293708 -0.13037151 0.017321795
-0.049282566 -0.12792496 0.017290086
-0.048353769 -0.1282426 0.017474711
-0.048197057 -0.13066757 0.017746776
-0.046302237 -0.12838347 0.017448366
-0.046942391 -0.13318539 0.017455786
-0.044749215 -0.12998582 0.017408013
-0.043329 -0.1289302 0.017190367
-0.043178856 -0.13169551 0.017266005
-0.041981719 -0.13132744 0.017308384
-0.040666018 -0.13055933 0.017422885
-0.039485827 -0.13019651 0.017818451
-0.038371295 -0.13003606 0.018147379
-0.036944613 -0.12877837 0.018657863
-0.036321454 -0.13032992 0.019461513
-0.034546994 -0.12771919 0.02135244
-0.033533283 -0.12784564 0.021996349
-0.032447152 -0.12769525 0.0236651
-0.030746715 -0.12503664 0.023992658
-0.029905031 -0.12580737 0.024398446
-0.029175749 -0.12712291 0.024365634
-0.027822958 -0.12571855 0.024443835
-0.027103607 -0.12717846 0.024108946
-0.026340878 -0.12854348 0.023792148
-0.025112057 -0.12765296 0.023393542
-0.024453176 -0.12970816 0.021543235
-0.023188433 -0.1285904 0.020803243
-0.022298863 -0.12954578 0.020232648
-0.021276608 -0.12978731 0.018913895
-0.019838747 -0.12738563 0.018314183
-0.018901952 -0.12811323 0.017672479
-0.018195629 -0.1305804 0.01711005
-0.016938854 -0.12915877 0.016361177
-0.01619683 -0.13173422 0.015745848
-0.015308913 -0.13340624 0.014353424
-0.013976741 -0.13116634 0.013110042
-0.012933382 -0.13148938 0.011679471
-0.011992381 -0.13300641 0.0099570155
-0.01073087 -0.13091663 0.0076401532
-0.0098281736 -0.13322636 0.0050129294
-0.139036 -0.1335187 0.0071495175
-0.13589182 -0.13154328 0.0099684894
-0.1323656 -0.12916321 0.012922078
-0.13218969 -0.13004026 0.014046133
-0.13148288 -0.13040516 0.015203208
-0.12702608 -0.12702608 0.01602751
-0.12950027 -0.13057944 0.01722303
-0.12810317 -0.13025616 0.018336028
-0.12494219 -0.12811869 0.01957342
-0.12380949 -0.1280423 0.019888729
-0.12115696 -0.12637925 0.020447344
-0.12040795 -0.1266901 0.020760775
-0.12317722 -0.13074073 0.021279454
-0.11802166 -0.12637718 0.021332979
-0.12056206 -0.13025008 0.021616369
-0.1163083 -0.12678653 0.021817505
-0.11510324 -0.12661357 0.022135496
-0.11514637 -0.12782304 0.022321552
-0.11515775 -0.12901933 0.021973997
-0.11276242 -0.12751637 0.021609247
-0.11163443 -0.12743177 0.021491677
-0.11219663 -0.12929326 0.021045834
-0.10921203 -0.12706399 0.020484835
-0.10946055 -0.12858957 0.019978374
-0.10763856 -0.12768887 0.019286007
-0.10706633 -0.12826759 0.018211782
-0.10795887 -0.13063024 0.017621577
-0.10458792 -0.12782969 0.016976506
-0.10458595 -0.12913163 0.016566247
-0.10530752 -0.13136299 0.015784055
-0.10204516 -0.12861943 0.014957994
-0.10418345 -0.13269682 0.014238149
-0.10175182 -0.13097841 0.013092697
-0.096501656 -0.12555592 0.012371153
-0.098909587 -0.13008761 0.011321217
-0.099223286 -0.13193427 0.010652661
-0.096429452 -0.12964404 0.010140389
-0.097750641 -0.13289694 0.0093561709
-0.096027918 -0.13203838 0.0086969435
-0.096072592 -0.13361821 0.0084462166
-0.095905684 -0.13493706 0.008287847
-0.09337005 -0.13291502 0.0081246793
-0.090954483 -0.13101776 0.0077738166
-0.090678081 -0.13219334 0.0079052448
-0.088864297 -0.13112903 0.0080383718
-0.087874129 -0.13126877 0.0081350803
-0.086322948 -0.13056345 0.0082466602
-0.085667834 -0.13121276 0.00821051
-0.086370923 -0.13398565 0.0081954002
-0.084492467 -0.13277388 0.0081247985
-0.08261504 -0.13153185 0.0080443621
-0.082555629 -0.13318975 0.0079775751
-0.081712082 -0.13361029 0.0074660182
-0.078924514 -0.13082008 0.0074018836
-0.079083897 -0.13290489 0.0073964894
-0.077307329 -0.13174911 0.007496357
-0.076051921 -0.13146117 0.0071957707
-0.076146521 -0.1335323 0.0073529482
-0.074243195 -0.13210921 0.0084523559
-0.073053807 -0.13193299 0.0085164905
-0.071380123 -0.13086356 0.0084849596
-0.070363924 -0.13098516 0.0092562139
-0.069428496 -0.13126326 0.009883076
-0.068343081 -0.13126209 0.0099187493
-0.066792056 -0.13035223 0.010054976
-0.066463187 -0.13183682 0.010468602
-0.064971156 -0.13102517 0.011090249
-0.064186335 -0.13163638 0.011159629
-0.063912891 -0.13333552 0.011541635
-0.062450975 -0.13257137 0.012010843
-0.059933469 -0.12949911 0.0128932
-0.059087712 -0.12999296 0.013916433
-0.05764173 -0.12916017 0.01437515
-0.056463376 -0.12890695 0.01556021
-0.055375129 -0.12885366 0.016441166
-0.054181587 -0.12854847 0.017601937
-0.053250737 -0.12886679 0.018659145
-0.052890085 -0.13060613 0.019365013
-0.050352659 -0.12693065 0.019365013
-0.050525762 -0.13007696 0.0189583
-0.048538301 -0.12767683 0.01927793
-0.047271393 -0.12710752 0.0197891
-0.046531167 -0.12796071 0.018794358
-0.045761392 -0.12877043 0.018690258
-0.044376377 -0.12784623 0.018599272
-0.043630354 -0.12876275 0.018220484
-0.042405158 -0.1282756 0.018218637
-0.041623883 -0.12914076 0.018094301
-0.041434195 -0.13193519 0.018094301
-0.03959528 -0.12948726 0.018090516
-0.038169179 -0.12829085 0.018503517
-0.037377283 -0.12921861 0.018475503
-0.036021192 -0.12819307 0.019188315
-0.034310199 -0.12580407 0.020227134
-0.03380888 -0.12783982 0.02163434
-0.031626102 -0.12344382 0.02243042
-0.031128224 -0.12555051 0.023901582
-0.030066533 -0.12545002 0.024071097
-0.028914498 -0.12495194 0.02399388
-0.028808992 -0.12910697 0.02417931
-0.027620781 -0.12854287 0.024274975
-0.026116604 -0.12640436 0.022545308
-0.025588213 -0.12900724 0.021820575
-0.024698403 -0.12993509 0.021378309
-0.023082897 -0.12695594 0.020119041
-0.022163102 -0.12770168 0.019235551
-0.021281024 -0.12875021 0.0182648
-0.020127458 -0.12818013 0.017851949
-0.019013274 -0.12781146 0.017260551
-0.017926382 -0.12759367 0.017095447
-0.017067518 -0.1290731 0.016174108
-0.015916284 -0.12839136 0.014264882
-0.014925893 -0.12900236 0.013582587
-0.014330675 -0.13338551 0.011930913
-0.012921066 -0.13028741 0.010515809
-0.011810299 -0.12991329 0.0080937147
-0.010940443 -0.13237937 0.0053166151
-0.13770095 -0.13114375 0.006960988
-0.13427261 -0.12890171 0.0094434917
-0.13411248 -0.12978627 0.01136902
-0.13486059 -0.13157131 0.01336655
-0.12894845 -0.12683454 0.015460849
-0.1286293 -0.12756625 0.016060561
-0.12874568 -0.12874568 0.016597271
-0.12644581 -0.12750839 0.018599153
-0.12585871 -0.1279919 0.019231796
-0.1224258 -0.12556492 0.01982519
-0.12303912 -0.12728184 0.020373672
-0.12381063 -0.12919371 0.020902634
-0.11831552 -0.12454265 0.021572202
-0.11903833 -0.12641239 0.021640629
-0.11765868 -0.12606287 0.022452533
-0.11471485 -0.12401605 0.022346258
-0.11498369 -0.12543675 0.023545921
-0.11477649 -0.12635945 0.0228149
-0.11467919 -0.12742132 0.022476912
-0.11391497 -0.12775511 0.021949112
-0.11274623 -0.12763724 0.021920174
-0.109317 -0.12493372 0.021577895
-0.11001483 -0.12694018 0.020833403
-0.10785631 -0.12565783 0.020446002
-0.10928503 -0.12857063 0.019994706
-0.10800027 -0.12831715 0.019075155
-0.10596981 -0.12716377 0.01853317
-0.10523969 -0.12756327 0.018337995
-0.10522061 -0.12884156 0.017472863
-0.10521466 -0.13016246 0.016873419
-0.10335467 -0.12919334 0.01642102
-0.1026214 -0.12962702 0.015696257
-0.099038206 -0.12643176 0.015114367
-0.099647135 -0.12857695 0.013615489
-0.099309273 -0.12953383 0.01281631
-0.096672177 -0.12747979 0.01224789
-0.096773453 -0.12903127 0.011717796
-0.098092124 -0.13225904 0.011111289
-0.096416906 -0.13147759 0.01094684
-0.096595258 -0.13323484 0.0109061
-0.093001649 -0.12976974 0.010560662
-0.09220431 -0.13017079 0.010338098
-0.09222158 -0.13174511 0.0094104409
-0.090365194 -0.13064848 0.0095892549
-0.088650852 -0.12973295 0.010119796
-0.088052779 -0.13044856 0.010414332
-0.085982941 -0.12897441 0.010958344
-0.086389467 -0.13122451 0.010479897
-0.085889012 -0.13213694 0.010183156
-0.08369498 -0.13043374 0.010307759
-0.083413102 -0.1317049 0.010308504
-0.082360499 -0.13177679 0.01016748
-0.079573579 -0.12903824 0.0095743239
-0.080486774 -0.13230702 0.0085427463
-0.078264616 -0.13044102 0.0093321204
-0.077025764 -0.13018438 0.0099526346
-0.077090047 -0.13215438 0.0099234879
-0.076133512 -0.13240612 0.010798067
-0.074314229 -0.13114275 0.011588246
-0.072424091 -0.12971479 0.011421055
-0.070856698 -0.12883036 0.011323869
-0.069333978 -0.12800118 0.011304498
-0.069219321 -0.12978624 0.011422217
-0.066923499 -0.12747332 0.011384279
-0.067377038 -0.13040717 0.011735111
-0.066909455 -0.13162516 0.012044728
-0.064128779 -0.12825756 0.012569636
-0.063864119 -0.12989312 0.013406128
-0.063520879 -0.13142252 0.014252484
-0.061319493 -0.12909368 0.014484376
-0.060240567 -0.12908693 0.01456216
-0.059128817 -0.12900834 0.015152216
-0.057192203 -0.12709378 0.015825868
-0.056917615 -0.12887007 0.017310262
-0.055154748 -0.12728019 0.018193662
-0.053738389 -0.12644327 0.019354045
-0.053020921 -0.12725021 0.020461887
-0.052289896 -0.12805688 0.020535141
-0.051268831 -0.12817207 0.020598203
-0.049927324 -0.12747402 0.020339966
-0.047804415 -0.12470717 0.020367771
-0.047347467 -0.12625991 0.0203906
-0.046697274 -0.1273562 0.020054221
-0.0453435 -0.12654001 0.019551218
-0.044350151 -0.12671472 0.019402623
-0.043560997 -0.1274956 0.019131035
-0.042537343 -0.12761202 0.018912345
-0.04191542 -0.12897053 0.018627465
-0.040915642 -0.12920728 0.018503129
-0.039534956 -0.12822148 0.018445939
-0.038729969 -0.12909991 0.01848498
-0.037078299 -0.12712561 0.018671364
-0.036014177 -0.12710887 0.019051403
-0.03464726 -0.12599003 0.019840419
-0.033407398 -0.12527774 0.020368278
-0.032367658 -0.12529415 0.021657228
-0.031560019 -0.12624007 0.022492468
-0.029646875 -0.12267672 0.022709042
-0.029000238 -0.12428673 0.022881538
-0.029082211 -0.12925427 0.023002714
-0.02751773 -0.12700491 0.02294755
-0.026737921 -0.12834202 0.022083372
-0.02550027 -0.12750134 0.020649374
-0.024740515 -0.12908095 0.019758135
-0.023704812 -0.12929897 0.019404948
-0.022360632 -0.12777504 0.018823206
-0.021199323 -0.12719594 0.017624289
-0.020262001 -0.12797053 0.017409682
-0.019037506 -0.12691671 0.015689671
-0.017928943 -0.12655725 0.015171766
-0.017077671 -0.12808254 0.014335781
-0.015806561 -0.12645249 0.01316756
-0.015034332 -0.1288657 0.011889666
-0.014249811 -0.13153671 0.010982633
-0.012849853 -0.12849854 0.0089532435
-0.011892931 -0.12974106 0.0058828592
-0.13616236 -0.12859778 0.0063646436
-0.13839196 -0.13174915 0.0089577138
-0.13624343 -0.13074975 0.010683954
-0.13201039 -0.12771738 0.013101876
-0.13352172 -0.1302384 0.014828891
-0.13131574 -0.12914522 0.016151905
-0.12657115 -0.1255164 0.016979277
-0.12622136 -0.12622136 0.019016892
-0.12350037 -0.12454698 0.019861192
-0.12344863 -0.12555887 0.020255268
-0.1232604 -0.12644817 0.020772755
-0.12104493 -0.12525518 0.021519572
-0.11961582 -0.12486213 0.0220806
-0.11829647 -0.12457769 0.022313535
-0.11546271 -0.12267914 0.023284018
-0.11830891 -0.12683567 0.023453712
-0.11732839 -0.12692799 0.024039209
-0.11467023 -0.12519044 0.023186058
-0.11462425 -0.12629895 0.023217082
-0.11338396 -0.12609991 0.022738814
-0.11094951 -0.12455652 0.022855818
-0.1120363 -0.12697446 0.022265136
-0.10897912 -0.12469726 0.021793067
-0.10878293 -0.12568125 0.021136671
-0.10828058 -0.12632735 0.020934731
-0.10668247 -0.12569518 0.02025193
-0.10623837 -0.12642366 0.019855618
-0.1072439 -0.12890933 0.019851536
-0.10378046 -0.12601914 0.019734263
-0.10315105 -0.12654614 0.018603802
-0.10401078 -0.12893003 0.017785668
-0.10071974 -0.12616472 0.016971946
-0.10005302 -0.12666287 0.016775608
-0.099095769 -0.12679997 0.015295386
-0.096986949 -0.12545051 0.014522016
-0.097592838 -0.1276214 0.014202893
-0.097495757 -0.12891105 0.013775766
-0.096378773 -0.128866 0.013282478
-0.097942904 -0.13244551 0.012511998
-0.09439484 -0.12911478 0.012103409
-0.094066076 -0.1301612 0.011784345
-0.092734374 -0.12982813 0.011461467
-0.090954751 -0.12885256 0.011225551
-0.089560121 -0.12840548 0.011362582
-0.089239806 -0.12950654 0.011777729
-0.086239785 -0.12669796 0.012020111
-0.087055661 -0.12949529 0.012175083
-0.086925708 -0.13093872 0.012656093
-0.084315456 -0.12863512 0.012645602
-0.084113806 -0.12999406 0.012557477
-0.082423687 -0.12905814 0.012096792
-0.079698153 -0.1264544 0.012049109
-0.080472805 -0.12940897 0.011933863
-0.078490861 -0.12795085 0.011849403
-0.07820759 -0.12925977 0.011943072
-0.07852181 -0.13160698 0.013130248
-0.076234415 -0.12959851 0.01269111
-0.074011944 -0.12764379 0.012477726
-0.074252494 -0.12994187 0.012543619
-0.071888298 -0.12768221 0.012684673
-0.070550635 -0.12720494 0.013012677
-0.070763998 -0.12955254 0.013022006
-0.068041325 -0.12651435 0.013027489
-0.06832163 -0.12905197 0.01309666
-0.067478195 -0.1295146 0.013876587
-0.065038875 -0.12687913 0.014614165
-0.063963488 -0.12686092 0.015341967
-0.063719377 -0.12851873 0.01530686
-0.062197268 -0.12761164 0.015704781
-0.062347814 -0.13016473 0.016544312
-0.058692418 -0.12472139 0.016648799
-0.058044728 -0.12558769 0.017329872
-0.057609759 -0.12695484 0.018104583
-0.056073483 -0.12590083 0.019458413
-0.054724019 -0.12523381 0.020232022
-0.05480203 -0.12787139 0.020907283
-0.052734174 -0.12550732 0.021333486
-0.051790692 -0.12577739 0.021225274
-0.05146981 -0.12760223 0.021581888
-0.04967995 -0.12578541 0.021505028
-0.048546128 -0.12558672 0.021698356
-0.047372509 -0.12527397 0.021665961
-0.045792963 -0.12384915 0.021347791
-0.045825396 -0.12681912 0.020435035
-0.04438113 -0.12574653 0.020220548
-0.042942252 -0.12463727 0.020016342
-0.042602729 -0.12674312 0.019577891
-0.041206054 -0.12573129 0.019249767
-0.040869396 -0.12798573 0.019145221
-0.039256126 -0.12625618 0.018855125
-0.038677555 -0.12785082 0.018972456
-0.037135534 -0.12626082 0.018848121
-0.036465023 -0.12762758 0.019027561
-0.034864414 -0.1257232 0.019702584
-0.033921354 -0.12614504 0.020521224
-0.032288738 -0.12394709 0.020783901
-0.031313721 -0.1242111 0.021091849
-0.030366985 -0.12460935 0.021968305
-0.02951869 -0.12545443 0.022189081
-0.027769698 -0.12239237 0.021856606
-0.027682945 -0.12670271 0.020609081
-0.026808873 -0.12761024 0.020201832
-0.025349034 -0.12568897 0.019585311
-0.024638293 -0.12747638 0.019022614
-0.023413861 -0.1266477 0.01817289
-0.022588335 -0.12800056 0.017775536
-0.021647986 -0.12880552 0.017202169
-0.020276209 -0.1269931 0.015614688
-0.019178903 -0.12679386 0.014833003
-0.018223014 -0.12756109 0.013892353
-0.017007399 -0.12649255 0.013263404
-0.015988067 -0.12683867 0.011938304
-0.015120187 -0.12852159 0.0097028315
-0.01394571 -0.12765688 0.007343322
-0.013412077 -0.1330031 0.0060734749
-0.13854809 -0.12975138 0.0060775876
-0.13585551 -0.1282476 0.0079302788
-0.13238326 -0.12597762 0.010453671
-0.1355419 -0.13003208 0.011621773
-0.13334879 -0.1289767 0.014085501
-0.12974136 -0.12652463 0.015841633
-0.12764581 -0.12551838 0.017696619
-0.12434158 -0.12329669 0.019055784
-0.12489056 -0.12489056 0.020287514
-0.12704945 -0.12813534 0.020522058
-0.12225929 -0.12436721 0.021062702
-0.12178679 -0.12496383 0.021825731
-0.11997049 -0.12417998 0.022999257
-0.11838096 -0.12361906 0.023020983
-0.11860295 -0.12495667 0.023798913
-0.11895705 -0.12645884 0.02390933
-0.1162805 -0.12473726 0.024439484
-0.11603161 -0.1256122 0.024262518
-0.1154871 -0.12618035 0.023777574
-0.11117334 -0.12260237 0.023598164
-0.11245371 -0.12518431 0.023446679
-0.11039422 -0.12406208 0.022855997
-0.10994418 -0.12474436 0.022061229
-0.10935718 -0.12528299 0.021618426
-0.10816291 -0.12512964 0.021590322
-0.10637794 -0.12428314 0.02116698
-0.10741333 -0.12674773 0.020977855
-0.10601933 -0.12636648 0.020970315
-0.10375839 -0.12493357 0.020721912
-0.1043041 -0.1268854 0.019910783
-0.10172533 -0.12503739 0.018961757
-0.10075933 -0.12515371 0.0181292
-0.099867679 -0.12536581 0.017632008
-0.098168954 -0.12455846 0.016731322
-0.099162802 -0.12718707 0.01582095
-0.098269291 -0.1274261 0.015080482
-0.096219525 -0.12615448 0.01464951
-0.098040655 -0.12998648 0.014553636
-0.095552109 -0.1281267 0.014213175
-0.094213448 -0.12778376 0.014067352
-0.094843894 -0.13013464 0.01370579
-0.090864062 -0.1261407 0.013293326
-0.089868434 -0.12624376 0.013108313
-0.089999892 -0.12795165 0.013440788
-0.087808125 -0.12635803 0.014397591
-0.086450167 -0.12593974 0.014483005
-0.08637175 -0.12739833 0.014573514
-0.085725978 -0.12804639 0.014912277
-0.085307561 -0.12905502 0.014708191
-0.082974851 -0.12715627 0.01446417
-0.081508927 -0.12655333 0.014397591
-0.080979466 -0.1274077 0.014454484
-0.080919228 -0.12903336 0.014599741
-0.078225762 -0.12644713 0.014763802
-0.077844553 -0.12757857 0.014482707
-0.076360084 -0.1269083 0.014639497
-0.075022474 -0.12646645 0.015149355
-0.073903441 -0.1263856 0.014816642
-0.071962409 -0.12487595 0.014816642
-0.072692938 -0.12802637 0.015316039
-0.071242087 -0.12737222 0.015182137
-0.069436692 -0.1260543 0.015436918
-0.068988413 -0.12719738 0.015974611
-0.067719705 -0.12684008 0.015974611
-0.06629879 -0.12618156 0.015908271
-0.06510143 -0.12593392 0.016440123
-0.064966485 -0.12776743 0.016769975
-0.063203707 -0.12640741 0.016872376
-0.063442625 -0.12907292 0.017367333
-0.061731417 -0.12779486 0.018008739
-0.05918448 -0.12471016 0.01816681
-0.059174247 -0.12695566 0.019246697
-0.056915659 -0.12437125 0.019693345
-0.056033485 -0.1247538 0.020921767
-0.054783422 -0.12431623 0.021410108
-0.053685725 -0.12421403 0.021772444
-0.052847829 -0.12472087 0.02232936
-0.052376758 -0.12613179 0.02254194
-0.050538044 -0.12423936 0.022473872
-0.050200518 -0.12603535 0.02279976
-0.048128337 -0.12345964 0.022868097
-0.046920814 -0.1230368 0.022877127
-0.046382479 -0.12438938 0.022281885
-0.045695815 -0.12539782 0.021550626
-0.043789286 -0.12302704 0.020541877
-0.04354829 -0.1253341 0.020753711
-0.042463042 -0.12526597 0.020385712
-0.041541342 -0.12568918 0.020104349
-0.040809285 -0.12672357 0.01989305
-0.039254677 -0.12519059 0.019744784
-0.037762098 -0.12377577 0.019437551
-0.037582878 -0.12670799 0.019387782
-0.036240827 -0.12577699 0.019069016
-0.03511307 -0.12555583 0.019545078
-0.034032747 -0.12549576 0.019798785
-0.032535154 -0.12384348 0.020170599
-0.031611353 -0.12433799 0.020363212
-0.030608052 -0.12454311 0.020368665
-0.029037718 -0.12237324 0.020342499
-0.028447062 -0.1243242 0.020346195
-0.0272006 -0.12344888 0.019864082
-0.026331656 -0.12428541 0.01916644
-0.025733778 -0.12652442 0.018792212
-0.024655394 -0.1264929 0.018460482
-0.023419634 -0.12561439 0.017482668
-0.022725748 -0.12769707 0.016766369
-0.021488428 -0.12678172 0.016510844
-0.020665156 -0.1283415 0.015563816
-0.019758346 -0.12952693 0.014353842
-0.018368842 -0.12750137 0.013154894
-0.01708049 -0.12596862 0.011703789
-0.015996508 -0.1258392 0.010080546
-0.014907093 -0.1256455 0.0074526668
-0.1391405 -0.1292019 0.0052861571
-0.13509062 -0.12644483 0.0075915754
-0.13751127 -0.12974854 0.0098773241
-0.1351064 -0.12851584 0.011668146
-0.1293962 -0.12409308 0.014217496
-0.13084576 -0.12652028 0.015637159
-0.12781782 -0.12462238 0.017256707
-0.12586558 -0.12375019 0.018447459
-0.12576552 -0.12469971 0.019697905
-0.12634338 -0.12634338 0.020658195
-0.12401552 -0.12508461 0.021281451
-0.12030868 -0.12240101 0.022078782
-0.11881952 -0.12194635 0.023196995
-0.11853661 -0.12273259 0.023248672
-0.11989594 -0.12524843 0.023911864
-0.11727739 -0.12361671 0.024143964
-0.11584149 -0.12321322 0.024610519
-0.11542649 -0.12389816 0.024603277
-0.11134954 -0.12062866 0.024394006
-0.11337829 -0.1239744 0.024122298
-0.11222649 -0.12387263 0.023840159
-0.1101199 -0.12270503 0.02327323
-0.11113273 -0.12502432 0.02294904
-0.10979979 -0.12472404 0.02274707
-0.10806825 -0.12396064 0.022735864
-0.10902505 -0.12629634 0.021912336
-0.10653605 -0.12464719 0.021610945
-0.10487375 -0.1239417 0.021595567
-0.10497944 -0.12533259 0.021521211
-0.10367783 -0.1250547 0.021577686
-0.10153535 -0.12374621 0.021016777
-0.1007541 -0.12408663 0.019426912
-0.099061891 -0.12330044 0.018312573
-0.10057949 -0.12653549 0.017945886
-0.09945403 -0.12647958 0.017115176
-0.0975632 -0.12543839 0.016017139
-0.09772519 -0.12704274 0.015920728
-0.097266972 -0.12786782 0.015569866
-0.096068576 -0.12772754 0.015263677
-0.095080815 -0.1278673 0.015159428
-0.092281498 -0.12554576 0.015073478
-0.090775192 -0.12494939 0.014766604
-0.090549067 -0.12612191 0.014987677
-0.089061439 -0.12554443 0.015527368
-0.087313265 -0.12458112 0.016348273
-0.088505894 -0.12784185 0.016612321
-0.084887683 -0.12414823 0.016675979
-0.085564882 -0.12672266 0.016564876
-0.083703838 -0.12555575 0.016545504
-0.081127681 -0.12327193 0.016452223
-0.082064621 -0.12633632 0.016430557
-0.080172494 -0.1250691 0.016320527
-0.078889407 -0.12473055 0.016311705
-0.079723984 -0.1277768 0.01647532
-0.077642068 -0.12616836 0.016607732
-0.075758107 -0.12484082 0.017099649
-0.075576983 -0.12632152 0.017016798
-0.074478753 -0.12629007 0.017093629
-0.073244087 -0.12602292 0.016924739
-0.072440974 -0.1265014 0.016985983
-0.069994986 -0.12408203 0.017700821
-0.068526693 -0.12334804 0.017700821
-0.068626143 -0.12545717 0.017237455
-0.066691868 -0.12385633 0.017169952
-0.066501543 -0.12549485 0.017364115
-0.065607972 -0.12583825 0.017657518
-0.063265271 -0.12336728 0.017746687
-0.064029753 -0.12697425 0.018361688
-0.062220179 -0.12551312 0.018632025
-0.061039753 -0.12529212 0.019434452
-0.060022134 -0.12540339 0.019802064
-0.058052603 -0.12349372 0.020987123
-0.056643683 -0.12272798 0.021707892
-0.056156766 -0.12396871 0.022159576
-0.054070443 -0.1216585 0.022237122
-0.053389225 -0.12248116 0.022759378
-0.053011801 -0.12404761 0.023006439
-0.051611461 -0.12323552 0.023100436
-0.050823919 -0.12388331 0.023279697
-0.049879786 -0.12416883 0.023646832
-0.048073899 -0.12227492 0.023400217
-0.047504868 -0.12351266 0.02336356
-0.046196964 -0.12284193 0.023384929
-0.044441812 -0.12092306 0.02254501
-0.044142228 -0.12296763 0.021679282
-0.0435098 -0.12416212 0.021654367
-0.042139448 -0.12325788 0.021398813
-0.041781392 -0.12534417 0.020670623
-0.040409066 -0.12441739 0.020225734
-0.039414059 -0.12463365 0.020115793
-0.038662087 -0.12565178 0.019648343
-0.037481278 -0.12529457 0.019312978
-0.036687728 -0.12624894 0.018866181
-0.0355075 -0.12589023 0.01879251
-0.033729546 -0.12332365 0.01941511
-0.033083294 -0.12486275 0.019427687
-0.032012984 -0.12485064 0.018950582
-0.0306344 -0.12359396 0.019048691
-0.029758718 -0.12434892 0.018781126
-0.028660312 -0.12419468 0.018817902
-0.027270732 -0.1227183 0.018459916
-0.02675329 -0.1252054 0.017774642
-0.02563099 -0.12495108 0.017131925
-0.024582999 -0.12505265 0.016984075
-0.023635734 -0.12569913 0.016265363
-0.022186322 -0.12360951 0.016066015
-0.021641966 -0.12660551 0.015221924
-0.020387273 -0.12554269 0.014028013
-0.019529598 -0.12694238 0.012795836
-0.01846385 -0.12707473 0.011895359
-0.017225346 -0.12596034 0.0093222857
-0.016316311 -0.12726723 0.0075932145
-0.13763151 -0.12772202 0.0067561567
-0.13548021 -0.12673955 0.0087236762
-0.13282885 -0.12526949 0.01069957
-0.13195726 -0.12546755 0.0130409
-0.13017862 -0.12479933 0.01463291
-0.1290029 -0.1247028 0.01639244
-0.12915547 -0.12589946 0.017626047
-0.12573078 -0.12359976 0.018942654
-0.12422144 -0.12315972 0.020011872
-0.12470999 -0.12470999 0.020885646
-0.12349588 -0.12456976 0.021705329
-0.12138244 -0.12351196 0.022702098
-0.11968971 -0.12286731 0.022895098
-0.1171463 -0.1213301 0.023780167
-0.1191112 -0.12447657 0.023965061
-0.11627299 -0.12261514 0.024182439
-0.11324965 -0.12052257 0.024264872
-0.11394891 -0.12238957 0.024364978
-0.11322885 -0.12275277 0.024053961
-0.11113816 -0.12162289 0.023831904
-0.11262206 -0.12442057 0.023476392
-0.11082472 -0.12361218 0.02346015
-0.10922531 -0.12301103 0.023231149
-0.10793144 -0.12274555 0.023228437
-0.10728137 -0.12321425 0.022985756
-0.1064777 -0.12351413 0.022853702
-0.10710921 -0.12550169 0.022404969
-0.10513366 -0.12444393 0.022137493
-0.10233258 -0.12237711 0.022193402
-0.10199393 -0.12324267 0.021744937
-0.10010543 -0.12223401 0.020667315
-0.10126153 -0.12496105 0.019127727
-0.099874094 -0.12457414 0.018569201
-0.097411945 -0.12282375 0.018023789
-0.098632835 -0.12572977 0.01758498
-0.097231209 -0.12532023 0.01758498
-0.09612748 -0.12528975 0.01751098
-0.096239731 -0.12686147 0.016406089
-0.09494438 -0.1265925 0.016362667
-0.090290919 -0.12178775 0.017206043
-0.090386666 -0.12335122 0.017312348
-0.088120133 -0.12168971 0.01755929
-0.088633195 -0.1238729 0.017851591
-0.086908951 -0.12294437 0.01863268
-0.086099073 -0.12330237 0.018305361
-0.086044565 -0.12476462 0.018403709
-0.085918836 -0.12615931 0.018525124
-0.083351023 -0.12395793 0.01815936
-0.082999386 -0.12503804 0.018153131
-0.082056448 -0.12524405 0.018012673
-0.078454137 -0.12134241 0.017810374
-0.07930845 -0.12432136 0.018008381
-0.078696437 -0.12505187 0.018189073
-0.07635168 -0.12301104 0.018278211
-0.075905152 -0.12401405 0.018613815
-0.074412383 -0.12331194 0.018776596
-0.073684879 -0.12387602 0.018693328
-0.072999731 -0.12452895 0.018379182
-0.071499281 -0.1237898 0.018876195
-0.069940589 -0.12292589 0.019153476
-0.069814861 -0.12459267 0.019440353
-0.067301176 -0.12198338 0.01916343
-0.068075746 -0.12534583 0.019231498
-0.06596975 -0.12342728 0.019148707
-0.064173989 -0.12203578 0.01910463
-0.065224662 -0.126101 0.019152701
-0.064286046 -0.1263929 0.019916505
-0.061292071 -0.12258414 0.020442605
-0.061456248 -0.12506886 0.020535558
-0.0594212 -0.12308677 0.021656275
-0.058278076 -0.12291376 0.022346199
-0.057220925 -0.12291902 0.022764623
-0.055898894 -0.12234475 0.023328096
-0.054302014 -0.12113526 0.023212284
-0.054016724 -0.12286156 0.02389276
-0.053041842 -0.12305707 0.024032831
-0.051920533 -0.12291391 0.024305999
-0.050884165 -0.12297007 0.024172515
-0.049485758 -0.12213507 0.024149448
-0.048539378 -0.12240364 0.024172515
-0.047617622 -0.12274764 0.023892522
-0.045727998 -0.12055562 0.023805827
-0.0448617 -0.12102226 0.023505181
-0.044645395 -0.12330633 0.022346556
-0.043138679 -0.1220509 0.022114843
-0.042251706 -0.12252995 0.021877795
-0.04099118 -0.12192249 0.021332234
-0.040314224 -0.12306447 0.020826072
-0.039866947 -0.12498827 0.020466089
-0.038329635 -0.1235066 0.020256579
-0.037254043 -0.12347054 0.019373894
-0.036743101 -0.12535882 0.019553632
-0.035332646 -0.12419961 0.018854111
-0.034243792 -0.12413375 0.019322813
-0.033439174 -0.12512723 0.018680364
-0.032129835 -0.12423535 0.018220812
-0.031315599 -0.12526239 0.018038154
-0.029702099 -0.12305155 0.017647564
-0.028500797 -0.12244786 0.017751604
-0.027763555 -0.12386817 0.016971558
-0.026668426 -0.12374149 0.016522497
-0.0257906 -0.12465457 0.016276419
-0.02506751 -0.12642744 0.015580297
-0.023580806 -0.12433516 0.014632165
-0.022606088 -0.12487172 0.014035851
-0.021563377 -0.12506759 0.013162524
-0.020513762 -0.12524192 0.012567192
-0.01965493 -0.1266651 0.01123178
-0.018674834 -0.12742828 0.0088016391
-0.017383641 -0.1260314 0.0071983635
-0.13197519 -0.12239634 0.0079244673
-0.13382281 -0.12511888 0.0097672343
-0.13309802 -0.12546125 0.011983126
-0.12883599 -0.12244743 0.013355494
-0.13000894 -0.1245919 0.015056401
-0.12567759 -0.12145313 0.016809642
-0.12644929 -0.12323447 0.018202782
-0.124577 -0.12244748 0.019305259
-0.12315799 -0.12209628 0.020325392
-0.12243377 -0.12243377 0.021181077
-0.12159164 -0.12265822 0.021742821
-0.11940756 -0.12152097 0.022281975
-0.12025058 -0.12347157 0.023236215
-0.11670364 -0.12090918 0.023735106
-0.11314033 -0.11828307 0.024263769
-0.11529811 -0.12164479 0.024071455
-0.11412881 -0.12152604 0.024342954
-0.11286779 -0.1213065 0.02397567
-0.11242126 -0.12196646 0.023735076
-0.11210351 -0.12278004 0.023635685
-0.10955567 -0.12114329 0.023327947
-0.11079808 -0.12370659 0.023327947
-0.10788877 -0.1216393 0.023542345
-0.10685157 -0.12166268 0.023251504
-0.10779221 -0.12396105 0.023257345
-0.10525283 -0.12226339 0.023133457
-0.10373431 -0.12172904 0.022967637
-0.10353032 -0.12274214 0.022804052
-0.10079482 -0.1207438 0.022472054
-0.10006554 -0.12113197 0.021337539
-0.10082232 -0.12334646 0.020170033
-0.098711096 -0.12206211 0.019279301
-0.098712623 -0.12339078 0.01918751
-0.09838292 -0.12433007 0.018587559
-0.095956825 -0.1226115 0.019012749
-0.097800247 -0.12637112 0.019069165
-0.09554965 -0.12486602 0.018976212
-0.093843624 -0.12404618 0.018868983
-0.091404408 -0.12222683 0.019623637
-0.089957401 -0.12170707 0.020098954
-0.089036249 -0.12189486 0.020579904
-0.088394158 -0.12247383 0.020607382
-0.086388178 -0.12115415 0.020895988
-0.086455807 -0.12274589 0.020777762
-0.086199932 -0.1239124 0.020469069
-0.083623372 -0.12173022 0.020435303
-0.08389727 -0.12369469 0.020267695
-0.082627825 -0.12340519 0.020158142
-0.08137621 -0.12313506 0.020058364
-0.080778487 -0.12386034 0.019880921
-0.079469971 -0.12350063 0.01992026
-0.077034526 -0.12135576 0.020098954
-0.077468932 -0.12373509 0.020195991
-0.075377025 -0.12208954 0.0203017
-0.074610695 -0.12257471 0.020712227
-0.074455477 -0.12409246 0.020902991
-0.071094655 -0.12023361 0.020473272
-0.071277432 -0.12234186 0.0206438
-0.070662737 -0.12312447 0.020664036
-0.068895727 -0.12189244 0.020850211
-0.068229109 -0.12259918 0.020719379
-0.068106048 -0.12432057 0.020699143
-0.065029375 -0.120619 0.020272195
-0.065218523 -0.12295295 0.020195216
-0.064549379 -0.12371965 0.020326674
-0.062785514 -0.12237855 0.020834565
-0.062310528 -0.12354673 0.021491945
-0.061345011 -0.12376625 0.022213131
-0.059870031 -0.12294738 0.023055255
-0.05867001 -0.12267366 0.023473024
-0.056710783 -0.12077297 0.023937494
-0.05621687 -0.12198 0.024341017
-0.054997172 -0.12162836 0.024390191
-0.053646706 -0.12096806 0.024567246
-0.052554093 -0.12087441 0.025122076
-0.05193219 -0.12188167 0.025255859
-0.050047114 -0.11990454 0.025051802
-0.050062049 -0.12249225 0.024691164
-0.048739284 -0.12184821 0.024713397
-0.047408529 -0.12115513 0.024479449
-0.047014877 -0.12287979 0.02420184
-0.045799397 -0.12248676 0.023900509
-0.043278415 -0.11850042 0.023207009
-0.043664217 -0.1224728 0.02286011
-0.041889053 -0.12043103 0.022302508
-0.041430816 -0.1221678 0.022030175
-0.040647626 -0.12301256 0.021653295
-0.03926 -0.12202433 0.021215081
-0.038190082 -0.12199609 0.021028996
-0.03806923 -0.12508462 0.020248383
-0.036398288 -0.12311185 0.019266576
-0.03565025 -0.12423571 0.018979788
-0.035035536 -0.12590896 0.019046783
-0.033352438 -0.12372679 0.017840952
-0.032635696 -0.1251035 0.016811341
-0.031615842 -0.12537317 0.01710704
-0.0297591 -0.12222487 0.016331643
-0.028852791 -0.12289152 0.016131014
-0.028220898 -0.12482321 0.01630497
-0.026559401 -0.12217325 0.01564315
-0.026043536 -0.12479194 0.015303135
-0.02490274 -0.12451371 0.014470309
-0.023840357 -0.12462004 0.014223754
-0.022943154 -0.12564108 0.013078958
-0.021524098 -0.12376356 0.012332976
-0.020793805 -0.12585723 0.011689603
-0.019935453 -0.1273654 0.0089473426
-0.019017214 -0.12864587 0.0068822801
-0.13626814 -0.12527877 0.0062969923
-0.13622166 -0.12625422 0.0080868304
-0.13161153 -0.12298127 0.010479152
-0.13350661 -0.12578309 0.012319714
-0.13013178 -0.12362519 0.013736188
-0.12526403 -0.12000084 0.015153408
-0.12546894 -0.12121576 0.017078221
-0.1253569 -0.12214262 0.018202484
-0.12389148 -0.12175542 0.019376814
-0.12391799 -0.12284044 0.020444006
-0.12063538 -0.12063538 0.021156698
-0.1206782 -0.12174615 0.021582693
-0.12032031 -0.12246888 0.022219777
-0.11747806 -0.12065315 0.023088187
-0.11662582 -0.12086676 0.023797929
-0.11470895 -0.11997083 0.024118841
-0.1139327 -0.1202623 0.024277747
-0.11516754 -0.12270186 0.024106652
-0.11155226 -0.1199713 0.024012893
-0.10937722 -0.11875241 0.023867637
-0.11042963 -0.12104786 0.023770422
-0.10862385 -0.12022446 0.02388069
-0.10739465 -0.12002932 0.023940235
-0.10853665 -0.12250672 0.023758233
-0.10678992 -0.12174051 0.023741841
-0.10618575 -0.1222745 0.023560703
-0.10370418 -0.12063548 0.023519307
-0.10291251 -0.12094872 0.023256987
-0.1011067 -0.12006421 0.022918999
-0.099875286 -0.11985034 0.021995515
-0.098213069 -0.11910947 0.021284729
-0.099889427 -0.12244511 0.020828009
-0.09943819 -0.12321688 0.020165682
-0.098084323 -0.12287486 0.019687176
-0.098374248 -0.12460738 0.020042181
-0.096007295 -0.12297564 0.020348579
-0.095219426 -0.12335244 0.019946069
-0.093470842 -0.12247904 0.020225525
-0.09075769 -0.12030671 0.021419317
-0.089252874 -0.11970386 0.02178219
-0.089429818 -0.12136904 0.022439122
-0.086706229 -0.11909048 0.022976846
-0.087134041 -0.12113757 0.022639483
-0.086764738 -0.12211333 0.022561908
-0.08437822 -0.12023896 0.021923661
-0.085547477 -0.12344825 0.022396863
-0.083938293 -0.12267904 0.021858782
-0.08136183 -0.12045777 0.021858782
-0.08160869 -0.12241304 0.021736383
-0.08024317 -0.12196962 0.021224767
-0.078448206 -0.12085264 0.021477044
-0.077572174 -0.12114011 0.021622866
-0.076690815 -0.12142713 0.022303134
-0.075565107 -0.1213299 0.021705747
-0.075251356 -0.1225522 0.021871805
-0.073411226 -0.12128811 0.021937966
-0.072348274 -0.12128976 0.021674097
-0.071867563 -0.12228213 0.021615595
-0.069912501 -0.12075795 0.021529108
-0.068933666 -0.12089904 0.021698177
-0.068194628 -0.12147169 0.021578938
-0.066993728 -0.12122675 0.021578938
-0.065642297 -0.12069713 0.021290898
-0.065080851 -0.12162651 0.021168441
-0.063421153 -0.12050019 0.021211654
-0.063254312 -0.1222202 0.021672666
-0.061983407 -0.12182946 0.022170842
-0.05992689 -0.11985378 0.023142546
-0.059923094 -0.12198629 0.023542941
-0.058003135 -0.12022468 0.024349868
-0.056729451 -0.11976217 0.024473369
-0.056339439 -0.12118295 0.024621308
-0.054232903 -0.11889521 0.024690926
-0.053439882 -0.11945385 0.025220066
-0.053104062 -0.12107726 0.0252648
-0.051701467 -0.12028505 0.025428891
-0.050620958 -0.12022477 0.02532348
-0.049577594 -0.12025204 0.025084257
-0.047815431 -0.11849912 0.024979323
-0.047864057 -0.12125561 0.024828464
-0.046860058 -0.12141015 0.024485767
-0.045219827 -0.11988513 0.024325252
-0.044557668 -0.12094224 0.023822248
-0.042812936 -0.11904085 0.023847073
-0.041848063 -0.11926698 0.022743642
-0.041649479 -0.12174463 0.022127956
-0.040418494 -0.12125548 0.021859258
-0.039007992 -0.12018678 0.021320462
-0.0385275 -0.12200375 0.021442056
-0.037837435 -0.12324193 0.020520002
-0.037084948 -0.12434365 0.019707114
-0.036135558 -0.12483193 0.019367069
-0.034687784 -0.12357523 0.018446296
-0.034123521 -0.12548649 0.01739651
-0.032928359 -0.12512776 0.016073793
-0.031288326 -0.1229955 0.016105473
-0.03035696 -0.1235962 0.015474737
-0.029198475 -0.12328245 0.014920235
-0.027886618 -0.1222721 0.014899164
