ply
format ascii 1.0
comment PCL generated
element vertex 1243
property float x
property float y
property float z
element camera 0
property float view_px
property float view_py
property float view_pz
property float x_axisx
property float x_axisy
property float x_axisz
property float y_axisx
property float y_axisy
property float y_axisz
property float z_axisx
property float z_axisy
property float z_axisz
property float focal
property float scalex
property float scaley
property float centerx
property float centery
property int viewportx
property int viewporty
property float k1
property float k2
end_header
-0.03307952 -0.10037924 0.008592993
-0.031430341 -0.098781072 0.0085446835
-0.030559214 -0.099600397 0.0084954798
-0.029540561 -0.099983439 0.0084834695
-0.02796622 -0.098441094 0.0084915757
-0.027395515 -0.10045023 0.0085695982
-0.025722604 -0.098416917 0.0079933703
-0.025113001 -0.10045201 0.0078252852
-0.023793109 -0.099704459 0.0075660944
-0.022556536 -0.099248759 0.0074816346
-0.021496773 -0.099564001 0.0074471235
-0.02035244 -0.099500813 0.0074289143
-0.019108647 -0.098915353 0.0076837838
-0.018049348 -0.099271409 0.0075313449
-0.017050834 -0.10003156 0.0078617632
-0.0156216 -0.098192908 0.0078253448
-0.014727233 -0.099692039 0.0078572631
-0.013540225 -0.099294983 0.0080091059
-0.012258308 -0.098066464 0.0083629191
-0.011289891 -0.099351041 0.0083347559
-0.010297135 -0.1006831 0.0082886815
-0.0089733535 -0.098706886 0.0083032846
-0.0079189949 -0.099553078 0.0083032846
-0.0067331372 -0.098752677 0.0083076358
-0.0056722802 -0.099832132 0.0083662271
-0.0045246314 -0.099541895 0.0082800388
-0.003383558 -0.099251032 0.0082800388
-0.002257314 -0.099321812 0.0083028078
-0.0011322394 -0.099637061 0.0079993308
0 -0.098300129 0.0082412064
0.0011397465 -0.10029769 0.0082470775
0.0022610675 -0.099486969 0.0083498359
0.0033811969 -0.099181779 0.0084656179
0.0045406134 -0.099893495 0.0084811747
0.0056547248 -0.099523149 0.0084811747
0.0067124348 -0.098449044 0.0084038973
0.0079562832 -0.10002185 0.0084811747
0.0090668108 -0.099734917 0.0084811747
0.01007216 -0.098483339 0.0085009933
0.011327415 -0.099681243 0.0086499453
0.012372144 -0.098977149 0.0085968375
0.013514808 -0.099108592 0.0081875622
0.014719367 -0.09963879 0.0082089901
0.015769837 -0.099124685 0.0084036589
0.016837575 -0.098780438 0.0085009038
0.018149043 -0.099819727 0.0085077882
0.019038724 -0.098553397 0.0088604987
0.020425377 -0.099857405 0.0089964271
0.021576054 -0.099931195 0.0090086162
0.022245739 -0.097881243 0.0085099041
0.023848971 -0.099938549 0.008626163
0.025102362 -0.10040945 0.0085183084
0.025832428 -0.098837115 0.008559972
0.02730559 -0.1001205 0.0089292824
0.027842348 -0.098005071 0.0089712739
0.029298658 -0.099164687 0.0090023875
0.030701106 -0.10006287 0.0090743005
0.031212192 -0.098095462 0.0093894601
0.032949932 -0.099986002 0.0092667937
0.033786558 -0.099107243 0.0092240274
0.034865085 -0.098971859 0.0091970861
0.036017589 -0.099048369 0.009113282
0.037436418 -0.099830456 0.009113282
0.037980437 -0.098302305 0.0091324151
0.03973522 -0.099905699 0.0089735389
0.040952817 -0.10010688 0.0091800094
0.04088762 -0.09724623 0.0094287694
0.043016043 -0.099616103 0.0097438991
0.043688793 -0.098579839 0.0096937418
0.045068115 -0.099149853 0.0092856884
0.04656864 -0.099952206 0.0092425346
0.047292806 -0.09908969 0.0091194808
0.048359692 -0.09896867 0.0091194808
0.050061751 -0.1001235 0.009108007
0.05109901 -0.099926956 0.0090614557
0.051547728 -0.098613046 0.0090859532
0.053080205 -0.099384211 0.0089937747
0.053247459 -0.097620338 0.0089607537
0.055677719 -0.099992633 0.0090992451
0.056169093 -0.098857604 0.0095209181
0.05684302 -0.098082073 0.0097863078
0.058701329 -0.099340715 0.0097919405
0.059938427 -0.099520408 0.0097832382
0.060275141 -0.098226152 0.0098691583
0.062595099 -0.10015216 0.0092966855
0.062748052 -0.098604083 0.0097832382
0.063658834 -0.098280296 0.0094608366
0.065778449 -0.099801786 0.0094155967
0.065726183 -0.098032273 0.0092188418
0.067606635 -0.099156402 0.0089931786
0.068668202 -0.099062324 0.0089820027
0.069319174 -0.098388501 0.0089094639
0.07006029 -0.09786199 0.008918494
0.071332701 -0.09808246 0.0092144012
0.071700491 -0.097071432 0.0095689297
0.074328564 -0.099104755 0.0095439851
0.075896822 -0.099685378 0.0098409951
0.075772516 -0.098058552 0.0099511743
0.077361725 -0.098664232 0.0099321306
0.079151735 -0.099505037 0.010501474
0.077746831 -0.09636227 0.010320336
0.0812326 -0.099284291 0.0097103119
0.081612013 -0.098381609 0.0096257329
0.082394108 -0.097982183 0.0095768571
0.08331871 -0.097760618 0.0089251995
0.085069895 -0.098501988 0.0084949136
0.086104251 -0.098404862 0.0082177818
0.088091023 -0.09938474 0.0073969066
0.0885593 -0.098648332 0.0069083869
0.089837551 -0.098821312 0.0065171421
0.091147922 -0.099024899 0.005562216
-0.074417874 -0.099605456 0.0051456392
-0.074174121 -0.10083045 0.0063666701
-0.070766337 -0.097724944 0.0072772801
-0.069539391 -0.097579464 0.0078599453
-0.068282433 -0.09738642 0.0080685616
-0.06681738 -0.096885197 0.0080980361
-0.067417197 -0.099411801 0.008238703
-0.066124111 -0.099186167 0.0077262521
-0.064565726 -0.09854769 0.0070052147
-0.064479165 -0.10017298 0.0062772036
-0.063061908 -0.099752471 0.0056183934
-0.061264828 -0.09870445 0.0050101578
-0.053709015 -0.099418812 0.0057525933
-0.051916894 -0.098190643 0.0065814257
-0.051387329 -0.099348836 0.0066720545
-0.050036501 -0.098935813 0.0074735284
-0.048448782 -0.098024279 0.0074655712
-0.047789689 -0.098992929 0.0072738826
-0.046871141 -0.099458277 0.0068847239
-0.045399368 -0.098743625 0.0069408715
-0.044202186 -0.09860488 0.0075994134
-0.043127041 -0.098738223 0.007591188
-0.041562181 -0.097727291 0.0076236725
-0.041233975 -0.099648774 0.0076935291
-0.039628517 -0.098505169 0.0079333186
-0.038011994 -0.097265981 0.0078267753
-0.03741743 -0.098645955 0.0081212521
-0.036035795 -0.097972319 0.0083417892
-0.035071775 -0.098427236 0.0087759793
-0.034040984 -0.098718852 0.0090152025
-0.032549638 -0.097648919 0.0086850524
-0.031843785 -0.098943189 0.008721441
-0.030817732 -0.099301584 0.008756429
-0.029109223 -0.097403936 0.008721441
-0.028362719 -0.098702267 0.0087013543
-0.027180078 -0.098527782 0.0086748302
-0.026002666 -0.098357908 0.0085532665
-0.025089735 -0.099218495 0.0084682107
-0.023525734 -0.097463749 0.0080483258
-0.022409493 -0.097481295 0.0078952909
-0.021459378 -0.098261364 0.0080483258
-0.020276712 -0.09800411 0.0078719258
-0.019212976 -0.09832523 0.0081099868
-0.018118523 -0.098519474 0.008126229
-0.016815264 -0.097528532 0.0081676543
-0.015879516 -0.098679841 0.0081880093
-0.014724458 -0.098540604 0.0080249608
-0.013397456 -0.097131558 0.008046627
-0.012497623 -0.098844841 0.00825122
-0.011397325 -0.099156722 0.008276701
-0.01008437 -0.097482249 0.0081127286
-0.0091581047 -0.099594384 0.0081270337
-0.0078975772 -0.098155603 0.0083654523
-0.0067561809 -0.097964622 0.0081270337
-0.0057305591 -0.099711724 0.0082642138
-0.0045266827 -0.098455347 0.0082642138
-0.0033930871 -0.09839952 0.0083007216
-0.0022823191 -0.099280886 0.0081966519
-0.0011339636 -0.098654836 0.0083202422
0 -0.098101936 0.008605659
0.0011365677 -0.098881394 0.0088530481
0.002236174 -0.097273566 0.0094153881
0.0033881818 -0.098257273 0.0093867481
0.0045630164 -0.0992456 0.0089901984
0.0056012752 -0.097462192 0.0089901984
0.0067827031 -0.098349191 0.0089205205
0.0079675121 -0.099024795 0.0089957714
0.0090307137 -0.098209016 0.0091329217
0.010192804 -0.098530442 0.0091412961
0.011321649 -0.098498344 0.0090729892
0.012425706 -0.098276034 0.0085743964
0.013708349 -0.09938553 0.0086562335
0.014597774 -0.097692788 0.0085803568
0.015694801 -0.097531974 0.0085397363
0.016904226 -0.098044507 0.0083228052
0.017897779 -0.097319171 0.0082993209
0.01919652 -0.098241016 0.0084477365
0.020617561 -0.099651553 0.0084477365
0.02122606 -0.09719301 0.0085003972
0.022632077 -0.098449536 0.008117348
0.023993099 -0.099399984 0.0082579255
0.024388658 -0.09644606 0.0084320009
0.025810763 -0.097632013 0.0083781779
0.027104635 -0.098254301 0.0087058246
0.028083174 -0.097729445 0.0087620914
0.029338626 -0.098171562 0.0088838637
0.030052591 -0.096836127 0.0090721548
0.031468257 -0.097776368 0.0092856884
0.032607444 -0.097822331 0.0093175471
0.033894233 -0.098293275 0.009411633
0.03476293 -0.09756048 0.0094925463
0.036283065 -0.098644584 0.0094005167
0.036708362 -0.09677659 0.0094323754
0.038475681 -0.098452471 0.0094634891
0.03959262 -0.098415941 0.0092788339
0.040589053 -0.098090209 0.0093466043
0.041961581 -0.098666415 0.0094230175
0.042897936 -0.098213695 0.0096307099
0.043496948 -0.097031653 0.0095510185
0.045158319 -0.098219343 0.0093630552
0.046031289 -0.097676151 0.0093630552
0.047402635 -0.098191172 0.0092911422
0.048769861 -0.098673902 0.0092911422
0.04965242 -0.098176375 0.0093445778
0.050331086 -0.097306773 0.00939551
0.052071884 -0.098483779 0.0093445778
0.052976798 -0.098063432 0.0092554986
0.054316368 -0.098448411 0.0088009536
0.05512527 -0.097875483 0.0085200369
0.055725541 -0.096962444 0.0087400377
0.057931818 -0.098824866 0.0091334283
0.058380935 -0.097675793 0.008582294
0.059233315 -0.097232044 0.0086267591
0.061015256 -0.098302357 0.0085440278
0.061764956 -0.097700931 0.0086092949
0.062228639 -0.09667664 0.0084900856
0.064439267 -0.098354675 0.0083323419
0.065241069 -0.097861603 0.0079448819
0.066073805 -0.097430862 0.0081866682
0.0679207 -0.098485015 0.0079901814
0.068735331 -0.098032363 0.0079807341
0.069090366 -0.096949384 0.0078419149
0.070973657 -0.09801124 0.0078419149
0.071062163 -0.096600123 0.0081967115
0.072898425 -0.097571738 0.0082324147
0.074452311 -0.098141685 0.008741051
0.073352873 -0.095249251 0.0092129707
0.076784857 -0.098239452 0.00954777
0.077029534 -0.097124197 0.0094993711
0.077795982 -0.096689299 0.00954777
0.080021605 -0.098054647 0.0093463957
0.080727704 -0.097545974 0.0092198551
0.081226252 -0.096803896 0.0091288686
0.08317554 -0.097787462 0.0088584721
0.084637187 -0.098179139 0.0086746216
0.08536531 -0.097720817 0.0081963241
0.08724153 -0.098571599 0.0073560178
0.088570341 -0.098789997 0.0066393614
0.088823698 -0.097818501 0.0064318478
0.091383465 -0.099379517 0.0057395995
0.090476267 -0.097178213 0.0055517554
-0.072391495 -0.097276069 0.0061775148
-0.071551554 -0.097673543 0.0070277154
-0.070549972 -0.097859636 0.0077262521
-0.067980066 -0.095840752 0.0083308816
-0.067565888 -0.096844442 0.0085044503
-0.067591719 -0.098523527 0.0084225535
-0.065551512 -0.097197071 0.0077240169
-0.065377034 -0.098639034 0.0070524216
-0.064342745 -0.098812066 0.0066708624
-0.062911302 -0.098370403 0.0057176352
-0.05301724 -0.097010262 0.0050394535
-0.052811969 -0.098735422 0.0057094991
-0.051583387 -0.098581582 0.0061273873
-0.049613498 -0.09697184 0.0066234171
-0.049066003 -0.098132007 0.0065723956
-0.047560323 -0.097385421 0.0065257549
-0.046190139 -0.096886627 0.00697276
-0.045672666 -0.098196231 0.0073147118
-0.044104226 -0.097255476 0.0075209439
-0.042765748 -0.096785642 0.0075683594
-0.042379722 -0.098504223 0.0077637434
-0.040785223 -0.097431369 0.0080203712
-0.03952574 -0.097120382 0.0079853833
-0.038708284 -0.09790919 0.0083059371
-0.037129238 -0.096761048 0.0083059371
-0.036258623 -0.097445048 0.0085764527
-0.035218455 -0.097702809 0.0086310208
-0.033905711 -0.09719637 0.0086629391
-0.032911114 -0.097598471 0.008402884
-0.031824108 -0.097745471 0.0083247721
-0.030296164 -0.096498892 0.0082800388
-0.029592192 -0.097881868 0.008549124
-0.028257459 -0.097205661 0.008598119
-0.027129797 -0.097215101 0.0085754097
-0.026243785 -0.098128937 0.0084994137
-0.024885328 -0.097279012 0.0083687305
-0.023776373 -0.097369909 0.008297354
-0.022747455 -0.097814061 0.008297354
-0.021475865 -0.097206548 0.0083695948
-0.02035114 -0.097233228 0.0083094239
-0.019314164 -0.097706944 0.0083695948
-0.017897094 -0.096196882 0.0083529651
-0.016988063 -0.097398221 0.0084606111
-0.015827278 -0.097224705 0.0083439052
-0.014621633 -0.096727729 0.0081409514
-0.013644704 -0.097787045 0.008158505
-0.012515859 -0.097851261 0.0084264576
-0.011186821 -0.096206665 0.0085293353
-0.010139586 -0.096889377 0.0082269013
-0.0089993868 -0.096743405 0.0084700882
-0.0079477504 -0.097643793 0.0085936785
-0.0068460652 -0.098126933 0.0083854198
-0.005614996 -0.096577927 0.0086174607
-0.0045151394 -0.0970755 0.0086174607
-0.0034180474 -0.097984031 0.0088418722
-0.0022609243 -0.097219743 0.0085712373
-0.0011234458 -0.096616335 0.0089155436
0 -0.097471006 0.0094565153
0.0011207804 -0.096387118 0.0093432069
0.0022561993 -0.097016573 0.0096897781
0.0034065989 -0.097655833 0.009444207
0.0044436627 -0.09553875 0.0094078183
0.0057064588 -0.098151095 0.0094078183
0.0068257139 -0.097835235 0.0094282329
0.0078981463 -0.097034365 0.0093889236
0.0090861153 -0.097675741 0.0093889236
0.010094346 -0.096457087 0.0093889236
0.01135275 -0.097633645 0.0091698468
0.012500538 -0.097731486 0.0090389848
0.013566959 -0.097229868 0.008928895
0.014767244 -0.097690992 0.0084140301
0.015895084 -0.097641222 0.008531332
0.01678285 -0.096221678 0.0083220005
0.017997812 -0.096738242 0.0083349049
0.019275066 -0.097509153 0.0087964237
0.020200819 -0.096515022 0.0082553625
0.021679357 -0.098127618 0.0084402561
0.022632502 -0.097319759 0.0079685152
0.023509594 -0.096277386 0.0084376931
0.024841417 -0.097107351 0.008237958
0.026074085 -0.097494401 0.0083637834
0.027237188 -0.097599924 0.0085109472
0.028517438 -0.098099984 0.0085197091
0.02911282 -0.096296251 0.0088722408
0.03019009 -0.09616103 0.0090187788
0.032135446 -0.098701723 0.0090334713
0.032304861 -0.095800616 0.0090920329
0.033827782 -0.09697298 0.0091193914
0.035383217 -0.098159894 0.0092786252
0.035205491 -0.094614759 0.0090919733
0.037079427 -0.096631236 0.0091328323
0.038726754 -0.097955905 0.0091103613
0.038835045 -0.095423259 0.0091066957
0.040835183 -0.097550713 0.0091103613
0.041529361 -0.096527703 0.0092487931
0.042444911 -0.096059531 0.0092808902
0.044115983 -0.097281396 0.0092357993
0.045368858 -0.097543038 0.0091949999
0.046227198 -0.096964367 0.0090685785
0.047684312 -0.097639307 0.0090838969
0.048514325 -0.09702865 0.0091522932
0.049875811 -0.097484536 0.0091522932
0.050808594 -0.097100869 0.0091522932
0.051878985 -0.096991144 0.0090687573
0.053090766 -0.097144805 0.0091755986
0.054343279 -0.097365044 0.008774966
0.054203857 -0.095133305 0.0086098015
0.056567855 -0.097296715 0.0084684789
0.057923652 -0.097675174 0.0086808801
0.058203712 -0.096259989 0.0082373917
0.059953481 -0.097283006 0.0078645051
0.061492827 -0.097933024 0.0075827241
0.061158452 -0.09562958 0.0075313449
0.063351564 -0.097289898 0.0076908469
0.064173624 -0.096823364 0.0076200664
0.065255918 -0.096758775 0.007502526
0.067061283 -0.097750351 0.0072203577
0.067458041 -0.096689858 0.0070510507
0.068703458 -0.09686061 0.0070948899
0.069800153 -0.096819565 0.0075046718
0.070371404 -0.096062548 0.0070509613
0.073191717 -0.098351367 0.0075630546
0.07300432 -0.096590333 0.00771299
0.073206633 -0.095390454 0.0076496005
0.074654482 -0.095825151 0.0083747804
0.077224627 -0.097666435 0.0089181364
0.0766555 -0.095541634 0.0091950595
0.080123723 -0.098437712 0.0096516311
0.081958346 -0.099273488 0.0095487833
0.081995219 -0.097938739 0.0094228089
0.083441786 -0.098301277 0.0093443096
0.082012646 -0.095311999 0.0092595518
0.084647246 -0.097062178 0.0086601079
0.085443236 -0.096685767 0.0081433654
0.086326495 -0.096416607 0.0072087049
0.088311866 -0.097369492 0.0063596964
0.089313135 -0.097226955 0.0059822202
0.089602463 -0.096322648 0.0057745278
-0.073636882 -0.097798988 0.0059127212
-0.070997894 -0.095790811 0.0071418583
-0.06925863 -0.094951354 0.0080750883
-0.068619989 -0.095618017 0.008443445
-0.067415439 -0.095505208 0.008443445
-0.066082224 -0.095203206 0.0084118843
-0.065959133 -0.09666425 0.0076964498
-0.065743841 -0.098039061 0.0070966184
-0.063079983 -0.095746398 0.0061926842
-0.06367819 -0.098411746 0.0056855977
-0.062369179 -0.098173708 0.005361855
-0.061708469 -0.098966412 0.0051339865
-0.05282107 -0.097604148 0.0052767992
-0.051050309 -0.096428365 0.0054721236
-0.050485972 -0.097529717 0.0058685839
-0.049108125 -0.097074203 0.0059616864
-0.047145762 -0.095414042 0.006377846
-0.046665151 -0.096744828 0.0066047609
-0.045301884 -0.096266501 0.0067695081
-0.044586919 -0.097176619 0.0074000955
-0.043245293 -0.096732892 0.0077370107
-0.041632459 -0.095642135 0.0079886913
-0.040496752 -0.095617332 0.0081001222
-0.040024806 -0.097203106 0.0080595016
-0.038446046 -0.096115112 0.0083087087
-0.03712764 -0.095631801 0.0083310902
-0.036433037 -0.096775249 0.0085295737
-0.034584027 -0.094827168 0.0082645118
-0.034136336 -0.096719623 0.0081474185
-0.032999177 -0.096721724 0.0082428455
-0.031519882 -0.095685363 0.0080934465
-0.030653954 -0.096503191 0.0078649521
-0.029564308 -0.096652545 0.0079320371
-0.028123243 -0.09561903 0.0077997148
-0.027334811 -0.096810788 0.0079434812
-0.02600068 -0.096089475 0.0080011785
-0.024872329 -0.096097633 0.0083091557
-0.023789383 -0.096290365 0.008428067
-0.022832502 -0.097038127 0.0086420178
-0.021454282 -0.095979683 0.0084375441
-0.020494133 -0.096777849 0.008120358
-0.019315461 -0.096577309 0.0083354712
-0.018072607 -0.09601073 0.0082744062
-0.017113628 -0.096977219 0.008266151
-0.015724046 -0.095467418 0.008266151
-0.014766661 -0.096551247 0.0082902312
-0.013594021 -0.096290983 0.008512944
-0.012430089 -0.096050687 0.0084652305
-0.01137956 -0.096726254 0.0084054768
-0.01023348 -0.096649535 0.0083856285
-0.0090726716 -0.096397139 0.0085749328
-0.0079448922 -0.096473686 0.0084054768
-0.0068098172 -0.096472405 0.0083298683
-0.0056732227 -0.096444786 0.0085068345
-0.0045648795 -0.097003691 0.0086218119
-0.0033841066 -0.095883019 0.0084306598
-0.0022604684 -0.09606991 0.0088506043
-0.0011386671 -0.096786708 0.0088405907
0 -0.095679663 0.0091409683
0.0011355163 -0.096518889 0.0092386007
0.0022798581 -0.096893974 0.0090510249
0.0033621117 -0.09525983 0.0088825524
0.004600991 -0.097771063 0.0090203881
0.0056450488 -0.095965825 0.0090595484
0.0066811307 -0.094649352 0.0090780854
0.0080199558 -0.097385176 0.0091211796
0.0090697641 -0.096366242 0.0092453957
0.010164239 -0.09599559 0.00906986
0.011429836 -0.097153611 0.0091515779
0.012352801 -0.095453463 0.0086019039
0.013561315 -0.096059315 0.0084599853
0.01474068 -0.096381374 0.0083994567
0.01571472 -0.095410801 0.0087751448
0.016983746 -0.096241221 0.0086080134
0.018088108 -0.096093073 0.0086165071
0.019151824 -0.095759116 0.0086445212
0.020523552 -0.096916772 0.0086445212
0.021489931 -0.09613917 0.0079697371
0.022332616 -0.094913617 0.0078530014
0.023818612 -0.096408665 0.0080550313
0.024926903 -0.096308492 0.0082125962
0.025785018 -0.095292456 0.0083652735
0.027330458 -0.096795373 0.008035928
0.028307699 -0.096246175 0.0082229972
0.029264027 -0.095670857 0.0082944334
0.031285673 -0.098491937 0.0083601773
0.03170437 -0.096245401 0.0083971918
0.032596063 -0.095540181 0.0088950992
0.033985876 -0.096293308 0.0088314712
0.034990434 -0.095941506 0.0090670288
0.036550943 -0.097088434 0.0089103878
0.037412621 -0.096365847 0.0089641809
0.038281813 -0.095704533 0.0089524686
0.039686762 -0.096382134 0.0090062618
0.040900871 -0.096571505 0.0090249479
0.041431531 -0.095180549 0.0092398822
0.042942703 -0.096056044 0.0092484057
0.044243507 -0.096428156 0.009363234
0.045234352 -0.096123002 0.0090499222
0.046472371 -0.096345156 0.008774519
0.047505189 -0.096141458 0.0090499222
0.048805002 -0.096475005 0.0092870295
0.050083123 -0.096751489 0.0091881752
0.050885011 -0.096116133 0.0090260208
0.052117676 -0.096304394 0.0086598694
0.053425115 -0.096619889 0.0087470412
0.053515021 -0.094766185 0.0090162456
0.055604097 -0.096456088 0.0088588893
0.056694746 -0.096381068 0.0087122917
0.057145625 -0.095242709 0.009263128
0.059072882 -0.096561439 0.0088371038
0.059903163 -0.096071109 0.0085359216
0.0601607 -0.094697401 0.0082489848
0.061630979 -0.095247872 0.0080704689
0.063621074 -0.096567705 0.0079877675
0.064314403 -0.095907442 0.0076666474
0.066122629 -0.096903853 0.007553041
0.066626959 -0.09598799 0.007330358
0.067947634 -0.096259147 0.0067438185
0.069358192 -0.096646659 0.0071898997
0.069949247 -0.095898159 0.006808728
0.072287738 -0.09753108 0.0072791576
0.072261959 -0.095972918 0.0071873665
0.072775453 -0.095167898 0.0074854493
0.078471504 -0.10106178 0.0076235235
0.077277914 -0.098039143 0.0076667964
0.076859742 -0.096074678 0.007848531
0.079453848 -0.097877935 0.0085985363
0.080070332 -0.097228266 0.0088660419
0.079794504 -0.095528632 0.0091519654
0.082373977 -0.097247057 0.0088142753
0.08248084 -0.096039332 0.0086327195
0.086153872 -0.098960526 0.0087720752
0.087323979 -0.09896718 0.0081855953
0.085461885 -0.095582366 0.0078491867
0.087234318 -0.096297629 0.0070073605
0.089597836 -0.097638674 0.0068172812
0.088942707 -0.09569785 0.0061751604
0.092664771 -0.098456323 0.0054898858
0.092036471 -0.096581481 0.0050311685
-0.073996715 -0.095626518 0.0057117641
-0.072545648 -0.095216163 0.0065099895
-0.070805676 -0.094407573 0.0074450076
-0.069399782 -0.094025515 0.008038193
-0.068280183 -0.094025172 0.0089362264
-0.067135021 -0.09398903 0.0091761053
-0.066864237 -0.095196545 0.0091761053
-0.065691575 -0.095139518 0.0082019269
-0.064280421 -0.094729036 0.0075787008
-0.064189553 -0.09628433 0.0068248212
-0.063335352 -0.096730351 0.006379813
-0.062483326 -0.097196288 0.0060016215
-0.061734695 -0.097843669 0.0058256388
-0.060198482 -0.097243704 0.0053275824
-0.051880039 -0.096842743 0.0055333078
-0.050528839 -0.09646415 0.005924046
-0.048540976 -0.094824232 0.0059626102
-0.048199177 -0.096398354 0.0059378743
-0.046801455 -0.09588591 0.0064350963
-0.045625418 -0.095813379 0.0065906644
-0.044295553 -0.095405802 0.0074796081
-0.043108027 -0.095291428 0.0074232519
-0.042045768 -0.095455259 0.0075122416
-0.04111414 -0.09593299 0.0081070364
-0.03972929 -0.095350288 0.0083759129
-0.038427785 -0.094939232 0.0084687471
-0.037731815 -0.096044622 0.0084141791
-0.035907425 -0.09425699 0.0084141791
-0.035312839 -0.095686398 0.0083983541
-0.034357816 -0.096201882 0.0083754361
-0.032640036 -0.094543561 0.0082987845
-0.031985607 -0.095956825 0.0082870424
-0.030737448 -0.095627621 0.0082256794
-0.0293428 -0.094799817 0.0082870424
-0.02856498 -0.095978335 0.0082197785
-0.027321966 -0.095626883 0.0080288351
-0.02591316 -0.094639368 0.0075641274
-0.025110811 -0.095877647 0.0075500607
-0.023736162 -0.094944648 0.0076837838
-0.022488864 -0.094453231 0.0079767406
-0.021559089 -0.095313869 0.0079767406
-0.02043109 -0.095345087 0.0080492496
-0.019192075 -0.094831429 0.0082319677
-0.018152179 -0.095298938 0.0083307922
-0.016881198 -0.09453471 0.0080492496
-0.01603874 -0.096232437 0.00806427
-0.014765989 -0.095411003 0.0080838799
-0.013500336 -0.094502345 0.0081040561
-0.01250548 -0.095496394 0.0081712902
-0.011428733 -0.096001357 0.0086022317
-0.010127766 -0.094525814 0.0086038709
-0.0091958744 -0.096556686 0.0087616444
-0.0078189643 -0.093827568 0.0089249313
-0.006772053 -0.094808742 0.0088182092
-0.0056778113 -0.095387235 0.0088869929
-0.0044984957 -0.094468415 0.0088869929
-0.003392491 -0.094989747 0.0087166131
-0.0022820604 -0.095846534 0.0088607371
-0.0011289794 -0.094834268 0.0087547898
0 -0.095924087 0.0090802312
0.001140374 -0.095791414 0.0091593266
0.0022578167 -0.0948283 0.0088611543
0.0033954 -0.095071204 0.0088092685
0.0046041948 -0.096688084 0.0091575682
0.0056565995 -0.095030874 0.0088650584
0.0068196873 -0.095475622 0.0090004206
0.0080124019 -0.096148826 0.0089776218
0.0090916464 -0.095462285 0.0091087818
0.010286463 -0.096006989 0.0090375841
0.011280891 -0.094759479 0.0090711117
0.012362191 -0.094402187 0.0087862909
0.013792588 -0.096548118 0.0088833869
0.014614785 -0.094434001 0.0087146461
0.015759738 -0.094558425 0.0088371933
0.017022926 -0.095328391 0.008707583
0.017891519 -0.093930475 0.0086514056
0.019380465 -0.095762305 0.0084677339
0.020439809 -0.095385775 0.0085360408
0.021131175 -0.093422033 0.0087027848
0.022724953 -0.095444798 0.0086655617
0.023854375 -0.0954175 0.0089519024
0.024795262 -0.094672821 0.0088195205
0.026087131 -0.095274739 0.0086100698
0.027240653 -0.095342278 0.0087806284
0.028342668 -0.095231362 0.0085755885
0.02966518 -0.095841348 0.0084297657
0.030384766 -0.094530381 0.0085437596
0.031596221 -0.094788671 0.0087189972
0.032881971 -0.095244333 0.0086803734
0.033909939 -0.09494783 0.0085227787
0.035155475 -0.095259994 0.0085731745
0.036493249 -0.095794782 0.0083990991
0.037213519 -0.094725326 0.0084237456
0.038873378 -0.096040107 0.0085991621
0.03937424 -0.09449818 0.00864622
0.040577341 -0.094680458 0.0085235536
0.041969843 -0.095282882 0.008828789
0.043275416 -0.095661446 0.0087294281
0.043853231 -0.094453111 0.0087586641
0.045753282 -0.096081898 0.0086782873
0.046195764 -0.094644979 0.0089460611
0.047502909 -0.095005818 0.0088739097
0.048582438 -0.094905227 0.0090370476
0.050703809 -0.096798182 0.0087851882
0.050313342 -0.093918242 0.0086468458
0.052464217 -0.095804222 0.0087575316
0.053134013 -0.094962917 0.0088449717
0.054549266 -0.095461212 0.0089420676
0.055840261 -0.095726162 0.0087723136
0.056280028 -0.094550446 0.008441776
0.057624135 -0.094910339 0.0087614954
0.059107602 -0.095481507 0.0086129606
0.060005333 -0.095102794 0.008441776
0.061562069 -0.095763221 0.0081246793
0.062892772 -0.096054412 0.0082285404
0.06367521 -0.095512815 0.0080698431
0.06451986 -0.095081896 0.0083811581
0.065712452 -0.09516976 0.007833451
0.066917315 -0.095272109 0.0071151257
0.068458661 -0.095842123 0.0065374672
0.068364263 -0.094140947 0.0063649118
0.071442485 -0.096793048 0.0063598156
0.072405212 -0.09654028 0.0060346723
0.072315797 -0.094914481 0.0059632063
0.074004494 -0.095636576 0.0060677528
0.076060824 -0.096804686 0.0063630641
0.075291693 -0.094395556 0.0066679716
0.078700885 -0.097218737 0.0067068934
0.07773973 -0.094639674 0.0073977709
0.077462517 -0.092955016 0.0075286031
0.079934433 -0.094570316 0.0082416236
0.080514386 -0.093933456 0.0076400638
0.080987774 -0.093191408 0.0077762604
0.084681377 -0.096124806 0.0076988637
0.084791012 -0.094965935 0.0073986053
0.089015104 -0.098385118 0.006904304
0.088728838 -0.096795097 0.006434828
0.087514453 -0.094246335 0.006043911
0.089506574 -0.095171548 0.0059294105
0.091376692 -0.095945522 0.0056579411
-0.075622767 -0.096564457 0.0061174035
-0.072790749 -0.094400503 0.0075027645
-0.072918519 -0.096067257 0.0083535612
-0.070506483 -0.094387718 0.0090292692
-0.068652794 -0.093412817 0.010323793
-0.068649352 -0.094964936 0.010553449
-0.067430392 -0.094859704 0.01038757
-0.065475695 -0.093697973 0.0097690523
-0.065255389 -0.095021002 0.0094327927
-0.063742429 -0.094475389 0.0077326596
-0.062982045 -0.095045634 0.0070729554
-0.062866479 -0.0966281 0.0066917539
-0.061840195 -0.096844085 0.0064074695
-0.060004916 -0.095777079 0.00609532
-0.060065683 -0.097753949 0.0057266057
-0.055924516 -0.098760314 0.0050120354
-0.050216094 -0.094725817 0.0053807795
-0.049336705 -0.095231317 0.0056244135
-0.047890354 -0.094640464 0.0057456791
-0.04643555 -0.094003677 0.0059250593
-0.045804072 -0.095043451 0.0061511397
-0.044361472 -0.094410315 0.0063439906
-0.043108039 -0.094157033 0.0065110922
-0.042342894 -0.094985411 0.0066703558
-0.0411251 -0.0948162 0.0073154867
-0.039437585 -0.09352342 0.0076178014
-0.038996719 -0.095197871 0.0077860653
-0.037486661 -0.094284631 0.0078652501
-0.036561016 -0.094830133 0.0080597103
-0.035007466 -0.09372966 0.0082750916
-0.033728555 -0.093315668 0.0081375241
-0.033162571 -0.094913565 0.0080288649
-0.031945053 -0.094694257 0.0080288649
-0.030688509 -0.094338752 0.0079990327
-0.029547276 -0.094323993 0.008030504
-0.028410766 -0.094323747 0.0079278648
-0.027227612 -0.094162159 0.0077033043
-0.026344704 -0.095070019 0.0078466237
-0.024987023 -0.094269224 0.0078315139
-0.023923066 -0.094553068 0.0075260103
-0.023002315 -0.09545961 0.0078353584
-0.021689137 -0.094747283 0.0077188611
-0.020276312 -0.093496323 0.0079400837
-0.019411409 -0.094773352 0.007989347
-0.017922487 -0.092972904 0.0081121624
-0.016968427 -0.093891963 0.0080779195
-0.015931923 -0.094453543 0.0078479946
-0.014699846 -0.093852863 0.0080697834
-0.013594133 -0.094026089 0.008195281
-0.012514838 -0.094430141 0.0082248449
-0.011348165 -0.094189763 0.008464992
-0.010273952 -0.094748676 0.0084932745
-0.009067419 -0.094074473 0.0088333189
-0.007934358 -0.094078816 0.0087870359
-0.0068728044 -0.095073789 0.0087792277
-0.0056323553 -0.093497097 0.0085177422
-0.0045389887 -0.094184019 0.0091255605
-0.0034174102 -0.094548352 0.008639425
-0.0022755198 -0.094434075 0.0093174279
-0.0011334659 -0.094077677 0.0092990398
0 -0.095039077 0.0093107522
0.0011267365 -0.093519129 0.0089409947
0.0022700636 -0.094207637 0.0089284778
0.0034097712 -0.094337009 0.0087639987
0.0045203166 -0.093796574 0.008979857
0.0056738812 -0.094186425 0.0089393258
0.006830249 -0.094485112 0.0088565648
0.0079088984 -0.093776941 0.0088154972
0.0091028176 -0.094441734 0.0089085996
0.010146851 -0.093576513 0.0086316466
0.011409985 -0.09470287 0.0088284016
0.012535504 -0.094586074 0.0085678101
0.013657399 -0.094463676 0.0086197853
0.014699846 -0.093852863 0.0088570118
0.016054921 -0.095182739 0.0088535249
0.016800305 -0.092961691 0.0086115599
0.018031044 -0.093536042 0.0086115599
0.019444359 -0.094934233 0.0089053214
0.020406043 -0.09409453 0.0089083314
0.021541858 -0.09410391 0.0087302029
0.022866681 -0.094896726 0.0089488924
0.023722181 -0.093759097 0.0089636743
0.025180133 -0.094997779 0.0091709793
0.026259784 -0.09476357 0.0090346634
0.027426599 -0.094850317 0.0087441802
0.028506067 -0.094640143 0.0084339678
0.02955514 -0.094349101 0.0084339678
0.030686876 -0.094333723 0.0081931055
0.032017868 -0.094910108 0.0086313784
0.032775026 -0.093804382 0.0085231662
0.033902675 -0.093797408 0.0084566176
0.035434704 -0.094873562 0.0085658729
0.035949893 -0.093245037 0.008330375
0.037682068 -0.094776109 0.0084566176
0.038651653 -0.094355501 0.0087049305
0.039365713 -0.093352981 0.0087071359
0.041342486 -0.095317401 0.0089615881
0.042217806 -0.094704807 0.0089357495
0.042442895 -0.092704222 0.0090299249
0.044392068 -0.094475426 0.009111464
0.045251459 -0.093896776 0.008890748
0.046415769 -0.09396363 0.0089764893
0.047773857 -0.094410241 0.0091683865
0.049168214 -0.094906092 0.0091713369
0.04964862 -0.093655355 0.0089795887
0.051297329 -0.094615072 0.0088135302
0.052217681 -0.094218858 0.0088135302
0.053238664 -0.094017215 0.0089398026
0.055049162 -0.095189176 0.0088018775
0.0551886 -0.093482725 0.0086557865
0.057104122 -0.094792843 0.0084433258
0.058372483 -0.094998352 0.0083726346
0.058357216 -0.093147099 0.0081219673
0.061145719 -0.095756508 0.0081219673
0.062159125 -0.095540881 0.0079674721
0.061459035 -0.092747271 0.0078790784
0.064065248 -0.094953842 0.0078580081
0.064519756 -0.093949817 0.0075647831
0.065447852 -0.093658127 0.0071904957
0.067391463 -0.094804935 0.006839335
0.067908205 -0.093939684 0.0067277253
0.069044031 -0.093945153 0.0063594878
0.071628407 -0.095889643 0.0059102774
0.073616609 -0.096986964 0.005740881
0.074564911 -0.096701376 0.0052221119
0.074249506 -0.094810911 0.0053397119
0.074923798 -0.094222352 0.0052338243
0.076918103 -0.095286608 0.005731076
0.078485683 -0.095798701 0.0057680011
0.076906554 -0.09251079 0.0062236488
0.079460345 -0.094217263 0.0067596138
0.080637738 -0.094266653 0.007055074
0.080853321 -0.093205914 0.0069517791
0.08309035 -0.094472587 0.0069178641
0.084354825 -0.094614193 0.0074367225
0.084442034 -0.093449183 0.0072633326
0.086294517 -0.094242699 0.0070524812
0.087192945 -0.093987204 0.0064577758
0.092643775 -0.098582476 0.0060931146
0.099507235 -0.10454558 0.0059537292
-0.076862454 -0.095495783 0.0058188736
-0.074385256 -0.093839854 0.0070164502
-0.075063132 -0.096174635 0.0082145333
-0.072208755 -0.093985997 0.0090306997
-0.070115827 -0.092733838 0.010569245
-0.069943182 -0.094021983 0.011590242
-0.068080403 -0.093043216 0.011763811
-0.066891953 -0.092968471 0.011814266
-0.066606537 -0.094167858 0.011713654
-0.065494642 -0.094220363 0.01116395
-0.063748762 -0.093346409 0.0097513497
-0.062882625 -0.09375228 0.0089596808
-0.061633158 -0.093591094 0.0083062351
-0.060960758 -0.094316646 0.0076960027
-0.060689677 -0.095702946 0.0070415437
-0.058927573 -0.094746292 0.0063484907
-0.057898212 -0.094953068 0.0052788258
-0.055482522 -0.094782643 0.0050048232
-0.054489575 -0.09506692 0.0055702925
-0.054334771 -0.096857637 0.0055218339
-0.052582555 -0.095817097 0.0053706765
-0.050526202 -0.094162464 0.0051829815
-0.049383227 -0.094172664 0.0052479506
-0.047493923 -0.094987847 0.0056116581
-0.045521505 -0.093319081 0.0055499971
-0.044542506 -0.093653478 0.00578022
-0.043578103 -0.094036959 0.0060967207
-0.042094745 -0.093291052 0.0061960518
-0.040774863 -0.092876077 0.0061726868
-0.040615067 -0.095155299 0.0065259933
-0.038489152 -0.092826784 0.0069236755
-0.037644032 -0.093539715 0.0073580742
-0.036599576 -0.093786411 0.0074059665
-0.035147808 -0.09297163 0.0076346695
-0.034047604 -0.093063451 0.007615
-0.033322088 -0.094221078 0.0078712702
-0.03149775 -0.092243411 0.0078027248
-0.030797821 -0.093534119 0.0078851283
-0.029669866 -0.093574189 0.0078680813
-0.028321359 -0.092894062 0.0079864264
-0.027419247 -0.093682431 0.0077091157
-0.026028542 -0.092797406 0.0074881017
-0.025053516 -0.093381286 0.0074898601
-0.023984021 -0.093651891 0.0075663626
-0.02274427 -0.093251504 0.0078184307
-0.021434713 -0.092507713 0.0077483058
-0.020770159 -0.094619609 0.0076970458
-0.019229038 -0.092751831 0.0077775419
-0.018225798 -0.093407221 0.0077959895
-0.017051052 -0.093212418 0.007945478
-0.01567647 -0.091819324 0.0079859495
-0.014821894 -0.093491949 0.0079818964
-0.013687169 -0.093528986 0.0082624555
-0.01237209 -0.092228308 0.0083928406
-0.01145178 -0.093904592 0.0089029968
-0.010260826 -0.093487523 0.0089167655
-0.0090518529 -0.092781492 0.0091227591
-0.0080985753 -0.094869025 0.0091055334
-0.0067541869 -0.092307217 0.0090856552
-0.005655664 -0.092752896 0.0087868571
-0.0045503681 -0.093282551 0.0093382001
-0.0033886544 -0.092623226 0.0092257261
-0.0022740557 -0.093236282 0.0095638931
-0.0011374629 -0.093271956 0.0094161034
0 -0.09251143 0.009347856
0.0011391609 -0.093411192 0.0094642639
0.0022638678 -0.092818581 0.0095382035
0.0033795584 -0.092374593 0.0095785558
0.0045574023 -0.093426742 0.0093896389
0.0056965942 -0.093424149 0.0090582371
0.0067607355 -0.092396721 0.0088044703
0.0079534194 -0.093168624 0.0086984038
0.009068829 -0.092955492 0.0087281764
0.010198623 -0.09292078 0.008590132
0.01139843 -0.093467131 0.008702457
0.012431436 -0.092670709 0.0086411834
0.013508233 -0.092306256 0.0087197423
0.014857351 -0.093715601 0.0089076757
0.015928468 -0.093295306 0.0087194443
0.016974695 -0.092794999 0.008511126
0.018317901 -0.093879245 0.0091395676
0.019261999 -0.092910819 0.0097565055
0.020345965 -0.092687182 0.0091826022
0.021676406 -0.093550809 0.0095160007
0.02261829 -0.092734985 0.0092848241
0.024081945 -0.094034262 0.0092477798
0.025182733 -0.093862921 0.0091537535
0.026006263 -0.092717983 0.0090765655
0.027423607 -0.093697324 0.0090630651
0.028483264 -0.09342511 0.0088341534
0.029133331 -0.091882043 0.0087092221
0.030740645 -0.093360476 0.0079164207
0.031821281 -0.093190894 0.0080218613
0.032660805 -0.092351235 0.0086333752
0.034328807 -0.093832076 0.0085669458
0.035102826 -0.092852637 0.0085711181
0.036582164 -0.093741797 0.008427918
0.037592176 -0.093410857 0.0084848106
0.03819536 -0.092118219 0.0085730553
0.039946891 -0.093589857 0.0084508061
0.040940121 -0.093252495 0.008427918
0.042170711 -0.093459412 0.0086466074
0.043190382 -0.093200304 0.0087363124
0.044631958 -0.093841553 0.0084817111
0.04496875 -0.092185937 0.0083724558
0.046934906 -0.093869813 0.008338958
0.047930665 -0.093578912 0.0083435178
0.048797242 -0.093055211 0.0083814859
0.050494373 -0.09410315 0.0080800951
0.051012319 -0.092955783 0.007912457
0.052439079 -0.093478359 0.0078620911
0.053631809 -0.093570389 0.0080580711
0.054468021 -0.093049534 0.0077089369
0.056055333 -0.093806885 0.0077089369
0.057142965 -0.093714461 0.0075250268
0.058166664 -0.093522877 0.0073589981
0.059516914 -0.093853593 0.0072888434
0.060744081 -0.093981408 0.0071740746
0.061435178 -0.093290456 0.0070024431
0.063500583 -0.094673589 0.0068453252
0.063678131 -0.093242981 0.0067973137
0.064584278 -0.092910714 0.0066351891
0.066488169 -0.094000518 0.0056405962
0.066668928 -0.092658512 0.005907923
0.069692619 -0.095246583 0.0057943165
0.071556076 -0.09619014 0.0057581961
0.070078671 -0.092684694 0.0053350925
0.072321989 -0.094133377 0.0052064657
0.0732885 -0.093900897 0.0051254928
0.07390663 -0.093236051 0.0051254928
0.075819775 -0.094200321 0.0053806305
0.076196313 -0.093255192 0.0052934587
0.077216819 -0.093114398 0.0057426393
0.077969573 -0.092659488 0.0057360828
0.080074459 -0.093801506 0.0058294535
0.079004668 -0.091244824 0.0070709288
0.081424043 -0.092732936 0.0066995323
0.081059933 -0.09105362 0.0068666041
0.083175793 -0.092167772 0.0069504082
0.084776439 -0.092688911 0.0059424937
0.086189605 -0.092994049 0.0062400103
0.087857105 -0.093562111 0.0057995617
0.089221686 -0.093797162 0.0052641034
-0.076059945 -0.093346298 0.0065554678
-0.07469967 -0.093087278 0.0077481866
-0.073126666 -0.092550933 0.0090918541
-0.071660534 -0.092134975 0.0099212825
-0.071400851 -0.093281761 0.012680799
-0.069887564 -0.092801519 0.013011992
-0.067892313 -0.091654621 0.012873948
-0.067808144 -0.093092538 0.013155699
-0.066560604 -0.092955321 0.013045907
-0.064456746 -0.091596432 0.012756139
-0.064905338 -0.093880937 0.012109518
-0.062789395 -0.092471652 0.010214746
-0.061736349 -0.092604525 0.0094986558
-0.061275747 -0.093647838 0.0086133778
-0.059682086 -0.092966326 0.007902801
-0.058715355 -0.093253799 0.0074338615
-0.057982072 -0.093930952 0.0059892833
-0.055683006 -0.092047423 0.0055196881
-0.055771209 -0.094113916 0.0050906539
-0.045706913 -0.092556499 0.0050997734
-0.044817545 -0.093082592 0.0053625703
-0.043437731 -0.09259095 0.0059393644
-0.042092044 -0.092147447 0.006254375
-0.041372489 -0.093088105 0.0060482621
-0.039559443 -0.091551848 0.0061643422
-0.039353855 -0.093754776 0.0062468648
-0.037775323 -0.092721254 0.0066051483
-0.036163878 -0.091539815 0.0071688592
-0.035501745 -0.092762627 0.007082969
-0.034286756 -0.092574239 0.007170409
-0.032834064 -0.091708943 0.0074683726
-0.031951398 -0.09243083 0.0076685846
-0.030908637 -0.09272591 0.0076685846
-0.029331211 -0.091378003 0.0078295171
-0.028522331 -0.092412353 0.0079017282
-0.027264955 -0.092019223 0.0079017282
-0.026273379 -0.092527986 0.0077669322
-0.025142539 -0.09257026 0.0077183247
-0.023805706 -0.091822006 0.0076357722
-0.022553803 -0.091342904 0.0079991817
-0.021812046 -0.092988193 0.0076160431
-0.020467885 -0.092105485 0.0074502528
-0.019253541 -0.091737457 0.0075566769
-0.018230468 -0.092291743 0.0078401566
-0.016893579 -0.091225326 0.008510977
-0.01610144 -0.093158334 0.0081911981
-0.01480599 -0.092252709 0.0083109736
-0.013582997 -0.091685228 0.0086388588
-0.012537341 -0.092320412 0.0088060796
-0.011397109 -0.092316583 0.0088914335
-0.010150481 -0.091354325 0.0089371502
-0.0092108836 -0.093260191 0.0093756318
-0.0079987627 -0.09255711 0.0094681084
-0.0068006804 -0.091809183 0.0094247162
-0.0057144323 -0.092573807 0.009364903
-0.0045498377 -0.092134215 0.0094247162
-0.0034162733 -0.09223938 0.009155035
-0.0022906528 -0.092771441 0.0092397332
-0.0011389073 -0.092251495 0.0093832314
0 -0.092354953 0.0093832314
0.0011383006 -0.092202358 0.0095043778
0.0022551077 -0.091331869 0.0094808042
0.0034410211 -0.09290757 0.0097086728
0.0046121906 -0.093396865 0.0095082223
0.0056477142 -0.091492966 0.0093288124
0.0068061394 -0.091882877 0.009430021
0.0080081029 -0.092665188 0.0088814795
0.0090803737 -0.091938786 0.0090881586
0.010277649 -0.092498839 0.0091785491
0.011377098 -0.092154495 0.0091869831
0.012407278 -0.091362685 0.0087218881
0.013753248 -0.092834421 0.0088814795
0.014660184 -0.091344222 0.0087950528
0.015906241 -0.092028961 0.0086962283
0.017169075 -0.092713006 0.0086962283
0.017850323 -0.090367265 0.0093979239
0.019421473 -0.092537612 0.0096798837
0.020563871 -0.092537418 0.0097818673
0.021395307 -0.091211572 0.0092551112
0.022787653 -0.092289992 0.0090096891
0.024015598 -0.092631593 0.0087727606
0.024938669 -0.091819644 0.0089595914
0.026231593 -0.092380822 0.0088562965
0.027475668 -0.092730381 0.0087839961
0.028057678 -0.090906881 0.0085080564
0.029781323 -0.09278027 0.0082538426
0.03063738 -0.091912143 0.0077603757
0.031826019 -0.092068121 0.0077603757
0.033141106 -0.092566535 0.0077603757
0.034114361 -0.092108779 0.0079650283
0.035019912 -0.091503642 0.0079699457
0.036442507 -0.092245094 0.0078538656
0.037280567 -0.091506846 0.0078282356
0.0386572 -0.092095092 0.007812202
0.039952837 -0.092462279 0.0077583492
0.040965769 -0.09217298 0.0078538656
0.042118862 -0.092206158 0.0082562864
0.043593775 -0.092923574 0.0082562864
0.04403346 -0.091454111 0.0080264807
0.046020783 -0.093192086 0.007942766
0.046753846 -0.092367351 0.0079743266
0.047849081 -0.092280373 0.0079700053
0.049382791 -0.093023397 0.0084899664
0.050042886 -0.092124403 0.0082783997
0.051090352 -0.091962636 0.008079052
0.052588202 -0.092600964 0.0081996322
0.053127192 -0.091559626 0.0078675747
0.055458974 -0.093587019 0.0070836842
0.056131467 -0.092788756 0.0073641837
0.056152165 -0.090966508 0.0072315633
0.058479045 -0.092878483 0.00679335
0.060251407 -0.093853153 0.0064478815
0.05966616 -0.091187909 0.0062361062
0.061622728 -0.092434093 0.0060995817
0.0624258 -0.091936179 0.0060822666
0.06356632 -0.091944143 0.0056247115
0.069953412 -0.092888959 0.0050774813
0.071426868 -0.09331575 0.0052292049
0.077837996 -0.092718787 0.0052808225
0.078818157 -0.092525661 0.005749464
0.077291705 -0.089437544 0.0057426691
0.081221215 -0.092660822 0.0058523715
0.080777943 -0.090875186 0.0057867169
0.082787938 -0.091860585 0.0058413744
0.08309491 -0.090955235 0.0060407817
0.083916441 -0.090629756 0.0052309334
0.085567735 -0.091197193 0.0054025054
0.08772289 -0.092279926 0.005200088
-0.075284258 -0.091253646 0.0067973137
-0.074756846 -0.092008427 0.0083985925
-0.072523296 -0.09065412 0.010286123
-0.07266368 -0.092271335 0.011266917
-0.071120903 -0.091768913 0.013077885
-0.069216758 -0.090776078 0.013152361
-0.069799222 -0.093065627 0.014003664
-0.068540208 -0.092935883 0.014139116
-0.066737153 -0.092051245 0.014139116
-0.066448294 -0.093260765 0.014049619
-0.064278543 -0.091826484 0.013953328
-0.06306272 -0.091727592 0.012456805
-0.062345784 -0.092364125 0.010752618
-0.060691483 -0.091609783 0.0095119178
-0.059387032 -0.091364659 0.0086157024
-0.058487326 -0.091744825 0.0080072582
-0.057340097 -0.091744155 0.0071983635
-0.056024328 -0.091468289 0.0060282052
-0.055024456 -0.091707423 0.0054255426
-0.053570844 -0.091184415 0.0050354302
-0.044597864 -0.091482796 0.0050310194
-0.043524265 -0.091630034 0.0052939057
-0.042775374 -0.092487298 0.0057660639
-0.04130663 -0.091792509 0.0057230592
-0.039751217 -0.090859927 0.0058985054
-0.03888265 -0.091488592 0.0063748658
-0.037754796 -0.091526777 0.0067724586
-0.036645122 -0.091612801 0.0070598722
-0.035195541 -0.090827204 0.0070819855
-0.033807028 -0.09015207 0.0071188211
-0.03333715 -0.09196455 0.0075110495
-0.032162737 -0.091893531 0.0077346861
-0.030645024 -0.090800069 0.0077244639
-0.029806068 -0.091710977 0.0077297688
-0.028514311 -0.091245793 0.0077584982
-0.027372058 -0.091240197 0.0076829195
-0.026275761 -0.091393955 0.007750988
-0.024983553 -0.09084928 0.007686168
-0.023882911 -0.090982512 0.0077733994
-0.022867279 -0.091469117 0.0078080893
-0.021664349 -0.091218315 0.0078512728
-0.020367175 -0.090520784 0.0077669322
-0.019658197 -0.092509158 0.0076778531
-0.017989621 -0.089948095 0.0082135201
-0.017194288 -0.091702871 0.0082888305
-0.015970495 -0.091259971 0.0083607733
-0.014643356 -0.090112962 0.0086398721
-0.01377343 -0.09182287 0.0086974204
-0.012590516 -0.09156739 0.0088638365
-0.011368423 -0.090947382 0.0087749362
-0.010307519 -0.09162239 0.0088911355
-0.0091171041 -0.091171034 0.009393543
-0.0079863286 -0.091272324 0.0097875297
-0.0068311407 -0.091081873 0.0097897947
-0.00566096 -0.09057536 0.0095278919
-0.0045548608 -0.091097213 0.0095972121
-0.0034649991 -0.092399977 0.009404242
-0.0022714476 -0.090857901 0.0096586049
-0.0011362804 -0.090902433 0.0099579096
0 -0.091776408 0.0098820329
0.001136341 -0.090907283 0.0098936856
0.0022713263 -0.09085305 0.0096623003
0.0034318727 -0.091516607 0.0094557703
0.0044958894 -0.089917786 0.0093779862
0.005725875 -0.091614 0.009341687
0.0068642641 -0.091523528 0.0091778934
0.0079540554 -0.090903498 0.0091626942
0.0091772797 -0.091772795 0.0091626942
0.010180865 -0.090496585 0.0091646016
0.011379947 -0.091039576 0.0089275241
0.012614533 -0.091742061 0.0088174939
0.013608231 -0.09072154 0.0087400675
0.014699329 -0.09045741 0.0087716281
0.015888149 -0.09078943 0.0086605847
0.017129717 -0.091358498 0.0086838007
0.01821563 -0.091078147 0.0087047815
0.019522168 -0.091869026 0.0087298453
0.020280985 -0.090137713 0.0087575316
0.021796772 -0.091775879 0.0085015595
0.022897577 -0.091590308 0.0082786679
0.023563538 -0.089765862 0.0085015595
0.024939571 -0.090689346 0.0087397397
0.026221426 -0.091204956 0.008647114
0.02753631 -0.091787703 0.0086122453
0.02877016 -0.092064507 0.0081318021
0.0295416 -0.090897232 0.0078634918
0.030733285 -0.091061585 0.0078605711
0.032069527 -0.091627218 0.0078209639
0.033103742 -0.091320664 0.0076322556
0.034061149 -0.090829723 0.0075708926
0.035518091 -0.091659591 0.0075767338
0.036215462 -0.090538651 0.0073156953
0.037343722 -0.090530239 0.0073156953
0.039034761 -0.091846503 0.007286787
0.039366189 -0.089979857 0.0073151588
0.040891107 -0.090869121 0.0076393783
0.042339463 -0.091544785 0.0085060596
0.043127172 -0.090794042 0.0080783069
0.044586089 -0.091458641 0.0080126822
0.04596458 -0.09192916 0.0080126822
0.046777815 -0.091273785 0.0078928471
0.048162542 -0.091738172 0.0080588162
0.049190085 -0.091516443 0.0078932345
0.050302073 -0.091458321 0.0078808665
0.051241379 -0.091095783 0.0077086389
0.052365512 -0.091070458 0.0077625215
0.053601999 -0.091237448 0.0077844262
0.055114102 -0.091856837 0.0069264174
0.055941697 -0.091333382 0.0071819723
0.057918102 -0.092668965 0.0069264174
0.058358397 -0.091542587 0.0062586069
0.059146103 -0.090994008 0.0061932504
0.062008161 -0.093597226 0.0059122443
0.06599886 -0.097776085 0.0058766007
0.065132409 -0.094738051 0.0056939721
0.068148509 -0.097355016 0.0055003762
0.067752875 -0.09509176 0.0051340759
0.07030353 -0.092201352 0.0051788986
0.071738057 -0.092565238 0.0053603649
0.072252065 -0.091748647 0.0050059855
0.0726882 -0.090860248 0.0051236153
0.07428848 -0.090046644 0.0050104558
0.076342188 -0.091154851 0.0053221583
0.07915464 -0.093123108 0.0053752363
0.077170402 -0.089472927 0.0063092709
0.080222674 -0.091683052 0.0063916147
0.081665166 -0.092017084 0.0066068769
0.08158876 -0.090654172 0.0063098967
0.083614223 -0.091632031 0.0057226121
0.083393238 -0.090154849 0.005063951
0.085068502 -0.090739734 0.0051668584
0.086635068 -0.091194808 0.0052850842
-0.075721137 -0.090635911 0.0072324872
-0.073337734 -0.089133546 0.0091357827
-0.073169649 -0.090318784 0.010563046
-0.072061561 -0.090362906 0.01143539
-0.070524313 -0.089861624 0.013339847
-0.070064127 -0.090738788 0.01362592
-0.068940789 -0.090772033 0.01422742
-0.066384993 -0.088888384 0.0146299
-0.066052899 -0.089968607 0.01465705
-0.064535983 -0.089444607 0.0146299
-0.062897071 -0.088729799 0.014428228
-0.062492516 -0.08976198 0.013986915
-0.061168753 -0.08948762 0.013362616
-0.060020465 -0.089464463 0.011070758
-0.059329327 -0.090134941 0.0099663436
-0.057862747 -0.089630529 0.0090582669
-0.056643266 -0.089496359 0.0082809031
-0.056648862 -0.09133184 0.0072841644
-0.054143947 -0.089111917 0.0064122975
-0.054552663 -0.091694899 0.0055340528
-0.04129054 -0.090609796 0.0051628947
-0.040402029 -0.091193154 0.0054997504
-0.039019566 -0.090663105 0.006052047
-0.0374985 -0.089769132 0.0063720942
-0.037153482 -0.09172266 0.0065195262
-0.03478393 -0.088642918 0.0068084896
-0.034419838 -0.090638913 0.0071405768
-0.03314339 -0.090287171 0.0074940622
-0.031885777 -0.089963444 0.0077147782
-0.030690087 -0.089796923 0.0079825222
