ply
format ascii 1.0
comment PCL generated
element vertex 1303
property float x
property float y
property float z
element camera 0
property float view_px
property float view_py
property float view_pz
property float x_axisx
property float x_axisy
property float x_axisz
property float y_axisx
property float y_axisy
property float y_axisz
property float z_axisx
property float z_axisy
property float z_axisz
property float focal
property float scalex
property float scaley
property float centerx
property float centery
property int viewportx
property int viewporty
property float k1
property float k2
end_header
0.083387032 -0.046833813 0.030004859
0.083520092 -0.046274643 0.029635638
0.085280389 -0.046619944 0.029977113
0.087935112 -0.047438677 0.029977113
0.087667927 -0.046680324 0.030108511
0.088699669 -0.046624184 0.030375034
0.090148844 -0.046786107 0.03072086
0.08961045 -0.045925356 0.030786276
0.092109911 -0.046623535 0.032053143
0.094230078 -0.047115039 0.032391816
0.093919769 -0.046394106 0.032622874
0.095901065 -0.046808854 0.032326967
0.096192688 -0.046398826 0.032700777
0.097192615 -0.046336014 0.03281197
0.097007178 -0.045716025 0.033106774
0.098862328 -0.046060856 0.033197612
0.10045218 -0.046275724 0.033128619
0.10250118 -0.046694983 0.033579856
0.10218301 -0.046038497 0.03392598
0.10386755 -0.046288796 0.034087092
0.10586134 -0.046670053 0.03499043
0.10466943 -0.04565369 0.035245687
0.10757798 -0.046428394 0.035487056
0.1071634 -0.045767702 0.036093622
0.10583257 -0.044733353 0.03698191
0.10934041 -0.04574446 0.037216395
0.11009905 -0.045596574 0.037212133
0.11033563 -0.045237608 0.037133336
0.11319436 -0.045950186 0.036626726
0.11499429 -0.046223197 0.035941213
0.11634383 -0.046311624 0.035368115
0.11747584 -0.046312589 0.034523576
0.11661322 -0.045534685 0.033919007
0.12003789 -0.04642975 0.033340394
0.12263922 -0.046992596 0.032591134
0.12365061 -0.046941437 0.032065064
0.12401135 -0.046646472 0.03141433
0.13119386 -0.048899531 0.030174196
0.12800375 -0.047280662 0.028556734
0.13203935 -0.048335835 0.027026623
0.13259444 -0.048109483 0.026145965
0.13311182 -0.047873545 0.0252527
0.13549808 -0.048308011 0.022216201
0.13696571 -0.048410293 0.019355655
0.13586947 -0.04761238 0.017464936
0.139809 -0.048577704 0.016082019
0.13986158 -0.048187606 0.015029937
0.14229286 -0.048616726 0.013290912
0.14539227 -0.04926515 0.011407495
0.14707543 -0.049426991 0.009511888
0.029163161 -0.048605271 0.0054351389
0.029615993 -0.047385588 0.008156836
0.030969767 -0.047645796 0.0105097
0.03244799 -0.048071098 0.014364362
0.032889519 -0.046985026 0.016661286
0.033747703 -0.046548557 0.01870206
0.035419423 -0.047225896 0.020328075
0.035875108 -0.046290461 0.022796124
0.037486091 -0.046857614 0.024474233
0.038248651 -0.046362001 0.0259974
0.039122701 -0.046026707 0.027569622
0.04057515 -0.046371602 0.028448194
0.041504439 -0.046116043 0.029954642
0.042054612 -0.045464445 0.031397283
0.043153513 -0.045424748 0.032477617
0.044512887 -0.045654241 0.034068704
0.044645619 -0.044645619 0.034312427
0.046650577 -0.045512758 0.034772068
0.04777104 -0.045496229 0.035347283
0.048660979 -0.045266028 0.035623103
0.049992599 -0.045447815 0.035347283
0.05100568 -0.045338385 0.035474151
0.051817991 -0.045059122 0.035491467
0.054067798 -0.046015147 0.035153449
0.054984063 -0.045820054 0.035188377
0.056175079 -0.045857206 0.034964055
0.057415981 -0.045932785 0.034522861
0.057016056 -0.044718474 0.03368032
0.059143793 -0.045495223 0.033011883
0.05979719 -0.045129955 0.032032669
0.060641121 -0.044919349 0.031233788
0.063501 -0.046182547 0.03029421
0.063328251 -0.045234464 0.029849648
0.064863458 -0.045518216 0.029343545
0.067122675 -0.0462915 0.028318048
0.067899622 -0.046033643 0.027967632
0.06910494 -0.046069961 0.028147489
0.071183071 -0.046677422 0.02867794
0.070854641 -0.045712672 0.028885663
0.071302146 -0.045271207 0.029134065
0.073207401 -0.045754623 0.028947979
0.073164076 -0.045024045 0.029318541
0.07579276 -0.045935009 0.030240536
0.07628952 -0.04554598 0.030877411
0.076914065 -0.045243569 0.03130883
0.077954657 -0.045191105 0.031061649
0.07907632 -0.045186471 0.031044304
0.080107771 -0.045131139 0.030839145
0.082432315 -0.045795731 0.031044662
0.082581572 -0.045250177 0.031099916
0.083520338 -0.04514613 0.030819297
0.085127816 -0.045401502 0.031071961
0.086255431 -0.045397595 0.030931801
0.08717487 -0.04528565 0.031269938
0.089068718 -0.045676265 0.032401353
0.089099996 -0.045113921 0.032871634
0.090591297 -0.045295648 0.033367634
0.092410304 -0.04563472 0.033891082
0.091418825 -0.044594549 0.033645183
0.093275845 -0.044952217 0.034268051
0.095735937 -0.045588542 0.033733904
0.094119452 -0.044291507 0.034022063
0.097905524 -0.045537453 0.034141809
0.098313756 -0.045201726 0.034184724
0.098658241 -0.044844653 0.034371763
0.099091083 -0.044535317 0.034127951
0.10138786 -0.045061272 0.034492642
0.10204805 -0.044856288 0.034619659
0.10224415 -0.044453979 0.035051137
0.10520989 -0.045251563 0.035709709
0.10649431 -0.04531673 0.035917759
0.1063835 -0.044793051 0.036218345
0.10631561 -0.044298168 0.036357969
0.10821257 -0.04462374 0.037311077
0.1101649 -0.044965267 0.037941396
0.10917354 -0.044110522 0.037120193
0.11167878 -0.044671509 0.037297964
0.11442475 -0.045316733 0.036785334
0.11419308 -0.044781599 0.036077052
0.117591 -0.045666408 0.035370022
0.11734729 -0.045133576 0.033999562
0.11881194 -0.045261692 0.034081399
0.12116284 -0.045721829 0.033444196
0.1204399 -0.045024261 0.03263092
0.12498609 -0.046291143 0.031459659
0.12362696 -0.045367692 0.030854911
0.12669306 -0.046070203 0.030132324
0.13120633 -0.047281563 0.028391749
0.13290782 -0.047467079 0.026813418
0.13358942 -0.047288291 0.025413424
0.13428207 -0.047116514 0.024230808
0.13643521 -0.047455724 0.020490855
0.13655171 -0.047086794 0.01875934
0.14020418 -0.047933053 0.016120255
0.14341868 -0.048616502 0.014909238
0.13631502 -0.045820173 0.011577815
0.14512469 -0.048374895 0.010293812
0.14676273 -0.048516601 0.0069274008
0.14994337 -0.049161762 0.0050631464
0.030136226 -0.047012512 0.0054510236
0.031667341 -0.047501013 0.0070977211
0.032582585 -0.047063731 0.010589421
0.033115935 -0.046125762 0.013008773
0.034505971 -0.046404585 0.015594482
0.035685636 -0.046391331 0.01864633
0.036340486 -0.045718677 0.020121247
0.037902202 -0.046193309 0.021840751
0.038100138 -0.045027435 0.024730265
0.039455164 -0.045257393 0.026140571
0.040092424 -0.044674411 0.028171211
0.040822193 -0.044224042 0.029565394
0.04269249 -0.045000192 0.030460268
0.043183364 -0.044319768 0.031681478
0.043693829 -0.043693829 0.033468902
0.046208415 -0.045053203 0.033955067
0.046436556 -0.044171359 0.035135418
0.047095947 -0.043731954 0.035783023
0.04870775 -0.044176798 0.035904825
0.049672425 -0.044027831 0.035826951
0.050743762 -0.043977927 0.036109835
0.052188434 -0.044246718 0.036445171
0.053489838 -0.044385184 0.035775393
0.054925777 -0.044627193 0.035682768
0.056180835 -0.04471536 0.035035074
0.055588566 -0.043359082 0.034809798
0.057509445 -0.043977808 0.034288764
0.059294537 -0.044470903 0.03361994
0.059402954 -0.043711606 0.032285362
0.06122829 -0.044220429 0.031844735
0.063151956 -0.044780478 0.030695707
0.063865736 -0.044477925 0.030075222
0.066174224 -0.0452771 0.029508114
0.066705972 -0.044854015 0.029304385
0.068443947 -0.045242608 0.029465348
0.070598982 -0.04588934 0.029602319
0.069965772 -0.044732213 0.030219018
0.071597859 -0.045037363 0.030609667
0.072129168 -0.044651389 0.030907959
0.071550213 -0.043600909 0.031578571
0.074306183 -0.044583712 0.032206029
0.075153254 -0.044408739 0.033009529
0.07435929 -0.043283768 0.032383829
0.077845819 -0.044646867 0.032077312
0.078870706 -0.044579096 0.032345951
0.077625565 -0.04324853 0.032185495
0.081488617 -0.044761356 0.031609297
0.081334583 -0.044056233 0.032236308
0.082086511 -0.043854434 0.032236308
0.08410576 -0.044326007 0.031631589
0.08434546 -0.043859638 0.031799883
0.08483018 -0.043531276 0.032322824
0.08738669 -0.044260789 0.033072829
0.087836057 -0.043918028 0.033801019
0.09022446 -0.044541188 0.034091383
0.089323454 -0.043545183 0.034321636
0.090919085 -0.043775856 0.03449139
0.091687948 -0.043607686 0.034598589
0.093325123 -0.043851566 0.034831494
0.09382084 -0.043559674 0.034508705
0.095721208 -0.043919142 0.035037637
0.096936278 -0.043959476 0.034591824
0.096929424 -0.043451119 0.034641951
0.098893769 -0.043827917 0.034532845
0.098725267 -0.043261636 0.034285188
0.1003489 -0.04348452 0.034710944
0.10350858 -0.04436082 0.03524223
0.10331537 -0.043796733 0.035429209
0.10442526 -0.043791238 0.035811365
0.10672276 -0.044278592 0.036056131
0.10676641 -0.043830421 0.036741257
0.10855795 -0.044101667 0.036635756
0.10953429 -0.044039559 0.037217706
0.10877743 -0.04328898 0.037506193
0.11275938 -0.044420362 0.036971331
0.11258943 -0.043909881 0.037523866
0.11248977 -0.043436643 0.037164956
0.11610319 -0.044392399 0.036452413
0.11750551 -0.044492379 0.036069572
0.11724261 -0.04396598 0.035159022
0.12053934 -0.044771753 0.034679055
0.12074389 -0.044424638 0.0338462
0.12147321 -0.044275284 0.032887936
0.12511288 -0.045179654 0.031674951
0.12401776 -0.044373326 0.029793382
0.12802494 -0.045390658 0.028994858
0.13052116 -0.045858789 0.027235508
0.13047419 -0.045432977 0.025537997
0.13589652 -0.04690234 0.024809241
0.13744369 -0.047020212 0.020898938
0.13803875 -0.046813142 0.019454181
0.13882706 -0.046674613 0.017894775
0.1405119 -0.0468373 0.015193939
0.139112 -0.045977693 0.011627525
0.14299822 -0.04686496 0.0088765919
0.14319694 -0.046539009 0.0060050488
0.032610204 -0.045895841 0.0072104633
0.033655517 -0.045675345 0.0096117854
0.034209356 -0.044826053 0.011451095
0.035539377 -0.045016542 0.015563041
0.036630373 -0.044901747 0.018068492
0.037263896 -0.044250876 0.019584686
0.038831737 -0.04471533 0.021459579
0.040153001 -0.044876881 0.025813818
0.039883699 -0.043302301 0.026614696
0.04161761 -0.0439297 0.029053032
0.043085229 -0.044249691 0.030365378
0.043699652 -0.043699652 0.031137168
0.045319416 -0.044157378 0.032234907
0.045644946 -0.043362696 0.033534765
0.046587829 -0.043178964 0.034484655
0.047918171 -0.043354537 0.035023928
0.048467468 -0.042831715 0.036343515
0.050135989 -0.043299265 0.036147684
0.050975062 -0.043045606 0.036341697
0.052154515 -0.043084163 0.036187828
0.053398263 -0.043173064 0.03590852
0.054713137 -0.043314565 0.035985291
0.055302497 -0.04288765 0.035786718
0.056876786 -0.043226358 0.035322845
0.057925355 -0.04316007 0.03419435
0.058149487 -0.042493857 0.03366667
0.060065571 -0.043065879 0.032895327
0.061948854 -0.043593638 0.031466603
0.06240052 -0.043113086 0.030475944
0.065386869 -0.044369664 0.030072451
0.065970607 -0.043980405 0.02987808
0.066936351 -0.043854851 0.02987808
0.06889531 -0.044373251 0.029801697
0.070203967 -0.044462513 0.030192077
0.070501961 -0.043919254 0.030808777
0.070472725 -0.04319296 0.031455457
0.071301274 -0.043007117 0.032199532
0.071896359 -0.042688463 0.033536524
0.073382258 -0.042900398 0.034209192
0.073949449 -0.042576957 0.034261197
0.075861499 -0.043025922 0.034040302
0.07658612 -0.042798128 0.034262031
0.076000929 -0.041855585 0.033930093
0.079516821 -0.043166272 0.03376466
0.080609791 -0.043143269 0.033681661
0.081091881 -0.042798493 0.032925516
0.082873955 -0.043139864 0.033611476
0.082600899 -0.042416677 0.032381028
0.084641352 -0.042884953 0.033179313
0.08671876 -0.04335938 0.033221483
0.085790694 -0.042338263 0.033606559
0.087564513 -0.042659637 0.034215927
0.089533687 -0.043066837 0.034296006
0.089284383 -0.042410079 0.03444609
0.091852516 -0.043091305 0.034651637
0.09350431 -0.043331265 0.034751654
0.091000222 -0.041662753 0.035180539
0.095905222 -0.043385696 0.035077006
0.094873711 -0.042414129 0.035587221
0.095787026 -0.042324502 0.035077006
0.097830504 -0.042730566 0.035043299
0.098012492 -0.042323574 0.034936637
0.099508382 -0.042486724 0.034557998
0.10108684 -0.042681113 0.03520757
0.10324796 -0.043114532 0.035214782
0.10444611 -0.043140788 0.035293519
0.10601505 -0.043317977 0.035336733
0.10604667 -0.042869929 0.035403013
0.10621879 -0.042487517 0.036369026
0.10876758 -0.043053836 0.036530137
0.10841246 -0.042470861 0.0369941
0.11054666 -0.04286503 0.037100554
0.11164504 -0.042853653 0.037200093
0.11035833 -0.041936163 0.037426203
0.1150026 -0.043268304 0.037378997
0.11823558 -0.044048548 0.036442488
0.11545485 -0.042594992 0.035430759
0.11777554 -0.043033369 0.034877956
0.11839565 -0.04284795 0.034292877
0.11959326 -0.042873055 0.033717394
0.12226629 -0.043421671 0.032389224
0.12272767 -0.04318196 0.031179875
0.12372812 -0.043134574 0.02932927
0.12735771 -0.043996301 0.027839124
0.1284461 -0.043972541 0.026312619
0.13138059 -0.044575557 0.024935395
0.13720821 -0.046140812 0.021727324
0.13784359 -0.045947865 0.019837499
0.14055124 -0.046443019 0.018252283
0.14328219 -0.046937272 0.016577929
0.1401341 -0.045513637 0.011839479
0.14311337 -0.046087362 0.0091685653
0.14647438 -0.046773329 0.0066367984
0.033949632 -0.044862013 0.0070821643
0.035007741 -0.04466505 0.0098709762
0.036321361 -0.044796344 0.01094979
0.037240397 -0.044448216 0.013809085
0.038286362 -0.044268604 0.01785478
0.039244231 -0.044001106 0.01967448
0.039559532 -0.043050081 0.02056843
0.041345745 -0.043708362 0.023679942
0.041929599 -0.043094307 0.026966184
0.042812739 -0.042812739 0.028528333
0.044342525 -0.043175619 0.029929221
0.0449921 -0.042684812 0.031035423
0.04592818 -0.042483568 0.031905711
0.046932787 -0.04235398 0.033363819
0.047711134 -0.042031236 0.034315974
0.048453685 -0.041692708 0.035105616
0.050700568 -0.042634569 0.035579503
0.050726153 -0.041708171 0.036005229
0.05246022 -0.042196263 0.036452562
0.054575767 -0.0429639 0.036251813
0.054302562 -0.041858226 0.03630358
0.055598203 -0.041982315 0.035970032
0.056951545 -0.042144142 0.035565078
0.056965124 -0.04132764 0.035198838
0.059343383 -0.0422251 0.034734637
0.060362581 -0.042139918 0.033456802
0.061712969 -0.042284813 0.033014178
0.063522503 -0.042733319 0.032328784
0.06413807 -0.042376939 0.03173691
0.065401867 -0.042453844 0.031874418
0.067390323 -0.042990375 0.031875998
0.068413801 -0.042903572 0.031942546
0.070105217 -0.043231551 0.032191575
0.071052425 -0.043097369 0.032264739
0.069014691 -0.041186187 0.032474041
0.07082586 -0.041596141 0.032868207
0.072376929 -0.041842911 0.034083009
0.072958656 -0.041530311 0.034530014
0.075580239 -0.04237074 0.034951925
0.076291457 -0.042131104 0.035039663
0.075370945 -0.041010663 0.034930378
0.077102602 -0.041344874 0.034384578
0.078636914 -0.041565228 0.034145683
0.07892061 -0.041127644 0.034145683
0.082360931 -0.042324368 0.0339728
0.082163334 -0.041644432 0.034069985
0.082040623 -0.041020311 0.033370525
0.086132325 -0.042491946 0.033655196
0.085146807 -0.041453052 0.033674657
0.085595764 -0.041130435 0.033802509
0.087875955 -0.041684747 0.034555316
0.08923462 -0.041793428 0.034520656
0.089354791 -0.04132659 0.034743071
0.090607092 -0.041388426 0.034853816
0.092743717 -0.041847777 0.035088658
0.092569679 -0.041266002 0.035490751
0.095572963 -0.042097613 0.035226524
0.094993964 -0.041350313 0.035699159
0.096759662 -0.041629154 0.035196513
0.098311119 -0.041810475 0.034945339
0.099494062 -0.04183273 0.034766644
0.101006 -0.041991256 0.034513324
0.10151364 -0.041733384 0.03460595
0.10270538 -0.041759331 0.034799933
0.10571834 -0.042517163 0.035020858
0.10532859 -0.041904923 0.034844637
0.10620133 -0.041802652 0.035112143
0.10829118 -0.042176563 0.035720229
0.10746253 -0.041417852 0.036114752
0.10989957 -0.041920453 0.036338687
0.11286075 -0.042610694 0.036361277
0.11147933 -0.041663993 0.036505312
0.11306002 -0.041832209 0.036570281
0.11525766 -0.042223103 0.036945313
0.11484092 -0.041657984 0.035819054
0.11743586 -0.042185694 0.03458643
0.11806227 -0.042002924 0.034446359
0.11828244 -0.041680481 0.033901185
0.12287775 -0.04289129 0.032899737
0.12216996 -0.04224569 0.031410724
0.12328535 -0.042236648 0.030205488
0.12665035 -0.042991403 0.028093159
0.12626939 -0.04247243 0.026638955
0.12706165 -0.042353883 0.025555372
0.13175352 -0.043525718 0.021944523
0.13371855 -0.043783952 0.019131631
0.13932563 -0.045219727 0.01812616
0.13910706 -0.044756185 0.016899586
0.14031833 -0.044756711 0.012827128
0.1426518 -0.045112103 0.010805815
0.1450298 -0.045475446 0.0067893565
0.036158595 -0.044886533 0.0052961111
0.036937099 -0.044324521 0.0091710687
0.037384693 -0.043414481 0.010549307
0.038443066 -0.043248452 0.012509644
0.039000738 -0.042546257 0.015905499
0.040684436 -0.043077637 0.019030154
0.041736014 -0.042928472 0.020685613
0.041941803 -0.041941803 0.02286011
0.043528412 -0.042351965 0.025988132
0.043868717 -0.041559838 0.028016776
0.044392347 -0.040977549 0.030403137
0.046385851 -0.041747268 0.031860977
0.046979021 -0.041249871 0.032630533
0.047959693 -0.04110831 0.033092946
0.049961977 -0.041828632 0.034464657
0.050158132 -0.041038472 0.035351574
0.051289454 -0.041031562 0.035645723
0.053077661 -0.041539039 0.03594929
0.05357844 -0.041038804 0.036423177
0.055794988 -0.041846242 0.036122859
0.055585146 -0.040838066 0.035427362
0.055985313 -0.040309425 0.034901977
0.058253273 -0.041119955 0.034566343
0.059436433 -0.041148297 0.033964366
0.059586026 -0.040473528 0.033359677
0.062178247 -0.041452162 0.032591701
0.063879944 -0.041812327 0.032182932
0.064190798 -0.041265514 0.032001942
0.065947533 -0.041651074 0.032225132
0.06710539 -0.041651621 0.03272596
0.068010181 -0.041497741 0.032776088
0.070154369 -0.042092621 0.033534825
0.070201553 -0.041430425 0.033977836
0.069577307 -0.040399726 0.034969121
0.071366966 -0.040781125 0.035379827
0.07166253 -0.040310174 0.0364182
0.07399375 -0.040981155 0.03567344
0.075503193 -0.041183561 0.03553158
0.075322874 -0.04047199 0.035731465
0.076133706 -0.04030608 0.035583526
0.076860502 -0.040101133 0.035568446
0.078635253 -0.040440988 0.035147458
0.080436364 -0.040784635 0.034847379
0.081006847 -0.040503424 0.034448504
0.082722075 -0.040794447 0.034466773
0.083378769 -0.040562645 0.033997118
0.084737167 -0.040673837 0.034300119
0.085618466 -0.040556118 0.034599692
0.08641459 -0.040401626 0.034638792
0.08751934 -0.040393542 0.035011053
0.089076802 -0.040591959 0.034733176
0.090969592 -0.040936317 0.034873426
0.090440609 -0.040195826 0.034921795
0.092452802 -0.040589035 0.035011053
0.092884883 -0.04028742 0.035192281
0.093816631 -0.040207125 0.035011053
0.0954533 -0.040427279 0.03506726
0.097741917 -0.040915221 0.034869224
0.097842559 -0.040486574 0.034760654
0.10124747 -0.04141942 0.034520447
0.099743195 -0.040345561 0.034220129
0.10145799 -0.040583197 0.0344145
0.1053651 -0.041682899 0.034313351
0.10403239 -0.040708326 0.034704179
0.10562467 -0.040886968 0.034704179
0.10825236 -0.041458353 0.034686029
0.10835657 -0.041061435 0.035100788
0.10910524 -0.040914465 0.03528288
0.11044908 -0.040991414 0.035021126
0.11026998 -0.040507339 0.034365743
0.11319387 -0.041161407 0.035039783
0.11703272 -0.042131778 0.03479445
0.11416859 -0.040693756 0.035474539
0.11715873 -0.041350137 0.034764111
0.11849777 -0.041416693 0.034639776
0.11751977 -0.04067992 0.034509063
0.12093035 -0.041461837 0.032799333
0.12069488 -0.04099071 0.03158921
0.12211704 -0.041086107 0.030655712
0.12496756 -0.041655853 0.028946608
0.12540381 -0.04141777 0.027788848
0.12521917 -0.04098082 0.026640713
0.12861121 -0.04171174 0.02192685
0.12916647 -0.041517794 0.019492805
0.13599008 -0.043324273 0.018516243
0.14018515 -0.044268992 0.016887277
0.13645588 -0.042716622 0.013168961
0.1406891 -0.043662138 0.011271477
0.14283378 -0.043948855 0.0083837807
0.14613099 -0.044582337 0.0059734285
0.038065813 -0.042977531 0.007403791
0.038595635 -0.042213976 0.010372669
0.039920051 -0.042339448 0.011516422
0.041030314 -0.042237088 0.013410717
0.04149463 -0.04149463 0.018504024
0.042458743 -0.041279331 0.020025462
0.043457564 -0.041108508 0.022548705
0.043595329 -0.040153593 0.024941564
0.045340132 -0.040689863 0.02805984
0.046729155 -0.040888011 0.029046297
0.047596917 -0.040631514 0.030680388
0.049084034 -0.040903363 0.031603366
0.049699914 -0.040453419 0.032646954
0.050986063 -0.040557094 0.032661617
0.051642474 -0.040166367 0.033234119
0.052716754 -0.040110573 0.033918291
0.0532212 -0.039632808 0.035237104
0.055078629 -0.040161498 0.035761237
0.0557556 -0.039825428 0.035644799
0.056730937 -0.039711654 0.035019785
0.058603302 -0.040217951 0.034779131
0.059224136 -0.039862398 0.03325808
0.060532603 -0.039974362 0.032787621
0.06333483 -0.041050356 0.032037079
0.062589191 -0.039829485 0.032296032
0.064483218 -0.040302012 0.032682419
0.066165917 -0.040628195 0.033367217
0.067404523 -0.040675141 0.033678472
0.068944275 -0.040899146 0.034215093
0.068582319 -0.040006354 0.03482604
0.069331922 -0.039780609 0.035520345
0.070778258 -0.039955467 0.035624117
0.070769288 -0.039316271 0.036066353
0.073371366 -0.040124964 0.036674678
0.074234262 -0.039972294 0.036929607
0.074500583 -0.039507885 0.037115961
0.074406244 -0.038868934 0.036634773
0.076299213 -0.039271653 0.035965323
0.077331021 -0.03922588 0.035725534
0.078456536 -0.039228268 0.035530686
0.080677122 -0.039770413 0.035052061
0.080762684 -0.039259639 0.034760803
0.082864307 -0.039729461 0.034767926
0.083678186 -0.039577521 0.034917742
0.084240466 -0.039312217 0.035040975
0.087300517 -0.040204186 0.035005003
0.087043837 -0.039565381 0.034805834
0.087311588 -0.039178275 0.034888387
0.089882433 -0.039821334 0.035042197
0.089508332 -0.039159894 0.035080075
0.092650242 -0.040034056 0.035017848
0.092998855 -0.039694633 0.034881949
0.093397699 -0.039384574 0.03471911
0.095112272 -0.039630111 0.034814864
0.096353076 -0.039674796 0.034678698
0.09587843 -0.039020292 0.034446418
0.1004886 -0.040426444 0.034268945
0.10092512 -0.04014067 0.034199476
0.10105944 -0.039742477 0.033543289
0.10300781 -0.04005859 0.033345968
0.10558951 -0.040611353 0.033569038
0.10523774 -0.040036093 0.033584893
0.1065939 -0.040115982 0.033628702
0.10753532 -0.040039748 0.033820122
0.10829733 -0.039899014 0.034112364
0.10914218 -0.039791416 0.034087628
0.10877934 -0.039250277 0.033926189
0.11237954 -0.040135548 0.034136117
0.11399361 -0.040300772 0.034037113
0.11358113 -0.039753396 0.035059154
0.11671506 -0.040445812 0.034630209
0.11866218 -0.040717416 0.034917802
0.11727831 -0.039851852 0.033564001
0.11988555 -0.040346097 0.0329023
0.11999216 -0.039997384 0.032057911
0.12279704 -0.040546194 0.031345129
0.12399194 -0.040558111 0.02959165
0.12581615 -0.040773749 0.028795242
0.12452208 -0.039984152 0.027166128
0.12690373 -0.040378459 0.024214447
0.12742095 -0.040177774 0.020257562
0.13012318 -0.040663492 0.01873365
0.13423614 -0.041577566 0.016476721
0.13265471 -0.040727325 0.012992442
0.13980146 -0.042548269 0.010707974
0.14201005 -0.042847861 0.0073437095
0.039580327 -0.042054098 0.0050750673
0.040275604 -0.041496079 0.0094466209
0.040803775 -0.040803775 0.011867076
0.042456195 -0.041243162 0.015000641
0.043220222 -0.040819101 0.015426725
0.043700922 -0.040157605 0.019446492
0.044714767 -0.040007949 0.022583425
0.045750372 -0.03988494 0.024367899
0.047120683 -0.040052582 0.025670946
0.048144862 -0.039925005 0.028205395
0.049003419 -0.039669435 0.028811306
0.049732111 -0.039323065 0.030616492
0.05086967 -0.03930838 0.030760229
0.051905178 -0.039217245 0.031100124
0.05265367 -0.038917933 0.031325698
0.05444885 -0.03938853 0.032872647
0.05480653 -0.038821291 0.03304556
0.057203747 -0.039692394 0.033551455
0.058486488 -0.039770812 0.033017397
0.058336053 -0.038890701 0.033131182
0.060004972 -0.03923402 0.031986177
0.061795883 -0.039642643 0.032065928
0.061711121 -0.03885515 0.032222837
0.063185044 -0.039059844 0.03251788
0.064413413 -0.039108146 0.033240795
0.065943494 -0.039334718 0.034167141
0.067531735 -0.039587568 0.034560174
0.067404613 -0.038843337 0.035082132
0.069014132 -0.039108012 0.035551935
0.070109032 -0.039077163 0.036145806
0.069763571 -0.038257442 0.036831826
0.071191877 -0.038421012 0.038051039
0.073076077 -0.038821667 0.038138747
0.072823569 -0.03809233 0.038486272
0.074978493 -0.038625285 0.037519753
0.076144196 -0.038640339 0.037763894
0.076366134 -0.038183067 0.037159294
0.078356557 -0.038610477 0.036305219
0.079921089 -0.038818818 0.035926431
0.080026582 -0.03832259 0.035503447
0.082859688 -0.039128184 0.035156697
0.082209177 -0.038289204 0.03519249
0.083870612 -0.038535144 0.03519249
0.084988236 -0.038527999 0.035085768
0.085367486 -0.038190719 0.034715682
0.087345205 -0.038568012 0.034108609
0.089213103 -0.038887762 0.034862131
0.089491986 -0.038515538 0.034737021
0.091165006 -0.038745128 0.034715682
0.093252204 -0.039142899 0.034745425
0.09279988 -0.038477998 0.034378499
0.094321184 -0.038637593 0.034468442
0.096181728 -0.038930699 0.034169823
0.096030548 -0.038412217 0.034419447
0.098248705 -0.03884251 0.034027636
0.099640451 -0.038939945 0.0337466
0.099941932 -0.038613927 0.033454686
0.10139512 -0.038735215 0.032572508
0.10264575 -0.038777288 0.032572508
0.10321109 -0.038562387 0.032645285
0.10497191 -0.038793966 0.032926261
0.10545824 -0.038554627 0.032947719
0.10843006 -0.039219383 0.033340484
0.11027744 -0.039467715 0.033390313
0.10768162 -0.038137242 0.033726096
0.11090235 -0.038872991 0.032854855
0.11209734 -0.038890913 0.03407532
0.11195093 -0.038447794 0.033190757
0.11511533 -0.039139211 0.032763809
0.11745759 -0.039540179 0.033270627
0.11516929 -0.038389761 0.032686144
0.11786442 -0.038906705 0.033499956
0.12002897 -0.039240241 0.032251507
0.12079325 -0.039114006 0.030028522
0.12446733 -0.039923482 0.029946506
0.12455514 -0.03957827 0.029253095
0.12649868 -0.039823659 0.02786991
0.12901279 -0.040242523 0.027446121
0.12677681 -0.039185561 0.022875428
0.12714952 -0.038946699 0.019982278
0.12982313 -0.039410591 0.016722471
0.13105609 -0.039432805 0.012715399
0.13464911 -0.040158506 0.010224015
0.13780244 -0.040741589 0.0075757205
0.041725367 -0.040498149 0.0081345737
0.042169638 -0.039759945 0.012424529
0.042713527 -0.039154064 0.014365196
0.044611108 -0.039788283 0.016079217
0.045695465 -0.039682906 0.019181609
0.046172131 -0.039068725 0.021490753
0.047487624 -0.039177291 0.02294302
0.048829224 -0.039301571 0.025102198
0.048718777 -0.038279038 0.026187748
0.050360892 -0.038649056 0.026611388
0.051382251 -0.038536686 0.02706933
0.05202578 -0.03815224 0.027844906
0.054069683 -0.03878912 0.028097928
0.054532044 -0.038288455 0.029102117
0.0564082 -0.038780637 0.029973984
0.059007257 -0.039739579 0.030222356
0.059509549 -0.039276302 0.029947758
0.060366292 -0.03906054 0.029973984
0.061106049 -0.038778838 0.031080306
0.06162044 -0.038367443 0.030970573
0.063535713 -0.038827378 0.032214791
0.064378403 -0.038627043 0.033015668
0.065371096 -0.038522251 0.03407231
0.066835359 -0.038694154 0.035236388
0.066773161 -0.037991628 0.036035448
0.067996204 -0.038031772 0.036225945
0.069004156 -0.037952285 0.036123574
0.069525361 -0.037612081 0.036854237
0.070619926 -0.037588026 0.037596285
0.071921319 -0.037673071 0.038213462
0.072225556 -0.037241302 0.038834184
0.073935464 -0.037536468 0.039002866
0.07600379 -0.038001895 0.039421469
0.075214595 -0.037045997 0.038515538
0.077576987 -0.037647657 0.037506193
0.07854002 -0.037562616 0.036630929
0.078593753 -0.037051339 0.036317915
0.080969594 -0.037633754 0.034871399
0.082156561 -0.037655089 0.035142928
0.083427474 -0.037713788 0.034293115
0.084976375 -0.037894871 0.034199804
0.085227586 -0.037500136 0.033936411
0.085459739 -0.037107516 0.033382237
0.08780276 -0.037629753 0.033275396
0.089176938 -0.037728705 0.033434421
0.089672782 -0.037458248 0.033876747
0.092677534 -0.038229484 0.033987075
0.091777183 -0.037390705 0.033710718
0.093721874 -0.037717339 0.033501536
0.094490923 -0.037568681 0.033447087
0.095777035 -0.037626695 0.033034861
0.097826302 -0.037979625 0.033221036
0.099839076 -0.038310342 0.032916516
0.098988712 -0.037547443 0.032916516
0.10174577 -0.038154665 0.032278776
0.10219627 -0.037892997 0.031163365
0.10298439 -0.037760943 0.030592561
0.10468397 -0.037962317 0.03072989
0.10627975 -0.038122084 0.030879974
0.10627152 -0.037709251 0.031132638
0.10963093 -0.038487453 0.031600088
0.10930959 -0.037970699 0.031317294
0.11158735 -0.038358148 0.031380534
0.11011073 -0.037460353 0.031381041
0.11036371 -0.037163291 0.031460971
0.11397383 -0.037991274 0.032237858
0.11539483 -0.038080294 0.032458991
0.11440828 -0.037380923 0.032587945
0.11755111 -0.038031239 0.032326281
0.11779913 -0.037741471 0.030987322
0.1192512 -0.037839323 0.030215204
0.12184126 -0.038292967 0.029558003
0.1234756 -0.038440514 0.029130429
0.12453782 -0.038408861 0.028500795
0.12782246 -0.039056864 0.027303576
0.12734731 -0.038554691 0.023869008
0.13063888 -0.039191663 0.020737976
0.12921186 -0.038414337 0.019220203
0.13037714 -0.038414694 0.014777124
0.13373622 -0.039055709 0.010284185
0.13473764 -0.039003 0.0063474178
0.041980624 -0.038382284 0.0066675842
0.043769497 -0.03890622 0.011240125
0.044921234 -0.038850799 0.014130294
0.045448884 -0.038272746 0.015284121
0.046839666 -0.038432546 0.016856849
0.047475714 -0.037980571 0.019758016
0.048177991 -0.037602335 0.022064269
0.050099254 -0.038170859 0.023307115
0.050225638 -0.03737722 0.023683101
0.05081461 -0.036956083 0.023754507
0.053241972 -0.037860956 0.023815751
0.053877734 -0.037480164 0.02437079
0.055673499 -0.037905362 0.026561588
0.057570666 -0.038380444 0.028154403
0.05823658 -0.038032051 0.028276891
0.061324615 -0.039247751 0.028385311
0.061831575 -0.038796283 0.029490232
0.059591137 -0.036671471 0.030056834
0.061697681 -0.037251431 0.030811071
0.064305983 -0.03810725 0.032397658
0.063870542 -0.037161041 0.033473283
0.065692663 -0.037538666 0.034644395
0.066130497 -0.037125893 0.035841107
0.066227704 -0.036539424 0.036251545
0.068092719 -0.036931641 0.037069887
0.068653725 -0.03661532 0.037510008
0.069959663 -0.036700148 0.038068414
0.071214318 -0.036755778 0.038193047
0.072012879 -0.03657797 0.039064705
0.073736355 -0.036868177 0.038773328
0.074303672 -0.036580268 0.039110243
0.074432202 -0.03608834 0.0389525
0.076085351 -0.036339272 0.038743675
0.077732846 -0.036580164 0.03706038
0.078179948 -0.036257368 0.036064625
0.080065638 -0.036601432 0.035546094
0.081814021 -0.036873925 0.034760207
0.082550265 -0.03668901 0.034586698
0.083782688 -0.036726657 0.034281254
0.084741853 -0.036645126 0.033687443
0.086441584 -0.036881745 0.033116519
0.086885139 -0.036583219 0.032466203
0.087660506 -0.03643034 0.032363355
0.089700311 -0.036800127 0.032363355
0.090864122 -0.036805719 0.032715261
0.090884745 -0.036353897 0.032643259
0.093902595 -0.03709732 0.03262198
0.094604053 -0.036918655 0.03204146
0.09419436 -0.036315899 0.031683981
0.097496741 -0.037141614 0.03162542
0.099165142 -0.037332758 0.03162542
0.097666405 -0.036340985 0.031474173
0.1002074 -0.036857896 0.031130314
0.10215515 -0.037147328 0.031154156
0.10347342 -0.037203927 0.030511081
0.10341339 -0.036769204 0.030006528
0.10566384 -0.037156515 0.029619277
0.10508344 -0.03655076 0.02974236
0.10819962 -0.037229978 0.030166
0.10827045 -0.036858026 0.030960679
0.10842571 -0.036522344 0.031389177
0.11347748 -0.037825827 0.030923426
0.10943347 -0.036101766 0.031069219
0.11285406 -0.036850303 0.031529278
0.11440233 -0.036978532 0.031999826
0.1129057 -0.036129821 0.031949162
0.11801509 -0.037390918 0.030401826
0.11920898 -0.037398897 0.030133814
0.11671762 -0.036261786 0.029655188
0.12083527 -0.037180081 0.028847277
0.12108056 -0.036900744 0.027955204
0.12401989 -0.037439965 0.027394235
0.12649848 -0.037831321 0.026226163
0.12771517 -0.037841532 0.023837209
0.1291177 -0.03790611 0.021493793
0.1324372 -0.038527187 0.019834369
0.13367938 -0.038538199 0.01610288
0.13347495 -0.038135696 0.011604369
0.13376357 -0.037879948 0.006605804
0.045026679 -0.037725054 0.0093443096
0.046359714 -0.037819766 0.012319803
0.0468514 -0.037240855 0.015497535
0.048237506 -0.037384067 0.016019046
0.049259506 -0.037244994 0.017884821
0.049500778 -0.036536288 0.018197179
0.05087978 -0.036680773 0.01826033
0.052470308 -0.036967717 0.019349515
0.053010192 -0.036518134 0.021477103
0.054615941 -0.036806393 0.022289693
0.056697831 -0.037396442 0.023381293
0.056562431 -0.036529902 0.024968237
0.059345379 -0.037545037 0.025196135
0.059337348 -0.036789156 0.026629001
0.059688035 -0.036280964 0.028166473
0.061552707 -0.036694884 0.029055834
0.061982721 -0.036254045 0.02989912
0.062439874 -0.035845112 0.031512886
0.064681001 -0.036456563 0.03264308
0.064560056 -0.035738602 0.034940302
0.065789938 -0.035780493 0.035631388
0.067837358 -0.0362579 0.036693215
0.067793854 -0.035620499 0.036898166
0.068310149 -0.035293575 0.037802607
0.069908239 -0.035527136 0.038401663
0.071513161 -0.035756581 0.038491815
0.072024323 -0.035440538 0.038762331
0.073412783 -0.035559319 0.03925401
0.073908709 -0.035248771 0.039408714
0.075901121 -0.035650525 0.039172173
0.0771771 -0.035708807 0.038024515
0.077455021 -0.03531038 0.037475348
0.078146897 -0.035109475 0.036208898
0.080578528 -0.035684776 0.035374314
0.080296941 -0.035059229 0.033999532
0.083189666 -0.035817772 0.033816189
0.083949111 -0.035649624 0.033491939
0.084639914 -0.035457261 0.032986045
0.086873047 -0.035907526 0.032804698
0.087376811 -0.035640541 0.032492101
0.088863671 -0.035776284 0.032419771
0.090465792 -0.035954352 0.032175809
0.091043741 -0.035726026 0.032161981
0.092945985 -0.036016569 0.031818867
0.093496121 -0.035782464 0.031618327
0.093874484 -0.035489134 0.03133136
0.095844276 -0.035797261 0.030899704
0.096619807 -0.035657309 0.030783325
0.096646123 -0.035247412 0.03054288
0.099655278 -0.035922252 0.03053093
0.10107297 -0.036014505 0.029868394
0.10192993 -0.035907134 0.029779553
0.10427317 -0.036319867 0.029069245
0.10251427 -0.03531047 0.028755814
0.10503643 -0.035781641 0.028394103
0.10811707 -0.03643075 0.028079718
0.10829358 -0.036097858 0.028299361
0.10751192 -0.035456061 0.028543025
0.11136714 -0.036340855 0.028900325
0.11008015 -0.035546716 0.028997511
0.11276679 -0.036038872 0.028856784
0.11355053 -0.035919044 0.029030532
0.11378148 -0.035628542 0.029405951
0.11625925 -0.036040369 0.029459983
0.11803905 -0.036229808 0.028784662
0.11717857 -0.035613094 0.028330058
0.11947242 -0.03595772 0.028135151
0.12127718 -0.03614993 0.027011633
0.12192274 -0.03599624 0.025123596
0.12464461 -0.03645267 0.022516727
0.1259692 -0.036495749 0.021712184
0.12942503 -0.037149779 0.021581829
0.13329129 -0.037908535 0.020353079
0.13460314 -0.037933614 0.01579079
0.13585058 -0.037940249 0.012567997
0.13826139 -0.038268778 0.007204622
0.13450608 -0.036899898 0.0050222874
0.04750536 -0.03750423 0.0090266764
0.04695512 -0.036119323 0.01224643
0.048329294 -0.03624697 0.013879091
0.049164623 -0.035974115 0.016887665
0.049943458 -0.035673898 0.017056942
0.051783729 -0.036128182 0.017492235
0.053032428 -0.036158472 0.017663658
0.053317834 -0.035545222 0.017675489
0.055376012 -0.03611479 0.018156976
0.056560777 -0.036102623 0.019822538
0.058409661 -0.036506038 0.020116776
0.059537575 -0.036451578 0.020985395
0.059975032 -0.035985019 0.023840636
0.060652874 -0.035678163 0.025282353
0.06161198 -0.035545375 0.026554435
0.060355328 -0.034163393 0.029372513
0.063398547 -0.035221417 0.031112731
0.064577587 -0.03522414 0.03262648
0.065502867 -0.035090819 0.034152955
0.066140406 -0.034810741 0.036009073
0.066752248 -0.034527026 0.036799908
0.067782804 -0.034465831 0.037110448
0.069521487 -0.034760743 0.037577093
0.069922566 -0.034388147 0.038662821
0.071434319 -0.034564994 0.038811594
0.07309372 -0.034806535 0.039206237
0.072071806 -0.033783659 0.038831234
0.075406224 -0.034802873 0.039000601
0.076793842 -0.03490629 0.038630903
0.075541303 -0.033824462 0.037064284
0.077781565 -0.034315396 0.036380619
0.079448022 -0.034542616 0.036132276
0.079439044 -0.034045305 0.034953713
0.081753962 -0.034543928 0.034420997
0.083370619 -0.034737758 0.033884495
0.084023088 -0.034530036 0.033293992
0.085797176 -0.034782637 0.032514513
0.085753679 -0.034301471 0.032141417
0.08801809 -0.034743983 0.031597048
0.089503855 -0.03487163 0.03094539
0.090633288 -0.034858957 0.03116706
0.090731464 -0.034454986 0.03094539
0.093796648 -0.035173744 0.030611545
0.09280844 -0.034373496 0.030688524
0.096488856 -0.035300799 0.030240327
0.09569516 -0.034588613 0.029878408
0.096093148 -0.034318984 0.029810131
0.098419584 -0.034736324 0.029674977
0.10083354 -0.035174493 0.029419422
0.10020182 -0.034552354 0.029264331
0.10310817 -0.035150509 0.028753459
0.10428316 -0.035151627 0.02837497
0.10537199 -0.035123996 0.027924329
0.10708049 -0.035301261 0.026736766
0.10713267 -0.034934565 0.026131779
0.1071279 -0.034557387 0.026212603
0.1097371 -0.035022479 0.026417732
0.11107918 -0.035077635 0.027039617
0.11387512 -0.035585973 0.027266443
0.11447863 -0.035405762 0.027059227
0.11313801 -0.034634084 0.02780968
0.11600704 -0.035153646 0.027669877
0.11698607 -0.035095822 0.026656359
0.1162715 -0.03453609 0.025957137
0.12155213 -0.035750628 0.025279582
0.12020758 -0.035011914 0.02327773
0.12115385 -0.034948226 0.022629589
0.12359987 -0.035314251 0.021728873
0.12465644 -0.035280123 0.019440949
0.1270964 -0.035634503 0.017698467
0.13225259 -0.036736831 0.014539212
0.13496351 -0.03714592 0.011654168
0.13259147 -0.036161311 0.0080450773
0.13665809 -0.036934618 0.006647557
0.04896177 -0.035497282 0.0097955167
0.049509481 -0.035018902 0.010299325
0.051439825 -0.035517976 0.011981964
0.052176479 -0.035188787 0.015732408
0.052810393 -0.034806851 0.017129928
0.054200228 -0.034929037 0.016684294
0.055185799 -0.034791049 0.017593712
0.057464741 -0.035456967 0.017948717
0.058109585 -0.035107873 0.019055039
0.058676977 -0.03472719 0.019866288
0.061084032 -0.03542874 0.020214409
0.061629556 -0.035044257 0.022181064
0.059791297 -0.033345144 0.025228411
0.062538758 -0.034219321 0.027315021
0.065299392 -0.035068192 0.03042978
0.063560478 -0.033513706 0.032002062
0.065633871 -0.033988968 0.033604264
0.066187754 -0.033674471 0.035130084
0.066863418 -0.033431709 0.036068022
0.069230005 -0.034028307 0.037014842
0.069567658 -0.033624366 0.037365526
0.06962771 -0.0331017 0.037579983
0.071758382 -0.033564404 0.038265526
0.072888002 -0.033551618 0.03925705
0.073461622 -0.033287298 0.038910955
0.074885197 -0.033410322 0.038309246
0.075725183 -0.033273187 0.037915856
0.077316746 -0.03346546 0.037365288
0.078630619 -0.033533648 0.036816567
0.07909067 -0.033241004 0.035948336
0.08152701 -0.033775475 0.035219371
0.08264786 -0.033757575 0.034577399
0.082561947 -0.033254117 0.034368962
0.085466646 -0.033952504 0.032581598
0.084975645 -0.033301268 0.031133801
0.086404257 -0.033409648 0.031078994
0.089341424 -0.03409081 0.030457824
0.088451996 -0.033313088 0.030026197
0.090856217 -0.033779874 0.029995054
0.093078315 -0.03416799 0.029823929
0.092246287 -0.033439279 0.029732853
0.093663946 -0.033534005 0.029349715
0.095748328 -0.033862215 0.029656976
0.096209273 -0.033615287 0.029016405
0.097084261 -0.033517186 0.028597265
0.098605983 -0.033642042 0.029228657
0.09913601 -0.033429582 0.028814226
0.10169309 -0.033897698 0.02778846
0.10239974 -0.033745367 0.027921736
0.10450435 -0.034051981 0.027159959
0.10732426 -0.034582261 0.026228756
0.10567299 -0.03367601 0.025555491
0.1087054 -0.034265831 0.024323344
0.11042857 -0.034434717 0.024257541
0.11149842 -0.034398448 0.023851305
0.11201313 -0.034193482 0.024238646
0.11564334 -0.034933925 0.023737431
0.1160287 -0.034688994 0.022858411
0.11611897 -0.034361739 0.022694111
0.11788605 -0.034532279 0.022049904
0.11618646 -0.033694074 0.022092551
0.11978605 -0.034394015 0.022316366
0.12191214 -0.034661293 0.021680266
0.12182351 -0.034299824 0.020234644
0.1234594 -0.034426179 0.018965989
0.12406275 -0.034264952 0.014902025
0.1264725 -0.034600966 0.012504697
0.13056652 -0.035387188 0.0087313354
0.13240974 -0.035554465 0.0073432028
0.13305143 -0.035399001 0.0066757798
0.05146163 -0.034307752 0.0084371567
0.051946074 -0.033825349 0.01091969
0.052966584 -0.033706009 0.011452496
0.055188462 -0.034339488 0.011568844
0.055449273 -0.033751734 0.012680113
0.057460669 -0.03423189 0.013440341
0.057736576 -0.033679668 0.016750008
0.060534425 -0.034591097 0.017758727
0.061376054 -0.03437059 0.018210709
0.059679568 -0.032765251 0.019922525
0.062012229 -0.0333912 0.021240205
0.063828066 -0.03372049 0.02611661
0.063637882 -0.032997422 0.027758479
0.065658152 -0.033425968 0.030666769
0.065811783 -0.032905892 0.032594115
0.066492632 -0.032663047 0.033538371
0.068782859 -0.03320552 0.033643872
0.067723885 -0.032140147 0.034346938
0.068792462 -0.032103151 0.036558062
0.070611499 -0.032411836 0.037335396
0.07151062 -0.032295119 0.037699968
0.072549105 -0.032244045 0.038654685
0.07444638 -0.032570291 0.03820765
0.073902369 -0.031834867 0.037468255
0.077914722 -0.033054732 0.037012666
0.077399954 -0.032346249 0.035833538
0.078531154 -0.032336358 0.035323977
0.079934724 -0.03243728 0.034707129
0.081605382 -0.032642152 0.034046292
0.081755862 -0.032241747 0.032978684
0.083622977 -0.032520048 0.032842994
0.084594063 -0.032447036 0.032183111
0.085178189 -0.032229584 0.031514138
0.087251917 -0.03257405 0.030928433
0.088547952 -0.03262293 0.030285835
0.089902155 -0.032691691 0.03003487
0.091349207 -0.032792024 0.030147523
0.091272131 -0.032349616 0.029896557
0.09444885 -0.033057097 0.029812574
0.094412304 -0.032636352 0.029257476
0.094806597 -0.032372985 0.028936863
0.096925825 -0.032697868 0.028554529
0.098640859 -0.032880288 0.0281277
0.098062053 -0.032302793 0.02739808
0.10123026 -0.03295869 0.027292788
0.1020851 -0.032854974 0.026983738
0.10344038 -0.03291285 0.026859879
0.10593215 -0.033326969 0.026134729
0.10502106 -0.032673217 0.025778919
0.10641751 -0.032743849 0.024860591
0.10986742 -0.033437911 0.022849262
0.10826231 -0.032595105 0.022090286
0.1098232 -0.032713294 0.021972746
0.1136336 -0.033492006 0.022212863
0.11273379 -0.03288069 0.021955669
0.11787666 -0.034026254 0.020598471
0.12050864 -0.03443104 0.020211786
0.11925453 -0.033728555 0.018898994
0.12213299 -0.034197237 0.017686784
0.12464834 -0.034555975 0.015202463
0.12339789 -0.033873931 0.012886405
0.12532319 -0.034068443 0.013035834
0.12391734 -0.033362363 0.010294735
0.12435155 -0.033160415 0.0096457303
0.12898704 -0.034072049 0.0081076026
0.13229662 -0.034619674 0.0050316751
0.054993443 -0.032996066 0.0089755058
0.056667645 -0.033261444 0.0096614361
0.057604179 -0.033091761 0.011487424
0.059681036 -0.033570584 0.012509614
0.061101839 -0.033668362 0.013972431
0.061477166 -0.033197671 0.014371485
0.061848626 -0.032743391 0.018047631
0.063006833 -0.032715086 0.019177139
0.063160352 -0.032176025 0.02228865
0.064973436 -0.032486718 0.026629895
0.064905964 -0.031862929 0.028771639
0.066239364 -0.031936835 0.031383276
0.067818463 -0.032124538 0.032587111
0.068347327 -0.031816859 0.03332743
0.068430148 -0.031315491 0.033021778
0.069611706 -0.031325266 0.034330279
0.070558332 -0.031230738 0.03547734
0.072069004 -0.031384889 0.036386877
0.074420981 -0.031894706 0.036461413
0.073639609 -0.03106671 0.037221164
0.075234003 -0.031251047 0.03650257
0.07752385 -0.031714302 0.034874141
0.076991357 -0.031026369 0.033982396
0.079791732 -0.031682011 0.033591479
0.079912096 -0.031269949 0.033208251
0.080443583 -0.031028239 0.032693923
0.082644373 -0.03142814 0.032183051
0.083625294 -0.031359486 0.03198114
0.084570169 -0.031279378 0.031607389
0.08607199 -0.031404644 0.030745596
0.086984769 -0.031314518 0.030625165
0.087371841 -0.031039996 0.02977547
0.090867706 -0.031862702 0.029453546
0.09104839 -0.031516753 0.029344231
0.093131021 -0.031829588 0.029197186
0.093963675 -0.031712741 0.029217005
0.094535865 -0.031511955 0.028812915
0.096547239 -0.031789944 0.028169006
0.09811718 -0.031917639 0.027644455
0.097711623 -0.031407308 0.026691675
0.098956682 -0.031433299 0.026765138
0.1026831 -0.032237716 0.026134372
0.10190652 -0.031626161 0.02573356
0.10465834 -0.032111082 0.025766432
0.10555894 -0.032023497 0.023881555
0.10590692 -0.031772077 0.023530811
0.1075723 -0.031917058 0.022685111
0.10906696 -0.032008782 0.022407144
0.10924249 -0.031715564 0.020921201
0.11190643 -0.032143336 0.019989103
0.11190712 -0.03180518 0.018906713
0.11601951 -0.032630488 0.017901689
0.11881018 -0.033070877 0.015654564
0.11860862 -0.032677885 0.015174925
0.1220805 -0.033294681 0.01408872
0.12603815 -0.0340303 0.013213515
0.12161334 -0.032510497 0.011562288
0.12446709 -0.032947171 0.010401249
0.12694322 -0.033276375 0.0093458891
0.1259817 -0.032706786 0.0083721876
0.12776531 -0.032853935 0.0058275461
0.057886686 -0.032022424 0.0060817003
0.059252053 -0.032094862 0.010482371
0.06115308 -0.032448571 0.012049675
0.062620968 -0.0325629 0.013433605
0.062743716 -0.031986993 0.015424579
0.062979609 -0.031489804 0.017309546
0.064743198 -0.031760816 0.020508081
0.066308379 -0.031926256 0.023280889
0.064757816 -0.030612787 0.027949452
0.067622922 -0.031396355 0.029531151
0.067943536 -0.030991789 0.030930221
0.068082839 -0.030519895 0.031897008
0.069833048 -0.030773886 0.032361984
0.070003718 -0.030334944 0.03332749
0.070405543 -0.030008918 0.033017904
0.073183164 -0.030689714 0.033427149
0.074191101 -0.03061855 0.034187406
0.075924985 -0.030844525 0.03538847
0.076998949 -0.030799579 0.034689009
0.076930165 -0.030305823 0.034005761
0.077935375 -0.030243577 0.033165753
0.08005891 -0.030610761 0.032821089
0.078894511 -0.029728366 0.032512456
0.081201755 -0.030160651 0.031929612
0.083834708 -0.030700035 0.031271696
0.083981201 -0.030326545 0.031174868
0.085959308 -0.030615645 0.030737817
0.087634712 -0.030790573 0.030092031
0.087507755 -0.030336022 0.028906673
0.089212038 -0.030519908 0.02841264
0.091159821 -0.030781239 0.027821779
0.091068998 -0.030356331 0.027794659
0.09272673 -0.030517658 0.027399838
0.092502788 -0.030063406 0.027274162
0.095505469 -0.030656077 0.027075768
0.098017797 -0.031078814 0.026488066
0.09687113 -0.030345172 0.026488066
0.09961243 -0.030832419 0.025932014
0.10001779 -0.030593676 0.025056809
0.10030253 -0.030324021 0.024040252
0.10310023 -0.030811561 0.023306429
0.10337723 -0.030543273 0.023113608
0.10664107 -0.031153571 0.022706747
0.10798524 -0.031195737 0.022394955
0.10784486 -0.030812819 0.021312445
0.10914019 -0.030843968 0.019324452
0.11214291 -0.031351779 0.018224299
0.11133426 -0.030794585 0.016944498
0.11247271 -0.030782005 0.015585482
0.11589649 -0.031388633 0.014768451
0.11799072 -0.031626377 0.014412642
0.12102965 -0.032109905 0.013374597
0.12096394 -0.031768307 0.01229471
0.12203156 -0.031728208 0.010065019
0.12386545 -0.031886157 0.008926779
0.12482466 -0.031818051 0.0063516796
0.12719455 -0.032107364 0.0055156648
0.13140024 -0.032850061 0.0050100386
0.059139326 -0.030801732 0.0053275526
0.062344912 -0.03180863 0.0076246262
0.064879715 -0.032439858 0.011797011
0.063049473 -0.030906605 0.01382947
0.06507922 -0.031288087 0.014814168
0.064564563 -0.03045498 0.016687721
0.064707935 -0.029957378 0.01931572
0.066468567 -0.030212983 0.021862358
0.066427395 -0.029655086 0.025862485
0.066995367 -0.029383931 0.02849865
0.068122268 -0.029363047 0.029633433
0.068404213 -0.028984837 0.030284047
0.069878206 -0.029115919 0.030802071
0.07196831 -0.029495208 0.031538546
0.073292427 -0.029553397 0.031283945
0.074267983 -0.029471422 0.031586051
0.075902872 -0.029649561 0.031233996
0.075963974 -0.029216914 0.03064391
0.07771302 -0.02943675 0.030220151
0.079241157 -0.029567594 0.029389709
0.079120509 -0.029088423 0.02944392
0.080511741 -0.029170919 0.02867654
0.083194554 -0.02971234 0.027863055
0.08262185 -0.0290922 0.027572691
0.085407369 -0.029655335 0.026451916
0.084980324 -0.029102851 0.026329637
0.087897509 -0.029695105 0.026625752
0.08933726 -0.029779086 0.026329547
0.089054108 -0.029294115 0.025891453
0.089843377 -0.029169926 0.026127517
0.09236259 -0.029603394 0.025849909
0.091878034 -0.029075328 0.025452763
0.095592238 -0.029872574 0.025726914
0.096396938 -0.029752143 0.025626749
0.09533181 -0.029064575 0.024861723
0.098422624 -0.029645368 0.024514586
0.099508613 -0.029615659 0.024286389
0.098894536 -0.029086629 0.023293436
0.10174888 -0.029578162 0.023246795
0.10384762 -0.02984127 0.023409337
0.10437905 -0.029653139 0.022285223
0.10674303 -0.029983997 0.022136599
0.10711454 -0.029754039 0.020902872
0.10878721 -0.029886598 0.019300789
0.11251263 -0.030574085 0.017555147
0.11232095 -0.030193804 0.016469091
0.11188231 -0.029755935 0.015924156
0.11478917 -0.030207677 0.015338093
