ply
format ascii 1.0
comment PCL generated
element vertex 1275
property float x
property float y
property float z
element camera 0
property float view_px
property float view_py
property float view_pz
property float x_axisx
property float x_axisy
property float x_axisz
property float y_axisx
property float y_axisy
property float y_axisz
property float z_axisx
property float z_axisy
property float z_axisz
property float focal
property float scalex
property float scaley
property float centerx
property float centery
property int viewportx
property int viewporty
property float k1
property float k2
end_header
0.022219732 -0.15659621 0.0074747205
0.023273613 -0.15656795 0.007521987
0.023959264 -0.15417264 0.0072202384
0.025295166 -0.15598686 0.007076472
0.026263118 -0.15547766 0.0070780814
0.02740431 -0.15599376 0.0072929263
0.028265206 -0.1549352 0.0072929263
0.029238321 -0.15454541 0.0066952705
0.030488713 -0.15559757 0.0067592561
0.031532895 -0.15556228 0.006513834
0.032348938 -0.15444009 0.0068983436
0.033838999 -0.15650538 0.006631881
0.034752406 -0.15585929 0.0065377951
0.035236042 -0.15338041 0.006403178
0.036918025 -0.15611051 0.0065795183
0.037937585 -0.15596564 0.0064592063
0.038549289 -0.15419716 0.0064798295
0.040032566 -0.1559163 0.0061331689
0.040804915 -0.15484942 0.0064817965
0.04217916 -0.15606289 0.006367296
0.04299536 -0.15520276 0.0065006316
0.043994132 -0.15502694 0.0061992705
0.04499533 -0.15486765 0.006206274
0.046733357 -0.15719402 0.0062631071
0.047230188 -0.15533483 0.0062675476
0.048267104 -0.15529417 0.0060817003
0.049646839 -0.15633473 0.0060501695
0.050301962 -0.15509772 0.0059673488
0.051662166 -0.15604083 0.0060715973
0.052570015 -0.15560725 0.0059294403
0.053036742 -0.15391055 0.0059022307
0.054832175 -0.15606081 0.0056399107
0.055399414 -0.15470025 0.0055003464
0.056074344 -0.15368524 0.0050551891
0.057306763 -0.15420729 0.0050817728
-0.068614051 -0.15517332 0.0058639646
-0.067579545 -0.15522176 0.005851686
-0.0656415 -0.15316351 0.0063053668
-0.065568894 -0.15546174 0.006223619
-0.064722382 -0.15597034 0.005477041
-0.063445516 -0.15544151 0.0051169991
-0.056161407 -0.16187701 0.0050189495
-0.053134657 -0.15621589 0.0056111515
-0.052086789 -0.15626037 0.0062253177
-0.051004332 -0.15620077 0.0060835481
-0.050255239 -0.15718128 0.0065461695
-0.048523206 -0.15506329 0.0067297518
-0.047812834 -0.15618859 0.0067622662
-0.0465381 -0.15547957 0.0072592497
-0.044668004 -0.15270224 0.0071635544
-0.044430014 -0.15550505 0.0074454844
-0.043550786 -0.1561455 0.0074142814
-0.042177211 -0.15500125 0.0075325668
-0.041102439 -0.15492457 0.0076245964
-0.040131003 -0.15524362 0.0075304508
-0.038825076 -0.15425098 0.0076622069
-0.038195685 -0.15596572 0.0076124966
-0.036665726 -0.15399605 0.007906884
-0.035868768 -0.15507968 0.008264482
-0.035047274 -0.15611967 0.0080223382
-0.033568788 -0.15420662 0.0081657171
-0.032869861 -0.15586676 0.0082324445
-0.031873334 -0.15617934 0.0081987977
-0.030258937 -0.15338151 0.0082454979
-0.029646562 -0.15564445 0.0084482729
-0.028525667 -0.15530641 0.0083850622
-0.027085148 -0.15313525 0.0083205104
-0.026379475 -0.15511131 0.0083740056
-0.025069628 -0.15355147 0.0081896782
-0.024220429 -0.15480015 0.007784754
-0.023368392 -0.15614335 0.0073294938
-0.021974185 -0.15381931 0.0072176456
-0.021050319 -0.15471984 0.0070275962
-0.020223675 -0.15646738 0.0071592629
-0.018824482 -0.15373328 0.007014811
-0.017788496 -0.15381816 0.0071851611
-0.016915124 -0.1554077 0.0072175562
-0.015662452 -0.15349203 0.0072661936
-0.014855243 -0.15598005 0.007250011
-0.013750847 -0.15549035 0.0074935555
-0.012550583 -0.15374465 0.0073857903
-0.011684244 -0.15614398 0.007783711
-0.010517281 -0.15460402 0.0073533356
-0.0094273863 -0.15398064 0.0079244971
-0.0084962165 -0.15611798 0.0080541074
-0.007380507 -0.15499064 0.0081909895
-0.0063126064 -0.15465885 0.0080491304
-0.0053254641 -0.15656865 0.0081168413
-0.0041883877 -0.15392324 0.0082546473
-0.0031397643 -0.15384845 0.0084651411
-0.0021181821 -0.15568638 0.0084651411
-0.0010496166 -0.15429364 0.0086310804
0 -0.15389578 0.0086310804
0.0010530332 -0.15479587 0.0086345077
0.002088259 -0.15348703 0.0086107254
0.0031834117 -0.15598717 0.0085567534
0.0042135976 -0.15484971 0.0084174871
0.0052070748 -0.153088 0.0083045065
0.0063744499 -0.15617402 0.0080496967
0.0074101905 -0.155614 0.0078401566
0.0084768999 -0.15576303 0.0083132386
0.0095121888 -0.15536575 0.0078735054
0.010519047 -0.15462999 0.0078514814
0.011550813 -0.15436086 0.0079792738
0.012754072 -0.15623738 0.0080401301
0.013643693 -0.15427868 0.0080873668
0.014788484 -0.15527909 0.0080159307
0.01576223 -0.15446986 0.0077742338
0.016600572 -0.15251775 0.0077133179
0.018012615 -0.15575615 0.0074588358
0.019100955 -0.15599114 0.0075294077
0.019812247 -0.15328424 0.0074931383
0.02092088 -0.15376846 0.0077115893
0.022248447 -0.15573913 0.0071791708
0.022849469 -0.15267599 0.0070283711
0.023978295 -0.15325257 0.0067872405
0.025072452 -0.15356877 0.0067090392
0.026104597 -0.15349504 0.0068779588
0.027722536 -0.15673895 0.0066772401
0.028162232 -0.1533277 0.0067098737
0.029536309 -0.15506563 0.0068446696
0.030727552 -0.15575691 0.0065927505
0.031400982 -0.1538648 0.0065247715
0.032649528 -0.15482195 0.006555289
0.033758599 -0.15507856 0.0065594614
0.03402029 -0.15154493 0.0066402256
0.035882741 -0.15514007 0.0065594614
0.036548626 -0.15350424 0.006439656
0.037813306 -0.15440433 0.0061486959
0.039076891 -0.15525143 0.0060417354
0.040420778 -0.15636459 0.0060192943
0.040484905 -0.15259695 0.0059503317
0.042306203 -0.15547529 0.0062001944
0.043127798 -0.15462893 0.0062257349
0.044358633 -0.15525523 0.0059539378
0.045446482 -0.15536356 0.0060540438
0.046179857 -0.1542827 0.0059433579
0.047190931 -0.15415704 0.0062269866
0.049064506 -0.15679309 0.0058597326
0.049281444 -0.15413557 0.0058338046
0.0507656 -0.15546966 0.0060046613
0.051590916 -0.15477274 0.0060046613
0.052023545 -0.15294923 0.0055747628
0.053892411 -0.15533695 0.0054711103
0.054656308 -0.15450917 0.0050333738
0.055476937 -0.15387 0.0050199628
-0.068625636 -0.15180823 0.0051705837
-0.069090925 -0.15518886 0.0064502656
-0.06693837 -0.15270315 0.0070574582
-0.067439795 -0.15628904 0.0071894825
-0.066320725 -0.15617462 0.0069265068
-0.064306475 -0.15391386 0.0067760646
-0.064632103 -0.15727146 0.0060003102
-0.063294239 -0.15662643 0.0052726567
-0.051258303 -0.15272883 0.0062037706
-0.051459979 -0.15652411 0.0063911676
-0.049818158 -0.15475428 0.0064546168
-0.048935652 -0.1553175 0.0068180859
-0.048079528 -0.15599136 0.0069413185
-0.046455819 -0.15414885 0.0072156191
-0.045759298 -0.15536879 0.0072324276
-0.044479523 -0.15461929 0.0076638162
-0.04332269 -0.15427105 0.0073661506
-0.042163298 -0.15389603 0.0078894198
-0.041155234 -0.15406831 0.0079579353
-0.040443465 -0.15538804 0.0077396333
-0.039190054 -0.15464184 0.0078732669
-0.037781678 -0.15322571 0.0080759823
-0.036842529 -0.15368597 0.0082139075
-0.036170535 -0.15532054 0.00836128
-0.034653999 -0.15331769 0.008374989
-0.034065299 -0.15542293 0.0082297325
-0.032786325 -0.15441301 0.0083728135
-0.031099427 -0.15135054 0.008292526
-0.030813068 -0.15512785 0.0083664656
-0.029696198 -0.15484446 0.0084136426
-0.028298771 -0.15302299 0.0085874498
-0.02761429 -0.15506485 0.0085955858
-0.026298743 -0.15358466 0.0085442066
-0.025298407 -0.15389864 0.008438766
-0.024571126 -0.15597324 0.0081411004
-0.022951687 -0.15231574 0.007260561
-0.022079293 -0.15350366 0.0078331828
-0.021285914 -0.15538718 0.0071553588
-0.019962141 -0.15339328 0.0074063838
-0.018879622 -0.15313472 0.0068582594
-0.018241046 -0.1566584 0.0070050359
-0.016683439 -0.15223637 0.0072283149
-0.015849769 -0.1542711 0.0074064732
-0.014765504 -0.15398312 0.0077374279
-0.013497465 -0.15158692 0.0077527463
-0.012649584 -0.15390326 0.0078742504
-0.011576786 -0.15365551 0.0084552467
-0.010532066 -0.15376817 0.0081942081
-0.0094756726 -0.15371647 0.0084552467
-0.0084783966 -0.15473075 0.0082505345
-0.0072898003 -0.15204442 0.0084783733
-0.0063766441 -0.155165 0.008308202
-0.005197051 -0.15175389 0.0082054734
-0.0042268261 -0.15427916 0.0083532631
-0.0031747813 -0.15450603 0.0084783733
-0.0021011096 -0.153381 0.008525461
-0.0010510355 -0.15345117 0.0086425841
0 -0.15444985 0.0086997747
0.0010391294 -0.15171289 0.0085045993
0.0021276327 -0.15531719 0.0085900128
0.0031647028 -0.15401554 0.0085040927
0.0041801468 -0.15257536 0.0085002184
0.0052954759 -0.15462789 0.008407414
0.0063964464 -0.15564686 0.0084363818
0.0073252781 -0.15278436 0.0080738664
0.0085123405 -0.15535022 0.0080738664
0.0093998341 -0.15248619 0.0078534782
0.010487285 -0.15311435 0.0077973604
0.011725206 -0.15562546 0.0080538392
0.012604334 -0.15335274 0.0079540908
0.013612344 -0.15287709 0.0079326928
0.014807563 -0.15442173 0.0077669919
0.015783504 -0.1536261 0.0077648759
0.016947297 -0.1546441 0.0072823167
0.017815555 -0.15300417 0.0073260665
0.01874819 -0.15206866 0.0073260665
0.020183643 -0.15509537 0.0073109269
0.021086926 -0.15393455 0.0072753429
0.021722037 -0.15101989 0.0070495903
0.023214545 -0.15406017 0.0067000985
0.024396516 -0.15486485 0.0065668225
0.025071042 -0.1525155 0.0065403879
0.026619388 -0.15545723 0.0066229999
0.027227338 -0.15289198 0.0065917373
0.028093914 -0.15191524 0.0066149235
0.029562823 -0.15414901 0.0066655576
0.030506147 -0.15358266 0.0065752268
0.031559728 -0.15359068 0.0062958598
0.032636918 -0.15370935 0.0062979162
0.03342969 -0.15252295 0.0063739419
0.035066985 -0.15514486 0.0065619349
0.036030728 -0.15472019 0.0064189136
0.036558855 -0.15250266 0.0063199997
0.037988842 -0.15406586 0.0061913431
0.039190054 -0.15464184 0.0059389472
0.039593689 -0.15212312 0.0057165325
0.04103623 -0.15362281 0.0056127906
0.04189343 -0.15291101 0.0055477619
0.042779204 -0.15233569 0.0057165325
0.044674091 -0.15529566 0.0054056942
0.04536856 -0.15404209 0.0053289831
0.046218563 -0.15336159 0.0057166815
0.04764973 -0.15459689 0.0053804219
0.048270062 -0.15320498 0.0057252944
0.049267653 -0.15304419 0.005705595
0.05080517 -0.1545324 0.005705595
0.051183734 -0.15250663 0.0056946576
0.053012155 -0.1547955 0.0056126118
0.054190941 -0.15513486 0.0054669678
-0.071196184 -0.15641585 0.0052841306
-0.069852047 -0.1558238 0.0073524415
-0.068131298 -0.15435997 0.0073916018
-0.067039654 -0.15429761 0.0077293515
-0.06484554 -0.1516549 0.0078932345
-0.065420143 -0.15550689 0.007616818
-0.063627549 -0.15376657 0.0070571601
-0.062009692 -0.15239669 0.0065910518
-0.062388346 -0.15597086 0.0062252283
-0.061915699 -0.15750484 0.0058339536
-0.051890608 -0.15675288 0.0063961148
-0.049862258 -0.15383038 0.0066168308
-0.0491569 -0.1549511 0.0066744387
-0.047137897 -0.15188877 0.0064766407
-0.046832509 -0.15433441 0.0068180859
-0.046105042 -0.15547049 0.0067775249
-0.044070479 -0.15214808 0.0072156191
-0.043512773 -0.15388663 0.0072566569
-0.04230177 -0.15334392 0.0071250796
-0.041365877 -0.15379621 0.007240504
-0.04062888 -0.15503126 0.0073553324
-0.039061885 -0.15308036 0.0073661506
-0.038005747 -0.15307871 0.0077761412
-0.037488319 -0.15530875 0.007938236
-0.035615128 -0.15188804 0.0081164539
-0.034880884 -0.15326449 0.0082777441
-0.034020327 -0.1541546 0.0081756413
-0.03235428 -0.15133454 0.0083875954
-0.031792615 -0.15366431 0.0084002912
-0.030799558 -0.15399779 0.0086956024
-0.029498592 -0.15276057 0.0085931718
-0.028486172 -0.1529813 0.0088021755
-0.027511882 -0.15343165 0.0088054836
-0.026378186 -0.15299349 0.0087554753
-0.025452439 -0.15377516 0.0087510049
-0.024343796 -0.15347175 0.0087684691
-0.023117397 -0.15236466 0.0085558295
-0.022249965 -0.1536307 0.0086923242
-0.020972656 -0.15205176 0.0081005096
-0.019992335 -0.15257308 0.0082671344
-0.019102301 -0.15387966 0.0077702403
-0.01796677 -0.15324599 0.0076379776
-0.016956791 -0.15367091 0.0077465177
-0.015935563 -0.15404376 0.0077492297
-0.014693729 -0.15218505 0.0080386698
-0.013724951 -0.15308599 0.0077012777
-0.012688504 -0.15331942 0.0077852607
-0.011498314 -0.15156868 0.0080265999
-0.010568038 -0.15323655 0.0077851713
-0.0095303357 -0.15354429 0.0077316165
-0.0083873905 -0.15202144 0.0076895058
-0.0074495012 -0.15431109 0.0077138245
-0.0063186558 -0.15270086 0.0077094436
-0.0052323961 -0.15173948 0.0077012777
-0.0042478326 -0.15398392 0.0077997744
-0.0031691312 -0.15317468 0.0077683628
-0.0021062978 -0.15270659 0.0080279708
-0.0010493246 -0.15215206 0.0080506504
0 -0.15197292 0.0081305206
0.0010495015 -0.15217772 0.0080427229
0.0021254062 -0.15409195 0.0081403852
0.0031532077 -0.15240504 0.0082273185
0.0041895653 -0.15187174 0.0081305206
0.005263357 -0.15263735 0.0078317821
0.0063175946 -0.1526752 0.0078317821
0.0073615783 -0.15248984 0.0072640777
0.0083562555 -0.15145713 0.0072637498
0.0094799213 -0.15273207 0.007191956
0.010661784 -0.15459587 0.0072857141
0.01153074 -0.15199612 0.0074978471
0.012645351 -0.15279798 0.007663846
0.013934926 -0.15542802 0.0073880851
0.014747367 -0.1527406 0.0074998736
0.015750788 -0.15225762 0.0075679719
0.017005824 -0.15411527 0.007429868
0.01766724 -0.15069117 0.0073654354
0.019074725 -0.15365751 0.0073654354
0.020229645 -0.15438414 0.007180661
0.021095186 -0.15294009 0.00729388
0.022270991 -0.15377589 0.0067647994
0.023398556 -0.15421775 0.0065916479
0.024125738 -0.15209705 0.0065916479
0.025588095 -0.15459473 0.0064977109
0.02632226 -0.15266912 0.0065592229
0.027239472 -0.15191244 0.0065592229
0.028614881 -0.15367252 0.0066280365
0.029106464 -0.15072989 0.0063194931
0.030651122 -0.15325561 0.0064804256
0.031984966 -0.154594 0.0062395036
0.032476433 -0.15190589 0.0061412156
0.034014679 -0.15412901 0.0060817301
0.034902226 -0.15335827 0.0061540604
0.035425268 -0.15107836 0.0061469674
0.03685686 -0.15269271 0.0060456097
0.038177077 -0.15376878 0.0061284006
0.039146651 -0.15341255 0.0058254302
0.040276267 -0.15368576 0.0054742396
0.041432288 -0.15404312 0.0054596066
0.041865017 -0.15176068 0.0052135885
0.043830402 -0.15500996 0.0050398111
-0.072005659 -0.15475842 0.0054117441
-0.070627093 -0.15409549 0.0061651766
-0.069128297 -0.15314576 0.0078040361
-0.069086418 -0.15544444 0.0085952282
-0.065973431 -0.15079641 0.0088413358
-0.065817863 -0.1528673 0.0087767839
-0.064811148 -0.15299681 0.0085117817
-0.063266195 -0.15183887 0.0081464946
-0.063267045 -0.15441449 0.0075037479
-0.063252822 -0.15704149 0.0070915222
-0.060563326 -0.15300208 0.0063999593
-0.060512405 -0.15560332 0.0062856376
-0.05226801 -0.15680403 0.0052713752
-0.051612034 -0.15813048 0.005454272
-0.048139788 -0.15069847 0.0059424043
-0.04831215 -0.15459888 0.0063745677
-0.047338501 -0.154926 0.0067250431
-0.045479231 -0.15230253 0.0067092776
-0.044718552 -0.15332076 0.0069055259
-0.043305576 -0.15209763 0.0069551468
-0.042043105 -0.15135518 0.0069879889
-0.041455109 -0.15306501 0.0070970356
-0.040262733 -0.15257455 0.0071670711
-0.038935523 -0.15153284 0.0072551668
-0.038519837 -0.15407935 0.0073245466
-0.036947157 -0.15201117 0.0076884031
-0.035976712 -0.15237196 0.0077881217
-0.035053503 -0.15296075 0.0076693296
-0.033798125 -0.15209156 0.0076915026
-0.032999691 -0.15328889 0.0081320703
-0.031866696 -0.15296014 0.0082069635
-0.030447841 -0.15118927 0.0082344711
-0.029554468 -0.15199441 0.0083706379
-0.028770635 -0.15344338 0.0083919466
-0.027135089 -0.15028664 0.0084405243
-0.026657864 -0.1535493 0.0081953108
-0.025463711 -0.15278226 0.0086064637
-0.024277324 -0.15199716 0.0085991025
-0.023506172 -0.15385857 0.0081801713
-0.022024661 -0.15102625 0.0081999302
-0.021017283 -0.15132444 0.008073777
-0.02020615 -0.15314135 0.0080172122
-0.018964328 -0.15171462 0.0076411963
-0.017805329 -0.15082161 0.0077070296
-0.017026586 -0.15323928 0.0078684092
-0.015666639 -0.15039974 0.0077790618
-0.014862068 -0.15286699 0.0077790618
-0.01375174 -0.15232697 0.0076571107
-0.012522123 -0.15026547 0.0077790618
-0.011588403 -0.15170273 0.007864058
-0.010622283 -0.15296088 0.0078141391
-0.009437927 -0.15100683 0.007789582
-0.0086365519 -0.15545793 0.0074567795
-0.0073896218 -0.15201508 0.0074567795
-0.0062694126 -0.15046591 0.0075163543
-0.0053078821 -0.152867 0.0074231923
-0.0041883509 -0.15078062 0.007558018
-0.0031549593 -0.15143804 0.0075820088
-0.0021193884 -0.15259597 0.0080409944
-0.0010499073 -0.15118665 0.0078754425
0 -0.1527677 0.0078754425
0.0010503203 -0.15124613 0.0078754425
0.0021033369 -0.15144026 0.0080071986
0.0032048835 -0.1538344 0.0080341399
0.0042095948 -0.15154541 0.0079543591
0.0052710013 -0.15180483 0.0079981983
0.0063717319 -0.15292156 0.0080824494
0.0074152304 -0.15254188 0.0076551139
0.0084746489 -0.15254368 0.007176429
0.0095388163 -0.15262106 0.0071249604
0.010571547 -0.15223028 0.0072931945
0.011485874 -0.15036052 0.0070280731
0.012683515 -0.15220219 0.0068612099
0.013707265 -0.15183432 0.0068193078
0.014747293 -0.15168644 0.0067504942
0.015820563 -0.1518774 0.0069502592
0.016697302 -0.15027572 0.0067719221
0.018087 -0.15320753 0.0067767799
0.019152166 -0.15321733 0.0067638159
0.019834284 -0.150323 0.0067668855
0.021230664 -0.15286078 0.0066938996
0.022270963 -0.15271518 0.0065796673
0.023200206 -0.15185589 0.0064116716
0.024311205 -0.15220928 0.0064646006
0.025155472 -0.15093282 0.0061538219
0.026432548 -0.15225148 0.0064218044
0.027488824 -0.1522458 0.0063827932
0.028487619 -0.15193397 0.0064476728
0.029269259 -0.15052761 0.0064178407
0.030932683 -0.15359677 0.006403923
0.031681288 -0.15207018 0.0062436759
0.032691386 -0.15185677 0.0060130954
0.03421234 -0.15395553 0.0060212314
0.034793373 -0.15182562 0.0060496032
0.036210679 -0.15336287 0.0058861673
0.037107691 -0.15267164 0.0059189498
0.037360009 -0.14944004 0.0056035817
0.039002944 -0.15179524 0.0054215193
0.040340889 -0.15287073 0.0052313805
0.067265019 -0.1513463 0.0052290559
0.069514804 -0.15400203 0.0056503117
0.069965556 -0.15265211 0.0057497919
0.07109236 -0.15279552 0.0065050423
0.072957218 -0.15449764 0.0052866042
-0.071880281 -0.15341613 0.0059083402
-0.071884967 -0.15575077 0.0076847672
-0.070913322 -0.1560093 0.0088858008
-0.068025634 -0.15199478 0.0094485879
-0.068939887 -0.15648259 0.0096043348
-0.067587502 -0.15588731 0.0098055601
-0.065141812 -0.1527095 0.0098055899
-0.06516204 -0.15530287 0.0095801651
-0.064587645 -0.15654294 0.0090216696
-0.061845623 -0.15248145 0.0086385906
-0.062379837 -0.15649679 0.008028239
-0.059575237 -0.15212962 0.007124573
-0.059090249 -0.15363465 0.0065974593
-0.05774954 -0.15292934 0.0054684579
-0.048100721 -0.1528534 0.0055242479
-0.046648659 -0.15160814 0.0056353509
-0.045953527 -0.1528222 0.0058737397
-0.044770069 -0.15243143 0.0064007938
-0.04330508 -0.15103967 0.00673455
-0.04272899 -0.15275614 0.0069235861
-0.041381441 -0.15173195 0.0068996549
-0.040438887 -0.15217791 0.0070475638
-0.039202675 -0.15151304 0.0074026585
-0.037966996 -0.15081334 0.0076923072
-0.037300959 -0.15240106 0.007694006
-0.036326535 -0.15278514 0.0079472065
-0.035049375 -0.15188064 0.0076404512
-0.034057759 -0.15219562 0.0080409646
-0.032774989 -0.15118785 0.0076530576
-0.031543158 -0.15035571 0.0079085231
-0.030635331 -0.15106387 0.0081240833
-0.029565711 -0.15099631 0.0082041919
-0.028439594 -0.15062451 0.0082587004
-0.027689302 -0.15229116 0.0085013211
-0.026813958 -0.15337583 0.0082216263
-0.025346112 -0.15102059 0.0083964765
-0.024599822 -0.15294673 0.0082139373
-0.023202561 -0.15081665 0.0080832243
-0.02212839 -0.15068381 0.0078407228
-0.021333158 -0.15253209 0.0077335238
-0.020035695 -0.15079497 0.007596761
-0.019012971 -0.1510475 0.0076456964
-0.017889328 -0.15048082 0.007617265
-0.016806541 -0.15020846 0.0076732039
-0.01579297 -0.15055963 0.0076154768
-0.014918992 -0.15238686 0.0078964233
-0.013621964 -0.14984161 0.0076240003
-0.012703951 -0.15138875 0.007681489
-0.011624645 -0.15112038 0.0077364147
-0.010497672 -0.1501167 0.0076732039
-0.0095175011 -0.15122251 0.0079945028
-0.0084745912 -0.15148333 0.0075387359
-0.0073618665 -0.15039241 0.0074599385
-0.0063465456 -0.15125935 0.0074658692
-0.005293387 -0.15139087 0.0073432028
-0.0042093131 -0.15048294 0.0074571371
-0.0031671468 -0.15096733 0.0075424612
-0.0020906769 -0.14948341 0.0078806579
-0.001044639 -0.14938338 0.0076405704
0 -0.15201837 0.0078055859
0.0010483002 -0.14990692 0.0076405704
0.0021179575 -0.15143396 0.0078062117
0.0031733466 -0.15126285 0.0080352724
0.0041965591 -0.15002699 0.00798738
0.0052989963 -0.15155129 0.0079188347
0.0063578822 -0.15152952 0.0082097948
0.0073746783 -0.15065414 0.0078235269
0.0085355183 -0.15257239 0.0077697337
0.0095307846 -0.15143357 0.0076097846
0.010565558 -0.15108748 0.0077430606
0.011698667 -0.15208267 0.0075096786
0.012626747 -0.15046874 0.0072135031
0.013691785 -0.15060963 0.0071448684
0.01484959 -0.15167795 0.0069201887
0.015886795 -0.15145412 0.0071827173
0.016815983 -0.15029284 0.0068107545
0.018179193 -0.1529191 0.0068861544
0.018812276 -0.14945309 0.0068391562
0.02008725 -0.15118298 0.006914556
0.021376804 -0.15284415 0.0068107545
0.022098668 -0.1504814 0.0066609085
0.023302449 -0.15146592 0.0063822865
0.024557784 -0.15268536 0.0064343214
0.025347527 -0.15102901 0.006251663
0.026519252 -0.15169013 0.0061067045
0.027407367 -0.15074052 0.0061062574
0.028482551 -0.15085202 0.0062930286
0.029631695 -0.1513333 0.0062634349
0.030748073 -0.15161981 0.0061951876
0.031811714 -0.15163583 0.0060488582
0.032707449 -0.1508763 0.0059365928
0.033705465 -0.15062129 0.0058491826
0.034724988 -0.15047495 0.0055478513
0.035936356 -0.15114409 0.005374074
0.036740817 -0.15011248 0.0054926872
0.037928876 -0.15066192 0.005214572
0.039372411 -0.15216905 0.0050176084
0.065365277 -0.14836881 0.0053764582
0.065919325 -0.1472885 0.0062274933
0.068046913 -0.1497032 0.0068920851
0.068594553 -0.14862153 0.0081515908
0.068806842 -0.1468564 0.0090942383
0.0712253 -0.14978263 0.0078549981
0.071637668 -0.14846648 0.0073850751
0.075357221 -0.15394405 0.0066408217
0.075671725 -0.15240926 0.0064672232
0.077133521 -0.15319575 0.0058549047
-0.070925966 -0.15032071 0.0062761903
-0.07116469 -0.1531119 0.0080987811
-0.069983721 -0.15288752 0.0095816255
-0.068939991 -0.1529606 0.010047108
-0.066732071 -0.15041198 0.010374099
-0.063660465 -0.145803 0.010987431
-0.065269284 -0.15193833 0.011325061
-0.063895352 -0.151219 0.011321247
-0.061806288 -0.14875412 0.010680318
-0.060850441 -0.14897867 0.010099322
-0.060755227 -0.15135513 0.0090216696
-0.057990726 -0.14704791 0.0081885457
-0.058877129 -0.15201004 0.0073637068
-0.057343937 -0.15079331 0.0065974593
-0.046279047 -0.15282848 0.0054264963
-0.044767089 -0.15135539 0.0056985617
-0.043940753 -0.15218505 0.00579831
-0.04255449 -0.15106845 0.0061053634
-0.041307461 -0.15040152 0.0066102445
-0.040729057 -0.15219805 0.0070582926
-0.039324041 -0.15091929 0.0072417855
-0.037917607 -0.14956389 0.0073328912
-0.037473653 -0.15203597 0.0073342025
-0.036075946 -0.15067013 0.0074025989
-0.034901224 -0.15018103 0.007709384
-0.034070577 -0.15118818 0.0079856515
-0.032672215 -0.14965981 0.0079782605
-0.03200046 -0.15146884 0.0080501735
-0.030961325 -0.15160373 0.0082170963
-0.029599916 -0.15011387 0.008115381
-0.028595118 -0.15038913 0.0081548691
-0.027667556 -0.15110742 0.0082212687
-0.026271218 -0.14922053 0.0079735219
-0.025575064 -0.15131913 0.0080975592
-0.02435541 -0.15036818 0.0080201328
-0.023151573 -0.14943288 0.0079683065
-0.022440307 -0.15173921 0.0079070926
-0.021134682 -0.15005624 0.0077997744
-0.020117246 -0.15034994 0.0076462924
-0.019135948 -0.15096137 0.0074928999
-0.017819781 -0.14884758 0.0072244704
-0.017028233 -0.15112558 0.0072378218
-0.015999075 -0.15145791 0.0074504614
-0.014673325 -0.14882945 0.0077418983
-0.013909599 -0.15193561 0.0076225102
-0.012784582 -0.15128422 0.0075403452
-0.011514683 -0.1486441 0.0076225996
-0.010587856 -0.15034755 0.00798437
-0.0096077519 -0.15158898 0.0081118345
-0.008446604 -0.14992721 0.0077418983
-0.0074589234 -0.15130959 0.0079241991
-0.0063347644 -0.14992276 0.0079462826
-0.0053148842 -0.15094271 0.007438004
-0.0042591095 -0.15119839 0.0074846745
-0.0031839402 -0.1507065 0.0074523091
-0.0021218308 -0.15064998 0.008048594
-0.0010711465 -0.1521028 0.007781595
0 -0.14876398 0.0078313053
0.0010700237 -0.15194337 0.0077680945
0.0021414466 -0.15204272 0.0078296661
0.0031515034 -0.14917116 0.0081684589
0.0042690355 -0.15155075 0.0082343519
0.0053299502 -0.15137058 0.0084044933
0.0063234214 -0.14965431 0.0084477961
0.0074254274 -0.1506301 0.0080343783
0.0084683429 -0.15031308 0.0077549815
0.0094381599 -0.14891319 0.0078404546
0.010672913 -0.15155536 0.0078774095
0.011662167 -0.15054797 0.0075686574
0.012662682 -0.14984174 0.0073601007
0.013880425 -0.15161696 0.0072645247
0.014764263 -0.14975181 0.0070215166
0.015796252 -0.14953786 0.0072645247
0.017015008 -0.1510082 0.0068475306
0.017822791 -0.14887272 0.0068520904
0.01912426 -0.15086918 0.0070169568
0.02021369 -0.15107073 0.0072135925
0.020950552 -0.14874892 0.0068180561
0.022297801 -0.15077561 0.0066079199
0.023470888 -0.15149391 0.0063577592
0.023820814 -0.14706764 0.0062233806
0.025774671 -0.15250012 0.0062071979
0.026476163 -0.15038462 0.0059135556
0.027620029 -0.15084785 0.0059074759
0.028684262 -0.15085797 0.005829066
0.029565252 -0.14993806 0.0058040619
0.030434877 -0.14902595 0.0058549643
0.032092389 -0.15190397 0.0054603219
0.032787282 -0.1501869 0.0052687526
0.034332599 -0.15235092 0.0052687526
0.034988686 -0.15055737 0.0058278441
0.035903767 -0.14995103 0.005395174
0.037255231 -0.15114979 0.0054306388
0.064225599 -0.14709733 0.0058302581
0.064410158 -0.14517845 0.0064051151
0.066690445 -0.14796942 0.0072481036
0.067206681 -0.14682075 0.0083957016
0.069062211 -0.14858839 0.0096783936
0.070042863 -0.14844905 0.010340184
0.068852715 -0.14378068 0.010151863
0.07210581 -0.14839166 0.0099709928
0.074108623 -0.15033464 0.0094175935
0.07399191 -0.14798382 0.0081515908
0.077606 -0.15305628 0.0069601834
0.077687256 -0.15111768 0.0057881176
-0.071084462 -0.14959566 0.0067500174
-0.069526173 -0.14853318 0.0082869232
-0.068991929 -0.14965943 0.009993881
-0.067667753 -0.14908051 0.010723501
-0.065695837 -0.14703354 0.011322081
-0.065832555 -0.14971597 0.012067854
-0.064461857 -0.149002 0.012317061
-0.061538644 -0.14461581 0.012570679
-0.06224294 -0.14875008 0.012285888
-0.061188225 -0.14875069 0.012181401
-0.059325326 -0.14675212 0.011336267
-0.059356615 -0.14945148 0.0098966956
-0.057332307 -0.1469792 0.0087525249
-0.057007186 -0.1488521 0.0076382458
-0.056720894 -0.15089898 0.006688118
-0.043797851 -0.15062188 0.0052510798
-0.042692609 -0.15049145 0.005377233
-0.041960817 -0.15170451 0.0059738755
-0.040439941 -0.15005347 0.0061524212
-0.039244901 -0.14955489 0.0066106617
-0.038580362 -0.15110642 0.0067434311
-0.0373412 -0.15043169 0.0068314373
-0.036187455 -0.1500715 0.0073541701
-0.035316683 -0.15089856 0.0072457492
-0.033832364 -0.14907385 0.0076323152
-0.033064406 -0.15038972 0.0075368881
-0.032012362 -0.1504581 0.0075363815
-0.030632511 -0.14893737 0.007647723
-0.02973474 -0.14973566 0.0075474679
-0.028960923 -0.15124038 0.0075399876
-0.027433934 -0.14877632 0.0080322623
-0.02671466 -0.15067069 0.0080604851
-0.025444362 -0.14948563 0.0080493987
-0.024338659 -0.14920656 0.0077835321
-0.023357557 -0.14970072 0.0078619719
-0.02228874 -0.14965296 0.0074340105
-0.021183863 -0.14934623 0.0075533986
-0.020350266 -0.15102039 0.0075914264
-0.019224944 -0.1505954 0.0073830783
-0.017987041 -0.14918663 0.0073896348
-0.017068617 -0.15041719 0.0074748099
-0.015789706 -0.14842324 0.0072695911
-0.014910372 -0.15016875 0.0075444579
-0.013751188 -0.1491475 0.0075411499
-0.012631223 -0.14841686 0.0074422956
-0.011728273 -0.15033513 0.007522434
-0.010633172 -0.14992772 0.0076799989
-0.0094411243 -0.14791094 0.0078663826
-0.0085821506 -0.15126041 0.0079230964
-0.0073752338 -0.14855829 0.007899493
-0.0063654962 -0.14958917 0.007899493
-0.005357956 -0.15109436 0.0078580976
-0.0042396574 -0.14944792 0.0079230964
-0.0031652651 -0.14876746 0.0078592896
-0.0021304267 -0.15019508 0.0079268217
-0.0010564137 -0.14895435 0.0080010891
0 -0.14946328 0.0078867078
0.0010609069 -0.14958787 0.0076210797
0.0021006304 -0.14809445 0.0076725185
0.0031994947 -0.15037625 0.0081062615
0.0042528994 -0.1499147 0.0080343783
0.0052293795 -0.14746849 0.0083696842
0.0064112502 -0.15066437 0.0084814727
0.007447232 -0.15000853 0.0081542134
0.008521623 -0.1501936 0.0081542134
0.0095937951 -0.15030278 0.0076048076
0.010675726 -0.15052773 0.0077534616
0.011674316 -0.1496435 0.0075199604
0.012798579 -0.15038331 0.0074675679
0.013776539 -0.14942247 0.0072206259
0.014798698 -0.14904404 0.0068954527
0.016029872 -0.1506808 0.0072847307
0.016744411 -0.14756012 0.0069218576
0.018246122 -0.15133548 0.0066618323
0.019268533 -0.15093684 0.0065744221
0.020085452 -0.1490552 0.0066974163
0.021306688 -0.15021215 0.0064043403
0.022515643 -0.15117647 0.0063188076
0.023253653 -0.14903478 0.0062080622
0.02458711 -0.15072967 0.0060649216
0.02538912 -0.14916109 0.0061500669
0.026354687 -0.14864044 0.0060749948
0.027818987 -0.1508645 0.0060104728
0.028513335 -0.14890297 0.0056426227
0.029714921 -0.14963585 0.005759865
0.030861685 -0.15005164 0.0058622062
0.031679798 -0.14889506 0.0053621531
0.0329712 -0.14996578 0.0056362748
0.034260526 -0.15096045 0.0055054128
0.034455158 -0.1472175 0.0056549907
0.036069263 -0.14958134 0.0056301653
0.037297901 -0.15025726 0.0053558946
0.038016371 -0.14889745 0.0050614178
0.064037323 -0.1480207 0.0061305463
0.063915066 -0.14535524 0.0070909262
0.067054458 -0.15007426 0.0081608593
0.066400237 -0.14628802 0.0095250309
0.066923119 -0.1451717 0.010610759
0.069318108 -0.14808869 0.010966957
0.068699472 -0.1445765 0.012088329
0.071831964 -0.14894569 0.01212889
0.07205911 -0.14725123 0.012013912
0.071944252 -0.14491628 0.01134795
0.073029526 -0.14503047 0.010395169
0.074556269 -0.14600602 0.010314375
0.077315688 -0.14933579 0.0072214603
0.07961233 -0.15169376 0.0058504939
-0.072865523 -0.15001726 0.0056295097
-0.071047157 -0.14845674 0.0074665248
-0.069990307 -0.14846428 0.009426266
-0.069920488 -0.15059797 0.011142135
-0.066150494 -0.14470421 0.01174733
-0.066603214 -0.14800714 0.012315333
-0.065486163 -0.14787199 0.013376921
-0.062653653 -0.14379527 0.013730884
-0.063288264 -0.14767261 0.013730884
-0.062451735 -0.14819056 0.01330322
-0.060313143 -0.14558345 0.013113767
-0.059997682 -0.14736272 0.012688041
-0.058760807 -0.14690201 0.011852562
-0.057933189 -0.1474663 0.010353774
-0.05747107 -0.14899907 0.0093271732
-0.056458451 -0.14913553 0.0081201494
-0.055489387 -0.1493945 0.0065020919
-0.055809814 -0.15320341 0.0052475929
-0.041691411 -0.14966147 0.0050088465
-0.040671811 -0.14984351 0.0052978396
-0.039621066 -0.14991754 0.0059337616
-0.038144745 -0.14834067 0.0057375729
-0.037278529 -0.14911412 0.0061315298
-0.036513377 -0.1503492 0.0067956448
-0.035214834 -0.14939626 0.0067047179
-0.034441072 -0.15067969 0.007199049
-0.033050921 -0.14926222 0.0070982575
-0.031615239 -0.14753778 0.0074406564
-0.031066364 -0.14997555 0.0073387623
-0.030046385 -0.15023193 0.0072884858
-0.028426521 -0.14739677 0.0071675181
-0.027734052 -0.1493372 0.0071711242
-0.026711199 -0.14958271 0.0071549714
-0.025192892 -0.14695854 0.0073567927
-0.024611106 -0.14980674 0.0071639121
-0.023450596 -0.14923106 0.0070971251
-0.022291953 -0.14861302 0.0071288645
-0.021221168 -0.14854819 0.0070460439
-0.020026565 -0.14756416 0.0069714487
-0.019109694 -0.14863096 0.0069918931
-0.018150378 -0.1494737 0.0071678758
-0.0169756 -0.1485365 0.0069178939
-0.015996769 -0.14930317 0.0069816709
-0.014935727 -0.14935727 0.0072804391
-0.013558693 -0.1460167 0.0072605014
-0.012741568 -0.14865161 0.0068980753
-0.011794392 -0.15011044 0.0071286857
-0.010585045 -0.14819065 0.0074697733
-0.0095675252 -0.14882818 0.0077519119
-0.0085309157 -0.14929102 0.0076592863
-0.0074040191 -0.14808038 0.0079887509
-0.0064054565 -0.14946066 0.0080573261
-0.0053247442 -0.14909284 0.0080866814
-0.0042343545 -0.1482024 0.008114785
-0.0031902054 -0.14887625 0.0083069801
-0.0021247054 -0.14872937 0.0083448589
-0.0010576297 -0.14806816 0.0083448589
0 -0.15045372 0.0083448589
0.0010551452 -0.14772032 0.008099407
0.0021137027 -0.14795919 0.0078731179
0.0031932222 -0.14901704 0.0082350969
0.004207381 -0.14725833 0.0081718564
0.0053365743 -0.14942408 0.0078873634
0.0064185876 -0.14976704 0.0079995096
0.0074450071 -0.14890014 0.0078834593
0.008549368 -0.14961395 0.0079610348
0.0095153628 -0.14801675 0.007866919
0.010592143 -0.14828999 0.0079934895
0.011756014 -0.14962199 0.0080033541
0.012767821 -0.14895791 0.0077712536
0.01375162 -0.14809437 0.0076178312
0.014941521 -0.14941521 0.0072188079
0.015823854 -0.14768931 0.0073215365
0.017090986 -0.14954612 0.0072918236
0.018064972 -0.14877036 0.0069240928
0.019060761 -0.14825036 0.0068819523
0.020292656 -0.14952484 0.007135421
0.02118808 -0.14831656 0.0070941746
0.022058712 -0.14705808 0.0067417622
0.023493482 -0.14950398 0.0065538883
0.024473904 -0.14897159 0.0060854852
0.025486277 -0.14866996 0.0060416162
0.026712677 -0.14959098 0.0058068633
0.027583625 -0.1485272 0.0057185888
0.028501429 -0.14778519 0.0053278506
0.029904267 -0.14952134 0.0058590472
0.030650526 -0.14796805 0.0060423613
0.031905513 -0.1488924 0.0057073832
0.033078354 -0.14938611 0.0057849586
0.03392018 -0.14840078 0.0056863725
0.035055269 -0.14871933 0.0060064793
0.036457252 -0.15011808 0.0059823394
0.037000023 -0.14800009 0.0056198537
0.038297493 -0.14893471 0.0052140951
0.063400656 -0.14793487 0.006493777
0.064367063 -0.14772768 0.0072587132
0.06500379 -0.14678276 0.0084856749
0.066404276 -0.14756505 0.009381026
0.06688001 -0.14630003 0.010610759
0.068443 -0.1474157 0.011131555
0.06733796 -0.14283809 0.01222837
0.069497973 -0.14521965 0.013328612
0.069662601 -0.14342301 0.013647854
0.070087694 -0.14220691 0.013333857
0.073238879 -0.14647776 0.013057441
0.072322272 -0.1426073 0.011730611
0.074456371 -0.14477627 0.011034995
0.075365722 -0.144537 0.01013428
0.075672433 -0.14316405 0.006875366
0.079303317 -0.14803284 0.0059378445
-0.071247123 -0.1456375 0.006095767
-0.070950702 -0.14719623 0.0079638064
-0.070369728 -0.14820291 0.0107072
-0.067725852 -0.14482914 0.011823148
-0.066843405 -0.14517553 0.012620598
-0.066007324 -0.1456352 0.013258308
-0.063694701 -0.14279941 0.014228642
-0.065021858 -0.14816456 0.014421403
-0.063465148 -0.14702758 0.014632076
-0.061557673 -0.1450257 0.014264703
-0.060854312 -0.1458405 0.014003158
-0.060088988 -0.1465328 0.013628185
-0.059418648 -0.14748558 0.013024747
-0.05898298 -0.14906608 0.012142509
-0.056426656 -0.14524639 0.010614693
-0.055896711 -0.14659703 0.0093899071
-0.055383969 -0.14804561 0.0083093345
-0.054416005 -0.14831029 0.0063705444
-0.05322364 -0.14796172 0.0052941442
-0.038752794 -0.14962885 0.0054238141
-0.037624288 -0.14942218 0.0057525635
-0.03620971 -0.14803381 0.0059992075
-0.035083462 -0.14777578 0.0061344802
-0.03442147 -0.14951827 0.0062652826
-0.032841459 -0.14725687 0.0065299571
-0.032272991 -0.14953153 0.0071998537
-0.031039951 -0.14877769 0.0074175894
-0.029509984 -0.146496 0.0073322952
-0.028900782 -0.1487855 0.0073351562
-0.027820883 -0.14873472 0.0072185099
-0.026366398 -0.14659718 0.0070646703
-0.025688354 -0.14877838 0.0070431828
-0.024388971 -0.14739421 0.0070425868
-0.023508508 -0.14853102 0.0069363713
-0.022475047 -0.1487634 0.0070517957
-0.021252491 -0.14770481 0.0069273412
-0.020178698 -0.14762311 0.0068962574
-0.019300751 -0.14904468 0.0067798197
-0.018113742 -0.14810647 0.0069386065
-0.017037578 -0.14801396 0.0069049597
-0.016145425 -0.14961427 0.006670624
-0.014831834 -0.14725894 0.0068305731
-0.013935789 -0.14900574 0.0068663061
-0.012886049 -0.14926341 0.0067000389
-0.011675031 -0.14752994 0.0068032742
-0.010659883 -0.14817238 0.007207036
-0.0095683346 -0.14777762 0.0073997676
-0.0085273897 -0.14816339 0.007651031
-0.0074303108 -0.14754474 0.0076614916
-0.0063925185 -0.14809334 0.0078984499
-0.0052997502 -0.14733306 0.0080393255
-0.0042749508 -0.14855455 0.0078808665
-0.0031929619 -0.14794056 0.0079456866
-0.0021387348 -0.14864206 0.0079456866
-0.0010748223 -0.14940029 0.0080102384
0 -0.14661166 0.0081908703
0.0010584859 -0.14712955 0.0079556108
0.0021361304 -0.14846107 0.0078024864
0.003163131 -0.1465584 0.0080046058
0.0042678486 -0.14830774 0.0080237985
0.0053447313 -0.14858353 0.0075897276
0.006312266 -0.14623415 0.0076060891
0.0074684233 -0.14830154 0.0077847838
0.0085278628 -0.14817162 0.0074834526
0.0095363799 -0.14728409 0.0076018572
0.010732665 -0.14918405 0.0074834526
0.011727749 -0.14819612 0.0076403618
0.012731985 -0.14747883 0.0075897276
0.013968859 -0.14935935 0.0072342753
0.014900574 -0.14794141 0.0069202185
0.015944906 -0.14775613 0.0073938072
0.01714262 -0.14892651 0.0074867606
0.018100671 -0.14799961 0.0068121254
0.019200698 -0.14827205 0.0065521896
0.020335976 -0.14877371 0.0066745877
0.021081042 -0.14651324 0.0064036846
0.022484979 -0.14882915 0.0064660013
0.023698354 -0.1497305 0.006326139
0.024435185 -0.1476735 0.0062634945
0.025858533 -0.149764 0.0061236322
0.026576135 -0.14776331 0.0056860149
0.02741695 -0.14657523 0.0056575239
0.028991681 -0.14925347 0.0057187378
0.029807612 -0.14797351 0.00582093
0.031041665 -0.14878592 0.0056969821
0.032154333 -0.14898175 0.0055416822
0.033136044 -0.14857773 0.0055986047
0.03411933 -0.14820583 0.0055986047
0.03560916 -0.1499901 0.0055968761
0.036017168 -0.14724666 0.0056216717
0.037498374 -0.14892212 0.0054038465
0.038727324 -0.1495305 0.0053368807
0.062288899 -0.14927857 0.0052978992
0.062138438 -0.14639395 0.0069059134
0.063271858 -0.1465798 0.0084863305
0.06485042 -0.14777391 0.0091949701
0.064634591 -0.14490658 0.010676801
0.065369621 -0.14422822 0.01129356
0.067008108 -0.14553323 0.011536419
0.066498347 -0.14220415 0.012598366
0.069987848 -0.14739865 0.012990475
0.069929071 -0.14507672 0.014007032
0.068276674 -0.13956556 0.014353007
0.070868775 -0.14276464 0.014174253
0.072782241 -0.14452474 0.013917923
0.071622096 -0.1402179 0.013468027
0.074717 -0.14424533 0.012002409
0.07458739 -0.14202257 0.011141896
0.074172013 -0.13932312 0.0090754032
0.077513948 -0.14365919 0.0080337822
0.079345353 -0.14511847 0.005705595
-0.07217744 -0.14647774 0.0065434873
-0.072150119 -0.14860772 0.0086930096
-0.068749957 -0.14374992 0.01118201
-0.068368815 -0.14515226 0.012252897
-0.067840114 -0.14628024 0.013051271
-0.065816104 -0.1441686 0.014015317
-0.064950868 -0.14456807 0.014855534
-0.063357733 -0.14333388 0.015504271
-0.062143926 -0.14293103 0.015674442
-0.061236423 -0.14323096 0.01546517
-0.060606636 -0.14420199 0.015064508
-0.059113365 -0.14311656 0.01464656
-0.058683529 -0.14461298 0.014334857
-0.057993144 -0.14551006 0.014077812
-0.056915484 -0.14545068 0.012559772
-0.055891279 -0.14552824 0.0107328
-0.054795381 -0.14541851 0.0096457303
-0.054351199 -0.14706795 0.0084397793
-0.05397724 -0.14897718 0.0063710809
-0.051924501 -0.14623635 0.0054079294
-0.035577103 -0.14877698 0.0053297877
-0.03395763 -0.14644228 0.0057854652
-0.03336022 -0.14850679 0.0059426427
-0.032272138 -0.14845183 0.0061914623
-0.030751213 -0.14633337 0.0063740015
-0.030145803 -0.14857575 0.0064062774
-0.028960571 -0.1480207 0.0066028535
-0.027388237 -0.14536834 0.0067553222
-0.026971322 -0.14888169 0.0068569779
-0.025639361 -0.14742632 0.0068569779
-0.024514608 -0.14708765 0.0066572726
-0.023453159 -0.14711528 0.0064196885
-0.022376275 -0.14704409 0.0066746771
-0.021244688 -0.14658836 0.0066787302
-0.020436557 -0.14843394 0.0067202747
-0.019200109 -0.14720084 0.0066852868
-0.018135305 -0.14721601 0.0068458021
-0.017142143 -0.14785098 0.0068458021
-0.015780149 -0.14517736 0.0068503022
-0.014995395 -0.14781176 0.0068579912
-0.013826134 -0.14676973 0.0069293082
-0.012644179 -0.14540806 0.007038027
-0.011836147 -0.14848985 0.0069839656
-0.010683831 -0.14743686 0.0074017942
-0.0095381839 -0.14625216 0.0076406896
-0.0085863406 -0.14811438 0.0077737272
-0.0074951421 -0.14776137 0.0076999366
-0.0063894782 -0.14695799 0.0076085627
-0.0053555318 -0.14781268 0.0076999366
-0.0042452165 -0.14645997 0.0076085627
-0.00319908 -0.14715767 0.0076734126
-0.0021524134 -0.14851654 0.0077092052
-0.0010619432 -0.14654817 0.0076859593
0 -0.14721878 0.0077183545
0.0010663258 -0.14715296 0.0074733198
0.0021165241 -0.14604016 0.0074755549
0.0032090293 -0.14761534 0.0076508522
0.00425635 -0.14684407 0.0075451732
0.0052936473 -0.14610466 0.0073521137
0.0064289174 -0.1478651 0.0073814988
0.0075146239 -0.14814545 0.0074807703
0.0085067581 -0.14674158 0.0074616075
0.0096831303 -0.14847466 0.0074093342
0.010705145 -0.14773101 0.0074999034
0.011677897 -0.14650452 0.0076031983
0.012953908 -0.14896995 0.0074255168
0.013830751 -0.14681874 0.0073179007
0.014884355 -0.14671722 0.0071512461
0.016105073 -0.14816667 0.00732252
0.016881753 -0.14560512 0.0073848367
0.018185603 -0.1476243 0.0070712566
0.019328976 -0.14818883 0.0066357255
0.020113952 -0.14609081 0.0064029396
0.021213928 -0.1463761 0.0061354637
0.022471914 -0.14767258 0.0061354637
0.023446655 -0.14707446 0.0059300065
0.024793414 -0.14876048 0.0057138205
0.025379691 -0.14593323 0.0055248141
0.026598897 -0.14682591 0.0052447021
0.028065952 -0.14896543 0.0052338243
0.028861644 -0.14751506 0.0052338243
0.02981822 -0.14696123 0.0051900446
0.03123264 -0.14862429 0.0050421953
0.061480839 -0.14884834 0.0052937567
0.060790315 -0.14463903 0.006644398
0.063069642 -0.14751883 0.0081937313
0.064183399 -0.14762181 0.0093591809
0.063972399 -0.14472444 0.010705709
0.064181104 -0.14285471 0.01184839
0.066055834 -0.14469373 0.012560844
0.065488018 -0.14120853 0.012992024
0.067722395 -0.14377984 0.014124185
0.069023989 -0.14432289 0.015128553
0.068844579 -0.14179929 0.015088469
0.069650337 -0.14134921 0.015673161
0.070711322 -0.14142264 0.015466422
0.071973205 -0.14189003 0.01543811
0.072785452 -0.14147031 0.014665902
0.074788496 -0.14334461 0.013787836
0.075174272 -0.14211026 0.01252383
0.077392772 -0.14432706 0.011651427
0.076915123 -0.14152382 0.0080289245
0.078416124 -0.14238717 0.0052544177
-0.074114025 -0.14715393 0.0053475499
-0.07354176 -0.14816502 0.0069354177
-0.070415385 -0.14398369 0.0095499456
-0.069769397 -0.14482436 0.011830688
-0.069343135 -0.14615399 0.012861133
-0.065472342 -0.14015172 0.013748705
-0.065192543 -0.14176792 0.014635086
-0.064224474 -0.14191538 0.015589863
-0.062817715 -0.14108241 0.016321719
-0.062664472 -0.14308387 0.016545057
-0.061533973 -0.14288397 0.016366243
-0.060191587 -0.14217669 0.015674442
-0.059805851 -0.14374389 0.015274942
-0.058236606 -0.1424717 0.015040368
-0.058177754 -0.14491551 0.014444232
-0.057915363 -0.14693342 0.013298988
-0.055857494 -0.14438635 0.012121737
-0.054786667 -0.1443418 0.010632187
-0.054627936 -0.14674564 0.0092020333
-0.053187221 -0.14573298 0.0074015856
-0.052689202 -0.1473147 0.0061383247
-0.051653914 -0.14742887 0.0050703883
-0.033280391 -0.14707786 0.0055024922
-0.031996284 -0.14611636 0.0057354867
-0.031079097 -0.14682195 0.0059542656
-0.029974354 -0.14666024 0.0058732629
-0.028692979 -0.14559031 0.006141454
-0.028105101 -0.14809225 0.0064587295
-0.026869964 -0.1472474 0.0064360797
-0.025654066 -0.14644195 0.0064565837
-0.024682444 -0.1470215 0.0065765679
-0.023514783 -0.14643297 0.006642133
-0.022369228 -0.14593259 0.0068327785
-0.021514945 -0.14737737 0.0067256391
-0.020231223 -0.14587776 0.0066731274
-0.019174904 -0.14594233 0.0066731274
-0.018266506 -0.14720654 0.0070925057
-0.016991878 -0.14549296 0.0070328116
-0.016004181 -0.14617151 0.0066659451
-0.014986602 -0.14665459 0.0074053109
-0.013770173 -0.14511645 0.0073307455
-0.012811377 -0.14626321 0.0076044798
-0.011786913 -0.14680065 0.0073328018
-0.010602298 -0.14525148 0.0074248314
-0.0096023204 -0.14616865 0.0078136623
-0.0085116513 -0.14576204 0.0079748929
-0.0074758125 -0.14631233 0.0079748929
-0.006438659 -0.14701605 0.0080695748
-0.005317728 -0.14570574 0.0081182718
-0.0042779977 -0.14652142 0.0078623593
-0.0032208303 -0.14708459 0.0078751743
-0.0021319636 -0.1460395 0.0078524947
-0.001062258 -0.14552934 0.0075953305
0 -0.14701544 0.0077211261
0.0010582877 -0.14498541 0.0075987279
0.0021236674 -0.14547122 0.0079244375
0.0032131865 -0.14673552 0.0079244375
0.0042348597 -0.14504394 0.0076684654
0.0053630574 -0.14694777 0.0076570213
0.0064575011 -0.14744627 0.0074755251
0.0074471948 -0.14575225 0.0075708926
0.0085789561 -0.14691462 0.0074207187
0.0096311131 -0.14660694 0.0075921118
0.010702414 -0.14662308 0.007463038
0.011891822 -0.14810725 0.0074903071
0.012791474 -0.146036 0.0073779225
0.013790963 -0.14533554 0.0070509911
0.014989918 -0.14668706 0.0066217482
0.015998852 -0.14612284 0.0067869127
0.017177571 -0.14708295 0.0068477392
0.018255433 -0.14711732 0.0066839159
0.01918556 -0.14602342 0.006370157
0.020266088 -0.14612916 0.0060690045
0.021331461 -0.1461205 0.0058528781
0.022323245 -0.14563259 0.0057983696
0.023530405 -0.14653026 0.005815804
0.024584465 -0.1464379 0.0055412352
0.025737833 -0.14692013 0.0057983696
0.026748708 -0.14658292 0.0053736269
0.027713001 -0.14602619 0.0055335462
0.028898932 -0.14663532 0.0054377019
0.033467233 -0.14790358 0.0053078532
0.060449537 -0.14788547 0.0067179203
0.061130781 -0.14692837 0.0075231493
0.060899485 -0.14384879 0.008276701
0.062596455 -0.14535108 0.0097976029
0.063347019 -0.14464235 0.010739118
0.064101383 -0.14396541 0.012253821
0.065586857 -0.1449258 0.013370007
0.064746015 -0.1407969 0.014016598
0.066641562 -0.14265458 0.014314711
0.067581594 -0.1424412 0.015479922
0.068058662 -0.14127329 0.015966892
0.068840064 -0.14076251 0.016560853
0.069717176 -0.1404596 0.016874284
0.069835506 -0.1386589 0.017392963
0.072998986 -0.14286944 0.016909063
0.073580705 -0.14197966 0.015621126
0.074918509 -0.14255327 0.014410883
0.075399362 -0.1415029 0.013386667
0.076801471 -0.14218651 0.012207687
0.0773471 -0.14128737 0.0089758933
0.080474839 -0.14506648 0.0059773922
-0.072627887 -0.14525577 0.0073396564
-0.071760148 -0.1456624 0.0091517568
-0.070310473 -0.14488219 0.011820346
-0.068635583 -0.14360677 0.013025939
-0.066498674 -0.14130968 0.014151633
-0.06521409 -0.14077961 0.015022784
-0.063656859 -0.1396344 0.015908152
-0.062913582 -0.14026634 0.016565681
-0.0628649 -0.14249377 0.016765982
-0.061028156 -0.14067507 0.01657933
-0.061216164 -0.14354135 0.015988171
-0.05989622 -0.14291027 0.015708953
-0.058848239 -0.14291716 0.015452653
-0.058061656 -0.14357063 0.015008777
-0.057065304 -0.14372003 0.013710469
-0.055929337 -0.14351679 0.01289326
-0.055236474 -0.14446463 0.011475921
-0.054427538 -0.1451401 0.01015228
-0.05386455 -0.14651157 0.0088588595
-0.053644877 -0.14889191 0.0070457458
-0.051821481 -0.14682753 0.0058574378
-0.032952849 -0.14456733 0.0052160025
-0.032378107 -0.14678076 0.0052886307
-0.031086436 -0.14578466 0.005568862
-0.029837323 -0.14492413 0.0060866773
-0.028942494 -0.14578441 0.0063685477
-0.028202603 -0.1475213 0.0065768063
-0.026630741 -0.14487123 0.0066536069
-0.025799336 -0.14619623 0.0066622496
-0.024654262 -0.14578173 0.0066622496
-0.023367936 -0.14445633 0.0069334507
-0.022752514 -0.14734961 0.0068815351
-0.021372018 -0.14532973 0.0064370036
-0.020359769 -0.14573309 0.0065037906
-0.019315897 -0.14594233 0.0066795945
-0.018105693 -0.14484555 0.0063675046
-0.017230008 -0.14645506 0.0062576234
-0.01615461 -0.14646846 0.00622347
-0.014882309 -0.14457101 0.0071069002
-0.014010679 -0.14657326 0.0070814788
-0.012896196 -0.14615689 0.0071491599
-0.011647586 -0.14400652 0.0074825883
-0.01070377 -0.14557128 0.0072748363
-0.0096664773 -0.14607121 0.0075503886
-0.0084932633 -0.14438549 0.0077544749
-0.0074916929 -0.14555289 0.0076215565
-0.0064245434 -0.14562298 0.0076215565
-0.0053269849 -0.14489399 0.0083125234
-0.0042968001 -0.14609121 0.0077885091
-0.0031926064 -0.14473149 0.0078912079
-0.0021336533 -0.14508842 0.0078912079
-0.0010737733 -0.14603315 0.0076685548
0 -0.14500144 0.0083105564
0.0010671326 -0.14513004 0.0081835389
0.002128317 -0.14472556 0.0082888901
0.0031749972 -0.14393321 0.0082409382
0.0042778277 -0.14544614 0.0080050528
0.0053922008 -0.14666787 0.0078366101
0.0063395277 -0.14369597 0.0076722801
0.0074734339 -0.14519814 0.0077124536
0.0085312035 -0.14503045 0.0074494481
0.0096173957 -0.14532954 0.0073809326
0.010715032 -0.14572443 0.007199049
0.011728431 -0.14500606 0.0071827471
0.012751822 -0.14452066 0.0070950389
0.014066149 -0.14715356 0.0068836212
0.014913005 -0.14486919 0.0067538917
0.016039066 -0.14542086 0.0066499412
0.017230008 -0.14645506 0.0064543188
0.018062389 -0.14449911 0.0061814487
