ply
format ascii 1.0
comment PCL generated
element vertex 1309
property float x
property float y
property float z
element camera 0
property float view_px
property float view_py
property float view_pz
property float x_axisx
property float x_axisy
property float x_axisz
property float y_axisx
property float y_axisy
property float y_axisz
property float z_axisx
property float z_axisy
property float z_axisz
property float focal
property float scalex
property float scaley
property float centerx
property float centery
property int viewportx
property int viewporty
property float k1
property float k2
end_header
0.13507275 -0.16084999 0.0096953213
0.13199393 -0.15599282 0.009321183
0.13690828 -0.16058415 0.0096035004
0.13831952 -0.1610287 0.0098127425
0.13570417 -0.15681371 0.0096007288
0.14154163 -0.16235657 0.0093704462
0.13982123 -0.1592125 0.0090881288
0.13822494 -0.15625428 0.0084391236
0.14289463 -0.16037095 0.008564204
0.14239644 -0.15867031 0.0082860291
0.14372383 -0.1590136 0.0077660382
0.14692777 -0.16141361 0.0073767006
0.14736262 -0.16075923 0.0072329342
0.14865007 -0.16103756 0.0070444047
0.15006831 -0.1614528 0.006526947
0.14911839 -0.15933198 0.0062235296
0.1529575 -0.16232225 0.0059784949
0.15191348 -0.16012502 0.0056138039
0.15026866 -0.15732826 0.0050340891
0.013647501 -0.1627202 0.005317688
0.015170102 -0.1679547 0.0068172514
0.016145151 -0.16683322 0.0071949959
0.016681217 -0.16159929 0.0073026121
0.017584743 -0.16033147 0.0073535442
0.018492907 -0.15924449 0.0083410442
0.019563815 -0.15959954 0.0082308352
0.020894384 -0.16193147 0.0086294115
0.021479296 -0.15853767 0.0086057484
0.022823771 -0.16080384 0.0087032616
0.023839282 -0.16065603 0.0088253021
0.024827478 -0.16034414 0.0087180734
0.025820291 -0.1600858 0.008236587
0.026938885 -0.16059721 0.0085148811
0.027849156 -0.15987478 0.0089900494
0.029157631 -0.16140832 0.00864923
0.029724421 -0.1588719 0.0087864101
0.031443838 -0.16245984 0.0087864101
0.032272503 -0.16136251 0.0085893571
0.033073813 -0.16020128 0.0083445907
0.034089442 -0.16011707 0.0086347163
0.035461243 -0.16166157 0.0084769428
0.036106627 -0.15990077 0.0086427927
0.037284125 -0.16052887 0.0087974072
0.038791247 -0.16250387 0.008683145
0.03879768 -0.1582537 0.0080203712
0.041077353 -0.16325615 0.0078189969
0.041311435 -0.1600818 0.0079829097
0.042654824 -0.16125603 0.007819742
0.04353299 -0.16065747 0.0080993474
0.044415798 -0.16010346 0.008203119
0.045232303 -0.15934107 0.0080503225
0.047053453 -0.162073 0.0078921616
0.047116671 -0.15876269 0.0077977479
0.048604403 -0.16029112 0.0078176558
0.050281782 -0.16236825 0.0078394413
0.050066058 -0.15837222 0.0075823069
0.051759984 -0.16045596 0.0078394413
0.052584231 -0.15981482 0.0078176558
0.054255757 -0.1617239 0.0079684556
0.055057727 -0.16101788 0.0085797012
0.056452956 -0.16204089 0.0085631609
0.056803189 -0.16008171 0.0085267723
0.059017904 -0.16335313 0.0083034039
0.05884793 -0.16002508 0.0082544386
0.060362443 -0.16131341 0.008228004
0.062269475 -0.1635893 0.0082494318
0.061629631 -0.15920988 0.008113414
0.063052721 -0.16021594 0.0080471337
0.065275177 -0.16318794 0.0078931153
0.065906711 -0.16215144 0.007840991
0.066480339 -0.16100706 0.0080055594
0.066534854 -0.15866002 0.008077383
0.068457976 -0.16077252 0.0087271929
0.068837352 -0.1592506 0.0085240006
0.070868641 -0.16153881 0.0086496174
0.070363313 -0.1580625 0.0086496174
0.073029973 -0.16170922 0.0084636807
0.073879898 -0.1612871 0.0084033012
0.073580787 -0.15840308 0.0084052682
0.076047212 -0.16147012 0.0080883503
0.075895913 -0.15897118 0.0079341531
0.077854067 -0.16089842 0.0079110861
0.07828927 -0.15966891 0.0079381764
0.079613857 -0.16026166 0.0075549781
0.080091782 -0.15915674 0.0076353252
0.082238384 -0.1613538 0.0075039864
0.081801504 -0.1584904 0.0076954365
0.085042045 -0.16273478 0.007612735
0.085699335 -0.16199265 0.0075496137
0.084710844 -0.15819494 0.0075136721
0.087689392 -0.16180781 0.0073931217
0.087520458 -0.15959613 0.0071377158
0.088547662 -0.15959172 0.0066652596
0.089679144 -0.15977319 0.0066652596
0.091266476 -0.16075344 0.0069008172
0.09219218 -0.16055942 0.0066052675
0.093238726 -0.1605778 0.0064724684
0.093170129 -0.15869637 0.0062665641
0.093778029 -0.15799558 0.0063166916
0.09656284 -0.16093807 0.0065619349
0.096976079 -0.15990736 0.0064724684
0.097452141 -0.15900086 0.0069397688
0.10026829 -0.16189151 0.0069515109
0.097765982 -0.15622398 0.0072119832
0.10251128 -0.16213518 0.0070868731
0.10057792 -0.15747048 0.0072164834
0.10202871 -0.15814449 0.0075357258
0.10367122 -0.1590994 0.0076932013
0.10529582 -0.16000836 0.0074796081
0.10404233 -0.15656856 0.007543236
0.10806208 -0.16105407 0.0077525079
0.1086216 -0.16034618 0.0075984001
0.10990037 -0.16070336 0.0076422393
0.10913631 -0.15809466 0.007706821
0.11185653 -0.16053483 0.0077165663
0.11327095 -0.16107337 0.0078248382
0.11531451 -0.16248864 0.0078252554
0.11361605 -0.15865304 0.0080095232
0.11768272 -0.16286448 0.0080465674
0.11631624 -0.15954882 0.0083054602
0.1177573 -0.1601086 0.0082874596
0.11875626 -0.16006278 0.0083465576
0.1222293 -0.16332363 0.0080075264
0.12038109 -0.15947923 0.0083059669
0.12256451 -0.16099575 0.0082939565
0.12253268 -0.15960139 0.0084839761
0.12384175 -0.15996227 0.0086178482
0.12466428 -0.15969391 0.0088776648
0.12509879 -0.15893699 0.008914113
0.12460434 -0.15702173 0.0089633465
0.12901019 -0.16126274 0.0090800822
0.1276146 -0.15824211 0.009131968
0.12775153 -0.15715466 0.0090338588
0.1317759 -0.16082884 0.0091519654
0.12867333 -0.15581535 0.0088455677
0.13383658 -0.16081141 0.0089791715
0.13398229 -0.15974811 0.0094236135
0.13188875 -0.15605158 0.0091630816
0.13331261 -0.15654132 0.0090766549
0.13510536 -0.1574536 0.009321183
0.13595884 -0.15726581 0.0098050237
0.13701265 -0.15731081 0.0096007288
0.1390966 -0.15852921 0.0093704462
0.14038576 -0.15883061 0.0092969239
0.14305946 -0.16068272 0.0084760189
0.14146599 -0.15774985 0.008777231
0.14333707 -0.15869461 0.0085292161
0.14562538 -0.16008464 0.0081045926
0.14606254 -0.15943447 0.0076399446
0.14672135 -0.15903364 0.0073767006
0.1489778 -0.16035804 0.0070823729
0.14698793 -0.15712503 0.0066307485
0.15401872 -0.16351302 0.0062896609
0.15173227 -0.1599898 0.0057534575
0.14952733 -0.15659957 0.0056294501
0.15618595 -0.16247532 0.0050919354
0.015612576 -0.16028911 0.0061285198
0.0170832 -0.16442579 0.0072455704
0.017533606 -0.15883385 0.0075401068
0.018677011 -0.1597922 0.0080322623
0.019685809 -0.15955865 0.0082888305
0.020450136 -0.15746605 0.0090120733
0.022002645 -0.16135272 0.0088088214
0.022814352 -0.15970045 0.0082961023
0.023756701 -0.1590666 0.0088906288
0.025297679 -0.16232677 0.0091007948
0.026037795 -0.16039282 0.0087976158
0.026810559 -0.158801 0.0090818107
0.028159799 -0.16061515 0.0090941489
0.029283322 -0.16105828 0.008800298
0.029764349 -0.15805896 0.0087641478
0.03104868 -0.15938322 0.0086231232
0.032259297 -0.16025585 0.0082549453
0.033385567 -0.16066803 0.0086231232
0.034264255 -0.15989985 0.0086777806
0.034751292 -0.15740292 0.0083440542
0.035995364 -0.1583796 0.008361578
0.037390634 -0.15994881 0.008454293
0.038127299 -0.158692 0.0084406734
0.039373476 -0.15956619 0.0083256662
0.040373381 -0.1594231 0.0083167851
0.04134319 -0.15917127 0.007882297
0.043259405 -0.16248654 0.0081941187
0.04330666 -0.15879108 0.0079325438
0.044078685 -0.1578632 0.0081154108
0.045608293 -0.15962902 0.00851354
0.04626831 -0.15834044 0.0082409084
0.047581811 -0.15929562 0.0081933141
0.048304778 -0.15827523 0.0082409084
0.048958458 -0.15707506 0.008469671
0.050749362 -0.15949799 0.008469671
0.052629221 -0.16209801 0.008569777
0.051995136 -0.15700492 0.0085584819
0.05384329 -0.15945898 0.0086577237
0.054920923 -0.15958154 0.0088884234
0.055560179 -0.1584494 0.0089108646
0.056696244 -0.15874948 0.0086480975
0.057813037 -0.15898585 0.0086561143
0.059508726 -0.16077797 0.0084416568
0.060543098 -0.16075236 0.0082528293
0.061271932 -0.15993012 0.0083079934
0.061899416 -0.15887517 0.0082789958
0.063351922 -0.15993765 0.0082359612
0.065310232 -0.16222219 0.0083801746
0.064926594 -0.15870945 0.0080827475
0.066808924 -0.16075897 0.0081103742
0.066543929 -0.15765792 0.0078190863
0.067840874 -0.15829538 0.0076693296
0.069882512 -0.16062547 0.0081061125
0.070434205 -0.15951276 0.0083166361
0.071007371 -0.15848021 0.0085583031
0.073020287 -0.16064464 0.0087625384
0.072137997 -0.15646833 0.0084969401
0.075362876 -0.16119282 0.0082925856
0.074270368 -0.15667994 0.0082092583
0.076760598 -0.15974504 0.0079333782
0.078072757 -0.1603094 0.007974714
0.078751497 -0.1595754 0.007761091
0.079966702 -0.1599334 0.0075021982
0.081185952 -0.16029021 0.0075266063
0.081644632 -0.15915535 0.0075172782
0.0836135 -0.16095598 0.0075949728
0.083301269 -0.15837525 0.007463634
0.083763041 -0.15731108 0.0075342655
0.086153701 -0.15985145 0.0073599219
0.087576151 -0.16055629 0.0073283613
0.086106099 -0.156004 0.0070232153
0.088994004 -0.15936136 0.0069944263
0.090210393 -0.15968277 0.0069944263
0.090243876 -0.15792678 0.0070232153
0.092383206 -0.15985408 0.0069826543
0.092807621 -0.15880415 0.0070064068
0.09371376 -0.15859252 0.0069583356
0.094838031 -0.15875062 0.006834507
0.096458696 -0.15972731 0.007044673
0.09743499 -0.15962754 0.0073588789
0.099262208 -0.16090927 0.0073588789
0.097341791 -0.15615246 0.0073588789
0.10106239 -0.16044958 0.0074521303
0.10331949 -0.16235919 0.0074762702
0.10149933 -0.15788785 0.0075927377
0.10485209 -0.16147222 0.0077007115
0.10625688 -0.16201544 0.0077514052
0.10461796 -0.15795261 0.0077767968
0.10512146 -0.15717189 0.0078019798
0.10690466 -0.15830113 0.0078106523
0.10790113 -0.158255 0.0078826845
0.11072759 -0.16086839 0.0078106523
0.10909466 -0.15701474 0.0082110465
0.11147225 -0.15895118 0.0081677437
0.11334108 -0.16013327 0.0081828237
0.11380186 -0.1593226 0.0081276894
0.11330888 -0.15720332 0.0082185268
0.11807875 -0.16235828 0.0080234408
0.11508343 -0.15683936 0.0079488754
0.11688202 -0.15789326 0.0084761083
0.11659332 -0.15613367 0.0084427297
0.11860887 -0.15746351 0.008096993
0.12027659 -0.15831277 0.0085728467
0.1237912 -0.16155802 0.0088377893
0.12150062 -0.1572361 0.008937031
0.12501946 -0.16044164 0.0090457499
0.12280542 -0.15629782 0.0091460049
0.12679513 -0.16005287 0.0091948509
0.12749526 -0.1596282 0.0091520548
0.12630823 -0.15686667 0.0093668699
0.12869589 -0.15855333 0.0095142126
0.13119493 -0.16034935 0.0097451508
0.12847236 -0.15578538 0.0098736584
0.13355047 -0.16067791 0.0092864335
0.13285528 -0.15860243 0.0091519654
0.13198934 -0.1563566 0.0096739233
0.13541187 -0.15918648 0.0097561479
0.1334444 -0.15568513 0.0096739233
0.13616703 -0.15766709 0.009927839
0.13652648 -0.15690356 0.010389715
0.13848013 -0.15796992 0.010206163
0.14030918 -0.15887952 0.0096721351
0.14108764 -0.15859486 0.0095435679
0.1415702 -0.15798414 0.0092861652
0.14289533 -0.15831569 0.0094164908
0.14596656 -0.16056322 0.0090512335
0.14271268 -0.15587059 0.0086621046
0.1464722 -0.15885013 0.0079180896
0.14735535 -0.15869036 0.0075799823
0.14391103 -0.15390486 0.0072648823
0.1498045 -0.15910272 0.006842047
0.1494725 -0.15766278 0.006882906
0.1498059 -0.15693952 0.0066642165
0.15117687 -0.15730566 0.00595963
0.15677109 -0.16203186 0.0058530271
0.018351441 -0.16516298 0.0057269633
0.018619608 -0.15826668 0.0073765218
0.01953833 -0.15733497 0.0080786049
0.020775348 -0.1589314 0.0081401169
0.02185707 -0.15924437 0.0082173347
0.022735186 -0.15811288 0.0088619888
0.023702184 -0.15767105 0.009206146
0.024723735 -0.15761381 0.0089361072
0.025802968 -0.15791416 0.0089313686
0.027361033 -0.16100915 0.0089899302
0.028050154 -0.15895088 0.0091182292
0.028861495 -0.15770745 0.0089899302
0.030230261 -0.15949069 0.0086814761
0.031158511 -0.15890841 0.00870502
0.032137055 -0.15861192 0.0086814761
0.033456042 -0.1599617 0.0088293552
0.033730678 -0.1563877 0.0088064969
0.035625018 -0.16031258 0.0084495246
0.036575492 -0.15988715 0.0081559122
0.037238222 -0.15826245 0.0081512332
0.038372722 -0.1586764 0.0081512034
0.039729979 -0.15996544 0.0081950128
0.040137637 -0.15746304 0.008210063
0.042262584 -0.16165438 0.008235991
0.042085644 -0.15705131 0.0082009435
0.043204855 -0.15738912 0.0081955492
0.045194071 -0.1608068 0.0082932413
0.04551724 -0.15827586 0.0082492828
0.046111956 -0.15678065 0.0082324743
0.048428267 -0.16107664 0.008340627
0.048623849 -0.15828614 0.0083466768
0.050383594 -0.16059771 0.0085530579
0.050436717 -0.15748607 0.0083943605
0.051576763 -0.15782489 0.0084944665
0.051987194 -0.15596157 0.0087153018
0.054483645 -0.16030765 0.0087616742
0.054595467 -0.15760578 0.0089799464
0.056293648 -0.15949866 0.0086856782
0.057875048 -0.16099785 0.0082963705
0.057417199 -0.15687199 0.0083827674
0.058924112 -0.15816472 0.0085590184
0.060052898 -0.15841541 0.0082095861
0.061170842 -0.15862948 0.0088236332
0.062716313 -0.15992659 0.0083393455
0.06293226 -0.1578465 0.0081930459
0.064700909 -0.15966514 0.0082109272
0.065421499 -0.15888079 0.0081503689
0.065949835 -0.15766132 0.0081669986
0.06731388 -0.15844651 0.0082049668
0.068660781 -0.15916818 0.0082369149
0.069182016 -0.15798281 0.0083470047
0.070983298 -0.15971243 0.0081790984
0.071871564 -0.15936738 0.008420676
0.07189633 -0.15714483 0.00819543
0.073399626 -0.15817103 0.0081061125
0.074732378 -0.15880631 0.008145839
0.075271167 -0.15776011 0.0080831647
0.076488838 -0.15814584 0.0080435276
0.077581041 -0.15826532 0.0078798234
0.077753089 -0.15652925 0.0078619421
0.082074441 -0.16308299 0.007496208
0.080306284 -0.15752386 0.0074678957
0.080853865 -0.1565904 0.0073548257
0.08251401 -0.15780805 0.0072854459
0.082285635 -0.15542842 0.0073832273
0.084769577 -0.15816762 0.0074047744
0.086494677 -0.15944199 0.0072261393
0.085993573 -0.15663116 0.0071950257
0.087386921 -0.15729646 0.0072316825
0.090433732 -0.16088793 0.0069583356
0.088918015 -0.15637305 0.0069847703
0.092932574 -0.16157596 0.0072697699
0.091118589 -0.15664206 0.0072697699
0.093624592 -0.15916181 0.0072408915
0.094711423 -0.15924008 0.0070397556
0.094554797 -0.15724874 0.0070319176
0.094905406 -0.15613469 0.0070157349
0.098534204 -0.16038014 0.0071953237
0.098373145 -0.15843253 0.0074124634
0.1007451 -0.16056252 0.0074124634
0.10125282 -0.15970807 0.0075175464
0.099885583 -0.15594383 0.0076646805
0.10239879 -0.15825267 0.0075621307
0.10395302 -0.15904811 0.0080791712
0.10313804 -0.15623882 0.0082349777
0.10534543 -0.15801814 0.0082221329
0.10874748 -0.16153751 0.0082560778
0.10671026 -0.15698721 0.0085324645
0.10837395 -0.15791634 0.0082900822
0.10995208 -0.15870443 0.0082661211
0.1098915 -0.15713458 0.0087020099
0.11191498 -0.15854622 0.0086874068
0.11151136 -0.15652512 0.0084623098
0.11242406 -0.15637165 0.0082827806
0.11394471 -0.15705892 0.0081503093
0.11408344 -0.15584612 0.0082153082
0.1172781 -0.15879247 0.0081982911
0.11814688 -0.15856555 0.0082120597
0.11421253 -0.15195233 0.0082120597
0.12038576 -0.15878467 0.0084427297
0.11958978 -0.15638663 0.0085423887
0.12061591 -0.15639181 0.0087449849
0.12294385 -0.15807067 0.0089245737
0.1245202 -0.15876326 0.0091217756
0.12423638 -0.15709229 0.0092516243
0.12632228 -0.15842056 0.0093403161
0.12569669 -0.15635443 0.0092338026
0.12572896 -0.15513332 0.009316206
0.13021335 -0.15938114 0.0097519457
0.12772895 -0.15509945 0.0098754168
0.13028139 -0.15695317 0.010285914
0.13274048 -0.15866636 0.009988904
0.1306359 -0.15494026 0.0098045766
0.13171154 -0.15501437 0.0097974539
0.13557342 -0.15834147 0.009737581
0.13371594 -0.15498893 0.009717077
0.13689484 -0.15748052 0.00978899
0.13610628 -0.15540494 0.0099956393
0.13294938 -0.15067597 0.010046422
0.14077167 -0.15836813 0.010143727
0.1392701 -0.15553521 0.0097958148
0.14036283 -0.15561965 0.0096484423
0.14545505 -0.1601052 0.0097767413
0.1432188 -0.1565177 0.0095486641
0.143878 -0.15612292 0.0089214444
0.14737839 -0.15879501 0.0087101758
0.14711656 -0.15740442 0.0087065697
0.1478997 -0.15714343 0.0081010163
0.15204524 -0.16043393 0.0075151324
0.15036011 -0.15756916 0.0074158907
0.15053581 -0.15668012 0.0061205328
0.15356393 -0.1587519 0.0058659315
0.15224509 -0.15633221 0.0056531727
0.15734705 -0.160494 0.0053287148
0.018167902 -0.16244242 0.0056315958
0.018953776 -0.16005412 0.0061803162
0.019868659 -0.15894927 0.0072951615
0.020912021 -0.15893136 0.0085384548
0.021523999 -0.15579276 0.0085994303
0.022921531 -0.15836693 0.0083358586
0.024053345 -0.15896124 0.0087448657
0.024721507 -0.15656954 0.0086252987
0.026178719 -0.15916662 0.0085514784
0.027103014 -0.15844838 0.0085514784
0.027766194 -0.15631339 0.0085819066
0.029624945 -0.16082112 0.0086793303
0.030022249 -0.15735799 0.0084585845
0.031029377 -0.15721551 0.008531481
0.032595348 -0.15982234 0.008905232
0.033129267 -0.15736401 0.0087426305
0.034310754 -0.15803741 0.0093208551
0.035910729 -0.16054209 0.0085518062
0.035886515 -0.15585001 0.0085518062
0.037637167 -0.15891249 0.0087299347
0.039022923 -0.16031039 0.008572042
0.038857982 -0.15543193 0.0082887411
0.040389288 -0.15741466 0.0083024204
0.041368753 -0.15720126 0.008574605
0.042651858 -0.15812396 0.0082259774
0.043588508 -0.15774888 0.0083287358
0.044741023 -0.15815431 0.0084045827
0.045628794 -0.15762673 0.0084303617
0.04669331 -0.15771963 0.0081366003
0.048354752 -0.15978092 0.0084259808
0.048142347 -0.1556944 0.0084517598
0.050332006 -0.1593847 0.0081152618
0.050014824 -0.15514803 0.0082619488
0.051292185 -0.15592824 0.0086584687
0.053509675 -0.15947983 0.0086677074
0.053537004 -0.15649277 0.0092887878
0.055714019 -0.1597836 0.0090645254
0.056725908 -0.15967292 0.0090239048
0.056781985 -0.15692475 0.0085542202
0.058128506 -0.15777737 0.0085816979
0.059986398 -0.15996373 0.0085761845
0.060408339 -0.15831152 0.0086559057
0.062242322 -0.16035309 0.0089166164
0.062425103 -0.15814359 0.0090352595
0.062731445 -0.15631442 0.0088876486
0.064943783 -0.15921703 0.0087470412
0.065408327 -0.15781055 0.0084245801
0.066727214 -0.15847713 0.0081551075
0.06757164 -0.15801369 0.0084399283
0.067984901 -0.15657128 0.0082375109
0.06922207 -0.15704112 0.0083384216
0.069661066 -0.15571298 0.0082799494
0.071689337 -0.15792434 0.0083053708
0.072647132 -0.15774806 0.0083826184
0.074847393 -0.16023667 0.0080859363
0.075317025 -0.1590026 0.0080823302
0.075187899 -0.15655562 0.0082677603
0.076502934 -0.15714116 0.0080353618
0.07660725 -0.15525736 0.0080172718
0.079373613 -0.15874723 0.0077888072
0.079761155 -0.15745059 0.0077881217
0.081369631 -0.15856646 0.0076949894
0.08226271 -0.15827762 0.0076617897
0.081970848 -0.15574461 0.0074185431
0.084311947 -0.158215 0.0072716773
0.08612176 -0.15964034 0.0073815584
0.085057825 -0.15576854 0.0071380734
0.087874822 -0.15901159 0.0071420074
0.088512421 -0.15828104 0.0070941448
0.088715062 -0.15679872 0.0070258975
0.090178519 -0.15755327 0.007024765
0.091352746 -0.15779111 0.0070314407
0.092391521 -0.15779226 0.007019341
0.093393646 -0.1577315 0.007024765
0.094107457 -0.15719049 0.0070082545
0.094450042 -0.1560479 0.0071977973
0.096664205 -0.1579888 0.0072967112
0.097432502 -0.15755042 0.0074746013
0.096911505 -0.15505841 0.0075862408
0.099758454 -0.15795088 0.0074654818
0.099451832 -0.15584204 0.0075847507
0.10284834 -0.15951987 0.0075862408
0.10271075 -0.15769731 0.0078288615
0.10348044 -0.15729028 0.0084310472
0.10526451 -0.15841788 0.0083401799
0.10691662 -0.15932673 0.0082202554
0.10474627 -0.15457702 0.0082762241
0.10703634 -0.15643774 0.0086026192
0.10982111 -0.15897913 0.0083669126
0.11017617 -0.15798847 0.0082548261
0.11129719 -0.15810442 0.0085299611
0.11168872 -0.15719153 0.0084514618
0.11193843 -0.15609762 0.0084151328
0.11562686 -0.1597753 0.0086236596
0.11361733 -0.1555841 0.0085184276
0.11650211 -0.15811001 0.0082361996
0.11809836 -0.15885797 0.0084448755
0.11604313 -0.15472417 0.0086489618
0.11840105 -0.1564953 0.0084836483
0.1189169 -0.15582214 0.0084230304
0.11923219 -0.15489994 0.0088943541
0.1236279 -0.1592495 0.0089766383
0.12249397 -0.15646288 0.0090622604
0.12290958 -0.15568545 0.0093746483
0.12472032 -0.15667346 0.0094784796
0.12531899 -0.15613513 0.0094997883
0.12627062 -0.15604174 0.0091513395
0.13012978 -0.15951394 0.009383738
0.12686837 -0.15427193 0.0094526112
0.1272034 -0.15345173 0.0094526112
0.13217038 -0.15818816 0.010434628
0.12838787 -0.15246059 0.01060006
0.1306991 -0.15400204 0.010422945
0.13326856 -0.15582171 0.01063931
0.13289553 -0.15419939 0.01063624
0.13516904 -0.1556492 0.010274053
0.13868637 -0.15849872 0.010463774
0.13486125 -0.15297693 0.010528415
0.13756606 -0.15488918 0.0107418
0.13992107 -0.15638238 0.010677129
0.14019231 -0.15554184 0.010268658
0.14325966 -0.15779325 0.010042965
0.14098927 -0.15417533 0.009950757
0.14399594 -0.15633844 0.0097688735
0.14653355 -0.15796524 0.0093759894
0.14513695 -0.15535787 0.0090795457
0.14673387 -0.15596886 0.0089274943
0.1484731 -0.15672159 0.0085027814
0.14619324 -0.15325084 0.0079695284
0.15149066 -0.1577163 0.0075999498
0.15148552 -0.15663809 0.0064598918
0.15171266 -0.15581299 0.0058861673
0.15310711 -0.1561898 0.0057338774
0.15689933 -0.15899132 0.0053031743
0.15379049 -0.15480897 0.005259186
0.019352732 -0.16234793 0.0051327646
0.020184815 -0.16041616 0.0059729517
0.02049358 -0.15472652 0.0065828562
0.022044355 -0.1585094 0.0071989894
0.022958258 -0.15757714 0.0081509352
0.023836775 -0.1564936 0.0085050762
0.025247062 -0.1588461 0.0086548924
0.025883285 -0.15633504 0.008746326
0.02690855 -0.15627658 0.008779496
0.028303318 -0.15828893 0.0087745488
0.029286193 -0.15793625 0.0085443258
0.030053474 -0.15648533 0.0087567866
0.031645332 -0.15928149 0.0087745488
0.032091387 -0.15631612 0.0090789497
0.033557355 -0.15834877 0.009232223
0.034336675 -0.15711629 0.009232223
0.035225 -0.15644045 0.008905232
0.036536608 -0.15762936 0.00872612
0.037587576 -0.15765899 0.008826822
0.038196977 -0.15588497 0.0086353123
0.03974114 -0.15791875 0.0084653199
0.040369552 -0.15630263 0.0081933737
0.04122917 -0.15564013 0.0081855655
0.043146651 -0.15890597 0.0081933737
0.043044355 -0.15475471 0.0080811679
0.044302229 -0.15557295 0.0076985657
0.046526916 -0.15967192 0.0080236793
0.047072768 -0.15795529 0.0082735717
0.048100907 -0.15789646 0.0081280768
0.049328301 -0.15848029 0.0081646442
0.049613304 -0.15607519 0.0081624389
0.051556367 -0.15887778 0.0081135631
0.052412808 -0.15828669 0.0085123479
0.051869322 -0.15357387 0.0087425411
0.054165293 -0.15728767 0.0087835193
0.055585764 -0.15836699 0.0083167553
0.055635624 -0.15557368 0.0086475015
0.056955837 -0.15636966 0.0083134174
0.058302384 -0.15720822 0.0083937645
0.058919612 -0.1560853 0.0085537434
0.060814545 -0.15832752 0.0087888241
0.061561052 -0.15755455 0.0088556111
0.06216111 -0.1564388 0.0089976788
0.063295968 -0.15668346 0.0090023875
0.06403733 -0.15596189 0.0085983574
0.065563135 -0.15714338 0.0085325837
0.066739641 -0.15746383 0.0082075894
0.067542605 -0.15690668 0.008169204
0.068242252 -0.15613002 0.0084140301
0.069561072 -0.15677197 0.0084499419
0.070781335 -0.1571762 0.0083335042
0.07089062 -0.15513743 0.0083670914
0.073183544 -0.15786737 0.0084230304
0.07242728 -0.15403549 0.0081965923
0.074814126 -0.15690185 0.0081965029
0.075784229 -0.15675916 0.0081965029
0.076289795 -0.15567242 0.0083518922
0.078550257 -0.15814786 0.0084356368
0.0782637 -0.15549763 0.0083862245
0.080407105 -0.15768147 0.008405298
0.080902494 -0.15661894 0.0080172718
0.081958398 -0.15665466 0.0078210533
0.083217382 -0.15707281 0.0075847208
0.084457897 -0.15744621 0.0074770451
0.084360369 -0.15534653 0.0076392293
0.085928455 -0.15632766 0.0072906017
0.089022681 -0.16002887 0.0073435009
0.08743716 -0.15532954 0.0073435009
0.089507326 -0.15715821 0.0070941448
0.091159955 -0.15822014 0.0068526864
0.091985919 -0.15783948 0.00722754
0.09338434 -0.15843859 0.0070608854
0.093001738 -0.15603626 0.0070157349
0.094087198 -0.15612271 0.0072052777
0.095051855 -0.15600902 0.0074566901
0.097491555 -0.15829274 0.0075233281
0.096781425 -0.15546803 0.0077165961
0.098946191 -0.15727237 0.0077324212
0.098418362 -0.15480389 0.0077324212
0.1002898 -0.15612122 0.0079465508
0.1022669 -0.1575745 0.0079807937
0.1012629 -0.15445149 0.008374244
0.10437196 -0.15760167 0.0085538328
0.10566323 -0.15797177 0.008271873
0.1031407 -0.15268868 0.0085263848
0.10803474 -0.15838103 0.0085802674
0.1069296 -0.15525356 0.0087054372
0.10751943 -0.15462317 0.0085042119
0.11072583 -0.15773207 0.0083669126
0.11018974 -0.15550141 0.0086770654
0.11154758 -0.15596004 0.0084238648
0.11238402 -0.15568796 0.0083558857
0.11448475 -0.15715633 0.0084507763
0.11359771 -0.15453383 0.0081327856
0.11678201 -0.15744717 0.0086236596
0.1164462 -0.15560509 0.0081940591
0.11776642 -0.15598886 0.0086284876
0.11965729 -0.15711524 0.0085194707
0.11875851 -0.15459082 0.0086449385
0.12034243 -0.15531375 0.0086912215
0.12250815 -0.1567689 0.0087658763
0.11970397 -0.15189327 0.0087658763
0.12561099 -0.15806049 0.0091513395
0.12475372 -0.1556844 0.009008348
0.12460959 -0.15422989 0.009385556
0.12808491 -0.15724245 0.0094127953
0.12854561 -0.15653539 0.0095100999
0.12835716 -0.15505545 0.009526819
0.13207464 -0.15827993 0.0096820295
0.1323984 -0.15741856 0.0097438693
0.13261767 -0.15644741 0.010249436
0.13401881 -0.15687473 0.0098416507
0.1321954 -0.15355004 0.010307193
0.13619602 -0.15698931 0.010241389
0.13558103 -0.15509649 0.010307193
0.13300776 -0.15100881 0.010769188
0.13963057 -0.15734489 0.010622799
0.13813683 -0.15450861 0.010769188
0.13915233 -0.15450002 0.010891706
0.14187168 -0.15636951 0.010891706
0.14235055 -0.15576039 0.010530949
0.13981669 -0.15188719 0.010489941
0.14471871 -0.15608947 0.010101825
0.14488493 -0.15516044 0.0098126233
0.14526047 -0.15446712 0.0094828606
0.14806589 -0.1563493 0.0094254911
0.14623271 -0.15334125 0.0090714395
0.15146525 -0.15773278 0.0086983442
0.15351193 -0.15876919 0.0082232952
0.14921151 -0.15327169 0.0068213642
0.15692717 -0.16010812 0.0062389076
0.15503234 -0.1571133 0.0060799122
0.15452734 -0.15555751 0.0056295395
0.020345042 -0.16061875 0.0050913393
0.020570125 -0.15427594 0.0054290593
0.022070799 -0.15764856 0.0060094893
0.023094367 -0.1574616 0.0070516765
0.024234125 -0.15804864 0.0078434944
0.025009649 -0.1563103 0.0079301
0.025863159 -0.15517896 0.0084483325
0.027388018 -0.1580078 0.0088460445
0.028009346 -0.15560748 0.008900553
0.02898298 -0.15526597 0.0091168284
0.030409437 -0.15729019 0.0090487003
0.031032225 -0.15516113 0.0089656711
0.032060981 -0.15513378 0.0090354681
0.033297401 -0.15608156 0.0091638863
0.034217387 -0.15553358 0.0088980794
0.035914876 -0.15844798 0.0088524222
0.036832605 -0.15785402 0.0088467002
0.03703798 -0.1543249 0.0089339614
0.038312308 -0.15532017 0.008993417
0.039884351 -0.15743822 0.00892061
0.039943233 -0.15362783 0.0086001754
0.042425822 -0.15909682 0.0084913373
0.042238537 -0.15453124 0.0086001754
0.04349672 -0.15534543 0.0083912313
0.045029435 -0.15707941 0.008269161
0.045512032 -0.15515465 0.008449316
0.046647597 -0.15549199 0.0085329711
0.048663627 -0.15868574 0.008449316
0.048533104 -0.15489289 0.0081183314
0.050009172 -0.15627867 0.007812053
0.050951008 -0.15597248 0.0078027546
0.051296066 -0.1538882 0.007873714
0.052592561 -0.15468401 0.0081879497
0.054323893 -0.15670353 0.0081712306
0.05451123 -0.15427707 0.0080986321
0.056268904 -0.15630251 0.0080336928
0.057793155 -0.1576177 0.0078831017
0.057370082 -0.15366986 0.0081564784
0.060132015 -0.15824214 0.008335948
0.060001791 -0.15517704 0.0084290206
0.060882032 -0.15478483 0.0085791051
0.063551307 -0.15887827 0.0088934898
0.063562825 -0.15630202 0.0087344944
0.064380363 -0.15575895 0.0086301863
0.066076659 -0.15732537 0.0086301863
0.065885261 -0.15441857 0.0083549321
0.067698188 -0.15622659 0.0083102882
0.069170207 -0.15720502 0.0081855357
0.067679659 -0.15152162 0.0083549321
0.070928149 -0.15645915 0.0081607401
0.072359517 -0.1573033 0.0084936917
0.07292892 -0.15627626 0.0084906816
0.073311798 -0.15488409 0.0079014599
0.075015061 -0.15628137 0.0079343617
0.076000489 -0.15616539 0.0079569221
0.077887721 -0.15788053 0.0082024634
0.078651153 -0.15730231 0.0082082152
0.079006739 -0.15593435 0.0082982481
0.081142455 -0.15806973 0.0082351565
0.080776878 -0.15534015 0.0083518922
0.08181753 -0.15534975 0.0077829957
0.083809227 -0.1571423 0.0074400604
0.08286956 -0.15346214 0.0073243678
0.084998935 -0.15548585 0.0078210533
0.085651323 -0.15479155 0.007679373
0.086013608 -0.15359573 0.0075847208
0.088504434 -0.15618429 0.0075134635
0.089295059 -0.15574719 0.0075018108
0.089248598 -0.1538769 0.0074464977
0.092664942 -0.15795161 0.0073795319
0.092556544 -0.15599418 0.00747329
0.09277951 -0.15463252 0.0074986219
0.095075026 -0.15671708 0.0074080527
0.096546344 -0.15741251 0.0075560212
0.09621197 -0.1551806 0.0077343583
0.098371238 -0.15697539 0.0078113377
0.097819656 -0.15445209 0.0077640414
0.10020494 -0.15657023 0.0077640414
0.10115048 -0.15641828 0.0079458952
0.10122442 -0.15493533 0.0080423057
0.10257559 -0.15541756 0.0081853867
0.10301781 -0.15452671 0.0084192157
0.10352328 -0.15374745 0.008297652
0.10541604 -0.15502359 0.008212477
0.10674243 -0.15545014 0.0083758533
0.10765845 -0.15527661 0.0084087253
0.10777579 -0.15396541 0.0081593692
0.11064159 -0.15656829 0.0082892776
0.11056673 -0.15500009 0.0084521174
0.11340892 -0.1575124 0.0083846748
0.1133998 -0.15605478 0.0084407032
0.11453465 -0.15618362 0.008186996
0.11602355 -0.15678859 0.0082096756
0.11520536 -0.1542929 0.0083698034
0.11751575 -0.15599436 0.0082877278
0.1191422 -0.15676606 0.0085005164
0.11842552 -0.15446807 0.0081882775
0.12007714 -0.15527217 0.0086556673
0.12208898 -0.15652435 0.008960098
0.12138645 -0.15430482 0.0087467432
0.12097877 -0.15249425 0.0089620054
0.12344209 -0.15430261 0.0090894401
0.12481386 -0.15472794 0.0092679262
0.12788303 -0.15723324 0.0089666545
0.12567146 -0.15325788 0.0085217059
0.12846071 -0.15539601 0.0091215372
0.12969927 -0.15563913 0.0092579126
0.13033059 -0.15515547 0.008751899
0.13046986 -0.15409826 0.0087290406
0.13398257 -0.15701082 0.010163546
0.13127279 -0.15264277 0.010113746
0.13540152 -0.15623252 0.01051259
0.13614331 -0.15588929 0.010500312
0.13314565 -0.15130188 0.010865927
0.13566901 -0.15301016 0.010968536
0.14029647 -0.1570483 0.010860711
0.13848117 -0.15386796 0.011002362
0.14092733 -0.15543456 0.011002362
0.13712001 -0.15013139 0.010979086
0.14165525 -0.1539731 0.010772258
0.14230727 -0.153569 0.010842472
0.14198668 -0.15212859 0.010454357
0.14441103 -0.15362875 0.010388345
0.14811637 -0.15646096 0.0099626482
0.1453689 -0.15248486 0.0097552538
0.14941972 -0.15564555 0.009398669
0.15024012 -0.15542082 0.0093983412
0.15021507 -0.15433055 0.0084889233
0.15261213 -0.15572667 0.0070448816
0.15402518 -0.15610661 0.0062499642
0.15277079 -0.15379609 0.0063613653
0.15716945 -0.15716945 0.0053534806
0.021725766 -0.15414947 0.0055721402
0.023048289 -0.15609978 0.0060777068
0.02427518 -0.15726095 0.0070075393
0.024993103 -0.15516552 0.0077027977
0.026262743 -0.15652595 0.0080254078
0.027104653 -0.15533051 0.0080866814
0.028119043 -0.15517545 0.0083441436
0.029678479 -0.15793191 0.0079592168
0.030037267 -0.1543294 0.0080592036
0.031148702 -0.15470521 0.0080839097
0.032517765 -0.15629506 0.0084680021
0.033145793 -0.15433511 0.008687675
0.034391928 -0.15528476 0.008226335
0.035766151 -0.15673989 0.0084350705
0.036287557 -0.15448131 0.0083373189
0.037529796 -0.15533166 0.0084158182
0.038796153 -0.15623315 0.008589536
0.03936857 -0.15436624 0.0089339614
0.040624045 -0.15520468 0.0087998807
0.0415016 -0.15459345 0.0086260438
0.042675637 -0.15508951 0.0087214112
0.043651976 -0.15486057 0.0085321665
0.04473573 -0.1550145 0.0085931718
0.046024617 -0.15585609 0.008880645
0.047361255 -0.15681837 0.0085833967
0.04756726 -0.15407656 0.008510083
0.048799902 -0.15470608 0.0077532828
0.050865307 -0.15789439 0.007450521
0.050934345 -0.15488198 0.0078921914
0.052627828 -0.15683094 0.0080350041
0.052872721 -0.15447128 0.0081730187
0.053872291 -0.15436484 0.0080368817
0.054897979 -0.15433583 0.0082747042
0.056871187 -0.15692234 0.0080350041
0.056382708 -0.15274589 0.0079850554
0.058578044 -0.15585944 0.0083661973
0.058940433 -0.15407236 0.0082208216
0.060634021 -0.15576671 0.0083913803
0.061693221 -0.15580152 0.0087882876
0.062399689 -0.15495923 0.0088348687
0.063552737 -0.15523538 0.0089808106
0.065170802 -0.15662016 0.0087565482
0.065454558 -0.15480523 0.0086975992
0.066540219 -0.15491395 0.0085164011
0.068597838 -0.15724735 0.008656621
0.068047471 -0.15362231 0.0086674988
0.069931842 -0.15552008 0.0087188184
0.071734056 -0.15718198 0.0091419518
0.070806675 -0.15290137 0.0090888143
0.073331416 -0.15609115 0.0089923441
0.074584037 -0.15652142 0.0078481436
0.074577332 -0.15433364 0.0085815787
0.076508455 -0.1561611 0.0082350075
0.07583151 -0.15268777 0.0084142089
0.07724081 -0.15345174 0.0084142089
0.079200543 -0.15527475 0.0081914663
0.079713762 -0.15425131 0.0081375539
0.080506384 -0.15378784 0.0077822506
0.082205661 -0.15504612 0.0074960589
0.082742363 -0.15410766 0.007375896
0.084215879 -0.15491563 0.0073961914
0.086257793 -0.15673673 0.0078671575
0.084693521 -0.15204017 0.0075726807
0.08763063 -0.15544005 0.0076587498
0.087936394 -0.15414733 0.0076557398
0.08779899 -0.15211685 0.0075697303
0.089578554 -0.15341614 0.0075744689
0.091561697 -0.15503061 0.0075744689
0.092131682 -0.15424292 0.0076227784
0.09342581 -0.15467162 0.0076726973
0.093794145 -0.15357503 0.0076724589
0.095479481 -0.15463525 0.0079218745
0.097562246 -0.1563094 0.0078456998
0.097282089 -0.15420246 0.0079798698
0.098494433 -0.15448074 0.007912308
0.099440195 -0.15433946 0.0079535246
0.10122267 -0.15548638 0.0081215203
0.1012518 -0.15394408 0.0081467927
0.10276769 -0.15467057 0.0081687272
0.10400631 -0.15496939 0.0081748664
0.10479209 -0.15459427 0.0081434548
0.10557257 -0.15421875 0.0081661642
0.10605372 -0.15341751 0.0081554949
0.10770515 -0.15430833 0.0082455575
0.10825347 -0.15361683 0.0081913769
0.11062919 -0.15550707 0.0082455575
0.10987086 -0.15299773 0.0088495612
0.11244977 -0.15513903 0.0083518326
0.11404412 -0.15589517 0.0088994801
0.11541593 -0.15633613 0.008577019
0.11505168 -0.15443873 0.0085856318
0.1170103 -0.15566549 0.0084281266
0.11767521 -0.15516464 0.0085337758
0.11760255 -0.15370859 0.008380264
0.11852815 -0.15357126 0.0081653297
0.1205358 -0.15482616 0.0085433722
0.11874279 -0.15121946 0.0086269379
0.12364129 -0.15612333 0.0085005164
0.12477114 -0.15622605 0.0089018345
0.12358245 -0.15344821 0.0089018345
0.12688929 -0.1562521 0.0085217059
0.1258373 -0.15368652 0.0087209344
0.12634857 -0.1530564 0.0088621378
0.13082123 -0.15719648 0.0086847544
0.12817675 -0.15278667 0.0088144243
0.12974699 -0.15343097 0.0090163052
0.13235322 -0.15528055 0.0090212226
0.13000961 -0.15133929 0.0088140965
0.13527659 -0.1562497 0.0087069869
0.13350239 -0.15301427 0.010176837
0.13287851 -0.15113662 0.010295153
0.13667086 -0.15427241 0.010670125
0.13804208 -0.15464865 0.011051625
0.13712935 -0.15247966 0.010751456
0.13808514 -0.15240508 0.011110574
0.13888732 -0.15216331 0.010845989
0.14075728 -0.15308638 0.011000961
0.14267625 -0.15404899 0.010815322
0.14181499 -0.15201752 0.011022061
0.14418258 -0.15345146 0.010948628
0.1436296 -0.15177879 0.010508299
0.14733936 -0.15460256 0.010556281
0.14509375 -0.15118161 0.010333776
0.15238559 -0.15767676 0.0098525882
0.14707232 -0.15112948 0.0099910498
0.15014626 -0.15323146 0.009331286
0.15449168 -0.15659361 0.0074719191
0.15170136 -0.15272638 0.0068576932
0.15087716 -0.15087716 0.0064632595
0.15841968 -0.15736356 0.0057369471
0.02317662 -0.15591544 0.0058174729
0.02389843 -0.15378121 0.0065351427
0.02533889 -0.1562565 0.0068917871
0.02620142 -0.1551124 0.0076713562
0.027343208 -0.15564595 0.0080623031
0.028379403 -0.15556116 0.0082800984
0.029123202 -0.15393692 0.0080410242
0.03052618 -0.15578878 0.0079350471
0.031471245 -0.15525815 0.0081297755
0.03223975 -0.1539188 0.0085447431
0.033867173 -0.15663567 0.0083714724
0.034568444 -0.15503423 0.0086361468
0.035072468 -0.15266839 0.008276403
0.036620334 -0.15485169 0.0085249841
0.037760239 -0.15523654 0.0084449649
0.038445156 -0.15378062 0.0085798204
0.039910048 -0.15543912 0.0083088279
0.041015204 -0.15564744 0.0084597766
0.04182056 -0.15473606 0.0081855357
0.042685524 -0.15408434 0.0083088279
0.043585803 -0.15358806 0.0080074668
0.044589967 -0.15347244 0.0078175664
0.046774566 -0.15733263 0.0080131292
0.047003701 -0.15458995 0.0080757439
0.048057176 -0.15461874 0.0079814792
0.049105261 -0.15462933 0.0079346597
0.049676031 -0.15316775 0.0076298118
0.051421542 -0.15531404 0.0076267123
0.052987888 -0.15684414 0.0077806413
0.052494425 -0.15233676 0.0077534318
0.054589193 -0.15536924 0.0080133975
0.05500019 -0.15358543 0.0082534254
0.055964015 -0.15338285 0.0081733167
0.057191219 -0.15389638 0.0082534254
0.05795775 -0.15317406 0.0082043707
0.059827961 -0.15534277 0.0083805323
0.061199088 -0.15616319 0.0084547997
0.060937129 -0.15285924 0.0085813999
0.062980123 -0.15535098 0.0088129342
0.06413915 -0.15561628 0.0087405145
0.064344771 -0.15359719 0.0088257492
0.065553643 -0.15399905 0.0086003244
0.06712117 -0.15521771 0.0086548924
0.067540117 -0.15378365 0.0086555481
0.068565182 -0.15375222 0.008682996
0.070080027 -0.15480365 0.0087606609
0.070245534 -0.15288734 0.0089442432
0.072036184 -0.15451239 0.0089442432
0.07340084 -0.15519035 0.0087726116
0.072953157 -0.15207137 0.0084141493
0.075053178 -0.15427598 0.0085883737
0.075543858 -0.15315741 0.0083146393
0.07714729 -0.15429458 0.0085177422
0.078778215 -0.15545568 0.0083001554
0.07926216 -0.15435264 0.0083612502
0.079860486 -0.15349808 0.008323282
0.082062654 -0.15570863 0.0077371895
0.081762403 -0.15317513 0.0075486898
0.083648205 -0.15474917 0.007314235
0.084627472 -0.15462798 0.0074308515
0.085031718 -0.15347189 0.007601887
0.08573667 -0.15287985 0.0073587
0.087960057 -0.15497725 0.0074371696
0.087690711 -0.152685 0.0073800683
0.090053074 -0.15497506 0.007332027
0.08991345 -0.1529562 0.0072998106
0.091242082 -0.15345259 0.007332027
0.092346124 -0.15356433 0.0072784722
0.094191484 -0.15489265 0.0074148178
0.094101839 -0.15304475 0.0076290965
0.096419916 -0.1551103 0.0077669322
0.097038679 -0.15442714 0.0081262589
0.097043738 -0.15279227 0.0086573362
0.098924227 -0.15411353 0.0084098279
0.098971307 -0.15258077 0.0083507299
0.10053273 -0.15339015 0.0078823566
0.10184012 -0.15379937 0.0079452097
0.10057313 -0.15035175 0.0082272291
0.10319859 -0.15273391 0.0082387328
0.10672039 -0.15638235 0.0080930591
0.10444023 -0.15154073 0.0082272291
0.10795859 -0.15512498 0.0078686178
0.10822047 -0.15400605 0.0084992945
0.1084915 -0.15292136 0.0080330968
0.11278646 -0.15747543 0.0080818832
0.11235714 -0.15540987 0.0081607103
0.11244863 -0.15409626 0.0082612932
0.11234297 -0.15253907 0.0083552897
0.11360648 -0.15285234 0.0083544552
0.11525205 -0.1536694 0.0083751082
0.11569168 -0.15287828 0.0085356534
0.11750696 -0.15390292 0.0084418356
0.11985864 -0.15560594 0.0083075166
0.11878685 -0.15287352 0.0085372329
0.118226 -0.15084007 0.0086196065
0.11985955 -0.15161721 0.0086697936
0.12467558 -0.15637276 0.0084457695
0.12155153 -0.15117332 0.0083910525
0.12457729 -0.15364534 0.008457005
0.12394105 -0.15159732 0.0088095069
0.12578645 -0.1525934 0.0090496838
0.12815727 -0.15420549 0.0086974204
0.12747745 -0.15215051 0.0088621378
0.13002628 -0.15395111 0.0089326203
0.1305033 -0.15328959 0.0088144243
0.13201506 -0.15384434 0.0091382563
0.13124369 -0.15175052 0.0088320076
0.13548502 -0.15544018 0.0085876584
0.12950477 -0.1474362 0.0090948045
0.13557246 -0.15316583 0.0092687011
0.13660118 -0.1531589 0.010459632
0.13507964 -0.15031418 0.010574788
0.13850625 -0.15297705 0.010550469
0.13907075 -0.15246275 0.010795116
0.13992497 -0.1522713 0.010786414
0.14145002 -0.15280733 0.010845989
0.14090762 -0.15111831 0.010806978
0.14401339 -0.153338 0.010952204
0.14346796 -0.15166612 0.010847151
0.14433955 -0.15150535 0.010749608
0.14565925 -0.15181388 0.010523468
0.14644887 -0.15156946 0.010391682
0.14894836 -0.15308581 0.010268986
0.15037777 -0.15348904 0.0099613965
0.15331097 -0.15541112 0.0077692568
0.14855966 -0.14957027 0.0074633956
0.15716045 -0.15716045 0.0064046979
0.15477481 -0.15373605 0.0059443712
0.15446474 -0.15240522 0.0051597953
0.024059458 -0.15377131 0.0059539676
0.025223466 -0.15449372 0.0063952506
0.026069321 -0.1532876 0.0069877207
0.027652223 -0.15634142 0.007340312
0.028133664 -0.15317217 0.0075954795
0.029430993 -0.1545127 0.0076421499
0.030630423 -0.15526456 0.0080976486
0.031323429 -0.15348481 0.0082404613
0.032461967 -0.15393256 0.0083683729
0.03361389 -0.1544138 0.0085834861
0.033626936 -0.14979272 0.0085065961
0.035826851 -0.15489845 0.0086695254
0.036250751 -0.15225315 0.0088168383
0.037585143 -0.15347268 0.0087323487
0.038714364 -0.15381113 0.0088476837
0.040253598 -0.15571786 0.0088376403
0.039977159 -0.15068313 0.0087659955
0.042374212 -0.15572524 0.0088351667
0.042846609 -0.15362076 0.0087975264
0.043890975 -0.15361841 0.0084666908
0.045388538 -0.15516546 0.0084852576
0.046102539 -0.15402439 0.008151114
0.046922144 -0.15327901 0.0084074438
0.048490889 -0.15496002 0.008151114
0.049240179 -0.15400651 0.008151114
0.050257243 -0.1539128 0.0082909763
0.051524989 -0.15457498 0.0082193613
0.052184366 -0.15342203 0.0079988539
0.053379577 -0.15385878 0.0078226626
0.054382782 -0.15373594 0.0078123212
0.055269461 -0.15329453 0.0082941949
0.057320092 -0.15603803 0.0082588196
0.057399873 -0.1534142 0.0080722868
0.058196105 -0.15276477 0.0082127154
0.060277212 -0.15545176 0.0080625117
0.060181078 -0.15252791 0.0082481503
0.061814081 -0.15401135 0.0087097585
0.063466504 -0.15549293 0.00881356
0.063520856 -0.15307485 0.0087310374
0.064799577 -0.15363771 0.0087808669
0.066210158 -0.15449038 0.0087449551
0.066145167 -0.15192717 0.0086991489
0.068254717 -0.15436065 0.0086073279
0.069094673 -0.15389268 0.0087310374
0.06870082 -0.15073165 0.0088353157
0.071130298 -0.15376697 0.0091250241
0.072448954 -0.15434778 0.0091250241
0.073165052 -0.1536466 0.0086467266
0.07409405 -0.15340599 0.0084565282
0.074576549 -0.15226045 0.0084718466
0.0759582 -0.15295693 0.008400768
0.078185365 -0.15531416 0.0085116327
0.077552326 -0.15200256 0.0083400011
0.079592027 -0.15394774 0.0082934797
0.08025223 -0.15320881 0.0083432198
0.082008488 -0.15455446 0.0082487464
0.082502075 -0.15351652 0.0079391301
0.083791278 -0.15396647 0.0081200898
0.083526663 -0.15158542 0.0079621375
0.086101711 -0.15435307 0.008017391
0.087207273 -0.15445143 0.0077371895
0.086984977 -0.15222372 0.00777933
0.088444814 -0.1529575 0.0077371895
0.089576468 -0.15311326 0.0074614882
0.089992501 -0.15205629 0.0076291263
0.092726633 -0.15489563 0.0072869658
0.092211805 -0.1523049 0.0075168908
0.093734995 -0.15310049 0.0076610148
0.094540283 -0.15271892 0.0079053342
0.096239448 -0.1537739 0.0079053342
0.096358977 -0.15230936 0.0079357028
0.099396437 -0.15543911 0.0086565912
0.097581394 -0.15099436 0.0080501735
0.099685721 -0.15264376 0.0079971552
0.10084281 -0.15282364 0.0082543194
0.10138378 -0.15207566 0.0076902211
0.1027086 -0.15250671 0.0081854165
0.10422165 -0.15320583 0.0087538064
0.10409009 -0.15149747 0.0083518326
0.1054237 -0.15193416 0.0081732869
0.10755131 -0.15349555 0.008077085
0.10792778 -0.15255176 0.0081534684
0.11050385 -0.15470539 0.0081376433
0.10867307 -0.15070699 0.0082233846
0.10959169 -0.15056053 0.0082421899
0.11490922 -0.15640421 0.0085214972
0.11250196 -0.15172282 0.0086223185
0.11394227 -0.15226831 0.008587718
0.11631729 -0.15404181 0.0087062418
0.11535167 -0.15139908 0.0084608793
0.11713886 -0.15238418 0.0084608793
0.1183164 -0.15256588 0.0085505843
0.11621256 -0.14854997 0.0086773634
0.12068311 -0.15293463 0.0084601045
0.12111629 -0.15217175 0.0084601045
0.12175316 -0.15167554 0.0082557797
0.1237912 -0.15291855 0.0086587369
0.12385499 -0.15172237 0.008756578
0.12538089 -0.15232225 0.0089387298
0.12755477 -0.15369304 0.0089239478
0.12796716 -0.15293637 0.0087840259
0.12904118 -0.15297624 0.008762598
0.12949477 -0.15228586 0.0088005662
0.13042194 -0.15215893 0.0090884566
0.13226235 -0.15309107 0.0092861354
0.13525186 -0.1553283 0.0094166398
0.13004881 -0.14819516 0.0096062422
0.13503622 -0.15269481 0.0094977617
0.13621621 -0.15285331 0.0098228455
0.13576031 -0.15118761 0.010032713
0.13515639 -0.14938338 0.010145277
0.13739079 -0.15071976 0.0099837184
0.13702507 -0.14920507 0.010324627
0.13985193 -0.15116349 0.01063782
0.14023516 -0.1504713 0.010725588
0.14121847 -0.15042837 0.010847151
0.14327174 -0.1515176 0.010841936
0.1451814 -0.15244047 0.010887057
0.14493954 -0.15110718 0.010662466
0.14857349 -0.15380496 0.010313153
0.14563915 -0.14971298 0.01054436
0.15092239 -0.15406661 0.010138303
0.14872053 -0.15077186 0.0084104538
0.14722426 -0.14823265 0.0076834261
0.15359546 -0.15359546 0.0077864528
0.15563057 -0.15457901 0.0062965155
0.15212719 -0.15008521 0.0057938695
0.15663548 -0.15350276 0.0052148402
0.025062568 -0.15246396 0.0055521131
0.026589971 -0.15528543 0.0066731274
0.027410872 -0.15392259 0.0074056983
0.028133616 -0.15212992 0.0075401962
0.029450856 -0.15356518 0.0075072348
0.030361213 -0.15285301 0.0077889264
0.031457439 -0.15309286 0.0078804493
0.032564033 -0.15336609 0.0083444715
0.033403363 -0.15240285 0.0084621906
0.034991369 -0.15481031 0.0087068677
0.035623286 -0.15297057 0.0085071623
0.03664108 -0.15284565 0.0087473989
0.037974045 -0.15400584 0.0087608993
0.03887292 -0.15339044 0.0088331997
0.039609302 -0.15218312 0.0087323487
0.04084399 -0.15290314 0.0086894929
0.041595396 -0.15182319 0.0089147389
0.042329501 -0.15073432 0.0089453757
0.044215996 -0.15370323 0.0086635947
0.045124032 -0.15321183 0.00838691
0.04587815 -0.15223205 0.0082414746
0.047401868 -0.15379272 0.0081702769
0.047857776 -0.15189642 0.008377403
0.049110759 -0.15255682 0.0086161494
0.05068152 -0.15415628 0.008377403
0.050466716 -0.15037021 0.008377403
0.052523553 -0.15336877 0.0085989833
0.05367481 -0.1536573 0.0083065331
0.053692307 -0.15075149 0.0081184506
0.055498477 -0.15288259 0.0085134506
0.056695513 -0.15328787 0.0085170269
0.057380311 -0.15231864 0.0085577965
0.059340466 -0.15470907 0.0084734261
0.059322182 -0.15194805 0.0084734261
0.060505543 -0.15230706 0.0086104572
0.061638296 -0.15252866 0.0086707473
0.063190155 -0.15376271 0.0087989867
0.064004131 -0.15319021 0.008469224
0.065475047 -0.15418318 0.0088034868
0.065112382 -0.15089536 0.0085503161
0.066722147 -0.15220991 0.0085503161
0.067849524 -0.15240046 0.0084186792
0.068345204 -0.15118788 0.0085711181
0.071003459 -0.15472396 0.0089035928
0.070908383 -0.15224446 0.0090399086
0.070346601 -0.14884932 0.009001106
0.073363863 -0.15301606 0.0089471042
0.074415147 -0.15302269 0.009001106
0.074767888 -0.15161265 0.0091255307
0.076402314 -0.15280463 0.0090715289
0.07657516 -0.15108073 0.0091322958
0.078112282 -0.15205859 0.0085085332
0.07941521 -0.1525608 0.0086998641
0.08085373 -0.15330708 0.0087888837
0.080675259 -0.15100753 0.008420974
0.082075901 -0.15168457 0.0081306994
0.082545228 -0.15064505 0.0080682635
0.084438771 -0.15219828 0.0081011653
0.086380787 -0.15379994 0.0081991255
0.085431911 -0.15027781 0.0082912743
0.087497868 -0.15207963 0.008323282
0.088571191 -0.15213405 0.0081829429
0.088384174 -0.15004754 0.0080144703
0.091350809 -0.15330136 0.008097291
0.091102511 -0.15114734 0.0079120696
0.091451176 -0.15002103 0.0079690218
0.093733616 -0.15205675 0.0081725419
0.093574844 -0.15013106 0.0082760155
0.09648703 -0.15312073 0.0080807507
0.098753139 -0.1550318 0.0080807507
0.09682402 -0.15038624 0.008400768
0.099691033 -0.15320937 0.008169055
0.10105087 -0.15368153 0.0080241561
0.099605277 -0.14992134 0.008240819
0.10243271 -0.15260383 0.0082870126
0.10364295 -0.15284719 0.0082893372
0.10298808 -0.1503626 0.0084988177
0.10501867 -0.15180917 0.0082792044
0.10507688 -0.15040417 0.0082792044
0.10597654 -0.15021917 0.0080353916
0.10947715 -0.15368907 0.0081186295
0.10811493 -0.15033123 0.0081379116
0.10934777 -0.15061107 0.0082409084
0.11283671 -0.15396412 0.0082409084
0.11177941 -0.1511092 0.0083652437
0.1138534 -0.15250088 0.0084062517
0.1152303 -0.15294203 0.0084062517
0.11303565 -0.14867753 0.0084682405
0.11697968 -0.15249136 0.008299768
0.11872296 -0.15339427 0.008299768
0.11698553 -0.14982358 0.0083855689
0.12087727 -0.15346158 0.0086636245
0.12105551 -0.15236297 0.0085779428
0.12109975 -0.15111592 0.0086773634
0.12368255 -0.15303096 0.0085779428
0.12364658 -0.15170085 0.0090849102
0.1249382 -0.15200815 0.0088209808
