ply
format ascii 1.0
comment PCL generated
element vertex 1301
property float x
property float y
property float z
element camera 0
property float view_px
property float view_py
property float view_pz
property float x_axisx
property float x_axisy
property float x_axisz
property float y_axisx
property float y_axisy
property float y_axisz
property float z_axisx
property float z_axisy
property float z_axisz
property float focal
property float scalex
property float scaley
property float centerx
property float centery
property int viewportx
property int viewporty
property float k1
property float k2
end_header
-0.012712601 0.012433302 0.027639907
-0.012786663 0.012928769 0.028937321
-0.012075424 0.012706671 0.027054837
-0.01150888 0.012687597 0.026955172
-0.011398411 0.012934622 0.025750468
-0.010604165 0.012879584 0.027695073
-0.0096280128 0.012435074 0.026662249
-0.0094509032 0.012759396 0.02704584
-0.0085518695 0.012625915 0.029786099
-0.0082337912 0.01291371 0.031005362
-0.0072948486 0.0124398 0.030697053
-0.0076311878 0.013334639 0.030464508
-0.0069186427 0.012994893 0.029248722
-0.0067710481 0.013448586 0.029224243
-0.0062330039 0.013295426 0.028009415
-0.0058102431 0.013502873 0.02866747
-0.0053414567 0.013573259 0.028626513
-0.0049399664 0.013699883 0.028092433
-0.0043406673 0.013659776 0.028937189
-0.0036642193 0.013535635 0.030455628
-0.0026009595 0.013226634 0.030064795
-0.0023870366 0.013987412 0.029759329
-0.0018565077 0.013863505 0.029726895
-0.0013311132 0.013745125 0.029888391
-0.00092987076 0.01422573 0.029852971
-0.00046684424 0.013801545 0.028671172
2.4054927e-05 0.013953563 0.029079145
0.00053589535 0.014059698 0.029662078
0.001316959 0.013984703 0.034426857
0.0017779965 0.013998185 0.034396373
0.0022483068 0.01438297 0.033816498
0.0025855843 0.014428282 0.03153817
0.0035224273 0.014408058 0.031630747
0.0040458692 0.014620813 0.031592388
0.0044865282 0.014397299 0.032508776
0.0050489493 0.014600568 0.033060733
0.0054288902 0.014364298 0.033572126
0.0059224111 0.014486897 0.03349214
0.0061914404 0.014079368 0.034242254
0.0066813207 0.014103142 0.035302285
0.0072854408 0.014451144 0.034913104
0.0077680699 0.014551119 0.034780491
0.0080885906 0.014375204 0.035088614
0.0092119984 0.015309848 0.035664454
0.0091701448 0.014652464 0.035970766
0.0094964895 0.014488502 0.036809135
0.0098819761 0.01450333 0.03615126
0.010681042 0.014899218 0.037096865
0.010944226 0.014619137 0.039343465
0.011274328 0.014562897 0.039059851
0.01210067 0.015000861 0.038997367
0.012872667 0.015393727 0.038132373
0.013188273 0.015365507 0.036574911
0.013470219 0.015316381 0.034864485
0.013543709 0.014980684 0.036000025
0.013816581 0.014906362 0.035279416
0.01484251 0.015346326 0.037732467
0.015174028 0.015299174 0.03758765
0.016031334 0.015658883 0.037648592
0.016732711 0.015881984 0.037789952
0.016117042 0.015122733 0.038037777
0.017366182 0.015772451 0.037278388
0.017028566 0.015197945 0.039526932
0.018388731 0.015937822 0.037175655
0.018935733 0.016001834 0.038741753
0.019473813 0.01613719 0.037126247
0.018766517 0.015440161 0.036716677
0.020249518 0.01614219 0.036704745
0.02114548 0.0164178 0.03848961
0.021231299 0.016236041 0.038347945
0.021355826 0.016067132 0.039148174
0.022587864 0.01654679 0.040214464
0.022901386 0.016510967 0.039954834
0.022047179 0.015797365 0.041043885
0.024513008 0.016954653 0.041591264
0.02338936 0.016164444 0.039744057
0.024720496 0.016684234 0.03969235
0.024835054 0.016548028 0.03968703
0.025372738 0.016625868 0.040416311
0.02630608 0.016916873 0.040349603
0.026663218 0.016680498 0.043825306
0.026922284 0.016641485 0.043172941
0.026428659 0.016246397 0.042139258
0.0267579 0.016238503 0.042391028
0.029201273 0.017229114 0.042283043
0.028878281 0.016933156 0.040428624
0.027644388 0.01619699 0.041399557
0.030648563 0.017407119 0.041357405
0.030274054 0.017100956 0.039320782
0.031278811 0.017395666 0.038815901
0.03056756 0.016944341 0.037458126
0.030995172 0.016982041 0.037480608
0.033623185 0.017961998 0.0370561
0.033154 0.01761814 0.036336061
0.032646514 0.017234011 0.039502986
0.033602539 0.017489675 0.039526813
0.036865871 0.018392563 0.039217826
0.036777288 0.018223748 0.038232166
0.036855966 0.018127875 0.03674553
0.035717607 0.01755384 0.036427464
0.03760922 0.018177614 0.032920774
0.036655344 0.017682848 0.032999251
0.038972806 0.018443182 0.031525102
0.039115854 0.018367056 0.031657219
0.041154809 0.018880617 0.029218415
0.040990997 0.018685685 0.030858379
0.042034525 0.018946424 0.029518394
0.042149771 0.018865228 0.029278446
0.043751448 0.019324204 0.026962385
0.042568062 0.018786725 0.026093289
0.043119036 0.018867403 0.024817754
0.04539251 0.019548168 0.022942118
0.045315638 0.019395122 0.024661992
0.046061214 0.019538812 0.023042342
0.048300479 0.020192416 0.020128287
0.04647392 0.019453764 0.020900805
0.048191488 0.019922974 0.018444404
-0.038368214 0.010513818 0.011053158
-0.038622215 0.010752187 0.012503462
-0.036328226 0.010489373 0.013202524
-0.03571713 0.010596894 0.015725961
-0.036227353 0.010850003 0.015837673
-0.034215823 0.010775884 0.01671255
-0.031289402 0.01033415 0.017401725
-0.034237787 0.011129726 0.017765556
-0.035072304 0.011515276 0.018856842
-0.032715794 0.011163445 0.01906088
-0.031451788 0.011071457 0.020025332
-0.031204542 0.011181866 0.020103514
-0.030176308 0.011179728 0.022300001
-0.028622176 0.011032471 0.024199281
-0.028196074 0.011091536 0.024175582
-0.027673529 0.011106633 0.023612758
-0.027116533 0.011181585 0.024979351
-0.026935564 0.011309074 0.024996357
-0.025794663 0.01122111 0.026308009
-0.025397316 0.011538956 0.028069353
-0.025247393 0.011685544 0.028070856
-0.023259273 0.011265354 0.02791252
-0.023749646 0.011596383 0.027587552
-0.022811551 0.011447119 0.026444549
-0.022168042 0.011431212 0.026402658
-0.022823805 0.011929725 0.028160932
-0.021612126 0.011823921 0.030580256
-0.020806516 0.011745664 0.030474683
-0.019157264 0.011393767 0.031431653
-0.020673856 0.012168424 0.031122254
-0.018873202 0.011652108 0.030072179
-0.019182052 0.012030476 0.030687196
-0.018757029 0.012030646 0.02930581
-0.01799068 0.011984751 0.030083193
-0.01793687 0.012182058 0.029512186
-0.01748373 0.012261423 0.030045243
-0.016655074 0.012163705 0.030543793
-0.016688175 0.012371004 0.029010409
-0.015650619 0.012165826 0.029645937
-0.015986597 0.012643899 0.030059468
-0.014603184 0.012186526 0.029723868
-0.014699231 0.012480609 0.028730445
-0.014292475 0.012631598 0.029985378
-0.013952008 0.012728145 0.029523501
-0.013712535 0.012963659 0.030261965
-0.01294153 0.012796731 0.029831175
-0.012694702 0.012950301 0.029152174
-0.012567204 0.013243059 0.029171731
-0.01174208 0.013020924 0.028831536
-0.01114373 0.012971683 0.02882671
-0.011215943 0.013365354 0.027619151
-0.010346843 0.013217547 0.029316558
-0.010127881 0.01335978 0.027615696
-0.0091040423 0.013247534 0.031937435
-0.0088490285 0.013284377 0.029313698
-0.0085052978 0.013685856 0.031889867
-0.0079346802 0.01357963 0.031236663
-0.0072864504 0.013527544 0.032291409
-0.0069425362 0.013497869 0.029963734
-0.006794184 0.013972739 0.029964672
-0.0062872851 0.013691001 0.02727057
-0.0058109565 0.013774106 0.027581526
-0.0051549268 0.013578082 0.028043864
-0.0046245544 0.01378122 0.030044215
-0.0044111283 0.014315709 0.029833509
-0.0033715882 0.013377228 0.031335205
-0.0028512212 0.014309884 0.030282641
-0.0021939296 0.013708939 0.030028962
-0.0019709284 0.014403561 0.029050758
-0.0013812988 0.01429037 0.030113492
-0.00091940607 0.014325976 0.029899729
-0.00030638295 0.014765238 0.032581117
0.00034260165 0.013861895 0.034092028
0.00096130057 0.014413232 0.036866445
0.0014256355 0.014530485 0.036833774
0.0017897878 0.014148304 0.035714317
0.0021082228 0.014288204 0.033481739
0.0025850853 0.014385421 0.033706531
0.0030071365 0.014631973 0.032488205
0.003405309 0.014308878 0.032877333
0.0037227159 0.013921281 0.032771226
0.0041989335 0.014376055 0.031252556
0.0051746406 0.014495661 0.032405876
0.0058226767 0.015021838 0.032068305
0.0059707621 0.01427781 0.033339351
0.0066618365 0.014656722 0.034739934
0.0074022193 0.015228273 0.034570705
0.0076679559 0.014851457 0.035644472
0.007927902 0.01460551 0.035658102
0.0087207723 0.01525953 0.03438431
0.0092905238 0.014785696 0.035949696
0.0097048348 0.014787449 0.036157489
0.010599323 0.015212015 0.038930234
0.010730003 0.014883163 0.039161704
0.011478802 0.015332374 0.037987638
0.012159123 0.015595759 0.038455397
0.012747903 0.015775822 0.038413383
0.012474386 0.015158704 0.037198626
0.012778438 0.015052865 0.037761524
0.014547843 0.016323244 0.03762142
0.015008152 0.016395276 0.036591124
0.015188352 0.016231738 0.035370253
0.015789485 0.016302601 0.037721943
0.015782584 0.015957594 0.037860226
0.016617069 0.016304377 0.037798937
0.017167708 0.016386343 0.038731657
0.017341238 0.016229855 0.038174771
0.018088372 0.016420178 0.040460158
0.017961074 0.016101018 0.038440865
0.018874466 0.016420579 0.040274736
0.019076003 0.01629097 0.040263981
0.020088766 0.016717229 0.040032297
0.02036866 0.016658867 0.039330754
0.020620765 0.016519347 0.041532945
0.020849466 0.016424332 0.041485935
0.021403806 0.016515264 0.042398021
0.022419568 0.016928541 0.041217174
0.022130083 0.016523158 0.041416898
0.023216173 0.016932825 0.04190854
0.022391824 0.016236333 0.042178493
0.023134865 0.01646708 0.041559882
0.024283875 0.016894668 0.042231474
0.024730816 0.016939821 0.042109456
0.023744695 0.016196333 0.043002974
0.024945624 0.016687868 0.040737659
0.027092718 0.017387282 0.043620937
0.025726285 0.016512131 0.043253813
0.027957141 0.017101774 0.043551814
0.028766813 0.017343955 0.041938107
0.028156586 0.016898599 0.040938526
0.030444194 0.017805832 0.041496523
0.030270111 0.017576441 0.039904553
0.03001434 0.017300287 0.039707735
0.031514358 0.017832333 0.0389001
0.032426938 0.018080376 0.039046925
0.033006959 0.01819386 0.037512563
0.032888334 0.017966133 0.039473247
0.031022336 0.017023556 0.037863828
0.033638474 0.017992698 0.03905965
0.033191539 0.017504232 0.040607374
0.034493249 0.017914705 0.039771874
0.035519376 0.01820948 0.038314912
0.037162501 0.018743839 0.037596524
0.035523843 0.017952807 0.0362822
0.036261652 0.018130997 0.034025259
0.037426084 0.01846556 0.033041712
0.040017851 0.019355463 0.031647772
0.03895646 0.018811788 0.030595127
0.040845424 0.019427214 0.027023703
0.042108044 0.01976707 0.027795296
0.041039933 0.019229829 0.027321056
0.043462675 0.019879185 0.025853252
0.045624897 0.02054435 0.025571153
0.042313069 0.019200463 0.025509017
0.044759996 0.019964574 0.025334092
0.046999801 0.020652402 0.023108775
0.047366351 0.020653909 0.022739353
0.046818782 0.020332554 0.022444498
0.049684338 0.02110173 0.01790344
0.04835733 0.020517318 0.017362323
-0.039488439 0.010999789 0.009033992
-0.038224809 0.010998195 0.011956842
-0.036885105 0.010893398 0.012272734
-0.037155345 0.011092706 0.01208713
-0.036622446 0.011422804 0.01596869
-0.033164185 0.010834658 0.015868509
-0.034514207 0.011236392 0.014426922
-0.033501238 0.011301227 0.018316673
-0.032600708 0.011258069 0.018355126
-0.033700567 0.011702493 0.01899275
-0.0324574 0.011558942 0.018458301
-0.029922336 0.011433251 0.023001825
-0.030282281 0.011756183 0.024657091
-0.028337507 0.011461502 0.025697501
-0.029136412 0.011845153 0.02555833
-0.027347729 0.011541673 0.025683543
-0.027781719 0.011858824 0.026103126
-0.027180567 0.011873415 0.026094723
-0.025853982 0.011704721 0.026941283
-0.024384959 0.011900186 0.02885535
-0.023029421 0.011652295 0.028713793
-0.023702722 0.01204547 0.02804911
-0.024015211 0.012393026 0.028821761
-0.022372017 0.012050342 0.029173259
-0.02199096 0.012192951 0.030726751
-0.02230119 0.012500411 0.030092359
-0.0210371 0.012293954 0.031062052
-0.020115398 0.012178537 0.031413797
-0.020096971 0.01243064 0.032075543
-0.02008771 0.012651901 0.03174914
-0.019425392 0.012608632 0.031487755
-0.017906304 0.012100636 0.029462539
-0.017937772 0.012395996 0.030216517
-0.017421737 0.012412051 0.030182378
-0.016536063 0.012348548 0.032126658
-0.016840843 0.012765386 0.032138735
-0.016029561 0.012622949 0.03190418
-0.015424233 0.012590025 0.031917028
-0.014788568 0.012540409 0.032029204
-0.015210093 0.012916746 0.029206954
-0.014143304 0.01274139 0.031476032
-0.01343434 0.012718839 0.032985598
-0.013057087 0.012699965 0.03121433
-0.012950022 0.012978883 0.031446397
-0.01246955 0.013019685 0.031639997
-0.012754396 0.013525981 0.030692402
-0.011793163 0.013270174 0.031466302
-0.01120349 0.013076885 0.029426785
-0.011362015 0.01358213 0.029008526
-0.010836054 0.013649463 0.029860608
-0.010130244 0.013632339 0.031676244
-0.0093055377 0.01323482 0.030222382
-0.0090660406 0.013693108 0.032760914
-0.0083785523 0.013459179 0.032143142
-0.008459663 0.014101225 0.032346759
-0.0075231702 0.013306943 0.028964143
-0.007466258 0.01403637 0.031122474
-0.0068665105 0.013832191 0.03028691
-0.006491649 0.014155162 0.031697944
-0.0060282894 0.014178472 0.031365871
-0.0057066274 0.014335292 0.030297942
-0.0049704011 0.013931772 0.03031115
-0.004579165 0.014287106 0.031586885
-0.0039834725 0.014093835 0.031753153
-0.0032782217 0.013488634 0.031337276
-0.0032004288 0.014522723 0.031693682
-0.002540664 0.013947804 0.031412032
-0.0022677544 0.014794585 0.032243554
-0.0018839852 0.014627093 0.030140063
-0.0013681329 0.014818319 0.031195259
-0.00095574337 0.015274181 0.03117002
-0.00028662395 0.014274693 0.032091174
0.00024457127 0.015102663 0.034103207
0.00074429146 0.015067308 0.034393054
0.0011155237 0.01473247 0.032936927
0.0016093168 0.015240203 0.033007372
0.0020749273 0.015185892 0.032977875
0.002727197 0.01522138 0.035851192
0.0031741909 0.015153676 0.035823166
0.0035644381 0.01488129 0.035802752
0.0044139214 0.014812481 0.035736512
0.0049273125 0.015301754 0.034237567
0.0052415836 0.014927245 0.034509178
0.0058055003 0.01532798 0.033883717
0.0065639457 0.015589824 0.037347455
0.0069183554 0.015624591 0.035452068
0.0071121641 0.015033292 0.036834516
0.0077236705 0.015478825 0.035665892
0.0083933258 0.015844623 0.035916854
0.0087170815 0.015641084 0.036300246
0.0092305457 0.015853381 0.035135973
0.0096449554 0.015733326 0.036517181
0.010332481 0.015965823 0.038208272
0.011093639 0.016256381 0.040217165
0.011451673 0.016171029 0.040190861
0.012121439 0.016454844 0.040111493
0.011913814 0.015771832 0.039795678
0.012874468 0.016354764 0.039890066
0.013454559 0.016562147 0.038951226
0.013375521 0.016011104 0.040166155
0.014047544 0.016294256 0.039573606
0.014079707 0.015992206 0.038490221
0.015095345 0.016510233 0.039421368
0.015285756 0.016373275 0.038028989
0.015717052 0.016421519 0.037386648
0.016046273 0.016297504 0.039253812
0.016805585 0.016527822 0.041154295
0.016935972 0.01634133 0.040520243
0.017067229 0.016126661 0.041166909
0.01741844 0.016128849 0.040466819
0.018068315 0.016306141 0.041285083
0.018770626 0.016570603 0.040119279
0.019864831 0.017042171 0.041032929
0.019629475 0.016626 0.04057223
0.021250933 0.017417382 0.042164944
0.020045411 0.01636623 0.042247459
0.021709997 0.017225098 0.041258067
0.021638919 0.016957387 0.040354803
0.02184058 0.016829394 0.041301906
0.022434492 0.016955653 0.041820113
0.023063855 0.017087715 0.042983487
0.022863943 0.016763378 0.042480379
0.022798784 0.016487863 0.044145547
0.024964985 0.017150767 0.041961137
0.025943412 0.017464872 0.043318704
0.026436605 0.017516691 0.044421706
0.026290243 0.017253075 0.044179734
0.027901784 0.017910102 0.044009473
0.028071726 0.017645018 0.042720728
0.028716037 0.017815311 0.040829048
0.028196191 0.017385514 0.040663008
0.030650754 0.018407138 0.040983152
0.02977374 0.017824739 0.039775476
0.031248327 0.018341266 0.04112
0.030118175 0.017647831 0.04069151
0.03075112 0.017798087 0.039372049
0.032353736 0.018375909 0.03925601
0.035291854 0.019558774 0.037948895
0.031091858 0.017505089 0.038263213
0.034139924 0.018703792 0.03873783
0.033844616 0.018411309 0.039501846
0.037128195 0.019533515 0.038438339
0.036148235 0.018962381 0.038315803
0.03649576 0.018966259 0.037636023
0.037193485 0.01911686 0.036915291
0.037492927 0.019114561 0.034532387
0.03932311 0.019724496 0.0337753
0.038594738 0.019288974 0.033057444
0.041359086 0.020271774 0.030914525
0.040445693 0.019767327 0.030146765
0.041024767 0.019878348 0.026661851
0.041849986 0.020069474 0.025253577
0.042701226 0.020255614 0.025759328
0.043980531 0.020613642 0.024663646
0.045206483 0.020938709 0.024785124
0.043685261 0.02021757 0.025984287
0.0455295 0.02078413 0.024245333
0.046068914 0.020728307 0.021587845
0.048358969 0.021316066 0.01774439
0.048679855 0.021295145 0.018474393
-0.041002911 0.011828925 0.01002102
-0.038695987 0.011532559 0.010583372
-0.036384035 0.0112405 0.011755039
-0.037053201 0.011540669 0.011793219
-0.034912519 0.011366747 0.015895741
-0.037025455 0.011983016 0.015394614
-0.034702182 0.011587566 0.014432588
-0.035495445 0.011915561 0.013764042
-0.034345798 0.011857547 0.015039574
-0.03366477 0.011920774 0.016667686
-0.03207219 0.011765897 0.018595863
-0.030136779 0.011439132 0.018456118
-0.032479394 0.01229002 0.02047996
-0.029843522 0.011844408 0.02242578
-0.029219655 0.011902114 0.023797071
-0.02831687 0.011842551 0.024127997
-0.027358817 0.011756565 0.024314551
-0.027816448 0.012072247 0.024384391
-0.02788775 0.012267598 0.024001928
-0.026499134 0.012037503 0.023946539
-0.026070327 0.012125931 0.024705043
-0.024352096 0.011839269 0.026362209
-0.026053514 0.012612186 0.026979752
-0.025599435 0.012707622 0.027852759
-0.024241544 0.012445754 0.027566731
-0.024289234 0.012633411 0.026565596
-0.023664849 0.012628783 0.026560698
-0.023461249 0.01275854 0.026125399
-0.022412127 0.012571473 0.02568987
-0.020913465 0.012261981 0.026716696
-0.020765455 0.012500368 0.028343497
-0.020667236 0.012672189 0.027885936
-0.020373499 0.012862875 0.029446766
-0.019147003 0.01253849 0.028570313
-0.019330097 0.012875974 0.028766453
-0.019748487 0.013323264 0.02865313
-0.019167013 0.013328386 0.028701805
-0.017905364 0.012997447 0.028732153
-0.017926676 0.013295029 0.028880965
-0.017068174 0.013132258 0.028674703
-0.017431289 0.013757239 0.031172203
-0.015860636 0.013257025 0.032057811
-0.015830135 0.013549584 0.032050263
-0.015431315 0.013601727 0.031366318
-0.01377477 0.012896207 0.03088876
-0.014153909 0.013592446 0.033100564
-0.013746532 0.013676505 0.033072267
-0.012926456 0.013479643 0.033022225
-0.013041344 0.013902199 0.032582227
-0.012397646 0.013733658 0.031234469
-0.012396379 0.014183442 0.031900909
-0.011347575 0.013759192 0.031643115
-0.010769826 0.013693772 0.031461865
-0.011046726 0.014393352 0.03161614
-0.010118589 0.013986575 0.03100282
-0.009093741 0.013498397 0.031072957
-0.0089775482 0.013868806 0.031058311
-0.0082025435 0.013686198 0.032349192
-0.0081369337 0.014350648 0.034448147
-0.007523071 0.013964031 0.031782489
-0.0073667639 0.014482619 0.032759663
-0.0065464252 0.014204169 0.034127336
-0.0059312573 0.013911283 0.033193287
-0.0055009653 0.014066682 0.033989307
-0.0051579066 0.014442812 0.03525088
-0.0047184117 0.014078744 0.032048997
-0.0044564875 0.014787531 0.034116581
-0.0040830476 0.014754784 0.03234249
-0.0033290214 0.014601412 0.035135712
-0.0029453326 0.014741908 0.034634005
-0.002565467 0.015306586 0.03587025
-0.0020890839 0.015009811 0.034455661
-0.0016208886 0.01494205 0.034097657
-0.0010070764 0.015022891 0.036396772
-0.00058510003 0.015758974 0.03734684
-0.00012209121 0.014983994 0.035655703
0.00042002788 0.014683927 0.03661792
0.00087450317 0.015250945 0.037033118
0.0012928583 0.014878397 0.036495168
0.0017598635 0.015109005 0.036691502
0.002270014 0.014384087 0.038818646
0.0028360235 0.015226587 0.039413504
0.0033533906 0.015661143 0.039391562
0.0037188064 0.015212786 0.039537035
0.0040077656 0.01471463 0.039281432
0.0047343252 0.015722023 0.039585814
0.0051907762 0.01595859 0.038444493
0.0054810592 0.015689241 0.03741657
0.0060637253 0.016123744 0.036838997
0.0064866859 0.015843917 0.038554221
0.0070204362 0.016051671 0.038515281
0.0074834451 0.016004065 0.039391741
0.0078279227 0.015876573 0.039076786
0.0080045424 0.015566478 0.037900895
0.0089551713 0.016524522 0.036685396
0.0087538557 0.015529613 0.037052236
0.0098794596 0.016441004 0.038623016
0.0098039182 0.01563549 0.040312264
0.010841492 0.016436612 0.040716592
0.011430253 0.016597055 0.041447591
0.01150025 0.016190743 0.041193854
0.012370208 0.016644131 0.042546961
0.012724305 0.016536502 0.043242689
0.012801183 0.016277313 0.041359093
0.013105996 0.016180707 0.041334845
0.013199734 0.015880395 0.041390616
0.013622141 0.015926939 0.041241534
0.014391012 0.016341198 0.040027663
0.013839342 0.015411308 0.041937158
0.015176504 0.016278045 0.041833043
0.015494481 0.016179528 0.043026201
0.01626966 0.016507773 0.043188557
0.016477473 0.016366847 0.043177605
0.017819811 0.017098071 0.044270545
0.01722645 0.016432749 0.041178405
0.018448172 0.017012656 0.04322825
0.018314896 0.016632915 0.043105092
0.019085716 0.016882418 0.04449806
0.019900557 0.017237265 0.042921096
0.020347696 0.017248124 0.044179767
0.019928435 0.016707588 0.044066664
0.021238727 0.017347202 0.043777198
0.021348642 0.017219964 0.041779261
0.022183387 0.017483594 0.043223228
0.022430696 0.017412731 0.042761166
0.022320876 0.017098531 0.043497112
0.022680568 0.017087873 0.044006951
0.023779502 0.01731517 0.04409384
0.024698505 0.017436434 0.043918099
0.026578873 0.018281231 0.044611808
0.02688217 0.018251179 0.044044688
0.026844166 0.018026788 0.044076599
0.028208762 0.018374598 0.043562185
0.027713213 0.017948309 0.041901357
0.028057126 0.017961916 0.040608175
0.029490696 0.018503007 0.041262072
0.030215196 0.018675055 0.041915573
0.030201806 0.018496608 0.04118567
0.030408893 0.01841582 0.04165465
0.031051468 0.01856282 0.041085448
0.033007827 0.019354956 0.039036613
0.032051425 0.018724307 0.039111279
0.033243742 0.019118503 0.038881142
0.033837724 0.019212151 0.04004408
0.033634499 0.018952822 0.040092018
0.034635536 0.018927576 0.040288329
0.037124634 0.019882463 0.038783107
0.036249693 0.019359473 0.037102319
0.037412647 0.01970619 0.037284203
0.037297305 0.019522838 0.035253376
0.035929527 0.018807616 0.034105208
0.041858327 0.02101621 0.030241868
0.041236356 0.020640515 0.025765259
0.042007621 0.020669315 0.023499804
0.042052273 0.020533487 0.024402246
0.043473903 0.020957917 0.023599885
0.0443253 0.021149514 0.023182774
0.043917697 0.020845199 0.023340704
0.045414999 0.021284604 0.023048349
0.045115784 0.021037923 0.02150183
0.046380769 0.021384634 0.020753885
0.047569536 0.021705946 0.018586315
0.046866406 0.021305833 0.018179264
-0.038841695 0.011862963 0.0098469779
-0.038749535 0.012007557 0.0099392943
-0.036799382 0.011761514 0.010732064
-0.036611278 0.011869346 0.01041643
-0.035319768 0.011797857 0.012325278
-0.037684821 0.012516707 0.012045806
-0.033631995 0.011991114 0.015334959
-0.034131132 0.012334415 0.016623568
-0.033480316 0.012347478 0.016695637
-0.031243036 0.012003775 0.018536987
-0.032093152 0.012402568 0.018403035
-0.030635513 0.012295351 0.021375509
-0.030465109 0.012490129 0.022981599
-0.030019308 0.01254872 0.02295126
-0.028767541 0.01237972 0.023157168
-0.028572651 0.012559433 0.024424734
-0.028161962 0.012651822 0.025033994
-0.027682036 0.012707369 0.025227677
-0.026542358 0.012572653 0.025965177
-0.02593302 0.012538658 0.025112571
-0.026207998 0.012910952 0.026984215
-0.024445649 0.012786169 0.028470045
-0.025802944 0.013438217 0.027210632
-0.023105891 0.012710868 0.028066576
-0.024165142 0.013349931 0.028468013
-0.023459911 0.013265248 0.02737784
-0.022646038 0.01319329 0.027662721
-0.020803453 0.012713636 0.028396389
-0.021351615 0.013191888 0.028724618
-0.021482728 0.013566251 0.030181943
-0.020083301 0.013227148 0.030589618
-0.019542057 0.013247158 0.030789232
-0.018885359 0.013199108 0.030747082
-0.019263757 0.013594786 0.02971158
-0.017718522 0.013088951 0.029309221
-0.017627062 0.01331471 0.029298941
-0.017441766 0.013509769 0.029436156
-0.017009009 0.013540367 0.028861849
-0.016955806 0.013931652 0.030946529
-0.015914677 0.013727559 0.032281023
-0.015284854 0.013701983 0.032773245
-0.014247432 0.013327116 0.03173323
-0.01477503 0.014028699 0.032368768
-0.013258951 0.013348554 0.031856056
-0.013180172 0.013618171 0.031562414
-0.012489388 0.013515461 0.031987816
-0.012221927 0.013677872 0.031873658
-0.011582196 0.013539175 0.031422548
-0.011460342 0.013753077 0.030293282
-0.011425542 0.014200746 0.031125598
-0.010096785 0.013489846 0.03115022
-0.010462249 0.014336345 0.03217309
-0.0095812976 0.014083169 0.033430174
-0.0094073126 0.014399872 0.033416923
-0.008778655 0.014596576 0.037173033
-0.0084853489 0.014633587 0.035043284
-0.0078260675 0.014385159 0.034382597
-0.0073368154 0.014270451 0.033283357
-0.007012533 0.014618419 0.034676831
-0.0061952262 0.014181839 0.034917198
-0.0058723739 0.014429715 0.035243355
-0.0055447062 0.014672574 0.035362959
-0.0049000955 0.014538813 0.036561728
-0.0045718225 0.014626994 0.035380628
-0.0040327725 0.014450131 0.035215024
-0.0036714158 0.014557855 0.034617413
-0.0030432702 0.014541965 0.036904026
-0.0028026546 0.01511607 0.036877364
-0.0025083104 0.015394297 0.035670541
-0.0018174585 0.014599916 0.035630483
-0.001584523 0.015340273 0.035123087
-0.0010301252 0.015127152 0.035806261
-0.00042130105 0.014913302 0.03761512
-3.0281779e-05 0.01518355 0.037331816
0.00050768134 0.015488273 0.039005551
0.00090118748 0.015830951 0.038236775
0.0012867996 0.015192597 0.037157297
0.0017589533 0.015522664 0.037457883
0.0022460353 0.015994508 0.037452806
0.0025905792 0.015313433 0.037032925
0.0031108002 0.015709244 0.037424497
0.0035768747 0.015269015 0.039306398
0.0039868336 0.015261101 0.039190594
0.0047087073 0.016367741 0.039122276
0.0050822645 0.016440693 0.037400551
0.0053689824 0.015963675 0.037449736
0.0056938445 0.01577842 0.036856119
0.0063805291 0.01617879 0.038484883
0.0069886204 0.016526822 0.038750261
0.0073760683 0.016220294 0.040529683
0.0078343851 0.01625523 0.040795494
0.0080620311 0.016107926 0.038767867
0.0085529322 0.016240049 0.038689546
0.0090441434 0.0163389 0.038904231
0.0095088175 0.016509078 0.037648525
0.010080011 0.016714633 0.037766866
0.010459656 0.016619764 0.038281389
0.011059407 0.016716158 0.040416848
0.011080773 0.016095728 0.042538621
0.012079827 0.016896157 0.041270953
0.012316132 0.016686095 0.04138314
0.012522835 0.016475871 0.04123681
0.013031195 0.016679609 0.039635897
0.013422023 0.016645474 0.040172804
0.013346512 0.016155172 0.040615827
0.013879767 0.016255511 0.041797217
0.014548524 0.016505659 0.042414166
0.01553752 0.017073078 0.042172309
0.015732611 0.01688011 0.042574272
0.016114751 0.016821017 0.044068009
0.016930705 0.017175378 0.044453748
0.017039569 0.016983176 0.043399144
0.018207151 0.017636614 0.042813417
0.017945921 0.017085288 0.043901637
0.01865107 0.017340682 0.043805923
0.018594062 0.017027263 0.043298103
0.020736165 0.018320091 0.043628171
0.020096172 0.017541081 0.044622697
0.019764328 0.01703565 0.044803232
0.02029253 0.017204495 0.042788159
0.021339882 0.017698964 0.041571423
0.022466712 0.018181818 0.042262435
0.021280397 0.017160583 0.04198892
0.023698963 0.018476795 0.042356562
0.023089703 0.017813083 0.043873746
0.025284229 0.018950505 0.043708559
0.024954647 0.018507576 0.043738566
0.024506779 0.018038306 0.042356852
0.025243353 0.018268524 0.041788466
0.025314344 0.018069513 0.043091923
0.026285157 0.018421147 0.042969458
0.027339434 0.018800551 0.043423694
0.026832782 0.018308787 0.043466236
0.027716193 0.01859957 0.043266423
0.029434953 0.019387342 0.039955381
0.029371332 0.019152183 0.039712287
0.029309284 0.018909588 0.040478282
0.029803244 0.018968794 0.040945236
0.029228924 0.018485434 0.040992059
0.029796975 0.018593051 0.041167129
0.031097548 0.019083772 0.040087726
0.032132994 0.019439397 0.038471505
0.032478165 0.019439295 0.037625685
0.031765494 0.018907776 0.03840328
0.033894014 0.019760201 0.038209323
0.034429856 0.019838309 0.038295358
0.036449101 0.020612217 0.038148288
0.03491741 0.019716304 0.039034463
0.0353516 0.019762805 0.037905466
0.035709921 0.019764982 0.037672397
0.037189599 0.020284072 0.036160074
0.03683874 0.019960606 0.036647815
0.038484693 0.02054745 0.03455833
0.035465211 0.019078501 0.034013227
0.039260022 0.020626523 0.027907619
0.039579477 0.020617265 0.026608851
0.042530779 0.021745002 0.022648886
0.041393839 0.021102741 0.02291308
0.042644549 0.021467581 0.022819243
0.042330962 0.021179574 0.023162981
0.043254387 0.021404397 0.023245037
0.044568785 0.021785868 0.02314024
0.045502353 0.022017073 0.021941163
0.04451479 0.021475343 0.02153294
0.046746716 0.022213828 0.021027967
0.046363559 0.021917777 0.020557813
0.046746042 0.021941723 0.017410234
0.047882345 0.022231407 0.0180951
0.048718888 0.022409802 0.017685965
-0.038388751 0.012376295 0.0090450104
-0.040086195 0.012956012 0.0092257867
-0.035697646 0.012499489 0.011674416
-0.036111735 0.012792474 0.011950817
-0.035523012 0.012930192 0.014942624
-0.03263149 0.012649194 0.018432088
-0.032772824 0.012900988 0.019216709
-0.031338852 0.012666855 0.018786607
-0.031641349 0.013020111 0.02085452
-0.030013571 0.012794531 0.022461882
-0.029554961 0.012847308 0.022459146
-0.029549424 0.013032624 0.022259338
-0.027777813 0.012747876 0.024131358
-0.027580088 0.012880947 0.024151776
-0.027456203 0.01306675 0.024778066
-0.027627742 0.013326505 0.024639124
-0.026332531 0.013081237 0.024311082
-0.02559437 0.013072306 0.025236908
-0.02521421 0.013240501 0.027361523
-0.024898075 0.013321398 0.026833575
-0.025035566 0.013568818 0.026134335
-0.023214459 0.013102444 0.026267545
-0.023050658 0.013298734 0.027032821
-0.022545243 0.01331858 0.026842691
-0.022154408 0.013430825 0.027638737
-0.021694953 0.013460663 0.027258413
-0.021029171 0.013413677 0.027185882
-0.020147637 0.013376164 0.029419398
-0.019562213 0.013356969 0.029381378
-0.019313987 0.013481428 0.029072167
-0.019678393 0.013952655 0.029574674
-0.018998655 0.013878699 0.029275002
-0.017802393 0.013631654 0.030900937
-0.01758258 0.013815461 0.031195659
-0.0173024 0.013945946 0.030983381
-0.017441969 0.014327107 0.030895375
-0.016358251 0.014013917 0.030830259
-0.01593948 0.014110177 0.031289019
-0.015876787 0.014448691 0.032036271
-0.014980596 0.014259038 0.032644853
-0.015101412 0.01461022 0.031322848
-0.013813166 0.01426674 0.033994641
-0.013911699 0.014602623 0.032384977
-0.012723578 0.014056998 0.031538077
-0.01272034 0.014440306 0.031530593
-0.011929333 0.014184287 0.031056464
-0.011651246 0.014418206 0.031741325
-0.011456907 0.014666591 0.031465523
-0.011021923 0.014783085 0.032067593
-0.010375255 0.014675276 0.03232228
-0.0099327862 0.014878808 0.034044251
-0.0096233971 0.015292021 0.036442328
-0.0083787385 0.014621794 0.037838928
-0.008286247 0.01484696 0.035486519
-0.0074569671 0.01438217 0.034980617
-0.0076425849 0.015087621 0.033716619
-0.0070995525 0.015199352 0.03538787
-0.0064594219 0.015051197 0.035986412
-0.0059498884 0.015065752 0.036488432
-0.0055434066 0.015198282 0.036621179
-0.00492574 0.015066644 0.037501421
-0.004547955 0.015219795 0.037366733
-0.0038775462 0.015106752 0.039348647
-0.003574824 0.01536705 0.038750313
-0.002993104 0.015363368 0.040313754
-0.0027953095 0.015587248 0.037747189
-0.0022970662 0.015004439 0.035664085
-0.0019444324 0.015332337 0.035634745
-0.0015500993 0.015511026 0.035395022
-0.001051935 0.015342953 0.0355662
-0.00048205012 0.015858363 0.038510092
-1.6159844e-05 0.015676064 0.03832601
0.0005806195 0.015539553 0.040411234
0.00097607792 0.01614953 0.040057849
0.0014240935 0.016011903 0.039931387
0.0017189905 0.015624143 0.037831198
0.0021652151 0.015798008 0.03783197
0.0026480653 0.016094266 0.0380296
0.0031712435 0.016001666 0.039560549
0.003624056 0.016168647 0.039342556
0.0040952507 0.016278278 0.039494723
0.0046014185 0.016456144 0.039855082
0.0048327995 0.016004931 0.03865457
0.0054596327 0.016532686 0.039123036
0.0062102773 0.017387135 0.039057612
0.0062714429 0.016306588 0.039743237
0.0068764491 0.016754789 0.039497469
0.0073645562 0.016692443 0.040998865
0.0074785626 0.016041659 0.041358434
0.0083572567 0.016986445 0.0406879
0.0080566257 0.015805515 0.039818849
0.0086085619 0.01584411 0.042422239
0.0099095535 0.017109307 0.044308025
0.011487603 0.017035788 0.043651439
0.011782314 0.016882703 0.043868102
0.011948585 0.016605049 0.043862466
0.012810666 0.017178366 0.04337427
0.012827959 0.016833 0.041838307
0.013638905 0.017333189 0.040898841
0.014074249 0.017308239 0.04208903
0.015006974 0.017839015 0.042244799
0.01553429 0.017908469 0.043212015
0.015327883 0.017313609 0.043425292
0.015491537 0.017053492 0.044667307
0.016085511 0.017228866 0.04513602
0.016229512 0.017055649 0.044259015
0.017690066 0.017953606 0.045100171
0.017982131 0.017925216 0.043473899
0.018307008 0.017852642 0.043971296
0.018845391 0.017978748 0.043781079
0.01900368 0.017753471 0.045214035
0.019156963 0.017581867 0.04520724
0.020288603 0.018177554 0.044244479
0.020371079 0.017934317 0.044991322
0.021168301 0.01824254 0.044756446
0.021166164 0.018047974 0.041979577
0.021338245 0.01789297 0.04254486
0.021977857 0.018092267 0.04192552
0.022002267 0.017870665 0.041556668
0.022549255 0.017976308 0.042160295
0.025152005 0.019394131 0.043033279
0.023959238 0.01841351 0.041984387
0.024771834 0.018659106 0.043342303
0.025397757 0.018832488 0.042459197
0.025420062 0.018595805 0.043640941
0.027723316 0.019766305 0.042537238
0.026498279 0.018818825 0.04263553
0.026720928 0.018722581 0.043327566
0.028553948 0.019572997 0.042468794
0.027697958 0.018953342 0.038369693
0.029152112 0.019529611 0.039807919
0.029694606 0.019616369 0.040032007
0.03008496 0.019601414 0.041430496
0.029968137 0.019346433 0.041141618
0.031224292 0.019807812 0.041537132
0.030788906 0.019396832 0.041069616
0.03186864 0.019792441 0.039152205
0.033353683 0.020374402 0.037890598
0.034022402 0.020513449 0.038258731
0.032662738 0.019661568 0.037741598
0.034678295 0.020470222 0.037720695
0.035200004 0.020538932 0.037884299
0.034741472 0.02014434 0.037657041
0.033841871 0.019552229 0.037325058
0.035205215 0.020037495 0.036414392
0.036274418 0.020375341 0.03568377
0.038354099 0.021152142 0.036525864
0.036270671 0.020051688 0.035214186
0.038046703 0.020700051 0.034364123
0.040103603 0.021497931 0.029908754
0.041165996 0.021855216 0.024153452
0.04130562 0.021589883 0.023302199
0.041355003 0.021453802 0.02283369
0.042680059 0.021864181 0.022117088
0.043441821 0.022017436 0.023007447
0.044521809 0.022308152 0.023147918
0.045358777 0.022355447 0.020943848
0.046777505 0.022788711 0.01944916
0.047060475 0.022755057 0.018316165
-0.040031485 0.0136451 0.0094875945
-0.03759028 0.013407015 0.0099419085
-0.03791973 0.013716808 0.010718778
-0.036078934 0.01356063 0.014820119
-0.036391336 0.013873861 0.015585934
-0.032980096 0.013151022 0.016954757
-0.034761991 0.013879143 0.017353555
-0.031184204 0.013011586 0.017194692
-0.032119464 0.013588328 0.019753013
-0.031320214 0.013586862 0.020836223
-0.029001862 0.013074838 0.021306517
-0.028695611 0.013226527 0.022640977
-0.029116673 0.013616035 0.02380928
-0.026946485 0.013140721 0.024969449
-0.027295327 0.01347447 0.025184143
-0.027652171 0.01378079 0.02438434
-0.026866622 0.013717652 0.02433403
-0.02615793 0.013726458 0.025409017
-0.025328619 0.013670024 0.026104417
-0.026053656 0.014149148 0.025410296
-0.025873864 0.014413458 0.027460018
-0.023869976 0.01386275 0.027721057
-0.024402542 0.014298424 0.027107235
-0.022795118 0.013856943 0.026848864
-0.021696221 0.013684303 0.028077532
-0.022273649 0.014189057 0.028017387
-0.022251483 0.014425204 0.027626242
-0.021069439 0.014145452 0.027676146
-0.022200802 0.015003623 0.028380996
-0.020699516 0.014595821 0.029141877
-0.018522762 0.013802784 0.029659051
-0.018858043 0.014257871 0.029676018
-0.018578893 0.014384275 0.029341068
-0.018001167 0.014468129 0.031150684
-0.018324962 0.014961047 0.03103845
-0.016458753 0.014184437 0.030923543
-0.016069576 0.014152477 0.029019929
-0.01638137 0.014707244 0.029570155
-0.014980541 0.014314672 0.032302346
-0.014902465 0.014605451 0.032291718
-0.014464814 0.014661616 0.032261956
-0.014153865 0.014985994 0.034899518
-0.013881399 0.014974396 0.031923655
-0.012164667 0.014322016 0.035788618
-0.012243629 0.014573893 0.032973163
-0.012499544 0.015061501 0.031077215
-0.012251519 0.015261861 0.030653648
-0.011555175 0.015080302 0.030362306
-0.010564009 0.014708875 0.031406175
-0.010462684 0.015139685 0.032024167
-0.0098440778 0.015139334 0.033427365
-0.0092550255 0.015076306 0.033859342
-0.0084546776 0.015094922 0.037862789
-0.0081936605 0.015197648 0.03622086
-0.0079729548 0.015446238 0.035421304
-0.0069374191 0.014716034 0.035400566
-0.0064896224 0.014792777 0.036007449
-0.00630733 0.015258808 0.036508203
-0.0062341099 0.015897397 0.036542829
-0.0055369982 0.015552112 0.036614053
-0.0050851656 0.015610348 0.036756415
-0.0045566019 0.015579423 0.037320685
-0.0041220332 0.01566506 0.037437379
-0.0035720873 0.015751613 0.039090443
-0.0029974403 0.015963094 0.041725162
-0.0026800169 0.015921827 0.039473139
-0.0022446071 0.015762238 0.038432106
-0.0017236185 0.015609155 0.038837075
-0.0014577853 0.016229782 0.038275968
-0.0011022666 0.016319009 0.036952846
-0.00035339047 0.016493935 0.041497018
3.1198026e-05 0.016783515 0.04079232
0.00062467437 0.015965475 0.041761186
0.00094875606 0.016294748 0.040232237
0.001403204 0.015881404 0.040383682
0.0017879878 0.016725246 0.039207671
0.0022051418 0.016223339 0.03921045
0.002629712 0.016557746 0.03847662
0.0031257793 0.016394466 0.039712548
0.0035772964 0.016625177 0.039336957
0.0041122111 0.016986834 0.039636638
0.0044698888 0.016537528 0.0400456
0.0048997644 0.016579883 0.039885435
0.005258515 0.016072365 0.04150974
0.0058398456 0.016578302 0.041462034
0.006370862 0.016694957 0.042622376
0.0069685392 0.017035265 0.043240752
0.0072902911 0.016788498 0.043392263
0.007653892 0.016818 0.042233963
0.0082768938 0.017213589 0.042295806
0.0084552262 0.016889248 0.041126724
0.0089976508 0.01698922 0.0424859
0.0097829299 0.017442219 0.044264041
0.0099898521 0.017115042 0.04427401
0.010848956 0.0177176 0.045069691
0.01122458 0.017131578 0.044535786
0.011990882 0.017633554 0.044130366
0.012371401 0.017616384 0.043815561
0.01283288 0.017726379 0.043061789
0.01333536 0.017930388 0.041390028
0.013418769 0.017607957 0.040583536
0.013598684 0.017296292 0.042022895
0.014225756 0.017538771 0.042197585
0.015379249 0.018271258 0.043056279
0.015956251 0.018431446 0.043168221
0.016166791 0.018231543 0.043349829
0.016327839 0.01798949 0.043759257
0.01742471 0.01861389 0.044140883
0.017148387 0.018018702 0.043891586
0.01711884 0.017675159 0.043447796
0.018080682 0.018161049 0.043686733
0.018513486 0.018203618 0.04356743
0.019799704 0.018931365 0.043527916
0.018903371 0.01787726 0.044455152
0.019677453 0.018218262 0.043531023
0.021406777 0.019232044 0.043809101
0.021822926 0.01925073 0.043536551
0.020717958 0.018212903 0.041592207
0.021769302 0.018661069 0.042933635
0.021660453 0.01835916 0.041459486
0.023195961 0.019170459 0.041085333
0.023249803 0.018927831 0.04174852
0.023535073 0.018805344 0.044200301
0.025182534 0.019640699 0.044076446
0.026211673 0.020072611 0.043116692
0.025512718 0.019394476 0.042398177
0.025817566 0.019330848 0.043156598
0.02616911 0.01932935 0.042517357
0.027109934 0.019697007 0.041274443
0.027089205 0.019434474 0.042455036
0.026210897 0.018686835 0.04323161
0.028399369 0.019864062 0.037134569
0.02814611 0.019469704 0.03896445
0.028453771 0.019415749 0.040116746
0.029564077 0.019822538 0.040571578
0.030171296 0.019953208 0.040529713
0.030269839 0.019803936 0.040661722
0.032407485 0.020785719 0.038465165
0.031704005 0.02021341 0.038316265
0.031867232 0.020119999 0.037353218
0.032503456 0.020259647 0.037299328
0.034121279 0.020900059 0.037015915
0.034234021 0.020766271 0.036976039
0.034568164 0.020754194 0.036393251
0.035602134 0.021080848 0.036319263
0.035788998 0.021006808 0.034888584
0.035747766 0.020806709 0.034912974
0.036498018 0.020988511 0.034979872
0.037037242 0.021053281 0.036289945
0.037644546 0.021168372 0.036028679
0.037183702 0.020850906 0.030257544
0.040612638 0.02227233 0.028686842
0.03978036 0.021774031 0.023523724
0.040212091 0.021798663 0.023440301
0.042228729 0.022534102 0.02282628
0.042427409 0.022451989 0.022587145
0.04287418 0.022480728 0.022337509
0.04258424 0.022187196 0.022498706
0.043665238 0.022483112 0.023184106
0.044492986 0.022693023 0.020994212
0.043982193 0.022331707 0.019214612
0.046761587 0.023358522 0.016693758
-0.039621625 0.013915315 0.011254169
-0.038129315 0.013754588 0.012508615
-0.038357101 0.013895267 0.0094354544
-0.037073925 0.013747779 0.0097791627
-0.036716405 0.013892977 0.011132244
-0.033164341 0.013676993 0.017234236
-0.032472167 0.01372329 0.018769352
-0.031825025 0.013660338 0.017217265
-0.032397967 0.014087975 0.018272841
-0.032495301 0.014479719 0.021919856
-0.02903378 0.013524208 0.021317353
-0.029474987 0.013936546 0.022724628
-0.029339286 0.014181452 0.024577318
-0.028356437 0.014053725 0.024559852
-0.028372781 0.014299062 0.024980627
-0.026629938 0.013830521 0.023772649
-0.027226014 0.014279728 0.023803212
-0.026240833 0.014253484 0.026513057
-0.025923498 0.014335765 0.025882592
-0.025055496 0.014264259 0.026731431
-0.024968103 0.014501638 0.027398961
-0.023748046 0.014249077 0.02769752
-0.024514852 0.014799483 0.027023906
-0.023673356 0.014654638 0.026270673
-0.023871157 0.015029149 0.026619125
-0.022792341 0.014802482 0.02657466
-0.021554288 0.014483507 0.026499536
-0.021262534 0.014708959 0.028325066
-0.019893521 0.014238624 0.027111072
-0.020407397 0.014852308 0.028403673
-0.018113155 0.013966348 0.029126486
-0.018987417 0.014746653 0.029506516
-0.01822882 0.014606399 0.029159898
-0.018254723 0.014950008 0.029496929
-0.017348984 0.014734058 0.029495949
-0.017088294 0.014923651 0.029904574
-0.016403951 0.014807375 0.029569738
-0.01634861 0.015250177 0.031771578
-0.015720731 0.015282125 0.033240139
-0.014470222 0.014807131 0.033646714
-0.014869962 0.015455144 0.033553962
-0.014101772 0.015368923 0.034888845
-0.012892486 0.014657057 0.032317121
-0.013933514 0.015876304 0.032213114
-0.012808453 0.015405443 0.032462455
-0.011945288 0.014993796 0.031042159
-0.011951433 0.015455581 0.031230239
-0.01228592 0.016169542 0.030301586
-0.011167464 0.015634531 0.030740768
-0.010567874 0.015536956 0.030717779
-0.010548228 0.016203068 0.032463472
-0.0096718417 0.015819317 0.032624498
-0.0084768059 0.015281834 0.035540175
-0.0082992082 0.015747827 0.036576625
-0.0074551646 0.015323756 0.036995944
-0.007006838 0.015444439 0.037910379
-0.0070040124 0.016071156 0.037504137
-0.0063253576 0.015666572 0.036634952
-0.0064458973 0.016618432 0.036477271
-0.0054786364 0.015783785 0.036429681
-0.0051963166 0.016151082 0.036580358
-0.0047571016 0.016336827 0.037319474
-0.0040052305 0.016072737 0.039445721
-0.0035973927 0.01661949 0.041752052
-0.0032747996 0.017082626 0.041977003
-0.0027460905 0.016476609 0.039721828
-0.0021879054 0.016151847 0.039691392
-0.001808953 0.016646404 0.040479533
-0.0015487352 0.017077755 0.038905147
-0.0010372106 0.016464179 0.037794139
-0.00035018544 0.017043045 0.042459626
0.00017901335 0.016980212 0.043292228
0.00058336114 0.01671626 0.042182434
0.00093663769 0.015908405 0.040322579
0.0014106313 0.016883302 0.041204721
0.0017769375 0.016752986 0.040029056
0.0022528914 0.016764559 0.040576722
0.0027195239 0.01721758 0.040303595
0.0031940725 0.017752737 0.039525848
0.0035757655 0.017485144 0.03893929
0.0039707934 0.016899051 0.039977893
0.0043647969 0.016764279 0.039942984
0.0048564239 0.017178405 0.039233889
0.0054169674 0.017297706 0.040772624
0.0059535732 0.017613083 0.040731456
0.0062530953 0.017070021 0.041811511
0.006870606 0.017385332 0.043060932
0.0073681697 0.017419523 0.044089284
0.0078874938 0.017664552 0.043792333
0.0082655232 0.017743886 0.042227428
0.0085485969 0.017358569 0.043346144
0.0089821033 0.017302949 0.044336524
0.0092557156 0.017090444 0.044240925
0.0098672286 0.017428186 0.044319067
0.010365205 0.017508686 0.045105368
0.010872588 0.017607907 0.045804612
0.010933913 0.017248362 0.044206969
0.011288569 0.017284423 0.043004476
0.012566227 0.018381856 0.043721881
0.012365504 0.017735116 0.041793469
0.013937451 0.01903538 0.043565474
0.013745588 0.018404113 0.041999895
0.013902562 0.018117074 0.042057831
0.01427085 0.018084325 0.042034313
0.014884356 0.018315259 0.041989706
0.015442125 0.018482666 0.041861452
0.015638698 0.018212782 0.043296918
0.015603703 0.017881256 0.041501842
0.016275346 0.018161405 0.041365836
0.017680196 0.019054741 0.042370256
0.016992522 0.018073933 0.04243394
0.017806906 0.018453371 0.042494997
0.01850049 0.018689448 0.043234378
0.019194689 0.018969705 0.042531997
0.02021639 0.019509237 0.041747332
0.020640483 0.019467842 0.043434162
0.021411167 0.019758523 0.043388143
0.020650838 0.018859137 0.043577179
0.022421239 0.01992338 0.042935103
0.02172452 0.019112073 0.042915132
0.021197902 0.01849412 0.041548252
0.023025258 0.019537304 0.041408658
0.023151595 0.019352522 0.041490193
0.023555391 0.019332277 0.042874016
0.024589686 0.019772844 0.042967424
0.024348382 0.01935013 0.043252565
0.025783591 0.020095412 0.041062798
0.026383672 0.020181313 0.04319194
0.026417239 0.020002255 0.041183993
0.026227284 0.019630816 0.041873425
0.027006991 0.019886369 0.041656476
0.028325928 0.020456083 0.041720171
0.028972769 0.0207063 0.037021223
0.028040076 0.019894095 0.038754627
0.02965044 0.020617202 0.038580216
0.029318167 0.02020319 0.038818765
0.027872108 0.019174818 0.038933076
0.031311627 0.020894324 0.039220914
0.032834284 0.021529119 0.038792461
0.031634398 0.020681672 0.03762614
0.033284206 0.021389393 0.036239903
0.033272158 0.021152571 0.037791282
0.03269868 0.020700388 0.034699857
0.035184789 0.021782776 0.035713211
0.034905598 0.021461135 0.034260448
0.035322372 0.02148708 0.033710096
0.03522861 0.021251811 0.033565752
0.037078537 0.021987652 0.033340197
0.035082743 0.020794088 0.035225067
0.037486359 0.021620287 0.034151692
0.036637295 0.021088246 0.030189557
0.042291354 0.023475584 0.022966884
0.040461164 0.022272484 0.022394879
0.04237761 0.022970593 0.022332115
0.043456431 0.023280609 0.022266511
0.041283134 0.02213227 0.022782449
0.044482429 0.023096286 0.017112276
-0.038438506 0.014090087 0.011352288
-0.037885886 0.014187201 0.012914723
-0.036865976 0.014014351 0.010857135
-0.037519302 0.014595727 0.01058545
-0.034368299 0.014026794 0.01509768
-0.035288788 0.014409225 0.012497479
-0.033557601 0.014261744 0.017229008
-0.034749579 0.014951979 0.019719528
-0.032559898 0.014443532 0.019381266
-0.032944951 0.014809958 0.019944826
-0.031579342 0.014655675 0.022055393
-0.029462436 0.014127453 0.021718303
-0.028513789 0.014018181 0.022039922
-0.028219944 0.014231727 0.024520237
-0.027835701 0.014271307 0.023637336
-0.026844375 0.01445267 0.026103074
-0.026253307 0.014429513 0.02561349
-0.026464507 0.01478388 0.026362495
-0.02465103 0.014277511 0.026297659
-0.024918066 0.014582551 0.025327619
-0.026104746 0.01541806 0.026895232
-0.024189819 0.014886325 0.02783341
-0.023028988 0.014587222 0.027122494
-0.023160607 0.01491769 0.027343307
-0.02228401 0.014760574 0.027129775
-0.02217249 0.015021154 0.027994972
-0.021501603 0.01496506 0.027952049
-0.022271968 0.015602024 0.02713915
-0.021013612 0.0152627 0.02744076
-0.019379923 0.014732903 0.028359719
-0.02101564 0.015987147 0.029316435
-0.018862823 0.015142221 0.030199744
-0.018549917 0.015286127 0.030411365
-0.01954272 0.016213527 0.030458871
-0.017846372 0.015519598 0.030464061
-0.016831318 0.015180651 0.029877951
-0.016869554 0.015522379 0.029441305
-0.016093815 0.01546088 0.031073082
-0.016116215 0.015961744 0.032877773
-0.014555062 0.015240784 0.033161972
-0.015002584 0.016019911 0.034136578
-0.013371779 0.015076412 0.032813389
-0.014153035 0.016130347 0.033299372
-0.01358429 0.016012676 0.032140546
-0.013388456 0.016322188 0.032519236
-0.011505001 0.015057071 0.031861164
-0.012029732 0.016069679 0.032899257
-0.011592608 0.015999846 0.031196391
-0.011412211 0.016471779 0.032883763
-0.010672463 0.016271563 0.033263881
-0.0095008211 0.015572703 0.033669714
-0.0097361915 0.016335474 0.033069294
-0.0088968547 0.01607821 0.034636825
-0.0083061932 0.016035829 0.035541572
