ply
format ascii 1.0
comment PCL generated
element vertex 924
property float x
property float y
property float z
element camera 1
property float view_px
property float view_py
property float view_pz
property float x_axisx
property float x_axisy
property float x_axisz
property float y_axisx
property float y_axisy
property float y_axisz
property float z_axisx
property float z_axisy
property float z_axisz
property float focal
property float scalex
property float scaley
property float centerx
property float centery
property int viewportx
property int viewporty
property float k1
property float k2
end_header
-0.0062368051 -0.04573657 0.018888682
-0.0051953928 -0.045719456 0.017931521
-0.0041649146 -0.045814063 0.017772734
-0.0031293901 -0.045897719 0.017709076
-0.0083279237 -0.044762589 0.018762648
-0.007296605 -0.044822004 0.019067734
-0.0062188399 -0.044568352 0.019561142
-0.0051376829 -0.044184074 0.019105762
-0.0041405722 -0.044511151 0.019105762
-0.0031298676 -0.044861436 0.019522905
-0.0020673317 -0.044447631 0.01866287
-0.0010315535 -0.044356797 0.018407881
-0.010270227 -0.043134954 0.019138336
-0.0092693912 -0.043257162 0.020094901
-0.0082229152 -0.043170307 0.020465761
-0.0072573517 -0.04354411 0.020110041
-0.0061931876 -0.043352313 0.020819873
-0.0051769302 -0.043486219 0.020334721
-0.0041346257 -0.043413568 0.020801514
-0.0030777503 -0.043088507 0.021029085
-0.0020629021 -0.043320943 0.021290928
-0.0010247293 -0.043038633 0.021607578
0 -0.043413173 0.021565974
0.0010238197 -0.04300043 0.021324068
0.002031611 -0.042663831 0.019483328
-0.012223897 -0.041764982 0.021923631
-0.011250057 -0.041932035 0.022072881
-0.010173413 -0.041710995 0.022200942
-0.0092068212 -0.04194219 0.021321863
-0.0083312765 -0.042697795 0.021351308
-0.0072600627 -0.042523228 0.021029085
-0.0061631165 -0.042114634 0.021202564
-0.0051797749 -0.042474158 0.020813406
-0.0041655288 -0.042696673 0.021558434
-0.0031122041 -0.042533461 0.02159515
-0.0020830843 -0.04270323 0.021607578
-0.0010339697 -0.042392757 0.021736652
0 -0.042211339 0.022043496
0.0010324531 -0.042330582 0.022043496
0.0020463262 -0.041949689 0.021129966
0.0030641644 -0.04187692 0.019369245
-0.015614553 -0.041638806 0.021059573
-0.014298995 -0.040854272 0.021811157
-0.013296878 -0.04091347 0.022109896
-0.01237833 -0.041261099 0.023928523
-0.011360952 -0.041312553 0.022628039
-0.010251172 -0.041004688 0.022275835
-0.0093543418 -0.041574851 0.022200942
-0.0082707619 -0.041353807 0.021979898
-0.0072665527 -0.041523159 0.020945281
-0.0061839526 -0.04122635 0.020974994
-0.0051616593 -0.041293275 0.020489633
-0.0041505555 -0.041505553 0.021028548
-0.0031273633 -0.041698176 0.020962775
-0.0020672248 -0.041344494 0.020895779
-0.0010308918 -0.04123567 0.022138715
0 -0.041454215 0.022756368
0.0010291322 -0.041165285 0.022470415
0.0020508433 -0.041016862 0.022181809
0.0031157145 -0.041542858 0.021235675
0.004084304 -0.04084304 0.020049095
0.0051935101 -0.041548081 0.019410461
-0.017536515 -0.040230829 0.021267146
-0.016280571 -0.039683893 0.021827847
-0.01526541 -0.039690066 0.022750705
-0.014251539 -0.039700717 0.023352802
-0.013426291 -0.040278871 0.023412764
-0.012461427 -0.040499635 0.023743361
-0.011352384 -0.040249363 0.02334711
-0.01031374 -0.040223587 0.022069037
-0.0093151284 -0.040365558 0.021412939
-0.008303849 -0.040481266 0.021101415
-0.0072831954 -0.040577803 0.020568967
-0.0061945664 -0.040264681 0.020709395
-0.005167169 -0.040303919 0.020322293
-0.0041374918 -0.040340543 0.020222455
-0.003115566 -0.040502358 0.019975096
-0.0020599624 -0.040169265 0.019975096
-0.0010464371 -0.040811043 0.020213842
0 -0.039757933 0.021613032
0.0010359988 -0.040403951 0.021850109
0.0020801104 -0.040562153 0.021497577
0.0030889851 -0.040156808 0.02067098
0.0041389479 -0.040354744 0.020580679
0.0051237806 -0.039965488 0.019791901
0.0061224769 -0.039796099 0.019249946
0.0071031014 -0.039574422 0.018012315
-0.019656388 -0.039312776 0.02094686
-0.018466786 -0.038985439 0.022213578
-0.017464394 -0.039038058 0.023295105
-0.016516391 -0.039226428 0.023324758
-0.015418268 -0.039059613 0.023022413
-0.014398469 -0.039081559 0.022931904
-0.013282787 -0.038826607 0.022931904
-0.012264896 -0.038838837 0.022101462
-0.011495259 -0.039710894 0.021752596
-0.010227599 -0.038864877 0.021348804
-0.0092884004 -0.039217692 0.020945281
-0.0082723275 -0.039293554 0.020633757
-0.0072590155 -0.039406084 0.020164579
-0.0062197144 -0.039391525 0.020301461
-0.0052600545 -0.039976418 0.019997001
-0.0041530458 -0.039453939 0.019878417
-0.0031283274 -0.039625481 0.019560367
-0.0020829129 -0.039575346 0.019126624
-0.0010424375 -0.039612625 0.019169837
0 -0.039536625 0.019523561
0.001037642 -0.039430395 0.019346803
0.0020662807 -0.039259333 0.019410461
0.0031011943 -0.039281793 0.019684106
0.0041258526 -0.039195601 0.020447344
0.0050907079 -0.038689382 0.020388961
0.0061829328 -0.039158575 0.020472139
0.0072386223 -0.039295379 0.020861834
0.0082009556 -0.038954541 0.02088353
0.0092015574 -0.038851023 0.018993407
-0.020607125 -0.038123183 0.021202683
-0.019524969 -0.03802231 0.022795022
-0.01848417 -0.037995242 0.023403227
-0.017451944 -0.037983645 0.023639649
-0.016523136 -0.038209751 0.023411185
-0.015409105 -0.038009126 0.023020476
-0.014599748 -0.038585052 0.022535622
-0.013353716 -0.03800673 0.022101462
-0.012463648 -0.038429584 0.021175027
-0.011297639 -0.03800115 0.020932406
-0.010269428 -0.037996884 0.020560861
-0.0093648564 -0.038499966 0.019758552
-0.0083485516 -0.038612053 0.019637257
-0.0071978089 -0.038045563 0.019533485
-0.0061985753 -0.038224548 0.019359469
-0.0052649193 -0.038960405 0.017840654
-0.0041452684 -0.038343731 0.017777026
-0.0031663938 -0.039052192 0.017095417
-0.0021078046 -0.038994391 0.018208027
-0.0010386724 -0.038430877 0.01832661
0 -0.038509626 0.019040048
0.0010387331 -0.038433123 0.018731654
0.0020495178 -0.037916079 0.017898321
0.0031031899 -0.038272675 0.019389689
0.0040639122 -0.037591189 0.019696623
0.0051768874 -0.038308971 0.020481795
0.0062138746 -0.038318895 0.020493835
0.0071676378 -0.037886087 0.022790253
0.0082043177 -0.037944969 0.021697581
0.0092310105 -0.037949711 0.020891279
0.010283995 -0.038050786 0.019825071
-0.021770803 -0.037321374 0.021099806
-0.020708824 -0.037275881 0.022132158
-0.019550124 -0.037042338 0.02321431
-0.018559329 -0.037118658 0.023450524
-0.01747239 -0.037000351 0.023953676
-0.016472496 -0.037063114 0.023722678
-0.015391649 -0.036939956 0.023722678
-0.014520625 -0.037338749 0.022244453
-0.013382774 -0.037059985 0.021500736
-0.012373953 -0.037121858 0.021318287
-0.01147849 -0.037565969 0.020647645
-0.010326391 -0.037175007 0.018630713
-0.0094090486 -0.037636194 0.018588543
-0.0083164368 -0.037423965 0.018252641
-0.0073231254 -0.037661787 0.017549247
-0.0063041789 -0.03782507 0.017770052
-0.0051977942 -0.037424117 0.016497523
-0.0041828849 -0.037645962 0.016371608
-0.0031488917 -0.0377867 0.017046958
-0.0020664998 -0.037196994 0.017095417
-0.0010514786 -0.037853226 0.017973095
0 -0.037610665 0.018068731
0.0010525109 -0.03789039 0.018433481
0.0020871477 -0.037568659 0.017508268
0.003115552 -0.037386622 0.019047081
0.0041360036 -0.037224032 0.019430548
0.0051586265 -0.037142109 0.019571543
0.0061518843 -0.036911305 0.020388961
0.0072062379 -0.037060652 0.021151841
0.0082600908 -0.037170406 0.021812111
0.0092276325 -0.03691053 0.021717191
0.010203146 -0.036731325 0.022513539
0.011204032 -0.036667742 0.022144258
-0.022848178 -0.036349375 0.02099967
-0.021654565 -0.03609094 0.022300571
-0.020564128 -0.035987224 0.022836596
-0.019554419 -0.0360213 0.023516923
-0.018633312 -0.03623144 0.023664832
-0.017378217 -0.035778683 0.023828238
-0.016397456 -0.035869434 0.023720115
-0.015343133 -0.035800643 0.023720115
-0.014470275 -0.036175687 0.021848172
-0.013522258 -0.036406077 0.021052629
-0.012391975 -0.036143262 0.020171523
-0.011464986 -0.036479499 0.018925607
-0.010329269 -0.036152441 0.018320113
-0.0093509983 -0.036364995 0.017474711
-0.0083522769 -0.036541212 0.016653866
-0.0073353653 -0.036676828 0.017350018
-0.006279693 -0.036631543 0.017253578
-0.005268788 -0.036881514 0.016041994
-0.0041901232 -0.036663577 0.016041994
-0.0031523183 -0.036777049 0.016688019
-0.0020963543 -0.036686201 0.016845584
-0.0010458179 -0.036603626 0.01671654
0 -0.036463421 0.017710119
0.001043206 -0.036512207 0.017402947
0.0020833553 -0.036458716 0.016638994
0.0031195178 -0.036394376 0.017681956
0.0041782176 -0.036559403 0.017681956
0.0051202816 -0.035841972 0.018928081
0.0062450729 -0.036429591 0.020074546
0.0072486373 -0.036243185 0.020981967
0.0082560778 -0.03612034 0.021826714
0.0092099868 -0.035816617 0.022143155
0.010272794 -0.035954781 0.022254676
0.011299339 -0.035952441 0.022286326
0.01244152 -0.036287766 0.022411138
0.013375457 -0.036010846 0.020347118
-0.024097772 -0.035622794 0.019975215
-0.02271959 -0.035112094 0.021187037
-0.021505015 -0.034817643 0.02259016
-0.020751774 -0.035278019 0.023274988
-0.01960472 -0.035082128 0.023469448
-0.018540058 -0.035020113 0.023139775
-0.017468613 -0.034937225 0.023165405
-0.01653889 -0.035145141 0.022897184
-0.015646037 -0.03546435 0.022897184
-0.014492069 -0.035195027 0.021609753
-0.013475415 -0.035243396 0.020242125
-0.012294058 -0.034833163 0.019323379
-0.011429357 -0.035327107 0.018218458
-0.010454169 -0.035544176 0.017594934
-0.009457414 -0.035728011 0.016912252
-0.0083195604 -0.035358135 0.015487224
-0.0073075942 -0.03549403 0.016650617
-0.0063448241 -0.035954002 0.016787559
-0.005235591 -0.035602022 0.015672714
-0.0042097317 -0.035782721 0.015615672
-0.0031568208 -0.035777304 0.016099036
-0.0020934006 -0.03558781 0.016422719
-0.0010434292 -0.035476595 0.016094476
0 -0.035747316 0.017147422
0.0010304274 -0.035034534 0.017326415
0.0020851379 -0.035447344 0.017065614
0.0031174517 -0.035331119 0.01790902
0.0041579697 -0.035342745 0.017814755
0.0051544872 -0.035050515 0.017939925
0.0062500546 -0.035416976 0.019540697
0.0071562123 -0.034758747 0.020807832
0.0082981782 -0.03526726 0.02126649
0.009270452 -0.035021707 0.021848977
0.010238551 -0.034811072 0.022348195
0.011312446 -0.034965742 0.022798061
0.012309362 -0.034876525 0.022473961
0.013375947 -0.034983248 0.022082061
0.014507371 -0.035232186 0.020176888
-0.023910198 -0.034305938 0.020393103
-0.02256945 -0.033854175 0.022718579
-0.021667501 -0.03404893 0.023497641
-0.020590995 -0.033975143 0.023040175
-0.019547662 -0.033951201 0.022611946
-0.018629139 -0.034153424 0.02250272
-0.017398955 -0.033774443 0.022695661
-0.016366474 -0.033755854 0.021800816
-0.015427026 -0.033939458 0.021510184
-0.014272314 -0.033641882 0.020602614
-0.013479004 -0.034215931 0.019685358
-0.012366587 -0.034008116 0.018704325
-0.011475166 -0.034425497 0.018072456
-0.010425359 -0.034403682 0.017138183
-0.0093423678 -0.034255348 0.016690731
-0.0084082941 -0.034684211 0.015693784
-0.0073605771 -0.034699865 0.015614808
-0.0063155191 -0.034735352 0.015471756
-0.0052543008 -0.034678385 0.015434355
-0.0041756057 -0.034448747 0.014924288
-0.0031778947 -0.034956843 0.015049428
-0.0020847206 -0.034397889 0.015337586
-0.0010546454 -0.034803297 0.015936226
0 -0.03438428 0.016509414
0.0010413978 -0.034366123 0.016428798
0.0021249494 -0.035061661 0.016562372
0.0031556538 -0.034712192 0.016076237
0.0041393889 -0.03414996 0.017583996
0.0051938407 -0.034279346 0.017701119
0.0062404163 -0.034322288 0.018571377
0.0072270269 -0.034070268 0.02032119
0.0082488675 -0.034026578 0.021100074
0.0092647234 -0.033970654 0.021944344
0.010339701 -0.034121014 0.022645205
0.011221246 -0.033663739 0.022992313
0.012381166 -0.034048207 0.022916704
0.013438735 -0.034113713 0.022252291
0.014405804 -0.033956535 0.021099031
-0.023850808 -0.033183731 0.021187037
-0.022648761 -0.032943655 0.023090422
-0.021420754 -0.03264115 0.023774743
-0.020465227 -0.032744367 0.022997677
-0.019560825 -0.032944549 0.02250272
-0.018530155 -0.032942496 0.023126721
-0.017541829 -0.033019911 0.022945315
-0.01657578 -0.03315156 0.02198416
-0.015521244 -0.033111986 0.020833254
-0.014410407 -0.032938074 0.020015717
-0.013386952 -0.032952499 0.018933177
-0.012463129 -0.03323501 0.018338531
-0.011529611 -0.033540688 0.016863167
-0.010405587 -0.033297878 0.016250193
-0.009447067 -0.033589575 0.015230447
-0.0085801445 -0.034320578 0.01425308
-0.0073301573 -0.033509292 0.01486519
-0.0063441414 -0.033835422 0.014118761
-0.0053018555 -0.033931874 0.013468087
-0.0042352821 -0.033882257 0.013037145
-0.0031433445 -0.03352901 0.014093131
-0.0021122496 -0.033795994 0.014921039
-0.0010524878 -0.033679608 0.014837295
0 -0.033516333 0.015482217
0.0010478684 -0.033531789 0.014429539
0.002076146 -0.033218335 0.014890581
0.0031458973 -0.033556238 0.015719712
0.0041676965 -0.033341572 0.017174453
0.0051745283 -0.033116981 0.017642021
0.0062114098 -0.03312752 0.017983824
0.0072671976 -0.033221476 0.019747585
0.0083297752 -0.033319101 0.020782501
0.0091933077 -0.032687318 0.021739721
0.010299252 -0.03295761 0.022645205
0.011183409 -0.032533552 0.022992313
0.012342835 -0.032914225 0.023055434
0.013291392 -0.032717273 0.022786349
0.014403604 -0.032922525 0.021891356
0.015486622 -0.033038128 0.020880997
-0.024823492 -0.032063678 0.020393103
-0.02388617 -0.032194406 0.021729887
-0.022387426 -0.031545918 0.024006367
-0.021340791 -0.03150307 0.024729937
-0.020528726 -0.03181953 0.023995608
-0.019396193 -0.031646419 0.022754192
-0.018399311 -0.031687707 0.022608906
-0.017676391 -0.032233421 0.022611588
-0.016508067 -0.031984381 0.021582246
-0.015558905 -0.03215507 0.02017504
-0.014532306 -0.032178681 0.019464165
-0.013508844 -0.032213397 0.01863116
-0.012589527 -0.032522947 0.016739756
-0.011497774 -0.032402821 0.016325712
-0.010486021 -0.032506667 0.014491022
-0.009471342 -0.032623515 0.013819516
-0.0084252506 -0.032647848 0.013502866
-0.0073311655 -0.03246659 0.012846291
-0.0064000906 -0.033067137 0.011938602
-0.0053302473 -0.033047535 0.011938602
-0.0042222505 -0.032722443 0.011751354
-0.0031891889 -0.032954954 0.011808157
-0.0021231193 -0.03290835 0.013077557
-0.001052025 -0.032612775 0.013627559
0 -0.032993566 0.014675707
0.001051721 -0.032603353 0.014517397
0.0020878594 -0.032361824 0.014729112
0.0031534433 -0.032585584 0.01560998
0.0041731317 -0.032341771 0.016462475
0.0051627746 -0.032009207 0.017827004
0.0062195547 -0.032134369 0.017794997
0.0071665016 -0.031737365 0.018918753
0.0083421022 -0.032325648 0.020217925
0.009299037 -0.032030016 0.021629691
0.010207674 -0.031643793 0.022165716
0.011307258 -0.03186591 0.022952706
0.012249724 -0.031645119 0.023207515
0.013402207 -0.031959113 0.02282241
0.014436191 -0.031965852 0.021978348
0.015449554 -0.031929079 0.02130127
-0.024906844 -0.031133555 0.021124095
-0.023503931 -0.030657301 0.0236139
-0.022280794 -0.030382901 0.024278671
-0.021538649 -0.030769497 0.02511704
-0.02063949 -0.030959237 0.024037927
-0.019480642 -0.030758908 0.023123562
-0.018535091 -0.030891819 0.023055702
-0.017624998 -0.031102939 0.022869051
-0.016441202 -0.030827252 0.020892322
-0.015739581 -0.031479161 0.019796669
-0.014476356 -0.031020762 0.018978119
-0.013501921 -0.031158278 0.017249882
-0.012524813 -0.031312034 0.016307175
-0.011484575 -0.031321567 0.014775932
-0.010519008 -0.031557027 0.013475388
-0.009486814 -0.031622715 0.012401998
-0.0084856944 -0.031821355 0.011319309
-0.0074202218 -0.031800952 0.011309475
-0.0063516917 -0.031758457 0.0096848309
-0.0053124097 -0.031874459 0.0099838078
-0.0042714491 -0.032035865 0.009978503
-0.0031916173 -0.031916171 0.010167271
-0.0020977408 -0.031466112 0.010167271
-0.0010642029 -0.031926088 0.010922521
0 -0.031479269 0.012755901
0.0010584872 -0.031754617 0.014210701
0.0021016321 -0.031524483 0.014429539
0.0031600604 -0.031600606 0.014965713
0.0041739228 -0.031304419 0.016051352
0.0051905052 -0.031143034 0.016799897
0.0062761805 -0.031380903 0.017555982
0.0072951047 -0.031264734 0.018614292
0.0082420371 -0.03090764 0.019520581
0.0093117403 -0.031039136 0.021693975
0.010199882 -0.030599646 0.022962809
0.01115161 -0.030413482 0.023923516
0.012241833 -0.030604584 0.024338037
0.013385784 -0.030890269 0.022962809
0.014347893 -0.030745486 0.02189675
0.015499872 -0.030999744 0.021422237
-0.024650596 -0.029786138 0.0208067
-0.02378054 -0.029984159 0.023794144
-0.022533353 -0.029703058 0.024985164
-0.021383164 -0.029529132 0.02554661
-0.020606823 -0.029879896 0.025149614
-0.01959501 -0.029908175 0.024884015
-0.018484898 -0.029781226 0.023800462
-0.017474316 -0.029809128 0.023152173
-0.01648213 -0.029873861 0.020675451
-0.015592048 -0.030144628 0.019739181
-0.014506237 -0.030048633 0.018633902
-0.013685349 -0.030528858 0.016942799
-0.0125096 -0.030231535 0.014838129
-0.011629116 -0.030658579 0.013329297
-0.010583557 -0.030692317 0.011631638
-0.009502233 -0.03061831 0.01043877
-0.008537353 -0.030947905 0.0099860132
-0.0074283932 -0.030774772 0.0085652769
-0.006438233 -0.031118127 0.0077245533
-0.0053404449 -0.030974582 0.0081973076
-0.0042610425 -0.030892558 0.0082501173
-0.003205521 -0.030986704 0.0082475841
-0.0021254923 -0.03081964 0.0093182325
-0.0010533904 -0.030548323 0.009898752
0 -0.030841187 0.01029399
0.0010611749 -0.030774072 0.010922521
0.0020998283 -0.030447511 0.011724681
0.003135463 -0.030309476 0.013927847
0.0041856342 -0.03034585 0.015883893
0.0052312883 -0.030341474 0.015905708
0.0062361029 -0.030141165 0.016485155
0.0072764372 -0.030145241 0.018310487
0.0082975421 -0.03007859 0.019277841
0.0093922447 -0.030263903 0.021449089
0.010317873 -0.029921835 0.023256123
0.01117104 -0.029450925 0.023923516
0.012396533 -0.029958289 0.025029391
0.013352677 -0.029786743 0.024338037
0.014324143 -0.02967144 0.022392452
0.015434341 -0.029839726 0.02195096
-0.024740927 -0.028864415 0.021629542
-0.023656243 -0.028798904 0.024251699
-0.022389017 -0.028495112 0.024963289
-0.021614002 -0.028818667 0.025483876
-0.020665141 -0.028931199 0.024985164
-0.019518821 -0.028764578 0.024111301
-0.018473949 -0.028737254 0.023776144
-0.01764271 -0.029058581 0.023152173
-0.016483102 -0.028845429 0.020477057
-0.015734307 -0.029370707 0.019394934
-0.014726674 -0.029453348 0.017444521
-0.013558158 -0.029202186 0.01538524
-0.012578939 -0.029350858 0.013664246
-0.011722807 -0.029839871 0.011409611
0 -0.029835772 0.0091671348
0.0010608763 -0.029704537 0.0097112954
0.0021306137 -0.029828589 0.010025382
0.0031882066 -0.029756594 0.011163622
0.0042077862 -0.029454503 0.014191568
0.0052255252 -0.029262941 0.015974939
0.0062981495 -0.029391365 0.017010093
0.0072564404 -0.029025761 0.018075347
0.0083247973 -0.02913679 0.019562185
0.0092302654 -0.028716384 0.021420896
0.010265582 -0.028743632 0.023973137
0.011197765 -0.028503403 0.02431953
0.012280535 -0.028654581 0.025029391
0.013193023 -0.028415741 0.02491653
0.014426252 -0.028852504 0.022798121
0.015463513 -0.028865224 0.021848261
-0.02495065 -0.028069483 0.022582322
-0.023609987 -0.02771607 0.024267584
-0.022542516 -0.027665816 0.024440795
-0.021506693 -0.027651463 0.025270939
-0.020541068 -0.027730444 0.024870187
-0.019310858 -0.027441746 0.024111301
-0.01864448 -0.027966723 0.023717225
-0.017647788 -0.02802884 0.023148
-0.016661961 -0.028117059 0.020258695
-0.015613886 -0.028104994 0.019114792
-0.014665351 -0.028283179 0.015884906
-0.013743073 -0.028543305 0.013986915
0.0031922194 -0.028729975 0.0088522434
0.0042703133 -0.028824616 0.011227071
0.0052245939 -0.02821281 0.014604837
0.0062189307 -0.027985189 0.016338199
0.0072942991 -0.028135154 0.017633379
0.0082576107 -0.027869437 0.019651979
0.0092422441 -0.027726734 0.021420896
0.010251525 -0.027679119 0.024270415
0.011158874 -0.027389964 0.024625689
0.012222067 -0.027499653 0.025320321
0.013403961 -0.027838999 0.025016636
0.014323168 -0.027623255 0.024229705
0.015354901 -0.027638821 0.021591723
-0.024859997 -0.026931664 0.022681475
-0.023518858 -0.026586534 0.023966193
-0.022674536 -0.026797181 0.024980515
-0.021387728 -0.026480043 0.025270939
-0.020650191 -0.02684525 0.024884015
-0.019529982 -0.026725238 0.024158448
-0.018577522 -0.026834201 0.023323029
-0.017507041 -0.026775476 0.022844821
-0.016613146 -0.026996363 0.019940823
-0.01571952 -0.027247168 0.017538339
-0.014700118 -0.027300218 0.014934957
0.0052723037 -0.02741598 0.01269719
0.0063488162 -0.027511537 0.014988959
0.0072443979 -0.026907763 0.017634004
0.0083334344 -0.027083661 0.019850731
0.0093154879 -0.02691141 0.021425188
0.010282412 -0.026734274 0.024443448
0.011273785 -0.02664713 0.024457008
0.012301444 -0.026653128 0.024880111
0.013244097 -0.026488194 0.025041848
0.014282109 -0.026523918 0.024495423
0.015523426 -0.026907271 0.02138707
-0.024808526 -0.025842216 0.022729665
-0.023697255 -0.025757885 0.024549633
-0.022484286 -0.025550324 0.025954187
-0.021397496 -0.025473209 0.026811838
-0.020635227 -0.025794035 0.025345117
-0.019499581 -0.025657345 0.024797618
-0.01859688 -0.025829 0.023133099
-0.017532554 -0.025783168 0.022222131
-0.016318064 -0.025496975 0.019720614
0.0062468653 -0.026028607 0.014510125
0.0073499014 -0.026249647 0.016851157
0.0082948422 -0.025921382 0.020059764
0.0092173079 -0.025603633 0.021686167
0.010231114 -0.025577787 0.024728656
0.011143746 -0.025326697 0.02464062
0.012192442 -0.025400924 0.025348127
0.013278617 -0.025535801 0.025298387
0.014336313 -0.02560056 0.024891287
0.015298745 -0.02549791 0.021353304
-0.024729183 -0.024729183 0.022602201
-0.023658931 -0.024687579 0.02455613
-0.022464974 -0.024507245 0.026733488
-0.021639444 -0.024730792 0.027395189
-0.020708883 -0.024850661 0.026439786
-0.019384723 -0.024485966 0.025345117
-0.018497923 -0.024663899 0.024177551
-0.017336736 -0.024475392 0.023118913
-0.016574522 -0.024861785 0.020382017
0.0073710438 -0.02527215 0.016600519
0.0083530657 -0.025059197 0.01998502
0.009341388 -0.02491037 0.02266854
0.010351326 -0.024843182 0.024613738
0.011275284 -0.024600619 0.024978399
0.012267306 -0.024534613 0.025336951
0.013305156 -0.024563365 0.025298387
0.014300177 -0.024514589 0.024886668
0.015292865 -0.024468584 0.02281487
-0.024827583 -0.023793101 0.02386272
-0.023570128 -0.023570128 0.026100516
-0.022469589 -0.023490936 0.027021527
-0.021479197 -0.023524834 0.026914567
-0.020471141 -0.023541814 0.025788575
-0.019415284 -0.023502713 0.025807381
-0.018495154 -0.023632698 0.024988502
-0.017538821 -0.023728995 0.024045855
-0.016747259 -0.024074184 0.021130979
0.007342298 -0.024124695 0.015051186
0.0083640274 -0.024046578 0.020041734
0.0092594996 -0.023663167 0.023324937
0.010280421 -0.023644971 0.024613738
0.01117385 -0.023363505 0.025114089
0.012271292 -0.023519976 0.025431693
0.013402808 -0.023712663 0.025551885
0.014217945 -0.023358053 0.025114208
0.015332512 -0.023509851 0.023245782
-0.024650188 -0.022596005 0.023698926
-0.023444802 -0.022425462 0.025576681
-0.022449994 -0.022449994 0.02584219
-0.0213941 -0.022412866 0.027324617
-0.020497113 -0.022546824 0.026365876
-0.019422621 -0.02248935 0.025788575
-0.018318193 -0.022388903 0.025633156
-0.017435798 -0.022563973 0.023729235
-0.016250269 -0.02234412 0.021443665
0.0092509361 -0.022613401 0.024000674
0.010263602 -0.022579925 0.024989903
0.01126981 -0.022539619 0.025842786
0.012216048 -0.02239609 0.025898248
0.013258337 -0.022437187 0.026094407
0.01438264 -0.02260129 0.025019467
0.015351998 -0.022516264 0.022602171
-0.024560116 -0.021490103 0.024322093
-0.023329087 -0.02130047 0.025635153
-0.022529237 -0.021505183 0.025736868
-0.021380357 -0.021380357 0.026415735
-0.020469444 -0.021492917 0.026130676
-0.019481843 -0.021532565 0.025863647
-0.018482694 -0.021563146 0.025568366
-0.017515698 -0.021637039 0.024201751
-0.016132703 -0.021174174 0.021595538
0.0082401764 -0.021630464 0.02322337
0.0092675164 -0.021624206 0.024061829
0.010264977 -0.021556454 0.026189774
0.01112067 -0.02123037 0.027974635
0.012212572 -0.021372002 0.027553558
0.013350307 -0.021565881 0.027273089
0.014270402 -0.021405602 0.025293678
0.015201625 -0.021282276 0.023020059
-0.024574913 -0.020479094 0.024091035
-0.023473294 -0.020411558 0.025538236
-0.022467896 -0.020425361 0.026235014
-0.021307733 -0.020293077 0.026638746
-0.020378385 -0.020378385 0.026206285
-0.019260103 -0.020273792 0.026201844
-0.018243039 -0.020270042 0.025558531
-0.017468281 -0.020550918 0.025357902
-0.016261332 -0.020326665 0.02237156
0.0082295388 -0.020573847 0.02218473
0.0091651361 -0.020366969 0.024831325
0.010197493 -0.020394986 0.02759847
0.011187044 -0.020340079 0.027676791
0.012206096 -0.020343492 0.027273089
0.013135992 -0.020209217 0.027273089
0.014241548 -0.020345068 0.02586484
0.015468294 -0.02062439 0.022833407
-0.02456622 -0.019448258 0.024080127
-0.023662148 -0.019546991 0.025635153
-0.02253484 -0.019461907 0.025874972
-0.021379288 -0.019343166 0.026651353
-0.020478185 -0.019454276 0.026440114
-0.019454326 -0.019454326 0.026265204
-0.018176254 -0.019186046 0.026663125
-0.017280057 -0.019313006 0.026464373
-0.016439551 -0.019521968 0.023003042
0.0081808483 -0.019429516 0.023927391
0.0091700861 -0.019359071 0.026483864
0.010180466 -0.019342886 0.027303219
0.01112545 -0.019216686 0.027544528
0.012083384 -0.019132026 0.027141869
0.013213559 -0.019312127 0.027319074
0.014307191 -0.019416902 0.025948912
0.015322271 -0.019408209 0.02275607
-0.02465952 -0.01849464 0.023357898
-0.023499819 -0.018391162 0.025291622
-0.022463836 -0.018379502 0.026275694
-0.021434125 -0.018372105 0.026638746
-0.020459857 -0.018413872 0.026330799
-0.019159457 -0.018151063 0.02695027
-0.018401796 -0.018401796 0.02740556
-0.017358609 -0.018379701 0.027677983
-0.016314846 -0.0183542 0.025887042
0.0071721938 -0.018442784 0.023575455
0.0081481747 -0.018333394 0.026006341
0.0090883821 -0.018176764 0.026575744
0.010107347 -0.018193224 0.027841002
0.011215816 -0.018353153 0.027221322
0.012244788 -0.018367181 0.027381539
0.013134354 -0.018186027 0.027418852
0.014215941 -0.018277638 0.025948912
0.015472868 -0.018567439 0.022492826
-0.024586312 -0.017415306 0.022865772
-0.023688426 -0.017508836 0.025300264
-0.022442194 -0.017341696 0.025648475
-0.021453068 -0.017366769 0.02629289
-0.020594727 -0.017505519 0.026451737
-0.019249415 -0.017223161 0.026380211
-0.01831726 -0.017299635 0.027304471
-0.017034562 -0.017034562 0.027677983
-0.016242605 -0.017257767 0.026749551
-0.015223432 -0.017253224 0.025509238
0.007109019 -0.017264761 0.026860625
0.0081013124 -0.017215287 0.027537376
0.0090849893 -0.017160535 0.02819258
0.010200412 -0.017340701 0.029078722
0.011142013 -0.017219475 0.02819258
0.012249047 -0.017352818 0.027602971
0.013225231 -0.017294534 0.027218491
0.014168908 -0.017205102 0.025793016
0.015300139 -0.017340157 0.022548348
-0.024730418 -0.016486945 0.022476882
-0.023574738 -0.016399818 0.025431305
-0.02245119 -0.016328137 0.025590092
-0.021434827 -0.016331296 0.026327282
-0.020433763 -0.016347012 0.026685804
-0.019296488 -0.016249673 0.026745319
-0.018308187 -0.016273944 0.027917951
-0.017333308 -0.016313702 0.028147668
-0.016227715 -0.016227715 0.027677983
-0.015247828 -0.016264351 0.026496798
-0.01424538 -0.016280433 0.025563776
0.0060976087 -0.016260291 0.027215183
0.0070500514 -0.016114403 0.027829677
0.008087039 -0.016174078 0.028364152
0.0090256212 -0.01604555 0.02834183
0.010135072 -0.016216116 0.02834183
0.011180007 -0.016261829 0.028130382
0.012131917 -0.01617589 0.02727285
0.013137137 -0.016168782 0.026063889
0.01439456 -0.016450925 0.024958283
-0.023525244 -0.015342549 0.022864223
-0.022539016 -0.015367512 0.024522543
-0.021489285 -0.01534949 0.025291085
-0.020361489 -0.015271117 0.026635945
-0.019302975 -0.01523919 0.026814848
-0.018366931 -0.015305776 0.028171182
-0.017349472 -0.015308358 0.028615385
-0.016226359 -0.015212211 0.028236747
-0.015147921 -0.015147921 0.027437508
-0.013926201 -0.01492093 0.026881784
-0.01322787 -0.015262927 0.026094377
0.0050107208 -0.015032163 0.028093725
0.0060148523 -0.015037131 0.028704047
0.0071147033 -0.015245792 0.029232264
0.0081048785 -0.015196647 0.028704047
0.0091268243 -0.015211374 0.02852577
0.010081838 -0.015122758 0.028364152
0.011214587 -0.015292619 0.027703464
0.012186443 -0.015233053 0.026888371
0.013364836 -0.015420964 0.026443779
0.014245051 -0.015262554 0.025295526
-0.022534359 -0.014340047 0.022729009
-0.021495059 -0.014330039 0.02469334
-0.020534959 -0.014374471 0.025291085
-0.019517519 -0.01438133 0.026506245
-0.018181209 -0.014140941 0.027499348
-0.017102635 -0.014084523 0.028487265
-0.016232697 -0.01420361 0.028140843
-0.015161163 -0.014150418 0.027980357
-0.014127824 -0.014127824 0.027860701
-0.013053291 -0.014057389 0.027786732
-0.011974113 -0.013969799 0.02742222
-0.01128931 -0.014368213 0.025660127
0.003056579 -0.014264035 0.028387517
0.0040346454 -0.014121258 0.029028028
0.0050385944 -0.014108065 0.029271036
0.0060599982 -0.014139997 0.029385597
0.00710767 -0.01421534 0.029544085
0.0081519159 -0.014265852 0.028858215
0.0090618543 -0.014096218 0.028401405
0.010151589 -0.014212225 0.027968258
0.011149266 -0.014189974 0.02747041
0.01225479 -0.014297255 0.026347518
0.013252027 -0.014271414 0.025295526
-0.021590164 -0.013365339 0.022729009
-0.020638943 -0.013415313 0.02402994
-0.019351453 -0.013240467 0.02529943
-0.018364655 -0.013263363 0.027038395
-0.017214831 -0.013164282 0.028350711
-0.015995355 -0.012996226 0.028874755
-0.015184364 -0.013159783 0.028182834
-0.013978089 -0.012979654 0.028800607
-0.013156537 -0.013156537 0.028800607
-0.012006554 -0.013007101 0.028922468
-0.011152884 -0.013180682 0.027758092
-0.0099069187 -0.012878994 0.02710107
-0.0091328062 -0.013191831 0.026800632
0.0010106218 -0.013138083 0.028387517
0.0019784428 -0.012859878 0.02820453
0.0030072911 -0.013031594 0.028988719
0.0040152399 -0.01304953 0.029365242
0.0050317063 -0.013082436 0.029035538
0.0060736714 -0.013159622 0.029333591
0.007022108 -0.013041058 0.029385597
0.0080906954 -0.01314738 0.028439432
0.0090818098 -0.013118169 0.027559787
0.010129293 -0.013168082 0.027410835
0.011200463 -0.013236912 0.025967628
0.012190765 -0.013206662 0.024886757
0.013239681 -0.013239681 0.022496611
-0.019454749 -0.012287209 0.023656845
-0.01842746 -0.012284973 0.024999946
-0.017252402 -0.012178167 0.026987344
-0.016188556 -0.012141418 0.028112143
-0.015325325 -0.012260259 0.02817896
-0.014041429 -0.012035511 0.02877292
-0.01312668 -0.012116935 0.029034495
-0.012107644 -0.012107644 0.029102176
-0.01114169 -0.012154572 0.029083371
-0.01003869 -0.012046427 0.029083371
-0.0090677114 -0.012090283 0.02871716
-0.0080182049 -0.012027306 0.029939562
-0.007011991 -0.012020556 0.029090345
-0.0060090595 -0.012018119 0.028298765
-0.0049812109 -0.011954906 0.028722614
-0.0039855684 -0.011956706 0.028893262
-0.0030159364 -0.012063745 0.029074699
-0.0020129716 -0.01207783 0.029470235
-0.001003326 -0.012039912 0.02984187
0 -0.01203556 0.029385448
0.00099887676 -0.011986521 0.028953522
0.0019927372 -0.011956423 0.030041456
0.0030349516 -0.012139807 0.029703766
0.0040099467 -0.01202984 0.029000282
0.0050528194 -0.012126767 0.028942704
0.0060134474 -0.012026895 0.029385597
0.0070734178 -0.012125859 0.028699726
0.0081181396 -0.012177209 0.027751416
0.0091538094 -0.012205079 0.02678737
0.010250114 -0.012300136 0.026083797
0.01128645 -0.01231249 0.023533583
-0.018491253 -0.01130021 0.022525191
-0.017303331 -0.011196272 0.025282979
-0.01630763 -0.011211495 0.026987344
-0.015148264 -0.011108726 0.028181583
-0.014190828 -0.011149936 0.028182954
-0.012986651 -0.010988705 0.029291123
-0.012194051 -0.011177881 0.029033482
-0.011095575 -0.011095575 0.028979629
-0.010056471 -0.011062118 0.029196024
-0.0090546515 -0.011066796 0.02954638
-0.0081114089 -0.011153187 0.030594707
-0.0070269993 -0.011042427 0.030365616
-0.0060420362 -0.011077066 0.030137569
-0.0050668963 -0.011147171 0.03010872
-0.0040024333 -0.011006691 0.03023085
-0.0030326096 -0.011119569 0.030364722
-0.0020227465 -0.011125105 0.030552715
-0.0010115657 -0.011127221 0.031348586
0 -0.011068924 0.031065464
0.0010080304 -0.011088334 0.030161768
0.0019933677 -0.010963522 0.031523734
0.0030348038 -0.011127613 0.030041456
0.003998776 -0.010996633 0.028514713
0.005051659 -0.01111365 0.028472811
0.0060745813 -0.011136732 0.028196186
0.0071310904 -0.011205998 0.027647078
0.0080811828 -0.011111626 0.026297033
0.0091747586 -0.011213594 0.023533583
-0.015284484 -0.010189656 0.02670595
-0.014261692 -0.010186923 0.027286381
-0.013134024 -0.010103095 0.028602362
-0.012042772 -0.010035643 0.02944997
-0.011109037 -0.010099124 0.028961301
-0.010127817 -0.010127817 0.029094011
-0.0090459203 -0.010051023 0.029672712
-0.0080397828 -0.010049729 0.030735224
-0.0070308736 -0.010044105 0.031339258
-0.006058523 -0.010097538 0.031729251
-0.0050541232 -0.010108246 0.031636894
-0.0040531647 -0.010132912 0.031732619
-0.0030501806 -0.010167268 0.031808823
-0.00201081 -0.010054049 0.031939209
-0.0010123025 -0.010123024 0.031966418
0 -0.0099822469 0.031472147
0.001003098 -0.01003098 0.030479997
0.0020365333 -0.010182666 0.029835582
0.0030346373 -0.010115458 0.028704226
0.0040590162 -0.01014754 0.02816093
0.0050724093 -0.010144819 0.027375519
0.006075345 -0.010125575 0.027226031
0.0071012676 -0.010144668 0.025401205
-0.01317995 -0.0091245808 0.027479976
-0.012110756 -0.0090830671 0.028596044
-0.011102323 -0.009083719 0.028630495
-0.010007146 -0.0090064313 0.02898401
-0.0091067934 -0.0091067934 0.029443353
-0.0080680521 -0.0090765581 0.029994518
-0.0070905951 -0.0091164792 0.030120015
-0.0060603456 -0.0090905176 0.030505151
-0.005029127 -0.0090524284 0.030304581
-0.0040531619 -0.009119614 0.030119747
-0.0030426809 -0.0091280425 0.03021279
-0.0020088567 -0.0090398546 0.0301871
-0.0010077296 -0.0090695657 0.029848397
0 -0.0090860529 0.030846
0.00099968293 -0.0089971451 0.028819352
0.0020014197 -0.0090063885 0.028393447
0.0030474358 -0.0091423066 0.027266651
0.0041016839 -0.0092287883 0.026746839
0.0051205601 -0.009217008 0.024982244
-0.012289087 -0.0081927255 0.025472075
-0.011133077 -0.0080967834 0.027558357
-0.010066793 -0.008053435 0.027788103
-0.0090963058 -0.0080856057 0.028202623
-0.0081562502 -0.0081562502 0.028564423
-0.0069787549 -0.0079757199 0.029487967
-0.006013487 -0.0080179824 0.029998511
-0.0050104968 -0.0080167949 0.029907674
-0.0040280172 -0.0080560343 0.029907674
-0.0030331495 -0.0080883987 0.030115098
-0.002047248 -0.0081889918 0.029437721
-0.0010053446 -0.0080427565 0.029236078
0 -0.0080023026 0.028682262
0.0010113189 -0.008090551 0.028425962
0.0020244478 -0.0080977911 0.02642405
0.0030611309 -0.0081630163 0.025171757
-0.01002643 -0.0070185009 0.02464205
-0.0091389697 -0.0071080881 0.027383238
-0.0080937268 -0.0070820111 0.028814882
-0.0071233064 -0.0071233064 0.029018134
-0.0060807015 -0.0070941518 0.029018134
-0.0050439551 -0.0070615374 0.029228121
-0.0040335706 -0.007058749 0.029270947
-0.0030382299 -0.0070892032 0.029426694
-0.0020286883 -0.0071004089 0.029244542
-0.0010063061 -0.007044143 0.028498828
0 -0.0071670725 0.028149843
0.0010168533 -0.0071179727 0.025548518
-0.0091991359 -0.0061327578 0.026146114
-0.0081457477 -0.0061093108 0.026637107
-0.0070950058 -0.0060814335 0.02711761
-0.0061321566 -0.0061321566 0.026907623
-0.0050362353 -0.0060434821 0.027300984
-0.0041068937 -0.0061603403 0.028457344
-0.0030517052 -0.0061034104 0.027127534
-0.0020265759 -0.0060797273 0.026365459
-0.0010195773 -0.0061174631 0.026178539
-0.0081777256 -0.0051110783 0.025667548
-0.0071374956 -0.0050982111 0.025594532
-0.0060694525 -0.0050578769 0.025393724
-0.0051001175 -0.0051001175 0.025603712
-0.0040826476 -0.0051033092 0.02538833
-0.0031063161 -0.0051771933 0.025144458
-0.0020256701 -0.005064175 0.023500264
-0.0061358316 -0.0040905545 0.02345413
-0.0051100161 -0.004088013 0.022708148
0 0 0 1 0 0 0 1 0 0 0 1 0 0 0 0 0 924 1 0 0
