ply
format ascii 1.0
comment PCL generated
element vertex 1268
property float x
property float y
property float z
element camera 0
property float view_px
property float view_py
property float view_pz
property float x_axisx
property float x_axisy
property float x_axisz
property float y_axisx
property float y_axisy
property float y_axisz
property float z_axisx
property float z_axisy
property float z_axisz
property float focal
property float scalex
property float scaley
property float centerx
property float centery
property int viewportx
property int viewporty
property float k1
property float k2
end_header
-0.003071931 -0.053246804 0.026882231
-0.0020473809 -0.053231899 0.026800573
-0.00101723 -0.052895956 0.026691288
0 -0.053650748 0.026240468
0.0010200719 -0.053043734 0.025995612
0.0020638276 -0.053659517 0.02557686
0.0031089357 -0.053888217 0.025462002
0.0040851785 -0.053107318 0.024627149
0.0051102615 -0.053146724 0.024936348
0.0061908737 -0.053654239 0.024869949
0.0072101247 -0.053560928 0.024210036
0.0082392804 -0.053555321 0.02329123
0.0092148427 -0.053241316 0.02322644
0.010328789 -0.053709704 0.022677928
0.011344979 -0.05363081 0.021516681
0.01237474 -0.053623874 0.020686626
0.013616282 -0.05446513 0.01730597
0.014750459 -0.05478742 0.014277399
0.015953118 -0.05530414 0.012859017
0.016668957 -0.05417411 0.011473566
0.017916434 -0.054803208 0.010556966
0.019012883 -0.054926109 0.0099063814
0.02029066 -0.055532333 0.011273712
0.021163987 -0.055026367 0.011103302
0.021883352 -0.054187346 0.011294067
0.023316897 -0.055112667 0.013015985
0.02420678 -0.054728374 0.013478369
0.025438143 -0.055115979 0.013580233
0.026598198 -0.055324249 0.011565179
0.027157333 -0.054314665 0.010792583
0.028352024 -0.054603893 0.0098472834
-0.039286084 -0.054151088 0.010476053
-0.038104843 -0.053981863 0.011661083
-0.037210472 -0.054220974 0.012161136
-0.036390595 -0.054585893 0.012161136
-0.034927644 -0.053979088 0.01127249
-0.034373768 -0.054783192 0.010857552
-0.032584354 -0.053606518 0.011476219
-0.031868469 -0.054176398 0.011555493
-0.03085199 -0.054256946 0.010817587
-0.029468929 -0.053675551 0.011906445
-0.028580941 -0.053986222 0.011976987
-0.027468786 -0.053881079 0.012541264
-0.026751475 -0.054573011 0.013886303
-0.025538912 -0.054270189 0.014078051
-0.02416442 -0.053581972 0.016301721
-0.023115654 -0.053586289 0.016454756
-0.021937197 -0.053276051 0.018111169
-0.021002728 -0.05355696 0.018657953
-0.019873474 -0.053344589 0.018670708
-0.018724136 -0.053051721 0.019340366
-0.017608754 -0.052826263 0.020307362
-0.016558185 -0.05277922 0.020992398
-0.015405098 -0.052377336 0.021170855
-0.014500392 -0.052822854 0.021338552
-0.013476769 -0.0528704 0.021846086
-0.012322065 -0.052368779 0.021880418
-0.011349233 -0.052619174 0.023155004
-0.010204472 -0.052042805 0.023197502
-0.0092068743 -0.052172292 0.023730516
-0.0082230195 -0.052421752 0.024942786
-0.0072077508 -0.052513614 0.024789304
-0.0061565461 -0.052330643 0.025089443
-0.0051566358 -0.052597687 0.026228994
-0.004111391 -0.052420232 0.026199579
-0.0030914121 -0.052554004 0.02632606
-0.0020637554 -0.052625764 0.026460648
-0.0010266855 -0.052360956 0.026440352
0 -0.052737463 0.024149716
0.0010181569 -0.051926002 0.024464637
0.002061215 -0.052560981 0.02396816
0.0030812507 -0.052381262 0.02538389
0.0041440516 -0.05283666 0.025041938
0.0051859692 -0.052896887 0.024166882
0.0061688842 -0.052435514 0.023143202
0.007210291 -0.052532122 0.023133695
0.0082244715 -0.052431006 0.022272199
0.0093037495 -0.052721247 0.022351593
0.010351407 -0.05279218 0.021787763
0.011276073 -0.052279975 0.020585656
0.01241348 -0.052757293 0.018428683
0.013615875 -0.053416125 0.016804904
0.014670496 -0.053442523 0.014347076
0.01591827 -0.054122116 0.012493461
0.016708074 -0.053256985 0.010947853
0.017856346 -0.053569037 0.010253578
0.019074364 -0.054044034 0.010887802
0.020177683 -0.054161146 0.01173985
0.021049848 -0.053677116 0.012118101
0.022206116 -0.053929139 0.01252082
0.02311831 -0.053592447 0.012695074
0.024390813 -0.054083977 0.013732463
0.025601221 -0.054402597 0.013999462
0.026331903 -0.053717084 0.013356477
0.027625723 -0.054188918 0.01059863
0.028628197 -0.054075483 0.0094457865
-0.039469842 -0.053337622 0.011914462
-0.037903972 -0.052644409 0.012176782
-0.037105914 -0.053008452 0.012507051
-0.036170185 -0.053191449 0.013109416
-0.035099614 -0.053181235 0.012067735
-0.033938531 -0.053028952 0.011210829
-0.032816961 -0.052930586 0.011123151
-0.032137163 -0.053561941 0.01099807
-0.030781019 -0.05307072 0.01190266
-0.029854927 -0.053312369 0.012007266
-0.028345285 -0.05249127 0.012093365
-0.027438039 -0.052765463 0.012706399
-0.026859395 -0.05371879 0.012897581
-0.025438102 -0.052996047 0.013045937
-0.024519242 -0.053302698 0.013539165
-0.023291614 -0.052935489 0.014635503
-0.02183741 -0.051993836 0.01646775
-0.020987483 -0.05246871 0.017666787
-0.020034658 -0.052722786 0.018148273
-0.01861679 -0.05171331 0.019340366
-0.017676905 -0.0519909 0.020307362
-0.01660008 -0.051875252 0.021080643
-0.015669264 -0.05223088 0.021744072
-0.014536214 -0.051915053 0.021570683
-0.013410198 -0.051577687 0.021888137
-0.012340407 -0.051418364 0.021930963
-0.011314834 -0.051431067 0.022759765
-0.010278409 -0.051392049 0.023155004
-0.0092015676 -0.051119823 0.023463398
-0.0082483189 -0.051551994 0.024748772
-0.007121061 -0.050864723 0.025537312
-0.0061276052 -0.051063381 0.024736941
-0.0051661027 -0.051661029 0.025667846
-0.0041354168 -0.051692713 0.025310189
-0.0030629679 -0.051049467 0.025232166
-0.0020646385 -0.051615965 0.025227785
-0.0010334179 -0.051670894 0.024999261
0 -0.051553071 0.024423689
0.0010317842 -0.051589213 0.024757236
0.0020549579 -0.051373951 0.02396816
0.0030811189 -0.051351983 0.024149716
0.0041288827 -0.051611036 0.024774581
0.00512829 -0.051282901 0.024157375
0.0062147225 -0.051789355 0.023133695
0.0072184592 -0.051560424 0.022895217
0.0082652569 -0.051657859 0.022066861
0.0092734294 -0.051519055 0.021678686
0.010358251 -0.051791258 0.020783901
0.011384026 -0.051745575 0.018962085
0.01264957 -0.05270654 0.015629053
0.013597303 -0.05229732 0.01459828
0.014808806 -0.052888595 0.013747245
0.015887836 -0.052959457 0.01285249
0.016972497 -0.053039055 0.011979729
0.017926628 -0.052725378 0.011979729
0.019088984 -0.053024955 0.012168407
0.019798106 -0.052100278 0.01208353
0.021040661 -0.052601654 0.012118101
0.022237107 -0.052945495 0.012958109
0.023019142 -0.052316237 0.013441294
0.024126057 -0.052447949 0.013610154
0.02522067 -0.052543063 0.013626158
0.026232863 -0.052465726 0.012889475
0.027518101 -0.052919429 0.011612564
0.028695732 -0.053140242 0.010245472
-0.039145041 -0.051840726 0.011958897
-0.037822116 -0.0514801 0.012205571
-0.037188891 -0.052064445 0.013153851
-0.036170878 -0.052128617 0.012593091
-0.034815632 -0.051695935 0.011582434
-0.033885095 -0.051886551 0.012236029
-0.033077579 -0.052283909 0.011582434
-0.031350207 -0.051205333 0.011559039
-0.031094965 -0.052539766 0.012172997
-0.029879196 -0.052288592 0.012590945
-0.028468017 -0.051664177 0.012479812
-0.027659932 -0.052128334 0.012722969
-0.026728613 -0.052388079 0.012706399
-0.025312429 -0.05167954 0.012897581
-0.024458593 -0.052107431 0.012761474
-0.023293372 -0.051880691 0.013025433
-0.021930357 -0.05117083 0.014383286
-0.021160701 -0.051843718 0.015798032
-0.019871898 -0.05124858 0.017149508
-0.018711695 -0.050937392 0.017726898
-0.017791249 -0.051280655 0.019675195
-0.016675768 -0.051069535 0.019458741
-0.015543393 -0.050775081 0.020740181
-0.014505072 -0.050767753 0.02076593
-0.013363165 -0.050368849 0.02191925
-0.012403692 -0.050648406 0.021924585
-0.011325601 -0.0504504 0.022712439
-0.010334783 -0.050640438 0.022856802
-0.0092893243 -0.050575208 0.023839116
-0.0082087154 -0.050278381 0.024748117
-0.0071672848 -0.050170992 0.024583489
-0.0062006395 -0.050638553 0.023966432
-0.0051471009 -0.050441589 0.024943113
-0.0041027856 -0.050259121 0.024738997
-0.0030855073 -0.050396621 0.02474165
-0.0020525579 -0.050287668 0.024811953
-0.0010263489 -0.050291099 0.024782807
0 -0.050697546 0.024149716
0.0010310698 -0.050522421 0.024403214
0.0020676886 -0.050658371 0.024146527
0.0031377983 -0.051250704 0.024205536
0.004086324 -0.050057471 0.02300626
0.0052369707 -0.051322315 0.022890657
0.0061443592 -0.05017893 0.022083193
0.0072151516 -0.050506059 0.021002352
0.008219366 -0.05034361 0.020365745
0.0092528379 -0.050376564 0.020773947
0.010403759 -0.050978418 0.018679887
0.011582485 -0.051594708 0.016050547
0.012606959 -0.051478416 0.016031235
0.013493706 -0.050860893 0.01459828
0.014903922 -0.052163724 0.013443232
0.015917167 -0.051996078 0.013247013
0.017085066 -0.052323014 0.012773782
0.017884795 -0.051550288 0.012773782
0.018733462 -0.050996646 0.012660235
0.02000859 -0.051601097 0.012545884
0.021071238 -0.051624533 0.012932241
0.021926548 -0.051161945 0.013116002
0.022950353 -0.051116694 0.013869077
0.023998579 -0.051127404 0.014574707
0.025348678 -0.051753551 0.014533162
0.026597228 -0.052130565 0.014147669
0.02690774 -0.050710741 0.012265414
-0.039312791 -0.051000375 0.012072444
-0.037948377 -0.050597835 0.011928886
-0.037164032 -0.050967816 0.013025999
-0.035982653 -0.050799038 0.012971163
-0.034941453 -0.050823934 0.011582434
-0.033605471 -0.050408207 0.012281269
-0.033158511 -0.051342208 0.012250334
-0.032181814 -0.051490903 0.011893183
-0.031156741 -0.051569775 0.012241691
-0.029661475 -0.050848242 0.012079507
-0.028616747 -0.050874215 0.01199463
-0.027796967 -0.051317476 0.012706399
-0.026503934 -0.050887551 0.012879044
-0.025451953 -0.050903905 0.012938321
-0.02426569 -0.050641436 0.012951374
-0.023265732 -0.050761599 0.012806267
-0.022161618 -0.050655127 0.012875259
-0.021289151 -0.051093966 0.013482809
-0.020057067 -0.050670482 0.01466006
-0.018847914 -0.050261103 0.017089933
-0.017609406 -0.049720675 0.017294049
-0.016568465 -0.049705397 0.018948257
-0.015741326 -0.050372243 0.020168841
-0.014484837 -0.049662296 0.021095276
-0.013421431 -0.049556054 0.021519542
-0.012366728 -0.049466912 0.022319883
-0.01126108 -0.049139258 0.022527546
-0.010255558 -0.049226683 0.022527546
-0.0093264161 -0.049740888 0.0235416
-0.0082644336 -0.049586602 0.024501234
-0.0071418835 -0.048972916 0.023966432
-0.0061505525 -0.04920442 0.023962736
-0.0051695234 -0.049627427 0.024226934
-0.0041400921 -0.049681105 0.023895144
-0.0030935127 -0.049496204 0.024531871
-0.0020588622 -0.049412694 0.024286628
-0.0010302882 -0.049453832 0.024398297
0 -0.049352273 0.024081677
0.0010436072 -0.050093144 0.024146527
0.002045301 -0.049087226 0.023342282
0.0030768036 -0.049228858 0.023605615
0.0041124867 -0.049349841 0.021125138
0.0051895007 -0.049819209 0.023145258
0.0060837227 -0.048669782 0.02153939
0.0072355266 -0.04961504 0.019837976
0.0083462698 -0.050077617 0.019402325
0.0093520191 -0.049877439 0.018654674
0.010618089 -0.050966829 0.01621893
0.011450807 -0.049967155 0.015892208
0.012612174 -0.050448697 0.014925003
0.013680232 -0.050511625 0.013797075
0.014714391 -0.050449342 0.013443232
0.015644224 -0.050061516 0.013919801
0.016733976 -0.050201926 0.013500899
0.017784216 -0.050214253 0.013998508
0.018893639 -0.050383035 0.013812542
0.019959401 -0.050423749 0.01407057
0.021100495 -0.05064119 0.014360249
0.022268267 -0.050898895 0.01521939
0.023559647 -0.051402867 0.014607996
0.024440853 -0.051006995 0.015335619
0.02526775 -0.0505355 0.015756458
0.025908748 -0.049744796 0.014598668
0.027544068 -0.050850585 0.013297826
-0.038663741 -0.049113397 0.012072444
-0.03826341 -0.04995501 0.012336314
-0.037301525 -0.050090622 0.012474418
-0.035515066 -0.049094353 0.012457788
-0.034877922 -0.049674615 0.012147456
-0.034152292 -0.050161175 0.01235491
-0.032778829 -0.049696933 0.012357354
-0.031758178 -0.049754482 0.012078702
-0.030677097 -0.049718052 0.012389451
-0.029352104 -0.049269602 0.012389451
-0.029013371 -0.050504755 0.012226939
-0.027409114 -0.049547244 0.012791663
-0.026466332 -0.049756706 0.012879044
-0.025427461 -0.049795445 0.012938321
-0.024416 -0.049893565 0.012398034
-0.023372298 -0.049931731 0.011911541
-0.022292551 -0.04989285 0.012206495
-0.021178029 -0.049768373 0.012514114
-0.019849148 -0.049100522 0.013544887
-0.019010235 -0.049637835 0.016564488
-0.017875815 -0.04942137 0.016750842
-0.016616875 -0.048812073 0.016898721
-0.015503558 -0.048577815 0.020094424
-0.014535675 -0.048798338 0.020289928
-0.013410406 -0.048483774 0.021218896
-0.012382695 -0.048498888 0.021556407
-0.011316981 -0.048354376 0.021892965
-0.010370559 -0.048741631 0.021783888
-0.00919946 -0.048041627 0.023940206
-0.0082721803 -0.048599061 0.023296028
-0.00718763 -0.048259802 0.023940206
-0.0061516268 -0.048187748 0.023940206
-0.0051789088 -0.048681743 0.02372992
-0.0041461485 -0.048717245 0.023664504
-0.0030975067 -0.048527606 0.023812801
-0.0020771481 -0.048812978 0.023637474
-0.0010288942 -0.048358027 0.023728579
0 -0.048338249 0.023043156
0.0010399158 -0.048876043 0.02287367
0.0020488065 -0.048146956 0.020815581
0.0030896948 -0.048405219 0.01969108
0.0041102995 -0.048296019 0.018122047
0.0051519619 -0.048428446 0.019555449
0.0062504481 -0.048961844 0.019052804
0.0074644042 -0.050118141 0.018257618
0.0084296027 -0.049523916 0.016552269
0.0094490228 -0.049344897 0.015551984
0.010521305 -0.049450137 0.014782041
0.011725178 -0.05009849 0.01397717
0.012767679 -0.050006744 0.013501763
0.013584302 -0.049112476 0.013125032
0.014667008 -0.049239241 0.013234109
0.015672401 -0.049106855 0.01423794
0.016975103 -0.049864367 0.013909966
0.017787356 -0.049176805 0.015116155
0.019077752 -0.049814131 0.015272945
0.019852597 -0.049109053 0.01483947
0.020884076 -0.049077582 0.014598489
0.022264611 -0.049830317 0.015826762
0.022478327 -0.048021879 0.015154779
0.023887577 -0.048813742 0.014812976
0.02511408 -0.049181741 0.0163562
0.026002433 -0.048884574 0.014624983
0.026802607 -0.048450865 0.012989163
-0.039176915 -0.048706435 0.012594432
-0.038113561 -0.048700664 0.013024569
-0.037128381 -0.048797306 0.012674987
-0.035728354 -0.048338361 0.012474418
-0.03492571 -0.048684325 0.01235491
-0.034030624 -0.048919022 0.012847126
-0.0330166 -0.048992373 0.012472093
-0.031605944 -0.048462447 0.012681663
-0.030659568 -0.048632417 0.012845069
-0.029671816 -0.048746556 0.012682408
-0.028489655 -0.048537929 0.01216948
-0.027564684 -0.048768289 0.0131917
-0.026549468 -0.048851021 0.012999326
-0.025488423 -0.048852812 0.013124198
-0.024417417 -0.048834834 0.012987882
-0.023340391 -0.048802637 0.01281637
-0.022236677 -0.048708912 0.011704206
-0.02123975 -0.04885143 0.012167543
-0.020225024 -0.048965849 0.013272882
-0.018998247 -0.048551079 0.01490894
-0.017816111 -0.048208304 0.01475656
-0.016751409 -0.0481603 0.015747607
-0.015606971 -0.047861379 0.016477078
-0.01448051 -0.047578819 0.01925385
-0.013385913 -0.047365543 0.019689769
-0.012403681 -0.047547445 0.02172482
-0.011464765 -0.04794357 0.021589249
-0.010145229 -0.046668056 0.022231996
-0.0093012964 -0.047539964 0.023940206
-0.0081878239 -0.047079988 0.023478776
-0.0072176736 -0.047430426 0.023998082
-0.0062013622 -0.047543779 0.023853749
-0.0051428396 -0.047314126 0.022733599
-0.0041245623 -0.047432467 0.022950798
-0.0031025745 -0.04757281 0.022748083
-0.0020730186 -0.047679428 0.022277057
-0.0010254941 -0.047172729 0.022509545
0 -0.047108784 0.019482344
0.0010251913 -0.047158796 0.019171327
0.0020793185 -0.047824323 0.018489629
0.0031416451 -0.048171896 0.018945605
0.0041594524 -0.047833703 0.017336875
0.0053200116 -0.048944108 0.018564403
0.0063579949 -0.04874463 0.017974406
0.0072702458 -0.047775902 0.015748233
0.0084010102 -0.048305809 0.015705884
0.0093792388 -0.047938336 0.01572901
0.010473452 -0.048177879 0.015013814
0.011502068 -0.048099559 0.014323413
0.012639824 -0.048452664 0.013501763
0.013632271 -0.048237264 0.013840854
0.01470596 -0.048319586 0.013949931
0.015737725 -0.048262358 0.014818996
0.016730102 -0.048099045 0.015002608
0.017785244 -0.048124779 0.015339941
0.018880604 -0.048250433 0.015129536
0.019789297 -0.047910929 0.01578033
0.020863431 -0.047985893 0.015529543
0.021992765 -0.048174627 0.015720338
0.022786822 -0.047645174 0.015192896
0.02396952 -0.04793904 0.015166402
0.025296858 -0.048485644 0.017424136
0.026339369 -0.048464436 0.015272647
0.027017727 -0.047800597 0.015015334
-0.03857388 -0.046914175 0.012258142
-0.03761794 -0.047022428 0.013112932
-0.037514806 -0.048233327 0.013707012
-0.035645939 -0.047178451 0.013196111
-0.034855735 -0.047530551 0.013114363
-0.033696063 -0.047385093 0.012518138
-0.032402158 -0.047035389 0.012246758
-0.0319882 -0.047982302 0.012404114
-0.030727722 -0.047680948 0.012331009
-0.029576864 -0.04753425 0.01259166
-0.028422529 -0.047370881 0.012497813
-0.027363297 -0.047359552 0.012486398
-0.026446525 -0.047603745 0.013288409
-0.025467973 -0.047752451 0.013010204
-0.024403378 -0.047745742 0.012720913
-0.023173887 -0.047401134 0.012566328
-0.022333125 -0.0478567 0.011853814
-0.020954 -0.047146503 0.01191166
-0.020161688 -0.047751367 0.013186008
-0.019065676 -0.047664195 0.014346719
-0.017870506 -0.047304284 0.01490894
-0.016764823 -0.047151066 0.015102029
-0.015797544 -0.047392633 0.015599996
-0.01479232 -0.047546744 0.016955793
-0.013567599 -0.046964765 0.017769426
-0.012450041 -0.046687659 0.020148695
-0.011413348 -0.046690971 0.019837707
-0.010326771 -0.046470474 0.021844655
-0.0092837345 -0.046418678 0.022644222
-0.0083452109 -0.046941809 0.023424774
-0.007215458 -0.046385091 0.022379696
-0.0061838357 -0.046378769 0.023192018
-0.0051639746 -0.046475772 0.022112787
-0.0041300827 -0.046463434 0.021524847
-0.003099265 -0.046488978 0.021222711
-0.0020642695 -0.046446066 0.019724756
-0.0010448688 -0.047019102 0.019327402
0 -0.046752028 0.018968254
0.0010445053 -0.04700274 0.017803341
0.0021025641 -0.047307696 0.017279863
0.0031170789 -0.046756186 0.017891854
0.0042151515 -0.047420457 0.016671151
0.0052048718 -0.046843849 0.016541511
0.0061991033 -0.046493277 0.015372157
0.007342685 -0.047202978 0.01428327
0.0083941603 -0.047217153 0.014630198
0.0094331205 -0.047165606 0.014756203
0.010544839 -0.047451783 0.014789402
0.011449327 -0.046838157 0.014806628
0.012501644 -0.046881169 0.014999062
0.013661287 -0.047289073 0.01529485
0.014726192 -0.04733419 0.015551418
0.015634963 -0.046904892 0.015106767
0.016654389 -0.04684047 0.015551418
0.017585427 -0.046549659 0.015661806
0.018937105 -0.047342766 0.016062349
0.019769542 -0.0468226 0.016251981
0.02060057 -0.046351288 0.016324699
0.022150138 -0.047464587 0.015991092
0.02288105 -0.046802152 0.01645416
0.024104234 -0.047160458 0.01603353
0.024939567 -0.046761692 0.016833484
0.02619857 -0.047157425 0.016907096
0.027482778 -0.047566351 0.015450656
-0.03879207 -0.046131104 0.013346851
-0.037899856 -0.046322044 0.014894843
-0.037072778 -0.046605777 0.014894843
-0.035875376 -0.046426956 0.014673918
-0.035170246 -0.04689366 0.014515638
-0.033486787 -0.046044331 0.014409006
-0.032598343 -0.046268612 0.013038397
-0.031920783 -0.046817146 0.01409182
-0.030420559 -0.046155326 0.013259977
-0.029595111 -0.046506599 0.013259977
-0.028667061 -0.04671669 0.012802273
-0.027342476 -0.046271883 0.012411535
-0.026484009 -0.046611853 0.013204217
-0.025386371 -0.04654168 0.013338149
-0.024121968 -0.04614637 0.012832612
-0.023527738 -0.047055475 0.012661785
-0.022288403 -0.046699509 0.011939645
-0.020982746 -0.046162043 0.012835383
-0.020169517 -0.046708353 0.013852298
-0.019004421 -0.046455257 0.014084756
-0.017859964 -0.04622579 0.014578551
-0.01693706 -0.046576913 0.015102029
-0.015765537 -0.046245571 0.015260041
-0.014833692 -0.046620175 0.015777528
-0.013607548 -0.046056315 0.016643703
-0.012530521 -0.045945246 0.018152595
-0.011497123 -0.045988493 0.018055856
-0.010336272 -0.045479596 0.019270241
-0.0092682876 -0.04531163 0.020422846
-0.0082423035 -0.04533267 0.022611052
-0.0071436283 -0.044902805 0.021759391
-0.0061542629 -0.045131262 0.020142943
-0.0052050897 -0.045804791 0.019488931
-0.004161763 -0.045779392 0.019327402
-0.0031215716 -0.04578305 0.018848449
-0.002103263 -0.046271786 0.018576741
-0.0010435801 -0.045917526 0.018236339
0 -0.046251018 0.017690599
0.0010512775 -0.046256211 0.016410738
0.0020848378 -0.045866426 0.016661048
0.003145027 -0.046127062 0.016661048
0.0042027337 -0.046230067 0.016257852
0.0052144835 -0.045887452 0.015226781
0.0062975297 -0.046181884 0.015201181
0.0073875468 -0.046436008 0.014393538
0.0084299156 -0.046364535 0.015088379
0.0094400747 -0.046151474 0.015465707
0.010433824 -0.045908824 0.015748471
0.011438474 -0.045753896 0.015625268
0.012677374 -0.046483707 0.015625268
0.013701262 -0.046373501 0.015239
0.014558083 -0.045753974 0.015239
0.015646519 -0.045896456 0.015239
0.016508764 -0.0453991 0.016054809
0.017927909 -0.046401646 0.016599327
0.018675273 -0.045650672 0.016642541
0.019727798 -0.045685425 0.017243594
0.021013014 -0.046228632 0.016622752
0.021928687 -0.045945819 0.016407013
0.022895308 -0.045790616 0.016861588
0.023552738 -0.045057409 0.016861588
0.025113381 -0.046041202 0.016961038
0.025918394 -0.045616373 0.016687989
0.027059412 -0.045792848 0.015356064
-0.039168742 -0.045520429 0.013470292
-0.037729528 -0.045065828 0.01590836
-0.036744434 -0.045143161 0.015915215
-0.035811007 -0.045290388 0.015387326
-0.034884524 -0.045455594 0.014680684
-0.033814829 -0.045438677 0.014223039
-0.032502111 -0.045083575 0.014328182
-0.03139244 -0.044995833 0.014343798
-0.030416414 -0.045100197 0.014417917
-0.029462468 -0.045245934 0.014343798
-0.028558768 -0.045482483 0.0142259
-0.027312038 -0.045169912 0.014293045
-0.026534967 -0.045640144 0.014740437
-0.025473054 -0.045639221 0.014065862
-0.024209173 -0.045260627 0.013224155
-0.023518061 -0.045967121 0.013961822
-0.02208332 -0.045218226 0.013578594
-0.021345625 -0.045893095 0.013578594
-0.020077122 -0.045437697 0.014043063
-0.018956099 -0.045284014 0.014582932
-0.017878143 -0.045221187 0.014591306
-0.016676027 -0.044816822 0.014973491
-0.015729783 -0.045092043 0.014851362
-0.014661237 -0.045030944 0.015171707
-0.01370888 -0.045344759 0.015380472
-0.012563702 -0.045019932 0.015879959
-0.011441546 -0.044726044 0.016253144
-0.010571175 -0.045456056 0.017170668
-0.0094720665 -0.045255434 0.018193156
-0.0083977515 -0.045137916 0.018065959
-0.0073547373 -0.045179099 0.017594218
-0.0063094059 -0.04521741 0.018087626
-0.0051961825 -0.044687171 0.018330008
-0.0041851914 -0.044990804 0.018330008
-0.0031524198 -0.045184687 0.017722279
-0.0020784866 -0.044687465 0.017206788
-0.0010398593 -0.044713944 0.016934216
0 -0.04505299 0.016934216
0.0010413749 -0.044779122 0.016768843
0.0020870955 -0.044872552 0.015880316
0.0031629687 -0.045335885 0.016995728
0.0041563343 -0.044680592 0.015895605
0.0052443766 -0.045101643 0.015260369
0.0062592127 -0.044857692 0.016236633
0.0073025455 -0.044858497 0.015298933
0.008396782 -0.0451327 0.015165895
0.0093493294 -0.044669017 0.015420765
0.010518447 -0.045229323 0.015801251
0.011484212 -0.044892829 0.016051441
0.012562247 -0.045014717 0.016051441
0.013429236 -0.04441978 0.01571852
0.014635789 -0.04495278 0.016031593
0.015686162 -0.044966996 0.016050398
0.016410451 -0.044103086 0.016433328
0.01785652 -0.045166492 0.017135233
0.018718438 -0.044716273 0.017380565
0.019692816 -0.04456795 0.017465025
0.020850314 -0.044828176 0.016765267
0.021728592 -0.04449188 0.017224729
0.023011981 -0.044977963 0.016831011
0.023882022 -0.044648997 0.016804516
0.025345236 -0.045410216 0.016527683
0.026185526 -0.045039102 0.016551465
0.027085528 -0.044795297 0.016434103
-0.038466193 -0.043664329 0.013459265
-0.037889395 -0.044204298 0.015718788
-0.036580626 -0.043896753 0.015993148
-0.035746384 -0.0441573 0.015811473
-0.03495745 -0.044491302 0.015823573
-0.033661164 -0.044180278 0.01499626
-0.03246187 -0.043980595 0.015403301
-0.031725392 -0.044415548 0.014539868
-0.03068923 -0.044446468 0.014705181
-0.029322803 -0.043984208 0.014464825
-0.028371831 -0.044133961 0.014621854
-0.027185446 -0.043914951 0.014635831
-0.026277114 -0.044145551 0.01528132
-0.025424512 -0.044492897 0.014854789
-0.024158418 -0.044115372 0.014854789
-0.023383014 -0.044640303 0.014854789
-0.021972105 -0.04394421 0.014186382
-0.021117428 -0.044346601 0.014593422
-0.02007778 -0.04438246 0.014973491
-0.018978516 -0.044283208 0.014620841
-0.01789313 -0.04420656 0.014669061
-0.016780261 -0.044048183 0.014503151
-0.015745725 -0.044088028 0.014784038
-0.014424116 -0.04327235 0.014949471
-0.013619501 -0.044001464 0.015087038
-0.012591003 -0.044068508 0.015676051
-0.011388537 -0.043483507 0.015008837
-0.010596988 -0.044507351 0.016096801
-0.0093779741 -0.043763883 0.016662568
-0.0083732782 -0.043959714 0.016747594
-0.007350727 -0.044104364 0.016259879
-0.006278683 -0.043950785 0.017158985
-0.0052439352 -0.044049058 0.017059445
-0.0041710092 -0.043795597 0.017635912
-0.0031225032 -0.043715045 0.017635912
-0.0020935866 -0.043965317 0.016829014
-0.0010452264 -0.04389951 0.016478121
0 -0.044123776 0.016625077
0.0010429219 -0.043802723 0.015814334
0.0020727259 -0.043527242 0.015814334
0.0031152263 -0.043613169 0.01653111
0.0041528172 -0.043604583 0.015111417
0.0052196798 -0.043845315 0.014958531
0.0062917806 -0.044042464 0.015711755
0.00732229 -0.043933742 0.015709132
0.008362608 -0.043903694 0.015889108
0.0093768826 -0.043758787 0.016047001
0.01047089 -0.043977741 0.016466439
0.011497228 -0.043898512 0.016549379
0.012422976 -0.043480419 0.016476125
0.013560406 -0.043810543 0.016476125
0.014585325 -0.043755978 0.015843242
0.015732998 -0.044052396 0.017647773
0.016498134 -0.043307599 0.017465025
0.017669622 -0.04365436 0.01799351
0.01861212 -0.043428283 0.017410398
0.019723298 -0.043598872 0.018103659
0.020697091 -0.043463893 0.017540663
0.021866549 -0.043733098 0.017961204
0.022743588 -0.043419581 0.017920166
0.023781054 -0.043426272 0.017920166
0.025099078 -0.043923389 0.017510593
0.025718765 -0.043207526 0.018343627
0.026614295 -0.042992324 0.016700149
0.028152922 -0.043793432 0.015392601
-0.038587727 -0.042759374 0.014676183
-0.038120888 -0.043415461 0.0162009
-0.036812022 -0.043122657 0.016490042
-0.035817146 -0.043191265 0.016260177
-0.034978334 -0.043457933 0.015738755
-0.033491734 -0.042911287 0.015568852
-0.03278137 -0.043356005 0.015618503
-0.031281631 -0.042751562 0.015417427
-0.030504065 -0.043126434 0.015707403
-0.029333679 -0.042952891 0.015187651
-0.028225478 -0.04286091 0.014794886
-0.027088521 -0.042716518 0.015044123
-0.026332263 -0.043184914 0.015531808
-0.025247913 -0.043131851 0.015180916
-0.024280207 -0.04328211 0.015180916
-0.023258414 -0.043345232 0.014962733
-0.021956103 -0.042866677 0.015117377
-0.020976223 -0.043001261 0.014995694
-0.02016581 -0.043515697 0.015001029
-0.018904842 -0.043061037 0.014621377
-0.017938927 -0.043264471 0.015455008
-0.016841775 -0.043157049 0.015128553
-0.015658837 -0.042800821 0.015128553
-0.014825002 -0.043416079 0.015209138
-0.013637179 -0.043009564 0.015339434
-0.012584044 -0.042995486 0.015407026
-0.011523522 -0.042951312 0.015281379
-0.010414756 -0.042700503 0.015858322
-0.0094000287 -0.042822357 0.015286028
-0.0084302509 -0.043205038 0.015315473
-0.0073734145 -0.043187145 0.016216129
-0.00624354 -0.042664193 0.016801059
-0.0052370923 -0.042944163 0.016676307
-0.0041754763 -0.042798631 0.017221868
-0.0031465963 -0.043003485 0.017092466
-0.0021101374 -0.043257818 0.016795754
-0.0010508931 -0.043086618 0.016514868
0 -0.043034524 0.016625077
0.0010529555 -0.043171179 0.015927166
0.0020913337 -0.042872343 0.016590744
0.0031467783 -0.043005973 0.016363829
0.0041897907 -0.042945355 0.015408128
0.0052489196 -0.043041144 0.015742719
0.0062690135 -0.042838261 0.015495092
0.0073122811 -0.042829078 0.015042067
0.008291008 -0.042491417 0.016140997
0.0093410835 -0.042553831 0.016095996
0.010466905 -0.042914316 0.016780227
0.011357442 -0.042332284 0.016776115
0.012491642 -0.042679783 0.016369283
0.013400736 -0.042263862 0.016570956
0.01459246 -0.042735063 0.018413693
0.015657019 -0.042795852 0.018705159
0.016316166 -0.041810177 0.018877149
0.017588638 -0.042419657 0.018372416
0.018744502 -0.042695813 0.018666059
0.019752525 -0.04262387 0.018635243
0.020621208 -0.04227348 0.018666059
0.021694055 -0.042355061 0.018666059
0.022790715 -0.042473607 0.018908292
0.023711922 -0.042269081 0.018347114
0.02503865 -0.042774364 0.01824981
0.0256088 -0.041998431 0.018343627
0.026825696 -0.042302061 0.016986191
0.027624136 -0.041947763 0.015970469
-0.038878985 -0.042031333 0.0162009
-0.038313109 -0.042570125 0.016479015
-0.036501728 -0.041716259 0.016711414
-0.035836335 -0.042160396 0.016315907
-0.034661774 -0.042014271 0.017404735
-0.033703294 -0.042129118 0.016276479
-0.032425731 -0.041839652 0.016571313
-0.031352956 -0.041803941 0.016476423
-0.030639781 -0.042261764 0.01627636
-0.029800272 -0.042571817 0.015783817
-0.028446637 -0.042143162 0.015736461
-0.027479388 -0.04227598 0.015736461
-0.026114779 -0.041783646 0.015176773
-0.025159735 -0.041932892 0.015290856
-0.024273733 -0.042215187 0.015403688
-0.023181591 -0.042148344 0.014883369
-0.021947592 -0.041804936 0.014995694
-0.021025097 -0.042050194 0.016094565
-0.019897945 -0.041890409 0.015455008
-0.018883387 -0.041963082 0.015373439
-0.017833147 -0.041960344 0.015482366
-0.01664423 -0.041610572 0.015128553
-0.015768252 -0.04204867 0.014669716
-0.014620732 -0.041773517 0.015252769
-0.013720213 -0.04221604 0.015390337
-0.012579917 -0.041933056 0.015407026
-0.01161447 -0.042234436 0.015270412
-0.010501674 -0.042006698 0.01584971
-0.0094613414 -0.04205041 0.016289324
-0.0083673336 -0.041836668 0.016395032
-0.0073247291 -0.041855596 0.016372114
-0.0062720398 -0.041813597 0.016990334
-0.0052065542 -0.041652434 0.017059445
-0.0041753091 -0.041753091 0.017635375
-0.0031401042 -0.041868057 0.017254263
-0.002078267 -0.04156534 0.017347425
-0.0010459992 -0.041839968 0.017046005
0 -0.041956589 0.017295212
0.0010432083 -0.041728329 0.017322928
0.0021018079 -0.042036157 0.017034322
0.0031559395 -0.042079192 0.016088188
0.0041316268 -0.041316263 0.01503852
0.0052693454 -0.042154763 0.01546061
0.0062807761 -0.041871842 0.015212744
0.007241074 -0.041377563 0.015311122
0.0083357906 -0.04167895 0.016267866
0.009398561 -0.041771382 0.016525954
0.010326383 -0.041305531 0.01652357
0.011409654 -0.04148965 0.017596602
0.012510053 -0.041700177 0.018413693
0.013430106 -0.041323405 0.018658698
0.01445859 -0.041310258 0.018776387
0.01553452 -0.041425385 0.01946789
0.01639688 -0.0409922 0.019358516
0.017648682 -0.04152631 0.019216657
0.01837497 -0.040833268 0.018585056
0.019717161 -0.041509811 0.018554211
0.020449417 -0.040898833 0.018537968
0.021578599 -0.041102089 0.018867433
0.022259286 -0.040471427 0.018963248
0.023896175 -0.041558564 0.018828362
0.024991121 -0.041651867 0.01935792
0.026095098 -0.041752156 0.019623756
0.026975643 -0.041500986 0.018673271
0.027854953 -0.041266594 0.017328918
-0.038002957 -0.040057167 0.015801787
-0.037874144 -0.041030321 0.019411564
-0.03656137 -0.040739816 0.019102782
-0.035454389 -0.040668268 0.017807811
-0.034480575 -0.04074977 0.01764676
-0.033521764 -0.040854648 0.017132461
-0.032058466 -0.040331613 0.016801715
-0.031465881 -0.040905647 0.016340345
-0.030338289 -0.040799767 0.01622048
-0.029227782 -0.040710125 0.016273588
-0.027726039 -0.040048722 0.016618609
-0.02727351 -0.040910263 0.016309232
-0.026314968 -0.041051347 0.015896171
-0.025199305 -0.040948872 0.015531808
-0.024303338 -0.041210007 0.016213775
-0.023276562 -0.041262995 0.015533209
-0.022122215 -0.041084114 0.015700251
-0.021062957 -0.041072767 0.016280055
-0.019885523 -0.040817652 0.015543371
-0.018806148 -0.040746655 0.015673697
-0.0178241 -0.040890582 0.016364276
-0.016640531 -0.040561292 0.016016066
-0.015702058 -0.040825352 0.014744937
-0.014533446 -0.040486027 0.015407026
-0.013725143 -0.041175429 0.015518844
-0.012609924 -0.040982254 0.015518844
-0.011459823 -0.040630281 0.015182942
-0.010443572 -0.040729932 0.01584971
-0.0094614699 -0.040999707 0.016395032
-0.008422289 -0.041058656 0.0168477
-0.0073604998 -0.041008499 0.016815007
-0.0062630144 -0.040709592 0.017601877
-0.005186284 -0.040453017 0.017427862
-0.004178029 -0.040735781 0.017635375
-0.0031375948 -0.040788732 0.017581016
-0.0020758624 -0.040479314 0.017581016
-0.0010578464 -0.041256007 0.017276675
0 -0.040392242 0.017612845
0.0010514135 -0.041005123 0.017038286
0.0021054777 -0.041056816 0.016487002
0.0031255791 -0.040632527 0.015523493
0.0041843401 -0.040797316 0.015064418
0.0052475738 -0.04093108 0.015979886
0.0062469942 -0.040605463 0.015899688
0.0072640814 -0.040471312 0.015373796
0.0084082112 -0.040990029 0.01652357
0.0092659835 -0.040152594 0.017091781
0.010354388 -0.040382113 0.016525954
0.011428458 -0.040519077 0.017459869
0.012497823 -0.040617924 0.018686593
0.013438119 -0.040314354 0.019059896
0.014502029 -0.040398508 0.019416153
0.015518302 -0.040347584 0.019549698
0.016729793 -0.040778868 0.019387245
0.017483944 -0.040110227 0.01945588
0.018614082 -0.040330511 0.019068718
0.019834844 -0.040713627 0.019132078
0.020506531 -0.039987735 0.019963086
0.021938946 -0.040743753 0.020006001
0.022675317 -0.040197153 0.019992352
0.023655342 -0.040111229 0.019630045
0.024950685 -0.040544864 0.020238429
0.025998484 -0.040557634 0.020650864
0.026892459 -0.040338688 0.019442767
0.027961461 -0.040388778 0.018294781
-0.038479377 -0.039519358 0.018569201
-0.037872218 -0.039976232 0.019134045
-0.036411282 -0.039532248 0.019104928
-0.0353579 -0.039517652 0.018423289
-0.034882043 -0.040167201 0.018239826
-0.033345751 -0.039598081 0.017409027
-0.032400023 -0.039716158 0.016990095
-0.031596832 -0.040022653 0.016734689
-0.030399917 -0.039834373 0.016336292
-0.029539915 -0.040089887 0.017595649
-0.028030239 -0.039449964 0.016496658
-0.02750048 -0.04019301 0.016822308
-0.026101597 -0.039674427 0.016032875
-0.024930436 -0.039473195 0.0168733
-0.024271479 -0.040100705 0.016480595
-0.022896728 -0.039548893 0.016202688
-0.021991264 -0.039793715 0.016409069
-0.021061903 -0.040017616 0.016358793
-0.019936338 -0.039872676 0.016219229
-0.018776786 -0.039639883 0.016219229
-0.017746892 -0.039669525 0.016971737
-0.016869642 -0.040065397 0.016795158
-0.015554753 -0.039405376 0.016441047
-0.014721209 -0.039957568 0.01697439
-0.013541486 -0.039582808 0.016481727
-0.01241707 -0.039320722 0.016823679
-0.011686824 -0.040372666 0.016338736
-0.010329547 -0.039252281 0.016659021
-0.0093883518 -0.039639711 0.016584307
-0.0082980599 -0.039415788 0.0168477
-0.0073588556 -0.039948072 0.01756525
-0.0062310039 -0.039463025 0.01782611
-0.0052749254 -0.040089432 0.017770678
-0.0041680993 -0.039596945 0.01774469
-0.0031146698 -0.039452486 0.017945588
-0.0020989382 -0.039879825 0.017863274
-0.0010429231 -0.039631076 0.017838478
0 -0.039645039 0.017486185
0.0010516641 -0.039963238 0.017449141
0.0020920183 -0.039748348 0.016191512
0.0031297843 -0.039643936 0.016001165
0.0041554738 -0.039477002 0.016058177
0.0051726499 -0.039312139 0.017086148
0.0062736124 -0.039732877 0.016697824
0.0072972518 -0.039613653 0.01669544
0.0083271917 -0.03955416 0.017626524
0.009368143 -0.039554384 0.017538607
0.010293745 -0.03911623 0.017592579
0.011373778 -0.039291237 0.019037038
0.012556137 -0.0397611 0.019609302
0.013420024 -0.039227761 0.019416153
0.014351756 -0.038954768 0.020098656
0.015552932 -0.039400764 0.020096034
0.016431961 -0.039025906 0.020620346
0.017589148 -0.039316919 0.019591272
0.018951433 -0.040008582 0.021231592
0.019208238 -0.038416475 0.019756109
0.020300424 -0.03857081 0.020669788
0.021883057 -0.039597914 0.021464884
0.022396682 -0.03868518 0.020669788
0.023811502 -0.039340742 0.020392597
0.024879538 -0.039392602 0.021408141
0.025633575 -0.038963035 0.021047294
0.026626373 -0.03891547 0.019983113
0.0276901 -0.038971253 0.019110024
-0.038553115 -0.038553115 0.019009829
-0.037539147 -0.038581904 0.019554436
-0.036193155 -0.038261335 0.019148856
-0.035462733 -0.038591798 0.018609941
-0.034600541 -0.038794547 0.018907219
-0.033148155 -0.038327556 0.018178016
-0.032191698 -0.03842235 0.016946256
-0.031338934 -0.038651351 0.016278088
-0.030099604 -0.038402945 0.016278088
-0.029256742 -0.038660698 0.016525328
-0.028216645 -0.038667254 0.016596228
-0.027187053 -0.038689271 0.016805559
-0.026140967 -0.03868863 0.017165631
-0.025195125 -0.038842488 0.017106324
-0.024409549 -0.039267536 0.017106324
-0.023024738 -0.038723424 0.016572624
-0.021885581 -0.038560312 0.016502827
-0.020949142 -0.038755916 0.016633689
-0.019861449 -0.038677558 0.016620308
-0.018841188 -0.038729116 0.016869277
-0.01776029 -0.038654748 0.016865522
-0.016776485 -0.038795624 0.016637057
-0.015619339 -0.038527705 0.01687026
-0.014795985 -0.039103676 0.017097056
-0.013552519 -0.038572554 0.017350346
-0.012571432 -0.038761918 0.017224938
-0.011501266 -0.038686078 0.016992509
-0.01035137 -0.038300071 0.01756084
-0.0094790356 -0.038969371 0.017288566
-0.0083558355 -0.038645741 0.016903847
-0.0073027718 -0.038600367 0.017822713
-0.0062663271 -0.038642354 0.01774469
-0.0052011716 -0.038488675 0.017553896
-0.0041574109 -0.038456053 0.017490268
-0.0031363401 -0.038681529 0.017986804
-0.0020891044 -0.03864843 0.018013805
-0.0010415261 -0.038536467 0.017985374
0 -0.038433243 0.018306434
0.0010389759 -0.038442113 0.018009841
0.0020501248 -0.037927311 0.017500043
0.0031199472 -0.038479351 0.017291546
0.0041146684 -0.038060684 0.017196268
0.0051957075 -0.038448241 0.017366707
0.0062717912 -0.03867605 0.017273873
0.0072420039 -0.038279165 0.017400742
0.0083461236 -0.038600821 0.017967016
0.0092288246 -0.037940726 0.017479479
0.010390216 -0.038443804 0.017857373
0.01157604 -0.038937591 0.019148409
0.012497877 -0.038535122 0.018985063
0.013418405 -0.038190849 0.019609302
0.014598048 -0.038580559 0.02036351
0.015451879 -0.038114637 0.02040264
0.016413447 -0.037956096 0.020709455
0.01761282 -0.038333785 0.02076295
0.018456876 -0.037939139 0.021619856
0.019913303 -0.038778536 0.019851387
0.02069081 -0.038277999 0.019869
0.021492131 -0.037867088 0.021522135
0.022544583 -0.037915893 0.020669788
0.023518659 -0.037834365 0.020912439
0.024802385 -0.038237013 0.021793693
0.025644053 -0.037953198 0.022429377
0.026638838 -0.037909117 0.021388888
0.027488777 -0.037669808 0.019657671
-0.039365098 -0.037293248 0.017672867
-0.038277596 -0.037243064 0.019351244
-0.037390787 -0.037390787 0.019807011
-0.036425736 -0.03746647 0.019554436
-0.035400748 -0.037483145 0.019287676
-0.034620304 -0.0377676 0.019319504
-0.033469439 -0.037653118 0.018626511
-0.03213324 -0.037316017 0.017534167
-0.031344168 -0.037613001 0.017691761
-0.030434866 -0.037781209 0.016854823
-0.0289071 -0.037166271 0.017609149
-0.028429138 -0.037905514 0.01755023
-0.026974158 -0.037348833 0.017736256
-0.026062001 -0.037529279 0.017337441
-0.025081504 -0.037622254 0.017756015
-0.024044115 -0.037634265 0.017469585
-0.022717761 -0.037174515 0.017203271
-0.022040805 -0.037784234 0.016929954
-0.021007245 -0.037813041 0.01707986
-0.019809457 -0.037533704 0.017326444
-0.018898955 -0.037797909 0.017373741
-0.017665278 -0.037408821 0.017842233
-0.016672503 -0.037513129 0.017768294
-0.015647447 -0.037553869 0.017891258
-0.014639583 -0.037644643 0.017881602
-0.013559527 -0.037549458 0.017565995
-0.012443155 -0.037329461 0.017827958
-0.011427071 -0.037397686 0.018288553
-0.010359782 -0.037295215 0.01945886
-0.0094205234 -0.037682094 0.01756084
-0.0082834065 -0.037275326 0.017293096
-0.0073333266 -0.03771425 0.017824829
-0.0062604579 -0.037562747 0.018446326
-0.0051959725 -0.037411001 0.018534869
-0.0041743829 -0.037569445 0.01857397
-0.0031179204 -0.037415043 0.019283801
-0.0020905486 -0.037629873 0.018773466
-0.0010437658 -0.037575569 0.018734366
0 -0.037182152 0.017929971
0.0010464987 -0.03767395 0.0187608
0.0020855688 -0.037540235 0.017757863
0.0030918678 -0.037102412 0.017650694
0.0041389186 -0.037250265 0.018634647
0.0052333185 -0.037679892 0.018617362
0.0061843107 -0.037105862 0.017626524
0.00727042 -0.037390731 0.018400311
0.0082819499 -0.037268773 0.018955916
0.0092402007 -0.036960803 0.018531501
0.010320927 -0.037155334 0.019327849
0.011471145 -0.03754193 0.020295292
0.012364483 -0.037093449 0.020136654
0.013374094 -0.037035953 0.020046264
0.014441602 -0.037135545 0.020620346
0.015465383 -0.037116919 0.020620048
0.016429776 -0.036966994 0.020880818
0.017372334 -0.036788471 0.021051943
0.018556053 -0.037112106 0.021974772
0.01979332 -0.037503131 0.020961463
0.020574169 -0.037033506 0.021286547
0.02169566 -0.037192557 0.021814197
0.022796471 -0.037303314 0.021999598
0.023618789 -0.036968537 0.021999598
0.025005847 -0.037508771 0.023011059
0.025713479 -0.037027407 0.022717744
0.02667005 -0.03692776 0.02327624
0.027522782 -0.036697041 0.021235198
-0.039114017 -0.036026064 0.018032223
-0.038086772 -0.036028024 0.019148856
-0.037547059 -0.036504086 0.020893931
-0.036456995 -0.036456995 0.019554436
-0.035278838 -0.036316451 0.019320846
-0.034296237 -0.0363748 0.019847482
-0.032777272 -0.035850137 0.019180626
-0.031901833 -0.036018196 0.019042343
-0.031778082 -0.037074432 0.019317031
-0.030054994 -0.036273267 0.019004166
-0.029687127 -0.037108909 0.019333005
-0.028068818 -0.036385503 0.019243449
-0.026946973 -0.036274772 0.018400609
-0.026058624 -0.03648207 0.017695546
-0.024832338 -0.036213826 0.018563479
-0.024198636 -0.03682401 0.017869473
-0.022885541 -0.036408812 0.018180609
-0.021937365 -0.036562271 0.017321825
-0.020787388 -0.036377929 0.01826328
-0.019871451 -0.036605302 0.017997622
-0.018905289 -0.036760285 0.018251002
-0.017634083 -0.036305465 0.01817441
-0.016645093 -0.03641114 0.018279523
-0.015517043 -0.036206432 0.018279523
-0.014738842 -0.036847103 0.017797559
-0.01359408 -0.036599446 0.017973334
-0.012329317 -0.035960507 0.019092411
-0.011467657 -0.036488 0.019427657
-0.010323197 -0.036131188 0.019750655
-0.0093296822 -0.0362821 0.018959194
-0.0083532482 -0.036545463 0.017293096
-0.0073281382 -0.036640693 0.018513113
-0.0061940537 -0.036131982 0.018598557
-0.0052174637 -0.036522247 0.018956661
-0.004175059 -0.036531769 0.019732744
-0.0031100421 -0.036283825 0.019667178
-0.0020948963 -0.036660686 0.019234002
-0.0010408978 -0.036431421 0.018950343
0 -0.036029715 0.018899143
0.0010452712 -0.036584493 0.018687606
0.0020789818 -0.036382183 0.019734025
0.003085806 -0.036001071 0.019497424
0.0041580522 -0.036382955 0.019497424
0.0051819314 -0.03627352 0.019250274
0.0062851589 -0.036663428 0.018863082
0.0072992286 -0.036496144 0.019327849
0.0082954327 -0.036292516 0.019566536
0.0092859585 -0.036112063 0.019457757
0.01035113 -0.036228955 0.019569278
0.01137014 -0.036177717 0.020256966
0.012464835 -0.036355767 0.020141572
0.013415708 -0.036119215 0.020455658
0.014500021 -0.036250055 0.021436453
0.015388659 -0.03590687 0.021315813
0.016324621 -0.035710108 0.021848291
0.017467977 -0.035963483 0.021695405
0.018656248 -0.036276039 0.022253454
0.019394176 -0.035726111 0.021907032
0.020556848 -0.035974484 0.021541268
0.021762844 -0.036271404 0.021868557
0.022729419 -0.036160439 0.022201091
0.023643501 -0.035979241 0.022657812
0.024614051 -0.035895493 0.023018986
0.025523597 -0.035733037 0.022907645
0.026863446 -0.036162332 0.023272634
0.027365176 -0.035473373 0.021235198
-0.038137384 -0.035045162 0.018991888
-0.03770753 -0.035612669 0.02142781
-0.036098249 -0.035066873 0.020395368
-0.03516078 -0.03516078 0.019644916
-0.034707174 -0.035758905 0.020234764
-0.033586599 -0.035685763 0.020209074
-0.032147113 -0.035258122 0.019324213
-0.031212294 -0.035373934 0.019973427
-0.029985828 -0.035155799 0.020376951
-0.029238639 -0.035504062 0.019439161
-0.027968414 -0.035219483 0.019363344
-0.027053606 -0.035377793 0.01972115
-0.02626732 -0.035723552 0.019134372
-0.024858013 -0.035215519 0.018946409
-0.024305644 -0.035930082 0.018866777
-0.022791661 -0.035223477 0.018943697
-0.021796795 -0.035290048 0.01826328
-0.020999355 -0.035698906 0.018953472
-0.01970158 -0.035255458 0.018953472
-0.018734526 -0.035387442 0.018623799
-0.017736915 -0.035473831 0.018623799
-0.016649622 -0.035380445 0.018386751
-0.015723446 -0.035639815 0.018582255
-0.014588978 -0.035430375 0.018936604
-0.013491993 -0.035286751 0.019427657
-0.012368391 -0.035043776 0.019560248
-0.011355869 -0.035099961 0.019490242
-0.010358204 -0.035217896 0.019542009
-0.0094120391 -0.035556596 0.019836485
-0.0082311165 -0.034982245 0.019091427
-0.0072242492 -0.03508921 0.019192129
-0.0062540635 -0.035439696 0.019013703
-0.0051945834 -0.035323169 0.019329071
-0.0041616149 -0.035373729 0.019800872
-0.00312055 -0.035366233 0.019857913
-0.0020785762 -0.035335798 0.019461989
-0.0010358955 -0.035220448 0.019449502
0 -0.035526283 0.019247323
0.0010283616 -0.034964297 0.021370679
0.002060228 -0.035023876 0.020469964
0.0031026884 -0.035163801 0.020469964
0.0041346406 -0.035144445 0.020596623
0.0051626889 -0.035106286 0.020005345
0.0062132403 -0.035208363 0.01961112
0.007231053 -0.035122257 0.02040112
0.0083749592 -0.03559358 0.020232022
0.0092972387 -0.035122905 0.020136654
0.010336946 -0.035145618 0.020250201
0.011456081 -0.035409704 0.020499229
0.012378594 -0.035072684 0.02054587
0.013383052 -0.035001829 0.020885408
0.014492069 -0.035195027 0.021793157
0.01551034 -0.035156772 0.02150926
0.016280515 -0.034596093 0.022197396
0.017543944 -0.035087887 0.022483408
0.018500727 -0.03494582 0.023009062
0.019647384 -0.035158474 0.02294901
0.020419242 -0.034712713 0.022939324
0.021395439 -0.034640234 0.023862541
0.022715585 -0.035105906 0.023538768
0.023506247 -0.034748364 0.023538768
0.024440266 -0.034623712 0.023089617
0.025707925 -0.034962777 0.023775518
0.026618531 -0.034808848 0.023272634
0.027678713 -0.034854677 0.02195859
-0.038008671 -0.033899624 0.017511249
-0.037580211 -0.034448527 0.020600259
-0.036131129 -0.034066491 0.019279003
-0.035262741 -0.034225602 0.018740833
-0.034456514 -0.034456514 0.019669294
-0.032938339 -0.033967663 0.019496024
-0.031603429 -0.033642359 0.018926322
-0.031080581 -0.034188639 0.019723624
-0.029944574 -0.034074858 0.019363344
-0.028925577 -0.034090858 0.019090265
-0.028067516 -0.034304742 0.019129246
-0.026909422 -0.034154266 0.019234478
-0.025930079 -0.034227703 0.019133598
-0.02506116 -0.034459095 0.019021809
-0.024038577 -0.034490131 0.018474132
-0.022927208 -0.034390811 0.01847142
-0.021851018 -0.034337312 0.017449915
-0.02077429 -0.034277577 0.017963052
-0.019880973 -0.034530107 0.017198116
-0.018699076 -0.034281638 0.017198116
-0.017726148 -0.034409579 0.017416686
-0.01648403 -0.033998311 0.017674536
-0.015387856 -0.033853285 0.018706053
-0.014540143 -0.034273196 0.018642187
-0.013478214 -0.034213927 0.019709647
-0.012399388 -0.034098316 0.019427657
-0.011366916 -0.034100749 0.019813776
-0.010356103 -0.034175143 0.020088792
-0.0092570689 -0.033942584 0.01785177
-0.0083543416 -0.034461658 0.017919928
-0.0073303794 -0.034557503 0.018648535
-0.0062225526 -0.034224037 0.018758684
-0.0051789531 -0.034181092 0.019163102
-0.004173175 -0.034428693 0.019336671
-0.0031288553 -0.034417406 0.019667178
-0.0020804668 -0.034327701 0.019732744
-0.0010407292 -0.034344066 0.019133747
0 -0.033728518 0.019158065
0.001033437 -0.03410342 0.020397782
0.0021029511 -0.034698691 0.020380706
0.0030832798 -0.033916079 0.019362003
0.00412043 -0.033993546 0.019919962
0.0051336833 -0.033882312 0.019516587
0.0061700535 -0.033935294 0.01865381
0.0072818929 -0.034328923 0.019395739
0.0082206763 -0.033910289 0.019301444
0.00927894 -0.034022782 0.019664645
0.010396807 -0.034309462 0.020027846
0.011368252 -0.034104757 0.020830989
0.012467177 -0.034284737 0.020403057
0.013450579 -0.034143776 0.020323694
0.014331832 -0.033782173 0.021055639
0.015419738 -0.033923425 0.021622628
0.016461685 -0.033952225 0.021513402
0.017380377 -0.033738378 0.021793157
0.01854937 -0.034007177 0.02261138
0.019627241 -0.03408942 0.02261886
0.020134576 -0.033222049 0.02261886
0.021438109 -0.033688456 0.023860127
0.022281108 -0.033421662 0.023217648
0.023435764 -0.033625223 0.023217648
0.02476562 -0.034052726 0.023538768
0.025185579 -0.033244964 0.024194121
0.026392268 -0.033497877 0.023085296
0.02779085 -0.033966593 0.021234274
-0.035115365 -0.033049755 0.0167391
-0.034553379 -0.033506308 0.016454965
-0.031514134 -0.033615075 0.017483532
-0.030143974 -0.033262316 0.01760909
-0.028899129 -0.033027578 0.017816484
-0.028191047 -0.033411611 0.017816484
-0.027100917 -0.033354975 0.01823476
