ply
format ascii 1.0
comment PCL generated
element vertex 767
property float x
property float y
property float z
element camera 1
property float view_px
property float view_py
property float view_pz
property float x_axisx
property float x_axisy
property float x_axisz
property float y_axisx
property float y_axisy
property float y_axisz
property float z_axisx
property float z_axisy
property float z_axisz
property float focal
property float scalex
property float scaley
property float centerx
property float centery
property int viewportx
property int viewporty
property float k1
property float k2
end_header
-0.0061701396 0.070956603 0.019358873
-0.0051743998 0.071406715 0.019477457
-0.0041127149 0.070944332 0.018756837
-0.012157416 0.070918262 0.022363216
-0.011160265 0.071019866 0.023240983
-0.010103108 0.07072176 0.023931235
-0.0090538692 0.070418984 0.02429387
-0.0080420543 0.07036797 0.025857598
-0.0070572947 0.07057295 0.024812132
-0.0060864636 0.071008742 0.024394363
-0.0050484985 0.070678979 0.023279369
-0.004053324 0.070933171 0.022815734
-0.0030611386 0.071426563 0.022815734
-0.015239657 0.072134376 0.023070276
-0.014103125 0.071522988 0.024003893
-0.013071086 0.071388237 0.023835123
-0.012093175 0.071551286 0.024526417
-0.011138996 0.071897157 0.024198592
-0.010009967 0.07107076 0.024581522
-0.0090640485 0.071505271 0.025003403
-0.008100085 0.071888253 0.025139868
-0.0070727696 0.071738087 0.025857598
-0.0060626124 0.07174091 0.025062799
-0.0050877645 0.072246261 0.024843425
-0.0040345425 0.071613126 0.024853081
-0.0030257909 0.071610384 0.024695575
-0.0020238284 0.071845911 0.025022626
-0.0010131842 0.071936071 0.024514645
0 0.071556918 0.02321279
-0.017250611 0.073061407 0.023564398
-0.016188558 0.072848514 0.02488333
-0.014961402 0.071814723 0.025409937
-0.014199465 0.073025815 0.02614525
-0.013047498 0.072263062 0.026249647
-0.012122496 0.072734974 0.025688022
-0.011083366 0.07254567 0.025715292
-0.010061429 0.072442286 0.025829643
-0.0090477075 0.07238166 0.026078403
-0.0080860201 0.072774179 0.026034236
-0.0070978501 0.073006451 0.026028603
-0.0060484679 0.072581612 0.025752664
-0.0050813616 0.073171608 0.025614142
-0.0040498385 0.072897092 0.025614142
-0.0030241206 0.072578892 0.025774151
-0.0020126305 0.072454691 0.026127756
-0.0010059644 0.072429426 0.025934488
0 0.07208398 0.025337577
0.0010171864 0.073237419 0.025337577
-0.01923559 0.073905163 0.02535212
-0.018118434 0.073480323 0.025650054
-0.017058646 0.073251836 0.025837451
-0.016043369 0.073197871 0.026968002
-0.014971933 0.072863407 0.027567953
-0.01402035 0.073106118 0.027999669
-0.01313609 0.073764205 0.027131706
-0.011966807 0.072798081 0.026463866
-0.011212405 0.074409604 0.025822759
-0.01012658 0.073924042 0.02564162
-0.0090696476 0.073564924 0.026068151
-0.0080613643 0.073559947 0.026068151
-0.0070771039 0.073804088 0.025712341
-0.0060357391 0.07343483 0.026036531
-0.005069836 0.074019618 0.025640696
-0.0040447032 0.073815838 0.025614142
-0.0030125373 0.073305078 0.026367456
-0.0020202657 0.0737397 0.026285321
-0.001005643 0.073411949 0.026044458
0 0.073674902 0.02650094
0.0010070227 0.073512658 0.026559263
0.0019846349 0.072439179 0.026247352
-0.021147758 0.07452067 0.025879264
-0.020125242 0.074463405 0.026522964
-0.019186096 0.074724793 0.026593953
-0.018051101 0.074210085 0.027053744
-0.017158013 0.074687824 0.028217405
-0.016036253 0.074167676 0.028513074
-0.014961694 0.073811024 0.028513074
-0.014030906 0.074163362 0.02774629
-0.013159084 0.074905559 0.027078122
-0.011970845 0.073820211 0.026282579
-0.011097984 0.074659169 0.02572152
-0.0099680368 0.073763482 0.025174022
-0.0091168722 0.074960954 0.025490284
-0.0081316382 0.075217657 0.025305927
-0.0071251579 0.075323097 0.025319755
-0.0060873744 0.075077623 0.025449365
-0.0050238185 0.074352518 0.024732262
-0.0040158066 0.074292421 0.025195271
-0.0030259485 0.074640065 0.025761098
-0.0020229653 0.074849717 0.026285321
-0.00099860097 0.073896468 0.02598688
0 0.074282698 0.026489317
0.0010026781 0.074198179 0.026918113
0.001999462 0.073980093 0.02681163
0.0030167752 0.074413791 0.026959598
0.0040496215 0.074918002 0.027231783
-0.022180166 0.075614206 0.027054131
-0.021052802 0.075188577 0.027907938
-0.020088676 0.075332545 0.028030545
-0.019143358 0.075565882 0.028254986
-0.018201418 0.075839251 0.027633935
-0.017167611 0.075739466 0.028461725
-0.015943773 0.074736439 0.027710348
-0.015007078 0.075035393 0.02778405
-0.014097553 0.075522609 0.02774629
-0.012981854 0.074895315 0.027078122
-0.012089827 0.075561419 0.026522934
-0.011075201 0.075512744 0.026170045
-0.0099971071 0.074978307 0.025378793
-0.0091176257 0.075980216 0.025305927
-0.008123667 0.07615938 0.024974972
-0.0071131443 0.076212257 0.025319755
-0.0061187935 0.076484919 0.025319755
-0.0050901743 0.076352619 0.025104046
-0.004092386 0.076732241 0.024406403
-0.0030247669 0.075619176 0.025418371
-0.0020373974 0.076402403 0.02549392
-0.0010024067 0.075180508 0.025699496
0 0.075374015 0.026801229
0.00099935022 0.074951269 0.026863158
0.0019972441 0.074896656 0.027123541
0.0030024732 0.075061828 0.027201235
0.00401376 0.075258009 0.027541399
0.0050416337 0.075624511 0.026552171
0.006054434 0.075680427 0.026257008
-0.023158181 0.076522686 0.026335627
-0.022143772 0.076496668 0.027683616
-0.021045748 0.076165564 0.027689785
-0.020150147 0.076570563 0.027633935
-0.019197188 0.076788753 0.028562695
-0.018002475 0.076010458 0.027633935
-0.016966484 0.075850166 0.027832985
-0.016042829 0.076203436 0.027522862
-0.01496523 0.075823836 0.027309597
-0.01408192 0.076444715 0.026580572
-0.013105153 0.076614745 0.026282579
-0.012128154 0.076811641 0.025444478
-0.011153157 0.077058181 0.025553375
-0.010123705 0.076940164 0.02414754
-0.0089873467 0.075893156 0.024633408
-0.0082196286 0.078086473 0.024021506
-0.0071338033 0.077452727 0.024441302
-0.0060815052 0.077032402 0.024622113
-0.0050926479 0.077408254 0.025014609
-0.0040531438 0.07700973 0.024239928
-0.0030214121 0.076542445 0.02523151
-0.002053482 0.078032315 0.025460005
-0.001010756 0.07681746 0.025420398
0 0.076767601 0.02661863
0.0010009318 0.076070815 0.026632667
0.002006398 0.076243125 0.02681163
0.0030149426 0.076378554 0.027229697
0.0040167239 0.076317757 0.027868479
0.0049452954 0.07516849 0.028210461
0.0059938151 0.075921662 0.028216749
0.0070675593 0.076733507 0.026506782
-0.024232311 0.077745333 0.026164919
-0.023158535 0.077530749 0.027285814
-0.022128329 0.077449158 0.028005421
-0.020963237 0.076865204 0.028273672
-0.020280821 0.078081161 0.028186381
-0.019083805 0.077339634 0.028333724
-0.017989883 0.076956727 0.027632087
-0.017154956 0.077701859 0.027632087
-0.015816225 0.076115586 0.027065396
-0.015085789 0.077440389 0.027021468
-0.014253043 0.078391738 0.025763094
-0.013053992 0.077319801 0.025378793
-0.012142676 0.077915505 0.0249165
-0.011107196 0.07775037 0.024384618
-0.010089709 0.077690765 0.02377975
-0.0092105595 0.078801461 0.023170084
-0.008064501 0.077620827 0.023193508
-0.0071099796 0.07820978 0.022953272
-0.0060822936 0.078056104 0.023481965
-0.0050519817 0.07780052 0.023348838
-0.0040515144 0.07799165 0.023214251
-0.0030563031 0.078445114 0.024506748
-0.002032297 0.078243427 0.025243789
-0.0010104096 0.077801533 0.025054127
0 0.077137865 0.025079042
0.0010123255 0.077949069 0.026801229
0.002009664 0.077372067 0.026417822
0.0030279225 0.077716678 0.026921511
0.0039736787 0.076493315 0.027847171
0.0050205491 0.077316456 0.029182673
0.0060144011 0.077184819 0.029183596
0.00700144 0.07701584 0.029183596
0.0080726435 0.077699192 0.028514445
-0.025328092 0.079023644 0.026164919
-0.024139306 0.078452744 0.027318358
-0.022914125 0.077708773 0.028171629
-0.021841934 0.077439584 0.028186381
-0.02121204 0.078787573 0.028374493
-0.020058574 0.078228444 0.028287202
-0.018922707 0.077682696 0.028374493
-0.018112801 0.078488812 0.027794778
-0.017138831 0.078636989 0.027632087
-0.016224122 0.079092592 0.026733339
-0.015162189 0.078843378 0.026283294
-0.013954988 0.077749215 0.024965078
-0.013132667 0.078795999 0.024548322
-0.012152089 0.078988574 0.02414754
-0.011186251 0.079320692 0.024070859
-0.0101215 0.078947701 0.022304207
-0.0091599515 0.079386249 0.021799058
-0.0081311073 0.07927829 0.02174738
-0.0071514822 0.079687946 0.021907777
-0.0061401352 0.079821758 0.022027701
-0.0050735618 0.07914757 0.022246331
-0.0040376545 0.078734264 0.022972912
-0.0030248933 0.078647226 0.023522645
-0.0020197381 0.078769781 0.024814665
-0.0010113145 0.07888253 0.025176644
0 0.078588665 0.025206715
0.0010095191 0.078742489 0.025385201
0.0020098034 0.078382328 0.025714189
0.0029819834 0.077531569 0.02670607
0.004026643 0.078519538 0.02759403
0.004991875 0.077873252 0.029044509
0.0059728175 0.077646628 0.02978
0.0069784857 0.077760272 0.02992475
0.0079764882 0.077770762 0.029755205
0.009021556 0.078186817 0.028216749
-0.025056446 0.079178363 0.027465492
-0.023882868 0.078614444 0.028823614
-0.02300087 0.079002984 0.029772162
-0.022219317 0.079787545 0.02924186
-0.021097921 0.07936836 0.029241264
-0.020009689 0.07903827 0.028428376
-0.019053439 0.079222187 0.028434545
-0.018130081 0.079570912 0.027692139
-0.017123638 0.079574548 0.02719295
-0.016152391 0.07975243 0.026283294
-0.015164005 0.079863757 0.025814265
-0.014129193 0.079729021 0.024139792
-0.013153676 0.079933874 0.023573816
-0.012239632 0.080577575 0.022314847
-0.011253987 0.080824085 0.021815419
-0.010207023 0.080635488 0.020717621
-0.0091986861 0.080744028 0.020484388
-0.0081889909 0.080866285 0.020788878
-0.0071347081 0.08052028 0.02010265
-0.0061257514 0.080655731 0.020788878
-0.0051285885 0.081031702 0.021564305
-0.0040668524 0.080320336 0.021538079
-0.0030295663 0.079778574 0.022722363
-0.0020367298 0.080450833 0.024066657
-0.0010024022 0.07918977 0.024477392
0 0.080054834 0.025460005
0.0010125118 0.079988427 0.025385201
0.0020157932 0.079623826 0.0255135
0.0030430253 0.080132999 0.026724577
0.0039515248 0.078042611 0.028140396
0.0050029759 0.079047024 0.029203206
0.0059818402 0.078760892 0.030084312
0.0070057549 0.079064943 0.030325234
0.0080014309 0.07901413 0.030767053
0.0089548593 0.078603767 0.02903229
0.010112536 0.079889037 0.025982946
-0.024959471 0.079870306 0.029057503
-0.023935957 0.079786524 0.029977918
-0.022941856 0.079797752 0.03028667
-0.021928953 0.079741649 0.029204458
-0.021016385 0.080062419 0.029075831
-0.020117201 0.080468804 0.028216451
-0.019225921 0.080951244 0.02798748
-0.018028965 0.080128737 0.027039886
-0.017021021 0.08009892 0.026612759
-0.016142773 0.080713861 0.02615428
-0.015198892 0.08106076 0.025091231
-0.014196906 0.081125177 0.023395568
-0.013217318 0.081337333 0.022225797
-0.012240961 0.081606403 0.02038151
-0.011260447 0.081894159 0.019538701
-0.010081406 0.080651246 0.019428074
-0.0092384079 0.082119182 0.019428074
-0.008210904 0.082109034 0.018353701
-0.0071359021 0.081553169 0.018531799
-0.006161924 0.082158983 0.018864304
-0.0051168711 0.081869937 0.019990772
-0.0041206321 0.082412638 0.020069063
-0.0030724227 0.081931271 0.020928144
-0.0020424533 0.081698127 0.02155
-0.0010244646 0.081957161 0.023999512
0 0.080723308 0.024892956
0.0010073642 0.080589138 0.025537789
0.0020190151 0.080760606 0.025232106
0.0030108991 0.080290638 0.02756536
0.0039816834 0.079633668 0.028246701
0.0049524568 0.079239309 0.029182971
0.0060281251 0.080375001 0.029647261
0.0069492608 0.07942012 0.029647261
0.0079531325 0.079531319 0.029703438
0.0087967161 0.078193031 0.029617131
0.009987561 0.079900488 0.027534723
-0.024699902 0.080027677 0.029129267
-0.023831358 0.080430835 0.030201852
-0.023041962 0.081147775 0.030422866
-0.021945952 0.080800995 0.029383153
-0.020939825 0.080767892 0.029086143
-0.020015575 0.081063077 0.028273255
-0.018919472 0.080656685 0.028306037
-0.018166425 0.08174891 0.026943505
-0.017169129 0.081805848 0.026147783
-0.016139759 0.08170753 0.025388122
-0.015112722 0.081608698 0.022840202
-0.01422517 0.082302772 0.020632863
-0.013233452 0.082454585 0.019512415
-0.012306732 0.083070442 0.018453091
-0.011266178 0.082960039 0.017750293
-0.0041463692 0.083963968 0.018416703
-0.003059105 0.082595833 0.019602716
-0.0020510277 0.08306662 0.019753128
-0.0010132121 0.082070179 0.021242857
0 0.082752973 0.021996289
0.0010001241 0.081010051 0.024278194
0.001989234 0.08056397 0.025745571
0.0029716147 0.080233596 0.027169526
0.0039785639 0.080565915 0.026904672
0.0050053396 0.081086501 0.028602183
0.0058904015 0.079520419 0.029333085
0.0069463202 0.080378845 0.029568493
0.0079731895 0.080728538 0.02996099
0.0089645404 0.080680862 0.030425698
0.010026947 0.081218265 0.028990299
0.011086119 0.081634149 0.026086152
-0.025041126 0.082134895 0.030173808
-0.023955701 0.081848651 0.030798495
-0.023032105 0.082114458 0.030798495
-0.021783033 0.081191316 0.030656755
-0.021081196 0.082317054 0.029371738
-0.020071438 0.082292899 0.029616058
-0.019195935 0.082845613 0.028499395
-0.018087739 0.082399704 0.026358843
-0.017180026 0.082868367 0.025721639
-0.016313329 0.083605818 0.023828447
-0.0020568343 0.084330209 0.01869604
-0.0010263956 0.084164441 0.019685894
0 0.083611198 0.020460963
0.0019810933 0.081224829 0.026208639
0.0030146025 0.082399137 0.027901202
0.0040435167 0.082892098 0.027169526
0.0049801958 0.081675217 0.028966159
0.0060197576 0.082270026 0.029973567
0.006989331 0.081875026 0.029722869
0.0078813815 0.080784164 0.030674398
0.0089827338 0.081842691 0.031297803
0.0099521801 0.081607878 0.030971825
0.010942768 0.081573367 0.029271692
-0.026091045 0.083290644 0.029075801
-0.024936423 0.082788922 0.030664355
-0.023823742 0.082390442 0.03114152
-0.023056397 0.083203517 0.030835479
-0.021873286 0.082521945 0.030656755
-0.020954354 0.082819588 0.0291318
-0.020069888 0.08329004 0.029303819
-0.019005161 0.08302255 0.028381586
-0.018213017 0.083982252 0.025436729
-0.017298307 0.084456436 0.02413258
-0.0010267836 0.085223041 0.018602252
0 0.085034989 0.019508541
0.0010223059 0.084851392 0.020609975
0.0020318166 0.084320396 0.023665011
0.0029871413 0.082644247 0.02752468
0.0040018763 0.083038941 0.027924418
0.005011165 0.083185345 0.028820813
0.0060644206 0.083891153 0.029674292
0.006914421 0.08198528 0.029758424
0.0079185544 0.082155004 0.030760229
0.0089229615 0.082289539 0.031660318
0.0099042887 0.082205601 0.031431586
0.011067349 0.083508186 0.029598445
0.012072641 0.083502434 0.027528197
-0.025796246 0.083341718 0.030105442
-0.024852527 0.083504491 0.030831605
-0.0238133 0.083346553 0.03194207
-0.023003796 0.084013864 0.031285495
-0.021942347 0.083779879 0.031139284
-0.021013988 0.084055953 0.0291318
-0.019896565 0.083565578 0.02828902
-0.019029656 0.084131114 0.027307719
-0.018260801 0.085217074 0.024654359
0.001016424 0.085379623 0.019620001
0.0020444065 0.085865073 0.022697031
0.0029956731 0.083878845 0.02508539
0.00397004 0.083370835 0.026780814
0.0050355112 0.084596597 0.028409958
0.0060069724 0.084097616 0.0299128
0.0070178853 0.084214628 0.029934198
0.0079542128 0.083519235 0.031275332
0.0089265574 0.083314538 0.03261739
0.0099023227 0.083179511 0.03218025
0.010935177 0.083504997 0.030717939
-0.025702786 0.084028341 0.031277657
-0.024740295 0.084117003 0.032031208
-0.023838462 0.084427886 0.032050848
-0.022811411 0.084303044 0.031730384
-0.022061007 0.085235715 0.031933069
-0.020864546 0.084451735 0.029464871
-0.020041421 0.085176043 0.028932601
-0.019099301 0.085444242 0.027025163
0.0030723498 0.087049916 0.024529099
0.0040381714 0.085811146 0.025836319
0.0049849572 0.084744275 0.029093266
0.006078722 0.086115234 0.030153483
0.0069513051 0.084408708 0.030812353
0.0079344511 0.08430355 0.03310737
0.0089767873 0.084780775 0.033272862
0.0099181896 0.084304616 0.03310737
0.010860791 0.083924301 0.031701267
-0.025872231 0.085577384 0.031484097
-0.024712827 0.085012123 0.032446653
-0.02367921 0.084850505 0.03272453
-0.023010612 0.086039677 0.031833738
-0.021866424 0.085477844 0.031232715
-0.020912679 0.085642397 0.029548585
-0.020125285 0.086538725 0.028906524
0.0030380536 0.087090872 0.023724943
0.0039581377 0.085099958 0.02524969
0.0050265212 0.086456165 0.028470844
0.0061002942 0.087437555 0.030238986
0.0069823852 0.085783586 0.031112731
0.0079380274 0.085333794 0.03288874
0.0088799447 0.084852807 0.033272862
0.0098511465 0.084719859 0.033542603
0.011025024 0.08619564 0.032706499
-0.025521891 0.085400179 0.031767398
-0.024790807 0.086272009 0.033345401
-0.023855461 0.08647605 0.033762634
-0.022573246 0.085385755 0.032537222
-0.021912761 0.086655006 0.031771123
-0.020910654 0.086629853 0.02979812
-0.019969709 0.086868241 0.02854237
0.0039954172 0.086900316 0.025292575
0.0049893707 0.086815052 0.02929613
0.0059849038 0.086781107 0.030859083
0.0070004654 0.087005787 0.031489611
0.0079210643 0.086141571 0.033377111
0.0089541692 0.086556979 0.034045696
0.0098960968 0.086096041 0.034045696
0.010928266 0.086432643 0.032968134
-0.025636882 0.086770982 0.031945884
-0.024467343 0.086125046 0.033582419
-0.023676123 0.086812451 0.034385562
-0.022631248 0.08658912 0.033167928
-0.02198378 0.08793512 0.031939864
-0.020787369 0.08710897 0.030146152
-0.019995002 0.087978013 0.029656887
0.0040081008 0.08817821 0.025390744
0.0050451243 0.088794187 0.028584331
0.0060532358 0.088780791 0.029930204
0.0069955639 0.087944224 0.031464487
0.0078269076 0.086095981 0.034052968
0.0088610873 0.086641744 0.034869641
0.0099058198 0.087171212 0.034656435
0.010866907 0.086935259 0.033906162
-0.027002441 0.089008041 0.032480836
-0.025600256 0.087631643 0.032808959
-0.024649059 0.087750651 0.035095066
-0.023653703 0.087715812 0.034805179
-0.022896817 0.088600725 0.034871787
-0.021634873 0.087522894 0.03319478
-0.020807646 0.088184781 0.031232715
-0.019978542 0.088904507 0.03000626
0.0039833714 0.088630006 0.025474846
0.0050016963 0.089030199 0.028864443
0.0060443319 0.08965759 0.029421866
0.0069664656 0.088573627 0.032143086
0.0078237355 0.087039053 0.0345999
0.0087632323 0.086658634 0.035813421
0.0098464536 0.087633431 0.034503609
0.010861184 0.087876849 0.034698427
-0.02675573 0.089185767 0.033005983
-0.025409162 0.087954797 0.034774661
-0.024576603 0.088475771 0.034973562
-0.023829285 0.08935982 0.03496173
-0.022771277 0.089104995 0.035322934
-0.021662589 0.088619694 0.03464821
-0.021088535 0.090379439 0.031641454
-0.019960798 0.089823596 0.029839575
0.0049880282 0.089784518 0.029916853
0.005989721 0.089845821 0.029912949
0.0068832319 0.088498704 0.034901172
0.0078814263 0.088666052 0.035749018
0.008781584 0.087815844 0.036279619
0.0098852208 0.088966995 0.035696298
0.010879606 0.089014962 0.034475863
-0.026810279 0.090360574 0.033640593
-0.025656277 0.089796975 0.034958184
-0.024650967 0.089729518 0.035336196
-0.023625625 0.089580499 0.035873115
-0.022688068 0.089765832 0.035505474
-0.021688847 0.08971297 0.035433829
-0.020900154 0.090567335 0.033672601
-0.019679286 0.089540757 0.030294359
0.0039420095 0.089680724 0.027617633
0.0049077608 0.089321256 0.029568672
0.0068674628 0.089277022 0.034700066
0.0078367656 0.089143209 0.036107302
0.0088629946 0.089614727 0.036551863
0.0097978804 0.089160718 0.035428226
0.010707696 0.08858186 0.034389317
-0.027581172 0.090623856 0.032480836
-0.026566835 0.090524033 0.033789635
-0.025411105 0.089916222 0.035322934
-0.024683591 0.090835616 0.035739034
-0.023598596 0.090461284 0.036089242
-0.022626655 0.090506621 0.036087751
-0.021603994 0.090343982 0.036438048
-0.020747999 0.090895995 0.035290122
0.0039935848 0.091852456 0.029131651
0.0050007608 0.092014007 0.030895203
0.0068325396 0.089799091 0.034941554
0.0078049423 0.089756839 0.036546022
0.0088924011 0.090900108 0.037063092
0.0097705806 0.089889348 0.036348969
0.010805779 0.09037561 0.034666866
-0.027722068 0.092076868 0.032834977
-0.026721934 0.092042215 0.034814209
-0.02578249 0.092221983 0.035603553
-0.024424082 0.09085758 0.036314487
-0.023708068 0.091868766 0.036300749
-0.022477893 0.090888873 0.036471426
-0.02157391 0.091198802 0.036471426
-0.020613333 0.09128762 0.03658998
0.0039203656 0.091148503 0.029792666
0.0058492008 0.090662614 0.03544575
0.0067822365 0.09010686 0.036105365
0.0078866435 0.091682233 0.038128912
0.0087106405 0.090009958 0.03838405
0.0098216292 0.091341153 0.037492037
0.010703853 0.09049622 0.03676641
-0.027589049 0.09262038 0.033238977
-0.027014248 0.094049603 0.035218209
-0.025588056 0.09251067 0.036071241
-0.024631303 0.092613697 0.037305892
-0.023444677 0.091824986 0.037960321
-0.022513188 0.092010424 0.038210869
-0.021586768 0.092234373 0.038133621
-0.020542188 0.091950744 0.037230283
-0.019709837 0.092636235 0.035337508
0.0049219467 0.092532605 0.036748022
0.0058413311 0.091514193 0.037990659
0.0068270871 0.091678031 0.03808412
0.0078224558 0.091913849 0.038353741
0.0088425465 0.09235549 0.039013416
0.0098114442 0.092227578 0.037310719
0.010694665 0.091390774 0.03676641
-0.026621995 0.093669981 0.033679456
-0.025621526 0.093617111 0.035994768
-0.0246161 0.093541175 0.037141114
-0.02342166 0.092710733 0.037599951
-0.022619164 0.093426973 0.038775057
-0.021645108 0.093467511 0.038247138
-0.020492159 0.092702627 0.038507611
-0.019534109 0.092787027 0.037047565
0.0048044086 0.091283768 0.038665295
0.0058782832 0.093072817 0.038665295
0.0068108146 0.092432484 0.038967699
0.0078327917 0.093014397 0.039447099
0.0087708784 0.092581503 0.039033651
0.0097846109 0.092953801 0.038042754
0.010767621 0.092993096 0.03676641
-0.025534809 0.094282366 0.035603553
-0.024454297 0.093904495 0.0372262
-0.0236443 0.094577201 0.037718177
-0.022483893 0.093845807 0.038306147
-0.021541744 0.09400034 0.038750052
-0.020529119 0.093847394 0.039163381
-0.019491129 0.093557417 0.038152575
-0.018511951 0.09353406 0.03781423
0.0038853337 0.093248002 0.038678318
0.0048692846 0.093490265 0.039456904
0.005831569 0.093305103 0.03994897
0.0068306243 0.093677133 0.040213287
0.0077605546 0.093126647 0.040162921
0.0086859055 0.092649654 0.039975166
0.0098158391 0.09423206 0.038692981
-0.024483297 0.094995186 0.036371469
-0.02359822 0.095376141 0.037303239
-0.022596315 0.0952975 0.03811276
-0.021486545 0.094736129 0.038756669
-0.020408085 0.094265915 0.039185554
-0.019548709 0.094811231 0.038680077
-0.018719617 0.095568575 0.038907707
-0.017430471 0.09393087 0.038149744
0.0029058226 0.093954928 0.038399011
0.0039165402 0.09497609 0.039585859
0.004855549 0.094197646 0.040357411
0.0058453111 0.094499193 0.041335642
0.0067761345 0.093897864 0.041104823
0.0078082718 0.094675295 0.040339559
0.0088062584 0.094911903 0.039921999
0.0097948471 0.095010012 0.03819707
-0.023689698 0.096732929 0.036242038
-0.022466397 0.095726378 0.037728071
-0.021246538 0.094643667 0.038430005
-0.020511895 0.095722176 0.038571537
-0.019585999 0.095971398 0.038510203
-0.018618951 0.096034579 0.038891405
-0.017475847 0.095146284 0.038841903
-0.016594186 0.095660605 0.039137214
-0.015641352 0.095803283 0.038411826
0.0019302075 0.094580159 0.039448053
0.0029057509 0.094921194 0.040343016
0.0038429855 0.094153143 0.040641576
0.0048838472 0.095723405 0.040899038
0.005852255 0.095586829 0.041018844
0.0068315137 0.095641196 0.04152298
0.0077616237 0.095079891 0.040785879
0.008778817 0.09559156 0.039960325
0.0097377086 0.09542954 0.037698984
-0.022363693 0.096261114 0.036157131
-0.02129796 0.095840819 0.037825704
-0.020567058 0.096958987 0.038926631
-0.019561656 0.096830197 0.038767874
-0.018427301 0.096015945 0.03974694
-0.017444439 0.09594442 0.04068464
-0.016436785 0.095720105 0.041468889
-0.015535766 0.096127555 0.040852964
0 0.096053496 0.039856464
0.00096526247 0.09556099 0.040557206
0.0019524078 0.096644193 0.040800303
0.0029136532 0.096150562 0.041026682
0.0038819499 0.096078262 0.04074347
0.0048307059 0.095647991 0.041086286
0.005825778 0.096125342 0.041171789
0.0067861238 0.095975183 0.041077584
0.0077722715 0.096181862 0.040243238
0.0087034237 0.095737666 0.0396415
-0.020468203 0.097467631 0.038406253
-0.019472236 0.097361185 0.038372815
-0.01861863 0.097992793 0.039708287
-0.017398076 0.096655987 0.040677458
-0.01659799 0.097635239 0.041163206
-0.015543708 0.097148173 0.041051507
-0.0145771 0.097180672 0.040930688
-0.013566722 0.096905157 0.040384024
-0.012578686 0.096759126 0.039918542
-0.0019306792 0.096533962 0.040391028
-0.00096493401 0.096493401 0.041572243
0 0.097345516 0.041424245
0.00096907484 0.096907489 0.041026682
0.0019207413 0.096037067 0.041607857
0.0029367921 0.097893074 0.042150795
0.003873999 0.096849978 0.041695207
0.0048119072 0.096238151 0.040933669
0.0058244974 0.097074963 0.041251332
0.00680451 0.097207285 0.040723085
0.0077885413 0.097356766 0.039606243
-0.019473754 0.098342463 0.038444906
-0.018604292 0.098896496 0.040087074
-0.017371872 0.097475514 0.040829539
-0.016511885 0.098100029 0.042017579
-0.015394649 0.09717872 0.04193753
-0.014495832 0.097605273 0.042061657
-0.013621585 0.098270014 0.041726351
-0.012531319 0.097358711 0.041833013
-0.011675299 0.098267108 0.041833013
-0.010602317 0.097348548 0.041149378
-0.0095781879 0.096739702 0.040757716
-0.0086240415 0.096780919 0.041340023
-0.0077111209 0.0973529 0.041592985
-0.0067562172 0.097482562 0.041370481
-0.0057788505 0.097277321 0.041541666
-0.0048096571 0.097155079 0.041780174
-0.0038440439 0.097062111 0.041732341
-0.0029091637 0.097941846 0.041659623
-0.0019342684 0.097680561 0.041743755
-0.00096377282 0.097341061 0.041899204
0 0.097950406 0.041948974
0.0009561464 0.09657079 0.041026682
0.0019421905 0.09808062 0.041424245
0.0029004731 0.097649269 0.04148066
0.0038953579 0.098357789 0.040741473
0.0048250272 0.097465552 0.040579677
0.0058501419 0.098477386 0.040781856
0.0067764926 0.097775109 0.039453506
-0.017519858 0.099279203 0.040459692
-0.016496042 0.098976254 0.040955484
-0.015575364 0.099292949 0.041245908
-0.014549203 0.098934583 0.041980326
-0.013519235 0.098497279 0.041867554
-0.012502363 0.098095469 0.041696548
-0.011591098 0.098524339 0.042164654
-0.010753232 0.099711791 0.04203102
-0.0096215103 0.098139413 0.042125076
-0.0087411823 0.099066742 0.043185174
-0.0076791174 0.09790875 0.04351306
-0.0067352378 0.098142043 0.043493748
-0.0058211349 0.098959297 0.043547779
-0.0048221527 0.098371916 0.042799145
-0.0038686951 0.09865173 0.042725086
-0.0029088482 0.09890084 0.042719781
-0.0019299253 0.098426193 0.041921794
-0.00097306579 0.099252708 0.041948974
0 0.098716632 0.041770309
0.00095859001 0.097776182 0.041258961
0.0019308707 0.098474406 0.041200161
0.0028742847 0.097725682 0.040990323
0.0038649139 0.098555312 0.040392011
0.0048537608 0.099016726 0.0387218
0.0057846243 0.098338611 0.0387218
-0.016426969 0.099528104 0.040604591
-0.015499933 0.099780813 0.04112795
-0.014353704 0.098562099 0.04126063
-0.013407016 0.098637328 0.041452944
-0.012467235 0.098778866 0.041674882
-0.011577056 0.099369735 0.042144388
-0.010650026 0.099722974 0.042353839
-0.0096192742 0.099078521 0.042521209
-0.0086440137 0.098925933 0.043794125
-0.0077642431 0.099964626 0.044520289
-0.0067774798 0.099725775 0.044021785
-0.0057730004 0.099103175 0.044231057
-0.0048629483 0.10017674 0.044231057
-0.003854325 0.099248871 0.043896437
-0.0028833628 0.098995462 0.043509573
-0.0019379772 0.099805824 0.042625129
-0.00096958753 0.099867515 0.042110831
0 0.098864265 0.041445881
0.00096480461 0.099374875 0.040956289
0.0019383315 0.099824071 0.04063493
-0.015557542 0.10112402 0.040144622
-0.014419323 0.099973969 0.041547924
-0.013436056 0.099810705 0.042053103
-0.012581607 0.10065286 0.042594999
-0.011500673 0.099672504 0.042165071
-0.010609183 0.10030501 0.041674882
-0.0095379315 0.099194489 0.042165071
-0.0087067448 0.10061127 0.043301851
-0.0077217771 0.1003831 0.04374525
-0.0067374385 0.10009909 0.043591619
-0.0058314605 0.10107864 0.043896437
-0.0048095486 0.10003861 0.0436185
-0.0038562377 0.10026218 0.043199539
-0.0029065777 0.10076136 0.042055786
-0.0019280687 0.10025957 0.041247606
-0.00095949875 0.099787869 0.04109028
0 0.10071491 0.039564997
-0.014524568 0.10167197 0.039845526
-0.013533481 0.10150111 0.040609688
-0.012503423 0.10098919 0.041882366
-0.011587739 0.10139272 0.042146802
-0.010637075 0.10153572 0.041766256
-0.0096795056 0.10163482 0.04255265
-0.0086515425 0.10093467 0.042991281
-0.0077340417 0.1015093 0.043120176
-0.0067514842 0.10127226 0.043091923
-0.0057659768 0.10090459 0.043091923
-0.0048358012 0.10155182 0.042070895
-0.0038562401 0.1012263 0.04131192
-0.0028688847 0.10041096 0.041020602
-0.012553929 0.1023628 0.041555792
-0.011670392 0.10308846 0.041691303
-0.010729039 0.10338893 0.041692227
-0.009641136 0.10219605 0.041851252
-0.0086997775 0.10246405 0.041928977
-0.007697219 0.10198814 0.041692227
-0.0067976532 0.10293589 0.041968584
-0.0057790433 0.10209643 0.04049769
-0.0047959858 0.1016749 0.040170997
-0.011643363 0.10381999 0.03945592
-0.010664082 0.10373244 0.041126966
-0.0096781356 0.10355606 0.041126966
-0.0087956078 0.10457001 0.04110083
0 0 0 1 0 0 0 1 0 0 0 1 0 0 0 0 0 767 1 0 0
