ply
format ascii 1.0
comment PCL generated
element vertex 796
property float x
property float y
property float z
element camera 1
property float view_px
property float view_py
property float view_pz
property float x_axisx
property float x_axisy
property float x_axisz
property float y_axisx
property float y_axisy
property float y_axisz
property float z_axisx
property float z_axisy
property float z_axisz
property float focal
property float scalex
property float scaley
property float centerx
property float centery
property int viewportx
property int viewporty
property float k1
property float k2
end_header
-0.0092096552 0.069584064 0.01902777
-0.0082300566 0.069955476 0.019120306
-0.0071688094 0.069639869 0.019257247
-0.0062109334 0.070390582 0.019143075
-0.0051681371 0.070286669 0.019275039
-0.010171642 0.070184335 0.021093041
-0.009228535 0.070752107 0.021337181
-0.0081555052 0.070341229 0.020840585
-0.0071961102 0.070933081 0.020587802
-0.0061805942 0.071076833 0.020587802
-0.0051215258 0.070677057 0.021424145
-0.0041095903 0.070890434 0.021590352
-0.0030546784 0.070257604 0.021531284
-0.0020341999 0.070179902 0.021829247
-0.013225727 0.071215451 0.020333678
-0.012153094 0.070893049 0.021116734
-0.011219705 0.071398124 0.021429688
-0.01014514 0.071015976 0.022298515
-0.0091262879 0.07098224 0.02266115
-0.0081318906 0.071154043 0.023292899
-0.0071035363 0.071035363 0.022372246
-0.0060889856 0.071038164 0.021954477
-0.0051025511 0.07143572 0.021700144
-0.0040708617 0.071240075 0.021829247
-0.0030411382 0.070959896 0.02207309
-0.002049559 0.07173457 0.022131234
-0.0010246688 0.071726814 0.022857606
0 0.071302392 0.022678405
0.0010171609 0.071201265 0.022678405
-0.015309853 0.072466634 0.021198422
-0.014158566 0.071804158 0.021896452
-0.013133493 0.071729079 0.022136867
-0.012220639 0.072305441 0.022566438
-0.011172004 0.072110206 0.022196025
-0.010060382 0.071428716 0.022451192
-0.0091591245 0.072255313 0.022703588
-0.008132739 0.072178058 0.022703588
-0.0071084863 0.072100356 0.023329645
-0.0061213225 0.072435647 0.022721171
-0.0051054745 0.072497733 0.022536784
-0.0040489505 0.071868874 0.022511452
-0.0030470435 0.072113365 0.022678763
-0.0020400384 0.072421357 0.022948325
-0.0010148652 0.072055429 0.023067653
0 0.071757264 0.022996932
0.0010173267 0.072230197 0.022890925
0.002031513 0.072118714 0.022562027
0.0030502854 0.072190091 0.022032708
-0.016308488 0.073388189 0.02219528
-0.015057654 0.072276734 0.022688866
-0.014246485 0.073267631 0.024293303
-0.01313327 0.072738111 0.023685783
-0.012146249 0.072877496 0.023445487
-0.01116849 0.073102847 0.022909015
-0.010062628 0.072450928 0.022808552
-0.0091330223 0.073064178 0.023608238
-0.0081119398 0.073007457 0.023841441
-0.0071684122 0.073732235 0.023373812
-0.00608159 0.072979078 0.022833139
-0.0051053641 0.073517241 0.022462845
-0.0040880037 0.073584065 0.021896213
-0.0030504048 0.07320971 0.022190213
-0.0020307535 0.073107123 0.022866905
-0.0010178465 0.073284946 0.023202091
0 0.072727785 0.022884935
0.0010125656 0.072904713 0.023089558
0.0020025489 0.072091751 0.023457825
0.0030502249 0.073205397 0.022284985
0.0040217545 0.072391577 0.021890968
-0.01833309 0.074350871 0.021770298
-0.017095326 0.073409341 0.022353202
-0.016179549 0.073819198 0.02479744
-0.015148168 0.073721088 0.025224745
-0.014126101 0.073657528 0.024972409
-0.013239751 0.074346296 0.025043935
-0.012041635 0.073253281 0.024293303
-0.011290237 0.074926123 0.022562295
-0.010211133 0.074541278 0.022070497
-0.0091214618 0.073985197 0.023540199
-0.0081333322 0.074216656 0.023540199
-0.0071195066 0.074246287 0.022818506
-0.0060947575 0.074152887 0.022611618
-0.0051007257 0.074470602 0.021617472
-0.0040732548 0.074336901 0.021700144
-0.0029911234 0.072784007 0.021819592
-0.0020394605 0.074440308 0.022448987
-0.0010144009 0.074051261 0.022989839
0 0.073889472 0.023126334
0.0010154805 0.074130081 0.023769736
0.0020022704 0.073082872 0.024213165
0.0030467277 0.074137047 0.02427572
0.0040315068 0.073575005 0.024286121
0.005049143 0.073717497 0.022815496
0.0060213441 0.073259689 0.022071242
-0.019306719 0.07519459 0.022775352
-0.018208517 0.074857242 0.023030758
-0.017230319 0.075002573 0.024963588
-0.016103355 0.074478023 0.025108576
-0.015101901 0.074502714 0.025496691
-0.014173523 0.074917197 0.024716377
-0.013224524 0.075278066 0.024854928
-0.012083757 0.074516505 0.022368371
-0.011221273 0.075488567 0.021881193
-0.010088517 0.074655034 0.021214038
-0.0092026507 0.075666249 0.022392213
-0.008262082 0.076424263 0.02192381
-0.0071960776 0.076072827 0.02128312
-0.0061909705 0.076355308 0.02062282
-0.0050954628 0.075412855 0.020423084
-0.0041040611 0.075925127 0.020476758
-0.0030698366 0.075722642 0.021385044
-0.0020517448 0.075914562 0.021695465
-0.0010131107 0.074970201 0.022075295
0 0.074903868 0.022333324
0.0010087338 0.074646302 0.023239732
0.0020156505 0.074579075 0.023873091
0.0030345821 0.074853033 0.024615794
0.0040359516 0.074665107 0.025537014
0.0050924653 0.075368486 0.025215864
0.0061262231 0.075556755 0.025215864
0.0070810951 0.074857295 0.023774117
-0.021353196 0.076261416 0.022083312
-0.020276634 0.076037385 0.023803949
-0.01933445 0.076320201 0.024432212
-0.018376008 0.076566704 0.024606109
-0.017320303 0.076413102 0.025108576
-0.016105702 0.075495481 0.024483651
-0.015075354 0.075376771 0.024379551
-0.014160444 0.075859524 0.024328262
-0.013119685 0.075690493 0.022904277
-0.012225691 0.076410577 0.022235364
-0.011216887 0.076478779 0.021871626
-0.010170256 0.076276921 0.021230519
-0.009258369 0.077153079 0.021254808
-0.0082257697 0.077116594 0.019000411
-0.0072381427 0.077551529 0.019618183
-0.006157265 0.076965816 0.019618183
-0.0051656817 0.077485226 0.019865125
-0.004137692 0.077581726 0.019236445
-0.0030734898 0.076837249 0.019314677
-0.0020702393 0.077633977 0.019735277
-0.001026499 0.07698743 0.019815266
0 0.076722465 0.021522343
0.0010106772 0.075800791 0.022619039
0.0020100691 0.075377591 0.023910195
0.0030190137 0.075475343 0.024262697
0.0040350948 0.075658023 0.025424421
0.0050757919 0.07613688 0.025271922
0.0059997826 0.074997291 0.02535215
0.0071324394 0.076418996 0.025112987
0.0081112031 0.076042533 0.024797618
0.0091063008 0.075885847 0.024448454
-0.022575408 0.077987783 0.02209723
-0.021289473 0.077047616 0.023983508
-0.020298531 0.077134423 0.024168164
-0.019420028 0.077680111 0.025536716
-0.018148977 0.07662902 0.024833649
-0.01713335 0.076596156 0.024963588
-0.0161137 0.076540075 0.024024725
-0.014994863 0.075973973 0.024178028
-0.014242847 0.077318318 0.022556275
-0.013304411 0.077779643 0.022338331
-0.012312817 0.077981181 0.021218032
-0.011250645 0.077731729 0.021595478
-0.010200359 0.077522732 0.019893199
-0.0091560548 0.077317804 0.019000411
-0.0082627507 0.078496136 0.018843502
-0.0072549712 0.078768261 0.019423574
-0.0061706323 0.078161344 0.018378824
-0.0051624305 0.078468949 0.018399805
-0.0041041793 0.077979408 0.017233878
-0.0030370466 0.076938517 0.018861294
-0.0020657023 0.078496687 0.019058645
-0.001018184 0.077381991 0.018921673
0 0.077892125 0.019426882
0.0010236952 0.077800833 0.021344334
0.0020316772 0.077203736 0.022307128
0.0030433363 0.077097856 0.023992419
0.0040730308 0.077387586 0.024874896
0.0050021997 0.076033436 0.025271922
0.0060606608 0.076768376 0.02535215
0.007030664 0.076332927 0.025203496
0.008090741 0.076862037 0.025284111
0.0091172466 0.07699009 0.024626493
0.010266832 0.078027926 0.024069786
0.011097826 0.076675892 0.021801949
-0.023627399 0.079100415 0.022374719
-0.02233221 0.078162737 0.024267733
-0.021218151 0.077799886 0.024606109
-0.020417174 0.078606121 0.024917096
-0.019251995 0.078021243 0.024893701
-0.018193383 0.077827252 0.025093794
-0.017282082 0.078277662 0.025288314
-0.015986621 0.076935612 0.023819238
-0.015232986 0.078195989 0.02348879
-0.01433263 0.078829467 0.022523791
-0.013253159 0.078499481 0.021487296
-0.012189359 0.078215063 0.021111786
-0.011221099 0.078547694 0.020044506
-0.010280059 0.079156458 0.018380344
-0.0093360897 0.079875439 0.018197447
-0.0082302075 0.079215743 0.018265754
-0.0071988232 0.079187058 0.017029673
-0.0061663506 0.079134837 0.016912669
-0.0051334077 0.079054475 0.016227305
-0.0041252784 0.079411611 0.016419083
-0.0031136032 0.079915814 0.016517699
-0.002076006 0.07992623 0.016967863
-0.0010327434 0.079521239 0.018825054
0 0.078189053 0.018926859
0.0010248995 0.078917265 0.019317895
0.0020415178 0.078598432 0.021075398
0.0031094719 0.079809777 0.022230029
0.0040366659 0.077705815 0.023401052
0.0050579691 0.077892728 0.024874896
0.0060858857 0.078102201 0.024975419
0.0070722629 0.077794895 0.025100619
0.0080951517 0.07791584 0.02547735
0.0090597076 0.077510841 0.025112987
0.010142384 0.07809636 0.0243527
0.011144066 0.078008465 0.023082048
0.012271953 0.07874503 0.021160215
-0.023419878 0.079423927 0.023601592
-0.022107512 0.078381181 0.024080873
-0.021318726 0.079183832 0.024833649
-0.02025225 0.078983776 0.025201023
-0.019177146 0.07872723 0.025288314
-0.018218271 0.078945845 0.025093794
-0.017153062 0.078702286 0.024833649
-0.016332245 0.079619691 0.023411095
-0.015313801 0.079631768 0.023215413
-0.014225462 0.079256147 0.021447361
-0.013210431 0.079262584 0.020908773
-0.01245144 0.080934361 0.019893199
-0.011268513 0.079904005 0.019376367
-0.0102274 0.079773717 0.017566651
-0.0092391111 0.080072299 0.016307443
-0.0082287602 0.080230407 0.015805751
-0.0072377706 0.080649443 0.015197456
-0.006237797 0.081091367 0.015103847
-0.0051743989 0.080720626 0.014948666
-0.0041523185 0.080970213 0.014511049
-0.0030932983 0.080425754 0.015455693
-0.002038171 0.079488672 0.016200006
-0.001025319 0.079974882 0.016732484
0 0.079984456 0.018822134
0.0010317826 0.080479041 0.018874139
0.0020244063 0.078951843 0.018900424
0.0030541583 0.079408117 0.021075398
0.0040678168 0.07932242 0.022538215
0.005052018 0.078811482 0.023401052
0.0059911287 0.077884674 0.024955869
0.007001943 0.078021646 0.025383115
0.0081186611 0.079156943 0.025793433
0.0089763217 0.07779479 0.026034147
0.010156201 0.079218373 0.024833858
0.011158612 0.079124704 0.02292046
0.012230337 0.079497188 0.022601664
-0.024589436 0.080940224 0.021891326
-0.023168458 0.079578608 0.024579734
-0.022282394 0.08001405 0.024666578
-0.02119703 0.079741202 0.024803042
-0.020150695 0.079595245 0.024946064
-0.019226011 0.07993973 0.025440753
-0.018130081 0.079570912 0.025152266
-0.017279096 0.080296971 0.024654239
-0.016241334 0.08019159 0.023410827
-0.01534693 0.080827169 0.022986829
-0.01421624 0.080220208 0.021078765
-0.01325472 0.080547914 0.020509571
-0.012223129 0.08046893 0.019244581
-0.011354627 0.081546865 0.015866071
-0.0020870978 0.082440361 0.014175773
-0.0010341068 0.081694439 0.015086681
0 0.081113413 0.016694605
0.0010223822 0.080768183 0.018300891
0.0020739376 0.081920527 0.018134147
0.0030753273 0.080983616 0.019224942
0.0040611103 0.080206923 0.021596819
0.0051408508 0.081225447 0.022266805
0.006066177 0.079871327 0.024461836
0.0071024699 0.080156446 0.025310963
0.0080760717 0.079751208 0.026070744
0.0090420563 0.079369165 0.025752485
0.010088017 0.079695337 0.025593847
0.011047443 0.079340726 0.024287879
0.0121851 0.080218576 0.022921473
-0.024286926 0.080956414 0.024285913
-0.023280991 0.080977358 0.02485612
-0.022261269 0.080950066 0.024790943
-0.021133004 0.080506675 0.025635004
-0.020315472 0.081261888 0.024780631
-0.01926337 0.08110892 0.025002122
-0.018163364 0.080726065 0.024883986
-0.017351082 0.08165215 0.024148703
-0.01639705 0.081985243 0.023410827
-0.015248188 0.081323668 0.021578699
-0.014326577 0.081866153 0.020630538
-0.013273253 0.081681557 0.019234449
0 0.083540685 0.015097827
0.00103152 0.082521595 0.016353846
0.002051661 0.082066432 0.017476946
0.0030973554 0.082596138 0.018886596
0.004013252 0.080265038 0.020471066
0.0050890702 0.081425123 0.021733165
0.0061547495 0.082063325 0.022562474
0.0070275161 0.080314465 0.025022775
0.0080549978 0.08054997 0.025130689
0.0089242207 0.079326406 0.02609989
0.010083796 0.080670372 0.025148809
0.011056632 0.080411866 0.02497673
0.012177848 0.081185654 0.023261487
0.013185465 0.081141323 0.022215009
-0.024312451 0.082054526 0.02441895
-0.023157241 0.081553757 0.025401354
-0.02204573 0.081168368 0.025645316
-0.021241885 0.081932977 0.025864035
-0.020155253 0.08162877 0.025711238
-0.019167876 0.081715673 0.025245309
-0.018393181 0.082769319 0.024806023
-0.017369101 0.082758658 0.023924172
-0.016201865 0.082021937 0.023057103
-0.015176327 0.081952162 0.020205349
-0.014180017 0.082041517 0.019135326
0.0020455297 0.082843952 0.016103715
0.0029854195 0.080606326 0.017264515
0.0041155326 0.083339535 0.018262684
0.0050166938 0.081270441 0.021387875
0.00609907 0.082337439 0.021881521
0.0070588365 0.081680819 0.024188936
0.0080668796 0.081677146 0.025022954
0.0090763895 0.081687503 0.02609989
0.010108199 0.081876412 0.025742918
0.011042748 0.08131478 0.026106268
0.012087379 0.081589803 0.025557548
0.013219475 0.082367495 0.023225844
-0.025430158 0.083410919 0.023357302
-0.024246221 0.082841262 0.024900466
-0.023174761 0.082623057 0.025668144
-0.022078285 0.082291797 0.026747972
-0.021123789 0.082483366 0.026533127
-0.020248037 0.083016962 0.026297808
-0.01938073 0.083643153 0.025354147
-0.018288605 0.083314769 0.024881572
-0.017213508 0.083029866 0.023544073
-0.016220694 0.08313106 0.022098929
0.0040623914 0.083279029 0.018716633
0.0050754636 0.083237603 0.020655423
0.0061204573 0.083646253 0.02213648
0.0071607409 0.083882965 0.023697972
0.0080352258 0.082361065 0.025033176
0.0090273432 0.082249135 0.026258588
0.010060862 0.082499072 0.026961386
0.010908613 0.081318758 0.02791509
0.01211515 0.082786858 0.027022511
0.013061671 0.082389005 0.024421304
-0.025553204 0.084836639 0.023831785
-0.024247147 0.08385472 0.025315315
-0.023238743 0.083861545 0.026525438
-0.022153966 0.083580874 0.027052671
-0.021021966 0.083086818 0.026598871
-0.020097317 0.083403878 0.02639395
-0.019175133 0.08376506 0.025354147
-0.01833863 0.084561467 0.024369657
-0.017146194 0.083713777 0.02322638
-0.016187869 0.08397457 0.020581752
0.0040888009 0.084842622 0.019283295
0.0051034004 0.084716454 0.020736367
0.0060937917 0.084297456 0.021866202
0.0071083107 0.084284261 0.022380799
0.0080603836 0.083626479 0.025075763
0.0090357745 0.083329923 0.026283979
0.0099842679 0.082869425 0.027167678
0.011173046 0.084305719 0.027940691
0.012009621 0.083066545 0.027660757
0.013142103 0.083907284 0.025578141
-0.025400503 0.085345693 0.023685277
-0.024137845 0.084482461 0.025519073
-0.023297047 0.085084863 0.026582927
-0.022106215 0.084405549 0.027911901
-0.021027755 0.08411102 0.026598871
-0.020106368 0.084446743 0.025777042
-0.019179158 0.084792063 0.024824232
-0.01830158 0.085407376 0.023820192
-0.017194396 0.08496055 0.021815956
0.0050966726 0.085624106 0.020117968
0.0060975477 0.085365675 0.021272659
0.0071694949 0.08603394 0.022649765
0.0080888113 0.084932521 0.025088608
0.0090516638 0.0844822 0.027084291
0.010079501 0.084667809 0.027578861
0.01100867 0.084066205 0.027920276
0.012067326 0.084471285 0.027388632
0.013080488 0.084520079 0.025984794
-0.025323715 0.08610063 0.024442792
-0.02419571 0.085693143 0.025509387
-0.023100406 0.085371062 0.026571423
-0.022262789 0.086015329 0.028338611
-0.021052178 0.085211195 0.027584493
-0.020087888 0.085373528 0.026757568
-0.019273629 0.086224131 0.025843859
-0.018303072 0.086431175 0.023952812
0.0062075388 0.087940134 0.021031082
0.0070686075 0.085833095 0.02352792
0.0081663029 0.086766966 0.026604593
0.0090631898 0.0855968 0.027712584
0.010020747 0.085176349 0.02797848
0.010980811 0.084851719 0.028702468
0.012070533 0.085499607 0.027940691
0.013085509 0.085559092 0.026112765
-0.025185872 0.086639397 0.024145961
-0.024239091 0.086856745 0.026328027
-0.023236487 0.086884253 0.027507484
-0.022031434 0.086122885 0.027784705
-0.02097269 0.085888155 0.027385235
-0.020278903 0.087199286 0.027599692
-0.019358845 0.087624244 0.025599092
-0.018162955 0.086778566 0.023770273
0.006161809 0.088319264 0.020916998
0.0070595727 0.086731896 0.023602992
0.0081392443 0.087496877 0.026702017
0.008956112 0.085580625 0.02797848
0.010037084 0.086318925 0.028311372
0.011055833 0.08643651 0.02898851
0.012100839 0.086722679 0.027920276
0.012876663 0.085184082 0.027319521
-0.025238333 0.087829396 0.025077283
-0.024062453 0.087226391 0.026216179
-0.022964561 0.086865947 0.027668148
-0.022086848 0.087343439 0.027873099
-0.021098092 0.087406382 0.027540058
-0.020094683 0.087411873 0.027502388
-0.019139662 0.087639503 0.025909662
-0.018225383 0.088089354 0.023770273
0.0070292396 0.087363407 0.024013191
0.0081493407 0.088624083 0.026874334
0.0090394113 0.087380983 0.028526843
0.010049178 0.087427847 0.028795123
0.011001646 0.087013014 0.030101359
0.01195952 0.086706519 0.028123796
0.013124728 0.087834716 0.027032852
-0.025057293 0.088201672 0.025002778
-0.024091318 0.088334829 0.027335376
-0.02298544 0.087944284 0.02770108
-0.022081897 0.088327587 0.028631538
-0.020944735 0.087768406 0.027873099
-0.020044966 0.08819785 0.027734071
-0.019268719 0.089244597 0.025935739
-0.018082028 0.088401034 0.024110794
0.0070580835 0.088730194 0.024528801
0.0081288954 0.089417845 0.026787102
0.008989688 0.087899171 0.028795123
0.010012385 0.088108994 0.029447883
0.010997218 0.087977745 0.031237811
0.012050432 0.088369839 0.028185248
0.012946881 0.087640427 0.026302576
-0.025312962 0.090114139 0.025856823
-0.023985971 0.088947974 0.027611077
-0.023095004 0.089367621 0.02817288
-0.02202714 0.089109793 0.028790325
-0.021037329 0.0891582 0.028229892
-0.020003511 0.089015625 0.027934879
-0.019257454 0.09020596 0.027637184
-0.018119609 0.089591406 0.024415821
0.0070614456 0.089781232 0.024297059
0.0080741486 0.0898249 0.028041631
0.0089651356 0.088655226 0.029157907
0.0099452278 0.088512525 0.029214412
0.011022842 0.089184806 0.030871391
0.012042657 0.089316376 0.028776556
0.012961717 0.088737912 0.026711851
-0.025111007 0.090399623 0.02466917
-0.024122892 0.090460852 0.027668148
-0.022853242 0.089425728 0.028821707
-0.021978851 0.089913487 0.029354721
-0.021094775 0.090406179 0.028983682
-0.019994073 0.08997333 0.028840303
-0.019186251 0.090882242 0.027963191
-0.018189142 0.090945713 0.025503278
0.0070127193 0.090163536 0.025265038
0.0081635853 0.091840342 0.027853429
0.0089319935 0.089319944 0.029708326
0.0099910786 0.089919716 0.029727131
0.010951561 0.089603685 0.030343026
0.012001998 0.090014994 0.029540569
0.013151926 0.091051802 0.027605295
-0.024044432 0.091168478 0.028034568
-0.023202805 0.091802403 0.02910763
-0.022071553 0.091295972 0.030127466
-0.020860253 0.09039443 0.029794961
-0.019983342 0.090924211 0.029154181
-0.019358762 0.092718281 0.02910924
-0.01807994 0.091404147 0.025503278
-0.016912661 0.090532482 0.024347067
0.0070863492 0.092122547 0.025821716
0.0080350749 0.091398977 0.028522998
0.0090101128 0.091102265 0.029629171
0.0099970009 0.090972714 0.030835897
0.010859375 0.08983665 0.031156689
0.012048322 0.091366448 0.029540569
0.013074557 0.091521904 0.027526021
-0.025313804 0.093154803 0.025443465
-0.023978736 0.091918491 0.02804783
-0.023082435 0.092329741 0.029622346
-0.021756731 0.090982698 0.030657709
-0.020922478 0.09166038 0.030430049
-0.020037798 0.092173874 0.029858202
-0.019175706 0.092850789 0.029012173
-0.018032735 0.092167325 0.027545571
-0.017028647 0.092155032 0.025508195
0.0070488118 0.092641525 0.026372939
0.0079869833 0.091850303 0.0293293
0.0089570982 0.091561452 0.030805081
0.0099499887 0.091539904 0.031047791
0.010865894 0.09087839 0.03158778
0.011951972 0.091631785 0.029527217
0.012908403 0.091351777 0.027526021
-0.025274776 0.094022162 0.025454104
-0.02410223 0.093396142 0.028414547
-0.022967523 0.092868678 0.029916704
-0.021932714 0.092715561 0.030413032
-0.02091103 0.092605993 0.03151539
-0.019799037 0.092065528 0.030757636
-0.018860856 0.09231893 0.030288577
-0.018184131 0.093951352 0.028778285
-0.017203929 0.094115615 0.02603209
-0.016181171 0.094053052 0.024158061
0.0070274873 0.093365192 0.028594494
0.0079631256 0.092571341 0.03147155
0.0089404304 0.09238445 0.031768918
0.009944533 0.092484169 0.031250954
0.010859285 0.091810316 0.03167522
0.012043729 0.093338907 0.029962838
0.013057211 0.093409285 0.027675658
-0.025263788 0.09499184 0.02586776
-0.024013549 0.094053067 0.029369891
-0.02284579 0.093369745 0.031246483
-0.02199623 0.093983896 0.031843692
-0.020950517 0.093778506 0.031670988
-0.01986043 0.093344025 0.031340033
-0.018902255 0.093516417 0.031434327
-0.018064134 0.09433493 0.028860211
-0.017084518 0.094467342 0.027299941
-0.016097248 0.094571337 0.024803907
0.0060439599 0.094688706 0.028349251
0.0069155782 0.092866339 0.030174911
0.0079634646 0.093570709 0.030784994
0.0089509692 0.093487903 0.032261878
0.0099574234 0.093599781 0.031947643
0.010893089 0.093086399 0.031947643
0.012027096 0.094212256 0.030841589
0.012993683 0.093954325 0.028614372
-0.025362222 0.096376441 0.026407123
-0.02406697 0.09526509 0.028707236
-0.022922968 0.094681822 0.030992091
-0.02186797 0.094429873 0.031045109
-0.020971183 0.094869629 0.032233506
-0.019793648 0.09401983 0.031676263
-0.018914225 0.094571121 0.032076895
-0.01785882 0.094254889 0.032370418
-0.017179778 0.096004635 0.028750479
-0.015900459 0.094408974 0.025607497
0.0049509313 0.0940677 0.028589547
0.0060530375 0.095839761 0.030611336
0.0069420231 0.094213173 0.032097548
0.0079827383 0.094795011 0.033081472
0.0089454316 0.094424009 0.033612192
0.0098889917 0.093945429 0.032261878
0.010855036 0.09374804 0.031947643
0.011969851 0.094761327 0.029946059
0.013018029 0.095131747 0.028311312
-0.025239948 0.096921399 0.025381178
-0.024330445 0.097321779 0.027631819
-0.022874668 0.095476866 0.029908389
-0.021937724 0.095728248 0.031045109
-0.020884763 0.0954732 0.032622874
-0.019787237 0.094978742 0.031687737
-0.018847303 0.095228478 0.031789631
-0.01784236 0.095159255 0.032512605
-0.016822645 0.094998464 0.031788945
-0.016148392 0.096890345 0.02856496
0.0040169554 0.096406929 0.029313892
0.0050009028 0.096017338 0.030644745
0.0058955969 0.094329551 0.033010393
0.0069310502 0.095054403 0.033788323
0.0079127876 0.094953448 0.03395623
0.0089222454 0.095170617 0.034026772
0.010004925 0.096047275 0.03296122
0.010883467 0.094982989 0.031539708
0.011921139 0.095369115 0.029946059
0.013011456 0.096084602 0.028812081
-0.024116442 0.097470611 0.027092665
-0.023099815 0.097420961 0.028664678
-0.021930467 0.096693419 0.031045109
-0.020881591 0.096453063 0.032339454
-0.019860039 0.096321188 0.032080472
-0.019028911 0.097147599 0.032713115
-0.017903609 0.096480563 0.032520175
-0.016741613 0.095525667 0.032396942
-0.015894772 0.096362054 0.031821698
-0.015174525 0.098128587 0.029818535
0.0030014627 0.097047292 0.028808326
0.0039999713 0.096999303 0.031047225
0.0049465033 0.095962159 0.033054143
0.0059409435 0.096045248 0.034043998
0.0069192224 0.09588065 0.034219712
0.0079272399 0.09611778 0.033964157
0.0089171641 0.096107207 0.03397584
0.009894371 0.095975399 0.0327788
0.010963283 0.096676216 0.030852765
0.011994672 0.096956931 0.029892862
0.013045629 0.097340465 0.028113604
-0.023192655 0.098820873 0.02705276
-0.021785183 0.09704309 0.029908776
-0.020766525 0.096910439 0.030935138
-0.019977601 0.09789025 0.031430066
-0.018871864 0.097339079 0.032263577
-0.017793221 0.096874207 0.032759845
-0.016926151 0.097574279 0.03318128
-0.015694378 0.096128054 0.033578664
-0.014705944 0.096078828 0.033212721
-0.013941342 0.097589388 0.030024886
-0.013022745 0.098171458 0.028606623
0.0019902599 0.097522728 0.028832972
0.0029956505 0.097857915 0.030328989
0.0039107348 0.095812999 0.033065766
0.0049812635 0.097632766 0.033369601
0.0059581362 0.09731622 0.033912838
0.0069222911 0.096912071 0.034277707
0.0079411576 0.097279169 0.034231335
0.0088539543 0.096409723 0.033970565
0.0099094082 0.097112194 0.03296122
0.011053365 0.098475434 0.030413508
0.011997016 0.097975634 0.029165059
-0.022026138 0.099117629 0.027809799
-0.020927057 0.098656125 0.030434936
-0.019858439 0.098299272 0.031242967
-0.018839592 0.098164193 0.032896012
-0.017757371 0.097665548 0.033536732
-0.016767552 0.097646333 0.034194589
-0.015800735 0.097767055 0.033997387
-0.014921898 0.098484531 0.033658445
-0.013810692 0.097661331 0.032369494
-0.012791392 0.097411379 0.031609327
-0.012031949 0.099263586 0.029884547
0 0.10043075 0.030352116
0.001006044 0.099598363 0.03091386
0.0019904072 0.098525159 0.032389075
0.0029404655 0.097035363 0.032722205
0.0039425576 0.097578302 0.033194244
0.0049191886 0.097399935 0.033741295
0.0059173941 0.097637005 0.034056187
0.0069302889 0.098014094 0.033890188
0.0079034111 0.097804718 0.033736706
0.0089143254 0.09805759 0.03330034
0.009952182 0.098526612 0.031072706
0.010975362 0.098778263 0.02918613
-0.020985551 0.099931203 0.028096348
-0.019909468 0.099547349 0.030053884
-0.018984649 0.099919207 0.031897336
-0.017814014 0.098966748 0.033143908
-0.01683512 0.099030115 0.033811182
-0.015784878 0.098655492 0.034040689
-0.014843121 0.098954141 0.034823686
-0.013840689 0.098862067 0.0345155
-0.012802358 0.098479681 0.033658445
-0.011810624 0.098421872 0.032387644
-0.010866816 0.098789237 0.031728864
-0.0099901203 0.099901214 0.031410307
-0.0090757087 0.10084122 0.031560481
-0.00099486636 0.099486642 0.031145632
0 0.098410308 0.031107634
0.0009834494 0.098344944 0.03215459
0.0019484254 0.097421274 0.033810824
0.0029921595 0.099738657 0.034624815
0.0039345706 0.098364271 0.034635723
0.0049100975 0.098201953 0.034635723
0.0059089619 0.098482698 0.034329057
0.0069432082 0.099188693 0.033359945
0.0079044634 0.098805793 0.032557845
-0.019098012 0.10152101 0.030521572
-0.01777268 0.099724494 0.031970352
-0.016834231 0.10001513 0.034039289
-0.015684828 0.099010482 0.034143478
-0.014712068 0.099061258 0.034968764
-0.013858994 0.099982746 0.035213321
-0.012776368 0.099262558 0.035095364
-0.011893716 0.10010544 0.035095364
-0.010884455 0.0999391 0.034504354
-0.0098317387 0.099300571 0.033456326
-0.0087990547 0.098744951 0.033753753
-0.0078596026 0.099227488 0.033634216
-0.0069084889 0.099679627 0.033223212
-0.0059526451 0.10020286 0.033165395
-0.0048968531 0.098916434 0.033216715
-0.003921133 0.099008612 0.033126831
-0.0029708834 0.10001974 0.033042699
-0.0019589805 0.098928511 0.034020126
-0.00097719312 0.0986965 0.034264147
0 0.09978354 0.033890694
0.00097802072 0.098780096 0.033474296
0.0019796721 0.09997344 0.034798443
0.0029673362 0.099900328 0.035345465
0.0039660623 0.10014307 0.034548372
0.0048900549 0.098779112 0.033756346
0.0059944973 0.10090738 0.033378899
0.0068989717 0.099542312 0.032125801
-0.016974756 0.10184854 0.030272156
-0.015876707 0.10121401 0.033253402
-0.014784796 0.10053661 0.0337933
-0.013790396 0.10047289 0.034504354
-0.01279333 0.10037843 0.034379035
-0.011745599 0.099837594 0.034425586
-0.010906562 0.10113358 0.034291953
-0.0098619154 0.10059154 0.034171551
-0.0089107743 0.10098878 0.034778118
-0.0078851674 0.10053588 0.035106003
-0.0068592983 0.099949777 0.034811825
-0.0059083351 0.10044169 0.035358995
-0.0049016159 0.099992968 0.034831077
-0.0039783516 0.10144796 0.035369873
-0.0029650365 0.10081124 0.03401804
-0.0019663211 0.10028238 0.033953726
-0.00099587254 0.101579 0.034988016
0 0.10078377 0.035244226
0.00097944692 0.099903591 0.033499777
0.0019825103 0.10110802 0.035188884
0.0029304728 0.099636078 0.033532411
0.003914543 0.099820845 0.032803267
0.0049804887 0.10160197 0.031976491
-0.014693604 0.10089608 0.03183195
-0.013719326 0.10093504 0.033455551
-0.012738846 0.10093086 0.03392154
-0.011787419 0.10117535 0.034291953
-0.010751319 0.10067145 0.034504563
-0.0097892862 0.10082965 0.034380674
-0.0088087218 0.10081093 0.035324275
-0.0079271877 0.10206255 0.035620064
-0.0068977461 0.10149541 0.035751611
-0.005895928 0.10121343 0.035966069
-0.0049556494 0.10208638 0.035966069
-0.0039313217 0.10123154 0.03640154
-0.0029556374 0.10147689 0.036227524
-0.0019710446 0.10150879 0.035812646
-0.0009888967 0.10185635 0.035793871
0 0.1008896 0.035359323
0.00098057068 0.10099878 0.033560812
0.0019513222 0.10049309 0.033782244
0.0029634316 0.10174449 0.03215459
-0.01373414 0.10202503 0.031505406
-0.012847685 0.10278148 0.034449816
-0.011728606 0.10164792 0.034003139
-0.010755839 0.10169157 0.033512324
-0.0097455988 0.10135423 0.034003139
-0.0089106476 0.10296749 0.034970164
-0.0078808479 0.10245102 0.035132378
-0.0069290875 0.10294644 0.035348326
-0.0059422757 0.10299945 0.035661757
-0.004906029 0.1020454 0.035823077
-0.003923038 0.10199898 0.035833448
-0.0029612819 0.10265777 0.035243303
-0.001966191 0.10224193 0.034582406
-0.00098906446 0.1028627 0.034716398
0 0.1017951 0.033500522
0.00098127476 0.10205257 0.032998204
-0.011894058 0.104073 0.032448053
-0.010846548 0.10353523 0.032597184
-0.0098605137 0.1035354 0.034603983
-0.0088521363 0.10327493 0.034772158
-0.0078930156 0.10359582 0.034755141
-0.0069128824 0.10369323 0.034772158
-0.005880971 0.10291699 0.035143256
-0.0049168891 0.10325468 0.034778088
-0.0039326712 0.10323261 0.035173625
-0.0029283324 0.10249163 0.03464672
-0.0019684099 0.10334152 0.033953726
-0.0009829161 0.10320619 0.034185082
0 0.10376383 0.03225255
-0.0099092405 0.10503794 0.03234908
-0.0089060813 0.10489386 0.032525778
-0.0078801382 0.10441183 0.032665968
-0.0069709155 0.10555957 0.032906234
-0.0059035146 0.10429542 0.032987177
-0.0049067871 0.10402388 0.032987177
-0.0039521731 0.10473258 0.033717722
-0.002944917 0.10405374 0.033309221
-0.0019925411 0.10560468 0.03225255
-0.0079859635 0.10681226 0.030050993
-0.0069797775 0.10669089 0.031147689
-0.0059782988 0.106613 0.031301796
-0.0049655838 0.1062635 0.031093061
-0.0039798752 0.10646167 0.031073451
-0.0029798429 0.10628106 0.031106234
-0.0059816185 0.10766914 0.030363262
-0.0049839588 0.10765351 0.030432463
-0.003991981 0.10778349 0.029954463
0 0 0 1 0 0 0 1 0 0 0 1 0 0 0 0 0 796 1 0 0
