ply
format ascii 1.0
comment PCL generated
element vertex 837
property float x
property float y
property float z
element camera 1
property float view_px
property float view_py
property float view_pz
property float x_axisx
property float x_axisy
property float x_axisz
property float y_axisx
property float y_axisy
property float y_axisz
property float z_axisx
property float z_axisy
property float z_axisz
property float focal
property float scalex
property float scaley
property float centerx
property float centery
property int viewportx
property int viewporty
property float k1
property float k2
end_header
-0.0082841963 -0.089055106 0.019354016
-0.0072327242 -0.088859186 0.021053433
-0.0061686039 -0.088416658 0.021053433
-0.0052387286 -0.090106137 0.021181554
-0.004157952 -0.08939597 0.020601392
-0.0030879485 -0.08852119 0.020601392
-0.0020869195 -0.089737535 0.020133436
-0.0010157489 -0.087354407 0.018544763
-0.011420883 -0.088252284 0.019455254
-0.010173986 -0.086478882 0.020623922
-0.0092977127 -0.087811731 0.021243989
-0.0082426323 -0.087577969 0.021192729
-0.0072243148 -0.087723821 0.021081179
-0.0061903638 -0.08769682 0.021003664
-0.0051859417 -0.088161014 0.020899802
-0.0041252472 -0.087661505 0.020761907
-0.0031088509 -0.088084109 0.021206886
-0.002066276 -0.08781673 0.020719558
-0.0010324316 -0.087756693 0.020202011
0 -0.088314623 0.020163655
0.0010317159 -0.087695852 0.020284355
-0.013188265 -0.085216485 0.018285662
-0.012364374 -0.086550623 0.020267755
-0.011380721 -0.086907327 0.021514595
-0.010398065 -0.087343745 0.02181536
-0.0092820087 -0.086632088 0.021809638
-0.0082305698 -0.086420983 0.0215832
-0.0072538615 -0.08704634 0.021130443
-0.0061304844 -0.085826784 0.020952612
-0.0051822984 -0.08706262 0.020399243
-0.0042163623 -0.088543609 0.020875096
-0.0031088118 -0.087046735 0.021003664
-0.0020627859 -0.086637005 0.020737201
-0.0010328343 -0.086758085 0.02029112
0 -0.087159358 0.020649403
0.0010318198 -0.086672872 0.021212965
0.0020852229 -0.087579362 0.020672709
0.0030712183 -0.085994117 0.021301329
0.0041199336 -0.086518608 0.019226313
-0.015373529 -0.085066862 0.020229518
-0.01456456 -0.086347036 0.020923972
-0.013270103 -0.084724508 0.020921975
-0.012247378 -0.084711038 0.021862179
-0.011398884 -0.086009763 0.0223279
-0.010346562 -0.085876465 0.022268832
-0.0092920214 -0.085693091 0.022268832
-0.0083617112 -0.08675275 0.021968067
-0.0072357599 -0.08579544 0.021437824
-0.0062205885 -0.086051479 0.021003664
-0.0052633951 -0.087372363 0.020628273
-0.0041604419 -0.086329177 0.020506263
-0.0031105457 -0.086058438 0.020737201
-0.002073609 -0.086054772 0.020719558
-0.0010325152 -0.085698761 0.020285934
0 -0.086273842 0.020780236
0.0010318585 -0.085644253 0.021596342
0.0020443543 -0.084840707 0.021301329
0.0031071426 -0.085964285 0.022616506
0.0041496959 -0.086106189 0.021776199
0.0050141499 -0.083234891 0.020105094
0.0061353408 -0.084872216 0.019992709
-0.018592594 -0.084699601 0.021081179
-0.017619343 -0.084987424 0.021579385
-0.016373495 -0.083914168 0.021578819
-0.015522595 -0.08485686 0.021877736
-0.014479822 -0.084810391 0.022544205
-0.013361261 -0.084278725 0.021015435
-0.012514235 -0.085513942 0.021560073
-0.011506326 -0.085774444 0.021514595
-0.010239411 -0.083963178 0.021074742
-0.0093820738 -0.085481122 0.020503432
-0.0083347904 -0.085431598 0.020503432
-0.0072715296 -0.085180782 0.020419449
-0.0062168567 -0.084963709 0.019458681
-0.0052301609 -0.085774645 0.01886332
-0.004125467 -0.084572069 0.01886332
-0.0030918354 -0.084510177 0.01887995
-0.0020864618 -0.085544936 0.01904887
-0.0010380435 -0.085119575 0.019309163
0 -0.08562433 0.019365937
0.0010234686 -0.083924428 0.019609004
0.0020783381 -0.085211866 0.020438939
0.003102408 -0.084799156 0.020867765
0.0040960796 -0.08396963 0.021251887
0.0052247853 -0.08568649 0.021453738
0.0062043136 -0.084792294 0.022227377
0.0071256226 -0.083471581 0.022092402
-0.019562598 -0.083398439 0.022518277
-0.018388882 -0.08274997 0.02319324
-0.017375192 -0.08278767 0.023785233
-0.016472261 -0.083390817 0.023241222
-0.015445077 -0.083403409 0.022295773
-0.014430036 -0.083488062 0.021877736
-0.013524647 -0.08426895 0.020307094
-0.012453685 -0.084062368 0.020355016
-0.01130298 -0.083231024 0.01982826
-0.010417079 -0.084378339 0.019631147
-0.0093398783 -0.084058903 0.019261032
-0.0082810279 -0.083845399 0.019388914
-0.0073185866 -0.084686495 0.018974245
-0.0062564672 -0.084462307 0.018763274
-0.0051777419 -0.083879419 0.018365562
-0.0041980012 -0.085009523 0.018166602
-0.0031379894 -0.084725715 0.018559217
-0.0020750521 -0.084039606 0.018871069
-0.0010398662 -0.084229156 0.01887995
0 -0.083929278 0.018805802
0.0010447069 -0.084621251 0.019081205
0.0020596336 -0.083415158 0.019968539
0.0031180892 -0.084188402 0.019175947
0.0041511497 -0.084060773 0.020297647
0.0051170872 -0.082896814 0.020788968
0.0061718528 -0.083320014 0.022286922
0.0072838697 -0.084284775 0.023578346
0.0082466109 -0.083496928 0.023081422
0.0092447 -0.083202295 0.022314668
0.010454718 -0.084683217 0.022760898
-0.020541212 -0.082164846 0.022518277
-0.019486926 -0.082050212 0.023079842
-0.01852786 -0.082346044 0.023847401
-0.017457718 -0.082153961 0.023297191
-0.016464921 -0.082324602 0.022606581
-0.015376354 -0.082007214 0.022530258
-0.014488876 -0.082793579 0.021744221
-0.013277138 -0.081705458 0.020895064
-0.012443925 -0.082959503 0.020429015
-0.011432046 -0.083142146 0.019708127
-0.010463957 -0.083711654 0.018176705
-0.0093998061 -0.083553828 0.019021511
-0.0084065041 -0.084065042 0.019038379
-0.0073242178 -0.083705343 0.018172771
-0.0062734829 -0.083646439 0.018041283
-0.0052253846 -0.083606154 0.017880142
-0.0041612885 -0.083225772 0.018052101
-0.003140942 -0.083758451 0.016850024
-0.0021023636 -0.084094539 0.017403841
-0.001040668 -0.083253443 0.017377228
0 -0.084066853 0.01826027
0.0010496367 -0.083970934 0.018973976
0.0020849046 -0.083396181 0.019495964
0.0031249779 -0.083332747 0.019468397
0.0041342643 -0.082685277 0.019732684
0.0051276325 -0.08204212 0.020846397
0.0061608478 -0.082144633 0.022286922
0.0072652125 -0.083030999 0.023578346
0.0082601625 -0.082601622 0.023582041
0.009236794 -0.082104839 0.022827029
0.010306752 -0.082454018 0.023050278
0.011257817 -0.081875034 0.022596389
0.012394439 -0.082629591 0.022069246
-0.021846892 -0.082185924 0.021522999
-0.020637045 -0.081516333 0.022948295
-0.019597271 -0.081483386 0.023520261
-0.018598016 -0.081624627 0.022745192
-0.01753311 -0.081477389 0.022454649
-0.016523469 -0.081584625 0.022150457
-0.015277885 -0.080463529 0.021991581
-0.014366061 -0.081065632 0.020737737
-0.013437378 -0.081657909 0.019751072
-0.012510858 -0.082363151 0.019140065
-0.011482894 -0.082468063 0.018911362
-0.010375068 -0.081963032 0.018728524
-0.0093041835 -0.081670053 0.017317474
-0.0083569335 -0.082524717 0.017495245
-0.0073536774 -0.082991503 0.017880142
-0.0062470534 -0.082252868 0.017711997
-0.0052553979 -0.083035283 0.017867118
-0.0041730879 -0.082418486 0.017842621
-0.0031361626 -0.082585618 0.016619563
-0.0021020528 -0.083031081 0.016601324
-0.0010397898 -0.082143389 0.01668489
0 -0.082332663 0.017200738
0.0010361407 -0.081855111 0.017900884
0.0020734589 -0.081901625 0.018102586
0.0031286255 -0.082387142 0.019136578
0.004179548 -0.08254607 0.019392639
0.0051800301 -0.081844479 0.020093828
0.0062438236 -0.08221034 0.022482455
0.0071652718 -0.080865204 0.023636371
0.0082454504 -0.081423819 0.02418679
0.009271889 -0.081386581 0.023164868
0.010205828 -0.080626041 0.023238838
0.01117308 -0.080243029 0.023892224
0.012364483 -0.081399515 0.022947133
0.013208861 -0.080269232 0.022832066
-0.022772776 -0.080739841 0.020479202
-0.021876013 -0.08125376 0.023910463
-0.020494942 -0.079930276 0.023792177
-0.019590609 -0.080424599 0.02386573
-0.018477641 -0.08006978 0.022818416
-0.017497668 -0.080283418 0.02278915
-0.016383912 -0.079871573 0.022720456
-0.01560716 -0.08115723 0.021876633
-0.014300828 -0.07967604 0.019824088
-0.013511375 -0.081068248 0.019218802
-0.012432058 -0.080808379 0.019013613
-0.011378414 -0.080683298 0.018323421
-0.010288427 -0.080249734 0.016986519
-0.0094227418 -0.081663765 0.016946822
-0.0083991764 -0.081891961 0.016421258
-0.0072959941 -0.081298217 0.017410606
-0.0062708296 -0.081520788 0.017408729
-0.0052297544 -0.08158417 0.017460525
-0.0042054611 -0.082006492 0.017301947
-0.0031327968 -0.08145272 0.016725689
-0.0021114247 -0.08234556 0.016110569
-0.0010472235 -0.081683427 0.015948921
0 -0.081814378 0.016170204
0.0010472833 -0.081688091 0.017206103
0.0020871265 -0.081397936 0.017206103
0.0031160999 -0.081018597 0.018218756
0.0041295774 -0.080526754 0.018535912
0.0051875645 -0.080926009 0.019406855
0.0062930905 -0.081810176 0.021584004
0.0071912752 -0.080131352 0.022978306
0.0082775876 -0.080706477 0.023582041
0.0091987243 -0.079722278 0.023718417
0.010308171 -0.08040373 0.024817526
0.011268513 -0.079904005 0.024154782
0.012317198 -0.080061793 0.024345309
0.013341073 -0.080046438 0.023662716
0.014455743 -0.080539137 0.022015899
-0.022874139 -0.080059491 0.021907747
-0.021289729 -0.078062333 0.023757845
-0.020591803 -0.079278447 0.02407074
-0.019403137 -0.07863377 0.023885787
-0.018515324 -0.07920444 0.023462594
-0.017549556 -0.079489164 0.023424
-0.016356133 -0.078713886 0.023188591
-0.015603667 -0.080098823 0.022227019
-0.01443819 -0.079410046 0.01980406
-0.01345855 -0.079716027 0.019574225
-0.012460841 -0.079957061 0.019891262
-0.011506843 -0.080547906 0.018526077
-0.01044826 -0.080451608 0.016699642
-0.0093220817 -0.079755589 0.01646325
-0.0083724465 -0.080584794 0.016254961
-0.0072817993 -0.080099791 0.017151028
-0.0062838155 -0.080642298 0.016584277
-0.0052833864 -0.081364155 0.016225576
-0.0041880258 -0.080619499 0.015992612
-0.0031198901 -0.080077179 0.015852809
-0.0020994772 -0.080829874 0.015345722
-0.0010423834 -0.080263518 0.015680283
0 -0.080973782 0.016012549
0.0010480717 -0.080701515 0.016896129
0.0020902567 -0.080474876 0.01718986
0.0031340804 -0.0804414 0.017793417
0.0041681477 -0.080236845 0.018836349
0.0051310128 -0.079017594 0.0187594
0.0062902812 -0.080725282 0.020508707
0.0072989813 -0.080288798 0.021506459
0.0082651684 -0.079552241 0.022660822
0.0091583002 -0.078354351 0.023641855
0.010360269 -0.079774067 0.025224537
0.011223732 -0.078566127 0.02390939
0.012329409 -0.079113707 0.025036842
0.013352742 -0.079089321 0.024606019
0.014433163 -0.079382397 0.023049474
-0.022580674 -0.078005962 0.024528176
-0.021516865 -0.077870563 0.02444759
-0.020529483 -0.078012034 0.024489462
-0.019516667 -0.078066669 0.024023205
-0.01852385 -0.078211814 0.023081899
-0.017494556 -0.078210957 0.023393899
-0.016481467 -0.078286968 0.0222615
-0.015635999 -0.079222396 0.021097541
-0.014562187 -0.079051867 0.018831521
-0.013374464 -0.078189172 0.019294232
-0.012478081 -0.079027846 0.019294232
-0.011452867 -0.079128906 0.018467695
-0.010486015 -0.07969372 0.017841488
-0.0094751455 -0.080012344 0.016419023
-0.0083691198 -0.079506643 0.015625268
-0.0073233116 -0.079510242 0.014918476
-0.0063416995 -0.080328196 0.014870971
-0.0052924124 -0.080444671 0.014745563
-0.0042460253 -0.080674477 0.013788521
-0.0031800931 -0.080562361 0.015591294
-0.0021033215 -0.079926215 0.014991999
-0.0010478364 -0.079635568 0.015013307
0 -0.079485565 0.0156115
0.0010518499 -0.079940595 0.015971035
0.0020726512 -0.078760743 0.015971035
0.0031603253 -0.080061577 0.016871572
0.0042120013 -0.080028027 0.017774373
0.0052474877 -0.079761818 0.018434048
0.0062425095 -0.07907179 0.020508707
0.0072004669 -0.078176498 0.020857841
0.0083159357 -0.079001389 0.021946013
0.0092304377 -0.077945918 0.023793548
0.010329113 -0.078501269 0.02531898
0.011176211 -0.07721746 0.02495724
0.012244557 -0.077548862 0.025195599
0.013304411 -0.077779643 0.024618983
0.014319957 -0.077736914 0.023591369
0.015441144 -0.078235134 0.021047831
-0.022635698 -0.077167161 0.024653256
-0.021486426 -0.07673724 0.025067151
-0.020512478 -0.076921798 0.024932742
-0.019483456 -0.07690838 0.024283081
-0.018428816 -0.076786742 0.024020612
-0.017680656 -0.078002892 0.023470223
-0.016490882 -0.07730101 0.022970349
-0.015669169 -0.078345843 0.021079004
-0.014448063 -0.077400342 0.019574225
-0.013464655 -0.0776807 0.019398183
-0.012545586 -0.07840991 0.01905477
-0.011389546 -0.077656001 0.017120302
-0.010505769 -0.078793272 0.017405391
-0.0094800005 -0.079000011 0.016584665
-0.008446754 -0.079188317 0.01539889
-0.0073677548 -0.078940228 0.013690025
-0.0063661626 -0.079577036 0.013623148
-0.0052480809 -0.078721218 0.013172537
-0.0042261463 -0.07924024 0.012904912
-0.0031527763 -0.078819416 0.013524354
-0.0021246562 -0.079674609 0.013144702
-0.0010520297 -0.078902222 0.013701707
0 -0.079859868 0.014766991
0.0010551461 -0.079135954 0.014884919
0.002099006 -0.078712724 0.014912963
0.0031261677 -0.078154199 0.01563409
0.0041863536 -0.078494139 0.016797721
0.0052465829 -0.078698747 0.0184246
0.006223422 -0.077792779 0.019819111
0.00727086 -0.077902071 0.020187706
0.0082943179 -0.077759229 0.021314293
0.0092017483 -0.076681241 0.023007631
0.010316444 -0.077373333 0.025543094
0.011251155 -0.07671243 0.025556147
0.012307642 -0.076922767 0.025543094
0.013371987 -0.077146083 0.025355399
0.014481606 -0.077580035 0.023714036
0.015466139 -0.077330701 0.021438777
-0.023673382 -0.076166533 0.023466796
-0.022490432 -0.075649641 0.025111169
-0.021411823 -0.075451188 0.025354713
-0.020554027 -0.076049902 0.02512148
-0.019594625 -0.07631591 0.02442196
-0.01851688 -0.076124959 0.02387026
-0.017483901 -0.076106399 0.02343908
-0.016735066 -0.077399679 0.021873087
-0.015518927 -0.076560043 0.020630807
-0.014548519 -0.07689932 0.019827843
-0.013578996 -0.077295832 0.018940151
-0.012483624 -0.076982349 0.018275946
-0.011588503 -0.077959023 0.016854495
-0.010437368 -0.077236526 0.015944123
-0.0093812225 -0.077134505 0.015313178
-0.0084721353 -0.078367256 0.014093101
-0.0074033826 -0.078264333 0.012824029
-0.0063542794 -0.078369446 0.013202518
-0.0053454693 -0.079112954 0.012761652
-0.0042522703 -0.078667 0.012302488
-0.0031970046 -0.078859456 0.012534708
-0.0021347261 -0.078984864 0.01227957
-0.001061317 -0.078537464 0.01123333
0 -0.078204922 0.012836337
0.0010504046 -0.077729948 0.013597876
0.0020850813 -0.077148005 0.014750928
0.0031505981 -0.077714756 0.015437186
0.0042028669 -0.077753045 0.015997231
0.0051796976 -0.07665953 0.01703003
0.0062100356 -0.076590441 0.019066125
0.0072816852 -0.076977819 0.01977694
0.0082285115 -0.076113738 0.021154314
0.0093731303 -0.077067971 0.02363646
0.010249756 -0.075848199 0.025543094
0.011239734 -0.075612754 0.025807559
0.012260676 -0.075607508 0.025835127
0.013390465 -0.076222651 0.025400817
0.014267481 -0.075413831 0.022315025
-0.02382575 -0.07562086 0.023584336
-0.022550475 -0.074826583 0.024375498
-0.021466604 -0.074622005 0.024715215
-0.020595495 -0.075173557 0.02467683
-0.019533869 -0.075051181 0.02442196
-0.018552059 -0.075238913 0.023995936
-0.017531393 -0.075281873 0.023517877
-0.01644136 -0.075013712 0.022301227
-0.015523119 -0.075545847 0.020695359
-0.014633032 -0.076300815 0.018541873
-0.013493836 -0.075773083 0.017992944
-0.012567593 -0.076452859 0.01698035
-0.01152901 -0.076510705 0.015300274
-0.010512166 -0.076738819 0.014053196
-0.0095802331 -0.077706344 0.013687611
-0.0084739802 -0.077325068 0.012521029
-0.0073562921 -0.076715618 0.011223733
-0.0063855322 -0.077690646 0.01196298
-0.0053301505 -0.077820204 0.011690438
-0.0042594387 -0.077734761 0.01155135
-0.0032009445 -0.077889659 0.012046486
-0.002124398 -0.077540532 0.011309952
-0.00105705 -0.07716465 0.010866553
0 -0.077716626 0.011019856
0.00105717 -0.077173412 0.012855917
0.0021308763 -0.077776983 0.013204187
0.0031521781 -0.076703005 0.016311556
0.0042090537 -0.076815233 0.016518414
0.0052074911 -0.076029375 0.017341167
0.0062797302 -0.076403394 0.018681169
0.0073017143 -0.076146454 0.019226193
0.0082902219 -0.075648278 0.020678908
0.0093843108 -0.076117195 0.02291593
0.010228523 -0.074668229 0.023687959
0.011212405 -0.074409604 0.025651544
0.012344547 -0.075095996 0.025597394
0.013472013 -0.075650536 0.025488138
0.014490353 -0.075556844 0.023728579
0.01538285 -0.074863203 0.021982729
-0.023589499 -0.073845387 0.024707317
-0.022719856 -0.074355893 0.025461614
-0.021452086 -0.073550001 0.025815576
-0.020500217 -0.073800772 0.025474578
-0.019590259 -0.074236766 0.024371445
-0.018773856 -0.075095423 0.023847461
-0.017692987 -0.074934997 0.023981124
-0.016383324 -0.073724955 0.02153182
-0.015671151 -0.075221524 0.01947087
-0.014607538 -0.07512448 0.018291533
-0.013707164 -0.075916596 0.01694873
-0.012684675 -0.076108046 0.015403658
-0.011660103 -0.076320671 0.014122546
-0.010546172 -0.075932443 0.012043029
-0.0095811961 -0.076649569 0.010437816
-0.0085016964 -0.076515265 0.010194331
-0.0074548633 -0.076678589 0.0096156299
-0.0064167758 -0.077001311 0.010757953
-0.0053150877 -0.076537259 0.010600001
-0.0042337039 -0.076206662 0.010308325
-0.0031865065 -0.076476149 0.0097443461
-0.0021238897 -0.076460026 0.0094378293
-0.0010615945 -0.076434799 0.0092963278
0 -0.077147968 0.0098117888
0.0010695159 -0.077005148 0.0098793805
0.0021129681 -0.076066844 0.010231614
0.0032059497 -0.076942787 0.013867229
0.0042061 -0.075709797 0.01543346
0.0052286778 -0.07529296 0.017164946
0.0062547638 -0.075057164 0.017660201
0.007342719 -0.075525112 0.019066125
0.0082405787 -0.07416521 0.019851685
0.009224277 -0.073794216 0.022716105
0.010330797 -0.074381739 0.024148136
0.011162552 -0.07306397 0.025583446
0.012359316 -0.074155897 0.025651544
0.013285321 -0.073580235 0.024835765
0.014462277 -0.074377425 0.023067862
0.015459756 -0.074206829 0.021035016
-0.02374582 -0.073302306 0.024707317
-0.022628114 -0.073027097 0.02576521
-0.021429872 -0.072453372 0.026174724
-0.020443114 -0.072573051 0.025896668
-0.019698998 -0.073612042 0.025479078
-0.018527184 -0.073079444 0.024518043
-0.017400835 -0.072674073 0.024143726
-0.016584298 -0.073592819 0.021658778
-0.015440345 -0.073084295 0.019795954
-0.014803702 -0.075075917 0.017752409
-0.013607784 -0.07431943 0.016653568
-0.012621752 -0.074678697 0.014131397
-0.011612335 -0.074952349 0.011518925
-0.010691182 -0.075907394 0.0096917152
0.0010639154 -0.075537995 0.0094098449
0.0021072791 -0.074808404 0.010509819
0.0031952711 -0.075621419 0.011394173
0.0042689163 -0.075773261 0.013867229
0.0052351449 -0.074339055 0.015724242
0.006270078 -0.074195921 0.017327845
0.0072853896 -0.073894665 0.01893416
0.0082302205 -0.073043205 0.019802958
0.0093935719 -0.074104846 0.022722512
0.010389887 -0.073768198 0.024463117
0.011125792 -0.071811929 0.025774986
0.012273208 -0.07261648 0.026601911
0.01329575 -0.072615251 0.025938123
0.014361012 -0.072830841 0.024257988
0.015491642 -0.073327102 0.021035016
-0.023576636 -0.071754977 0.025101602
-0.022587618 -0.071869694 0.025344044
-0.021499472 -0.0716649 0.025505215
-0.020519018 -0.071816564 0.026328713
-0.019525006 -0.071934238 0.025845528
-0.018680898 -0.072647937 0.025232047
-0.017657181 -0.072706036 0.024523705
-0.016572172 -0.072503246 0.021479577
-0.01570713 -0.073299937 0.018837273
-0.014597407 -0.072987035 0.01711911
0.0032036637 -0.074752159 0.0091230571
0.0042296601 -0.074019045 0.012040764
0.0052797231 -0.073916122 0.013633966
0.0062803249 -0.073270462 0.016792268
0.0072830375 -0.072830379 0.01852259
0.008391791 -0.073428176 0.020381063
0.0092376163 -0.071848132 0.023800671
0.010346889 -0.072428234 0.025558561
0.011191306 -0.071217403 0.025774986
0.012166782 -0.070972897 0.026534855
0.013349813 -0.071883611 0.02479744
0.014397397 -0.071986981 0.023812443
0.015572081 -0.072669707 0.02146548
-0.02372315 -0.071169443 0.024491072
-0.022344995 -0.070082031 0.02523303
-0.021513555 -0.070687398 0.026003867
-0.020477239 -0.07064648 0.026272148
-0.019506993 -0.070841186 0.026241094
-0.018405663 -0.070555046 0.025706649
-0.017458454 -0.070860781 0.024551034
-0.015768688 -0.072535969 0.019048482
-0.014625414 -0.0720824 0.015893787
0.0042547565 -0.073394544 0.009978503
0.0052996739 -0.073135503 0.012037903
0.0063064047 -0.072523654 0.016105026
0.0072848466 -0.071807779 0.01852259
0.0083083399 -0.071659431 0.020531029
0.0092474585 -0.070897184 0.023917407
0.010304397 -0.071100339 0.026967883
0.011188754 -0.070184 0.028428644
0.012199296 -0.07014595 0.026642859
0.013242229 -0.070285678 0.026869804
0.014221861 -0.07009346 0.025469631
0.01532464 -0.070493348 0.023781806
-0.023695718 -0.0700569 0.025464267
-0.02258536 -0.069809295 0.025584966
-0.021339683 -0.069099925 0.026437283
-0.020390874 -0.069328971 0.026722103
-0.019391874 -0.069402494 0.026272148
-0.018460868 -0.069741055 0.026011288
-0.017447324 -0.069789298 0.025227845
0.0063364361 -0.071812943 0.01490739
0.0073307906 -0.071213394 0.01744473
0.0093443347 -0.07060165 0.025808156
0.010297262 -0.070021383 0.029735833
0.011221168 -0.069367222 0.030798614
0.012308197 -0.069746457 0.030056804
0.013265696 -0.069389798 0.028533936
0.014349729 -0.069698684 0.026181966
0.015419311 -0.069900878 0.023954391
-0.023641882 -0.068869829 0.024868459
-0.022477023 -0.068452761 0.025854439
-0.021472011 -0.068505935 0.026986688
-0.02045688 -0.068530552 0.027350366
-0.019309646 -0.068091907 0.027199358
-0.018407868 -0.068518184 0.026879609
-0.017660802 -0.069604337 0.02673319
-0.016484186 -0.069027528 0.024290323
0.010285253 -0.068911195 0.02986595
0.011071691 -0.067436673 0.032824695
0.012205042 -0.068144821 0.032386631
0.013205498 -0.068059109 0.030568659
0.014369071 -0.068766274 0.02935338
0.015285905 -0.068277046 0.024978369
-0.024667574 -0.06783583 0.022396088
-0.023600301 -0.067722596 0.025140136
-0.022531023 -0.067593068 0.026004881
-0.021403709 -0.067268796 0.027686477
-0.020307703 -0.067015417 0.027888864
-0.019341417 -0.067185968 0.028098643
-0.018355796 -0.067304589 0.027879268
-0.017436994 -0.067696564 0.0274764
0.0091668135 -0.067223303 0.028066754
0.01019318 -0.067274988 0.029801458
0.011234276 -0.067405656 0.031111866
0.01214575 -0.06680163 0.032253087
0.013246793 -0.067252949 0.030505627
0.014355517 -0.067676008 0.029292673
0.01523256 -0.067023262 0.025859356
-0.023555782 -0.066570684 0.025196284
-0.022402478 -0.06618914 0.026704669
-0.021438727 -0.066357963 0.027491719
-0.020360263 -0.066170856 0.028002918
-0.019311417 -0.066065371 0.028332561
-0.018373925 -0.066350289 0.02896297
-0.017322287 -0.066232271 0.028065681
-0.016298227 -0.066211551 0.027420938
0.0075204005 -0.069832288 0.017937303
0.009186713 -0.066348486 0.029383391
0.010023959 -0.065155737 0.030007362
0.011201029 -0.066187896 0.030702025
0.012223503 -0.066210642 0.031659424
0.013201239 -0.066006191 0.031954199
0.014350288 -0.06662634 0.031195283
0.01519442 -0.065842487 0.025967181
-0.023642434 -0.065787643 0.025233388
-0.022579236 -0.065685049 0.026693881
-0.021192063 -0.064585336 0.027779371
-0.02044883 -0.065436259 0.029023498
-0.01959553 -0.066005997 0.029301941
-0.018306427 -0.065089516 0.029358447
-0.017256472 -0.064965539 0.028713673
-0.016024504 -0.064098015 0.027264476
-0.015126375 -0.064539202 0.026329756
0.0081339618 -0.065071695 0.028637946
0.0090814298 -0.064579062 0.029055029
0.010169346 -0.065083817 0.030099273
0.011148489 -0.064863943 0.03021419
0.012247079 -0.065317757 0.031478822
0.013203291 -0.065000817 0.0312365
0.014359291 -0.065642476 0.029114664
0.015156158 -0.064666271 0.025546968
-0.023759443 -0.065080211 0.024170786
-0.022491358 -0.064407073 0.025321484
-0.021488257 -0.06446477 0.027383029
-0.020540953 -0.064704001 0.027944982
-0.019286443 -0.063949786 0.029174387
-0.018441308 -0.064544581 0.029736668
-0.017349077 -0.064293645 0.029768556
-0.016202107 -0.063795798 0.028749228
-0.015293838 -0.064234123 0.027575701
0.0080995308 -0.06378381 0.029918522
0.00905893 -0.06341251 0.030696839
0.01018412 -0.06415996 0.030512512
0.011119026 -0.063681692 0.030605376
0.012174511 -0.063916184 0.030702025
0.013239703 -0.064161643 0.030165762
0.014216516 -0.063974328 0.02765131
0.015311897 -0.06430997 0.025202245
-0.024934042 -0.064412944 0.020768344
-0.023670236 -0.063806728 0.023073018
-0.02282951 -0.064337716 0.024462461
-0.021367533 -0.063085102 0.026433885
-0.020299612 -0.062928796 0.027944982
-0.019344101 -0.063122854 0.029417962
-0.018227285 -0.062782876 0.030342907
-0.017270736 -0.062987395 0.030149847
-0.016227545 -0.062881745 0.030149847
-0.015052182 -0.062215686 0.02943784
-0.014370316 -0.063639969 0.027747631
0.0070403521 -0.062357407 0.029981941
0.0080838231 -0.06264963 0.031218529
0.0090721417 -0.062496983 0.031741917
0.010132582 -0.062822014 0.030965507
0.011270354 -0.063523814 0.030589789
0.012170477 -0.062880799 0.030363709
0.013301118 -0.063436106 0.029261589
0.014219403 -0.062971644 0.026525229
0.015317729 -0.063313283 0.024324387
-0.023680482 -0.062804751 0.023026913
-0.022717558 -0.062989593 0.023489207
-0.021380594 -0.062105533 0.024879456
-0.020411972 -0.062256519 0.027757794
-0.019471474 -0.062513679 0.029291511
-0.018252544 -0.061855845 0.030342907
-0.017235234 -0.061844077 0.030154109
-0.016191227 -0.061729055 0.030495822
-0.015128304 -0.061521769 0.029377878
-0.014114253 -0.061497819 0.029377878
-0.013243451 -0.062142346 0.027575701
0.005053984 -0.061658602 0.028849393
0.0060262438 -0.061266813 0.029608756
0.0070235878 -0.061205551 0.030157596
0.0080960188 -0.061732139 0.030730724
0.009136836 -0.061927445 0.030678481
0.010083959 -0.06151215 0.030554712
0.011125449 -0.061695673 0.029705942
0.012213365 -0.062084608 0.029842407
0.013304542 -0.062429003 0.028369337
0.014369803 -0.062611282 0.025402784
-0.023763981 -0.061992992 0.021761835
-0.022740504 -0.06201956 0.023156911
-0.021614844 -0.061756697 0.024701267
-0.020374931 -0.061124798 0.026609987
-0.019270366 -0.06085379 0.028874516
-0.018297233 -0.060990777 0.029700965
-0.017265152 -0.060935833 0.028880626
-0.016365916 -0.061372183 0.030064613
-0.015325516 -0.061302062 0.029626399
-0.014060405 -0.060258877 0.030732691
-0.013138651 -0.060639929 0.030266285
-0.012023311 -0.060116556 0.029608876
0.0029777621 -0.059555244 0.030103207
0.004000173 -0.060002591 0.030313253
0.0049913349 -0.059896022 0.030982435
0.006045836 -0.060458362 0.030218512
0.0071726339 -0.061479717 0.03072539
0.0080922581 -0.060691934 0.030537874
0.0091396701 -0.060931135 0.030404001
0.010102154 -0.060612928 0.029625684
0.011208464 -0.061137076 0.028489888
0.012226556 -0.061132785 0.027688503
0.013412879 -0.061905596 0.02530387
0.014316049 -0.061354496 0.023689091
-0.02278056 -0.061093319 0.021926761
-0.021702388 -0.060973376 0.022529751
-0.020587176 -0.060732171 0.023072213
-0.01962655 -0.0609456 0.026573271
-0.018313639 -0.060028043 0.027879268
-0.017211998 -0.05973576 0.028461218
-0.016145224 -0.059535518 0.028880626
-0.015186409 -0.059733212 0.029877096
-0.014240228 -0.060012389 0.029993922
-0.01315832 -0.059718527 0.030341238
-0.011965456 -0.058830164 0.030641824
-0.011149526 -0.059802003 0.03023386
-0.0099544628 -0.058731336 0.030763507
-0.0090963161 -0.059631407 0.030019939
0.0010104665 -0.059617519 0.03099525
0.0020169332 -0.059499525 0.031070858
0.0030280678 -0.059552003 0.030996323
0.0040269624 -0.059397697 0.030819029
0.0049988814 -0.058986802 0.030819029
0.0059857895 -0.058860265 0.030571043
0.0070908037 -0.059765346 0.030435532
0.0081062987 -0.059783954 0.030331492
0.009141366 -0.059926737 0.029693663
0.010127537 -0.059752472 0.0285272
0.011199936 -0.060072388 0.028126776
0.01237499 -0.060843702 0.025104254
0.013403647 -0.060831938 0.023313582
-0.021791132 -0.06018503 0.021034181
-0.020656006 -0.059902422 0.022343755
-0.019498417 -0.059521485 0.022983193
-0.018388547 -0.059251986 0.025409132
-0.017275548 -0.058940105 0.026184857
-0.0162166 -0.058785178 0.02907154
-0.015240684 -0.05893065 0.02871573
-0.014125425 -0.05851962 0.029894382
-0.013060312 -0.058269083 0.030355304
-0.01227012 -0.059305582 0.030771732
-0.011083178 -0.05843858 0.030664355
-0.010114269 -0.058662765 0.030641824
-0.0090159541 -0.05810282 0.030444741
-0.0080170119 -0.058123335 0.030050963
-0.0069446745 -0.05754159 0.031182289
-0.0060375296 -0.058362789 0.030322433
-0.0050220913 -0.058256265 0.029610246
-0.0040037842 -0.058054876 0.030460685
-0.0029963856 -0.057930123 0.030607611
-0.0019962934 -0.057892513 0.029983848
-0.00099954382 -0.057973541 0.03018257
0 -0.058204718 0.031743795
0.0010025008 -0.058145043 0.031396955
0.0020158449 -0.058459502 0.031400621
0.00300417 -0.058080621 0.031003624
0.0039987159 -0.057981383 0.030844361
0.0050109285 -0.058126777 0.030484855
0.0060896613 -0.058866728 0.030066222
0.0070536407 -0.058444452 0.030023336
0.0081907697 -0.059383083 0.029814601
0.0091337785 -0.058862131 0.028458327
0.010183041 -0.059061639 0.026221812
-0.016369961 -0.058317985 0.026320219
-0.015236995 -0.057900578 0.028471112
-0.014102522 -0.057417411 0.028585076
-0.013100202 -0.05743935 0.030255765
-0.012146276 -0.057694815 0.030341238
-0.011091062 -0.057471868 0.030534446
-0.010148606 -0.05784706 0.030506462
-0.0091027739 -0.057650905 0.030610025
-0.0080956388 -0.057681426 0.030050963
-0.0071038664 -0.057845768 0.031264395
-0.0060758712 -0.057720773 0.031475723
-0.0050413646 -0.057471555 0.031264395
-0.0040406878 -0.0575798 0.031216562
-0.003026959 -0.05751222 0.031475186
-0.0020141401 -0.057402991 0.031241089
-0.0010094939 -0.057541154 0.031354815
0 -0.057923265 0.031791985
0.0010085281 -0.057486098 0.031669825
0.0020003768 -0.05701074 0.03139165
0.0030070387 -0.057133738 0.031044453
0.0040450338 -0.05764173 0.030511051
0.005062189 -0.057708956 0.02946955
0.0060429149 -0.057407692 0.029380798
0.0070844316 -0.057687514 0.029370129
0.0081091579 -0.057777748 0.02819863
-0.015404291 -0.057509355 0.026036054
-0.014189356 -0.056757424 0.026699573
-0.013214581 -0.056924347 0.029367715
-0.012038935 -0.056181695 0.03047356
-0.011122124 -0.056621723 0.030514628
-0.01014427 -0.056807917 0.030910075
-0.0090510463 -0.056317624 0.031004041
-0.0081481896 -0.057037327 0.030906141
-0.0069977059 -0.055981647 0.031442165
-0.0060678306 -0.056633085 0.031241089
-0.005039487 -0.056442257 0.030840248
-0.0040640663 -0.056896929 0.031090558
-0.0030437673 -0.056816991 0.031743795
-0.002026794 -0.056750234 0.031472594
-0.0010089377 -0.056500513 0.031743795
0 -0.056365419 0.031774193
0.0010135876 -0.056760903 0.031774193
0.0020051759 -0.056144927 0.031220347
0.0030636943 -0.057188962 0.029594451
0.0039896737 -0.055855431 0.028704882
0.0050678668 -0.05676011 0.028778315
0.0060663815 -0.056619562 0.029282779
-0.012329232 -0.056508981 0.02869463
-0.01112657 -0.055632852 0.027767211
-0.01013202 -0.055726111 0.028392404
-0.0092046829 -0.056250844 0.028554529
-0.008123422 -0.055848524 0.028546542
-0.0070969053 -0.055761401 0.028799236
-0.0061177327 -0.05607922 0.030674249
-0.0050596246 -0.055655871 0.030674249
-0.0040449123 -0.055617545 0.030807108
-0.0030719859 -0.056319743 0.031149983
-0.0020326788 -0.055898666 0.030769557
-0.0010114558 -0.055630073 0.030393571
0 -0.055494025 0.030249268
0.0010271012 -0.056490567 0.029932082
0.0020099659 -0.055274066 0.028493017
0.0030714422 -0.056309778 0.026614636
0.0040538521 -0.055740468 0.026043922
-0.01133627 -0.055650782 0.025568098
-0.010131783 -0.054711632 0.025404871
-0.0092142848 -0.055285715 0.027190298
-0.0080662053 -0.054446883 0.027353734
-0.0071343817 -0.05503666 0.02810353
-0.00603096 -0.054278642 0.029052317
-0.0050268755 -0.054290261 0.029311329
-0.0040619755 -0.054836672 0.029534757
-0.0030369391 -0.054664906 0.03015089
-0.0020188564 -0.054509122 0.030130774
-0.0010152385 -0.054822877 0.030280113
0 -0.054914411 0.029871047
0.0010224897 -0.055214446 0.027608991
0.0020381929 -0.055031206 0.026371211
-0.0091748871 -0.054029893 0.025075972
-0.0081196204 -0.053792484 0.026750922
-0.0071011875 -0.053766131 0.028417408
-0.006104744 -0.053925242 0.028525949
-0.005121307 -0.05428585 0.028568894
-0.0040449346 -0.053595383 0.028749377
-0.0030491799 -0.053868845 0.029549927
-0.0020376537 -0.053997822 0.02952835
-0.001009769 -0.053517759 0.029383898
0 -0.05367811 0.027596951
-0.0071441052 -0.053070497 0.025699168
-0.0061125178 -0.052975152 0.027274311
-0.0050779143 -0.052810308 0.027846873
-0.0040716343 -0.052931245 0.02858451
-0.003096238 -0.053668126 0.029465556
-0.002025855 -0.052672226 0.029383898
0 0 0 1 0 0 0 1 0 0 0 1 0 0 0 0 0 837 1 0 0
