ply
format ascii 1.0
comment PCL generated
element vertex 642
property float x
property float y
property float z
element camera 1
property float view_px
property float view_py
property float view_pz
property float x_axisx
property float x_axisy
property float x_axisz
property float y_axisx
property float y_axisy
property float y_axisz
property float z_axisx
property float z_axisy
property float z_axisz
property float focal
property float scalex
property float scaley
property float centerx
property float centery
property int viewportx
property int viewporty
property float k1
property float k2
end_header
-0.010111804 0.091006242 0.022630394
-0.009216221 0.092162214 0.025254965
-0.0081421733 0.091599457 0.023083568
-0.0071788463 0.092299454 0.021914572
-0.006181729 0.09272594 0.021914572
-0.0051441742 0.092595138 0.020924747
-0.0040923692 0.092078313 0.020380139
-0.013143314 0.092003204 0.02514562
-0.012038337 0.091290727 0.025227278
-0.011047011 0.091388911 0.025227278
-0.010058817 0.09153524 0.025864244
-0.0090523763 0.091529585 0.026120901
-0.0080797775 0.091907471 0.026032746
-0.0070414068 0.091538288 0.025553942
-0.0060143224 0.091217227 0.025543481
-0.0050483649 0.091880247 0.025747865
-0.0040528309 0.092201911 0.024411798
-0.0030651924 0.092977509 0.023883253
-0.0020313631 0.092427023 0.022893727
-0.015110968 0.092680603 0.025781393
-0.01400085 0.092005588 0.025976032
-0.012936972 0.091553956 0.026338369
-0.012068156 0.092522532 0.02665478
-0.011103743 0.092867672 0.02665478
-0.010039099 0.092359714 0.026838571
-0.0091110887 0.093135573 0.026957244
-0.0080929752 0.093069218 0.027385384
-0.0070234416 0.092308089 0.02685529
-0.0060780789 0.093197212 0.02685529
-0.0050637457 0.093172923 0.026056409
-0.004009035 0.092207804 0.026056409
-0.0030125428 0.092384651 0.024753869
-0.0020096989 0.092446156 0.025510371
-0.0010213188 0.093961336 0.024652511
-0.018226853 0.094172083 0.026272625
-0.017125241 0.09368515 0.026784271
-0.016075771 0.093440421 0.0261738
-0.015058175 0.093360685 0.026503742
-0.014041376 0.093274854 0.027040899
-0.012945315 0.092608795 0.026758224
-0.012133492 0.094034567 0.0272834
-0.011089166 0.093753859 0.027312398
-0.010104249 0.093969524 0.027590811
-0.0090585314 0.093604833 0.027795345
-0.0080367578 0.093427308 0.028249532
-0.0070628203 0.093834616 0.02797538
-0.0060237925 0.093368791 0.027641743
-0.0050297896 0.093554087 0.026735604
-0.0040210886 0.093490317 0.027057499
-0.0030080392 0.093249224 0.026380986
-0.0019901854 0.092543617 0.027493954
-0.00099973404 0.092975266 0.027537733
0 0.092947923 0.027020395
0.0010184423 0.094715133 0.025787234
-0.022485238 0.096073292 0.021797776
-0.021331457 0.095483668 0.022858322
-0.020094026 0.094441921 0.024493039
-0.019061107 0.094302312 0.027292043
-0.018044921 0.094234586 0.027653724
-0.017025033 0.094138421 0.027283549
-0.016130464 0.094766475 0.027614057
-0.015095223 0.094596729 0.027383834
-0.013934773 0.093562052 0.027383834
-0.013130199 0.094941445 0.026793897
-0.011935248 0.093492784 0.027061284
-0.011079764 0.094681621 0.026764572
-0.010070171 0.094659612 0.026777267
-0.0089557758 0.093538105 0.026824474
-0.0080228122 0.094268039 0.027551681
-0.0070551694 0.094740845 0.027248591
-0.0059866253 0.093790464 0.027599365
-0.0050388747 0.094730847 0.026735604
-0.0040240847 0.094565995 0.027057499
-0.0030061952 0.094194122 0.026613981
-0.0020191181 0.094898544 0.028094441
-0.0010021481 0.09420193 0.02813822
0 0.094146416 0.02849859
0.0010028605 0.094268888 0.028133333
0.0020140132 0.094658621 0.027265608
-0.024379676 0.096502885 0.021620631
-0.023368457 0.096521884 0.022858441
-0.022385377 0.096664138 0.023452908
-0.021027172 0.095122918 0.027292877
-0.020059112 0.095280781 0.027653724
-0.01908087 0.095404349 0.028372556
-0.018067921 0.095358469 0.028162777
-0.01703568 0.095199391 0.028456599
-0.015889077 0.09434139 0.028189987
-0.015103689 0.0956567 0.027599901
-0.014240757 0.096633703 0.027599901
-0.012974862 0.094816297 0.027599901
-0.011914346 0.094321914 0.027599901
-0.011107494 0.095928356 0.026441574
-0.0099892225 0.094897613 0.026764572
-0.0091509447 0.096593313 0.026402742
-0.0080914013 0.096085392 0.027065217
-0.0070292186 0.095396541 0.026161283
-0.0060263439 0.095417112 0.026762128
-0.0050274557 0.095521659 0.026466608
-0.0040047495 0.095112801 0.027437627
-0.0030221334 0.09570089 0.027662039
-0.00200209 0.09509927 0.028746068
-0.00099523994 0.094547793 0.028986841
0 0.095314555 0.028963774
0.001000164 0.095015571 0.028678834
0.0020082595 0.095392331 0.02849859
0.0030144805 0.095458545 0.026693851
0.004076174 0.096809126 0.025753647
-0.025532901 0.09804634 0.021967083
-0.024415681 0.097662725 0.023112833
-0.023449257 0.097875156 0.023526371
-0.022052348 0.096228428 0.02766037
-0.021035226 0.09616103 0.028740615
-0.019968458 0.095848598 0.028145909
-0.019116262 0.096587427 0.028351992
-0.017999098 0.095995188 0.028471798
-0.017127797 0.096721672 0.028221816
-0.016068764 0.096412584 0.028091133
-0.015141391 0.096904904 0.026637822
-0.013996289 0.095974557 0.026040584
-0.012976788 0.095828593 0.026235223
-0.012124543 0.096996345 0.025926709
-0.01108884 0.096775331 0.025358766
-0.010163187 0.097566597 0.02608788
-0.0090716258 0.096764006 0.026118696
-0.008103434 0.097241208 0.026140392
-0.0070472462 0.096647941 0.02608788
-0.0060535343 0.096856549 0.026164412
-0.0050690835 0.097326413 0.026374876
-0.0040499205 0.097198084 0.026955932
-0.0029946358 0.095828347 0.027119398
-0.0020125806 0.09660387 0.027613044
-0.0010068922 0.09666165 0.027065843
0 0.095506452 0.02767086
0.00099876919 0.095881842 0.027480394
0.001988034 0.095425636 0.028372258
0.0030184705 0.096591055 0.028398067
0.0039861253 0.095667005 0.028505534
0.005053076 0.097019061 0.027113438
-0.025474045 0.09883929 0.022858441
-0.024255579 0.098032966 0.024115205
-0.023035858 0.09715122 0.028734833
-0.022116626 0.097514212 0.028829068
-0.020992203 0.096963979 0.029207945
-0.020144142 0.097699091 0.028365135
-0.019166127 0.097848117 0.028835863
-0.018063454 0.097341947 0.027972758
-0.017046591 0.09726584 0.028189987
-0.016081411 0.097493559 0.027823836
-0.014958672 0.096732743 0.02691561
-0.014050509 0.097349949 0.026637822
-0.013000201 0.0970015 0.026571244
-0.011991829 0.096933953 0.025419623
-0.011033004 0.097291037 0.024849236
-0.010059653 0.097578637 0.02526322
-0.0090296678 0.097319752 0.025233567
-0.0081035588 0.098255649 0.025934935
-0.0070677018 0.097938158 0.024914771
-0.0060547073 0.097884431 0.024914771
-0.0050712321 0.098381907 0.026364654
-0.0040639676 0.098551206 0.026517838
-0.003050705 0.098639458 0.026831746
-0.0020165301 0.097801708 0.027380884
-0.0010093406 0.097906038 0.027776957
0 0.09759593 0.027083397
0.00099985942 0.096986361 0.02772975
0.0019912864 0.096577391 0.029110432
0.002970353 0.096041411 0.029080659
0.0039838543 0.09660846 0.030516148
0.0050019054 0.097036965 0.028976232
0.006045464 0.097734995 0.029099584
0.0070722639 0.098001368 0.027217418
-0.025267325 0.099047914 0.023036271
-0.024092685 0.098378457 0.02742523
-0.022879848 0.097488038 0.028620958
-0.021834623 0.097263321 0.028789848
-0.020975195 0.097884238 0.028874755
-0.020151515 0.098742425 0.028503716
-0.019048342 0.098249339 0.028414637
-0.017925285 0.097593218 0.027972758
-0.017170597 0.098983444 0.02816847
-0.016046613 0.098285504 0.027935952
-0.015056614 0.098369874 0.027823478
-0.014081385 0.098569691 0.026487738
-0.012974265 0.097805992 0.025359601
-0.012098602 0.098805249 0.024899304
-0.011128908 0.099148452 0.023881137
-0.010010651 0.098104388 0.0239968
-0.0091939373 0.10011176 0.023717761
-0.008117375 0.09943784 0.023612738
-0.0070143123 0.098200366 0.023024529
-0.0060469629 0.098767057 0.023339927
-0.0050517349 0.099014007 0.023368984
-0.0040332042 0.098813497 0.024586737
-0.0030160821 0.098525353 0.026001841
-0.0020351512 0.099722408 0.026615113
-0.0010058582 0.098574102 0.026981205
0 0.099212825 0.026722372
0.001005799 0.098568298 0.026675701
0.001987891 0.097406656 0.029322416
0.0029805489 0.097364597 0.030217588
0.0039680609 0.097217485 0.031105012
0.0050022863 0.098044813 0.031000704
0.0060132085 0.098215736 0.03076601
0.0070176278 0.09824679 0.029286921
0.0080321077 0.098393321 0.027263314
0.0090740379 0.098806188 0.025618196
-0.026453953 0.10072852 0.022225708
-0.024887895 0.098556064 0.026908159
-0.024050392 0.099207871 0.028620958
-0.02285574 0.098379053 0.029715419
-0.021782979 0.098023415 0.029545486
-0.021054918 0.0992589 0.029822141
-0.020016879 0.099083558 0.029094756
-0.018991254 0.098954432 0.029180676
-0.018101173 0.099556454 0.028946757
-0.016952539 0.098723613 0.028651476
-0.016130056 0.099804729 0.027410328
-0.015003526 0.099023268 0.026990414
-0.014181715 0.10028499 0.025860757
-0.013005966 0.099045441 0.023664653
-0.012132056 0.10008947 0.022903562
-0.011141981 0.10027783 0.022359669
-0.010197747 0.1009577 0.022422075
-0.0091822138 0.10100435 0.021642268
-0.0081666373 0.10106214 0.022566468
-0.0071610361 0.10127752 0.022468686
-0.0061052423 0.1007365 0.023088098
-0.0050934888 0.10085109 0.023241669
-0.004066613 0.10064868 0.023401111
-0.0030177059 0.099584304 0.024039507
-0.0020179893 0.099890471 0.026334256
-0.0010028478 0.099281937 0.026752025
0 0.099821329 0.025932491
0.0010105425 0.10004371 0.026675701
0.0020231979 0.1001483 0.029051542
0.0029665672 0.097896725 0.030212015
0.0039787795 0.098474801 0.030871391
0.0049396073 0.097804233 0.031362474
0.0059671081 0.098457292 0.030829489
0.0069787586 0.098699592 0.030874014
0.0080615366 0.099761516 0.029047787
0.0089782355 0.098760597 0.027565539
-0.026171442 0.10065939 0.024037391
-0.024984088 0.099936351 0.028019428
-0.023883287 0.099513695 0.03006804
-0.023080131 0.10034839 0.030738384
-0.022238104 0.1010823 0.030566424
-0.020949574 0.099759877 0.030159503
-0.01991065 0.099553257 0.03007409
-0.019153062 0.1008056 0.029276043
-0.017953368 0.099740945 0.028896242
-0.01712952 0.10076188 0.02816847
-0.016012808 0.10008006 0.026990175
-0.015102049 0.10068034 0.026194245
-0.01428516 0.10203686 0.023914814
-0.013290441 0.10223416 0.023247719
-0.012209397 0.10174498 0.020276159
-0.011259702 0.10236093 0.019566596
-0.010247961 0.10247961 0.02078253
-0.0091284038 0.10142671 0.020350099
-0.0081689553 0.10211194 0.020963162
-0.0070972256 0.10138895 0.020865381
-0.0060956352 0.10159392 0.021058857
-0.0051292507 0.10258503 0.022138208
-0.0040599736 0.10149934 0.022601187
-0.0030475273 0.10158425 0.022833318
-0.0020144419 0.10072209 0.024666995
-0.0010019058 0.10019058 0.025896788
0 0.10094806 0.025689065
0.0010084128 0.10084128 0.026337028
0.0020005996 0.10002998 0.028001606
0.0030583523 0.10194508 0.029484004
0.0039802366 0.099505916 0.030642331
0.0049645165 0.099290334 0.031250685
0.0059238672 0.098731123 0.031674236
0.006945278 0.099218264 0.031065881
0.0079427892 0.099284865 0.030819237
0.0090560149 0.10062239 0.0279679
0.010117859 0.10117859 0.026485652
-0.026189795 0.10173728 0.027324587
-0.024959059 0.1008346 0.028535366
-0.023921639 0.10067023 0.029778361
-0.023000013 0.10100006 0.03079775
-0.021814587 0.10014879 0.031490952
-0.020888874 0.10046554 0.03034386
-0.020044183 0.10122313 0.03066656
-0.019057617 0.10130627 0.029373854
-0.017978931 0.10088179 0.028946757
-0.017104357 0.10162001 0.027911454
-0.016084652 0.10153437 0.026340336
-0.015198601 0.10233725 0.023700982
-0.014275078 0.10298449 0.022233129
-0.013190417 0.1024794 0.020170063
-0.012307853 0.10359111 0.018844903
-0.0082279695 0.10387812 0.017392308
-0.0072159278 0.10411554 0.018173963
-0.0061711296 0.10388068 0.018429637
-0.0051309513 0.10364522 0.018685192
-0.0040809861 0.1030449 0.019238681
-0.0030927267 0.1041218 0.020632178
-0.0020237751 0.10220065 0.022917449
-0.0010169217 0.10270909 0.024770379
0 0.10092402 0.025280803
0.00099611154 0.10060726 0.025338143
0.0020202282 0.10202152 0.026788086
0.0030169957 0.10157219 0.028760642
0.0039939657 0.10084763 0.030022919
0.0049405983 0.099800095 0.031002581
0.0059852758 0.10075215 0.032106042
0.0069043511 0.099619925 0.031741112
0.0079759294 0.10069611 0.031588197
0.0089671519 0.10063138 0.029973477
0.010027369 0.10127643 0.02788046
0.01105673 0.10152088 0.026318908
-0.025901346 0.10161297 0.028557688
-0.024916228 0.10165821 0.029178411
-0.023846559 0.10134788 0.030259818
-0.023101684 0.10245094 0.030892402
-0.021776965 0.10096593 0.031005323
-0.020860352 0.1013217 0.030690163
-0.020090103 0.10245953 0.03034097
-0.019050771 0.10227256 0.028845966
-0.01797249 0.10184412 0.028132707
-0.017170457 0.10302274 0.02663064
-0.016267791 0.10370717 0.02252987
-0.003082376 0.10480078 0.017872155
-0.0020443124 0.10425993 0.01987797
-0.0010222833 0.1042729 0.021869868
0 0.10395379 0.024028182
0.00099315459 0.10130177 0.025258869
0.0020051985 0.10226513 0.026564002
0.0030061584 0.10220939 0.028536707
0.0040457053 0.10316548 0.02981171
0.0049810791 0.10161402 0.030754238
0.005900891 0.10031515 0.031591803
0.0069097495 0.10068493 0.031858206
0.0079399869 0.10123484 0.031760335
0.0089160912 0.10104904 0.031591803
0.010004858 0.10204956 0.029138207
0.011059891 0.10255536 0.026597112
-0.025827616 0.10231709 0.029210955
-0.024977932 0.10290907 0.029328465
-0.023799738 0.10214054 0.031090051
-0.022701375 0.10166268 0.031516373
-0.021808019 0.10210118 0.03132683
-0.020897385 0.1024967 0.031695724
-0.019899936 0.10248468 0.030682474
-0.019061761 0.10333481 0.029172033
-0.018037103 0.10321232 0.028082103
-0.0010239719 0.10546911 0.01988709
0 0.1042165 0.021838158
0.0010180079 0.10485481 0.024745673
0.001990058 0.10248799 0.026806921
0.003010906 0.10337444 0.029101491
0.0040668929 0.10472249 0.029457241
0.0049916669 0.10282834 0.031367242
0.0059593408 0.10230201 0.031765193
0.0069337022 0.10202447 0.032264084
0.0079068793 0.10180107 0.032467425
0.0089250803 0.10214259 0.031738788
0.0099976696 0.102976 0.029963225
0.01095845 0.10261095 0.027755857
-0.026919903 0.10369147 0.028752536
-0.02579518 0.10318072 0.029542059
-0.024631502 0.10246705 0.030870229
-0.023799499 0.10313117 0.031352818
-0.022832666 0.10324335 0.031621605
-0.021868737 0.10337949 0.030889302
-0.020816678 0.10309212 0.031394213
-0.020096568 0.10450216 0.030039787
-0.018985268 0.10391936 0.028657883
-0.018190684 0.10510173 0.025720686
0.0010114895 0.10519491 0.023899734
0.002012575 0.1046539 0.02475962
0.0029848276 0.10347402 0.027560085
0.0039501833 0.10270476 0.028932661
0.0049836258 0.10365942 0.031186253
0.0059589162 0.10328788 0.03197211
0.006831198 0.10149208 0.032264084
0.0079157772 0.1029051 0.03247723
0.0088299355 0.10203481 0.032460541
0.0099261273 0.10323172 0.03137812
0.010982312 0.10383277 0.028850645
-0.026928943 0.10472366 0.029555529
-0.025566751 0.10325034 0.031951338
-0.0246062 0.10334603 0.031519979
-0.023975767 0.10489397 0.032064497
-0.022836361 0.10425294 0.031766564
-0.022117136 0.10555906 0.030813009
-0.020811409 0.10405704 0.030730277
-0.019901697 0.10448391 0.028731942
-0.019150551 0.105832 0.027798265
0.0020147657 0.10577519 0.025475353
0.0029791107 0.10426887 0.026927054
0.0039692358 0.10419244 0.029006481
0.004994439 0.10488322 0.031557113
0.0059414753 0.10397582 0.03247723
0.0069178361 0.10376754 0.032590419
0.0079217907 0.1039735 0.032756954
0.008761392 0.10221624 0.03305763
0.010007914 0.1050831 0.031805515
0.010948366 0.10450713 0.029528856
-0.026780611 0.10513869 0.030875742
-0.025798827 0.10517984 0.032219768
-0.024673458 0.10461545 0.032311231
-0.023701193 0.10468027 0.032120645
-0.022945503 0.10574884 0.031879723
-0.022067286 0.10632419 0.031756669
-0.020871552 0.10535163 0.030793816
-0.019883573 0.10538293 0.028204769
0.002017532 0.10692919 0.02465409
0.0029953106 0.10583431 0.02586621
0.0040375157 0.10699416 0.028405875
0.0049562939 0.10507343 0.030869484
0.006001818 0.10603211 0.032263964
0.0069123362 0.10467252 0.032593966
0.0079074819 0.10477413 0.03305763
0.0089410851 0.10530611 0.033147037
0.0099198455 0.10515036 0.031805515
0.010831443 0.10437572 0.030242682
-0.026756104 0.10603345 0.030926794
-0.025876097 0.1064901 0.032372087
-0.024725799 0.10582642 0.033490956
-0.023728857 0.10579116 0.033201426
-0.022912351 0.10659225 0.032644808
-0.021922911 0.10662507 0.031916708
-0.020872204 0.10634885 0.030898422
-0.020034811 0.10718624 0.027820915
0.0030171284 0.10761092 0.025428087
0.0039584348 0.10588814 0.027884364
0.0050091702 0.10719625 0.029249907
0.0060284808 0.10750791 0.032429457
0.0068313591 0.10442221 0.03325057
0.0078592245 0.10511713 0.033563614
0.0088459589 0.10516863 0.033545703
0.009892486 0.10584961 0.032343239
0.010962682 0.106637 0.030793041
-0.026867887 0.10747155 0.032226115
-0.02573164 0.10688528 0.032978565
-0.02457081 0.1061459 0.034433722
-0.023795847 0.10708132 0.034186125
-0.022775022 0.10694358 0.034186125
-0.021954481 0.10777655 0.032279164
-0.020928303 0.10763127 0.030898422
0.0030323684 0.10916526 0.024382412
0.0039976318 0.10793607 0.027794212
0.005034287 0.10874061 0.028861463
0.0059996303 0.10799335 0.032684326
0.0069346176 0.10699125 0.033418655
0.0078505361 0.10598224 0.034385175
0.0087784473 0.10534137 0.035067052
0.0099292547 0.10723595 0.033623517
0.010959055 0.107598 0.030811876
-0.026514959 0.10704187 0.032689601
-0.025854375 0.1083895 0.033369005
-0.024530394 0.10695251 0.03485477
-0.023721671 0.10773592 0.034139395
-0.022636391 0.1072768 0.034217119
-0.022007866 0.10903897 0.032704651
-0.020884275 0.10839933 0.031312197
0.0030514554 0.11086955 0.024980545
0.0039445162 0.10748807 0.02823627
0.0049408101 0.10770967 0.028861463
0.0060057249 0.109104 0.033359796
0.0068462417 0.10660577 0.035717547
0.0078644026 0.10715249 0.035785705
0.008831135 0.10695487 0.035755545
0.0098647624 0.10752592 0.034585059
0.010904916 0.10805781 0.03086552
-0.027749486 0.10901584 0.030665427
-0.0266027 0.10838138 0.032694161
-0.025534384 0.10803009 0.034301728
-0.024683559 0.10860766 0.03524217
-0.023616467 0.10824215 0.034852684
-0.022696286 0.10854746 0.034420997
-0.021663239 0.10831621 0.033312857
-0.020704553 0.10845242 0.030915201
0.0030327581 0.11120114 0.024735779
0.0039436514 0.10845042 0.028181732
0.0049941032 0.10987028 0.029096365
0.0059994347 0.10998964 0.034111768
0.0068513504 0.10766408 0.035807431
0.0078645721 0.10813787 0.036410898
0.0088080596 0.10765406 0.035835266
0.0098390924 0.10823002 0.034356415
-0.027720278 0.1098911 0.030959219
-0.026663279 0.10961571 0.033696651
-0.025554661 0.10909875 0.034844756
-0.024616465 0.1092971 0.036140591
-0.023583068 0.10907169 0.035657048
-0.022459138 0.10838975 0.035212904
-0.02169456 0.10945892 0.035205871
-0.0208552 0.11023462 0.033689708
0.003002611 0.11109661 0.024758339
0.0039509926 0.10964005 0.028976738
0.0050138133 0.11130665 0.033359796
0.0059314328 0.10973151 0.035058171
0.0068753315 0.10902312 0.036354721
0.0078388508 0.10876406 0.037096202
0.0087701632 0.10816535 0.036354721
0.0098697888 0.10955466 0.035373986
-0.027718844 0.11087538 0.032578886
-0.02653221 0.11005953 0.034139395
-0.02537822 0.10932156 0.0351004
-0.024391077 0.10927202 0.0363065
-0.023407491 0.10923496 0.037042081
-0.022485116 0.10949274 0.035932541
-0.021541258 0.10966459 0.035153538
-0.021058496 0.11231198 0.034602106
0.0030128243 0.11247878 0.027627826
0.0039350521 0.11018146 0.030709594
0.0050522587 0.1131706 0.034484923
0.0058715888 0.109603 0.036546975
0.0068647237 0.10983558 0.037444741
0.0078328466 0.10965985 0.03781724
0.0087428344 0.10879973 0.037596434
0.0097747752 0.10947749 0.036052287
-0.027833654 0.11232867 0.03259936
-0.026698397 0.11173774 0.034844756
-0.025215577 0.10959078 0.036025196
-0.024414783 0.11035481 0.038164854
-0.023641149 0.11131041 0.03843981
-0.022489382 0.11049131 0.037864
-0.021462809 0.11024079 0.037308067
-0.020760525 0.11171139 0.034726143
-0.019702762 0.11132061 0.0330908
0.0029793521 0.11222226 0.028232694
0.0039784913 0.11239238 0.033658206
0.0049398332 0.11164023 0.036447972
0.0058776219 0.11069521 0.037596434
0.0068122018 0.1099684 0.038099736
0.0077714254 0.10977139 0.038363457
0.0087566786 0.10994497 0.038293362
0.0097689992 0.11038969 0.037596434
-0.027699156 0.11277513 0.031970769
-0.026620911 0.11239939 0.033667475
-0.025371043 0.11124226 0.036458224
-0.024372477 0.11113849 0.038551867
-0.023511877 0.11168142 0.039016992
-0.022431573 0.11118257 0.038509458
-0.021533789 0.11158418 0.038395286
-0.020714955 0.11245261 0.036419451
-0.020112757 0.11464271 0.034238935
-0.018677421 0.11206452 0.031932652
0.0029897112 0.11360902 0.031488597
0.004867401 0.11097674 0.037914455
0.0058371774 0.11090637 0.038227558
0.0068606776 0.11173103 0.040126562
0.007771017 0.11073699 0.039111316
0.0087720389 0.1111125 0.038225234
0.0098317666 0.11208215 0.037604511
-0.02749265 0.11291624 0.031836778
-0.026554435 0.11310221 0.034101248
-0.025381707 0.11226524 0.03751725
-0.024520209 0.11279295 0.038425833
-0.023412134 0.11218315 0.039614826
-0.022369685 0.11184841 0.038959801
-0.02148998 0.11233398 0.038965404
-0.020331342 0.1113383 0.038509458
-0.019817352 0.11394978 0.035928726
-0.01904883 0.11529555 0.032636613
-0.017837415 0.11396126 0.031066418
0.0019610275 0.11275908 0.031990528
0.0039219195 0.11275518 0.037202448
0.0048173047 0.11079801 0.040532619
0.0058765621 0.11263411 0.040410638
0.0068545016 0.11260967 0.040373474
0.0077888486 0.1119647 0.040076196
0.0087388232 0.11166275 0.039111316
0.009789533 0.11257963 0.037604511
-0.026694611 0.11468796 0.033132792
-0.025816208 0.11518001 0.03639105
-0.024755301 0.1148646 0.038533598
-0.023476575 0.11347011 0.039588273
-0.02260498 0.11400773 0.039032161
-0.021485999 0.11328982 0.03923896
-0.02053155 0.11341238 0.038932055
-0.019474268 0.11295076 0.03840065
-0.018773846 0.11461928 0.034817338
-0.017709708 0.11412924 0.032525539
-0.016882701 0.11519961 0.031066418
0.0019913448 0.11549801 0.033391088
0.003853017 0.1117375 0.04056111
0.0048559662 0.11265842 0.041331887
0.0058143265 0.11241031 0.041227639
0.0068023908 0.11272534 0.04132542
0.0078276927 0.11350156 0.040360272
0.0087324781 0.11255195 0.038587987
0.0097601824 0.11321813 0.037380606
-0.025490668 0.11470801 0.036674201
-0.024395544 0.11417115 0.038164228
-0.023514159 0.11463153 0.039515913
-0.022283429 0.11335483 0.039568901
-0.021406051 0.11384127 0.039548159
-0.020501854 0.11422461 0.039902538
-0.019453049 0.11380034 0.039760053
-0.018380275 0.1131838 0.037950695
-0.017903075 0.11636999 0.034944981
-0.016895249 0.11627907 0.033000916
0.0028933247 0.11283967 0.040740907
0.0038942057 0.11390551 0.042089611
0.004829593 0.11301248 0.042657107
0.0057630269 0.11237903 0.041720748
0.0067630117 0.11303891 0.041408479
0.007805123 0.11414993 0.040743768
0.0086860741 0.11291897 0.039111316
0.009798103 0.11463781 0.037292123
-0.025223095 0.11447405 0.035011858
-0.02459804 0.11610274 0.037357479
-0.023418445 0.11514069 0.038561344
-0.02256255 0.11575569 0.03942582
-0.021308107 0.11428895 0.039521068
-0.020346973 0.11433061 0.039902538
-0.019371001 0.11428891 0.040044516
-0.018578786 0.11538404 0.038401067
-0.017364079 0.1138312 0.037856847
0.0019132205 0.11288001 0.039309174
0.0029036507 0.11421027 0.041234106
0.0039107562 0.11536731 0.042557925
0.0047731129 0.11264547 0.042886466
0.0057850974 0.11377358 0.042418152
0.0067776809 0.11425234 0.041391075
0.0077642985 0.1145234 0.041046202
0.0088012405 0.11539405 0.038778514
-0.024623651 0.11720858 0.037916273
-0.023413762 0.11609324 0.039176762
-0.022512345 0.11647691 0.039198041
-0.021347573 0.11547097 0.040444493
-0.020371158 0.11543655 0.041107714
-0.01931815 0.114943 0.041107714
-0.018552855 0.11619946 0.039487213
-0.017504681 0.1157254 0.039379001
-0.016452454 0.11516718 0.037239581
0.0019291007 0.11478149 0.041158348
0.0029172786 0.11571871 0.043186516
0.0038262764 0.11383173 0.043761402
0.0048367791 0.11511534 0.043671042
0.0058351569 0.11573062 0.043186516
0.006734618 0.11448851 0.04281193
0.0077819219 0.11575609 0.041824996
0.0087284669 0.11540973 0.039498091
0 0 0 1 0 0 0 1 0 0 0 1 0 0 0 0 0 642 1 0 0
