ply
format ascii 1.0
comment PCL generated
element vertex 1104
property float x
property float y
property float z
element camera 1
property float view_px
property float view_py
property float view_pz
property float x_axisx
property float x_axisy
property float x_axisz
property float y_axisx
property float y_axisy
property float y_axisz
property float z_axisx
property float z_axisy
property float z_axisz
property float focal
property float scalex
property float scaley
property float centerx
property float centery
property int viewportx
property int viewporty
property float k1
property float k2
end_header
0.072513737 -0.13357793 0.0051047206
0.075259075 -0.1350804 0.0051026046
0.077071212 -0.13658188 0.0051516593
0.077732868 -0.13603252 0.0052368939
0.077361561 -0.13371135 0.0052670836
0.079898082 -0.13641135 0.0051216781
0.079448484 -0.1340095 0.0050278604
0.084255777 -0.13558401 0.0051442385
0.087524116 -0.13924292 0.0052328706
0.076920979 -0.14850022 0.0054718256
0.07933978 -0.15107162 0.0062210858
0.076146483 -0.14303191 0.0071625113
0.074447982 -0.13797693 0.0072882771
0.076235421 -0.13943057 0.0077276826
0.073195226 -0.13213165 0.0070722699
0.074303664 -0.13241294 0.0071417987
0.075553358 -0.13293566 0.007111609
0.074690223 -0.12977426 0.0070160329
0.076807752 -0.1318059 0.0070702732
0.077672482 -0.13166434 0.0067841709
0.077740185 -0.1301914 0.0068198144
0.079930678 -0.13226624 0.0063329041
0.081080124 -0.13258985 0.006470114
0.081102468 -0.13108423 0.0063218176
0.084126681 -0.13440929 0.0064196289
0.084577985 -0.13359477 0.0062787533
0.084981576 -0.13272403 0.0058146417
0.088927329 -0.13734332 0.0057837069
0.087913156 -0.13428493 0.0053450167
0.091975644 -0.13746898 0.0052551031
0.076968513 -0.14752299 0.0072594881
0.075689368 -0.143084 0.0090792179
0.07877741 -0.14690922 0.010811269
0.087053359 -0.16017818 0.010886997
0.087662637 -0.1591769 0.010994852
0.08251971 -0.14789246 0.01060918
0.0943432 -0.1669149 0.01087606
0.087785996 -0.1533477 0.010927618
0.095791668 -0.16524063 0.011294574
0.093188576 -0.15876572 0.011363029
0.088294208 -0.1485927 0.01123476
0.092716739 -0.15415554 0.010342896
0.094150148 -0.15467525 0.010042787
0.085384905 -0.13862491 0.0085719228
0.089952372 -0.14434218 0.0082730651
0.088700466 -0.14069729 0.007881403
0.085476078 -0.13404204 0.0078238249
0.087357417 -0.13545308 0.0070780814
0.086461507 -0.1325743 0.0070342422
0.083757132 -0.12701631 0.006509006
0.088568993 -0.13285349 0.0058613122
0.087540366 -0.12989861 0.0059500039
0.088451572 -0.12985443 0.005759418
0.09112151 -0.13236599 0.0059500039
0.091234155 -0.1311491 0.0058397651
0.092218682 -0.13119772 0.0056755543
0.094677061 -0.13332076 0.0052075684
0.062975988 -0.123253 0.0071801543
0.065126821 -0.12566724 0.0079408586
0.066437326 -0.12641546 0.0096457899
0.065875411 -0.12362919 0.011577666
0.067414388 -0.12480772 0.014249861
0.069577411 -0.12709475 0.013767391
0.068357773 -0.12322388 0.014522761
0.071770027 -0.12769473 0.013236761
0.071634576 -0.12581971 0.013903826
0.07123784 -0.12353904 0.013632298
0.0759601 -0.13008167 0.013632298
0.075376764 -0.12748909 0.013384789
0.080851682 -0.13508147 0.013384789
0.083322935 -0.13753304 0.012807459
0.080155969 -0.13073057 0.012626261
0.09144517 -0.1473881 0.011659473
0.095953204 -0.15285569 0.011559099
0.090146512 -0.14195485 0.010866016
0.10031666 -0.15617479 0.010867715
0.096142881 -0.14799522 0.010862112
0.097028226 -0.14769852 0.0098706186
0.10534883 -0.15860209 0.0086343288
0.1024188 -0.15251496 0.0086033642
0.10080125 -0.14849217 0.0090140998
0.11037377 -0.16086389 0.0086405575
0.10536727 -0.15195069 0.0086038709
0.10467986 -0.14938688 0.0084664226
0.10480123 -0.14801824 0.0083664656
0.09743467 -0.13620968 0.0077053308
0.10189978 -0.14101282 0.0073792636
0.10129996 -0.13878094 0.0061446428
0.097506769 -0.13226166 0.0058379769
0.064963907 -0.1280448 0.0061173737
0.067184329 -0.13052955 0.0084529221
0.065005243 -0.12451708 0.010363102
0.066411003 -0.12544301 0.013275981
0.069730327 -0.12990855 0.014196664
0.068272091 -0.12547302 0.016079992
0.069261439 -0.12559408 0.016848147
0.071865082 -0.12860067 0.017280072
0.070001081 -0.12363827 0.015327543
0.070274502 -0.1225299 0.015619159
0.074690208 -0.1285806 0.014455676
0.074325629 -0.12635356 0.014504075
0.074466281 -0.1250298 0.014392018
0.076361537 -0.1266484 0.014708668
0.07533177 -0.12343519 0.014425725
0.077647686 -0.1257153 0.014348865
0.0781001 -0.12496016 0.013457984
0.077093989 -0.12191607 0.014205813
0.080066852 -0.12516198 0.013459682
0.081054255 -0.12526567 0.014282674
0.081191659 -0.12406816 0.013577819
0.085294515 -0.12888949 0.013577819
0.083706386 -0.12509964 0.012508333
0.08396513 -0.12412237 0.012123346
0.089012675 -0.13016906 0.011989206
0.091313489 -0.13211313 0.011471897
0.090391897 -0.12940314 0.011410147
0.099004917 -0.14025696 0.011471897
0.09408769 -0.13191676 0.011121601
0.11109825 -0.15417716 0.010234416
0.10948787 -0.15040757 0.0098294616
0.09932071 -0.13507617 0.0088233054
0.11352926 -0.15287107 0.0076803565
0.11690128 -0.15586837 0.0063882172
0.10023715 -0.13235196 0.0055782795
0.063699692 -0.12462983 0.0075950921
0.064981863 -0.12532216 0.0098929107
0.064389236 -0.12243024 0.013790816
0.06928739 -0.12991385 0.014658779
0.067871004 -0.12551486 0.017033786
0.067704558 -0.12351507 0.018628776
0.070380472 -0.12668484 0.01949361
0.070525482 -0.12527552 0.019815505
0.07241448 -0.12696046 0.019536734
0.073863462 -0.12784061 0.019181013
0.073078588 -0.12488113 0.018717229
0.07440801 -0.12556352 0.018149644
0.075445004 -0.12574168 0.017893612
0.07403674 -0.12188976 0.017775238
0.077380531 -0.1258599 0.017775238
0.079447478 -0.12768345 0.017395705
0.079144865 -0.12570067 0.01677075
0.081620231 -0.12812477 0.017435998
0.082044095 -0.1273098 0.016888708
0.081256285 -0.12465453 0.016890407
0.083583459 -0.12678389 0.016412109
0.085877702 -0.12881656 0.016816854
0.083371945 -0.12368365 0.016389459
0.085459031 -0.12540184 0.016187519
0.086100787 -0.12498501 0.01627928
0.085817471 -0.1232485 0.014729738
0.088095628 -0.12518851 0.014402509
0.085076362 -0.11963863 0.01460129
0.088251598 -0.12282439 0.014304757
0.091946103 -0.12666045 0.0123505
0.089195885 -0.12163076 0.011754245
0.091436006 -0.12343861 0.010593385
0.094125681 -0.12581155 0.0096923113
0.092284568 -0.12214135 0.0084390044
0.10122694 -0.13267608 0.0064610541
0.096731707 -0.1255652 0.0058175921
0.065333873 -0.12688027 0.0076433122
0.065262966 -0.12493197 0.010421067
0.066043861 -0.12464616 0.014138013
0.066125646 -0.12306718 0.01646769
0.066482849 -0.12203702 0.018320203
0.070827864 -0.12825586 0.019813418
0.069257997 -0.12374096 0.02015835
0.069583274 -0.1226863 0.02027151
0.071707889 -0.12479035 0.020331919
0.071829133 -0.12339877 0.019967824
0.072528586 -0.12302317 0.019744933
0.07619606 -0.1276284 0.019715697
0.07436765 -0.12302796 0.019223958
0.078425042 -0.128158 0.019626468
0.077581502 -0.12525205 0.019366115
0.076910824 -0.12269107 0.018989861
0.07975553 -0.12573224 0.019093484
0.080609709 -0.12560117 0.019556135
0.077940181 -0.1200458 0.018834054
0.084415473 -0.12854175 0.019004792
0.082466416 -0.12416292 0.017953902
0.08369524 -0.12461291 0.018431008
0.0848509 -0.12494528 0.018341213
0.085408643 -0.12439954 0.018318564
0.085522063 -0.12322534 0.017625004
0.089627028 -0.12776619 0.01735878
0.087323792 -0.12317251 0.017436534
0.088295534 -0.12324584 0.016907901
0.091352418 -0.12619819 0.016835481
0.090670712 -0.12397832 0.015466154
0.092916533 -0.12576582 0.014127791
0.093629822 -0.12546396 0.013422877
0.090973295 -0.12069724 0.011366129
0.095112674 -0.12495194 0.010065138
0.098475128 -0.12811328 0.0093046725
0.098081231 -0.1263739 0.0074873865
0.10294621 -0.13137898 0.0060188174
0.10206234 -0.12902221 0.0053215027
0.066821858 -0.1306957 0.0055387914
0.062637128 -0.12073533 0.0086343586
0.066859573 -0.12703319 0.013777941
0.065609872 -0.122903 0.016031593
0.066809841 -0.12341262 0.018246859
0.068546183 -0.12488551 0.019715577
0.069157392 -0.1242964 0.020303249
0.067779012 -0.12019478 0.020683706
0.073748268 -0.12905948 0.020686179
0.072577819 -0.1253617 0.020669371
0.071139373 -0.12130175 0.020303249
0.07337366 -0.12352781 0.020138651
0.073839635 -0.1227584 0.020006806
0.075228564 -0.12352344 0.02003184
0.077430494 -0.12558848 0.019944936
0.07500881 -0.12019484 0.02009365
0.079757273 -0.12628235 0.019851357
0.079896793 -0.12501498 0.019976169
0.079232723 -0.12253433 0.020133942
0.082192235 -0.1256502 0.020169854
0.081961215 -0.1238732 0.020445138
0.081838511 -0.122298 0.019969672
0.087363094 -0.12910324 0.020341069
0.084404998 -0.12336115 0.019821852
0.086312145 -0.12477734 0.01971662
0.086439833 -0.12361825 0.019563407
0.088841602 -0.12570141 0.018908024
0.086973943 -0.12176353 0.018116415
0.090429448 -0.12528247 0.017993897
0.090407997 -0.12396149 0.017239481
0.093379118 -0.1267288 0.016899318
0.09370257 -0.12588325 0.015590489
0.092438146 -0.12294273 0.014910668
0.093944974 -0.12370972 0.014000118
0.094703734 -0.12348624 0.012307793
0.098431543 -0.12710091 0.011353552
0.099533439 -0.12728795 0.0095914304
0.099139087 -0.12557617 0.0085947812
0.10246894 -0.12856951 0.0067465305
0.10337444 -0.12849347 0.0056393743
0.065458298 -0.12706611 0.0068730712
0.065759815 -0.12580138 0.010464042
0.066226847 -0.12488492 0.01475814
0.06458056 -0.12006526 0.017892003
0.069331788 -0.12710828 0.019630134
0.067929201 -0.12283089 0.020138294
0.067008719 -0.11952906 0.020557255
0.071515299 -0.12586693 0.020690471
0.070723303 -0.1228352 0.020784646
0.071743853 -0.12298947 0.020715028
0.072360992 -0.12245706 0.020558268
0.075085886 -0.12545995 0.02045086
0.074690588 -0.12323947 0.020305991
0.075277761 -0.12267487 0.020198852
0.075607806 -0.12171012 0.020575374
0.076266624 -0.1212915 0.020505399
0.078635409 -0.12356994 0.020520091
0.074700929 -0.11600615 0.020292461
0.079914622 -0.12265965 0.020505756
0.080470338 -0.12209293 0.020575374
0.081324168 -0.12198626 0.020920664
0.082103662 -0.12177172 0.020830929
0.083929636 -0.12309679 0.020785749
0.08419048 -0.12212245 0.020651162
0.088011004 -0.12627666 0.020276219
0.087557547 -0.12427522 0.019924223
0.086927772 -0.12206879 0.019497931
0.08811374 -0.12243173 0.01904422
0.08964885 -0.12326717 0.018698126
0.091784485 -0.1249026 0.018219233
0.093042441 -0.12532248 0.018106252
0.089782201 -0.1197096 0.017204911
0.095280431 -0.12577017 0.016299516
0.09416844 -0.12307163 0.015158683
0.091552705 -0.11847997 0.013264596
0.097467214 -0.12490944 0.012949824
0.098188922 -0.1246244 0.011369586
0.10990771 -0.13816969 0.0096570551
0.12028762 -0.14979213 0.0084220171
0.1151424 -0.14204483 0.0081859231
0.11247484 -0.13746926 0.0059525073
0.11309739 -0.13696198 0.0050486028
0.065756179 -0.12667735 0.007135272
0.065309107 -0.12399264 0.010441065
0.064288467 -0.12031127 0.014010549
0.066440687 -0.12258775 0.016605765
0.067593247 -0.12298216 0.018198371
0.066653132 -0.11961041 0.019667089
0.069282539 -0.12264882 0.020116448
0.069767602 -0.12186074 0.020293683
0.071973428 -0.12405946 0.02052021
0.073738836 -0.12545177 0.020308018
0.071670003 -0.12036885 0.020223677
0.071227849 -0.118112 0.020198852
0.075999543 -0.12444925 0.020271033
0.073791042 -0.11934108 0.020324826
0.077736557 -0.12418889 0.020786077
0.078318581 -0.12361126 0.020786077
0.07684163 -0.11983635 0.021406651
0.07913924 -0.12196753 0.020628661
0.081732824 -0.1245 0.021428496
0.07883729 -0.11870902 0.021022946
0.082763039 -0.12320407 0.021619022
0.082441047 -0.12134581 0.021294355
0.082164705 -0.11959529 0.021550089
0.084218249 -0.12123726 0.021331012
0.086236507 -0.12279328 0.02106899
0.085963458 -0.12108832 0.020689756
0.088236526 -0.12296793 0.020592451
0.088604927 -0.12218153 0.019659013
0.089172632 -0.12168348 0.01944977
0.09277463 -0.12529358 0.019186288
0.090080976 -0.12041436 0.018897444
0.091510572 -0.12108974 0.018008769
0.093850546 -0.12294421 0.016843379
0.091126293 -0.11819351 0.015859395
0.095472142 -0.12261619 0.015523463
0.098675288 -0.12549964 0.014854223
0.10494618 -0.13219182 0.012878329
0.10460531 -0.13050757 0.011871636
0.10084096 -0.1246242 0.010824591
0.10139338 -0.12413582 0.010309398
0.10593113 -0.12849054 0.0083217621
0.1057452 -0.12708826 0.0062467456
0.1051913 -0.12527327 0.0056037903
0.06689205 -0.12788187 0.0054503381
0.063962989 -0.12050998 0.010450363
0.065450899 -0.12155168 0.013906986
0.065930225 -0.12071731 0.016929507
0.066729978 -0.12048468 0.018231064
0.069077857 -0.12301537 0.019729406
0.068980753 -0.1211824 0.020181477
0.069817103 -0.12101632 0.020303249
0.071184032 -0.12176216 0.020555824
0.071260609 -0.12031012 0.020435274
0.072514057 -0.12085675 0.020321965
0.073078386 -0.12025557 0.020169228
0.074091151 -0.12039812 0.020056278
0.075616151 -0.12135926 0.020079851
0.075710393 -0.12002867 0.020432949
0.074439198 -0.11659151 0.020259827
0.07956887 -0.12314229 0.020556271
0.078808732 -0.12053101 0.020196766
0.078490347 -0.11864819 0.020603955
0.080624543 -0.12047345 0.020462841
0.082099289 -0.12128305 0.020934075
0.080770843 -0.11797988 0.020925999
0.083226636 -0.12021625 0.021331012
0.08301951 -0.1185993 0.021199286
0.084758744 -0.11976779 0.021218091
0.088624217 -0.12388331 0.020916373
0.087998234 -0.12169968 0.020929068
0.087565586 -0.11982659 0.020592451
0.089779742 -0.12157673 0.020450771
0.088470004 -0.11856805 0.019892454
0.091567054 -0.1214665 0.019490629
0.093606591 -0.12291775 0.018874675
0.091991007 -0.11958831 0.018021554
0.09172675 -0.11806414 0.017184079
0.095714845 -0.12198951 0.016726047
0.092764765 -0.11708174 0.015859395
0.10249256 -0.12811571 0.015505314
0.098480068 -0.12192771 0.013676792
0.098816119 -0.12118958 0.012269378
0.10458555 -0.12706657 0.011069417
0.10256118 -0.12345327 0.0096507967
0.10355493 -0.12350588 0.0082270205
0.10726026 -0.12676212 0.0068503916
0.10523712 -0.12325068 0.0058044791
0.06505014 -0.12340394 0.0052928925
0.066239767 -0.12383956 0.010450363
0.06612958 -0.12186737 0.013812244
0.06469851 -0.11755081 0.01690951
0.0671359 -0.12028515 0.018721044
0.067988515 -0.12014409 0.019835472
0.067880742 -0.11833264 0.020370424
0.070199989 -0.12074398 0.020418912
0.070860438 -0.12027627 0.020779878
0.068860501 -0.11536369 0.020571887
0.073728003 -0.12193477 0.020871013
0.073748469 -0.12042471 0.020538419
0.075236775 -0.1213193 0.020497948
0.073446199 -0.11696988 0.020681411
0.074385241 -0.11702068 0.021433294
0.076559298 -0.11898974 0.020787686
0.080104239 -0.12301722 0.020826161
0.077070601 -0.11696596 0.020703912
0.080624416 -0.12093662 0.021023661
0.080923982 -0.11999074 0.020686835
0.080507502 -0.11801668 0.020911962
0.085460536 -0.12386977 0.020709872
0.084032826 -0.12044705 0.020934075
0.08127448 -0.11521327 0.020913184
0.086874768 -0.12181354 0.020565718
0.085171163 -0.11814065 0.020129472
0.085523374 -0.11736719 0.020406842
0.089653462 -0.12173996 0.019411772
0.088178352 -0.11848966 0.019497663
0.090649568 -0.12055457 0.019155324
0.091318205 -0.12020458 0.019026488
0.090984613 -0.11855571 0.018341601
0.093743056 -0.12092854 0.017558038
0.096827544 -0.12367082 0.017069876
0.094295949 -0.11925665 0.016796738
0.095825695 -0.1200147 0.016266823
0.10053392 -0.12470073 0.015538573
0.095381215 -0.11718263 0.014582634
0.10215773 -0.12432402 0.012872726
0.097169317 -0.11714806 0.012026668
0.099535406 -0.11888951 0.010402411
0.10591996 -0.12535481 0.0098542869
0.10296311 -0.12074765 0.0083504617
0.1024899 -0.11910988 0.0067759752
0.10575428 -0.12180627 0.0055448115
0.067232743 -0.12655576 0.0053533614
0.066257529 -0.12291252 0.01005289
0.065115675 -0.11906866 0.013742596
0.066023104 -0.11902757 0.016341239
0.067140684 -0.11936122 0.018032402
0.067813568 -0.11890598 0.019738644
0.070196457 -0.1214209 0.020316899
0.069937065 -0.11935926 0.020393968
0.070745282 -0.11914995 0.020765334
0.074199751 -0.12334504 0.020541131
0.070648998 -0.11593681 0.020842224
0.072210751 -0.1169997 0.020657837
0.074582987 -0.11933278 0.020759106
0.074354172 -0.11749795 0.020760447
0.076424435 -0.11929668 0.02121672
0.07577455 -0.11685714 0.020733058
0.07713598 -0.11754054 0.020901769
0.078626178 -0.11840178 0.020772219
0.080870643 -0.1203656 0.021105081
0.07958129 -0.11708511 0.020820677
0.084652103 -0.12313033 0.021023661
0.082411587 -0.11852453 0.020714819
0.083337016 -0.11852376 0.020909041
0.086944088 -0.12229498 0.020565718
0.088628963 -0.12330987 0.020417392
0.085213885 -0.11728363 0.020196736
0.088594295 -0.12063903 0.020788461
0.087609634 -0.11804245 0.019613683
0.090443313 -0.12059109 0.019569486
0.092948861 -0.12265417 0.019280732
0.090449959 -0.11813872 0.019292474
0.0925944 -0.11971802 0.018538386
0.093853354 -0.1201323 0.01794821
0.091806792 -0.1163492 0.017278492
0.097773209 -0.12269579 0.01700902
0.094368242 -0.11727315 0.01664716
0.098380692 -0.12108393 0.01559937
0.099462397 -0.1212494 0.015173167
0.099684343 -0.12037355 0.01397261
0.095842488 -0.11465269 0.013231784
0.10175492 -0.12059842 0.011707902
0.10239667 -0.12024563 0.010402411
0.10193194 -0.11861172 0.0094913542
0.10562182 -0.12179814 0.0080458522
0.10298829 -0.1177009 0.0065163076
0.066927172 -0.12499633 0.0052649081
0.062942557 -0.11585079 0.0086587965
0.065859914 -0.1194887 0.01312232
0.065964863 -0.11799349 0.016025692
0.067669027 -0.11936064 0.017589539
0.068909809 -0.11988419 0.019368917
0.06837061 -0.11733875 0.019728065
0.069493286 -0.1176753 0.020004988
0.073536888 -0.12288401 0.020303845
0.072320931 -0.11928257 0.020288706
0.072633967 -0.118263 0.020252287
0.075625591 -0.12157531 0.020206034
0.071682639 -0.1137962 0.020214438
0.074647181 -0.1170394 0.020311773
0.077080771 -0.1193812 0.020968467
0.07656379 -0.11715182 0.020137519
0.08004275 -0.12101701 0.020599425
0.078239076 -0.11689839 0.020313531
0.078082815 -0.11530834 0.020600438
0.080041878 -0.11684275 0.020492226
0.081885204 -0.11817523 0.02094847
0.082235038 -0.11734662 0.02080521
0.085426308 -0.12054601 0.020804971
0.084505014 -0.11793558 0.020757467
0.084062859 -0.1160433 0.020828307
0.087190636 -0.11906678 0.020765096
0.088037774 -0.11894465 0.020665437
0.086666055 -0.11585883 0.019801736
0.09082219 -0.12015019 0.019615442
0.088945687 -0.11645467 0.019007087
0.091221482 -0.1182156 0.019165844
0.095191427 -0.12211426 0.018311441
0.089593291 -0.11378348 0.017811894
0.094095528 -0.11831814 0.017399192
0.095273703 -0.1186251 0.016972691
0.093039781 -0.11471895 0.016631365
0.098579071 -0.12038022 0.01559937
0.095202468 -0.11514965 0.01508975
0.097801059 -0.11717674 0.014499664
0.10211293 -0.12119947 0.013168275
0.10033619 -0.11798792 0.011711836
0.1012479 -0.11796773 0.010321587
0.10349433 -0.11948891 0.0094718933
0.10254543 -0.11732675 0.0080334842
0.10659778 -0.12087427 0.0065163076
0.065793127 -0.12014396 0.0085655153
0.067834385 -0.1221019 0.012813151
0.064250618 -0.11402223 0.015240848
0.068620227 -0.1200854 0.01682809
0.066883646 -0.115443 0.019149333
0.068969138 -0.11743394 0.019712508
0.069893032 -0.11742029 0.019827902
0.071471125 -0.1184916 0.020234287
0.070318028 -0.11506586 0.020209134
0.073154338 -0.11817239 0.020408213
0.073244877 -0.11682095 0.020424813
0.076745093 -0.12087353 0.020294607
0.075371124 -0.11724397 0.020324618
0.074967004 -0.1151932 0.021128774
0.078201987 -0.11871627 0.020086229
0.078252785 -0.11737918 0.020271003
0.075484671 -0.11189493 0.020208538
0.081999682 -0.12013906 0.020778209
0.082207002 -0.11905842 0.020500779
0.082474403 -0.11808835 0.020968795
0.084370077 -0.11944528 0.020523012
0.084897257 -0.11885616 0.02067247
0.083339259 -0.11539282 0.020605236
0.086084008 -0.11789767 0.020722985
0.08535213 -0.11563837 0.020682395
0.087682299 -0.11753159 0.020484507
0.089770205 -0.11906364 0.01972726
0.088275887 -0.1158621 0.020139426
0.089866929 -0.11673436 0.018874675
0.089379825 -0.11491692 0.018996298
0.090132669 -0.11471431 0.018189996
0.093835339 -0.11823253 0.017738551
0.094509616 -0.11790309 0.017278492
0.093591355 -0.11561285 0.016972691
0.098039031 -0.11993124 0.016681552
0.096716143 -0.11717533 0.015859395
0.09629143 -0.11554971 0.015324682
0.10017901 -0.11908071 0.014569312
0.099570461 -0.1172512 0.013237208
0.099164538 -0.11569196 0.011707902
0.10221345 -0.118155 0.010402411
0.10520966 -0.12051289 0.009650439
0.10278636 -0.11667641 0.0086623132
0.1038928 -0.11687939 0.006685555
0.1086119 -0.12110708 0.0057551265
0.066300616 -0.12010981 0.007101655
0.064942159 -0.11596814 0.011025965
0.067461789 -0.11877076 0.014865428
0.066158965 -0.11485932 0.016651273
0.066552445 -0.11395967 0.018539637
0.06838654 -0.1155178 0.019653708
0.070723973 -0.11787328 0.019751817
0.070334345 -0.11568148 0.020092458
0.071250871 -0.115667 0.019926727
0.071997687 -0.11538091 0.020160764
0.072568513 -0.1148236 0.020255119
0.075111143 -0.11736116 0.020324618
0.075100154 -0.1158953 0.020068228
0.077319987 -0.11786584 0.020324618
0.077502951 -0.11672132 0.020029068
0.078884989 -0.11738838 0.019925922
0.079626583 -0.11709791 0.020097256
0.080820061 -0.11747102 0.02050823
0.078125961 -0.11224995 0.020485133
0.084013 -0.11933665 0.020471901
0.082652904 -0.11608554 0.020289183
0.083019905 -0.11530542 0.020665437
0.086283147 -0.11852081 0.020214647
0.084685817 -0.11506226 0.020665437
0.085355744 -0.11472546 0.02067247
0.088347763 -0.11748373 0.02044183
0.088654712 -0.11665094 0.019615442
0.09040343 -0.1177128 0.019319266
0.090687253 -0.11686502 0.019085735
0.088991039 -0.11350898 0.019311935
0.091938056 -0.11608341 0.018244952
0.091887578 -0.11485948 0.017738551
0.092859142 -0.11492468 0.017351836
0.094604455 -0.11593683 0.01712811
0.096203662 -0.11675201 0.016726047
0.097267553 -0.11690812 0.015859395
0.10109929 -0.1203563 0.015384555
0.10176311 -0.12000366 0.014758289
0.10185927 -0.11899447 0.01344344
0.10205188 -0.1181156 0.012187868
0.1014456 -0.1163367 0.010546297
0.10208567 -0.11600645 0.0097999275
0.10579354 -0.11913686 0.0080714524
0.10373602 -0.11577681 0.0065430403
0.10959245 -0.12123059 0.0057197511
0.06407176 -0.11514346 0.0067929029
0.066102184 -0.1170953 0.0098158121
0.065987967 -0.11524659 0.01439026
0.067211181 -0.11575259 0.015986472
0.067910157 -0.11535424 0.017399758
0.0687242 -0.11515947 0.019541442
0.068900913 -0.11391617 0.019643605
0.070373192 -0.11481941 0.019869417
0.070739307 -0.11391784 0.019888908
0.072302572 -0.11494255 0.020096242
0.074094296 -0.11629991 0.020269454
0.073320568 -0.11364687 0.020365119
0.074866436 -0.11461035 0.019890577
0.075851113 -0.11470169 0.020042479
0.075356349 -0.11258058 0.020042479
0.078987084 -0.11659998 0.019630373
0.079834029 -0.11646376 0.019910604
0.078724854 -0.11351026 0.020133197
0.080540203 -0.11479294 0.019769162
0.083535105 -0.11770856 0.020008355
0.080829822 -0.11261683 0.019844443
0.085535593 -0.11784904 0.020235032
0.084480129 -0.11511578 0.019940734
0.085979886 -0.11588594 0.020458102
0.08690656 -0.11587541 0.020458102
0.08871273 -0.1170253 0.020125866
0.08621794 -0.1125371 0.019978166
0.090363108 -0.11671901 0.019760191
0.087238863 -0.11152185 0.019195378
0.092747115 -0.1173535 0.019760191
0.091178134 -0.11420292 0.018167526
0.092192255 -0.1143184 0.017694056
0.094518304 -0.11604227 0.01700902
0.097247973 -0.11822303 0.016806334
0.094115697 -0.11330433 0.016115308
0.10162611 -0.12116959 0.015512198
0.097803392 -0.11550115 0.014791012
0.098792747 -0.11556888 0.013943523
0.10400764 -0.12053221 0.012961119
0.10120287 -0.11619589 0.011751592
0.10275046 -0.11689042 0.0099274814
0.10600036 -0.11949131 0.0076916814
0.10409188 -0.11628282 0.0069817603
0.10569925 -0.11702417 0.0058943629
0.065850079 -0.115708 0.00952214
0.0640947 -0.11103731 0.012871563
0.071134306 -0.1215211 0.015115917
0.069161557 -0.11653249 0.01674667
0.067744553 -0.11260244 0.019436002
0.069462754 -0.11391892 0.019629866
0.070362598 -0.11387631 0.019781947
0.069851868 -0.11158156 0.019849479
0.072314598 -0.11403456 0.020220339
0.072958425 -0.1135935 0.020315588
0.074476145 -0.11450707 0.020365119
0.078412779 -0.11907126 0.019851416
0.076213986 -0.11432097 0.019851416
0.076368645 -0.11317281 0.019851416
0.076750584 -0.11238478 0.019539267
0.076568305 -0.11079884 0.019604623
0.080445737 -0.11505611 0.020001203
0.080959767 -0.11446036 0.019627988
0.080426596 -0.11241444 0.020008355
0.082576543 -0.11412264 0.019887239
0.083797485 -0.11452322 0.020287633
0.083385527 -0.11270791 0.019967884
0.08759623 -0.11711235 0.02060923
0.084603652 -0.11189515 0.02060923
0.085861646 -0.11235087 0.020411015
0.089634307 -0.11605284 0.020235032
0.085903212 -0.11006349 0.019854277
0.088615574 -0.1123682 0.018874854
0.090333097 -0.11337726 0.019760191
0.090945482 -0.11299287 0.018042415
0.096724324 -0.11897092 0.017600328
0.094902381 -0.11557419 0.016681552
0.092253886 -0.11124733 0.016480684
0.095447943 -0.11398152 0.015527308
0.098015353 -0.115922 0.015032083
0.097533554 -0.11425359 0.013088524
0.10195092 -0.11830155 0.012320489
0.10045347 -0.11547454 0.011600077
0.10040861 -0.11435426 0.010594428
0.10474764 -0.11820146 0.0081380904
0.104661 -0.11703002 0.0069207251
0.10270143 -0.11380429 0.0062893331
0.065762214 -0.11461414 0.007902056
0.06938605 -0.11922674 0.010275632
0.06765724 -0.11464143 0.014341891
0.06837485 -0.1142703 0.016227663
0.07332252 -0.12088307 0.017229348
0.070029162 -0.11391409 0.017573625
0.069878526 -0.11217342 0.019236803
0.071792603 -0.11374932 0.019292802
0.073195755 -0.11448567 0.019798368
0.073641837 -0.11372537 0.01984939
0.075271323 -0.11478877 0.019750983
0.073666215 -0.11095405 0.019351304
0.077998251 -0.11604618 0.019474834
0.078809895 -0.11584105 0.019532323
0.075140595 -0.10913277 0.019069165
0.07903035 -0.11343179 0.01839605
0.081574656 -0.11572219 0.019353986
0.078685448 -0.11034051 0.019112408
0.080007292 -0.1109192 0.01912719
0.082454517 -0.11302754 0.019353986
0.084262274 -0.11422219 0.019854277
0.085870706 -0.11512336 0.019627988
0.08429753 -0.11178585 0.02003631
0.085694246 -0.1124161 0.019933164
0.088982612 -0.11548807 0.0195795
0.087603718 -0.11250162 0.01993221
0.089136511 -0.11327764 0.019692808
0.091475695 -0.11505191 0.019863844
0.089464597 -0.1113743 0.019750029
0.092401758 -0.11386883 0.0180493
0.094500937 -0.11529114 0.017782539
0.092463434 -0.11168851 0.016972691
0.095849454 -0.11464347 0.016531795
0.097490825 -0.11547457 0.015075892
0.099132456 -0.11629 0.013930202
0.10171547 -0.11818368 0.011600077
0.098854207 -0.1137756 0.010129988
0.10388191 -0.1184448 0.009650439
0.10372932 -0.11717572 0.0066972673
0.10476456 -0.11725941 0.0062756836
0.10446183 -0.11585767 0.0053994358
0.066040851 -0.11415634 0.0053278804
0.069026046 -0.11763594 0.0085699558
0.068507172 -0.1151301 0.010863245
0.06964837 -0.11544456 0.014583081
0.07076811 -0.11571542 0.016310215
0.069008693 -0.11133403 0.01682958
0.071563683 -0.11393692 0.018252194
0.070840731 -0.11132114 0.018350124
0.072223015 -0.11203826 0.019115686
0.073620945 -0.11276119 0.019664437
0.074687481 -0.11296481 0.019565254
0.075642876 -0.11299738 0.018745154
0.077165306 -0.11386588 0.018868685
0.076387353 -0.11135988 0.018839359
0.077663854 -0.11187293 0.018515557
0.079679094 -0.11342554 0.018521845
0.080602013 -0.11340515 0.018413782
0.082586937 -0.11486229 0.018007845
0.080748998 -0.11102987 0.017809123
0.081879809 -0.11131974 0.017943919
0.085525393 -0.11498414 0.018342823
0.082991287 -0.11035106 0.018587142
0.08522176 -0.11208514 0.018996119
0.08723516 -0.11349951 0.01854381
0.08734332 -0.1124313 0.019016147
0.086289614 -0.10990572 0.018214583
0.090339459 -0.11386536 0.018035978
0.090965353 -0.11347224 0.018172532
0.092108525 -0.11372583 0.018214583
0.092363954 -0.11288928 0.01747185
0.090521991 -0.10953161 0.016869932
0.096220836 -0.11527447 0.015871525
0.095591985 -0.11339833 0.01497373
0.092271537 -0.10839666 0.012911528
0.10262305 -0.11939797 0.010418057
0.10228477 -0.11787103 0.0079638362
0.10103936 -0.11533739 0.0069193244
0.10512946 -0.11888471 0.0064739883
0.10347725 -0.11593284 0.0054849088
0.064374253 -0.10880155 0.0053323209
0.073117919 -0.12186319 0.0087056756
0.077187046 -0.12688281 0.011996776
0.069921836 -0.11338677 0.014673769
0.070320003 -0.11251201 0.016125202
0.06985043 -0.11029015 0.01681748
0.072068162 -0.11231402 0.017499626
0.073754609 -0.11346862 0.017572969
0.073645987 -0.11186732 0.018232942
0.075360633 -0.11304095 0.018524289
0.075644828 -0.11206641 0.018065929
0.075869709 -0.11102885 0.018024415
0.078061678 -0.11286026 0.017939687
0.080243155 -0.11463308 0.017904252
0.077511929 -0.1094286 0.017749637
0.080347508 -0.11211281 0.017809838
0.081709407 -0.11270263 0.017338276
0.080590874 -0.10989664 0.017083406
0.082931437 -0.11181767 0.017399341
0.083263211 -0.11101761 0.017319769
0.086194582 -0.11366319 0.0175156
0.087149821 -0.11367369 0.017964274
0.086131334 -0.1111372 0.017142653
0.086392127 -0.11028782 0.017477155
0.088060774 -0.11123466 0.01747185
0.089833297 -0.11229162 0.017269135
0.088953145 -0.11004512 0.017414778
0.093717448 -0.11475606 0.01747185
0.088442758 -0.10720334 0.016172618
0.09660279 -0.11592335 0.015377581
0.094740577 -0.11256307 0.014163464
0.093978859 -0.11056336 0.011301816
0.09494675 -0.11061757 0.0093208849
0.099970199 -0.11535023 0.0067704618
0.10142527 -0.11591459 0.0061608255
0.067888215 -0.11220413 0.0054044724
0.066252992 -0.10800145 0.0087524652
0.070990816 -0.1141609 0.011923254
0.069372952 -0.11007176 0.014657795
0.070302822 -0.11007942 0.015475541
0.072368473 -0.11184219 0.016085297
0.071955487 -0.10977824 0.016404569
0.073290206 -0.11039918 0.016652048
0.075301416 -0.11201085 0.017357647
0.075275652 -0.11059015 0.017000526
0.077563666 -0.1125619 0.017268479
0.076978497 -0.11036676 0.017792374
0.077012062 -0.10910042 0.017684549
0.079473808 -0.11126333 0.017464608
0.081778646 -0.11315882 0.017684549
0.079324037 -0.10850069 0.017151117
0.082330905 -0.11133384 0.016875833
0.081710517 -0.10925339 0.017075658
0.081529476 -0.10780008 0.017112195
0.08615946 -0.11267006 0.01705128
0.084118709 -0.10880572 0.016821861
0.084619224 -0.10827621 0.016598433
0.089844979 -0.11373992 0.016359478
0.087718815 -0.10987936 0.015753657
0.090986378 -0.1127852 0.015507728
0.089603059 -0.1099254 0.015096843
0.08923398 -0.10835554 0.015332669
0.090157382 -0.108371 0.013923138
0.10137554 -0.1206369 0.012560308
0.092413962 -0.10888378 0.0099342465
0.097898245 -0.11421462 0.0069933534
0.096912988 -0.11196744 0.0061985254
0.068962522 -0.11147367 0.0056077838
0.068426207 -0.10911206 0.0087524652
0.068791054 -0.10823125 0.010909736
0.071479604 -0.11098149 0.012800038
0.069947205 -0.10719182 0.014412582
0.072460532 -0.10961978 0.01469779
0.074781053 -0.11169828 0.015932739
0.073400013 -0.10826501 0.016238928
0.076156214 -0.11094362 0.015905023
0.079682112 -0.1146645 0.01645112
0.075334139 -0.10710154 0.016873002
0.079883054 -0.11221667 0.017018199
0.080177106 -0.11130469 0.017052114
0.078496888 -0.10770503 0.01705873
0.08172261 -0.11084216 0.016459674
0.080545679 -0.10800443 0.016223848
0.082460307 -0.10932939 0.016498655
0.086026371 -0.11279013 0.016441792
0.083700053 -0.10853413 0.016165882
0.086202838 -0.11056451 0.016098112
0.087679729 -0.11124955 0.015942872
0.087862507 -0.11029548 0.015532613
0.08781904 -0.10908049 0.01371491
0.091077447 -0.11194936 0.013250858
0.088530563 -0.10769697 0.012930542
0.093020439 -0.1120042 0.012971371
0.091003671 -0.10846902 0.011537641
0.091551267 -0.10803049 0.0085006654
0.103239 -0.12061586 0.0064924359
0.072585583 -0.11476368 0.0062486827
0.076219738 -0.11890279 0.0087845325
0.075367935 -0.11602695 0.010448158
0.075428635 -0.11461234 0.012182266
0.077171929 -0.11575789 0.013936371
0.077498764 -0.11477665 0.01444
0.078509361 -0.11481994 0.015862852
0.079206258 -0.11440904 0.015548497
0.077301599 -0.11029618 0.015866041
0.078426071 -0.11055242 0.015688658
0.07946565 -0.1106843 0.016397804
0.077826522 -0.10712592 0.016574681
0.080320567 -0.10927333 0.0163683
0.0822125 -0.11056164 0.016137213
0.081627131 -0.10852697 0.015827507
0.083340451 -0.10955992 0.016076446
0.085512169 -0.11116582 0.016006082
0.083864897 -0.10782629 0.015802175
0.08700414 -0.11064657 0.015564203
0.085937999 -0.10811555 0.014232874
0.085954547 -0.10698598 0.013428092
0.088206924 -0.10863379 0.011983842
0.087408349 -0.10652892 0.011787593
0.088507533 -0.10675651 0.0098247528
0.093563549 -0.11170342 0.0084209442
0.092167005 -0.10892464 0.0072982013
0.073461279 -0.11362012 0.0060813725
0.074381135 -0.11352911 0.0086791813
0.074990876 -0.11297327 0.011019379
0.075306408 -0.11199414 0.011657447
0.074824736 -0.10986923 0.014057636
0.075948507 -0.11012533 0.014997691
0.074996419 -0.10740228 0.015109658
0.076912113 -0.1088025 0.015745401
0.07984928 -0.11159659 0.016334891
0.076918468 -0.10622074 0.016851664
0.080059037 -0.10925704 0.016682386
0.082029492 -0.11064444 0.016768813
0.079680093 -0.10624012 0.01649332
0.084275462 -0.11109038 0.016236663
0.082892768 -0.10804001 0.016397804
0.085033879 -0.10959923 0.016107142
0.088423751 -0.11271599 0.015314877
0.089853793 -0.11329392 0.014953703
0.090646505 -0.11306446 0.012776136
0.093152277 -0.11495388 0.01182723
0.091559649 -0.11179915 0.010784477
0.093782701 -0.11332076 0.008169651
0.093978219 -0.11238632 0.0053830445
0.073675133 -0.11148211 0.0068074465
0.074520566 -0.11129695 0.0095139742
0.074563615 -0.10993354 0.010354996
0.076897994 -0.11194012 0.011577845
0.075120911 -0.10798631 0.013741106
0.077924013 -0.11063286 0.014066786
0.078419961 -0.10997922 0.015228987
0.076301858 -0.10571944 0.015163213
0.080644883 -0.11040669 0.016310155
0.080253571 -0.10857835 0.016574681
0.079125375 -0.10580719 0.016643167
0.081524901 -0.1077628 0.016475648
0.082410023 -0.10769492 0.016007274
0.082788132 -0.10697342 0.0163427
0.084312446 -0.10773257 0.015726417
0.085625343 -0.10820785 0.014289737
0.086875714 -0.10859464 0.013530344
0.089653388 -0.11086172 0.011752576
0.091858752 -0.11238039 0.010340542
0.092469692 -0.111937 0.0074585974
0.097658984 -0.11698733 0.0050111711
0.073187582 -0.10978137 0.0056050718
0.073459715 -0.10875854 0.0077646673
0.077218629 -0.112858 0.0088762045
0.074378595 -0.10733113 0.0095792413
0.07698901 -0.10970934 0.011498392
0.078334033 -0.1102479 0.013047367
0.077489965 -0.10772995 0.01376605
0.080806188 -0.11098681 0.015074909
0.078583412 -0.10664892 0.015788376
0.076920807 -0.10316437 0.016397804
0.081227884 -0.10767417 0.016379863
0.081070296 -0.10623004 0.016219556
0.08088804 -0.10478678 0.015954047
0.084622167 -0.10839243 0.015761077
0.083437122 -0.10568702 0.015164912
0.08540114 -0.10698605 0.013233334
0.089134969 -0.11044985 0.012676358
0.089104667 -0.10922508 0.010340542
0.091250025 -0.11066492 0.0077905059
0.074888997 -0.10990203 0.0050414801
0.074494712 -0.10792183 0.0070780218
0.074191816 -0.10612247 0.009218514
0.075251542 -0.10629281 0.01066795
0.075246349 -0.10497331 0.012151331
0.07854525 -0.10823919 0.013596624
0.080386996 -0.10944253 0.014546722
0.077072404 -0.10368074 0.015630722
0.082852729 -0.11014539 0.015930295
0.082191087 -0.10799527 0.016317338
0.07862971 -0.10212824 0.015943021
0.08293964 -0.10650204 0.015552104
0.081669755 -0.10369307 0.014561653
0.083071873 -0.10430135 0.014107823
0.088819832 -0.11029276 0.013269275
0.087105758 -0.10698859 0.010921031
0.089745946 -0.10904615 0.0081007481
0.074618183 -0.10714405 0.0054099858
0.076931693 -0.10906771 0.0082987249
0.074930049 -0.10490207 0.0095792413
0.076999061 -0.10646784 0.010998726
0.077603988 -0.10599568 0.013326794
0.076638699 -0.10341608 0.014283121
0.079010375 -0.10534716 0.015296012
0.081045166 -0.10678893 0.015896082
0.078918412 -0.10277747 0.016085446
0.080587409 -0.10374471 0.015851676
0.080429845 -0.10236526 0.014539808
0.082543954 -0.10387554 0.014311731
0.087736547 -0.10918326 0.013350546
0.084977381 -0.10458755 0.011152923
0.087109804 -0.10604671 0.0081609488
0.091970414 -0.11076006 0.0055209994
0.07661768 -0.10903285 0.0064543188
0.075199284 -0.10565975 0.0087095201
0.076191239 -0.10571535 0.0097551644
0.076463602 -0.10478345 0.011124581
0.075532265 -0.1022449 0.013259053
0.076099351 -0.10177142 0.014458567
0.079448156 -0.10498507 0.015654296
0.077717163 -0.10148947 0.016310155
0.079132974 -0.10213674 0.016301334
0.080968082 -0.10330411 0.016147852
0.081635237 -0.10297172 0.014987767
0.08398734 -0.10474826 0.014313459
0.083425805 -0.10289183 0.01327002
0.086286604 -0.10525069 0.010292113
0.090921991 -0.10969936 0.0072029233
0.074187838 -0.10462388 0.0063633323
0.072696492 -0.10122296 0.0087217093
0.076529033 -0.10522742 0.0097098053
0.074710645 -0.1014589 0.011135191
0.075524658 -0.10131357 0.013286442
0.080018423 -0.10604851 0.014658391
0.077148728 -0.10102809 0.015640885
0.079682842 -0.10311897 0.016271949
0.079913236 -0.1022146 0.016004205
0.07988219 -0.10100047 0.016056061
0.082934149 -0.10366768 0.01507023
0.083363675 -0.10303375 0.014311731
0.084161721 -0.10286433 0.013355762
0.088060424 -0.10644666 0.010787725
0.085084729 -0.10173174 0.0079051852
0.07449878 -0.10410727 0.0063450634
0.074081957 -0.10221435 0.0092820525
0.074819781 -0.10194195 0.010232627
0.077432938 -0.10419989 0.011827469
0.079897128 -0.10620472 0.013275951
0.079185955 -0.1039912 0.014606535
0.07980448 -0.10355581 0.015585095
0.078590252 -0.10078044 0.015918106
0.080420695 -0.10192855 0.015908748
0.081657454 -0.10230646 0.015918106
0.082636818 -0.10235696 0.015467852
0.082514398 -0.10105696 0.01431483
0.085024461 -0.10297406 0.01320219
0.085358635 -0.10224276 0.010611951
0.08754497 -0.10372175 0.0078449845
0.07652241 -0.10595411 0.0063450634
0.07465703 -0.10206278 0.009529382
0.075802825 -0.10233381 0.010256171
0.077325448 -0.1031006 0.011789471
0.074768923 -0.098476142 0.013157576
0.077809781 -0.10124646 0.014748126
0.079144076 -0.10175667 0.015757322
0.077541344 -0.098523125 0.015896797
0.081246719 -0.10203076 0.01583603
0.083310939 -0.10342048 0.015991092
0.081982069 -0.10061436 0.015467852
0.084935352 -0.10306761 0.014336675
0.084223643 -0.10106838 0.013157576
0.086545385 -0.1027132 0.010567337
0.088890232 -0.1043494 0.0078449845
0.075778827 -0.10395301 0.0050802529
0.076425932 -0.10351361 0.009634167
0.076616287 -0.10247428 0.010334194
0.076147415 -0.1005898 0.011789471
0.075194739 -0.098119967 0.013049662
0.079062946 -0.10192452 0.014751881
0.077992968 -0.09934818 0.015761077
0.079397924 -0.099947974 0.015904993
0.081278615 -0.10112572 0.015755922
0.080509573 -0.099017516 0.016004205
0.083819151 -0.10191646 0.015552312
0.083107479 -0.099915728 0.014315248
0.086010829 -0.10225732 0.013073504
0.087785989 -0.10322089 0.010545343
0.087549038 -0.10182334 0.0071671307
0.077370077 -0.10381301 0.0076506436
0.074398488 -0.098577991 0.0095666051
0.076478094 -0.10008245 0.010834247
0.076693922 -0.09914092 0.012671888
0.076897144 -0.098205991 0.013528049
0.077726312 -0.098083198 0.014751881
0.080855101 -0.10083107 0.015157253
0.080115616 -0.098747157 0.015008181
0.08150281 -0.099302277 0.015554607
0.082790904 -0.09972541 0.014316082
0.082234778 -0.097942546 0.013391465
0.085938275 -0.10121619 0.01089254
0.084897809 -0.098891951 0.0094296038
0.085812286 -0.09887068 0.0058383644
0.0779415 -0.10229822 0.0083996654
0.077344008 -0.10026076 0.0099595785
0.07658302 -0.098063625 0.010744333
0.077606812 -0.098177299 0.01267311
0.078879774 -0.098599717 0.013375223
0.078267388 -0.096683249 0.013458163
0.081320859 -0.0992871 0.013801008
0.082009993 -0.098977581 0.013987362
0.082568824 -0.098519616 0.013288796
0.084018737 -0.099123232 0.010909587
0.084955648 -0.099114925 0.0099464357
0.085635424 -0.098810107 0.008030206
0.089441039 -0.10207945 0.0051628351
0.076230265 -0.097875901 0.0091015697
0.077545874 -0.09835086 0.010175526
0.078972615 -0.098953635 0.010879308
0.078023031 -0.096599944 0.01204896
0.079503961 -0.097275436 0.012714505
0.081402086 -0.098439738 0.012628496
0.081262343 -0.097141184 0.012822181
0.082563557 -0.097575113 0.010830075
0.080815718 -0.094436347 0.010060608
0.082448311 -0.095273606 0.0077080131
0.086624369 -0.098999284 0.0057982504
0.082265496 -0.1033335 0.0081124604
0.077067435 -0.095637903 0.0095295608
0.080177315 -0.098312661 0.0098322332
0.079182707 -0.095950812 0.0097743571
0.080119886 -0.09595754 0.010099918
0.081594691 -0.096600614 0.010152608
0.082873784 -0.097000003 0.0090078115
0.082521021 -0.095501855 0.0068652332
0.085622095 -0.097989731 0.0050931573
0.083313912 -0.094300359 0.005028367
0.079894409 -0.097014636 0.0063658953
0.077843226 -0.093411878 0.0081017017
0.080782734 -0.095812075 0.0085754395
0.08229585 -0.096484788 0.0082198977
0.081779592 -0.094789982 0.0062307119
0 0 0 1 0 0 0 1 0 0 0 1 0 0 0 0 0 1104 1 0 0
