ply
format ascii 1.0
comment PCL generated
element vertex 1183
property float x
property float y
property float z
element camera 1
property float view_px
property float view_py
property float view_pz
property float x_axisx
property float x_axisy
property float x_axisz
property float y_axisx
property float y_axisy
property float y_axisz
property float z_axisx
property float z_axisy
property float z_axisz
property float focal
property float scalex
property float scaley
property float centerx
property float centery
property int viewportx
property int viewporty
property float k1
property float k2
end_header
-0.090415634 -0.058564674 0.0053219795
-0.08644636 -0.056637272 0.0051572621
-0.084231712 -0.056484792 0.0051745772
-0.083057396 -0.056360375 0.0052021742
-0.080606379 -0.05672301 0.0050469637
-0.079195663 -0.056426909 0.0051001906
-0.1077352 -0.064872809 0.007247299
-0.10526945 -0.064077057 0.007319808
-0.096607335 -0.059450667 0.0072530508
-0.10065271 -0.062628351 0.0075188279
-0.10014839 -0.063014716 0.0072915852
-0.098598748 -0.062744662 0.0071103871
-0.098186947 -0.063200794 0.006382376
-0.093819566 -0.06109181 0.0065618157
-0.093591571 -0.061660331 0.006382376
-0.09823218 -0.065488122 0.0061955154
-0.090495855 -0.061057445 0.0067282617
-0.087717094 -0.059904356 0.0065026879
-0.089596763 -0.061943445 0.0064536035
-0.082907721 -0.058035407 0.0064893067
-0.087836757 -0.062264029 0.0066074729
-0.088249154 -0.063358366 0.0065718591
-0.081920303 -0.0595784 0.0063614845
-0.083887011 -0.061811484 0.0062522292
-0.083548509 -0.062382884 0.0062522292
-0.080330208 -0.060790427 0.0062823594
-0.083887234 -0.064351849 0.0059355497
-0.079415374 -0.061767511 0.0053855479
-0.075394526 -0.059466101 0.0059355497
-0.080460206 -0.064368166 0.0057066381
-0.07826288 -0.063517697 0.0059355497
-0.075547285 -0.062215414 0.0057964325
-0.078319773 -0.0654613 0.0052257478
-0.074916475 -0.063565493 0.005105108
-0.088385575 -0.051170599 0.0068643689
-0.090375707 -0.052879401 0.0088164806
-0.088591635 -0.052392904 0.012205303
-0.084327102 -0.050412942 0.012916565
-0.087732665 -0.053025238 0.013307154
-0.086478136 -0.05284775 0.01361689
-0.082905307 -0.051233619 0.012606025
-0.085028261 -0.053142663 0.012929559
-0.083831295 -0.052996796 0.011556059
-0.081337623 -0.052018248 0.011741042
-0.084004626 -0.054355934 0.012416989
-0.082001306 -0.053691331 0.012907237
-0.07914912 -0.052448209 0.012567312
-0.080045238 -0.05368888 0.011031479
-0.078464314 -0.053278238 0.01068598
-0.077279709 -0.053129803 0.010505527
-0.076180138 -0.053036805 0.010299623
-0.075493902 -0.053232878 0.010285169
-0.077021115 -0.055015083 0.010167837
-0.077711925 -0.05623889 0.010243505
-0.07425382 -0.054452803 0.0089693069
-0.075908259 -0.0564183 0.0090596378
-0.073432282 -0.055325691 0.0088940859
-0.068908803 -0.052638672 0.008998096
-0.073152453 -0.056667395 0.0089260936
-0.070468105 -0.055367801 0.0093131661
-0.068649597 -0.054720692 0.010560632
-0.068352699 -0.055285271 0.010727942
-0.066956356 -0.054964174 0.008623451
-0.066193953 -0.055161629 0.0072113276
-0.06490422 -0.054918956 0.0063309669
-0.061477825 -0.052832507 0.0055448413
-0.094448872 -0.052579783 0.0055898726
-0.091139138 -0.051265765 0.0069449544
-0.091519266 -0.052021477 0.010911703
-0.088916846 -0.051079892 0.013333887
-0.087986507 -0.051088937 0.014034748
-0.088541515 -0.05197002 0.01433292
-0.088502653 -0.052518059 0.015256047
-0.083483763 -0.050090257 0.015605927
-0.085379556 -0.051803328 0.01500088
-0.084040478 -0.051570293 0.015608579
-0.082103029 -0.0509605 0.01500088
-0.082558982 -0.051839363 0.015001893
-0.081412658 -0.051720981 0.015391171
-0.08028008 -0.051608626 0.015325308
-0.080166303 -0.052156389 0.015140235
-0.078867547 -0.051937163 0.014959782
-0.075761899 -0.050507937 0.014364898
-0.075708866 -0.051103484 0.013620257
-0.074221998 -0.050734024 0.013438851
-0.072654583 -0.050299324 0.01378727
-0.072876252 -0.051108021 0.013731748
-0.071840107 -0.051044285 0.013998002
-0.072912648 -0.052497108 0.013956606
-0.070039481 -0.051109891 0.014090598
-0.069298729 -0.051262073 0.013918996
-0.069014169 -0.051760625 0.013945311
-0.066905029 -0.050885513 0.014016598
-0.065805987 -0.050764617 0.014682382
-0.065746807 -0.051454023 0.016185105
-0.062843613 -0.049905222 0.014045686
-0.063732728 -0.051366676 0.012120456
-0.063136227 -0.051656913 0.011392951
-0.060722586 -0.050446458 0.0087577701
-0.060589794 -0.051122639 0.0071965754
-0.059863344 -0.051311437 0.0062026381
-0.059977259 -0.052238259 0.0055862665
-0.060086694 -0.053191498 0.0052912235
-0.092681132 -0.050640207 0.0068856776
-0.091248803 -0.050376944 0.011011243
-0.090540774 -0.050512221 0.012952268
-0.089024335 -0.050194573 0.014025152
-0.087684385 -0.049970672 0.015619695
-0.087193459 -0.050231017 0.015847534
-0.085405663 -0.049741756 0.016159534
-0.087375484 -0.051454451 0.016206473
-0.085492305 -0.050911151 0.016760647
-0.084324844 -0.050786555 0.017159551
-0.084156163 -0.051267546 0.016920179
-0.081945606 -0.050501361 0.017163545
-0.081115194 -0.050577708 0.017028481
-0.08192987 -0.051693846 0.017393589
-0.077953875 -0.049777776 0.017273128
-0.078771107 -0.050913036 0.016888231
-0.077495314 -0.050706811 0.016277552
-0.075872779 -0.050265715 0.014644325
-0.075196326 -0.050448164 0.015093654
-0.075315319 -0.051175792 0.016092628
-0.072748534 -0.050073668 0.016032189
-0.072446592 -0.05052197 0.016928643
-0.072729908 -0.0513958 0.0167934
-0.0708922 -0.050774146 0.017126799
-0.070232235 -0.050990526 0.017015576
-0.067758769 -0.049877986 0.017126799
-0.06793727 -0.050713737 0.017612249
-0.066895545 -0.050649483 0.01762706
-0.065470397 -0.050288856 0.017805874
-0.064286888 -0.050105955 0.017004997
-0.06418094 -0.05077 0.015041411
-0.062169097 -0.04992367 0.013606578
-0.061282802 -0.049969055 0.011917144
-0.062077571 -0.051407989 0.011233687
-0.061191935 -0.05147893 0.0090386868
-0.063365161 -0.054166991 0.0072655082
-0.061705012 -0.053612549 0.0071381927
-0.059840746 -0.052859329 0.0063039362
-0.059060443 -0.053054295 0.006057471
-0.058304068 -0.053277858 0.0050913095
-0.093351848 -0.049533632 0.0055363774
-0.092504099 -0.049589828 0.0091576576
-0.095391877 -0.0516706 0.01332891
-0.091972739 -0.050342973 0.014004171
-0.089655578 -0.049596705 0.015675277
-0.089700535 -0.050155137 0.016519785
-0.089227326 -0.050432835 0.016546518
-0.086115062 -0.049208608 0.017326713
-0.085856751 -0.049606122 0.017281383
-0.084233157 -0.049214877 0.017772406
-0.084498748 -0.049931079 0.018054366
-0.08167015 -0.048814341 0.017930478
-0.082233578 -0.049722631 0.018053353
-0.082236111 -0.050309148 0.017895281
-0.0798316 -0.04941956 0.018320918
-0.078157842 -0.048966359 0.01834932
-0.079839453 -0.050629895 0.018591523
-0.078725308 -0.050539702 0.018541843
-0.077274591 -0.050228488 0.017356575
-0.075560965 -0.049736332 0.017999351
-0.074009798 -0.049339864 0.018109679
-0.073850833 -0.049873289 0.017935395
-0.072333731 -0.049491499 0.018069535
-0.071657099 -0.049682256 0.018194854
-0.070675805 -0.04966408 0.018410087
-0.069681659 -0.049636252 0.018036872
-0.068619043 -0.0495582 0.018180758
-0.068530396 -0.050191276 0.018508047
-0.066228203 -0.049198091 0.018508881
-0.065732308 -0.04953739 0.018596202
-0.06501089 -0.049714208 0.017942131
-0.063795149 -0.049512655 0.017204791
-0.062269073 -0.049060483 0.016487598
-0.061498627 -0.049198899 0.015731722
-0.06024117 -0.048945952 0.013665766
-0.060855221 -0.050229706 0.011744231
-0.062705293 -0.052591536 0.011357963
-0.060338803 -0.051436353 0.010653526
-0.061588455 -0.053376663 0.0090043843
-0.059719536 -0.052634168 0.0077225268
-0.058525428 -0.052471075 0.0068628192
-0.057963084 -0.052878603 0.0067716539
-0.054258384 -0.050382785 0.006967485
-0.054151118 -0.051197421 0.0067492723
-0.053999729 -0.05199974 0.0050403178
-0.093648262 -0.048735321 0.0068190396
-0.093297578 -0.049053367 0.013307154
-0.090561867 -0.048110995 0.013786197
-0.0916804 -0.049217898 0.015513748
-0.090950131 -0.049345285 0.016904771
-0.090137325 -0.049430147 0.01787284
-0.087954588 -0.048757434 0.017550439
-0.087051228 -0.048786949 0.018182576
-0.084733337 -0.048015557 0.01831907
-0.086155854 -0.049370207 0.018631011
-0.084792659 -0.049141198 0.018968999
-0.082359746 -0.048279852 0.018631011
-0.082003474 -0.048629966 0.018833816
-0.080645375 -0.048387222 0.018764883
-0.079466291 -0.048247389 0.019074798
-0.079411536 -0.048795041 0.019096583
-0.076828785 -0.047783758 0.019094348
-0.076872565 -0.048401244 0.018987864
-0.075878926 -0.048372816 0.018661469
-0.074489109 -0.048087906 0.018750638
-0.074369565 -0.048626255 0.018943042
-0.075178668 -0.049793664 0.018832207
-0.070959792 -0.047617752 0.018858373
-0.072003551 -0.048962414 0.018915892
-0.070481129 -0.048574831 0.018682241
-0.069257528 -0.048385397 0.018430054
-0.068507202 -0.048525933 0.018606007
-0.069178589 -0.049691662 0.018481225
-0.065741085 -0.047897074 0.018836588
-0.066217661 -0.048943486 0.019049615
-0.064153232 -0.048114926 0.018461674
-0.064540714 -0.049128007 0.017881542
-0.063075207 -0.048739936 0.017573953
-0.061972208 -0.048624348 0.017189324
-0.060488064 -0.048201423 0.016100913
-0.061227437 -0.049565066 0.014034718
-0.060913395 -0.050106183 0.012432218
-0.059968118 -0.050137281 0.011929333
-0.058952574 -0.050109688 0.011215091
-0.058012459 -0.050146364 0.0099388659
-0.057385471 -0.050459638 0.0094734132
-0.055335894 -0.04951106 0.0093257725
-0.052889757 -0.048167456 0.0095338225
-0.054413982 -0.050456602 0.0090843439
-0.052682478 -0.049755674 0.0083910227
-0.051406812 -0.04946693 0.0069979131
-0.051053464 -0.050071668 0.0064384043
-0.049328934 -0.049328934 0.0050269663
-0.098315716 -0.049654402 0.0053786039
-0.095220663 -0.048581973 0.011569113
-0.091269158 -0.047045957 0.013421655
-0.093065538 -0.048471633 0.01529789
-0.091612846 -0.048217289 0.016126007
-0.089561269 -0.047638971 0.0177297
-0.087812744 -0.047211152 0.018226743
-0.089173384 -0.048463795 0.018280506
-0.089707024 -0.049289573 0.018414885
-0.089432649 -0.049684804 0.018654734
-0.085610479 -0.048095778 0.019105464
-0.082183719 -0.046695296 0.019181311
-0.083204411 -0.047818627 0.019240528
-0.082423761 -0.04792079 0.019259304
-0.080386892 -0.047286406 0.019334257
-0.08137551 -0.048437804 0.019597143
-0.078178048 -0.047095209 0.019846857
-0.077431023 -0.047214039 0.019978225
-0.077709764 -0.047968991 0.020071685
-0.077758208 -0.048598878 0.019862622
-0.07506074 -0.047506798 0.019692332
-0.073492251 -0.04711042 0.019798249
-0.073187687 -0.047524475 0.019532859
-0.075379059 -0.049591489 0.01949352
-0.07256081 -0.048373874 0.019741416
-0.069696061 -0.047091935 0.019535005
-0.069380119 -0.04752063 0.019358635
-0.068235099 -0.047385488 0.019428939
-0.06814748 -0.047991183 0.019509912
-0.067951903 -0.048537076 0.019585907
-0.064907968 -0.047034763 0.019681871
-0.06405925 -0.047102392 0.018938065
-0.063928545 -0.047707871 0.018523514
-0.062952213 -0.04769107 0.0183402
-0.061624188 -0.04740322 0.017773241
-0.061374094 -0.047948513 0.017464995
-0.060078118 -0.047681045 0.015961409
-0.062037718 -0.050030418 0.014944255
-0.058608208 -0.048039515 0.013976783
-0.056500446 -0.047083706 0.013220578
-0.057091113 -0.048382301 0.012231588
-0.057294689 -0.049391974 0.011417389
-0.053715862 -0.047119178 0.011269748
-0.053623375 -0.047878012 0.011657476
-0.05196631 -0.047242098 0.01102832
-0.051912762 -0.048067372 0.010059655
-0.051746409 -0.048817366 0.0089153349
-0.049777426 -0.04786291 0.0075343549
-0.04906074 -0.048098762 0.0063218772
-0.097823247 -0.048417568 0.0055541694
-0.093903013 -0.046951506 0.011661679
-0.094601586 -0.047788434 0.013439119
-0.090697765 -0.04629365 0.01470843
-0.089719139 -0.046276189 0.015654922
-0.091094784 -0.047485579 0.017059684
-0.089043595 -0.046915442 0.0177297
-0.086079352 -0.045846611 0.018154353
-0.086709969 -0.04668998 0.018290788
-0.086622193 -0.047160972 0.018681109
-0.083661094 -0.046060603 0.019212455
-0.086285472 -0.048045322 0.019240409
-0.082379937 -0.046397895 0.019328028
-0.082044028 -0.046746016 0.019376755
-0.080655009 -0.04649524 0.01948157
-0.078453474 -0.045764528 0.019765526
-0.077875338 -0.045974597 0.020166844
-0.079423591 -0.047460441 0.020179182
-0.076707564 -0.046403341 0.020265669
-0.075782835 -0.046416987 0.020293415
-0.075074472 -0.046565175 0.020108491
-0.073748477 -0.04632917 0.020323038
-0.074570075 -0.047453683 0.019954443
-0.073535427 -0.047411002 0.020145714
-0.070461899 -0.046035107 0.020284623
-0.070649333 -0.046781313 0.019887805
-0.069427878 -0.046602275 0.019937515
-0.068174228 -0.046396349 0.019497663
-0.067235157 -0.046401728 0.019795686
-0.065870948 -0.046109665 0.020232946
-0.066714816 -0.047377184 0.020411044
-0.064369448 -0.046383869 0.02007705
-0.063344114 -0.046326291 0.019321352
-0.063186094 -0.046910889 0.019106179
-0.062492106 -0.047109436 0.018504173
-0.059740346 -0.045738705 0.018282503
-0.062547535 -0.048648085 0.017100692
-0.06179481 -0.048837833 0.016067982
-0.058416776 -0.046924952 0.015197992
-0.05859806 -0.047855083 0.013795823
-0.056863148 -0.047225326 0.01331988
-0.05648623 -0.047721125 0.011967689
-0.054871388 -0.04717014 0.012145668
-0.053176846 -0.04652974 0.01232183
-0.052324746 -0.046616592 0.011797339
-0.052222442 -0.04738703 0.011358678
-0.051384293 -0.047506232 0.010145426
-0.048959881 -0.046135273 0.0093964934
-0.049627978 -0.047681782 0.0069330633
-0.048382666 -0.047415014 0.0052513778
-0.097359456 -0.047204584 0.0056586564
-0.093449287 -0.045771077 0.01147005
-0.094341978 -0.04668469 0.013396293
-0.091129132 -0.045564566 0.014137655
-0.092028305 -0.046498511 0.015256524
-0.091082633 -0.046510279 0.017083675
-0.086452559 -0.044620674 0.017628103
-0.090155847 -0.047037836 0.017379642
-0.088510305 -0.046686754 0.017894775
-0.084838696 -0.045247305 0.018314332
-0.085301876 -0.046005506 0.018997788
-0.082737446 -0.045129515 0.019219577
-0.083052687 -0.04582217 0.019499242
-0.08472383 -0.047287721 0.019427329
-0.084521502 -0.04772979 0.019401371
-0.078647904 -0.04494166 0.019938707
-0.078567967 -0.045436896 0.019982576
-0.077728309 -0.0454995 0.020056188
-0.076721162 -0.045464389 0.020012289
-0.077886179 -0.046731707 0.020340711
-0.074431002 -0.045223899 0.019972593
-0.074004278 -0.045541093 0.019762188
-0.074449427 -0.046410035 0.019462794
-0.07159102 -0.045215383 0.019393384
-0.070240811 -0.044954121 0.019601375
-0.069978684 -0.045391578 0.019462794
-0.069129363 -0.045454923 0.019660383
-0.069845237 -0.046563495 0.01966998
-0.06801001 -0.045978595 0.0197092
-0.066311516 -0.045470752 0.019902557
-0.065918215 -0.045856152 0.020140171
-0.065104328 -0.045955993 0.019583732
-0.063677721 -0.04561986 0.019314647
-0.062292159 -0.045303386 0.018738031
-0.061470576 -0.045393657 0.018598229
-0.060918506 -0.045688879 0.018354535
-0.062353492 -0.047507424 0.01714474
-0.0603301 -0.046707176 0.016132683
-0.058302168 -0.045877118 0.015272737
-0.057063732 -0.045650985 0.013796598
-0.055787921 -0.045386784 0.01335454
-0.056310698 -0.046601955 0.012269646
-0.054808877 -0.046154842 0.012530357
-0.053352047 -0.045730326 0.013070017
-0.053171195 -0.046403952 0.012139678
-0.051376928 -0.045668382 0.011440217
-0.050720736 -0.045935761 0.010551304
-0.05079519 -0.046887867 0.010155916
-0.049291313 -0.046391822 0.0067228675
-0.049065739 -0.047103111 0.0052204728
-0.095471315 -0.045324765 0.0060283542
-0.095501922 -0.045801941 0.011142403
-0.09224841 -0.044697683 0.013303399
-0.091725059 -0.04490706 0.013905853
-0.09339045 -0.046203695 0.015190452
-0.088782579 -0.044391289 0.016890585
-0.090012968 -0.045490425 0.017061681
-0.088683978 -0.045305945 0.017328411
-0.086691163 -0.044774555 0.017385572
-0.0861433 -0.044985943 0.018203497
-0.085411616 -0.04510501 0.018839717
-0.085036159 -0.045417041 0.01917696
-0.084383227 -0.04558634 0.019370526
-0.082031354 -0.04483109 0.019505471
-0.079583034 -0.044004735 0.019639373
-0.080621108 -0.045109432 0.019896775
-0.080880381 -0.045799736 0.020166844
-0.077246964 -0.044275697 0.020025641
-0.077915259 -0.04521009 0.019826829
-0.073829249 -0.043374684 0.020142108
-0.075506955 -0.04492186 0.020050257
-0.074903771 -0.045134325 0.019678265
-0.07369218 -0.044980939 0.019260436
-0.071985736 -0.044517498 0.019287616
-0.071043961 -0.044520881 0.019441694
-0.069888689 -0.04438876 0.019116104
-0.070021287 -0.045082197 0.019429862
-0.067787692 -0.044250302 0.01922974
-0.066453204 -0.04399015 0.019319445
-0.066428028 -0.044601679 0.019747734
-0.06609118 -0.045018632 0.019986153
-0.06404873 -0.044268977 0.019509912
-0.06470792 -0.045392126 0.019267648
-0.06274759 -0.044683892 0.019064307
-0.061242603 -0.044283111 0.018641263
-0.061140899 -0.044900347 0.018519282
-0.059708048 -0.044544101 0.017241657
-0.060534567 -0.045889106 0.016205072
-0.058628365 -0.045172673 0.015515298
-0.058289066 -0.045659769 0.014261335
-0.05660538 -0.045092423 0.013638407
-0.056614235 -0.045877051 0.012355924
-0.053442143 -0.044066329 0.012653857
-0.054240357 -0.045523159 0.013302118
-0.052373063 -0.044755165 0.012381494
-0.051979613 -0.045241512 0.01182723
-0.051020965 -0.045245007 0.010708392
-0.048914388 -0.044211082 0.010275573
-0.049444716 -0.0455667 0.0075864792
-0.049787898 -0.046800625 0.0053106546
-0.099699423 -0.046324987 0.006393373
-0.093097195 -0.043698683 0.010966837
-0.092010558 -0.043633875 0.013226122
-0.092587985 -0.044365074 0.013830334
-0.090249531 -0.043699771 0.015022248
-0.089137487 -0.043620471 0.016241103
-0.090579763 -0.044802893 0.01704368
-0.087987706 -0.043993853 0.016525537
-0.089550965 -0.045267519 0.017350346
-0.085991383 -0.04395115 0.017423362
-0.084403247 -0.043624148 0.018394232
-0.086527608 -0.04523034 0.018840849
-0.084593832 -0.044727772 0.01918608
-0.082649685 -0.044207972 0.019328207
-0.081198126 -0.043942515 0.019583762
-0.079426363 -0.043495387 0.019896775
-0.077628173 -0.043022841 0.020195961
-0.079816319 -0.044775009 0.020119518
-0.077497199 -0.044010755 0.020106763
-0.077074863 -0.044318046 0.020252973
-0.074011981 -0.043095585 0.020295113
-0.07340838 -0.043292124 0.020053685
-0.073464565 -0.043887924 0.0196518
-0.072980933 -0.044172671 0.019634992
-0.070022039 -0.042946849 0.019685209
-0.070219733 -0.043650102 0.019268274
-0.068754293 -0.043324623 0.019624859
-0.068740837 -0.043917757 0.019334108
-0.068974763 -0.044687875 0.019503921
-0.066090129 -0.04343066 0.019772828
-0.065956973 -0.043971315 0.020140171
-0.064639829 -0.043726943 0.019314647
-0.064295515 -0.044143189 0.019179881
-0.062460244 -0.043532897 0.018795252
-0.064088807 -0.045355156 0.018529505
-0.059887245 -0.043043956 0.017947972
-0.062871039 -0.04590584 0.017041862
-0.059715167 -0.044304799 0.016204715
-0.057858605 -0.043631081 0.01563713
-0.058197323 -0.044617947 0.014293432
-0.055789139 -0.043496616 0.013579369
-0.055948064 -0.0443726 0.012355447
-0.054366317 -0.043874573 0.012501329
-0.053234898 -0.043728665 0.013234824
-0.051139355 -0.042771097 0.012257993
-0.051818546 -0.044141725 0.011762172
-0.050324675 -0.043678019 0.010771871
-0.049966417 -0.044201061 0.010310233
-0.048601553 -0.043836694 0.0070425272
-0.048286516 -0.044423595 0.0054044127
-0.097704619 -0.04441119 0.0063103735
-0.093082801 -0.0427421 0.0098842382
-0.095829971 -0.044457201 0.013065785
-0.090018392 -0.042196121 0.013519704
-0.09220235 -0.043674797 0.015022248
-0.089793168 -0.042986091 0.016167879
-0.089030758 -0.043079399 0.016994059
-0.08852084 -0.043298237 0.016512573
-0.087817237 -0.043426104 0.017198145
-0.083868839 -0.041934419 0.017690361
-0.085423015 -0.043191411 0.018261343
-0.084748797 -0.043337453 0.018401384
-0.082642496 -0.042746119 0.018516839
-0.083790459 -0.043843843 0.018578619
-0.080627963 -0.04268539 0.018642932
-0.080561735 -0.043158073 0.019199193
-0.081436217 -0.044152163 0.01963827
-0.0772966 -0.042418867 0.01994881
-0.078458168 -0.043587867 0.019764304
-0.076168656 -0.042844869 0.020349085
-0.075304478 -0.042894956 0.020310611
-0.077770561 -0.044867631 0.019774854
-0.073231891 -0.042797856 0.019489259
-0.071203388 -0.0421599 0.019605428
-0.071867101 -0.043120261 0.01962778
-0.070488259 -0.042864483 0.019489259
-0.070078902 -0.043199323 0.019883871
-0.068656713 -0.042910445 0.019646555
-0.067165576 -0.042569734 0.0197092
-0.067462869 -0.043368988 0.020223141
-0.066684686 -0.043490015 0.020258963
-0.064216897 -0.04249648 0.01932314
-0.06389074 -0.04291169 0.019179523
-0.063045979 -0.042985898 0.018767238
-0.061380077 -0.042493898 0.018506765
-0.061037485 -0.04291698 0.017927378
-0.060566153 -0.043261539 0.016917706
-0.05997866 -0.043532897 0.016011089
-0.058790762 -0.043370236 0.014995545
-0.057993069 -0.043494802 0.013717562
-0.056178924 -0.04284833 0.013295531
-0.056362916 -0.043729849 0.012152851
-0.054619312 -0.043120507 0.012250036
-0.053645846 -0.04310827 0.01262489
-0.053107787 -0.043451827 0.012065828
-0.051102474 -0.042585395 0.011339307
-0.051534079 -0.043755349 0.010421246
-0.050398838 -0.04361438 0.0086320937
-0.049038123 -0.04326893 0.006018281
-0.097818539 -0.043474905 0.0058240891
-0.09393841 -0.042176429 0.0092270076
-0.093148306 -0.042252839 0.012116164
-0.092832506 -0.042548232 0.013753057
-0.09178213 -0.042509619 0.015150815
-0.089365952 -0.041830871 0.01701045
-0.089254059 -0.042227726 0.017431378
-0.089600153 -0.042852249 0.017179042
-0.084757365 -0.040981583 0.017372131
-0.087538369 -0.042796537 0.017676622
-0.085017435 -0.042031091 0.018203497
-0.082010396 -0.041005198 0.018249035
-0.084676623 -0.042824961 0.018316597
-0.083603024 -0.042773638 0.018140376
-0.080320895 -0.041577872 0.01847744
-0.082814462 -0.043379005 0.018680096
-0.079064883 -0.041913912 0.019286394
-0.079091318 -0.042439245 0.019513011
-0.078760393 -0.042783424 0.019614339
-0.074864931 -0.041175712 0.020213544
-0.07504189 -0.041795481 0.020310611
-0.072964683 -0.041159563 0.019559115
-0.071237631 -0.040707219 0.019338161
-0.07427825 -0.043003198 0.019476742
-0.072745509 -0.042677365 0.019691408
-0.068932898 -0.04098713 0.019432813
-0.069748037 -0.042039912 0.019839942
-0.068416633 -0.041810162 0.019742578
-0.06683068 -0.041416198 0.019953072
-0.066607051 -0.04186729 0.020258963
-0.065865621 -0.042001266 0.020236254
-0.064472079 -0.041717228 0.019262612
-0.063916661 -0.041975122 0.019107491
-0.061868466 -0.041245643 0.018763393
-0.060924068 -0.041240908 0.01851812
-0.06039181 -0.04151937 0.017642438
-0.061561976 -0.042995665 0.016260147
-0.06091797 -0.043232109 0.015175909
-0.059259333 -0.042744435 0.013719618
-0.057499014 -0.042165946 0.012526274
-0.057771288 -0.043083671 0.011917174
-0.056661952 -0.042984929 0.011377186
-0.05444878 -0.042030636 0.011657536
-0.05437772 -0.042725351 0.011788249
-0.052810255 -0.042248204 0.011231601
-0.051185459 -0.04170667 0.01049906
-0.051442601 -0.042707067 0.0087431073
-0.050195865 -0.042473424 0.0063658059
-0.098494411 -0.042780399 0.0058545172
-0.093336754 -0.040953882 0.0083467364
-0.092937551 -0.041199122 0.0113208
-0.093540214 -0.041898221 0.01344648
-0.090262376 -0.040855601 0.014876842
-0.092291489 -0.042218447 0.01613766
-0.090388171 -0.041792378 0.017004162
-0.087059923 -0.040691048 0.016203284
-0.088600501 -0.041866172 0.016689509
-0.088011324 -0.042049855 0.017385572
-0.086332902 -0.041711401 0.017774999
-0.085502215 -0.041779492 0.017762452
-0.084647298 -0.041837167 0.018036246
-0.082118057 -0.041059028 0.018017262
-0.082132414 -0.04154934 0.01823768
-0.079848811 -0.040874988 0.018203497
-0.078580908 -0.040710591 0.018755138
-0.079837479 -0.041865993 0.019094348
-0.077275969 -0.041023046 0.019329548
-0.076134048 -0.040922049 0.019852877
-0.076286316 -0.041522931 0.019993037
-0.074721403 -0.041192569 0.019242793
-0.072935745 -0.040730353 0.018879056
-0.072964117 -0.04128233 0.018879056
-0.070706442 -0.040538359 0.019290447
-0.071578681 -0.041593015 0.019090742
-0.07129959 -0.04199839 0.019598752
-0.068608187 -0.040974334 0.019334108
-0.068063967 -0.041221838 0.019503921
-0.066167012 -0.04064545 0.019803733
-0.065630704 -0.040900294 0.02001515
-0.064289503 -0.040653657 0.019103259
-0.06384147 -0.040972881 0.018859088
-0.063084789 -0.041100696 0.018704206
-0.063296035 -0.041872762 0.017868251
-0.058736172 -0.039463367 0.01737693
-0.062178012 -0.042438962 0.01518628
-0.060713805 -0.042107962 0.013667792
-0.057830285 -0.040765613 0.012182236
-0.058614574 -0.042007111 0.011847466
-0.05653045 -0.041200157 0.011124909
-0.056432173 -0.041837644 0.009768039
-0.055891626 -0.04216386 0.0098706484
-0.054375507 -0.041752622 0.011063933
-0.053529005 -0.041849948 0.009108007
-0.053082354 -0.042269282 0.0081058741
-0.050815798 -0.041227914 0.0062647462
-0.050583679 -0.041828811 0.0050389767
-0.097048514 -0.041172095 0.0051966608
-0.093616724 -0.040121451 0.0077455342
-0.094002299 -0.040702026 0.011131585
-0.091338813 -0.039960731 0.013636321
-0.09304782 -0.041136932 0.015012681
-0.091930181 -0.041075185 0.016062438
-0.087699644 -0.039606292 0.016922206
-0.087301746 -0.039855145 0.016012609
-0.088017493 -0.040623456 0.016108006
-0.085480243 -0.039890781 0.017350346
-0.085269436 -0.040239509 0.017719448
-0.084953241 -0.040545866 0.017736614
-0.082844652 -0.039993972 0.017791152
-0.085682333 -0.04184486 0.017776489
-0.080998033 -0.040022559 0.017989576
-0.079930201 -0.039965101 0.01808089
-0.080390796 -0.040679678 0.018255234
-0.079089262 -0.040509135 0.018607944
-0.075786196 -0.039296545 0.019102424
-0.075685568 -0.039734922 0.019419551
-0.073839538 -0.039256461 0.019242793
-0.074605823 -0.040172365 0.018673688
-0.073969573 -0.04034704 0.018496424
-0.071649507 -0.039595783 0.018634558
-0.072159328 -0.040409222 0.018901318
-0.070301943 -0.0399011 0.018905818
-0.0702191 -0.040400032 0.019288152
-0.069145001 -0.040334586 0.019104272
-0.068265334 -0.040382311 0.019236743
-0.067727827 -0.040636696 0.019506365
-0.065411955 -0.039815973 0.019421726
-0.063963473 -0.039506853 0.019070983
-0.063173592 -0.039601356 0.018805951
-0.062966622 -0.040069669 0.018479526
-0.062006012 -0.040065423 0.016981065
-0.061634809 -0.040447842 0.015512377
-0.062543243 -0.041695498 0.012717336
-0.060311262 -0.040856019 0.011908442
-0.060570501 -0.041704278 0.011336327
-0.058666117 -0.041066285 0.0098716617
-0.05721464 -0.040729068 0.0092519224
-0.057742015 -0.041813184 0.007873565
-0.056646015 -0.04173917 0.0075802803
-0.054092284 -0.040569212 0.0078340769
-0.054699294 -0.041770373 0.0066634715
-0.052763395 -0.041038197 0.0059078038
-0.09366978 -0.039188378 0.0073886812
-0.093370855 -0.039466031 0.0096186399
-0.092939079 -0.03969273 0.012653649
-0.092118718 -0.039756499 0.014071941
-0.089063033 -0.038846642 0.015933454
-0.091235399 -0.040222056 0.016712993
-0.087657884 -0.039064929 0.015976787
-0.084880181 -0.038242716 0.016012609
-0.086819492 -0.039551102 0.017185181
-0.085662194 -0.039462361 0.017610669
-0.083664834 -0.038980205 0.017728478
-0.084965512 -0.040041219 0.017711222
-0.081838049 -0.039015811 0.017714858
-0.081596993 -0.039358549 0.018115073
-0.081269287 -0.039667152 0.017990828
-0.079777054 -0.039407942 0.018502176
-0.076787859 -0.03839393 0.018680036
-0.077945858 -0.039454076 0.018979698
-0.075389691 -0.038637213 0.019509941
-0.076689839 -0.039801057 0.019365668
-0.073836252 -0.038811363 0.018967897
-0.072734639 -0.038728833 0.018813342
-0.073348314 -0.039569482 0.018907458
-0.072182454 -0.039459743 0.019075513
-0.070173912 -0.038880143 0.019112915
-0.070504367 -0.039598342 0.019288152
-0.068825893 -0.039192524 0.019074768
-0.067524254 -0.038992882 0.018967181
-0.067080967 -0.039290279 0.019241452
-0.065959841 -0.03919353 0.019398987
-0.067536689 -0.040720653 0.01883328
-0.065321751 -0.039973009 0.0183402
-0.061700553 -0.038329132 0.01741457
-0.060692124 -0.038282726 0.015332788
-0.060236584 -0.03858906 0.012875646
-0.06038465 -0.039297946 0.011512101
-0.062295556 -0.041195448 0.0098318756
-0.059938617 -0.040286612 0.009488225
-0.059010375 -0.040323757 0.008104682
-0.059745647 -0.041518159 0.0069820881
-0.057910543 -0.040936761 0.0054006577
-0.092961974 -0.037943661 0.0067663789
-0.09333089 -0.038486965 0.0093266964
-0.093901299 -0.039125543 0.012761116
-0.089002341 -0.03747467 0.014078408
-0.090262942 -0.038409762 0.015898198
-0.089926623 -0.038678117 0.016064435
-0.08625859 -0.037503734 0.0160909
-0.088970795 -0.039108042 0.016108006
-0.086198688 -0.038310528 0.017206967
-0.08516451 -0.038276184 0.017605841
-0.086332507 -0.039242048 0.017524004
-0.08426597 -0.038742974 0.017820179
-0.082156152 -0.038212165 0.017475039
-0.080912814 -0.038076621 0.017900497
-0.079495065 -0.037854794 0.017947257
-0.079861529 -0.038487487 0.018402964
-0.079535939 -0.038798019 0.018533826
-0.077921882 -0.038479939 0.018966883
-0.076920569 -0.038460284 0.019355148
-0.076094627 -0.038528927 0.019361317
-0.072524711 -0.037192162 0.018552095
-0.073269673 -0.038062166 0.018629789
-0.072542697 -0.03818037 0.018945009
-0.071414061 -0.038087498 0.019174397
-0.07015194 -0.037919968 0.019145519
-0.070176162 -0.038452692 0.019220144
-0.068087243 -0.037826244 0.019181222
-0.068735056 -0.038723975 0.018895358
-0.065618046 -0.037496023 0.019095361
-0.066557072 -0.038583811 0.01919511
-0.064250387 -0.037794344 0.01877746
-0.063210621 -0.037737686 0.018232763
-0.064122871 -0.038862344 0.017347276
-0.064201452 -0.039508589 0.01410082
-0.059758939 -0.037349336 0.012092918
-0.061291765 -0.038915407 0.0098235905
-0.062613294 -0.040395673 0.0087715089
-0.060549181 -0.039704379 0.008104682
-0.061539575 -0.041026384 0.0056636631
-0.092903659 -0.036971867 0.005854696
-0.096900143 -0.03895985 0.008336693
-0.094316542 -0.038316093 0.0098536611
-0.096948683 -0.039799985 0.012920737
-0.09007854 -0.03737301 0.014583111
-0.088407427 -0.037074082 0.015744537
-0.089013696 -0.037734069 0.015484005
-0.087287851 -0.037409078 0.015290439
-0.085689805 -0.037132248 0.016141385
-0.085317872 -0.037386481 0.017264456
-0.084183641 -0.037308659 0.017578006
-0.083819926 -0.037574451 0.017631054
-0.083955392 -0.038072791 0.017464757
-0.082413211 -0.03781312 0.017789483
-0.079860747 -0.037078202 0.017898738
-0.080223039 -0.037695162 0.018019825
-0.077855654 -0.037028909 0.018295854
-0.07778611 -0.037452571 0.018563032
-0.0765616 -0.03732378 0.018526524
-0.07510671 -0.037077997 0.018911809
-0.073509485 -0.036754742 0.018207312
-0.074564993 -0.037766684 0.018349588
-0.071909659 -0.036901008 0.018652618
-0.071332932 -0.037093125 0.019075513
-0.07068859 -0.037254799 0.019174397
-0.068603933 -0.036651414 0.019163281
-0.069089457 -0.037423458 0.018905818
-0.066612057 -0.036589719 0.018603623
-0.066256911 -0.036914561 0.018776268
-0.066950753 -0.03784173 0.018751323
-0.064413697 -0.036943153 0.018271625
-0.06353277 -0.036981761 0.017615557
-0.063265003 -0.037383866 0.016069561
-0.060038805 -0.036023282 0.012444496
-0.060814597 -0.037058894 0.010088265
-0.066125989 -0.040935136 0.0084426701
-0.061611891 -0.038755868 0.0070092976
-0.061619002 -0.039395757 0.0056332052
-0.095266856 -0.037321035 0.006608516
-0.097417824 -0.038561221 0.0085237622
-0.096068636 -0.038427453 0.0099308193
-0.087918416 -0.035541486 0.013273537
-0.089251705 -0.036468439 0.014235318
-0.088542745 -0.036572006 0.014426202
-0.086275317 -0.036027055 0.014514625
-0.088141128 -0.037215143 0.015202165
-0.086048134 -0.036739651 0.016092926
-0.083637878 -0.036116358 0.016354322
-0.083129749 -0.036309548 0.016621947
-0.081801429 -0.036144819 0.016662419
-0.081038594 -0.036229018 0.01737389
-0.082085609 -0.037133966 0.017805964
-0.078839764 -0.036095314 0.017723024
-0.078070469 -0.036178999 0.017701268
-0.078037128 -0.036610011 0.018191576
-0.076742671 -0.036452767 0.018274069
-0.075744003 -0.036433823 0.018430829
-0.074769206 -0.036426026 0.017919242
-0.073600739 -0.036322441 0.017918825
-0.072136641 -0.03606832 0.018204749
-0.071278349 -0.036114361 0.018330038
-0.069556549 -0.035718229 0.018330038
-0.070201583 -0.036543291 0.018309444
-0.069434494 -0.036645982 0.018262267
-0.066389799 -0.035532568 0.018139571
-0.06722331 -0.036492653 0.017989486
-0.064549588 -0.035549048 0.017831087
-0.066367008 -0.037087444 0.016674757
-0.068649255 -0.038935397 0.01560542
-0.064650178 -0.037222832 0.012508124
-0.06179085 -0.036123883 0.010218233
-0.059492331 -0.035323571 0.0077853799
-0.061799496 -0.037275888 0.0059425533
-0.095374659 -0.036380023 0.0055775046
-0.096431687 -0.037166379 0.0074230731
-0.096873127 -0.037729532 0.0092323124
-0.08951287 -0.035233788 0.01105088
-0.08855997 -0.035233539 0.013706833
-0.087212987 -0.035074789 0.01367408
-0.089871943 -0.036541339 0.014109284
-0.086683579 -0.035636581 0.015025437
-0.083493628 -0.034710836 0.015850633
-0.084946729 -0.035716239 0.016089499
-0.084553987 -0.035959743 0.01640901
-0.08350224 -0.035925381 0.016607553
-0.082492359 -0.035908438 0.017065942
-0.080054328 -0.035262026 0.017261028
-0.07889805 -0.035171419 0.017667085
-0.078617871 -0.035473917 0.017585635
-0.077639021 -0.035464738 0.017678231
-0.07626798 -0.035273939 0.017648041
-0.075586915 -0.035401467 0.017858177
-0.072597444 -0.03443725 0.017669111
-0.074498653 -0.035798054 0.017499804
-0.07185784 -0.034983423 0.017589241
-0.070081681 -0.034573629 0.017752945
-0.070527159 -0.035263579 0.017787248
-0.068619788 -0.034779891 0.017693996
-0.068927921 -0.035421293 0.017186522
-0.067731492 -0.035296693 0.017230242
-0.066667318 -0.035238441 0.01635915
-0.064925887 -0.034815334 0.01630339
-0.067060888 -0.036489014 0.014901876
-0.065513551 -0.036179125 0.012818784
-0.063851111 -0.03579532 0.010487229
-0.068326853 -0.038893748 0.0070662498
-0.060169611 -0.034785558 0.0055982471
-0.09594021 -0.03597758 0.0051473081
-0.092993788 -0.035239752 0.0067663789
-0.092021763 -0.035242375 0.0092316866
-0.088337213 -0.034195051 0.010246247
-0.0882608 -0.034536835 0.01105088
-0.088203713 -0.034893777 0.012923479
-0.085680634 -0.034272254 0.013455331
-0.085949712 -0.034766175 0.015220702
-0.084499538 -0.034567993 0.015380859
-0.08322008 -0.034435894 0.015963733
-0.0844694 -0.035359286 0.016461492
-0.082647786 -0.03500377 0.016565025
-0.079586491 -0.034108497 0.017204165
-0.081037045 -0.035148595 0.017505437
-0.077857047 -0.03418114 0.01764828
-0.076770931 -0.034120414 0.017653048
-0.076663367 -0.034498516 0.017678231
-0.074399211 -0.033903439 0.017852575
-0.074575126 -0.034419287 0.017344415
-0.072357923 -0.033829678 0.01743409
-0.071838118 -0.034028582 0.017543018
-0.071104974 -0.034130387 0.017468512
-0.071044758 -0.034562316 0.01742208
-0.069459043 -0.034253776 0.017156482
-0.068330221 -0.03416511 0.016065657
-0.066728383 -0.033834107 0.015711546
-0.066375822 -0.034136139 0.015265405
-0.066997446 -0.034955192 0.014442295
-0.067631714 -0.035805024 0.012243241
-0.065874778 -0.035395402 0.01018253
-0.072656341 -0.039630733 0.0069166124
-0.063063882 -0.034927689 0.0053418279
-0.09049058 -0.033693299 0.0062870979
-0.089560963 -0.033705741 0.0081102848
-0.087793775 -0.033399805 0.009388715
-0.085750565 -0.032980986 0.010595381
-0.087498546 -0.034027215 0.013011634
-0.085830875 -0.033753715 0.014597446
-0.083779372 -0.033321343 0.01535818
-0.083331876 -0.033524316 0.015907943
-0.081801429 -0.03329128 0.016302437
-0.080607682 -0.033191398 0.016959816
-0.081057951 -0.033774145 0.017473966
-0.078943819 -0.033289563 0.017958969
-0.078912869 -0.033682324 0.017917693
-0.079445608 -0.034328349 0.017832965
-0.075446427 -0.033007812 0.017894119
-0.07486029 -0.033165954 0.018016994
-0.075534672 -0.033893764 0.017462969
-0.073835813 -0.033561736 0.017053664
-0.074207939 -0.034174711 0.016961515
-0.072123289 -0.033657536 0.016901016
-0.069609813 -0.032923561 0.016675562
-0.070652492 -0.033874486 0.015715808
-0.067857422 -0.03298625 0.014625937
-0.067617379 -0.033332512 0.014404625
-0.066369802 -0.033184901 0.012982458
-0.065270983 -0.033108469 0.012243241
-0.062970251 -0.032411158 0.0097252429
-0.065276697 -0.034099765 0.0065329671
-0.063173033 -0.03350085 0.0050707459
-0.093087129 -0.034031853 0.0050660968
-0.090491332 -0.033442449 0.0075300634
-0.091909699 -0.034339886 0.0092729032
-0.087822244 -0.03317729 0.011778414
-0.085139483 -0.032525197 0.013213813
-0.086386129 -0.033376459 0.014597446
-0.084391683 -0.032980658 0.01522693
-0.083715938 -0.033096999 0.01580596
-0.082896307 -0.033158522 0.016194165
-0.07923089 -0.032069646 0.017392278
-0.079585351 -0.03260123 0.017712444
-0.07839112 -0.032503635 0.017578602
-0.077792451 -0.032653622 0.017674923
-0.078064911 -0.033177584 0.017615587
-0.075188577 -0.032359641 0.017199725
-0.073245019 -0.031927314 0.016989887
-0.074428052 -0.032864336 0.016749471
-0.072735116 -0.032539394 0.016722232
-0.06861081 -0.031103566 0.016567856
-0.07064563 -0.032458805 0.015708774
-0.069612466 -0.032422245 0.01426065
-0.068183511 -0.03219777 0.01289469
-0.069004603 -0.033044457 0.01191172
-0.067780115 -0.032921769 0.011348337
-0.066657588 -0.032845769 0.0089867115
-0.064909585 -0.032454792 0.0059656799
-0.090229131 -0.032720454 0.0075278878
-0.089098252 -0.032669362 0.01016897
-0.089193329 -0.033071682 0.012367249
-0.087472655 -0.032802247 0.01312542
-0.085150294 -0.03229839 0.01453352
-0.084050998 -0.032252125 0.015288472
-0.082842387 -0.032162338 0.015896678
-0.081027076 -0.031832065 0.016634703
-0.081133075 -0.032257728 0.017350256
-0.078907192 -0.031755332 0.017337412
-0.076622963 -0.031216763 0.017514586
-0.076708384 -0.031642206 0.017380387
-0.074628085 -0.031173758 0.017055541
-0.075963296 -0.032138318 0.016912133
-0.075489998 -0.032352857 0.016072303
-0.071753584 -0.031156164 0.01570493
-0.075124666 -0.033054855 0.015523255
-0.07435599 -0.033158753 0.014365196
-0.071628094 -0.032379825 0.012618124
-0.072025776 -0.033011816 0.010320038
-0.071307629 -0.033142984 0.008905977
-0.067878328 -0.031999785 0.0069788694
-0.068404347 -0.032715123 0.0053290725
-0.088845685 -0.03124244 0.0051565468
-0.092257865 -0.032802798 0.0083332956
-0.088426687 -0.031793863 0.010782778
-0.087191045 -0.031705838 0.012221396
-0.085649215 -0.03150316 0.013113469
-0.082596637 -0.030733632 0.014450133
-0.081971921 -0.030860016 0.01550743
-0.080702685 -0.03074388 0.015896678
-0.079256639 -0.030556777 0.016475886
-0.078668572 -0.030699929 0.01637885
-0.078758731 -0.03111456 0.016715825
-0.077058822 -0.030823529 0.016614586
-0.077024952 -0.031199982 0.016385913
-0.074695028 -0.030644115 0.016138852
-0.073997691 -0.030752288 0.015818357
-0.075177856 -0.031653836 0.015027404
-0.072321527 -0.030857183 0.013550252
-0.071313933 -0.030838456 0.012755066
-0.072916374 -0.031963341 0.010476291
-0.070774034 -0.031455126 0.0082066953
-0.072519004 -0.03268462 0.0068425834
-0.091204077 -0.03141474 0.0067991316
-0.087315336 -0.030413209 0.0095145106
-0.086500287 -0.030471692 0.01124993
-0.084090143 -0.029963154 0.012920499
-0.082105532 -0.02959618 0.014422804
-0.08251515 -0.030093761 0.015605628
-0.079039812 -0.029169455 0.015973598
-0.078544155 -0.029335767 0.016509861
-0.080040611 -0.030259255 0.016862392
-0.075439595 -0.028871942 0.016745239
-0.077475712 -0.030021839 0.016607255
-0.075613074 -0.029670954 0.016361743
-0.073449783 -0.029191582 0.015952438
-0.075556472 -0.030418839 0.015555263
-0.073763013 -0.030087544 0.014715046
-0.072807632 -0.030093821 0.012860537
-0.072343819 -0.030306194 0.011361092
-0.07272438 -0.030882956 0.0088496506
-0.070528492 -0.030366434 0.0072000027
-0.088840865 -0.029946359 0.007317692
-0.084797964 -0.028908398 0.010576695
-0.083427243 -0.028768016 0.011753052
-0.082654394 -0.028832927 0.013807684
-0.080351412 -0.028359322 0.015440941
-0.08016783 -0.028631367 0.015955776
-0.079362042 -0.028685076 0.016509861
-0.078033313 -0.028548772 0.016597271
-0.078121111 -0.028933745 0.01657778
-0.076404937 -0.02865185 0.016485572
-0.074914284 -0.028448462 0.016187698
-0.07710433 -0.029655512 0.015777707
-0.075141944 -0.02927608 0.014929116
-0.073135257 -0.028869178 0.013097346
-0.073472984 -0.029389193 0.011535555
-0.073142499 -0.029652365 0.0091602504
-0.070356317 -0.028913556 0.0075442493
-0.085400335 -0.028143292 0.0086300671
-0.085981831 -0.02866061 0.011222094
-0.083048955 -0.028004881 0.013297081
-0.082439408 -0.028126387 0.014772445
-0.081124865 -0.028007394 0.015749931
-0.080001011 -0.027952163 0.016129225
-0.079061531 -0.027960785 0.016252875
-0.07873559 -0.028189285 0.01637885
-0.07613235 -0.027597977 0.016121477
-0.077304654 -0.028377658 0.015815943
-0.076464817 -0.028429225 0.015358925
-0.073759153 -0.027779423 0.014303386
-0.074313901 -0.028356619 0.011733383
-0.073773868 -0.028525896 0.0099702477
-0.070818208 -0.027753083 0.0080622137
-0.073337168 -0.029133944 0.0064483285
-0.08725933 -0.027764332 0.0081886947
-0.083867088 -0.026991706 0.01111272
-0.083084248 -0.027050687 0.013045073
-0.081546918 -0.026862515 0.014532238
-0.081875868 -0.027291955 0.01557371
-0.080302611 -0.027090039 0.015709043
-0.080446556 -0.027469557 0.015696168
-0.077680156 -0.026852399 0.015903026
-0.076480903 -0.026768316 0.015518039
-0.076548226 -0.027131017 0.015130967
-0.074994355 -0.026921051 0.014672041
-0.076201156 -0.027709512 0.012991101
-0.074035704 -0.027276311 0.010685205
-0.072092906 -0.026914686 0.0088982284
-0.074423365 -0.028160194 0.007237345
-0.086409524 -0.026512014 0.0083034933
-0.084306411 -0.026164059 0.011204511
-0.085465908 -0.02683232 0.013058752
-0.081961408 -0.026034802 0.01441893
-0.082075156 -0.026381301 0.015104741
-0.080871142 -0.02630748 0.01540783
-0.07852143 -0.025854617 0.015420467
-0.077282429 -0.025760809 0.015435398
-0.078282341 -0.026420292 0.015179098
-0.07604181 -0.025988972 0.014686316
-0.074769422 -0.025881723 0.013912737
-0.074453548 -0.026107088 0.011998564
-0.072109871 -0.025617979 0.010368854
-0.073596969 -0.026494909 0.0088982284
-0.073393345 -0.026778651 0.0075518191
-0.084553756 -0.024981791 0.0079785585
-0.084771067 -0.025333881 0.011099666
-0.082671709 -0.024993772 0.012845814
-0.080115564 -0.024505937 0.013844371
-0.080916315 -0.025045525 0.014819562
-0.079111412 -0.024781888 0.015308142
-0.077682883 -0.024631159 0.015357792
-0.077997021 -0.025036082 0.015342891
-0.074709743 -0.024280667 0.015062511
-0.074807651 -0.024620241 0.014686316
-0.074684039 -0.024894681 0.014291704
-0.073995933 -0.024985639 0.012375921
-0.073277906 -0.025068756 0.010768265
-0.073321439 -0.025418099 0.0090822279
-0.070278935 -0.024692597 0.0076112151
-0.087374441 -0.024822285 0.0073122084
-0.083277017 -0.023930177 0.011099666
-0.081060961 -0.023564233 0.012804419
-0.082834303 -0.024363032 0.013753921
-0.07881543 -0.023456974 0.014949679
-0.078728199 -0.023713311 0.015179753
-0.07889495 -0.024053339 0.015249133
-0.075919785 -0.023432033 0.01548022
-0.077948928 -0.02435904 0.015011221
-0.075193115 -0.02379529 0.014832705
-0.074253008 -0.023799041 0.014517844
-0.074597649 -0.024220016 0.012741864
-0.073407993 -0.024147365 0.01047799
-0.070840061 -0.023613352 0.0086758435
-0.073447444 -0.024813326 0.0073082149
-0.084444396 -0.023030289 0.0052866638
-0.084139518 -0.023210902 0.010646433
-0.082375161 -0.022988416 0.012005091
-0.080101214 -0.022616815 0.012792975
-0.079439238 -0.022696925 0.014138669
-0.081122436 -0.023457089 0.014898002
-0.079142138 -0.023163553 0.015018404
-0.078669861 -0.023309588 0.015268385
-0.077912994 -0.023373898 0.014903873
-0.074638344 -0.022674939 0.014903873
-0.076373138 -0.023499427 0.014139205
-0.075295553 -0.023468744 0.01286
-0.072614126 -0.022930777 0.010623991
-0.075931139 -0.024297966 0.0089007318
-0.072815463 -0.023615824 0.0073317885
-0.083908543 -0.022182718 0.01041925
-0.083073929 -0.022217447 0.011419922
-0.082793154 -0.022402853 0.012407094
-0.081194319 -0.022231778 0.01354748
-0.079203293 -0.0219479 0.014660954
-0.079139218 -0.022197584 0.014829546
-0.079566516 -0.022592962 0.014974833
-0.076356828 -0.021952588 0.014618993
-0.077260926 -0.022493688 0.014488816
-0.076286271 -0.02249467 0.013618231
-0.074380592 -0.022217579 0.012691081
-0.073516667 -0.022248464 0.010568798
-0.073386215 -0.022505106 0.0089120269
-0.070879839 -0.022030221 0.0070607066
-0.08437106 -0.021335211 0.006862551
-0.082614549 -0.021133954 0.010715187
-0.082622431 -0.021384628 0.011458844
-0.081025586 -0.021220986 0.01255548
-0.080323741 -0.02129063 0.013618827
-0.079815991 -0.021414047 0.014155328
-0.078769892 -0.021394292 0.014503092
-0.078355849 -0.02154786 0.013857454
-0.077994034 -0.021719858 0.0137254
-0.073979087 -0.020865897 0.012763113
-0.075505838 -0.021573097 0.010923713
-0.074009225 -0.021423724 0.0092114508
-0.072080739 -0.021143684 0.0080798864
-0.073629417 -0.021889826 0.0061469674
-0.084527463 -0.02040318 0.0050323308
-0.085939363 -0.020985194 0.0072823465
-0.082593054 -0.020405343 0.010833502
-0.080375709 -0.020093927 0.011772752
-0.079710945 -0.020167829 0.012405902
-0.079479337 -0.020354465 0.012763113
-0.076720573 -0.019890519 0.013537407
-0.076598361 -0.02010707 0.012681931
-0.075610884 -0.020099096 0.012681931
-0.074940786 -0.020176366 0.010932863
-0.073558539 -0.02006142 0.010155767
-0.072259195 -0.019966356 0.0083931983
-0.072988652 -0.020436822 0.0067209005
-0.080932684 -0.019042984 0.0071511269
-0.080791906 -0.019236168 0.010557055
-0.079152256 -0.019072833 0.010795236
-0.077904537 -0.019001106 0.011052161
-0.079680286 -0.019674145 0.011059731
-0.077067174 -0.019266794 0.010874808
-0.077565596 -0.01963686 0.010661393
-0.074568331 -0.019120086 0.0092513859
-0.073402554 -0.019065598 0.0084414184
-0.074069604 -0.019492 0.0068089366
-0.08006116 -0.018109072 0.0066461861
-0.080508448 -0.018429646 0.0083614886
-0.079010285 -0.018307261 0.00862813
-0.076165572 -0.017865999 0.0091395378
-0.075237654 -0.017868944 0.0091243386
-0.074592195 -0.017939895 0.0084959567
-0.074778259 -0.018215219 0.0073641837
-0.075460874 -0.018620215 0.0062508285
-0.078511022 -0.017234126 0.0053787529
-0.078882001 -0.017529335 0.0067806542
-0.077114642 -0.017350793 0.0067923367
0 0 0 1 0 0 0 1 0 0 0 1 0 0 0 0 0 1183 1 0 0
