ply
format ascii 1.0
comment PCL generated
element vertex 1269
property float x
property float y
property float z
element camera 0
property float view_px
property float view_py
property float view_pz
property float x_axisx
property float x_axisy
property float x_axisz
property float y_axisx
property float y_axisy
property float y_axisz
property float z_axisx
property float z_axisy
property float z_axisz
property float focal
property float scalex
property float scaley
property float centerx
property float centery
property int viewportx
property int viewporty
property float k1
property float k2
end_header
0.00090874865 -0.049981173 0.017371953
0.0019214303 -0.052839335 0.017371953
0.002829456 -0.05187336 0.017018259
0.0036899047 -0.050736193 0.016204476
0.0047834595 -0.052618053 0.016204476
0.0056690369 -0.051966172 0.016024321
0.0066029467 -0.051880293 0.014238596
0.0076974411 -0.052919909 0.014238596
0.008689316 -0.053101376 0.012043953
0.0094684372 -0.052076403 0.010723501
0.010969365 -0.054846827 0.0095314384
0.011713573 -0.053687207 0.01059711
0.012650714 -0.053522252 0.010724187
0.013742053 -0.053986639 0.010511518
0.014598083 -0.053526305 0.010914534
0.015978927 -0.054927558 0.010842919
0.01627936 -0.052668516 0.012589157
0.017144149 -0.052384898 0.013123363
0.018598715 -0.053838383 0.013440639
0.019061588 -0.052419364 0.0096608698
0.019180244 -0.050233971 0.009323746
0.021050604 -0.052626509 0.0090898573
0.022098113 -0.052843314 0.0080210268
0.023052612 -0.052828904 0.0071893632
0.024970345 -0.054934759 0.0064859688
0.02498013 -0.052842584 0.0060539246
0.026325658 -0.05362634 0.0057815611
0.027733423 -0.054476365 0.0052609146
-0.011183246 -0.050324608 0.0057574213
-0.010267457 -0.050403878 0.0093488097
-0.0092987195 -0.050213087 0.013772964
-0.0084291091 -0.050574657 0.016005933
-0.0075363182 -0.05087015 0.018343866
-0.006514831 -0.050257266 0.019182682
-0.0055419593 -0.049877632 0.020060062
-0.0046943198 -0.050698657 0.019364476
-0.0037699423 -0.050894219 0.020139515
-0.002776149 -0.049970683 0.020209163
-0.0018720011 -0.050544031 0.020514697
-0.00093393738 -0.050432619 0.020323128
0 -0.049550876 0.020339936
0.00093527802 -0.050505012 0.020128459
0.0018408011 -0.049701631 0.020120591
0.0027768801 -0.04998384 0.019823879
0.0037248502 -0.050285481 0.019144714
0.004631863 -0.050024122 0.019021451
0.0055470774 -0.049923699 0.01891309
0.0065655848 -0.050648797 0.019034594
0.0073155221 -0.049379777 0.018912286
0.0082706483 -0.049623892 0.018847436
0.0093358802 -0.050413754 0.018834293
0.01020916 -0.050117694 0.018834293
0.011029019 -0.049630586 0.018791467
0.011971719 -0.049728677 0.018917859
0.012811388 -0.049415354 0.018791467
0.013875963 -0.049953468 0.018946171
0.014700226 -0.04961326 0.019227296
0.015675345 -0.049792275 0.018833935
0.016670126 -0.050010379 0.019160181
0.017647419 -0.050155822 0.019785345
0.018485116 -0.049909811 0.015611649
0.019319994 -0.049679983 0.014167756
0.020541152 -0.050419189 0.012880683
0.021082835 -0.04949883 0.012274951
0.022511611 -0.050651126 0.0097385049
0.024283813 -0.052453034 0.0088270009
0.024947599 -0.051814243 0.0080986917
0.02624595 -0.0524919 0.0076247752
0.026973372 -0.052020077 0.0066102743
0.028590972 -0.053238362 0.0061579347
0.03029884 -0.054537915 0.0059159994
0.030231196 -0.052660793 0.0054959655
-0.013132782 -0.05354134 0.0051524043
-0.011593544 -0.051204819 0.0092134476
-0.010379561 -0.05001061 0.013906032
-0.0094085578 -0.049865354 0.016337544
-0.0083338572 -0.049077157 0.018078923
-0.0074609108 -0.049428534 0.020701379
-0.0065580336 -0.049653683 0.020752758
-0.0056199376 -0.049642779 0.020991772
-0.0046703401 -0.049505606 0.021101087
-0.0037541715 -0.049742773 0.021312147
-0.0028158731 -0.049747091 0.02148059
-0.0018731338 -0.049638048 0.021887332
-0.0009440108 -0.050032571 0.021544784
0 -0.050291128 0.021822512
0.00092572777 -0.049063575 0.021619737
0.0018498539 -0.049021129 0.021618098
0.0027906434 -0.049301367 0.021573037
0.0037444211 -0.04961358 0.021237075
0.0046365191 -0.049147103 0.021191716
0.0055778911 -0.049271375 0.021064818
0.0065422519 -0.049534194 0.020506173
0.0074862577 -0.049596459 0.020514846
0.008504943 -0.050084665 0.020238757
0.0093500698 -0.049555372 0.020116329
0.0102127 -0.049206644 0.020195961
0.01126679 -0.049761657 0.020195961
0.01207725 -0.049238019 0.020116329
0.013176564 -0.049882706 0.019956529
0.014130173 -0.049926613 0.019884229
0.01473264 -0.048801869 0.019693851
0.015915774 -0.049619764 0.019790888
0.016944403 -0.049891856 0.019714653
0.017438399 -0.048643954 0.019959629
0.018658316 -0.049444534 0.019876868
0.01958362 -0.049425326 0.017887056
0.020419713 -0.049192946 0.016768813
0.021419061 -0.049356967 0.015330285
0.022184994 -0.048991863 0.013563335
0.024351237 -0.051624622 0.012174487
0.027580801 -0.056222402 0.011148483
0.028356146 -0.055662066 0.0097395182
0.02946263 -0.055768549 0.0086952746
0.028993512 -0.052988142 0.0073465407
0.029247578 -0.051670719 0.0070143938
0.029894682 -0.05111026 0.0065746307
0.031109599 -0.051525272 0.0054195523
0.032101367 -0.051556736 0.005053252
-0.012066314 -0.048265256 0.0051524043
-0.011244274 -0.048725188 0.010345697
-0.010576062 -0.049995929 0.0157004
-0.0096158404 -0.050002374 0.018296987
-0.008541801 -0.049352627 0.019970298
-0.0074790427 -0.048613779 0.02125597
-0.0064873076 -0.048191428 0.021324068
-0.0056690071 -0.049131393 0.021489471
-0.0046277395 -0.048128489 0.021695912
-0.003720579 -0.048367526 0.022377014
-0.002824869 -0.048964396 0.022219777
-0.0018796187 -0.048870087 0.02201575
-0.00093177304 -0.048452199 0.02201876
0 -0.04893725 0.022281468
0.00092963979 -0.048341271 0.022246838
0.0018679168 -0.048565838 0.02224192
0.0028060367 -0.048637968 0.022008866
0.0037130218 -0.048269283 0.0218907
0.0047468836 -0.049367592 0.021678925
0.0056657162 -0.049102873 0.021499187
0.0064881612 -0.048197769 0.021150529
0.0075687403 -0.049196813 0.021528423
0.0083844112 -0.048443265 0.021194488
0.0094415843 -0.049096238 0.021191925
0.010328767 -0.048826896 0.021206558
0.011312993 -0.049022969 0.020935684
0.012037014 -0.048148055 0.020908564
0.013201469 -0.049034026 0.020876735
0.014000632 -0.048535526 0.020753473
0.015268731 -0.049623374 0.020618767
0.015879747 -0.048573345 0.020631164
0.016608166 -0.047979146 0.02100417
0.01797994 -0.049208257 0.021151453
0.018832646 -0.04896488 0.021007657
0.01971807 -0.048825696 0.020031929
0.020450758 -0.048338152 0.019539386
0.021556478 -0.048736386 0.018577307
0.022323973 -0.048368607 0.016781777
0.024566036 -0.051097352 0.016713202
0.025596807 -0.051193614 0.013984948
0.025744496 -0.04958199 0.012492388
0.027685924 -0.051416714 0.01186043
0.027858706 -0.049953543 0.0093867183
0.028323598 -0.049094237 0.0085475147
0.03008914 -0.050472107 0.0090260208
0.030143835 -0.04898373 0.0073173344
0.032883599 -0.051816583 0.0055781007
-0.012368126 -0.048521109 0.0089676976
-0.011427126 -0.048565283 0.015684336
-0.010226964 -0.047415923 0.017864645
-0.0092235105 -0.047039904 0.019970298
-0.0085265096 -0.048316889 0.020909488
-0.0075951223 -0.048418902 0.02193135
-0.0067876754 -0.049453065 0.022022873
-0.0056975707 -0.048429351 0.02242136
-0.0046103969 -0.047026049 0.022371411
-0.0037423007 -0.047714334 0.0231722
-0.0028080666 -0.047737133 0.022822767
-0.001885727 -0.04808604 0.022806168
-0.00093232759 -0.047548708 0.022746116
0 -0.047527093 0.022586584
0.00093324186 -0.047595333 0.022675782
0.0018736585 -0.047778293 0.022649735
0.0027727762 -0.047137193 0.022263557
0.003802031 -0.048475895 0.02240932
0.0046938956 -0.047877736 0.022188574
0.0056123687 -0.047705136 0.022026271
0.0066511622 -0.048458468 0.021620005
0.0074659288 -0.047595296 0.021862924
0.0084349215 -0.047797885 0.021593839
0.0093514705 -0.0476925 0.021854222
0.010301359 -0.047760844 0.022152781
0.011294796 -0.048002884 0.021731943
0.012281802 -0.04818245 0.021598428
0.01294913 -0.047171831 0.02150622
0.014004378 -0.047614887 0.021570086
0.014857628 -0.047358692 0.021674603
0.015551672 -0.046655018 0.021687001
0.016940361 -0.047997691 0.022124827
0.017747555 -0.047638174 0.022193432
0.018508913 -0.047197729 0.021992922
0.019637676 -0.047691498 0.02119118
0.020661095 -0.047896177 0.020310879
0.021103153 -0.046793949 0.01957795
0.022175167 -0.047122229 0.019191682
0.024440041 -0.049857683 0.019041359
0.024338238 -0.047740389 0.0181669
0.025890829 -0.0489049 0.016494721
0.026388887 -0.048065472 0.014745176
0.027231308 -0.047889538 0.012407273
0.028892716 -0.049117617 0.011275202
0.029271802 -0.048156835 0.012692571
0.031003408 -0.049411681 0.00977844
0.031334359 -0.048425827 0.0075713098
0.032045908 -0.048068862 0.0057867467
0.033193901 -0.048368257 0.005235225
-0.014010947 -0.050039098 0.0052978694
-0.012408537 -0.047725141 0.013798714
-0.011207798 -0.046699159 0.017324746
-0.010295331 -0.046796959 0.019272953
-0.0095684119 -0.047842059 0.020520985
-0.0084513789 -0.046952106 0.021011651
-0.0076282863 -0.047676791 0.022149175
-0.0065027047 -0.046447892 0.02242136
-0.0055085132 -0.045904275 0.022424579
-0.004804526 -0.048045263 0.022242814
-0.0038203227 -0.047754031 0.022889704
-0.0028208685 -0.047014475 0.02276504
-0.0018718307 -0.046795767 0.022909522
-0.00093129149 -0.046564572 0.022819787
0 -0.046872552 0.022718549
0.00093037705 -0.046518855 0.02258265
0.0018828027 -0.047070067 0.022577971
0.0028022164 -0.046703607 0.022588193
0.0037493727 -0.046867158 0.022663057
0.0046405657 -0.046405658 0.022350311
0.0056112739 -0.046760615 0.022239536
0.0065854709 -0.047039077 0.021958143
0.0074517918 -0.046573699 0.022134066
0.0085660098 -0.047588941 0.02208221
0.0092972396 -0.046486199 0.022134453
0.010308066 -0.046854846 0.022409409
0.011328438 -0.047201823 0.022323996
0.01208777 -0.046491422 0.022134453
0.013068527 -0.046673309 0.022264957
0.014061945 -0.046873149 0.022164315
0.01458086 -0.045565188 0.022463322
0.016134543 -0.047454543 0.022703886
0.016895432 -0.046931759 0.022869498
0.017460655 -0.045949094 0.023114473
0.018656237 -0.046640594 0.02276805
0.019655578 -0.046798993 0.022129565
0.020876689 -0.047447022 0.021280527
0.021661609 -0.047090452 0.020055443
0.022297824 -0.0464538 0.019533008
0.024275854 -0.048551708 0.019442588
0.024668789 -0.047439978 0.019031793
0.025434377 -0.0471007 0.01788196
0.026373584 -0.047095686 0.016380429
0.028031776 -0.048330646 0.015108824
0.027942695 -0.046571158 0.014172018
0.029047627 -0.046851013 0.015322775
0.030501829 -0.047659107 0.013566077
0.029840849 -0.045213409 0.010648131
0.032050058 -0.04713244 0.0080115497
0.033691272 -0.048130389 0.0057305694
0.03362558 -0.046702191 0.0051738024
-0.014007514 -0.049026299 0.0052226484
-0.011936409 -0.04499108 0.013729155
-0.011283777 -0.046075422 0.016802549
-0.010378391 -0.046231009 0.018570006
-0.0091759088 -0.044961952 0.019983202
-0.0084255533 -0.045872454 0.020705402
-0.0076072854 -0.046594623 0.021912307
-0.0065291161 -0.045703813 0.021941453
-0.0057648434 -0.047079556 0.022300154
-0.0047173402 -0.046229936 0.022219777
-0.0037237494 -0.04561593 0.022772104
-0.0027979938 -0.045700565 0.022779554
-0.0019140037 -0.046893094 0.023061424
-0.00092982268 -0.045561314 0.022874355
0 -0.045203008 0.022756547
0.0009194595 -0.045053516 0.022946447
0.00187755 -0.045999974 0.023013979
0.0028230478 -0.046109781 0.022794962
0.0037783673 -0.046285 0.022743434
0.0046859481 -0.045922291 0.022585213
0.0056006354 -0.045738522 0.022429377
0.0065274094 -0.045691866 0.022379935
0.0075707166 -0.046370637 0.022508025
0.0083652176 -0.045543961 0.02240324
0.0092374589 -0.045263551 0.022536963
0.010234944 -0.045592025 0.022595465
0.011155818 -0.045552921 0.022709846
0.012143138 -0.045770288 0.022678375
0.013178476 -0.046124667 0.022717029
0.014126741 -0.046147354 0.022758543
0.015008592 -0.045963813 0.022776902
0.015777256 -0.045475621 0.022789299
0.016563198 -0.045088701 0.023042351
0.01799041 -0.046396323 0.023189604
0.018827816 -0.04612815 0.023134202
0.019528901 -0.045567434 0.022751957
0.020432005 -0.045507647 0.022083372
0.021494918 -0.045793522 0.020982265
0.022020202 -0.04495791 0.020246804
0.024596706 -0.048209544 0.020195067
0.024491519 -0.046157092 0.019522548
0.025422741 -0.046137568 0.018903047
0.02663566 -0.046612404 0.01798147
0.027342247 -0.046198968 0.016031891
0.027546778 -0.044993069 0.015129507
0.029667331 -0.046893522 0.015535533
0.030056389 -0.046023846 0.014355958
0.031486612 -0.046752848 0.013147801
0.03292346 -0.04744852 0.0095022619
0.032613505 -0.045658909 0.0069380999
0.034176175 -0.046517573 0.0052667856
-0.012291905 -0.045385499 0.013798714
-0.011670465 -0.046681859 0.016857982
-0.010388325 -0.045330871 0.018363297
-0.0095786285 -0.045977417 0.019919366
-0.008580138 -0.045760736 0.020159721
-0.0075106546 -0.045063928 0.021838427
-0.0065094088 -0.044635944 0.021852493
-0.0055877664 -0.044702131 0.02188912
-0.0046782722 -0.044911411 0.021879315
-0.0038066092 -0.045679312 0.022419035
-0.0028005196 -0.044808313 0.022350371
-0.0018998401 -0.04559616 0.022685289
-0.00091835007 -0.044080801 0.022646397
0 -0.044748124 0.022465736
0.00095901248 -0.0460326 0.022529691
0.0018598485 -0.044636365 0.022438228
0.0027802195 -0.044483513 0.022258759
0.0037468679 -0.044962417 0.022473127
0.0046612038 -0.044747557 0.022184223
0.0056049563 -0.04483965 0.0221425
0.0065926113 -0.045206476 0.021955639
0.0074111824 -0.044467092 0.022134066
0.0084024128 -0.044812869 0.021989614
0.0093903104 -0.045073491 0.022086203
0.010345423 -0.045143664 0.022190481
0.011140321 -0.044561286 0.02227059
0.012096256 -0.044663098 0.022200078
0.013130555 -0.045019045 0.022323996
0.013996815 -0.04478981 0.022503942
0.014897306 -0.044691917 0.022526026
0.015976897 -0.045111239 0.02253437
0.017188927 -0.045837142 0.022805572
0.018088553 -0.045697395 0.022805572
0.018391643 -0.044139944 0.022713631
0.019735768 -0.04511033 0.022455692
0.020633962 -0.045019552 0.021835119
0.02145406 -0.04477369 0.020688683
0.022628933 -0.045257866 0.020236343
0.024172094 -0.046410419 0.020171881
0.024333064 -0.044922579 0.019506991
0.025470069 -0.045280125 0.01882866
0.026696663 -0.045765709 0.018072456
0.027184993 -0.044995852 0.016201377
0.028264979 -0.045223966 0.015654534
0.029374961 -0.045483809 0.016514182
0.030190209 -0.045285311 0.014850169
0.031177497 -0.045349084 0.013814896
0.031621985 -0.044642802 0.011741102
0.032965951 -0.045210443 0.0092487335
0.033471946 -0.044629261 0.0059595108
-0.013869872 -0.046563141 0.005117625
-0.012327337 -0.044568062 0.015184164
-0.011080148 -0.043397248 0.017026752
-0.010519535 -0.044947103 0.018512189
-0.0094516976 -0.04442298 0.019859046
-0.0084071942 -0.043904237 0.019773245
-0.0077148369 -0.045324665 0.021588773
-0.0065916399 -0.044258155 0.021267802
-0.0056538638 -0.044288602 0.021475047
-0.0047647515 -0.044788662 0.021492422
-0.0037819145 -0.044437494 0.021891952
-0.0027744973 -0.043467123 0.021781802
-0.0019046845 -0.044760086 0.022584021
-0.00094113348 -0.044233274 0.022526473
0 -0.044219084 0.022279561
0.0009296108 -0.04369171 0.022374451
0.0018504251 -0.04348499 0.022158712
0.0028595428 -0.044799503 0.021854162
0.0037906931 -0.044540644 0.021900564
0.0045928401 -0.043172698 0.021847248
0.0056041209 -0.043898948 0.021824926
0.0064824051 -0.04352472 0.021354049
0.0074266456 -0.043631542 0.021847248
0.0084872842 -0.044322483 0.021540284
0.00939075 -0.044136528 0.021869272
0.010161554 -0.043417547 0.02198711
0.011271008 -0.044144783 0.021958143
0.012107121 -0.043771897 0.022017688
0.013134582 -0.044094667 0.022047311
0.013985591 -0.043821517 0.022364467
0.015021785 -0.044126496 0.022378236
0.015808858 -0.043706845 0.022510022
0.01700994 -0.044414844 0.022723079
0.017374337 -0.042978626 0.022681445
0.018952694 -0.044538829 0.022509992
0.019603724 -0.043875001 0.022257119
0.020413952 -0.043611627 0.021456957
0.021450862 -0.04383437 0.020190835
0.02226777 -0.043607716 0.019804806
0.024311651 -0.045705903 0.019554585
0.024563557 -0.044403352 0.019158721
0.025515601 -0.044416044 0.018556327
0.026577005 -0.044611402 0.017916739
0.028346578 -0.045941003 0.016359389
0.027950767 -0.043789536 0.015649974
0.028675368 -0.043475557 0.016765207
0.030269405 -0.044458188 0.014891803
0.031012528 -0.044169355 0.014059156
0.032507453 -0.044936772 0.011937082
0.032856945 -0.044122186 0.0095143616
0.03318933 -0.043330513 0.0069335401
-0.012198712 -0.043164674 0.015646309
-0.011310224 -0.043355864 0.017569274
-0.010414708 -0.043552417 0.018497109
-0.0093972255 -0.043227237 0.019849092
-0.0084064389 -0.042966243 0.020255953
-0.0076332251 -0.043891042 0.021666408
-0.0064621856 -0.042465791 0.021350652
-0.0057074963 -0.043757468 0.021691412
-0.0046052197 -0.042368021 0.021645546
-0.003787921 -0.04356109 0.02202633
-0.0028572811 -0.043811645 0.02141571
-0.001868181 -0.042968165 0.022481561
-0.00091294321 -0.041995388 0.022543937
0 -0.043347321 0.022489488
0.00092739274 -0.042660065 0.022486925
0.0018937875 -0.043557115 0.022111624
0.002833687 -0.043449868 0.021827549
0.0037457326 -0.043075927 0.021824926
0.0046716705 -0.042979367 0.021792918
0.0056006908 -0.042938631 0.021646649
0.0066034291 -0.043393962 0.021351427
0.0074186577 -0.042657282 0.021824926
0.0083098887 -0.042472765 0.021453917
0.0092320526 -0.042467441 0.021620244
0.010293365 -0.043044981 0.021823764
0.011224663 -0.043027874 0.021723002
0.01207038 -0.042710576 0.021846682
0.013295486 -0.043685168 0.021916866
0.014047389 -0.043078661 0.0222781
0.014891783 -0.042813875 0.022116482
0.015838495 -0.042857103 0.022437274
0.016654324 -0.042561047 0.022668034
0.017873753 -0.0432733 0.022685796
0.018634384 -0.042859085 0.022628635
0.019479215 -0.042668756 0.022318065
0.020804511 -0.043500341 0.021620303
0.02152173 -0.043043461 0.020579964
0.022029128 -0.042222496 0.019999385
0.02404033 -0.044234209 0.019700259
0.024230778 -0.04286984 0.019158721
0.025063325 -0.042700481 0.01841253
0.026351584 -0.043291889 0.017708361
0.027301984 -0.043306593 0.016007602
0.027751261 -0.042551935 0.015463561
0.029483041 -0.043749027 0.015750557
0.029916674 -0.043005221 0.014752895
0.030847352 -0.042999338 0.013290435
0.032004785 -0.043300588 0.011169642
0.032422487 -0.042612411 0.0092252791
0.033750292 -0.043125372 0.0069998801
-0.012455012 -0.043113504 0.015282124
-0.011343523 -0.042538211 0.017914116
-0.010185781 -0.041669104 0.018953413
-0.0095036058 -0.042766225 0.019960284
-0.0084637823 -0.042318914 0.020529777
-0.007630073 -0.042919159 0.021573424
-0.0065853065 -0.042334113 0.021329492
-0.0056733089 -0.042549819 0.021588773
-0.0046895109 -0.042205598 0.021491855
-0.0037785403 -0.042508576 0.021645546
-0.0028451246 -0.04267687 0.021183044
-0.0018315413 -0.041209679 0.021818131
-0.00095205673 -0.042842552 0.021818131
0 -0.041833013 0.02195856
0.00094772782 -0.042647749 0.022266567
0.0019011691 -0.042776305 0.02189225
0.0027785462 -0.041678194 0.021489978
0.0037234256 -0.041888535 0.021489978
0.0047065816 -0.042359233 0.021377563
0.0056517278 -0.042387959 0.021377563
0.0064892918 -0.041716874 0.021227121
0.007503279 -0.042205945 0.021724224
0.0084517132 -0.042258564 0.021336764
0.00933355 -0.042000972 0.021620244
0.010106 -0.041342728 0.021809369
0.011238943 -0.042146035 0.021512777
0.012146845 -0.042046774 0.021723002
0.012978601 -0.04171693 0.021557868
0.014047869 -0.042143609 0.021992266
0.015060928 -0.042358857 0.021921098
0.015700271 -0.041559543 0.022336602
0.016833602 -0.042084001 0.022670269
0.017912552 -0.042424466 0.022716343
0.018645983 -0.041953463 0.022331089
0.019619254 -0.042041257 0.021872759
0.020438248 -0.041805506 0.021130651
0.021213062 -0.041503817 0.020409375
0.022972018 -0.043072533 0.019691557
0.023960525 -0.043128945 0.019509524
0.024413528 -0.042254183 0.019111156
0.025215289 -0.04202548 0.017549247
0.026556848 -0.042680647 0.016300201
0.027662676 -0.04292484 0.015045911
0.028554771 -0.042832159 0.014489233
0.029178767 -0.042356275 0.015310466
0.03064896 -0.0431001 0.013777673
0.031417888 -0.042842574 0.012084305
0.032270268 -0.042710647 0.00940153
0.033231419 -0.042726107 0.0077813864
0.033808284 -0.042260353 0.0063276887
-0.012191551 -0.041263711 0.012673467
-0.011194647 -0.04104704 0.01698944
-0.010564867 -0.04225947 0.017995745
-0.009491072 -0.041760717 0.019859046
-0.0084398817 -0.041261643 0.02026397
-0.0075981002 -0.04178955 0.021237403
-0.0066746804 -0.041955132 0.02101472
-0.0055304426 -0.04055658 0.021062553
-0.0046737916 -0.041129366 0.02103278
-0.0037632822 -0.041396104 0.021314949
-0.0028097194 -0.041209217 0.021105766
-0.0018926865 -0.041639101 0.021765649
-0.00092610926 -0.040748809 0.021818131
0 -0.041757669 0.022209018
0.00094165723 -0.041432917 0.02226755
0.001839641 -0.040472105 0.02189225
0.0027963668 -0.041013382 0.021489978
0.0037632822 -0.041396104 0.021489978
0.0046219686 -0.040673323 0.021377563
0.0056039672 -0.04109576 0.021409571
0.0066503561 -0.041802239 0.021336764
0.0074420418 -0.040931229 0.021742165
0.0086373826 -0.042227201 0.021540284
0.0091856942 -0.040417057 0.021809369
0.010201487 -0.040805947 0.021596253
0.011488646 -0.042125039 0.021571279
0.011971312 -0.040518288 0.021823764
0.013135082 -0.041281685 0.021809369
0.013921227 -0.0408356 0.022005677
0.014789385 -0.040670808 0.022047311
0.015736958 -0.040730949 0.022406667
0.016805569 -0.041080277 0.0226987
0.017494159 -0.040512789 0.022716343
0.018810926 -0.041384038 0.022261024
0.019534133 -0.040928662 0.021823108
0.020390604 -0.040781207 0.020972937
0.021429267 -0.040995117 0.019827455
0.022306575 -0.040895388 0.01919055
0.023924684 -0.042107444 0.019052416
0.024437942 -0.041356515 0.018088669
0.02579252 -0.042032257 0.016653627
0.026148854 -0.041091058 0.014962822
0.028199578 -0.042785566 0.01373136
0.028077669 -0.041180581 0.012747705
0.029124932 -0.041338615 0.014058858
0.030939609 -0.042541962 0.011891156
0.03071491 -0.040953215 0.010478735
0.032318674 -0.041824169 0.0075365305
0.033436432 -0.042034369 0.0069009662
0.033599351 -0.041065875 0.0053225458
-0.012229052 -0.040449943 0.012606144
-0.011181728 -0.040067859 0.016845763
-0.010469223 -0.040925145 0.017732024
-0.0092011355 -0.039564881 0.019259781
-0.0084450031 -0.040348351 0.019575268
-0.0076255775 -0.04098748 0.020593405
-0.0066291648 -0.040722013 0.02055949
-0.0057665058 -0.041326627 0.020551801
-0.0047254125 -0.040638547 0.020911992
-0.0036975159 -0.039748296 0.021232456
-0.0028849596 -0.041351087 0.021091104
-0.0018559003 -0.039901856 0.02127555
-0.00092942215 -0.039965153 0.021884471
0 -0.040088505 0.022164375
0.00092326384 -0.039700344 0.022221923
0.001908459 -0.041031867 0.021850705
0.0028214876 -0.040441323 0.021566838
0.0036645916 -0.03939436 0.021511853
0.0047403495 -0.040767007 0.021377563
0.0056944434 -0.040810175 0.021389812
0.0065182089 -0.040040426 0.021349013
0.0075270636 -0.040457968 0.021589845
0.0085223597 -0.040717941 0.02127862
0.0092383176 -0.039724763 0.02141735
0.010394132 -0.040631603 0.021561861
0.011254133 -0.040327307 0.021466672
0.012023862 -0.03977124 0.021552533
0.01329746 -0.040842198 0.021479487
0.014142711 -0.040542439 0.021768093
0.014955425 -0.040192705 0.021612912
0.015552961 -0.039339844 0.02202037
0.016776333 -0.040076792 0.022455692
0.017840542 -0.040375963 0.022432357
0.018455693 -0.039679743 0.021794736
0.019318461 -0.03955685 0.021286368
0.020467395 -0.040004451 0.020579964
0.02139613 -0.040001459 0.019688427
0.02252033 -0.040348925 0.018534839
0.024191447 -0.041609287 0.01798147
0.024534972 -0.040577069 0.016301841
0.025681388 -0.040899988 0.014674276
0.027283693 -0.041899957 0.012810618
0.028251337 -0.041889913 0.012205422
0.028744074 -0.041199837 0.010996073
0.030105527 -0.041759279 0.011456579
0.030282887 -0.040692631 0.010215014
0.031778403 -0.041408218 0.0085069239
0.032885373 -0.041590326 0.0071460605
0.032827009 -0.040330324 0.0057988763
-0.012197554 -0.039407481 0.010913759
-0.011309161 -0.039582063 0.016265005
-0.010146891 -0.038742673 0.01758495
-0.0093085598 -0.039095953 0.018713027
-0.008421544 -0.039300539 0.019525766
-0.0075530293 -0.039653402 0.020237803
-0.0065789102 -0.039473463 0.020173401
-0.0055943006 -0.039160103 0.020155221
-0.0045989738 -0.03863138 0.020432174
-0.0038324429 -0.040240653 0.02084583
-0.0028089103 -0.039324746 0.020586699
-0.0018911721 -0.039714616 0.020981938
-0.00093864382 -0.039423041 0.02088505
0 -0.039523043 0.021393657
0.00093657069 -0.03933597 0.021331221
0.0018820261 -0.039522547 0.021052778
0.0027394008 -0.03835161 0.021263927
0.0037902505 -0.03979763 0.020983964
0.0046550659 -0.039102554 0.021029353
0.0055394294 -0.038776007 0.021510363
0.0065900059 -0.039540038 0.021430641
0.0075569302 -0.039673883 0.021486998
0.0085076792 -0.039702505 0.02144441
0.009420719 -0.03956702 0.021616429
0.01030378 -0.039341707 0.02169168
0.01132452 -0.039635818 0.021583438
0.012039895 -0.038898122 0.021752059
0.013396629 -0.040189888 0.021552533
0.014077125 -0.039415952 0.021751255
0.015037543 -0.039473552 0.021618009
0.015991278 -0.039507862 0.022066712
0.01672506 -0.039025139 0.0220837
0.017677652 -0.039076917 0.022246808
0.018498611 -0.038847081 0.021742076
0.019841755 -0.03968351 0.021130651
0.020515932 -0.039166778 0.020384759
0.0218431 -0.039887398 0.01962927
0.02236438 -0.039137665 0.017784476
0.024324186 -0.040864632 0.016038835
0.025081148 -0.040515702 0.014129579
0.02587397 -0.040248398 0.012248904
0.02630141 -0.039452117 0.011257082
0.027844375 -0.040326338 0.0099080205
0.02922244 -0.040911417 0.0085649192
0.030006113 -0.040653441 0.0085608661
0.030604279 -0.040168118 0.0074304044
0.031893197 -0.040591344 0.0069998801
0.032233119 -0.039817382 0.0050045252
-0.012151716 -0.038324643 0.0051682591
-0.011280743 -0.038542539 0.014609098
-0.010358186 -0.038607784 0.017227948
-0.0095079746 -0.038982697 0.018690765
-0.0083656609 -0.038110234 0.019525766
-0.0075335917 -0.038609657 0.020300448
-0.0065802522 -0.038541477 0.020165473
-0.0056462982 -0.038583037 0.020195603
-0.0048121088 -0.039459292 0.020432174
-0.0037144364 -0.038072973 0.020848066
-0.00279851 -0.038246304 0.020688295
-0.0018900923 -0.038746893 0.021216989
-0.00093188439 -0.038207259 0.021745861
0 -0.038174883 0.021422714
0.0009590183 -0.03931975 0.021380842
0.0018682634 -0.0382994 0.021126598
0.0027807667 -0.038003813 0.021316022
0.0037763845 -0.038707942 0.021189839
0.0046106009 -0.037806924 0.021255285
0.0056777578 -0.038798012 0.021521509
0.00661354 -0.038736448 0.02150777
0.0074857962 -0.038364705 0.021667928
0.0084452145 -0.038472641 0.021521509
0.0092684161 -0.038000509 0.021521509
0.010317287 -0.038455341 0.021728933
0.011262459 -0.038480066 0.021561861
0.012180238 -0.038414598 0.021706223
0.013070005 -0.038276441 0.021599144
0.014178708 -0.038755137 0.021751255
0.014882687 -0.038136885 0.021571398
0.015916863 -0.038387727 0.021651924
0.01688201 -0.038453463 0.021797985
0.017666245 -0.038121898 0.022005677
0.019252717 -0.039468072 0.021430105
0.019684657 -0.03843195 0.020809352
0.020153137 -0.03755812 0.020282298
0.021272054 -0.037919749 0.01923418
0.022014 -0.037607249 0.015737444
0.024368534 -0.039964397 0.0130862
0.025516439 -0.04023746 0.012086481
0.026030259 -0.039527431 0.010672122
0.026781941 -0.039216414 0.0094373524
0.028557152 -0.040373906 0.0080952346
0.028735667 -0.039272077 0.0071477592
0.029765163 -0.03936683 0.007186383
0.031193901 -0.039967187 0.0056832433
-0.011510431 -0.038368106 0.014046639
-0.010337433 -0.037590664 0.017305017
-0.0091788396 -0.036715358 0.018713027
-0.0085588088 -0.038039152 0.019632041
-0.0075589758 -0.037794881 0.020300448
-0.0064420016 -0.036811437 0.020218641
-0.0057823984 -0.038549323 0.02025947
-0.0047328621 -0.037862897 0.020466506
-0.0037190821 -0.037190821 0.021002144
-0.0028327249 -0.037769668 0.020980269
-0.0018941226 -0.037882451 0.021376848
-0.00092810683 -0.037124272 0.021929622
0 -0.038226828 0.021887183
0.00092542398 -0.037016958 0.021657795
0.0019061957 -0.038123913 0.021704584
0.0028157134 -0.037542846 0.021831423
0.0037751771 -0.037751772 0.021523535
0.0047307275 -0.03784582 0.021799594
0.0056437557 -0.037625037 0.021851689
0.0064296247 -0.036740713 0.021834821
0.0075399559 -0.037699778 0.021893531
0.0083914734 -0.037295435 0.021774352
0.0092916088 -0.037166435 0.021728635
0.010334752 -0.037580915 0.021820486
0.011089888 -0.036966294 0.021778554
0.012274555 -0.037767861 0.021945029
0.013289301 -0.037969429 0.021703243
0.014002353 -0.037339609 0.021612912
0.015105969 -0.037764922 0.02158922
0.015964551 -0.037563652 0.021556497
0.01692263 -0.037605844 0.021725804
0.017857244 -0.037594195 0.021992266
0.018400185 -0.03680037 0.021160871
0.019329233 -0.036817588 0.020649731
0.021126971 -0.038412675 0.019950479
0.022253608 -0.038701925 0.018209934
0.022258021 -0.037096702 0.013588667
0.024682023 -0.039491236 0.011686534
0.026206283 -0.040317357 0.0097226799
0.027520182 -0.040770639 0.0083497167
0.02807131 -0.040101871 0.0078977942
0.028751243 -0.039656889 0.0054080784
0.029397922 -0.039197229 0.005110085
-0.011176888 -0.036324888 0.01205954
-0.010623024 -0.037663449 0.017099798
-0.0096768243 -0.037739616 0.018859565
-0.0087458687 -0.037898764 0.019634962
-0.0076677105 -0.037380088 0.020693034
-0.0066664582 -0.037141696 0.020512015
-0.0056576384 -0.03677465 0.020758271
-0.0046453541 -0.03623376 0.02101326
-0.0037324843 -0.03639172 0.021549851
-0.0028307042 -0.036799155 0.021314949
-0.0018486296 -0.036048278 0.021936923
-0.00094377459 -0.036807209 0.022270501
0 -0.0357919 0.022169203
0.00094596966 -0.036892816 0.022536546
0.0018654586 -0.036376443 0.022170871
0.0027964979 -0.036354475 0.022280306
0.0037268749 -0.036337029 0.022183567
0.0047029709 -0.036683176 0.022254914
0.005509119 -0.035809275 0.022226572
0.0066434131 -0.0370133 0.022090882
0.0074833576 -0.036481369 0.022090882
0.008522572 -0.036931146 0.021976531
0.0094067873 -0.036686473 0.021799892
0.010241523 -0.036310855 0.02197209
0.011116183 -0.036127597 0.021946907
0.01246466 -0.03739398 0.022062033
0.012987251 -0.036178771 0.022082806
0.014093707 -0.036643639 0.021848738
0.01512347 -0.036863457 0.021571398
0.015364863 -0.035248801 0.021674991
0.016797582 -0.036394764 0.021713585
0.01753895 -0.036001001 0.02196908
0.01885809 -0.036773276 0.021151096
0.020166736 -0.037452511 0.020579964
0.020778652 -0.036834884 0.019528329
0.020912223 -0.035459857 0.017679214
0.022579324 -0.036691401 0.011526167
0.024102287 -0.037599567 0.0092875659
0.025111441 -0.037667159 0.0069461465
0.026465548 -0.038228013 0.00563851
0.027011864 -0.037623666 0.0052751899
-0.011364014 -0.035986044 0.0054316223
-0.010412397 -0.035970099 0.013848305
-0.0095432401 -0.036264312 0.017353654
-0.0084489752 -0.035673451 0.018783301
-0.0077095809 -0.036620509 0.019880503
-0.0066570072 -0.036138039 0.01994437
-0.005629784 -0.035655297 0.020076245
-0.0047437777 -0.036052708 0.020076901
-0.0037885434 -0.035991162 0.020335078
-0.0027937281 -0.035387222 0.020735621
-0.001905562 -0.036205679 0.021272838
-0.00095242413 -0.036192115 0.021906346
0 -0.035629187 0.021784812
0.00093809504 -0.035647612 0.021965355
0.0018611728 -0.035362285 0.021613151
0.0027979352 -0.035440512 0.02195707
0.0037295229 -0.035430469 0.021860331
0.0046270196 -0.035165351 0.021988094
0.0057519637 -0.036429103 0.022065729
0.0065588527 -0.0356052 0.021892816
0.0073667271 -0.034991954 0.021900952
0.0085021928 -0.035898149 0.021918386
0.0092811296 -0.035268292 0.021280169
0.010300428 -0.035583299 0.021414518
0.011392537 -0.036076367 0.021485269
0.01210882 -0.035395015 0.021485269
0.013119364 -0.035609704 0.021645367
0.014361372 -0.036382142 0.021274418
0.014475074 -0.034378301 0.020934552
0.015930178 -0.035608631 0.020934552
0.016930094 -0.035741307 0.020770788
0.017321231 -0.034642462 0.020764202
0.019097855 -0.036285926 0.020086616
0.01981746 -0.035860166 0.019584388
0.021452188 -0.037053782 0.017862469
0.0218571 -0.036111731 0.011556983
0.021804905 -0.034524433 0.0089428127
0.024587389 -0.037372831 0.005943805
0.025535185 -0.037320655 0.0054775774
-0.011613026 -0.039061997 0.01043117
-0.010237368 -0.03787826 0.014143825
-0.0096514327 -0.039678112 0.018320322
-0.0077201901 -0.035705879 0.019556344
-0.0065570436 -0.034658659 0.019679904
-0.0056933458 -0.035108965 0.019693583
-0.0047168769 -0.03490489 0.019645393
-0.0037528775 -0.034714118 0.01982376
-0.0028620951 -0.035299171 0.020125061
-0.0018919964 -0.035001934 0.020698071
-0.00093253184 -0.034503676 0.020873994
0 -0.034979809 0.020894736
0.00094326324 -0.03490074 0.021110833
0.0018854112 -0.034880109 0.020819306
0.0028531321 -0.03518863 0.02130574
0.0036882486 -0.034116298 0.021320194
0.0046943179 -0.034737952 0.021510631
0.0056860298 -0.035063852 0.021900654
0.0065182089 -0.034453392 0.021838218
0.0075348662 -0.034848757 0.021518469
0.0085229082 -0.035038624 0.021405816
0.0092572132 -0.03425169 0.02120772
0.010425643 -0.035068072 0.020883381
0.011151011 -0.034382284 0.021152884
0.01216805 -0.034632143 0.021186143
0.01331111 -0.035179362 0.020909548
0.013978196 -0.034479551 0.020877063
0.015119192 -0.034963131 0.020573288
0.015909214 -0.034625936 0.020088553
0.016562529 -0.034045201 0.019884706
0.018149516 -0.035343792 0.019860357
0.020381283 -0.037705373 0.018342644
0.019820988 -0.034922693 0.016005307
0.021557668 -0.036256079 0.0107463
0.023053832 -0.037086599 0.0086684227
0.02191266 -0.033782016 0.0052566528
-0.011138645 -0.040099122 0.010457546
-0.0095831929 -0.038332772 0.014144987
-0.0074849576 -0.033682309 0.018027395
-0.006614937 -0.034019675 0.018873334
-0.0055992119 -0.033595271 0.019072831
-0.0045963624 -0.03309381 0.018875182
-0.0037920598 -0.034128539 0.019483536
-0.0028206941 -0.03384833 0.019562155
-0.0018887842 -0.033998117 0.019694597
-0.00094226695 -0.033921611 0.019887328
0 -0.033495888 0.019943714
0.00093555998 -0.03368016 0.020121127
0.001871956 -0.03369521 0.020056576
0.0027938061 -0.033525672 0.020281017
0.0037991323 -0.034192193 0.02053836
0.004754574 -0.034232933 0.021211922
0.0056189648 -0.033713788 0.021409899
0.0066298726 -0.034096487 0.021423072
0.0074215592 -0.033397015 0.021211922
0.0082588391 -0.033035357 0.021063954
0.0095233778 -0.03428416 0.020665735
0.01034228 -0.033847462 0.020592868
0.011319707 -0.033959121 0.020906389
0.01222324 -0.033848971 0.020847827
0.013018208 -0.033475392 0.020584136
0.013954129 -0.033489909 0.020238876
0.015008711 -0.0337696 0.019835889
0.01582084 -0.033502959 0.018431008
0.016794603 -0.033589207 0.018078357
0.017624918 -0.033394583 0.017957479
0.021120124 -0.038016222 0.015203208
0.023375239 -0.040071838 0.010097563
0.023426959 -0.038335025 0.0067245066
-0.0084237345 -0.03275897 0.01043117
-0.0075769178 -0.033149015 0.013848305
-0.0066083493 -0.033041745 0.01644671
-0.0056177098 -0.032769974 0.017139018
-0.0047401129 -0.033180788 0.017104387
-0.0037180602 -0.032533027 0.018629342
-0.0028100063 -0.032783404 0.01907593
-0.0018903165 -0.033080541 0.019246221
-0.00093364355 -0.032677524 0.019392461
0 -0.03356323 0.019537002
0.0009293147 -0.032526013 0.019655973
0.0018666601 -0.032666553 0.019739032
0.0027714127 -0.032333151 0.019756109
0.0037404965 -0.032729343 0.019850582
0.0046325079 -0.032427553 0.020137191
0.0056147836 -0.032752905 0.020498276
0.0064615542 -0.03230777 0.020498276
0.0073730717 -0.032257188 0.020447046
0.0085010873 -0.033059783 0.020430118
0.0093000261 -0.032550093 0.019879699
0.010262209 -0.032652486 0.019219309
0.011244062 -0.032795183 0.019486547
0.012275975 -0.033050701 0.019315302
0.012934241 -0.032335602 0.018793881
0.014239793 -0.033226185 0.018664986
0.014935183 -0.032670714 0.018184125
0.015920848 -0.032778218 0.016082644
0.016888419 -0.032838594 0.015064865
0.017673025 -0.032555573 0.013574392
0.018594831 -0.032540955 0.0087870359
0.020294368 -0.033823948 0.0054067671
-0.007484491 -0.031809088 0.0078435838
-0.0065722787 -0.031922497 0.01143086
-0.0056204428 -0.031849176 0.014084786
-0.0047253189 -0.032132167 0.015810519
-0.0037391484 -0.031782761 0.017045975
-0.002833687 -0.03211512 0.018240422
-0.0018622061 -0.031657506 0.018529087
-0.00092909986 -0.031589396 0.018981218
0 -0.031440243 0.019140065
0.00092751463 -0.031535499 0.019111395
0.0018830573 -0.032011975 0.019382656
0.0028649629 -0.032469578 0.019483447
0.0036818406 -0.031295646 0.01952827
0.0047039818 -0.031987075 0.01992324
0.0056094695 -0.031786993 0.020400017
0.0065227794 -0.03168207 0.020400017
0.0074893674 -0.031829812 0.019881546
0.0082391221 -0.031125572 0.019881546
0.0092149861 -0.031330954 0.019252867
0.010168 -0.031428363 0.018467158
0.011204187 -0.031745195 0.018437862
0.012076717 -0.031585258 0.018240839
0.012982421 -0.031528737 0.017940402
0.013832626 -0.031353951 0.01605922
0.015221238 -0.032345131 0.014409125
0.015906841 -0.031813681 0.011991739
0.016657611 -0.031464376 0.008936584
0.017600678 -0.031495947 0.006616354
0.018480934 -0.03141759 0.0053371787
-0.0069009964 -0.032533269 0.0061700344
-0.0060199862 -0.033109926 0.010844737
-0.004904049 -0.032366723 0.012919664
-0.0040589315 -0.033486184 0.016333997
-0.0029709251 -0.032680176 0.01705727
-0.0019530911 -0.032226004 0.017932862
-0.00097612798 -0.032212224 0.017828315
0 -0.031498104 0.018508434
0.0009594232 -0.031660967 0.018896878
0.0019182188 -0.03165061 0.019031882
0.0028099788 -0.030909766 0.019450188
0.0037321688 -0.030790392 0.019862592
0.0045904019 -0.030296652 0.020060927
0.0057127513 -0.03142013 0.020563215
0.0066654589 -0.031422876 0.02016747
0.0076587591 -0.03159238 0.01979959
0.0085574994 -0.031377498 0.019731909
0.0098429788 -0.032481831 0.018762022
0.010606013 -0.03181804 0.017705053
0.011662236 -0.032071151 0.017674327
0.012687762 -0.032207396 0.016912848
0.013787131 -0.032498237 0.015353769
0.014572284 -0.032059025 0.013552159
0.01564071 -0.032258961 0.010772079
0.016566839 -0.032159157 0.0068365037
0.017703889 -0.032457128 0.0054158866
-0.006074931 -0.032399632 0.006341964
-0.0049321647 -0.031565856 0.0095718205
-0.0037802742 -0.030242193 0.013729781
-0.0028581286 -0.030486705 0.01671648
-0.0019300777 -0.030881243 0.017196864
-0.00094657595 -0.03029043 0.017698824
0 -0.030489514 0.01823017
0.00094535673 -0.030251415 0.018657714
0.0018647256 -0.02983561 0.018725425
0.0028857442 -0.030781273 0.019435287
0.0037888088 -0.030310471 0.019811779
0.0047352682 -0.030305717 0.019840926
0.0057260161 -0.030538753 0.019908607
0.006766696 -0.030933466 0.019739628
0.0075686802 -0.030274721 0.019193649
0.0086410241 -0.030723643 0.018820584
0.0093714176 -0.029988537 0.017813295
0.01022543 -0.029746708 0.017051846
0.011460601 -0.030561604 0.016578853
0.012546964 -0.030884836 0.015415192
0.013800987 -0.031545114 0.014386892
0.014571602 -0.031086082 0.0097575188
0.015680913 -0.031361826 0.0066404343
-0.0061221523 -0.03163112 0.0050992966
-0.0048807007 -0.030260343 0.0067082942
-0.003855417 -0.029879482 0.011234045
-0.0029757486 -0.030749403 0.01433602
-0.0019026654 -0.029491313 0.0162265
-0.00095091487 -0.02947836 0.017440081
0 -0.03004916 0.017670065
0.0009432949 -0.029242141 0.018122852
0.0019213189 -0.029780442 0.018670917
0.0028429811 -0.029377472 0.019169599
0.0038176235 -0.029586583 0.019621283
0.0047356267 -0.029360887 0.019632161
0.0057099853 -0.029501591 0.019658297
0.0065495959 -0.029005352 0.019458771
0.0077350321 -0.02997325 0.018755078
0.0086114947 -0.029661816 0.017786622
0.0095610572 -0.029639276 0.017270327
0.010893187 -0.030698981 0.015564114
0.011433671 -0.029536985 0.014648139
0.012503527 -0.029816104 0.013053715
0.01449709 -0.0321007 0.010255694
0.014576311 -0.030124377 0.006511569
0.015677158 -0.030374492 0.0052422285
-0.0049465438 -0.029679263 0.0061506033
-0.0039941617 -0.029956214 0.0074720383
-0.0029243699 -0.029243698 0.011509955
-0.0019331523 -0.028997283 0.012966484
-0.00096786523 -0.029035958 0.015462428
0 -0.029220749 0.017175436
0.00097249792 -0.029174939 0.017560154
0.0019146216 -0.028719325 0.017780572
0.0028265375 -0.028265374 0.01811263
0.0037722909 -0.028292183 0.018929631
0.0048383544 -0.029030126 0.01897499
0.0056595462 -0.02829773 0.019321948
0.0065487809 -0.028066205 0.01889053
0.007625361 -0.028595105 0.01765573
0.0084552187 -0.028184062 0.017208874
0.0096244738 -0.028873423 0.015688479
0.010618401 -0.028959276 0.014636397
0.011426413 -0.028566031 0.012713522
0.01266911 -0.029236408 0.0096065104
0.014237812 -0.030509597 0.0074069798
0.014593722 -0.029187445 0.0058720708
-0.0039441651 -0.028595198 0.0062972009
-0.0028839505 -0.027878188 0.0089766681
-0.00196533 -0.028497284 0.011557102
-0.00095701328 -0.027753385 0.014327943
0 -0.028297899 0.016105443
0.00094768754 -0.027482938 0.016821027
0.0018496435 -0.026819831 0.017216593
0.0028431744 -0.027484018 0.017534256
0.0037927667 -0.027497558 0.018050879
0.0046381284 -0.026901145 0.018842459
0.0057103699 -0.027600121 0.018738627
0.006531287 -0.02705819 0.01753071
0.0075683086 -0.027435118 0.016713619
0.0084782476 -0.027318796 0.016411424
0.0093057705 -0.026986733 0.014669687
0.010340902 -0.027262378 0.01377669
0.011819728 -0.028564341 0.010625482
0.012562158 -0.028023275 0.0084631145
0.013810473 -0.028607408 0.0064044297
-0.0039260862 -0.027482603 0.0060340166
-0.0029345728 -0.027389346 0.0070797205
-0.0018959525 -0.026543336 0.010739058
-0.00095091067 -0.026625499 0.012511462
0 -0.026093138 0.015194237
0.00092927413 -0.026019676 0.015768945
0.0018824222 -0.026353912 0.017103672
0.0027864727 -0.026007079 0.017343432
0.0036269673 -0.025388772 0.017883509
0.0046082377 -0.025806131 0.018624187
0.0055845426 -0.026061198 0.018457085
0.0065419087 -0.026167635 0.017293245
0.0073908074 -0.025867825 0.01662606
0.008409638 -0.026163317 0.015238345
0.0094147753 -0.02636137 0.014240324
0.010334129 -0.026305053 0.012276769
0.011405106 -0.026611913 0.0090410113
0.012381493 -0.026667831 0.0065921843
-0.0039213919 -0.026469395 0.0061460137
-0.0028531696 -0.025678527 0.0094001293
-0.0018937326 -0.02556539 0.010684699
-0.00093748991 -0.025312226 0.013880432
0 -0.025007892 0.015448064
0.00095095829 -0.025675874 0.016542017
0.0018721588 -0.025274144 0.017138273
0.0028301335 -0.025471201 0.01765573
0.0037585592 -0.025370276 0.018357545
0.0048028817 -0.02593556 0.018505156
0.0055493731 -0.024972178 0.018464506
0.0066373702 -0.025601285 0.018224657
0.0074165529 -0.025030864 0.016866148
0.0084780734 -0.025434222 0.016052991
0.0094871502 -0.025615305 0.014575809
0.010469357 -0.025697514 0.01338914
0.011358895 -0.025557514 0.01010862
0.012970453 -0.026938634 0.007252425
0.013909022 -0.026824543 0.0050391555
-0.0038101594 -0.024766037 0.0060279965
-0.002814356 -0.024391087 0.0091461241
-0.0019570698 -0.025441907 0.010684699
-0.00093119516 -0.024211073 0.013980985
0 -0.024987504 0.015432358
0.00094551564 -0.024583407 0.016518176
0.0018740728 -0.024362948 0.016947091
0.0028309918 -0.024535263 0.018228024
0.0038496456 -0.025022697 0.018592536
0.004604748 -0.023944689 0.018621743
0.005632625 -0.024408042 0.018559426
0.0066777552 -0.024803091 0.01817432
0.0073408671 -0.023857819 0.017728627
0.0087262914 -0.025209287 0.015888005
0.0094089834 -0.024463356 0.014440358
0.010457085 -0.024716748 0.013553202
0.011896635 -0.025776042 0.010314077
0.012472124 -0.024944248 0.0073497295
-0.0038534405 -0.024084002 0.0057438314
-0.0029462609 -0.024552174 0.0094096363
-0.0019298389 -0.024122987 0.011385083
-0.00095536205 -0.023884052 0.014578342
0 -0.024347216 0.015719652
0.00094128662 -0.023532165 0.016389847
0.0019281328 -0.024101662 0.017250597
0.0029131752 -0.02427646 0.018114001
0.0036565154 -0.02285322 0.018759251
0.0047432468 -0.023716234 0.0187383
0.0057575013 -0.023989588 0.018602252
0.0065624323 -0.023437258 0.018293053
0.007679896 -0.023999676 0.017622024
0.0084354738 -0.023431871 0.016355336
0.0094848834 -0.02371221 0.014950335
0.010651781 -0.024208594 0.013717145
0.011650718 -0.02427233 0.010130167
0.012553334 -0.024141027 0.0077005029
-0.0039171595 -0.023502957 0.0056010783
-0.0028492876 -0.022794301 0.010335088
-0.0019441528 -0.023329832 0.012252629
-0.00096300745 -0.023112178 0.015084058
0 -0.022577068 0.015745163
0.00094625255 -0.022710061 0.016364634
0.0018742095 -0.022490514 0.017326921
0.0027935412 -0.022348329 0.01814881
0.0037899506 -0.022739703 0.018859267
0.0048274701 -0.023171857 0.018810153
0.0054696454 -0.021878581 0.018729955
0.0065993224 -0.022626247 0.018284321
0.0074983593 -0.022495078 0.017573833
0.0084143747 -0.022438332 0.016145766
0.0094589945 -0.022701588 0.01521945
0.010452449 -0.022805344 0.013249874
0.011444971 -0.022889942 0.0099103749
0.01298831 -0.023978418 0.0075299144
0.013971742 -0.023951558 0.0052332878
-0.003852427 -0.022151455 0.0063614845
-0.0028884695 -0.022144934 0.010157764
-0.0019212903 -0.022094838 0.011756837
-0.0009443275 -0.021719534 0.013961852
0 -0.021786856 0.015289843
0.00094816543 -0.021807805 0.016150087
0.0018528164 -0.021307388 0.01688835
0.0028166464 -0.021594288 0.017883092
0.0037539843 -0.02158541 0.018567771
0.0046152901 -0.021230336 0.018321246
0.0056225848 -0.021553243 0.018034667
0.0064357664 -0.021146089 0.017587245
0.0074240095 -0.021344027 0.016270131
0.0084579093 -0.021614658 0.015338808
0.0092862789 -0.021358442 0.014530361
0.010301991 -0.021540528 0.013050348
0.011793809 -0.022604801 0.010308981
0.012708348 -0.022484001 0.007438153
0.013879103 -0.022801382 0.0050663054
-0.0038473776 -0.021160576 0.0054928362
-0.0028768249 -0.021096716 0.0077774227
-0.0018963498 -0.020859849 0.010049969
-0.00093240716 -0.020512957 0.012019098
0 -0.020912372 0.013965011
0.00091248832 -0.020074744 0.015255988
0.001888553 -0.020774083 0.016094834
0.0028428358 -0.020847464 0.016561508
0.0036629394 -0.020146167 0.017498463
0.004645241 -0.02043906 0.016829312
0.0056632664 -0.02076531 0.016569376
0.0065152152 -0.020476392 0.016206026
0.0074309953 -0.020435238 0.015338808
0.0084142359 -0.020568131 0.014126301
0.0094563803 -0.020804036 0.012729406
0.010477026 -0.020954052 0.010557771
0.011465196 -0.021019526 0.0077359676
0.012152938 -0.020566512 0.0057370663
-0.0028523747 -0.019966623 0.0063315332
-0.0019091649 -0.020046232 0.008744359
-0.00093973015 -0.019734334 0.010279119
0 -0.019713931 0.011922479
0.00093217776 -0.019575732 0.013856173
0.0019028308 -0.019979723 0.015255988
0.0028209474 -0.019746633 0.015782237
0.0037477824 -0.019675858 0.016337961
0.0047092619 -0.0197789 0.016044825
0.005562128 -0.019467447 0.015731931
0.0066410694 -0.019923208 0.014855683
0.0074267276 -0.019495159 0.014103621
0.0084582027 -0.019735808 0.011959016
0.0096318657 -0.020226918 0.010632753
0.010372681 -0.01980239 0.0089049339
0.01149821 -0.020121867 0.006675899
0.012515569 -0.020217458 0.0053746998
-0.0028469125 -0.018979417 0.0056925118
-0.0019153882 -0.019153882 0.0065921247
-0.00094138202 -0.01882764 0.0095967054
0 -0.018994562 0.010059953
0.00095307466 -0.019061493 0.011758715
0.0018749514 -0.018749513 0.013742328
0.0028428931 -0.018952621 0.014496356
0.0038216205 -0.019108102 0.015459269
0.0046739792 -0.018695917 0.015481591
0.0056783664 -0.018927887 0.015142858
0.0066151149 -0.018900327 0.01426971
0.0075247064 -0.018811766 0.012953371
0.0085316971 -0.018959327 0.010664284
0.0095947767 -0.019189553 0.0091951787
0.010523429 -0.019133508 0.0074610114
0.01153845 -0.019230749 0.005640626
-0.0019118553 -0.018162625 0.0059301257
-0.00095849403 -0.018211387 0.007586658
0 -0.018485639 0.0099423826
0.00094040926 -0.017867776 0.010889202
0.0018991899 -0.018042304 0.01215148
0.0028282816 -0.017912451 0.013219208
0.0036827929 -0.017493267 0.014734328
0.0046904301 -0.017823635 0.014698207
0.0057539903 -0.018220969 0.013962626
0.0064706481 -0.017563188 0.013203651
0.007796973 -0.018517811 0.01104176
0.0085459491 -0.018041447 0.0090008378
0.0093555385 -0.017775523 0.0074799061
0.010628546 -0.018358396 0.0056027174
-0.00097437802 -0.017538805 0.0058960617
0 -0.017302144 0.0071446896
0.00094588456 -0.017025921 0.0095000863
0.001932543 -0.017392887 0.010022134
0.0028596832 -0.017158099 0.010560125
0.003838154 -0.017271694 0.01109767
0.0047147623 -0.016973145 0.01109767
0.0055450206 -0.016635062 0.010737747
0.0066747451 -0.017163631 0.0099138319
0.007603575 -0.017108044 0.0091572404
0.0085108392 -0.017021678 0.0071175694
0.0095746154 -0.017234307 0.0055389106
0.0009727804 -0.016537268 0.0057839453
0.0019574738 -0.016638529 0.00587973
0.0029263035 -0.016582387 0.0061899722
0.0038512512 -0.016367817 0.0062112808
0.0048534949 -0.016501883 0.0068068504
0.0058868104 -0.016679296 0.0062892139
