ply
format ascii 1.0
comment PCL generated
element vertex 1144
property float x
property float y
property float z
element camera 1
property float view_px
property float view_py
property float view_pz
property float x_axisx
property float x_axisy
property float x_axisz
property float y_axisx
property float y_axisy
property float y_axisz
property float z_axisx
property float z_axisy
property float z_axisz
property float focal
property float scalex
property float scaley
property float centerx
property float centery
property int viewportx
property int viewporty
property float k1
property float k2
end_header
0.097415186 0.019290136 0.0050631762
0.096154101 0.020944458 0.0050631762
0.095591277 0.021985993 0.0050042868
0.094753392 0.02297052 0.0052088201
0.096748888 0.023219733 0.0053303838
0.097323686 0.02312642 0.0052810609
0.097503528 0.022942007 0.005124867
0.099615753 0.023211438 0.005235076
0.088084437 0.023678612 0.0050740838
0.09371569 0.024153529 0.0052647293
0.093155332 0.023764115 0.0056114197
0.095470734 0.024108771 0.0059131682
0.096765652 0.024191413 0.0061032176
0.095948763 0.023749692 0.0058203936
0.097336531 0.023856994 0.0056179762
0.098455466 0.023896959 0.0056038797
0.099328302 0.023876995 0.005353272
0.10052944 0.023935581 0.0053932965
0.1014752 0.023932831 0.0053341389
0.10218984 0.023876131 0.0051755011
0.10517963 0.024347138 0.0050365925
0.079058588 0.02537683 0.0050754249
0.07997714 0.025358606 0.0051835477
0.080918357 0.025347918 0.0053986907
0.082100794 0.025412152 0.0052312315
0.084048264 0.025708882 0.0053651035
0.083020814 0.025099315 0.0051413476
0.085387066 0.025517974 0.0051216185
0.087969862 0.025991095 0.0052510798
0.086983517 0.025410915 0.0051596463
0.088861376 0.025671065 0.0051361024
0.089491785 0.025569079 0.0051589608
0.089693218 0.025348084 0.0051087141
0.092435643 0.025842223 0.0053483248
0.093351573 0.025820648 0.0054064691
0.092512548 0.025319224 0.0055812001
0.094879299 0.025696475 0.0056114197
0.094872221 0.025429668 0.0057705641
0.096157596 0.0255112 0.0060530603
0.096522592 0.025349367 0.0061604977
0.097552896 0.025363753 0.0068533123
0.10152589 0.026135378 0.0066610873
0.099728093 0.025420886 0.0062715113
0.097992189 0.024735892 0.0062715113
0.10037601 0.025094002 0.0056498349
0.10046743 0.024877651 0.0057376623
0.10130777 0.024849076 0.0055746734
0.10212063 0.024814358 0.0054589212
0.1030874 0.024817336 0.0052424073
0.079127364 0.026705487 0.0059061646
0.079644054 0.026548019 0.0061209202
0.079066373 0.02603405 0.0060968697
0.080955409 0.026334893 0.0063146055
0.080941141 0.026016794 0.0060887635
0.081274055 0.025816463 0.0063168406
0.083393432 0.026181659 0.0061312914
0.084479287 0.02621771 0.0062278807
0.084506996 0.025928283 0.0062283874
0.086782672 0.026327327 0.0060404241
0.08673472 0.026020417 0.0060960352
0.088688411 0.026314143 0.0059706867
0.090236045 0.026482318 0.0054053366
0.090557583 0.02629091 0.0061912239
0.09061183 0.026026802 0.0061912239
0.092482649 0.026284542 0.0058046281
0.091292389 0.025675984 0.0068100691
0.094245911 0.026233397 0.0068404973
0.094774626 0.026111377 0.0069770217
0.094640717 0.025811106 0.0069770217
0.097498193 0.026324512 0.0071689785
0.096129671 0.02569803 0.0069587529
0.097150013 0.02571618 0.0066892803
0.10818513 0.02835921 0.0066328943
0.10323986 0.026802655 0.0064222515
0.099072285 0.025475731 0.0066174567
0.10229323 0.026055822 0.0066328943
0.10197003 0.025730755 0.0064332187
0.10444178 0.026110446 0.0054819286
0.10762924 0.026660455 0.0052331388
0.072029151 0.026890881 0.0053373575
0.073720582 0.027160212 0.0055842698
0.074297816 0.027017388 0.0064432025
0.07468982 0.02681173 0.0065422654
0.075640589 0.026809322 0.0073317587
0.07760518 0.027161812 0.00736323
0.076900475 0.02658288 0.0070868433
0.080011204 0.027320899 0.0070775151
0.080713354 0.027228601 0.0071965456
0.07931219 0.026437396 0.0075159967
0.083612621 0.027542982 0.0076360703
0.084599763 0.027544109 0.0074709952
0.081848457 0.026342031 0.0076843202
0.086479768 0.027516289 0.007871449
0.08424554 0.026504215 0.0077680647
0.08501064 0.026447754 0.0078158379
0.08820007 0.027138483 0.0078967512
0.08876618 0.027015794 0.0081776083
0.088500641 0.026645355 0.0084753036
0.09182065 0.027350832 0.0084753036
0.091184489 0.026875429 0.0083926916
0.09325055 0.027198078 0.0084753036
0.093596861 0.027017651 0.0084753036
0.09147384 0.026135383 0.0084884167
0.095679462 0.027060859 0.0086305141
0.096888505 0.02712878 0.0086305141
0.096434258 0.02673425 0.0082163513
0.098260216 0.026973393 0.0074342191
0.099321529 0.027000029 0.0075763166
0.10002679 0.026930291 0.0070272684
0.1067152 0.028457388 0.0073775351
0.10460901 0.02763257 0.0074543953
0.10825613 0.028328707 0.0073775351
0.10871188 0.028184559 0.0068403184
0.10692364 0.027466623 0.0060060918
0.10903115 0.027753383 0.0055584908
0.11102844 0.028007174 0.0050521493
0.071168624 0.028272469 0.0053231418
0.072003014 0.028217398 0.0063662231
0.071202502 0.027531633 0.0070033967
0.075199157 0.028694415 0.0075564682
0.074336186 0.027996745 0.0088149309
0.075764507 0.028168857 0.0087861717
0.076868363 0.028217498 0.0093950033
0.076097906 0.027585492 0.0096829236
0.078077301 0.027953602 0.0089385808
0.078298509 0.027690938 0.0099189579
0.079010054 0.027605923 0.0099069476
0.081282347 0.028061762 0.0098106265
0.082264557 0.028066732 0.010177195
0.081917077 0.027623201 0.0098553896
0.084018998 0.028006332 0.010062367
0.083691031 0.027579999 0.0099677145
0.085215077 0.027766712 0.010152668
0.089480534 0.028832616 0.0099771619
0.086804576 0.027662996 0.0096856654
0.087237664 0.027498828 0.009750843
0.089391671 0.027874822 0.0099259317
0.088978052 0.027450675 0.010152251
0.090103604 0.027505312 0.010338992
0.091765508 0.027720831 0.010152251
0.090861626 0.027164815 0.010329813
0.092651427 0.027417259 0.01077202
0.093133681 0.027281582 0.01077202
0.093110688 0.0270021 0.011622369
0.094099656 0.027018713 0.011027724
0.094732538 0.026933761 0.010619938
0.094279595 0.02654474 0.010970712
0.098335117 0.02742037 0.0087939203
0.099789672 0.027560957 0.0090315938
0.10093848 0.027615244 0.0089826882
0.10361964 0.028083827 0.0081858337
0.10125693 0.027189361 0.0073232353
0.10251123 0.027273633 0.0068973303
0.10514203 0.027719263 0.0058703423
0.10482213 0.027385963 0.0052233934
0.067976475 0.028323531 0.0062594116
0.067398094 0.027697846 0.0068399608
0.067246825 0.027262224 0.010156333
0.070925407 0.028370162 0.011199087
0.070022099 0.027640302 0.01169464
0.071020715 0.02767041 0.01188159
0.073180266 0.028146256 0.012739867
0.073786385 0.028020145 0.012653559
0.07567101 0.028376628 0.012591422
0.075292721 0.027886193 0.012644827
0.075157754 0.027496738 0.012510806
0.077390701 0.027972544 0.012379289
0.077786073 0.02778074 0.012331039
0.077139355 0.027225655 0.012427688
0.07941296 0.027702196 0.013059139
0.081547886 0.028119963 0.012644827
0.080991879 0.027610866 0.01261434
0.082204461 0.027709369 0.01237005
0.084108941 0.028036313 0.01237005
0.083340332 0.027474834 0.01186645
0.085505083 0.027882094 0.01261434
0.085724138 0.027652947 0.013342768
0.085889705 0.027411606 0.014100969
0.088628598 0.027987977 0.014178455
0.087475471 0.027336085 0.01427272
0.090587392 0.02801672 0.014614552
0.091739066 0.028083386 0.015232742
0.090167679 0.02732354 0.015278697
0.093120344 0.027936103 0.015286982
0.094297782 0.028009243 0.014737546
0.094380066 0.027758842 0.014099538
0.094362192 0.027484132 0.014157027
0.096995205 0.027979387 0.013398856
0.097063705 0.027732486 0.013300091
0.10248799 0.029006034 0.012633264
0.10100596 0.028319426 0.011764467
0.10184395 0.028289987 0.0096456409
0.10341938 0.028464049 0.0082339048
0.1030218 0.028096855 0.0069339871
0.103662 0.028016757 0.0063209236
0.1072603 0.028730437 0.0052232146
0.10833906 0.028762583 0.0052065253
0.066492639 0.028628776 0.0062478781
0.06738314 0.028614759 0.01134634
0.068796881 0.028820314 0.013536096
0.068531565 0.028326381 0.013921887
0.069997676 0.028551683 0.014556229
0.07204517 0.029005198 0.014983207
0.072073966 0.028644782 0.014889807
0.071940273 0.028229726 0.014815062
0.074122466 0.028722458 0.014908373
0.073392279 0.028088404 0.014853805
0.076584272 0.028952591 0.014623612
0.077280849 0.028863931 0.015092075
0.07635656 0.028179206 0.015454978
0.078296587 0.028555226 0.015534729
0.080890805 0.029158313 0.015534729
0.079257093 0.028241033 0.015726775
0.081831455 0.028826989 0.015737325
0.082009144 0.028564982 0.014966816
0.081616327 0.028112292 0.014701307
0.084559277 0.028805908 0.014691859
0.083719552 0.02820985 0.015083939
0.085760087 0.028586695 0.015704185
0.088103637 0.029055456 0.015704185
0.08705987 0.028409012 0.015771031
0.090878442 0.029346164 0.015704185
0.08939524 0.028569613 0.016095489
0.08954002 0.028323883 0.0160456
0.091580756 0.028676802 0.01573053
0.093310185 0.028926158 0.01601252
0.092700414 0.028452603 0.015866786
0.094104558 0.028600404 0.015615195
0.096518181 0.029049162 0.015824616
0.097422063 0.029039269 0.014474511
0.10138872 0.02993381 0.014545381
0.099595934 0.029127114 0.014339209
0.098319225 0.028485009 0.013979822
0.10171558 0.029196139 0.012521237
0.099510014 0.028301012 0.01071471
0.10220948 0.02880449 0.0087323785
0.10534363 0.029420294 0.007301569
0.10373671 0.028712837 0.0064820349
0.10994972 0.030163199 0.005351156
0.067288794 0.03076059 0.0057461262
0.068108462 0.03069677 0.0081976652
0.06674128 0.02966279 0.011393279
0.068148255 0.029873207 0.01305455
0.068955921 0.029818775 0.014427513
0.069671363 0.029726449 0.015250027
0.071183324 0.029971926 0.015250027
0.072314702 0.030052861 0.015548497
0.071735874 0.029430101 0.016157389
0.073497199 0.029771017 0.016579151
0.074063316 0.029625326 0.016743422
0.075740531 0.029922185 0.01679799
0.076176167 0.029727284 0.016010702
0.076009162 0.029304735 0.016822219
0.077978618 0.029706141 0.016859055
0.07842388 0.029524285 0.016915888
0.078807324 0.029323656 0.016956627
0.080480196 0.029601909 0.017239928
0.081467278 0.029624466 0.017239928
0.082716122 0.02974063 0.017123282
0.083639227 0.029738391 0.017124116
0.085281141 0.029988974 0.016967922
0.084632799 0.029437495 0.017073721
0.087356932 0.030058298 0.017247766
0.086523071 0.029454662 0.017569661
0.086330205 0.02907965 0.01781714
0.088962913 0.029654304 0.017145842
0.086997546 0.028700223 0.017137319
0.091315754 0.029817389 0.017787397
0.092195608 0.029800599 0.016136736
0.09050411 0.028961316 0.016955346
0.09312731 0.029505681 0.016346246
0.096007638 0.030120043 0.016343862
0.094148129 0.029249903 0.016398013
0.09745504 0.029986165 0.016254872
0.097516224 0.02971923 0.016187131
0.096071668 0.029002767 0.015617281
0.1020797 0.03052851 0.015287995
0.099889264 0.029596819 0.014355958
0.10039224 0.029472953 0.012181818
0.10414356 0.030296309 0.0098772943
0.10368186 0.029890267 0.0083744824
0.1056907 0.030197345 0.0069534481
0.10745548 0.030429872 0.0054457486
0.064889006 0.030590532 0.0080821812
0.063988909 0.029741324 0.012044549
0.067278512 0.030835984 0.013229162
0.068886474 0.031140462 0.014697611
0.069572978 0.031025788 0.015882015
0.070601873 0.031064823 0.016509414
0.070059732 0.030420674 0.016462982
0.070645802 0.030276772 0.017057657
0.072987542 0.030879345 0.017254561
0.073424265 0.030670896 0.017451465
0.075312756 0.031066513 0.017608941
0.074603058 0.030393841 0.017905354
0.07445164 0.029962245 0.017290086
0.076718628 0.030502588 0.017290086
0.077575728 0.030476177 0.017498761
0.077976689 0.030273303 0.018254131
0.079632238 0.030556556 0.018264741
0.081528313 0.030924533 0.018534213
0.081840724 0.030690271 0.018547744
0.083244741 0.030866029 0.018179297
0.081928052 0.030040285 0.018484801
0.083706059 0.030354945 0.01808247
0.087353349 0.031333268 0.018156201
0.084324099 0.029921455 0.018581301
0.086272784 0.030287255 0.018749297
0.087293141 0.03032288 0.018811733
0.088483192 0.030416097 0.018390298
0.089519635 0.030455133 0.018433958
0.090752132 0.030559391 0.018391311
0.089837916 0.029945973 0.018148988
0.092150092 0.03040953 0.017938912
0.094782218 0.030968448 0.017296255
0.092686199 0.029986711 0.017173648
0.09598995 0.030754061 0.016948432
0.096858881 0.030734068 0.01669243
0.096335731 0.030276945 0.01661244
0.09947776 0.030969491 0.015812993
0.098090135 0.030252099 0.015758306
0.099372484 0.030363815 0.014404744
0.10218894 0.030937934 0.013169557
0.10126025 0.030378075 0.010602891
0.10134001 0.03012811 0.0097111762
0.10282362 0.030296246 0.007455498
0.10526311 0.030740555 0.0057531297
0.11163817 0.032316312 0.0051990151
0.066509806 0.032772947 0.0058742166
0.063814536 0.030995632 0.011166096
0.066251047 0.031725854 0.013018042
0.067083739 0.031678434 0.014661908
0.065677427 0.030589486 0.016039133
0.069377184 0.031876005 0.016989648
0.068201162 0.030917861 0.017358929
0.070307374 0.0314533 0.017261237
0.073668383 0.032528896 0.017436355
0.071890675 0.031336959 0.018368572
0.072602361 0.031246584 0.018387169
0.073468544 0.031224132 0.018456131
0.073975794 0.031051567 0.018672526
0.075041592 0.031114807 0.018400282
0.076144665 0.031191792 0.018347442
0.076457545 0.0309471 0.018339932
0.080018789 0.032007515 0.018621892
0.078781106 0.03114602 0.018663198
0.079086006 0.030907173 0.01865074
0.083059147 0.032091033 0.018783063
0.082630806 0.031566825 0.018611699
0.08246766 0.03115445 0.018783063
0.086370215 0.032270189 0.018529147
0.085083619 0.031443946 0.018611699
0.084788598 0.030997982 0.018647254
0.088844799 0.032135352 0.019104034
0.086906917 0.031103527 0.01930359
0.089577578 0.031725392 0.019081622
0.089770526 0.031465959 0.018886745
0.08914309 0.030927194 0.018983096
0.092441753 0.031747673 0.018461615
0.091802888 0.031212982 0.01821667
0.090199381 0.030364148 0.018102288
0.094717763 0.031572588 0.017659962
0.095129684 0.031402033 0.017419219
0.096063323 0.031405319 0.017164856
0.097551338 0.031588051 0.01681304
0.098532297 0.031604696 0.016141236
0.098421648 0.031274166 0.015955389
0.10313025 0.032466929 0.0147385
0.10041057 0.031320728 0.013261586
0.10063259 0.031104621 0.011494398
0.10364163 0.031746086 0.010069698
0.10175172 0.030888915 0.0082626641
0.1084054 0.032617554 0.0067017674
0.10945971 0.032645877 0.0053339303
0.063378066 0.032148294 0.0081976652
0.065771192 0.032885596 0.012269884
0.065941274 0.032506261 0.014217913
0.067135207 0.032635167 0.015839845
0.068607189 0.032893859 0.016954452
0.067566708 0.031957228 0.017371625
0.069776103 0.032562181 0.018342495
0.071306609 0.032838568 0.018392861
0.070680052 0.032127295 0.018411458
0.072268076 0.032427985 0.018876851
0.075898714 0.033626013 0.019110799
0.073544919 0.032175902 0.018968463
0.075786307 0.032747168 0.019053906
0.075683601 0.032303978 0.019021302
0.075965554 0.032033667 0.018923402
0.07762754 0.032344807 0.01893568
0.078787521 0.032441922 0.019019663
0.077536918 0.031555723 0.019152999
0.082014389 0.032994293 0.019295037
0.080502741 0.032018136 0.019232094
0.081646979 0.032108363 0.019232094
0.084517844 0.03286805 0.019313365
0.084374599 0.032451767 0.019295037
0.084482513 0.032140087 0.019176483
0.087979853 0.033110697 0.019394457
0.087593779 0.032614704 0.01966542
0.087768033 0.032335591 0.019806981
0.088649049 0.032319963 0.019474119
0.088426031 0.031906299 0.019460559
0.090584084 0.03235146 0.019375026
0.090770982 0.03209075 0.018594444
0.090576649 0.031701829 0.018429965
0.094514415 0.032752518 0.018197179
0.094434544 0.032404009 0.017884612
0.095304899 0.032385159 0.017477185
0.097025193 0.03265271 0.017166555
0.095621288 0.031873763 0.016774446
0.097285852 0.032122687 0.015961766
0.099322908 0.032488801 0.015824884
0.099739932 0.032323126 0.01461482
0.10077857 0.032360092 0.013031691
0.10276691 0.032698564 0.010429949
0.10110165 0.0318789 0.0096151233
0.10509387 0.032841835 0.0070643127
0.10797513 0.033443622 0.0055749416
0.066561311 0.03472764 0.0097108483
0.064184085 0.033008959 0.012820244
0.064458206 0.032683033 0.014217913
0.06619665 0.033098325 0.015828788
0.067870997 0.033470631 0.016930223
0.06830889 0.033231352 0.017288774
0.069413975 0.03331871 0.01832667
0.069632739 0.032983929 0.018404633
0.07146024 0.033409983 0.018404633
0.073741533 0.034034554 0.018845618
0.073904879 0.033678174 0.019029528
0.073945284 0.033275377 0.019009054
0.074906006 0.033291556 0.019258231
0.075448215 0.033123609 0.019226193
0.076711819 0.033272598 0.01915282
0.07805194 0.033450831 0.019099116
0.075264074 0.031876549 0.019176483
0.080824815 0.033833642 0.019328594
0.081137717 0.033574227 0.019328594
0.081467316 0.033327539 0.019232094
0.082246915 0.033268414 0.019226193
0.082507022 0.033002809 0.019303918
0.083699591 0.033111926 0.019203484
0.085951082 0.033633031 0.019116461
0.085416272 0.033064362 0.019215882
0.086754851 0.033225261 0.019617081
0.089137793 0.03377853 0.019750059
0.08638867 0.03239575 0.019460559
0.089902773 0.033365976 0.019425899
0.090196922 0.033133563 0.019328713
0.089135699 0.03241298 0.018886745
0.091840863 0.033062711 0.018361986
0.094638281 0.033732455 0.018102288
0.092195146 0.032539461 0.017811537
0.095395692 0.033342183 0.017696828
0.097695976 0.033817839 0.01709941
0.097279735 0.033353053 0.016780913
0.1003107 0.034067784 0.01588425
0.099503763 0.033477902 0.015345097
0.099666215 0.033222072 0.014074415
0.10229998 0.03378715 0.010907829
0.10145101 0.033202149 0.0097972453
0.10181579 0.033021338 0.0078323483
0.10624611 0.034150533 0.0057856143
0.10714023 0.03413317 0.0052772164
0.065199465 0.034962032 0.0097108483
0.063519195 0.033574432 0.012820244
0.066883571 0.034854818 0.014217913
0.068102904 0.034997325 0.015733331
0.067350201 0.034136403 0.016854018
0.069703951 0.034851976 0.017475665
0.068808869 0.033945709 0.01827696
0.070102736 0.034128964 0.018315613
0.072760321 0.034962751 0.018315613
0.073181227 0.03471417 0.018575221
0.073073313 0.034224212 0.018876851
0.074593998 0.034499723 0.018738747
0.071809366 0.032801807 0.018968463
0.076598853 0.034562897 0.019124299
0.075723402 0.033756215 0.018976241
0.075524881 0.033266913 0.01893568
0.080576681 0.035074554 0.019019663
0.080164388 0.03448933 0.019176483
0.078870609 0.033542674 0.019235373
0.081797086 0.034391958 0.019167274
0.082070142 0.034119047 0.01897338
0.081881419 0.03366236 0.019124985
0.083588384 0.033986483 0.019081622
0.085333057 0.034318727 0.018890649
0.086117148 0.034261663 0.018943667
0.089365751 0.035175882 0.019215882
0.087475695 0.034069482 0.019426376
0.089316197 0.034423951 0.01941368
0.089202486 0.034025691 0.019375026
0.089695491 0.033864625 0.019084781
0.091850199 0.034327853 0.018463373
0.092301004 0.034151372 0.018286139
0.09287145 0.034022216 0.017989457
0.094992951 0.034458227 0.017508268
0.095378257 0.034262095 0.017562658
0.097358033 0.034636993 0.016825169
0.098199576 0.034603659 0.016178995
0.098479949 0.034375075 0.01531601
0.099535204 0.034418713 0.014582574
0.10493635 0.035950415 0.011924416
0.10111482 0.034323379 0.0099885464
0.10461215 0.035187725 0.0081144273
0.10604918 0.035349727 0.0069534481
0.10322612 0.034101486 0.0052620173
0.064139768 0.035323352 0.0096974075
0.065806724 0.035723649 0.012707502
0.065614164 0.03511744 0.014242709
0.066094674 0.034883298 0.015636533
0.068399161 0.035605043 0.017241776
0.068774812 0.035316795 0.017988741
0.068866096 0.034892153 0.018344879
0.070697114 0.035348557 0.018496186
0.070956998 0.03501774 0.018496186
0.071873657 0.035015374 0.019017607
0.073991977 0.035591077 0.01901561
0.073423505 0.034876164 0.018958986
0.075856663 0.03558708 0.019528538
0.077608511 0.035964917 0.019476205
0.074535869 0.034124859 0.019155264
0.078051418 0.035308976 0.018990815
0.077926166 0.034837581 0.019308627
0.078718469 0.034782577 0.019476205
0.081905924 0.035775002 0.019375652
0.081477471 0.035183452 0.019136995
0.082371846 0.03517 0.018982202
0.08297579 0.035034224 0.01912415
0.082753927 0.034556586 0.019215882
0.084237091 0.034793582 0.019047767
0.086865775 0.035493542 0.019109637
0.0866291 0.035020273 0.019461691
0.087575406 0.035030164 0.019467056
0.089478023 0.035418384 0.019461691
0.087598726 0.034317028 0.019409955
0.091132879 0.03533724 0.01914382
0.091366395 0.035069928 0.019027323
0.090754956 0.034486882 0.018663675
0.093628548 0.035226583 0.018454134
0.093494453 0.034831267 0.018073201
0.093746677 0.034586154 0.01743871
0.10098219 0.036897339 0.016266733
0.098326989 0.035585005 0.015411198
0.10002093 0.03585656 0.014506519
0.10298508 0.03657414 0.013120711
0.10158542 0.035743017 0.010084838
0.10173877 0.035468563 0.0072904229
0.10661323 0.036830023 0.0060075819
0.10509293 0.035977758 0.005368948
0.065392278 0.036960851 0.0096974075
0.06548351 0.036483672 0.012626588
0.064282782 0.035310257 0.015188873
0.067735523 0.036690075 0.016233295
0.067400694 0.036008589 0.017338365
0.067732878 0.035697058 0.018055618
0.069928929 0.036363043 0.01829204
0.070535228 0.036195707 0.018466085
0.070829585 0.035874724 0.018466085
0.072271705 0.036135852 0.018863112
0.072905123 0.03599114 0.018888295
0.073535688 0.035848647 0.018741518
0.074244343 0.035747278 0.019201547
0.073355824 0.034888744 0.019229472
0.076954171 0.036159191 0.019155264
0.077327035 0.035901841 0.018934578
0.076731101 0.035206035 0.019668192
0.079045303 0.035846129 0.019468874
0.08134976 0.036467135 0.019523054
0.081342936 0.036049709 0.019459397
0.082532361 0.036165863 0.018982202
0.083705977 0.036272589 0.019122481
0.084066167 0.036028359 0.01930061
0.085321248 0.036168788 0.019109637
0.086034879 0.036079142 0.019189745
0.0863382 0.035821166 0.01930061
0.088250145 0.036229007 0.019652665
0.085446812 0.034712765 0.019313365
0.089890957 0.036141723 0.019285351
0.090898395 0.03617385 0.019142658
0.090836473 0.035784066 0.019050092
0.091179311 0.03555993 0.018502861
0.095750906 0.036973123 0.017929316
0.093393698 0.035709355 0.017435849
0.096393272 0.036498424 0.015940696
0.10130513 0.037989423 0.015355974
0.101343 0.037641685 0.014665604
0.10312492 0.03794219 0.011320382
0.10067361 0.036694121 0.0099992156
0.10313935 0.037244763 0.0072259009
0.10747027 0.038452666 0.0052092373
0.065756477 0.038119696 0.0091048777
0.064211458 0.036692262 0.012271523
0.06641522 0.037417024 0.013882995
0.06687744 0.037154131 0.01631102
0.066909753 0.03666288 0.017282963
0.070148222 0.037917957 0.017997086
0.070461139 0.037579276 0.018238395
0.068948038 0.03628844 0.018296212
0.071357884 0.03706903 0.018300295
0.071368039 0.036598995 0.018605322
0.072690696 0.036805414 0.018834442
0.074112058 0.037056029 0.018725365
0.074594997 0.036837034 0.019029528
0.076999292 0.037560631 0.018966675
0.076033786 0.03664279 0.018966675
0.076922648 0.036629833 0.019130081
0.079422481 0.037375286 0.019229472
0.080543742 0.037462205 0.019362807
0.078616239 0.036145397 0.019523054
0.082092725 0.037314877 0.019521266
0.08210998 0.036903359 0.019047767
0.082995214 0.036886763 0.019373834
0.08576443 0.037698653 0.01920259
0.084724374 0.036836687 0.01917237
0.084857285 0.036497757 0.019122481
0.088106379 0.037492078 0.019243896
0.086838171 0.036563441 0.019561499
0.0891684 0.037153501 0.01962015
0.090871565 0.037472811 0.019435406
0.089507028 0.036533482 0.019126594
0.09193445 0.037145231 0.018737584
0.093542397 0.037416957 0.018252462
0.091311343 0.036162909 0.017258853
0.09642832 0.037815027 0.016178995
0.095340848 0.037025571 0.015095145
0.099391751 0.038227595 0.014025956
0.10388763 0.039576244 0.011299342
0.10068029 0.037992563 0.0085021555
0.10300492 0.038506515 0.0063473284
0.065001838 0.038624279 0.008154422
0.065195605 0.038185995 0.011261851
0.064933479 0.037496798 0.013672024
0.067129992 0.038226802 0.016233295
0.068548977 0.038500112 0.017273068
0.068836048 0.038138893 0.01777342
0.0688015 0.037611488 0.018248528
0.071688712 0.038674172 0.018262953
0.070442803 0.037508503 0.018185645
0.072241321 0.037973002 0.018548876
0.073936135 0.038371917 0.01864481
0.073054761 0.037440564 0.018710643
0.07529626 0.038112924 0.019130081
0.076742508 0.038371254 0.018967003
0.076105423 0.037594248 0.018827349
0.079060279 0.038588949 0.018909872
0.078366198 0.037800167 0.019015819
0.078127675 0.037246913 0.019047767
0.080751218 0.03805517 0.019082457
0.080173209 0.037353426 0.019455284
0.081131473 0.037375174 0.019294977
0.085467622 0.038935252 0.019387543
0.08495526 0.038276546 0.019478768
0.084267043 0.037553791 0.019455284
0.087728292 0.038675912 0.019492388
0.084551401 0.036878802 0.019518793
0.085797489 0.037028387 0.019554257
0.090853259 0.038801912 0.019652665
0.088579684 0.0374409 0.019483566
0.092501476 0.038699597 0.019037127
0.092835434 0.038446996 0.018440515
0.08933787 0.036628526 0.017720789
0.094228685 0.038251247 0.016536772
0.095248975 0.038286354 0.015093565
0.093733795 0.037311509 0.013119608
0.10170758 0.040096257 0.010878742
0.10327535 0.040326566 0.0074411631
0.10329573 0.039954007 0.0055468678
0.065369204 0.039789952 0.0077269673
0.06520997 0.039125979 0.010933757
0.065558665 0.038781181 0.012669206
0.065810584 0.038389504 0.015456676
0.066443235 0.038227614 0.017055482
0.067685664 0.038416188 0.01777342
0.069482774 0.038910352 0.018156558
0.070039198 0.038705871 0.018248528
0.070861526 0.038651742 0.018281698
0.072211817 0.038883287 0.018754452
0.073164642 0.038897656 0.019130439
0.074164607 0.038936418 0.018920183
0.076964632 0.039907586 0.019215077
0.073719442 0.037758738 0.019231737
0.078178287 0.039560098 0.019155264
0.077637255 0.038818628 0.019125253
0.077360168 0.038225021 0.019286811
0.079895712 0.039018836 0.01926735
0.080281422 0.038756546 0.019559294
0.081291929 0.038798422 0.019689173
0.082366213 0.038869448 0.019492388
0.082571775 0.038533494 0.019664645
0.08250697 0.038080141 0.019606799
0.085380465 0.038978036 0.019701749
0.085049681 0.038409535 0.019711018
0.087198801 0.038961165 0.019554257
0.090030096 0.039802782 0.019563407
0.087266475 0.038179085 0.019665092
0.089756332 0.038863569 0.01962015
0.090921804 0.038966488 0.018929422
0.091574177 0.038849652 0.018350929
0.091977119 0.038630392 0.017105013
0.09430825 0.039217293 0.015836477
0.093000285 0.038294233 0.014564455
0.097276062 0.039665967 0.011524528
0.098711044 0.039864074 0.008131057
0.10128418 0.040513672 0.0055185258
0.065488078 0.040811412 0.0057781637
0.064173557 0.039420899 0.010906041
0.066487759 0.040267237 0.013317853
0.0662193 0.039547637 0.0157727
0.066445723 0.039139263 0.017204612
0.068600982 0.039862733 0.017947674
0.069638923 0.039926313 0.01829204
0.0698139 0.039499968 0.018428922
0.072359167 0.040408365 0.018388182
0.07140889 0.039366443 0.019278467
0.0716618 0.03900579 0.019307554
0.075512029 0.040587716 0.019151151
0.074423358 0.039508697 0.019735217
0.076626785 0.040182337 0.019761205
0.076164685 0.039458811 0.019357204
0.075768113 0.038786057 0.019278795
0.078222789 0.039571527 0.019353867
0.081495836 0.040747918 0.019214779
0.079435676 0.039261311 0.019538671
0.081607908 0.039876591 0.019652069
0.08150702 0.039379794 0.019498676
0.083556101 0.039921246 0.019588083
0.08496584 0.040148694 0.019557625
0.084000647 0.03926117 0.019446224
0.084793143 0.039205432 0.019420266
0.088825971 0.040633157 0.019047767
0.086336203 0.039078493 0.019446641
0.088586986 0.039679591 0.019059032
0.089201577 0.039542966 0.01878652
0.088916406 0.039014339 0.018378973
0.092542425 0.040195197 0.017874628
0.092386551 0.039726216 0.015863836
0.092168637 0.039240111 0.014681548
0.096738368 0.040781859 0.011818349
0.10096361 0.04214986 0.0094908476
0.10063888 0.041610304 0.0058597028
0.063349068 0.040396508 0.0058466494
0.064879365 0.040781315 0.0090797246
0.066017188 0.040912062 0.012073547
0.06674996 0.040791642 0.014909446
0.068883613 0.041518889 0.016727835
0.067972474 0.040416066 0.017341942
0.068821676 0.040375382 0.017899215
0.071541391 0.041418701 0.01809451
0.07059481 0.040339891 0.0181683
0.072695769 0.041007873 0.018404633
0.073450923 0.040909376 0.01894325
0.07270214 0.039986178 0.018863469
0.075316869 0.040912867 0.019123077
0.076685913 0.04114854 0.019123077
0.074157447 0.039312381 0.019047499
0.078319326 0.041024409 0.019082457
0.079347357 0.041073926 0.019044697
0.078739919 0.040285543 0.01906094
0.080783941 0.040856246 0.019138545
0.081019603 0.040509801 0.019211888
0.082734324 0.040902365 0.019063503
0.082498729 0.040332712 0.019023508
0.083430618 0.040340081 0.019082457
0.083334021 0.039855402 0.019023508
0.088508323 0.041874904 0.018823147
0.086509667 0.040493887 0.018386722
0.085941851 0.039804645 0.018512398
0.089587905 0.041061126 0.018190801
0.087109327 0.03951351 0.017861307
0.092013516 0.041312192 0.017605573
0.09527196 0.042343091 0.015938997
0.093195044 0.041005816 0.014316976
0.096466713 0.0420251 0.011693269
0.095369987 0.041139994 0.0093954504
0.097077854 0.041470151 0.0072183609
0.065645859 0.042200908 0.0075961947
0.065271333 0.041369155 0.010625064
0.070527837 0.0440799 0.012554586
0.069505669 0.042845961 0.015513927
0.067604788 0.041111019 0.01675272
0.070935167 0.042561103 0.017172396
0.069648027 0.041238964 0.017230451
0.071232826 0.041629575 0.017383635
0.073153861 0.042204149 0.017929822
0.073470652 0.041850369 0.018171132
0.074581988 0.041952372 0.01809451
0.076517135 0.042509519 0.018447191
0.075166889 0.041250121 0.018567413
0.076469578 0.041459411 0.018527746
0.078453116 0.042028457 0.018701732
0.077293672 0.040920179 0.018890053
0.080388375 0.042063687 0.018865168
0.07990744 0.041331433 0.019073784
0.080882974 0.041360613 0.019110352
0.082388371 0.041657042 0.018990964
0.0831929 0.04159645 0.018955767
0.08392024 0.041499022 0.019131631
0.085692272 0.041914698 0.019023508
0.085496373 0.041369215 0.018455178
0.085823387 0.041085664 0.017685741
0.089002423 0.042159043 0.018130481
0.087638594 0.04108059 0.017959297
0.090293206 0.041888602 0.016923696
0.09084975 0.041716721 0.015498847
0.092569344 0.042076975 0.014528126
0.094077587 0.042334914 0.011723191
0.096917853 0.043181222 0.0099089146
0.091965899 0.040573191 0.0079880655
0.099349089 0.043404941 0.0052026212
0.064227141 0.042206407 0.0054915249
0.071010552 0.046006836 0.0085970759
0.068878092 0.04400545 0.011262298
0.067787588 0.042715468 0.013786197
0.069863372 0.043428585 0.015808672
0.069651157 0.042719375 0.01653409
0.069422089 0.042018633 0.016661674
0.071851775 0.042924438 0.016883254
0.072085522 0.042511974 0.016835898
0.072523527 0.042228892 0.016887933
0.073754296 0.042408723 0.016873032
0.072240137 0.041025262 0.017147273
0.076347388 0.042829022 0.017522454
0.076718152 0.042518497 0.017888308
0.076604635 0.041950159 0.018137336
0.079260148 0.042893726 0.018351465
0.079526238 0.042537291 0.018326551
0.079112507 0.041829601 0.018836319
0.082192324 0.042964172 0.018806219
0.082234129 0.042503033 0.018483639
0.083042324 0.042443857 0.018443644
0.08360403 0.042261377 0.018526137
0.084275424 0.042137712 0.018397331
0.084973693 0.042029999 0.01766482
0.087392852 0.042766713 0.01687631
0.086239643 0.041758142 0.016386062
0.088086449 0.04220809 0.015755385
0.089231126 0.042315792 0.015381426
0.089169614 0.041855127 0.012961686
0.099058181 0.046027035 0.011540473
0.097246163 0.044733237 0.0098065436
0.093130082 0.042415682 0.007817775
0.094181351 0.042473946 0.0058597028
0.069199331 0.045808006 0.0068851709
0.066904284 0.043673627 0.0091326237
0.070699669 0.045518965 0.011710525
0.067971438 0.043171048 0.014016092
0.068117484 0.042686958 0.015663117
0.071502231 0.044218484 0.015972912
0.070814997 0.043224737 0.016446948
0.072040483 0.043409009 0.016654372
0.072565995 0.043172173 0.016668856
0.072407745 0.042539552 0.016532689
0.075499378 0.043808278 0.016732872
0.07726761 0.044287533 0.016880304
0.076302066 0.043207195 0.017515332
0.07870429 0.044036925 0.017627239
0.07850685 0.043409672 0.01774922
0.078178093 0.042725239 0.018267602
0.081314556 0.043928556 0.018347055
0.080962494 0.043241333 0.018575042
0.080519862 0.042521723 0.018247455
0.085510112 0.044655278 0.017587245
0.083748139 0.043254536 0.017695367
0.084250055 0.043040786 0.017637521
0.088147052 0.044547435 0.01733461
0.086623967 0.043311983 0.016119957
0.086555779 0.042822335 0.014911056
0.09107279 0.04458772 0.013600856
0.087995268 0.042636883 0.01234436
0.09195403 0.044100404 0.010367215
0.090512976 0.042970806 0.0096906424
0.091584377 0.043044657 0.007758826
0.0933652 0.043447174 0.0057263374
0.070105195 0.046736799 0.0074377656
0.066482544 0.043714549 0.0097844303
0.067238905 0.043614425 0.011710525
0.070183098 0.044917181 0.013317853
0.069374695 0.043815594 0.014182836
0.070617072 0.044021033 0.015737951
0.073496312 0.045228496 0.016131401
0.072580308 0.044099428 0.016349912
0.073124155 0.043874495 0.016302168
0.075466201 0.044720709 0.016632974
0.074614495 0.043676779 0.016686112
0.076641679 0.0443229 0.016950399
0.077204585 0.044116903 0.017597467
0.07991977 0.045131166 0.017637521
0.079201601 0.044205546 0.017646194
0.079895504 0.044080276 0.017904609
0.080594212 0.043960478 0.017859429
0.082680903 0.044591948 0.017560989
0.082452349 0.043974586 0.017170817
0.083801717 0.044203103 0.017116398
0.085255928 0.044481356 0.016810596
0.086045608 0.044410639 0.015239745
0.087192111 0.04452363 0.013361752
0.09005104 0.045499474 0.011183351
0.088606507 0.044303253 0.010039121
0.091301911 0.045180328 0.009560138
0.092374064 0.04524444 0.0081589222
0.091620207 0.044421919 0.0062955916
0.095369086 0.045777161 0.0051279068
0.066878431 0.045514487 0.0051233172
0.0678773 0.045561474 0.0076892376
0.070390344 0.046609823 0.010274649
0.071161635 0.046492267 0.011581004
0.07000649 0.045135763 0.012279719
0.07155402 0.045534376 0.014216185
0.0723598 0.045456797 0.015413344
0.073646888 0.045679718 0.015662313
0.076180793 0.046660736 0.015688092
0.074978597 0.045357421 0.016155452
0.076792479 0.045888189 0.01635921
0.07718873 0.045569252 0.016642392
0.077204712 0.045036085 0.016742885
0.079116501 0.045608338 0.016950399
0.080083378 0.045628902 0.016977817
0.08024016 0.045192733 0.016991645
0.082463734 0.045917306 0.016941726
0.084363095 0.046447098 0.016423225
0.084875196 0.046209831 0.016235143
0.086435102 0.046541978 0.015987545
0.087473169 0.046588972 0.014987022
0.089770339 0.047298349 0.01185137
0.090813033 0.047338709 0.010156572
0.090584368 0.046722461 0.0091161132
0.092896029 0.047415681 0.0076898932
0.09185186 0.046399392 0.006845206
0.093048468 0.046524234 0.0059843957
0.072622173 0.049741216 0.0059754848
0.071562707 0.048353184 0.0078243911
0.071805231 0.047870155 0.0090512335
0.073620103 0.04843428 0.010806918
0.073633112 0.04781371 0.012817681
0.073247947 0.046953812 0.014375478
0.076414809 0.048363805 0.015371263
0.074586272 0.04661642 0.015628874
0.077677213 0.047948893 0.016170353
0.078982189 0.048159871 0.01635921
0.077638015 0.046769891 0.016642392
0.078824781 0.04691951 0.016931444
0.079749472 0.046911452 0.017616421
0.079201341 0.046047293 0.017643839
0.079789191 0.045855854 0.017019063
0.080963001 0.046001706 0.016597331
0.082902513 0.046574447 0.0160653
0.086578704 0.048099279 0.015940845
0.085772909 0.047127973 0.015063703
0.088245861 0.047959704 0.011903346
0.088710539 0.047693841 0.010192573
0.091541052 0.048692051 0.0089941025
0.09154059 0.048179258 0.006401509
0.092965908 0.048419744 0.0052175224
0.071798205 0.04948255 0.0060532987
0.073298752 0.049843147 0.0079967976
0.071147017 0.047743391 0.0097264647
0.071853518 0.047591288 0.012075037
0.075205438 0.049172785 0.013890088
0.074687079 0.04821571 0.014365405
0.076391704 0.048699714 0.01557219
0.075435258 0.047496274 0.016043693
0.076211467 0.047399815 0.016279638
0.077220619 0.047448814 0.016620636
0.078828119 0.047859926 0.016893119
0.077441841 0.046465106 0.017597467
0.08070191 0.047858108 0.016977817
0.081114359 0.047549799 0.016827971
0.080476291 0.04663967 0.016378164
0.083154693 0.047650442 0.015778273
0.084657863 0.047972791 0.015205771
0.086389199 0.048415925 0.012022853
0.090191521 0.049997471 0.0098562241
0.088697515 0.048640572 0.0089384019
0.090655312 0.049185332 0.0063644052
0.072738476 0.051113524 0.0052707195
0.07248421 0.05025572 0.0066826046
0.072228707 0.049419645 0.0083179176
0.074397199 0.050242264 0.011511534
0.073517606 0.049011737 0.012689382
0.073513918 0.04838891 0.013789952
0.075199194 0.048879474 0.014752507
0.074111357 0.047577661 0.015628874
0.076233767 0.048343364 0.016043693
0.076977268 0.048226725 0.016376942
0.076733097 0.047501441 0.016703427
0.079266183 0.048492253 0.016809016
0.080209732 0.04849891 0.016657293
0.078831695 0.047117796 0.016455263
0.083415434 0.04929094 0.015633881
0.08140073 0.047559977 0.015164226
0.081829563 0.047279302 0.012957573
0.088192254 0.050395574 0.01062575
0.089718096 0.050710227 0.0090056956
0.089239165 0.049897168 0.006401509
0.072125845 0.05096893 0.00592646
0.072261415 0.050392829 0.0071752369
0.073270023 0.050432615 0.0090130866
0.073378548 0.049859781 0.012501389
0.074511699 0.049988862 0.01311174
0.073643759 0.048788991 0.014045268
0.077815004 0.05091599 0.015399307
0.075071238 0.048521653 0.015948057
0.077115469 0.049242411 0.016329318
0.077841297 0.049114153 0.016442597
0.078626312 0.049025815 0.016851872
0.077218041 0.04758786 0.01671049
0.08150477 0.049652331 0.016419172
0.080412745 0.048430406 0.015550107
0.080696844 0.048055422 0.014228553
0.087404869 0.051471755 0.011943132
0.086119905 0.050157748 0.0095779002
0.087031953 0.050137971 0.0069151223
0.071933895 0.051792406 0.0050795376
0.073726512 0.052384626 0.0064610541
0.072237991 0.050660409 0.0083179176
0.074494697 0.05157325 0.011627793
0.073808774 0.050451569 0.012608975
0.075953677 0.051268734 0.013606936
0.07589604 0.050597358 0.014633209
0.075857013 0.049954619 0.015292376
0.077847116 0.05064752 0.016154885
0.078674339 0.050576359 0.016100466
0.077744603 0.049390689 0.016320765
0.081134349 0.050944824 0.016487807
0.08095634 0.050248761 0.01602307
0.080804311 0.049584463 0.014923513
0.084815666 0.051461194 0.013632685
0.085182525 0.051109515 0.010461599
0.085773818 0.050898749 0.0074217021
0.073012739 0.052838165 0.005838871
0.073559426 0.052542448 0.0071802139
0.074354462 0.05242943 0.01099965
0.073428385 0.051121026 0.012146205
0.076262154 0.052430227 0.012854457
0.075039536 0.05095277 0.014444411
0.075291432 0.050500352 0.015013814
0.076506913 0.050697349 0.016004741
0.076303169 0.049960408 0.016117066
0.07807821 0.050521195 0.016274691
0.08036676 0.051397346 0.016487807
0.079160832 0.050044205 0.015711606
0.083043039 0.051901899 0.014750898
0.082221106 0.050810795 0.013336658
0.083144635 0.050810613 0.010453075
0.08975517 0.054247629 0.005956769
0.073252052 0.053975195 0.0062629282
0.073698811 0.053599134 0.0081619322
0.072564587 0.052097652 0.011260629
0.074400403 0.052739527 0.0122931
0.072351433 0.050646003 0.013509005
0.076087266 0.052603539 0.014487296
0.076371074 0.052155856 0.015177906
0.076798268 0.0518157 0.016321987
0.077774569 0.051849712 0.01613912
0.077981643 0.051376142 0.016779125
0.078351766 0.051019754 0.016539901
0.081212461 0.052274689 0.01567018
0.0807124 0.05136244 0.014067322
0.080371596 0.05057089 0.013111293
0.088297181 0.054940466 0.0093178749
0.086962126 0.053515155 0.0056119263
0.071559764 0.053669821 0.0061487556
0.072406903 0.053599916 0.0082118213
0.075131387 0.054903705 0.011260629
0.073826216 0.053267021 0.012252092
0.076234661 0.054317195 0.013321519
0.074491367 0.052419849 0.014532715
0.075161666 0.052246522 0.015229136
0.077223897 0.053033281 0.016309708
0.078375809 0.053183585 0.016375989
0.076069474 0.051011298 0.016832262
0.08035925 0.053261366 0.016556501
0.079841606 0.052310016 0.015616804
0.080561332 0.052181773 0.013970941
0.084235206 0.053948391 0.010563344
0.084091477 0.053257935 0.0074502528
0.071431436 0.054513466 0.006139189
0.073805578 0.055593815 0.0080618262
0.073251463 0.054469038 0.010817379
0.073817432 0.054195076 0.011904716
0.075220369 0.054534767 0.012888879
0.074021794 0.053003259 0.014567047
0.07601551 0.05376707 0.014765382
0.076896921 0.053735197 0.015575647
0.075222634 0.051939435 0.015982717
0.078359477 0.053468816 0.016165227
0.082054995 0.055339415 0.015065014
0.0783609 0.052240599 0.014252007
0.082494535 0.054371398 0.012179554
0.082797892 0.053958178 0.0098344684
0.083066367 0.053531658 0.0069053471
0.074895009 0.058142174 0.0055586696
0.07229922 0.055398103 0.0069195926
0.072756805 0.055033997 0.0091907978
0.073776118 0.055098619 0.011196882
0.073765196 0.05440183 0.012325287
0.076440811 0.055679113 0.013518542
0.07676328 0.055232119 0.014730722
0.075134724 0.053409021 0.014930397
0.079774782 0.056032285 0.014929682
0.078828312 0.054716121 0.014349878
0.077071264 0.052874472 0.014113635
0.083249994 0.056456894 0.013136894
0.08014635 0.053734485 0.010405809
0.07990966 0.052973822 0.0071303248
0.072701596 0.056650594 0.006180048
0.074053124 0.056963939 0.0074020922
0.073206633 0.055599973 0.0095627308
0.075265966 0.056449477 0.011464477
0.075715974 0.056085907 0.012580097
0.074693337 0.054653659 0.013177484
0.078182593 0.056517534 0.014251292
0.078147501 0.055819646 0.014230311
0.078468867 0.055389792 0.013731152
0.079742208 0.055634096 0.013330251
0.081335127 0.05609319 0.010121107
0.082646959 0.056350198 0.0069159567
0.086441889 0.058275428 0.0055117607
0.071781591 0.056136888 0.0060669184
0.073820882 0.057000935 0.007509321
0.07579422 0.057793096 0.010076582
0.073384494 0.055264868 0.011049539
0.076952241 0.057244956 0.011995405
0.078407601 0.057624865 0.013087243
0.07635621 0.055449151 0.012677878
0.079669625 0.057174671 0.011680096
0.078860879 0.055936206 0.010548025
0.078309737 0.054906826 0.0072766542
0.084599897 0.05864311 0.0053479075
0.073654681 0.057804938 0.005304426
0.075824954 0.058764338 0.0065431595
0.076009907 0.058180422 0.0087627172
0.075957716 0.057431441 0.0091907978
0.075973213 0.056751072 0.010040849
0.08051455 0.059427407 0.0097020566
0.077592537 0.056596912 0.0089757144
0.079432681 0.05726542 0.0064489543
0.075881429 0.059018891 0.0051324368
0.077542819 0.05957558 0.0060857534
0.079393767 0.060262736 0.0066676736
0.080939569 0.060704675 0.0063920617
0.078649029 0.05829281 0.0055117607
0 0 0 1 0 0 0 1 0 0 0 1 0 0 0 0 0 1144 1 0 0
