ply
format ascii 1.0
comment PCL generated
element vertex 1082
property float x
property float y
property float z
element camera 1
property float view_px
property float view_py
property float view_pz
property float x_axisx
property float x_axisy
property float x_axisz
property float y_axisx
property float y_axisy
property float y_axisz
property float z_axisx
property float z_axisy
property float z_axisz
property float focal
property float scalex
property float scaley
property float centerx
property float centery
property int viewportx
property int viewporty
property float k1
property float k2
end_header
-0.010851836 0.029595915 0.0051049292
-0.0098371105 0.029511333 0.0051049292
-0.008899847 0.029666156 0.0055339038
-0.0077221007 0.028957877 0.0055694878
-0.006921513 0.029663628 0.0057438016
-0.0059329597 0.029664798 0.005682081
-0.0048872428 0.029323457 0.0060176849
-0.003924075 0.029430563 0.0054386556
-0.0029287038 0.029287038 0.0053942502
-0.0019637905 0.029456858 0.0053430796
-0.00098652893 0.029595869 0.0053780079
0 0.028806733 0.0051543713
0.0038726639 0.029044978 0.0051422715
-0.01091144 0.028187884 0.006520927
-0.010170531 0.028662406 0.0097432733
-0.0092633311 0.028716326 0.010813385
-0.0081586698 0.028102087 0.011253089
-0.0075925095 0.029420974 0.011530131
-0.0064277658 0.02846582 0.011548251
-0.0055590756 0.028721891 0.011245161
-0.004687347 0.029061552 0.009983778
-0.0037504602 0.029066067 0.0097750127
-0.0028220904 0.029161602 0.0096723437
-0.0019137217 0.029662685 0.0096795857
-0.00096443412 0.029897459 0.0096347928
0 0.029770991 0.0091896653
0.00096779625 0.030001683 0.0080363154
0.0019413384 0.030090746 0.0077651441
0.0029494257 0.030477401 0.0077262819
0.0038664464 0.029964961 0.0077024102
0.0048557385 0.03010558 0.0077262819
0.0058929659 0.030446989 0.006136179
0.0068488042 0.03033042 0.0063040257
0.0077941953 0.030202506 0.0070407689
0.0088647138 0.030534016 0.0070121586
0.0097050713 0.03008572 0.0070200562
0.010507877 0.029613107 0.0070518553
0.011767676 0.030399829 0.0071357489
0.012594455 0.030032931 0.0071500242
0.013619272 0.030156961 0.0072113872
0.014663693 0.030304966 0.0071910918
0.015503506 0.030038044 0.0070322156
0.016684977 0.030425547 0.0065055192
0.017998176 0.030996857 0.0063869059
0.018379502 0.029987607 0.0051837564
-0.011983144 0.02949697 0.0071941018
-0.011448744 0.030529983 0.010484993
-0.010357496 0.030130899 0.01192528
-0.0093823085 0.030023387 0.012800336
-0.0085460776 0.030386053 0.012789875
-0.0075273039 0.030109216 0.013121068
-0.006549309 0.029939698 0.013237834
-0.0056945602 0.030370988 0.01292178
-0.0047612265 0.030471848 0.012776345
-0.0037181126 0.029744901 0.012824237
-0.0028539938 0.030442599 0.012783736
-0.0018590038 0.029744061 0.012672752
-0.00091822824 0.029383304 0.012563288
0 0.029938376 0.011595368
0.0009180482 0.029377542 0.011524707
0.0018570835 0.029713336 0.01188606
0.0027771215 0.029622629 0.012030184
0.003612018 0.028896144 0.011911809
0.0046703164 0.029890025 0.012040883
0.0055577499 0.029641334 0.011514008
0.0064270841 0.029380957 0.011514008
0.0074812244 0.029924897 0.011660248
0.0083824676 0.029804328 0.0111745
0.0091267377 0.029205561 0.011332482
0.010234759 0.029773846 0.011584044
0.011227759 0.029940691 0.011489481
0.01190517 0.029305035 0.011596054
0.012934099 0.029563654 0.011352599
0.013788383 0.029415216 0.011308759
0.01491059 0.02982118 0.011197984
0.015622791 0.029407606 0.0099619329
0.016659815 0.029617449 0.0095106363
0.017663123 0.029748417 0.0089161396
0.018428737 0.02948598 0.0077472627
0.01938176 0.029534109 0.0072882473
0.021882728 0.03182942 0.0069950521
0.022634506 0.031491488 0.0062148273
0.023355033 0.031140044 0.0061721802
0.02497296 0.03196539 0.0054359138
-0.013708973 0.03231401 0.0078682899
-0.01212832 0.030787272 0.01098904
-0.011152326 0.030668898 0.012402743
-0.010303488 0.030910464 0.013739973
-0.0095395064 0.031480372 0.015356302
-0.0084651485 0.031038878 0.015271604
-0.0074985754 0.030931624 0.01553008
-0.0066728061 0.031457514 0.015526682
-0.0056312452 0.030971847 0.01547128
-0.0046697678 0.030820467 0.015202373
-0.0038062148 0.031401273 0.015161872
-0.0027762635 0.030538898 0.01503399
-0.0018646667 0.030767001 0.015072316
-0.00095741544 0.031594709 0.015030116
0 0.030668398 0.014790922
0.00094103959 0.031054307 0.014399111
0.0018796626 0.031014433 0.014145523
0.0027757236 0.03053296 0.014137655
0.0037704657 0.031106343 0.014169425
0.0046811639 0.03089568 0.014223784
0.0054559885 0.030007936 0.014270037
0.0065955576 0.031093342 0.014298648
0.0074913781 0.030901935 0.01447922
0.0083820298 0.030734109 0.014327884
0.0095203174 0.031417046 0.014267415
0.010170911 0.03051273 0.014343768
0.011073181 0.030451247 0.014232606
0.012225744 0.031034583 0.014843941
0.013112237 0.030907415 0.014678001
0.013990048 0.030778106 0.014573097
0.015050788 0.031042252 0.014370024
0.015784062 0.03063965 0.013965875
0.017086146 0.031324603 0.013564199
0.017805671 0.030925639 0.011276394
0.018708253 0.030868618 0.010477871
0.019529274 0.03068886 0.010079414
0.021579301 0.032368951 0.0095935762
0.021554334 0.030925784 0.0094247162
0.023574768 0.032415304 0.0087006986
0.02361194 0.03116776 0.0088264942
0.024575992 0.031192604 0.0080481768
0.026121544 0.03192633 0.0078220665
0.026652217 0.03141154 0.0071272254
0.027467476 0.031256095 0.0058456361
0.029168732 0.032085605 0.0052360296
-0.013860711 0.031417612 0.0076131225
-0.013071184 0.031744305 0.011125088
-0.012393269 0.032413166 0.012806267
-0.011384709 0.032256674 0.013927758
-0.010365503 0.032038826 0.015585661
-0.009278127 0.031545632 0.015966564
-0.0083567286 0.031569861 0.015975118
-0.007545121 0.032066762 0.016164273
-0.0065561184 0.031844005 0.01597929
-0.0056460099 0.031994056 0.016080558
-0.0047135581 0.032052197 0.01606819
-0.0037462474 0.031843103 0.01577279
-0.002793377 0.031658273 0.015455872
-0.001887941 0.032094996 0.015976965
-0.0009354651 0.031805813 0.015846133
0 0.032278858 0.015769035
0.00094212044 0.032032095 0.015678972
0.0018225873 0.030983984 0.015192986
0.0028430212 0.032220908 0.015203685
0.003804524 0.032338452 0.015753657
0.0046814829 0.031834085 0.015353769
0.0056618373 0.032083746 0.015353769
0.0066329138 0.032217011 0.015843421
0.0074439305 0.031636704 0.016429991
0.0084230853 0.031820547 0.016220331
0.0094255796 0.032046974 0.016172409
0.010134748 0.031325586 0.016528368
0.011401969 0.03230558 0.016548455
0.011949206 0.03125177 0.016558915
0.013077057 0.031758565 0.01633361
0.014238192 0.032273233 0.016662955
0.014934833 0.031736523 0.016579658
0.015655873 0.031311747 0.015734553
0.016899593 0.031921454 0.015286773
0.01761684 0.031524874 0.014211118
0.018369392 0.031227965 0.013341248
0.019788455 0.032038454 0.012452453
0.02099151 0.032441422 0.01233688
0.022304803 0.032972317 0.011419594
0.022807293 0.032310333 0.011320531
0.023342658 0.031746015 0.010354012
0.025170298 0.032915004 0.0101206
0.025386328 0.031967968 0.010007471
0.026124572 0.031722695 0.0094514191
0.027797008 0.032589596 0.0078994632
0.02852978 0.03233375 0.0069246292
0.029608808 0.032474175 0.0052936971
-0.014339598 0.033459064 0.011018544
-0.013340351 0.033350877 0.012686431
-0.011891662 0.032016013 0.014509022
-0.011373121 0.033171605 0.01554969
-0.010367433 0.032987285 0.016168445
-0.0093242824 0.032634988 0.01638037
-0.0086695096 0.03371476 0.016537964
-0.0074017546 0.032382675 0.016490132
-0.0064600506 0.032300252 0.016359448
-0.0056467061 0.032939121 0.016490132
-0.0047656712 0.033359699 0.016688377
-0.0037172348 0.032525804 0.016124219
-0.0028262802 0.032973267 0.015958577
-0.0018832562 0.032956984 0.016541302
-0.00093336619 0.032667816 0.016499102
0 0.03316924 0.016983002
0.0009123903 0.031933662 0.016853839
0.001870551 0.032734644 0.01665619
0.0028291566 0.033006828 0.016795695
0.0036999753 0.032374784 0.017038196
0.0047548842 0.033284191 0.01689899
0.0057049533 0.033278894 0.017161906
0.0064554363 0.032277182 0.017181486
0.0075695296 0.033116691 0.016868323
0.0085449424 0.033230331 0.016679257
0.0092026591 0.032209307 0.016909838
0.010513073 0.033450685 0.017344385
0.011258104 0.032836135 0.017157316
0.012066872 0.032487731 0.017358035
0.013419175 0.033547934 0.017319411
0.013762852 0.032113321 0.017332017
0.015132212 0.033101715 0.017133266
0.015846321 0.032624777 0.016746193
0.016591324 0.032260906 0.016393036
0.018181073 0.033491448 0.015358269
0.018533541 0.032433696 0.014774621
0.01917376 0.031956267 0.013859451
0.02086097 0.033187907 0.013551563
0.021851655 0.033252519 0.013341248
0.022815734 0.033272944 0.01245454
0.024127781 0.033778891 0.012129545
0.024253987 0.032649599 0.011624694
0.025073027 0.032502074 0.011521935
0.026954954 0.033693694 0.010220081
0.027370233 0.033033039 0.0097952485
0.028301844 0.033018816 0.0082757771
0.029360298 0.033148725 0.0068029165
-0.015223017 0.034251787 0.0092190504
-0.014069975 0.033767942 0.012064278
-0.01282971 0.032990683 0.013694316
-0.012280876 0.034008577 0.015307128
-0.011189029 0.033567086 0.016055912
-0.010253369 0.03355648 0.016283751
-0.009392499 0.033813 0.017058343
-0.0083949827 0.033579931 0.017128766
-0.0075761452 0.034092654 0.017000884
-0.0068118074 0.035032153 0.017045736
-0.0056639006 0.033983402 0.017060727
-0.0045984774 0.033109039 0.017123491
-0.0037126662 0.033413995 0.016820967
-0.0027807846 0.033369415 0.017031938
-0.0018808409 0.033855136 0.017520487
-0.00093168305 0.033540588 0.017289519
0 0.033208583 0.017438263
0.00094845612 0.03414442 0.017363459
0.0019070785 0.034327414 0.017166078
0.0027858163 0.033429798 0.017166078
0.0037816726 0.034035053 0.017057776
0.0046895249 0.033764578 0.016907007
0.0055661476 0.033396889 0.017060608
0.006606787 0.033977762 0.017075777
0.0073873643 0.033243138 0.017093688
0.0082758619 0.033103447 0.017316878
0.0094122617 0.033884142 0.017484933
0.010223069 0.033457316 0.017713755
0.011145917 0.033437751 0.017550737
0.012155561 0.033661552 0.017737687
0.013001533 0.033432513 0.017703772
0.014011608 0.03362786 0.017581701
0.015126287 0.034034144 0.017353714
0.01567632 0.033196911 0.017092198
0.016965115 0.033930231 0.016694516
0.017887436 0.033891987 0.015895247
0.018277414 0.032899346 0.015095085
0.019852251 0.03403243 0.014575511
0.020958086 0.034295049 0.014039397
0.021295622 0.033332277 0.013486594
0.022989083 0.034483623 0.013199061
0.023448663 0.033766072 0.012473166
0.024295831 0.033640381 0.011910975
0.025508696 0.034011595 0.011755466
0.026331957 0.033855371 0.011469871
0.026999133 0.033516165 0.010261267
0.028394766 0.034073718 0.0095935762
0.028908156 0.033570763 0.0078492463
0.029852241 0.033583771 0.0056903362
-0.015293549 0.03536633 0.0093470514
-0.014125425 0.034842718 0.012091666
-0.013378406 0.035357215 0.013467014
-0.012226205 0.034797661 0.015218645
-0.011245639 0.034674056 0.015743077
-0.010361888 0.034853626 0.016312122
-0.0095019015 0.035157036 0.016473889
-0.0084266709 0.03464298 0.016757727
-0.007513267 0.03474886 0.016902626
-0.0066251131 0.035018455 0.017015129
-0.0055596302 0.034284387 0.017000884
-0.0048062084 0.035565943 0.017180145
-0.0038524952 0.035635579 0.017124712
-0.0028060868 0.034608405 0.017531067
-0.0018670403 0.034540243 0.017848283
-0.00092676264 0.034290217 0.017844766
0 0.034697957 0.017711192
0.00091993675 0.034037661 0.017615944
0.0018536282 0.034292124 0.017531306
0.0028121942 0.034683727 0.017565995
0.003748555 0.034674134 0.017554462
0.0046370705 0.034314323 0.017338008
0.0056972108 0.035132799 0.017903984
0.0065995501 0.034883335 0.017696261
0.0074280198 0.03435459 0.017845571
0.0084331362 0.034669559 0.017850518
0.0093151433 0.034466032 0.017816305
0.010228232 0.034404058 0.01806429
0.011315305 0.034888856 0.018050492
0.012135957 0.034540802 0.018159479
0.012942764 0.034205876 0.018059105
0.014069778 0.034705453 0.01782307
0.014867557 0.034381226 0.017720312
0.015888775 0.034581453 0.017475396
0.016912084 0.034763727 0.017144382
0.017312136 0.033713106 0.016615391
0.018827578 0.034831017 0.016078442
0.019894606 0.0350524 0.015077204
0.020473605 0.034432881 0.014632434
0.021211583 0.034122981 0.013958365
0.022539549 0.034748472 0.013332754
0.023791989 0.035212144 0.012720913
0.024491303 0.034853008 0.012203515
0.024996916 0.034255031 0.011824042
0.025721086 0.033988576 0.011286616
0.027182464 0.034681074 0.010864109
0.027674122 0.034131419 0.0096414387
0.028906006 0.034500718 0.0087203383
0.030144181 0.034854211 0.0058798194
-0.015223269 0.036155265 0.0092743337
-0.014217524 0.036017727 0.012125671
-0.013064013 0.035459466 0.013467252
-0.012103081 0.035378236 0.015131265
-0.011287775 0.035744622 0.015352905
-0.01033863 0.035715267 0.01616165
-0.0092934482 0.035315104 0.016607374
-0.0084426655 0.035646807 0.016655594
-0.0075451848 0.035839628 0.016878545
-0.0064682942 0.035113595 0.017050654
-0.0057064015 0.036140542 0.017007738
-0.0045855353 0.034850068 0.017124712
-0.003702759 0.03517621 0.017007738
-0.0028322467 0.035875127 0.017102987
-0.0019069851 0.036232717 0.017612547
-0.0009394369 0.0356986 0.017626256
0 0.035696432 0.017610759
0.00090933318 0.03455466 0.017371327
0.0018715552 0.03555955 0.017308891
0.0027782053 0.035190601 0.017291874
0.0036654156 0.034821447 0.017144859
0.004720184 0.035873398 0.017011106
0.0055753477 0.035310537 0.017093688
0.006471226 0.035129514 0.017271578
0.0075786929 0.035998791 0.017510653
0.0083511192 0.035260279 0.017490625
0.009269516 0.035224162 0.017654747
0.010371534 0.035828937 0.017842621
0.011241831 0.035599131 0.017937392
0.012074308 0.03529413 0.017920613
0.013192969 0.035809487 0.017880589
0.013918784 0.035260919 0.017734319
0.014850104 0.035268996 0.017475396
0.015758373 0.035224598 0.017105252
0.016692191 0.035239071 0.016829431
0.017717533 0.035435066 0.016410679
0.018626332 0.035390031 0.015354365
0.019605447 0.035476521 0.014773726
0.020590292 0.035565052 0.014305085
0.02159065 0.03567151 0.01357761
0.022354132 0.035394039 0.013280988
0.02377346 0.036135659 0.01245454
0.024037343 0.035131499 0.011900246
0.025270689 0.035566155 0.011627346
0.026046842 0.035349287 0.010956645
0.027292758 0.035762925 0.010226697
0.027618302 0.034983184 0.0094606876
0.028803794 0.035307877 0.0077104568
0.029620426 0.035174254 0.0058434904
-0.015442752 0.037641712 0.010360807
-0.014141773 0.036768612 0.012331188
-0.012994238 0.036198236 0.013370633
-0.012287024 0.036861073 0.014939755
-0.011392229 0.037024744 0.015336782
-0.010221269 0.036239047 0.015994728
-0.0092346417 0.036015105 0.016325384
-0.0084602088 0.036660902 0.016590536
-0.0075435368 0.03677474 0.016901523
-0.0067331949 0.037513513 0.016994745
-0.0056871977 0.036966786 0.017355412
-0.0046587372 0.036338151 0.017369747
-0.0038247125 0.037290946 0.017079532
-0.0027896343 0.036265247 0.017322361
-0.0018658858 0.036384773 0.017501682
-0.00095388829 0.037201643 0.01759699
0 0.036086589 0.01736021
0.00096956111 0.037812885 0.017299742
0.0018871815 0.036800042 0.017042845
0.0027641517 0.035933971 0.016994089
0.0036758871 0.0358399 0.017139792
0.0047000102 0.036660079 0.017144859
0.0054794056 0.035616137 0.01718232
0.0065544187 0.036517475 0.01734674
0.007440187 0.036270913 0.017654747
0.0082782805 0.035872549 0.017654747
0.0094218217 0.036745105 0.017644197
0.010175883 0.036078129 0.01787588
0.011204236 0.03641377 0.017880589
0.012104366 0.036313098 0.017867804
0.012905518 0.035951085 0.017920613
0.014008165 0.036421228 0.017891377
0.014915786 0.036357228 0.01772806
0.015678803 0.035969019 0.017427951
0.016794045 0.036387097 0.017073065
0.017703507 0.03633878 0.016674966
0.018708372 0.036481328 0.015595675
0.020119362 0.037364531 0.015027374
0.020633161 0.036576968 0.014441341
0.021239813 0.036015335 0.013713866
0.022521326 0.036597155 0.013368487
0.023438359 0.03656384 0.012321413
0.024378378 0.036567565 0.011540264
0.025228184 0.036440711 0.011102378
0.025927652 0.036113515 0.010109305
0.026812721 0.036058486 0.0099985898
0.028825948 0.037473731 0.0079556108
0.028880874 0.036334004 0.0065394342
-0.015390457 0.038476143 0.010237306
-0.013828501 0.036876004 0.011989564
-0.013239849 0.03782814 0.013325304
-0.012189485 0.037506107 0.01443097
-0.011163028 0.037210092 0.015179574
-0.010435325 0.037946638 0.01576212
-0.0093324436 0.037329774 0.016287625
-0.0084459456 0.037537538 0.016570181
-0.0075380201 0.037690099 0.016791224
-0.006460059 0.036914624 0.016990989
-0.0055779438 0.037186291 0.017055422
-0.0046822196 0.037457757 0.017113566
-0.0037810327 0.037810326 0.017106503
-0.0027538622 0.036718164 0.017395556
-0.0018971617 0.037943233 0.017700762
-0.00093441887 0.037376754 0.017809838
0 0.037702128 0.017646641
0.00094972545 0.037989017 0.017562538
0.0018508836 0.037017673 0.017478108
0.0028141306 0.037521742 0.017478108
0.0037320061 0.037320059 0.017697245
0.0045898487 0.036718789 0.017697245
0.0055955206 0.03730347 0.017362773
0.0065136245 0.037220713 0.017695189
0.0073897657 0.03694883 0.017712682
0.0084265778 0.037451457 0.017712682
0.009206919 0.036827676 0.018004209
0.010280162 0.037382409 0.018028617
0.011234747 0.037449155 0.017867804
0.012029445 0.037013676 0.018023193
0.013083408 0.037381165 0.017778993
0.013939638 0.03717237 0.017778993
0.014661083 0.036652707 0.017575204
0.016042007 0.0377459 0.017262161
0.016753778 0.037230618 0.016795725
0.017566832 0.036982805 0.016411811
0.018471325 0.03694265 0.015229762
0.019791266 0.03769765 0.014553189
0.020389525 0.037071865 0.01421544
0.021935428 0.038148571 0.013332754
0.022613741 0.03768957 0.012484282
0.023352601 0.037364159 0.011612892
0.024712745 0.038019609 0.010956645
0.025544794 0.03784414 0.010382354
0.026474847 0.037821211 0.0098900795
0.027637094 0.038120128 0.0085352063
0.028461618 0.037948824 0.0065845847
0.029105572 0.037555575 0.0057261288
-0.015092566 0.038674701 0.0083873868
-0.014283178 0.039040688 0.011989564
-0.013126425 0.038441673 0.013008296
-0.012226306 0.038559888 0.014568061
-0.011257277 0.038462359 0.015123814
-0.010418455 0.038832426 0.015766352
-0.0092849182 0.038068164 0.016526192
-0.0085010156 0.038726848 0.016537309
-0.0074186996 0.038020834 0.016606599
-0.0065146587 0.038157288 0.016990989
-0.0056526917 0.038626727 0.01689133
-0.0047370261 0.038843613 0.017046273
-0.0037450225 0.038386483 0.017093867
-0.0028428899 0.038852826 0.017012566
-0.0018715031 0.038365815 0.017470866
-0.00092745305 0.038025577 0.01759699
0 0.038753416 0.017352343
0.00091597863 0.037555125 0.017333418
0.0018611045 0.038152643 0.017268598
0.002808826 0.038387287 0.01723969
0.0036369769 0.037279014 0.017139792
0.004697884 0.03852265 0.017389685
0.0056756381 0.038783528 0.017362773
0.0065309713 0.038252831 0.017739564
0.0075750086 0.038821917 0.017712235
0.0082638757 0.037646543 0.01787588
0.0093900692 0.038499281 0.018033117
0.010285054 0.038335204 0.018357933
0.011187026 0.038222339 0.018268853
0.012054696 0.038018655 0.018140227
0.013216733 0.038706146 0.018023193
0.013960678 0.038159188 0.017979383
0.01492727 0.038251128 0.017613769
0.015983511 0.03854847 0.017242908
0.016772563 0.038204171 0.016772717
0.018025674 0.038897507 0.016308635
0.018842053 0.038626205 0.015063941
0.019531053 0.038132057 0.014225453
0.02095736 0.039056897 0.01362285
0.021923486 0.039081 0.013233274
0.022598555 0.038605865 0.011909932
0.023866279 0.039140698 0.010109305
0.024710149 0.038966004 0.0095379353
0.025603341 0.038879149 0.0093550384
0.026590653 0.038936313 0.0081890523
0.027367942 0.038692608 0.0070050657
0.028676806 0.039191633 0.0055751801
-0.015282883 0.040117569 0.0078098774
-0.014278891 0.039980896 0.011659086
-0.013033094 0.03909928 0.012451172
-0.012298724 0.039734337 0.014109075
-0.011172247 0.039102867 0.014889896
-0.010245216 0.039118096 0.015357912
-0.009478637 0.039810274 0.015988111
-0.0084318276 0.039348528 0.016120583
-0.007383062 0.038761076 0.016300231
-0.0065252711 0.039151624 0.01682961
-0.005650287 0.039552011 0.016669124
-0.0045982297 0.038625129 0.016694874
-0.003800533 0.039905597 0.016742468
-0.0027648043 0.03870726 0.017012417
-0.0018526681 0.03890603 0.017069072
-0.00096248102 0.040424202 0.017305672
0 0.038690738 0.017069072
0.00093763205 0.039380547 0.017167509
0.0018690348 0.039249733 0.016877741
0.0027793192 0.038910467 0.016819
0.0037716234 0.039602045 0.016716808
0.004738891 0.039806683 0.016867131
0.0055245021 0.038671516 0.017141104
0.0065720952 0.03943257 0.017199427
0.0074131619 0.038919099 0.017638266
0.008398504 0.039193019 0.017644197
0.0095013287 0.039905582 0.017843872
0.010177562 0.038859785 0.017889768
0.011147887 0.039017603 0.017778993
0.012210244 0.039448481 0.017908901
0.013023901 0.039071701 0.017804891
0.013760455 0.038529277 0.017834842
0.014953407 0.039252695 0.017294347
0.01573018 0.038862795 0.016798288
0.016693482 0.03895146 0.016570956
0.017537322 0.038766708 0.015807271
0.018323347 0.03847903 0.014766574
0.019778341 0.039556682 0.013453186
0.021036375 0.040160351 0.0132263
0.021859305 0.039916992 0.010993928
0.023434771 0.041010853 0.0097827017
0.024097612 0.040483989 0.008803457
0.024774063 0.040019639 0.0075332224
0.025925608 0.040328726 0.0069342852
0.026833013 0.040249519 0.0055310726
-0.015369837 0.041306436 0.005230546
-0.01408032 0.040363584 0.010389805
-0.013322376 0.040918723 0.012180567
-0.012357813 0.040875845 0.013519198
-0.011161714 0.039996143 0.014694601
-0.010368172 0.04053013 0.01515457
-0.0094393352 0.040589143 0.016106814
-0.0083685676 0.039983157 0.01635313
-0.0076325084 0.041024733 0.016451836
-0.0065588178 0.040289879 0.016763031
-0.0056356736 0.040388994 0.016819119
-0.004822515 0.041473631 0.016742468
-0.0037506546 0.04031954 0.016869009
-0.0027716761 0.039727356 0.016808689
-0.0018928279 0.040695801 0.01723969
-0.00093615346 0.0402546 0.017297804
0 0.04086316 0.0170753
0.00094248203 0.040526725 0.017006665
0.001853185 0.039843477 0.016940713
0.0027953181 0.040066227 0.016838133
0.0037816991 0.040653266 0.016916245
0.0046556555 0.040038638 0.016991943
0.005684745 0.040740672 0.016904026
0.0066010226 0.040549137 0.017141104
0.0073311813 0.0394051 0.017603606
0.0083540631 0.039913859 0.017490566
0.0092352098 0.039711401 0.017541379
0.010310399 0.040304288 0.017677963
0.011509041 0.041240729 0.017627597
0.012087849 0.039982885 0.017626137
0.013012455 0.039966825 0.017620027
0.013981874 0.040081371 0.017677963
0.014689257 0.039477378 0.017242908
0.015932331 0.040299427 0.016679823
0.016919296 0.040418316 0.016030908
0.017674845 0.040000964 0.015050232
0.018799717 0.040419392 0.013794422
0.019885035 0.040716976 0.012418061
0.021471942 0.041967887 0.0099658966
0.022821952 0.042667128 0.0088959038
0.023345981 0.041828215 0.0084531009
0.02471891 0.042516526 0.0066759884
0.025553485 0.042261533 0.0053400397
-0.014250401 0.041801177 0.010121763
-0.013333256 0.04190452 0.012136489
-0.012094218 0.040934276 0.01283747
-0.011408094 0.041829679 0.014291942
-0.010452889 0.041811556 0.01500091
-0.0092789158 0.04082723 0.016012013
-0.0084900288 0.041506808 0.01603508
-0.0075055505 0.041280527 0.016261548
-0.0065200389 0.040983103 0.016548991
-0.005658275 0.041494016 0.016808838
-0.0046631736 0.041035928 0.016814858
-0.0037127382 0.040840119 0.016881645
-0.0027864021 0.040867232 0.016844302
-0.0018701606 0.041143533 0.017213136
-0.00092536176 0.040715918 0.017172575
0 0.041782059 0.016780406
0.00092619722 0.040752679 0.016749173
0.0018939105 0.041666027 0.017006665
0.0028100323 0.04121381 0.016966015
0.0036630915 0.040294006 0.016819
0.0047622249 0.041907579 0.016756773
0.0056317826 0.041299738 0.016759872
0.0064256485 0.040389791 0.016745836
0.0075618722 0.041590296 0.016985834
0.0083434451 0.040790178 0.017050982
0.0092496844 0.04069861 0.017228663
0.010376115 0.041504461 0.01734674
0.011073109 0.040601399 0.017218679
0.012006601 0.040637728 0.017256558
0.013397547 0.042106576 0.017275095
0.014250401 0.041801177 0.017294347
0.015181849 0.041750085 0.016661376
0.015912216 0.041184559 0.016127199
0.016589999 0.040553331 0.015583247
0.01771133 0.041015714 0.013952017
0.018547161 0.040803753 0.012934506
0.01964985 0.041171115 0.0096489489
0.021176767 0.042353533 0.0084166229
0.022557065 0.043152645 0.0066190958
0.023111312 0.042370737 0.0064133704
-0.014253939 0.042761814 0.0091953576
-0.012845839 0.041290198 0.011690497
-0.012415928 0.042978212 0.012243181
-0.011469581 0.043010931 0.014241785
-0.010235116 0.041870929 0.015140653
-0.0094417781 0.042488001 0.016012013
-0.0085206227 0.042603113 0.016041338
-0.0075294282 0.042353034 0.016374499
-0.0065572364 0.042153664 0.01666519
-0.0056056785 0.042042587 0.016767442
-0.0046635009 0.041971508 0.016796499
-0.0038184542 0.042957608 0.017012417
-0.0028605007 0.04290751 0.017096519
-0.0018537081 0.041708432 0.017041862
-0.00094660441 0.042597201 0.017124772
0 0.041883387 0.016900361
0.00093515287 0.042081878 0.01677987
0.0018924761 0.042580713 0.016668051
0.0027579758 0.041369639 0.016707659
0.0037838623 0.042568453 0.016699135
0.0047547491 0.042792741 0.016699135
0.005553436 0.041650772 0.016699702
0.0065580718 0.042159032 0.016719669
0.0073882188 0.041558731 0.016775608
0.0083789425 0.041894715 0.016889006
0.0094811311 0.04266509 0.017349482
0.01034792 0.042332403 0.017362654
0.011095418 0.041607816 0.017209262
0.01215321 0.042068802 0.017256558
0.012989378 0.041751571 0.017262161
0.013711246 0.041133735 0.017543018
0.015062618 0.042363614 0.016311228
0.015658012 0.041447677 0.015829891
0.017445032 0.043612581 0.014896423
0.017768053 0.042082231 0.013227135
0.017942084 0.040369686 0.010298818
0.0202954 0.043490145 0.008359313
0.021285329 0.043538172 0.006077677
-0.013872247 0.04254156 0.0072974265
-0.013528249 0.044449963 0.010146976
-0.013120657 0.046426941 0.011539727
-0.011407953 0.043730486 0.012895077
-0.010465219 0.043763641 0.014399707
-0.0094000073 0.043240033 0.015273362
-0.00837842 0.042823035 0.015487731
-0.0076195151 0.043812212 0.015778303
-0.0065075746 0.04276406 0.016321927
-0.0056249886 0.04312491 0.016418099
-0.0046945 0.043189399 0.016505867
-0.0037685761 0.043338627 0.016906023
-0.0027773117 0.042585447 0.016781747
-0.0019091546 0.043910556 0.016947865
-0.00093938445 0.043211687 0.017113119
0 0.043963183 0.016779155
0.00094051711 0.043263789 0.016779155
0.0018596761 0.04277255 0.016507208
0.002847773 0.043665852 0.016668051
0.003750216 0.043127485 0.016694248
0.0047073155 0.043307304 0.016731232
0.0057101077 0.043777492 0.016700566
0.006623148 0.043523546 0.016696662
0.0073348563 0.042175423 0.016631037
0.0084776515 0.043330219 0.016596347
0.009262342 0.042606775 0.016879052
0.010242345 0.042831626 0.017200083
0.011335017 0.043450899 0.01661396
0.011947939 0.042277321 0.016961843
0.012833444 0.04216703 0.016380072
0.01404918 0.043084152 0.016300738
0.014607937 0.04199782 0.01578474
0.016069222 0.043481424 0.015120447
0.01639951 0.041909859 0.01377508
0.01757231 0.042543486 0.011086464
0.019696582 0.045302138 0.0085296333
0.02135526 0.046778191 0.0064687133
-0.014002299 0.047007717 0.0081603527
-0.012266159 0.044346884 0.010205001
-0.012274696 0.048075892 0.011511296
-0.010572508 0.045173444 0.012559265
-0.0092670927 0.043555334 0.014370501
-0.0085242065 0.044515304 0.014707029
-0.007424002 0.043616012 0.015336514
-0.0066218143 0.044460755 0.015883565
-0.0057253903 0.044848889 0.016090423
-0.0046459031 0.043671489 0.016230732
-0.0037382708 0.043924682 0.016670108
-0.0028666793 0.04491131 0.016673476
-0.0018681298 0.043901052 0.016572088
-0.00092519552 0.043484189 0.016742468
0 0.044114407 0.016661823
0.00091673475 0.043086533 0.016552001
0.0018868386 0.044340707 0.016378582
0.0027930371 0.04375758 0.016378582
0.0037447053 0.044000287 0.016398013
0.0047206734 0.044374332 0.016429245
0.0056599756 0.044336475 0.016156584
0.0064408286 0.043245561 0.01614815
0.0075684022 0.044464365 0.016227573
0.0083360309 0.043532606 0.016059875
0.0093606096 0.043994866 0.016411066
0.010439509 0.044605173 0.016339093
0.011212676 0.043916315 0.015730858
0.012105904 0.043767497 0.015795797
0.013269505 0.044547621 0.015789837
0.013807039 0.043262053 0.015711814
0.015275795 0.044872649 0.014370412
0.017087139 0.047240913 0.013703823
0.017165719 0.044821598 0.011588812
0.018093625 0.044757914 0.0083846152
0.018506914 0.043491252 0.0060403049
-0.012833136 0.04738389 0.0078760684
-0.011986859 0.047947437 0.0098865032
-0.010326018 0.045058984 0.011155456
-0.0095551666 0.045864798 0.011689723
-0.0084099155 0.044852883 0.012325555
-0.0074572829 0.044743698 0.014360994
-0.0065462543 0.044888601 0.014938116
-0.0055730641 0.044584513 0.015521348
-0.0046952856 0.045074742 0.015571028
-0.0037953928 0.045544714 0.015984029
-0.0027865777 0.044585243 0.016167879
-0.001904553 0.045709275 0.016129583
-0.00093781407 0.045015074 0.016269982
0 0.044314884 0.016168833
0.00094698498 0.045455281 0.016098469
0.0018756114 0.045014676 0.01592505
0.0027992621 0.044788193 0.016007781
0.0037163121 0.044595748 0.016014427
0.0047158292 0.045271959 0.016014427
0.0055834251 0.0446674 0.015599012
0.0065729292 0.045071516 0.015251607
0.0073491577 0.044094946 0.015426397
0.0084190248 0.044901464 0.015323043
0.0093551334 0.044904638 0.015280992
0.010339115 0.045116138 0.015092224
0.011323978 0.045295913 0.014773875
0.012084891 0.044621136 0.014439404
0.013069279 0.044808958 0.014226764
0.013933746 0.044587988 0.014194936
0.015499196 0.046497591 0.013578087
0.016163839 0.045639075 0.010597378
0.017904261 0.047744699 0.0078311861
0.018607518 0.047008462 0.0060403049
-0.011280889 0.046063632 0.0078491867
-0.010348722 0.046098854 0.0097041428
-0.0094870599 0.046486594 0.010917395
-0.0083406828 0.045410383 0.011520922
-0.0076328311 0.046751089 0.012717694
-0.0065294732 0.045706313 0.01398924
-0.0056083347 0.045801401 0.014673114
-0.004699952 0.04605953 0.015167207
-0.0037607769 0.046069518 0.015464604
-0.0028165348 0.046003401 0.015626371
-0.0018945021 0.046415303 0.015668273
-0.00093428418 0.045779925 0.016161978
0 0.046433356 0.015890867
0.00093011773 0.045575768 0.01591289
0.0018593856 0.045554947 0.015726
0.0028442109 0.046455443 0.015710354
0.0038298166 0.046915255 0.015599012
0.0046740626 0.045805816 0.015648127
0.0056336871 0.046008445 0.015345603
0.006598209 0.046187464 0.015157163
0.0074252649 0.045479748 0.014883339
0.0085222339 0.04639883 0.014674395
0.0094543332 0.046326235 0.01459372
0.01020539 0.045460373 0.014276415
0.011454375 0.046772033 0.013570487
0.012107141 0.045634609 0.013194025
0.013025753 0.045590136 0.01251027
0.014134294 0.046172027 0.012032181
0.015030466 0.046030805 0.01007396
0.016448515 0.047410425 0.0075089931
0.017671142 0.048104778 0.0057652295
-0.010356952 0.047077052 0.0076905787
-0.0093303593 0.046651799 0.0093762279
-0.0085653365 0.047585204 0.009766221
-0.0073123495 0.045702185 0.011378556
-0.0065135062 0.046525043 0.012576997
-0.0057605966 0.04800497 0.012929559
-0.0046879319 0.046879321 0.012900144
-0.003722369 0.046529613 0.015099913
-0.0028205668 0.047009446 0.015493661
-0.0018550642 0.046376605 0.015330702
-0.00093027682 0.046513841 0.015918791
0 0.047082093 0.015479505
0.00092028279 0.046014141 0.015479505
0.0018911137 0.047277842 0.015424401
0.0027772011 0.046286684 0.015473515
0.0036747805 0.045934755 0.015424401
0.0046778196 0.046778195 0.015368164
0.0055992813 0.046660677 0.015153259
0.0064368965 0.045977831 0.014535815
0.0075388383 0.04711774 0.014253289
0.0083544413 0.046413563 0.014051408
0.0093154917 0.046577457 0.013976276
0.01033798 0.046990823 0.013459682
0.011051543 0.046048097 0.012656897
0.012165629 0.046790883 0.011943549
0.013044627 0.046587955 0.010603786
0.013877985 0.046259951 0.008990854
0.014834158 0.046356741 0.0064670444
0.016337715 0.048052106 0.0050539374
-0.0099381562 0.050684597 0.0054633617
-0.0087078502 0.049344487 0.0077509582
-0.0076042167 0.048476882 0.010223776
-0.0067272256 0.049012646 0.01176098
-0.0056137484 0.04771686 0.01222226
-0.0046625216 0.047557719 0.012276918
-0.0038383226 0.048938613 0.013772488
-0.0027653619 0.047011152 0.014934331
-0.001889145 0.0481732 0.015027732
-0.00095754239 0.048834663 0.015424401
0 0.047233768 0.015473843
0.00093310594 0.047588401 0.015444726
0.0019074575 0.048640165 0.015444696
0.0027864089 0.047368951 0.015500724
0.0037705454 0.048074454 0.015342891
0.0046714395 0.047648683 0.01483202
0.0055844989 0.047468241 0.014870733
0.0066523212 0.048466913 0.013868004
0.0073749963 0.0470156 0.01358211
0.0085013481 0.048174307 0.01330626
0.009409152 0.047986675 0.013212711
0.010338961 0.047935184 0.012026131
0.011188238 0.047550011 0.011127412
0.01251678 0.049104288 0.0094152987
0.013137448 0.047857843 0.0065485537
0.013893702 0.047238588 0.0055439472
-0.0090774037 0.052447222 0.0053751767
-0.0080497228 0.0523232 0.0072904229
-0.0067214924 0.049931087 0.010089695
-0.0057615018 0.049933016 0.011289388
-0.0048548854 0.050490811 0.01176846
-0.0038103298 0.049534287 0.012354612
-0.0028041482 0.048605237 0.013673663
-0.0019177116 0.0498605 0.014948308
-0.00095678447 0.04975279 0.015318125
0 0.04966642 0.015451998
0.00097074913 0.050478954 0.015485913
0.001869222 0.048599772 0.015429735
0.0028884688 0.050066791 0.015597105
0.0038241157 0.049713504 0.015442908
0.0047161407 0.049047865 0.01505658
0.0057725529 0.050028794 0.014536709
0.0068221423 0.050678771 0.013470471
0.0075254641 0.048915517 0.013247669
0.0088480217 0.051121905 0.01298511
0.0096779075 0.050325118 0.012362272
0.010631313 0.050257117 0.010779768
0.011574909 0.050157938 0.0082220137
0.012474468 0.049897872 0.0058273971
-0.0078443652 0.051968921 0.0068270266
-0.0067153117 0.050844502 0.0088349283
-0.0058584646 0.05174977 0.01021558
-0.0047803642 0.050671861 0.011312336
-0.0037533643 0.049732078 0.012225747
-0.0028485775 0.050324868 0.013194859
-0.0018791246 0.049796801 0.014635623
-0.00094022392 0.049831867 0.015077949
0 0.050505634 0.015297771
0.00092525734 0.049038641 0.01537919
0.001894091 0.05019341 0.015427917
0.0028419851 0.050208405 0.015500724
0.0036082186 0.047808897 0.015282154
0.0047595785 0.050451536 0.01476565
0.0057155839 0.050487656 0.014463603
0.0065153698 0.049330655 0.013386786
0.0077754841 0.051512584 0.01301226
0.0086465133 0.050918359 0.012264967
0.0094748856 0.050216895 0.011060894
0.010702547 0.051566817 0.0076307058
-0.0069068535 0.053281441 0.0071065426
-0.0056889146 0.051200233 0.0086188614
-0.0047213295 0.050990362 0.010066748
-0.0038740332 0.052299451 0.011861712
-0.0028031943 0.0504575 0.012484819
-0.0018706046 0.050506324 0.013629735
-0.00095430529 0.051532485 0.014788598
0 0.050109461 0.015048653
0.00093952502 0.050734352 0.015213847
0.0018728601 0.050567225 0.015213847
0.0027597449 0.049675409 0.015286654
0.0037351407 0.050424397 0.014816016
0.0046975883 0.050733954 0.014034688
0.0055233222 0.049709897 0.013518661
0.0067215632 0.051852059 0.012986481
0.0075741461 0.051125485 0.011630177
0.0086459983 0.05187599 0.0098132193
0.0098345876 0.053106774 0.0084317029
-0.0056800391 0.052067026 0.0072753131
-0.0048376285 0.053213913 0.009144485
-0.0037921371 0.052141886 0.010375977
-0.0028406025 0.052077711 0.01175794
-0.0018926952 0.052049119 0.012962252
-0.00093170255 0.05124364 0.014193565
0 0.052147619 0.014620632
0.00093781308 0.051579721 0.014777035
0.0018419133 0.050652616 0.014801294
0.0028331275 0.051940672 0.01496321
0.0037757643 0.051916756 0.01443246
0.0045697941 0.050267734 0.013984323
0.0056789718 0.05205724 0.013243854
0.0066663185 0.052378215 0.012847334
0.0075063263 0.051605992 0.011009008
0.0087100258 0.053227939 0.0090053976
0.0096790427 0.053234734 0.0059038401
-0.0058258772 0.054374855 0.0069111586
-0.0048535736 0.054360025 0.0083794594
-0.0037541862 0.052558608 0.0099540651
-0.0028461136 0.053127453 0.011750311
-0.001862811 0.05215871 0.01266104
-0.00093159167 0.052169133 0.013615429
0 0.053348012 0.014236242
0.00093034655 0.052099407 0.014309853
0.0018706375 0.05237785 0.014163435
0.0027883055 0.05204837 0.01447916
0.0036600351 0.051240493 0.013797969
0.0046742288 0.052351363 0.013462454
0.0056601148 0.052827738 0.012934715
0.0064285058 0.051428046 0.011689603
0.0076505295 0.053553704 0.0094328225
0.0085359924 0.053112838 0.0061101615
-0.0058225584 0.055314306 0.0069111586
-0.0047006002 0.053586844 0.0081195533
-0.0038437746 0.054773789 0.0098367035
-0.0028501807 0.054153431 0.011529475
-0.0018658978 0.053178087 0.012416959
-0.00096513418 0.055012651 0.013500482
0 0.053134803 0.01390335
0.00094777165 0.054022983 0.014107257
0.0018782233 0.053529363 0.01388064
0.0027659179 0.052552439 0.014178425
0.0037762234 0.053811185 0.013392657
0.0047186725 0.053792868 0.01300469
0.0055029541 0.052278064 0.011788309
0.0066707889 0.054319281 0.010831922
0.0074603739 0.053155165 0.0077177286
-0.0056756674 0.054864783 0.0069072545
-0.0048953947 0.056786578 0.0082828999
-0.0037581809 0.054493621 0.0098772049
-0.0028050134 0.054230262 0.011689067
-0.0019317473 0.05602067 0.012651622
-0.0009410081 0.054578472 0.013608068
0 0.055200364 0.014147192
0.00094373239 0.05473648 0.014137208
0.0018557045 0.053815428 0.013952971
0.0028151404 0.054426048 0.014195889
0.0037612601 0.054538272 0.01349172
0.0046922714 0.054430351 0.013062716
0.0056227269 0.054353029 0.012318611
0.0067523429 0.055947986 0.011384785
0.0074702967 0.054159649 0.0090053976
0.0088017313 0.056722272 0.0051032901
-0.0058655497 0.057677902 0.0064383745
-0.0047561331 0.05612237 0.0079622865
-0.0037694948 0.055600051 0.0099329948
-0.0028607391 0.056261204 0.01162836
-0.0018917983 0.055808052 0.012789577
-0.00092939363 0.054834224 0.013562143
0 0.05668525 0.01390335
0.00092755875 0.054725967 0.014093995
0.0018761725 0.055347089 0.013890415
0.0027980588 0.055028491 0.014033288
0.0036762166 0.054224193 0.013370365
0.0047469591 0.056014117 0.013089031
0.0057064644 0.056113567 0.01232481
0.006606332 0.05568194 0.010923207
0.0076401848 0.056346361 0.0076729953
-0.0056885737 0.056885738 0.0063466132
-0.0047080982 0.056497175 0.0080063939
-0.0038290431 0.057435647 0.0099540651
-0.0028214427 0.056428857 0.011504471
-0.0018843021 0.056529064 0.012528956
-0.00095233403 0.057140041 0.013442397
0 0.055326518 0.013632387
0.0009571847 0.057431083 0.013774365
0.0018973161 0.056919482 0.013548464
0.0028354621 0.056709241 0.013951808
0.0037665784 0.056498677 0.013239861
0.0047802622 0.057363145 0.012672037
0.0055466164 0.055466168 0.01240024
0.0065970831 0.056546427 0.010254055
0.0074280002 0.055710003 0.0072139204
-0.0047830553 0.058353275 0.0075037479
-0.0037679011 0.057460491 0.0083668828
-0.0028587945 0.058128823 0.010255486
-0.0018757402 0.057210077 0.01166296
-0.00094154378 0.057434171 0.013028741
0 0.058206093 0.013072342
0.00094432244 0.057603668 0.013433516
0.001852802 0.05651046 0.013174802
0.0027944145 0.056819763 0.013253719
0.0038587051 0.058845252 0.012623429
0.004589451 0.055991303 0.0116027
0.0057600522 0.058560532 0.010995388
0.0066432548 0.057891224 0.0082128346
0.007416049 0.056547374 0.0065930188
-0.004787886 0.059369788 0.0065808594
-0.0037677831 0.058400638 0.0079924464
-0.0028758799 0.059434853 0.0088860989
-0.0019016832 0.058952179 0.010499656
-0.0009467731 0.058699932 0.012244076
0 0.059062768 0.012274683
0.00092449819 0.057318889 0.01276651
0.0018859666 0.058464967 0.012359053
0.0028262499 0.058409162 0.01287958
0.0036786874 0.057019651 0.011284292
0.0047929082 0.05943206 0.010382414
0.0056563057 0.058448493 0.0086245537
0.0065714782 0.05820452 0.0072859228
0.0077249585 0.059868429 0.0053757727
-0.003831415 0.060344785 0.0070390701
-0.0028403171 0.059646662 0.007948488
-0.0018387755 0.057921428 0.0093886852
-0.00095742341 0.060317677 0.010512799
0 0.058137871 0.010577381
0.00094437361 0.059495538 0.011161119
0.0018906201 0.059554532 0.010608137
0.0027542254 0.057838734 0.010558516
0.0037808712 0.059548721 0.0096398592
0.0047365925 0.059681062 0.0080352724
0.005623858 0.059050508 0.0069248378
0.0066605201 0.059944682 0.0053775907
-0.0028109781 0.059967533 0.0072758794
-0.0018908906 0.060508501 0.0082544386
-0.00093447708 0.059806533 0.0088384748
0 0.060830239 0.0088398159
0.00094344711 0.060380615 0.0094283521
0.0018577253 0.05944721 0.0093815029
0.0028701085 0.061228979 0.0087382793
0.0037818842 0.060510147 0.0077485144
0.0046236697 0.059182972 0.0072234571
0.0057457811 0.061288334 0.00563097
-0.0018843091 0.061240043 0.0065808594
-0.00092865695 0.0603627 0.0080384016
0 0.061693117 0.0077518225
0.00093714969 0.060914729 0.0074758232
0.0018836013 0.06121704 0.0073355436
0.0028759618 0.062312506 0.0072497725
0.0037203624 0.060455889 0.0064578652
0 0 0 1 0 0 0 1 0 0 0 1 0 0 0 0 0 1082 1 0 0
