ply
format ascii 1.0
comment PCL generated
element vertex 1247
property float x
property float y
property float z
element camera 0
property float view_px
property float view_py
property float view_pz
property float x_axisx
property float x_axisy
property float x_axisz
property float y_axisx
property float y_axisy
property float y_axisz
property float z_axisx
property float z_axisy
property float z_axisz
property float focal
property float scalex
property float scaley
property float centerx
property float centery
property int viewportx
property int viewporty
property float k1
property float k2
end_header
0.0040991921 -0.037917525 0.012368917
0.0051250649 -0.037925482 0.011261702
0.006229246 -0.038413685 0.010147303
0.0071540694 -0.037814368 0.0092612207
0.0083634574 -0.038680993 0.008590728
0.0094616078 -0.038897723 0.0070988536
-0.030545134 -0.037918098 0.0067323148
-0.028904416 -0.037162818 0.0086496174
-0.027986929 -0.037315905 0.010086924
-0.026880471 -0.037219111 0.010704756
-0.025578387 -0.036832877 0.011913598
-0.024928559 -0.037392836 0.013570905
-0.023756159 -0.037183557 0.014241248
-0.022363499 -0.036594816 0.014779896
-0.021528849 -0.0369066 0.01533106
-0.020429555 -0.036773201 0.01555419
-0.019448625 -0.036850028 0.015655309
-0.018565284 -0.037130568 0.015656233
-0.017463302 -0.03698111 0.015479892
-0.016474782 -0.037068259 0.01535067
-0.015260157 -0.036624376 0.015581518
-0.014247515 -0.036636468 0.015595883
-0.013268976 -0.036744859 0.015893072
-0.01205763 -0.036172893 0.016077191
-0.011176313 -0.036577024 0.016598165
-0.0099860141 -0.035949651 0.016608596
-0.0091591151 -0.036636461 0.016053736
-0.0082194088 -0.036987338 0.016120553
-0.0072405408 -0.037237067 0.015785992
-0.0060941312 -0.03656479 0.01562503
-0.0049899095 -0.035927348 0.015465945
-0.0041098329 -0.036988497 0.015103549
-0.0030497008 -0.03659641 0.014730185
-0.0020458477 -0.036825258 0.014472336
-0.0010314694 -0.0371329 0.013708472
0 -0.036895961 0.013411373
0.0010273234 -0.036983643 0.012938738
0.0020447501 -0.036805503 0.01263994
0.0030555539 -0.036666647 0.012179106
0.0041347085 -0.037212379 0.010638177
0.0051603145 -0.037154265 0.010286301
0.0061500981 -0.036900587 0.0093643367
0.0072780945 -0.037430201 0.00880301
0.0082033146 -0.036914915 0.0071966648
0.0092863934 -0.037145574 0.0052603185
-0.030061074 -0.036280606 0.0067012608
-0.029142028 -0.036427535 0.0092506111
-0.027973007 -0.036261305 0.010213137
-0.026653504 -0.035879716 0.011434376
-0.025831727 -0.036164418 0.012922406
-0.024632804 -0.03592284 0.013838261
-0.02339429 -0.035600007 0.014522374
-0.022713777 -0.036135554 0.015434742
-0.02144769 -0.03574615 0.01533553
-0.020437509 -0.03576564 0.01546815
-0.019408736 -0.035752933 0.015525818
-0.018397018 -0.035771981 0.015600741
-0.01740689 -0.035837717 0.015502512
-0.016207239 -0.035453334 0.015414983
-0.015349293 -0.035815015 0.015559196
-0.014384459 -0.035961147 0.015785992
-0.01309432 -0.035253938 0.015779883
-0.012180154 -0.035525449 0.01580441
-0.011194771 -0.035619728 0.01626724
-0.010019868 -0.035069536 0.01626724
-0.008992631 -0.034971345 0.015725821
-0.0080738524 -0.035323102 0.015643597
-0.0070773265 -0.035386633 0.015333503
-0.0062347874 -0.036369592 0.015166312
-0.0051988829 -0.036392178 0.014858097
-0.0041053277 -0.035921615 0.014461935
-0.0030616866 -0.035719678 0.01419577
-0.0020643251 -0.03612569 0.013971657
-0.0010245509 -0.035859279 0.013099581
0 -0.036305394 0.012799799
0.0010252824 -0.035884887 0.012452513
0.0020613985 -0.036074474 0.011799634
0.0030721126 -0.035841312 0.01068154
0.0041109365 -0.035970695 0.010071993
0.0051513296 -0.036059305 0.0091128647
0.0062022326 -0.036179688 0.008626163
0.0072224149 -0.036112074 0.0075736344
0.0083045196 -0.036332276 0.0056306124
-0.031125551 -0.035275627 0.0050991178
-0.030446244 -0.035695598 0.0076881051
-0.028969031 -0.035176679 0.0093524754
-0.027446475 -0.03456223 0.01039958
-0.026658919 -0.034861661 0.011565775
-0.025555497 -0.034755476 0.013345927
-0.024412867 -0.034584895 0.014342785
-0.023509685 -0.034753449 0.014991283
-0.022252282 -0.034389891 0.01533553
-0.021446954 -0.034723643 0.015317082
-0.02044777 -0.034761209 0.015506864
-0.019403443 -0.034721948 0.01548928
-0.018413929 -0.034781866 0.015500546
-0.017482923 -0.034965847 0.015663356
-0.016393827 -0.034836885 0.015663356
-0.015401772 -0.034910683 0.015703291
-0.014402732 -0.034978066 0.015758395
-0.013222995 -0.034583218 0.015745908
-0.012248478 -0.034704022 0.015753716
-0.011235951 -0.034729306 0.015994668
-0.010019523 -0.034066379 0.015994668
-0.0091415355 -0.034534693 0.015366018
-0.0080984449 -0.034418393 0.015234292
-0.007019477 -0.034094602 0.015068382
-0.0060235229 -0.034133296 0.01467371
-0.005114269 -0.03477703 0.01423794
-0.0040893354 -0.03475935 0.013957918
-0.0030864561 -0.034979835 0.013540536
-0.0020408423 -0.034694321 0.013138264
-0.001021772 -0.034740251 0.012634903
0 -0.034788039 0.012019873
0.0010260398 -0.034885354 0.011653572
0.0020686437 -0.035166945 0.01068154
0.0030804204 -0.034911431 0.010356694
0.0041203061 -0.035022601 0.0092368126
0.0051953513 -0.035328388 0.0084013939
0.0062221363 -0.035258774 0.0074809194
0.0073079369 -0.035495691 0.0058065951
-0.031919502 -0.035111453 0.0052315891
-0.030028855 -0.034170765 0.0082455277
-0.02894913 -0.034118619 0.0095688403
-0.027972562 -0.034188688 0.010492325
-0.026705295 -0.033895183 0.012277246
-0.025368879 -0.033486921 0.013694465
-0.024562318 -0.033773188 0.014366239
-0.02354373 -0.033780135 0.015121698
-0.022416107 -0.033624161 0.015408665
-0.021451201 -0.033709031 0.015416324
-0.020397011 -0.033655066 0.015172958
-0.019475549 -0.033825956 0.015112936
-0.018463613 -0.033849958 0.015943676
-0.017183993 -0.033357162 0.016121387
-0.016378542 -0.033780742 0.016089052
-0.015131562 -0.033289436 0.016361743
-0.014335614 -0.033791088 0.016150117
-0.013342072 -0.033868335 0.016023844
-0.012288932 -0.033794563 0.015918761
-0.011140972 -0.033422917 0.016033798
-0.010297646 -0.033982232 0.015563846
-0.0092475852 -0.033907812 0.015177697
-0.0082058832 -0.033849265 0.01497224
-0.0070806369 -0.033380143 0.014472336
-0.0061487327 -0.033818029 0.014188141
-0.0050982111 -0.033648193 0.013915032
-0.004134038 -0.034105815 0.01316601
-0.0030912689 -0.034003958 0.012925446
-0.002052465 -0.033865672 0.012259662
-0.0010398375 -0.034314636 0.011976987
0 -0.03374337 0.011462867
0.0010308755 -0.034018893 0.010534883
0.0020763634 -0.034259997 0.0099484324
0.0031117531 -0.034229286 0.0095030963
0.0041852472 -0.034528289 0.008294642
0.0051798993 -0.034187336 0.0072529614
0.0062299306 -0.034264617 0.006467402
-0.031451125 -0.033547867 0.0054567158
-0.02984936 -0.032937225 0.008186996
-0.029003972 -0.033147395 0.0095738471
-0.027997533 -0.033182263 0.010883093
-0.026313368 -0.032385685 0.012818784
-0.025688648 -0.032881472 0.013960004
-0.024543643 -0.032724857 0.014720798
-0.023440443 -0.032612793 0.015014827
-0.022412382 -0.032599829 0.015354335
-0.021294225 -0.032448344 0.015053153
-0.020214612 -0.03234338 0.015057147
-0.019538274 -0.032906566 0.015603304
-0.018391496 -0.03269599 0.016150892
-0.017328152 -0.032617696 0.016378641
-0.016446002 -0.032892004 0.016244292
-0.015142733 -0.032304496 0.016206712
-0.014188233 -0.032430246 0.016146302
-0.013266196 -0.032655254 0.015974164
-0.012341737 -0.032911297 0.015994996
-0.011358312 -0.033042364 0.016119987
-0.010260597 -0.032833908 0.015806139
-0.0090359673 -0.032127883 0.014956743
-0.0081923334 -0.032769334 0.014778972
-0.007200201 -0.032915205 0.014058948
-0.0061363755 -0.032727335 0.013868898
-0.0050982772 -0.032628976 0.013173461
-0.0040402091 -0.032321673 0.012835026
-0.0030624112 -0.032665718 0.012254894
-0.0020502959 -0.032804735 0.012000591
-0.0010304614 -0.032974765 0.011471838
0 -0.033218723 0.010790527
0.0010308272 -0.03298647 0.010234594
0.0020327386 -0.032523818 0.0094674528
0.0031128875 -0.033204131 0.008294642
0.0041377461 -0.033101968 0.0074290335
0.0051857531 -0.03318882 0.0066645145
-0.031367399 -0.03241298 0.0062204301
-0.030540725 -0.032646984 0.0085609555
-0.029092686 -0.032209758 0.0098844469
-0.027578937 -0.031664703 0.011060506
-0.026720032 -0.0318585 0.013012201
-0.025573213 -0.031710785 0.013964951
-0.024321822 -0.031415686 0.014784068
-0.023726158 -0.031978734 0.015120417
-0.02230273 -0.031426575 0.01510331
-0.021261139 -0.031385493 0.014993459
-0.02052892 -0.031819828 0.015603304
-0.019109173 -0.031178124 0.015957057
-0.018155938 -0.031268559 0.016378641
-0.017367614 -0.031670354 0.01664573
-0.016262881 -0.031509336 0.01629138
-0.015492814 -0.032018483 0.016036361
-0.014445063 -0.031985495 0.015999675
-0.012967677 -0.030922923 0.01572156
-0.012139272 -0.031359788 0.015657246
-0.011273922 -0.031771962 0.015712202
-0.010202158 -0.03162669 0.015284359
-0.009196748 -0.031677689 0.014806062
-0.0081250994 -0.03148476 0.014687151
-0.007197686 -0.031875465 0.014048308
-0.006158724 -0.031820074 0.013435334
-0.0051415898 -0.031877857 0.012853861
-0.0040990016 -0.031767264 0.012445778
-0.0030805364 -0.031832207 0.012015045
-0.0020434815 -0.031673964 0.011650681
-0.0010240669 -0.031746075 0.010844857
0 -0.032095779 0.0098476112
0.0010276636 -0.031857569 0.009305656
0.0020640858 -0.03199333 0.0081751943
0.0030924231 -0.031955037 0.0073104501
0.0041582524 -0.032226454 0.0068729222
0.0051754201 -0.032087605 0.0054748654
-0.031591672 -0.031591672 0.0061235428
-0.030147513 -0.031187084 0.0082469583
-0.028711284 -0.030762089 0.010007441
-0.028088 -0.03120889 0.011314243
-0.026759578 -0.030876435 0.012873918
-0.025384625 -0.030461552 0.013805836
-0.024573022 -0.03071628 0.01477164
-0.023383228 -0.030499863 0.014903665
-0.022301409 -0.030411012 0.015037566
-0.02130462 -0.030435173 0.015541911
-0.020117372 -0.030176058 0.015951902
-0.019297767 -0.030470161 0.016662031
-0.018252416 -0.030420693 0.016744941
-0.017388325 -0.030685281 0.017359674
-0.01655525 -0.031041095 0.017156839
-0.015109053 -0.030218106 0.016450584
-0.013981096 -0.029959492 0.016016662
-0.013162537 -0.030375086 0.015727103
-0.012140015 -0.030350037 0.015673786
-0.011262529 -0.030715987 0.015509397
-0.010202771 -0.030608313 0.014995962
-0.0092636645 -0.030878881 0.01474452
-0.0081450948 -0.030544106 0.014258415
-0.0071413708 -0.030605875 0.013728976
-0.006075345 -0.030376725 0.013287991
-0.0051342752 -0.030805651 0.012848586
-0.0041338676 -0.031004006 0.012322158
-0.0030779762 -0.030779762 0.011891961
-0.0020550638 -0.030825958 0.011238307
-0.0010344296 -0.031032888 0.010471702
0 -0.03072211 0.0096636117
0.001049364 -0.03148092 0.0083295107
0.0020582336 -0.030873504 0.0073358417
0.0031101601 -0.031101601 0.0068931282
0.0042018914 -0.031514186 0.0057506263
-0.031325214 -0.030281039 0.0053083599
-0.029713612 -0.029713612 0.0077372193
-0.02907715 -0.030115619 0.0093934536
-0.027894054 -0.029960278 0.010833323
-0.026479498 -0.029534826 0.012443751
-0.025636949 -0.02973886 0.013632923
-0.024526147 -0.029635761 0.014417738
-0.0233845 -0.029484805 0.014885306
-0.022610584 -0.029804861 0.015636146
-0.02133774 -0.029466404 0.015949279
-0.02033034 -0.029478993 0.016709387
-0.019206274 -0.02931484 0.017047375
-0.018331232 -0.029533653 0.017389178
-0.017140795 -0.02924018 0.017473072
-0.016034778 -0.029063037 0.017425567
-0.015096186 -0.029185958 0.017213732
-0.014178889 -0.029370556 0.016346127
-0.013228992 -0.02951083 0.015817523
-0.01225912 -0.029626207 0.015509695
-0.011205493 -0.029541753 0.015317678
-0.010168589 -0.029488908 0.01468417
-0.0091868248 -0.029601991 0.014468491
-0.0083078807 -0.030116068 0.013967186
-0.0071852687 -0.029767543 0.013431668
-0.0061663655 -0.029804101 0.012948811
-0.0051720315 -0.029997783 0.012377501
-0.0041177496 -0.029853685 0.011874676
-0.0031044707 -0.030009883 0.011265725
-0.0020762624 -0.030105803 0.01073584
-0.0010250971 -0.029727815 0.0099221766
0 -0.030139763 0.008462429
0.0010357638 -0.030037148 0.0077234805
0.0020568797 -0.029824754 0.0067949295
0.0031578636 -0.030526014 0.0060934424
-0.031053122 -0.028982915 0.0053206682
-0.030168073 -0.029127795 0.0074142218
-0.029328728 -0.029328728 0.0093633533
-0.027719663 -0.028746316 0.010581553
-0.026599362 -0.028645467 0.012441963
-0.025703548 -0.028787974 0.013423383
-0.024581337 -0.028678227 0.014027983
-0.023483587 -0.028588716 0.014885306
-0.022365296 -0.028464923 0.015772313
-0.02124802 -0.028330693 0.016613066
-0.020263143 -0.0283684 0.017030627
-0.019138966 -0.028204791 0.017570168
-0.018259777 -0.028404098 0.017478436
-0.017402506 -0.02866295 0.017674297
-0.015935214 -0.027886625 0.017698079
-0.015064955 -0.028121248 0.017527997
-0.014051664 -0.028103327 0.017202705
-0.013173402 -0.028373482 0.016082346
-0.012052815 -0.028123235 0.015575826
-0.011276397 -0.028703557 0.015241235
-0.01013252 -0.028371057 0.014634401
-0.0091603911 -0.028498994 0.014311075
-0.0081805382 -0.028631885 0.013773263
-0.0071531869 -0.028612748 0.013206482
-0.0061757956 -0.028820379 0.012646139
-0.005116201 -0.028650725 0.01211673
-0.0041384189 -0.028968932 0.011408269
-0.0031197891 -0.029118033 0.010866761
-0.002055513 -0.028777182 0.010445476
-0.0010286194 -0.028801342 0.0095291734
0 -0.028869692 0.0081444085
0.0010311183 -0.028871311 0.0071094334
0.00207977 -0.02911678 0.0064027607
0.0031117441 -0.029042946 0.0055317581
-0.031603135 -0.028442822 0.0052962303
-0.029970068 -0.027903166 0.0073436201
-0.028696615 -0.027671738 0.0094205141
-0.027843924 -0.027843924 0.010808885
-0.026739605 -0.027768051 0.012360275
-0.025543405 -0.027586877 0.013322979
-0.024642207 -0.027722484 0.01429072
-0.023309637 -0.027363487 0.015231758
-0.022354184 -0.027434681 0.015965462
-0.021346055 -0.027444927 0.016605884
-0.020259131 -0.027349826 0.017276764
-0.01918027 -0.027256174 0.01758036
-0.017942745 -0.026914116 0.017515212
-0.017433237 -0.027688082 0.017776012
-0.016455231 -0.027768204 0.017797828
-0.015283938 -0.027511088 0.017527997
-0.01416227 -0.027312949 0.017112881
-0.013101899 -0.027211638 0.016026914
-0.012174684 -0.027393037 0.015336752
-0.011126081 -0.02730947 0.01521033
-0.01026089 -0.027704403 0.014580607
-0.0091838026 -0.027551409 0.014248043
-0.0081740497 -0.027587419 0.013444036
-0.0071274629 -0.027491644 0.013050169
-0.0061043832 -0.027469724 0.012341857
-0.0051115365 -0.027602296 0.01176846
-0.0040949504 -0.027640915 0.011062264
-0.003074205 -0.027667845 0.01069051
-0.0020726603 -0.027980912 0.010169536
-0.0010409105 -0.028104585 0.0093569458
0 -0.027736086 0.0079586208
0.0010429217 -0.028158886 0.0069303215
0.0020932588 -0.028258994 0.005997777
-0.031334326 -0.027156416 0.0052469373
-0.029770145 -0.026690474 0.007365644
-0.028963141 -0.026894344 0.0097029805
-0.027877703 -0.026845196 0.010935128
-0.02653024 -0.02653024 0.012734234
-0.025758691 -0.026789039 0.013510495
-0.024453273 -0.026491046 0.014179617
-0.023525966 -0.02659457 0.01590398
-0.022559794 -0.026661575 0.016357809
-0.021155125 -0.02619206 0.016891748
-0.020247689 -0.026321994 0.017329544
-0.019093076 -0.026127366 0.01763767
-0.018240383 -0.02634722 0.017507523
-0.01707262 -0.026111066 0.017752022
-0.016019339 -0.026031425 0.017806262
-0.01509905 -0.026171688 0.017472953
-0.014184951 -0.02634348 0.01694259
-0.013263904 -0.026527807 0.016027242
-0.012075713 -0.026164046 0.015417129
-0.011304721 -0.02672025 0.015305012
-0.010174129 -0.026452737 0.014385283
-0.0091791917 -0.026517665 0.014142424
-0.0081670256 -0.026542833 0.013323963
-0.0071456288 -0.026540907 0.012977749
-0.0061407932 -0.026610104 0.012222499
-0.0051287762 -0.026669636 0.011560977
-0.0040843682 -0.026548393 0.010979116
-0.0030821725 -0.026712161 0.010608286
-0.0020773606 -0.027005687 0.010029316
-0.0010267461 -0.0266954 0.008813709
0 -0.026983842 0.0074839294
0.0010408837 -0.027062977 0.0063706636
0.0020873544 -0.027135607 0.0054400563
-0.03136614 -0.026138451 0.0053206682
-0.030578185 -0.026360504 0.0073728263
-0.028936706 -0.025836345 0.010056198
-0.027850568 -0.025787562 0.011212766
-0.026665391 -0.0256398 0.012664527
-0.026022432 -0.026022432 0.013550341
-0.024786813 -0.025819596 0.014517337
-0.023648366 -0.025704747 0.01602599
-0.022308797 -0.025350904 0.016350985
-0.021298889 -0.02535582 0.017049879
-0.020287244 -0.025359055 0.017248958
-0.019166518 -0.025219101 0.017710686
-0.018079862 -0.025110919 0.017756104
-0.016988283 -0.024982769 0.01804617
-0.016000357 -0.025000557 0.01813522
-0.015069373 -0.02511562 0.017806292
-0.014149566 -0.025267083 0.017315
-0.012980064 -0.024961663 0.016698778
-0.012222255 -0.025463032 0.015753359
-0.011299009 -0.025679566 0.015403867
-0.010148235 -0.025370587 0.014713854
-0.0092112562 -0.025586823 0.014165193
-0.0081857806 -0.025580566 0.013420135
-0.0071074534 -0.025383761 0.012879908
-0.006173138 -0.025721408 0.012212723
-0.0051170401 -0.025585201 0.011371672
-0.0040925285 -0.025578303 0.010768384
-0.0030886568 -0.025738806 0.010181308
-0.0020820471 -0.02602559 0.009577632
-0.0010311013 -0.025777532 0.0080306232
0 -0.026117314 0.0068523884
0.0010290295 -0.025725739 0.0058521628
-0.031767763 -0.02541421 0.0054864883
-0.030508274 -0.025248228 0.0078009367
-0.02912112 -0.024960959 0.010158926
-0.028300883 -0.025156341 0.011475533
-0.026945779 -0.024873028 0.0126957
-0.025610989 -0.024586551 0.013581514
-0.02484135 -0.02484135 0.014630139
-0.023339704 -0.024354473 0.015967697
-0.022171469 -0.024187058 0.016301751
-0.021345384 -0.024394726 0.017264664
-0.020229304 -0.024275165 0.017605633
-0.019268736 -0.024339456 0.018151999
-0.018302709 -0.024403613 0.018134087
-0.017045628 -0.024064416 0.018463016
-0.016056281 -0.024084421 0.018516779
-0.015180248 -0.024288395 0.018115997
-0.014150757 -0.024258442 0.017773926
-0.013183842 -0.024339402 0.017136157
-0.012158956 -0.024317913 0.016616583
-0.01114986 -0.024326967 0.015728027
-0.010300742 -0.024721779 0.01489231
-0.0091511607 -0.024403093 0.014022112
-0.0081640352 -0.024492105 0.013406456
-0.007156231 -0.024535649 0.01303038
-0.0061060158 -0.024424063 0.012234181
-0.0051186779 -0.024569655 0.011469513
-0.0041299057 -0.024779433 0.010711759
-0.003072822 -0.024582576 0.01020512
-0.0020678327 -0.024813993 0.0095207691
-0.0010406889 -0.024976535 0.0079851449
0 -0.024827464 0.0065995157
0.0010436743 -0.025048183 0.0057757497
-0.031359911 -0.024042599 0.0057582855
-0.029992385 -0.023787064 0.0091716051
-0.029371679 -0.024126736 0.010370612
-0.028340654 -0.02414204 0.011804134
-0.026650606 -0.023575537 0.012952715
-0.025771009 -0.023709327 0.013882667
-0.024341121 -0.023326907 0.01506117
-0.023563927 -0.023563927 0.016282201
-0.022529179 -0.023553232 0.017072529
-0.021127285 -0.023139408 0.017645627
-0.020277118 -0.023318686 0.018140554
-0.019154608 -0.023187157 0.018449187
-0.018125555 -0.023160432 0.018615246
-0.017170111 -0.02323015 0.018842876
-0.016147157 -0.023211537 0.018731952
-0.01519421 -0.02329779 0.018526316
-0.014106685 -0.023175268 0.01829195
-0.013039217 -0.023069384 0.017560631
-0.012102173 -0.023195831 0.017227441
-0.011263261 -0.023550455 0.016542226
-0.010188231 -0.023432933 0.015217006
-0.0091962637 -0.023501562 0.014714152
-0.0082440814 -0.023701733 0.013688117
-0.007175108 -0.023575354 0.013289332
-0.0061130631 -0.023433408 0.012444079
-0.0051379483 -0.023634564 0.012042016
-0.0040868381 -0.023499319 0.010831296
-0.0030732367 -0.023561481 0.010308027
-0.0020645738 -0.023742599 0.0095382631
-0.0010282758 -0.023650344 0.0082559586
0 -0.023887215 0.0066542625
0.0010466737 -0.024073496 0.0053640008
-0.030959245 -0.022703446 0.0058337152
-0.030285126 -0.022974923 0.0095338523
-0.028929515 -0.022730334 0.010401875
-0.027451463 -0.022367859 0.011978835
-0.026556043 -0.022470498 0.013156682
-0.025330476 -0.02229082 0.013950914
-0.024383711 -0.022351736 0.015528142
-0.02358654 -0.022561038 0.016367078
-0.022586942 -0.022586942 0.017272413
-0.021265503 -0.022278145 0.017776012
-0.020180004 -0.022198005 0.018090278
-0.019406853 -0.022471095 0.018651247
-0.018365651 -0.022446908 0.018673182
-0.017331708 -0.022429269 0.018856794
-0.016060671 -0.022083424 0.018786371
-0.015331342 -0.022485968 0.018622965
-0.014158839 -0.022249606 0.018456548
-0.013296604 -0.022501945 0.017963022
-0.012462518 -0.02284795 0.01730305
-0.011359823 -0.022719646 0.016672492
-0.010237054 -0.022521518 0.015763223
-0.0092741838 -0.022670228 0.015054911
-0.0081783831 -0.022490552 0.013892055
-0.007145761 -0.022458106 0.013400882
-0.0061745206 -0.02263991 0.012518227
-0.0050734333 -0.022323105 0.01227659
-0.0040617841 -0.022339812 0.011233509
-0.0030944643 -0.022692738 0.010392606
-0.0020546024 -0.022600627 0.0095697045
-0.0010296255 -0.022651762 0.0082050562
0 -0.022931913 0.0066155493
0.0010366306 -0.022805873 0.0053887367
-0.03142944 -0.022000607 0.0065493882
-0.029878223 -0.021635955 0.0094494224
-0.028665906 -0.021499429 0.010670066
-0.027725596 -0.021564353 0.01177749
-0.026447115 -0.021361131 0.012933671
-0.025128484 -0.021107927 0.013774157
-0.024242289 -0.021212002 0.014791995
-0.023183841 -0.021167856 0.016107291
-0.022520123 -0.02149648 0.017131656
-0.021363962 -0.021363962 0.017816126
-0.020209312 -0.021219777 0.018055946
-0.019223139 -0.021246627 0.018566251
-0.018139018 -0.021162186 0.018556327
-0.017180746 -0.021223275 0.018568963
-0.016251622 -0.021330254 0.018534034
-0.015275709 -0.021385994 0.01836285
-0.01411886 -0.02117829 0.018203735
-0.013264999 -0.021428075 0.017670453
-0.012173973 -0.021304453 0.017400563
-0.011176349 -0.021336665 0.016782641
-0.010286411 -0.021601463 0.015846103
-0.0092303688 -0.021537527 0.01515165
-0.0082222577 -0.021583425 0.014146596
-0.0072144205 -0.021643262 0.013575375
-0.0061021904 -0.021357665 0.012585372
-0.0050895959 -0.021376302 0.012277365
-0.0041136933 -0.02159689 0.010790139
-0.0030561027 -0.02139272 0.010229081
-0.0020666684 -0.021700019 0.0095561147
-0.0010357192 -0.021750104 0.0082050562
0 -0.021789823 0.0065182149
0.0010409572 -0.0218601 0.005417645
-0.031720784 -0.02114719 0.0055684149
-0.02981648 -0.02056309 0.0077676475
-0.028808726 -0.020577662 0.0097227097
-0.027504047 -0.020373369 0.010950297
-0.02612316 -0.020094739 0.012208223
-0.025300188 -0.02024015 0.013194919
-0.024437772 -0.02036481 0.014003634
-0.023401977 -0.020349545 0.015139103
-0.022486625 -0.020442387 0.016537845
-0.021254092 -0.020241993 0.017489195
-0.020236058 -0.020236058 0.017699808
-0.01918382 -0.020193495 0.018180847
-0.018151052 -0.020167835 0.01832974
-0.017059708 -0.020070245 0.018395811
-0.01592933 -0.019911662 0.018234223
-0.015150621 -0.020200826 0.018332064
-0.013996151 -0.019994503 0.017983347
-0.013072691 -0.020111831 0.017569155
-0.012089222 -0.020148702 0.017178506
-0.011136151 -0.020247547 0.016309708
-0.010079994 -0.020159988 0.01545766
-0.0090670511 -0.020149004 0.014861643
-0.0082100555 -0.020525137 0.013968855
-0.0070920675 -0.02026305 0.013501972
-0.0061284848 -0.020428283 0.012733459
-0.0051516988 -0.020606795 0.011934757
-0.0040863985 -0.020431994 0.010575205
-0.0030904426 -0.020602951 0.010272443
-0.0020832252 -0.020832252 0.0095716715
-0.0010305387 -0.020610774 0.0084456205
0 -0.020795971 0.0071482658
0.0010391255 -0.02078251 0.005653441
-0.03082961 -0.01952542 0.00530532
-0.030249482 -0.019818626 0.0065131783
-0.029007461 -0.019683633 0.0091897845
-0.027702313 -0.019494221 0.010504842
-0.02677232 -0.019564386 0.011786133
-0.025508154 -0.019386197 0.012718767
-0.024363181 -0.019287517 0.01373592
-0.023471704 -0.019389668 0.014547855
-0.022186812 -0.019161338 0.015807301
-0.021108363 -0.019098043 0.016605884
-0.019937912 -0.018941017 0.017050773
-0.018994162 -0.018994162 0.017445087
-0.018039243 -0.019041423 0.01796934
-0.016953077 -0.018947557 0.017935157
-0.016070399 -0.0190836 0.017930627
-0.015153251 -0.019194117 0.017863393
-0.014096601 -0.019131102 0.017358333
-0.013067857 -0.019099176 0.016951114
-0.01199346 -0.018989645 0.016496003
-0.011103261 -0.019178359 0.015731663
-0.010155406 -0.019295271 0.015004516
-0.0091409544 -0.01929757 0.014705569
-0.0080765318 -0.019181764 0.013727844
-0.0070881788 -0.019239342 0.013394833
-0.0061291629 -0.019409016 0.012268096
-0.0050907624 -0.019344898 0.011130244
-0.0040839277 -0.019398658 0.010349214
-0.0030920573 -0.01958303 0.0099649429
-0.0020571412 -0.019542841 0.0090710819
-0.0010275451 -0.019523356 0.0081307292
0 -0.019671505 0.0067797601
0.0010283976 -0.019539554 0.0054742098
-0.031045893 -0.018627536 0.0050785542
-0.030340543 -0.018832061 0.0059288442
-0.028648168 -0.018416679 0.0074174106
-0.027883952 -0.018589301 0.0099000037
-0.026582349 -0.018403165 0.011467248
-0.025200922 -0.018144665 0.012021989
-0.024447443 -0.018335583 0.013204515
-0.023218323 -0.018170862 0.013968945
-0.022076853 -0.01806288 0.014860064
-0.021203855 -0.018174734 0.015500575
-0.020050783 -0.018045705 0.015956134
-0.019148771 -0.01814094 0.01612848
-0.018170396 -0.018170396 0.016835958
-0.017180378 -0.018190987 0.017523676
-0.016153907 -0.018173145 0.017630249
-0.015089164 -0.018106997 0.017230123
-0.014036789 -0.018047299 0.016480833
-0.013168155 -0.018232832 0.015978783
-0.012150324 -0.018225485 0.015228987
-0.011116503 -0.018190641 0.014939517
-0.010074923 -0.01813486 0.014198065
-0.0091260355 -0.018252071 0.013750255
-0.0081007732 -0.018226741 0.013611972
-0.007149017 -0.018383186 0.012385368
-0.0060830498 -0.018249149 0.011258394
-0.0050791223 -0.018284841 0.01068756
-0.0040931217 -0.018419048 0.010029495
-0.0030461643 -0.018276986 0.0096460283
-0.0020707469 -0.018636722 0.0086162984
-0.0010352005 -0.01863361 0.0076453686
0 -0.018548187 0.006298095
-0.031520527 -0.017861633 0.0050935149
-0.029681306 -0.017399386 0.0056914389
-0.028807405 -0.01749021 0.0067905486
-0.027660314 -0.017415754 0.0084762275
-0.026340144 -0.017222403 0.0098853409
-0.025694091 -0.017471982 0.011065155
-0.024429444 -0.01730419 0.012249261
-0.023254219 -0.017187901 0.013131738
-0.022335868 -0.017259534 0.013769984
-0.021277491 -0.017224636 0.014620602
-0.020122154 -0.01710383 0.014860064
-0.019209636 -0.017187569 0.015235931
-0.018144866 -0.01713682 0.014944106
-0.017177973 -0.017177973 0.0149073
-0.016193494 -0.017205587 0.015182555
-0.015094353 -0.017106934 0.015122712
-0.013999902 -0.016999882 0.014747441
-0.013058741 -0.017076815 0.014719248
-0.012090209 -0.017127795 0.01427865
-0.011164479 -0.017254194 0.013917416
-0.010072903 -0.017123934 0.013516068
-0.0090289023 -0.017054593 0.013403147
-0.0081351828 -0.017287264 0.012402415
-0.0070453342 -0.017110098 0.010982543
-0.006112875 -0.017319812 0.01063633
-0.0051243678 -0.017422851 0.010136366
-0.0040574856 -0.017244315 0.0096012354
-0.0030833567 -0.017472355 0.0087166727
-0.0020702132 -0.017596813 0.0080471337
-0.0010326204 -0.017554548 0.0066846013
0 -0.017793657 0.0051595271
-0.029833671 -0.016459957 0.005507946
-0.029039524 -0.016594015 0.0063925982
-0.027810413 -0.016480245 0.0072716177
-0.027084846 -0.016667597 0.0084923506
-0.025584036 -0.016373783 0.0089056194
-0.024736475 -0.016490983 0.0094019473
-0.023903513 -0.01662853 0.010778576
-0.022842022 -0.016612379 0.01093325
-0.021488825 -0.016372439 0.011193752
-0.020848703 -0.016678961 0.013077885
-0.019487532 -0.016410554 0.013100117
-0.018564688 -0.016501945 0.013041645
-0.017617928 -0.01658158 0.01364699
-0.016326386 -0.016326386 0.014283627
-0.015383188 -0.016408734 0.014345527
-0.014261855 -0.016299263 0.014283627
-0.013153315 -0.016188696 0.012769103
-0.012261467 -0.016348623 0.012653947
-0.011215049 -0.016312798 0.012647599
-0.010042831 -0.016068529 0.012211293
-0.0091502573 -0.016267123 0.011849105
-0.0080721639 -0.016144328 0.011237621
-0.0070766797 -0.016175268 0.010390878
-0.0061828205 -0.016487522 0.01002875
-0.0050490624 -0.016156999 0.0094109178
-0.0040797764 -0.016319105 0.0086474121
-0.0030876531 -0.016467484 0.0080420673
-0.0020680842 -0.016544674 0.0069015324
-0.0010311302 -0.016498083 0.0053446293
-0.030329054 -0.015687441 0.0056669712
-0.029427782 -0.015764883 0.0062813461
-0.02828818 -0.015715655 0.0072056353
-0.027020732 -0.015588884 0.0076758564
-0.025950655 -0.015570394 0.0082295835
-0.025368381 -0.01585524 0.0081515014
-0.024024248 -0.015667988 0.0090047419
-0.022892023 -0.015608196 0.0088678598
-0.021953939 -0.015681384 0.0087973177
-0.020651031 -0.015488273 0.0089288354
-0.019760609 -0.01560048 0.0099266171
-0.018706312 -0.015588594 0.009983927
-0.017664859 -0.015586641 0.01052174
-0.01670821 -0.015663948 0.011085093
-0.015472978 -0.015472978 0.011319637
-0.014418907 -0.015448828 0.011342257
-0.013459693 -0.015530415 0.011308134
-0.012523842 -0.015654802 0.011336267
-0.011320408 -0.015436919 0.011291474
-0.010392335 -0.015588502 0.011221111
-0.0093098478 -0.015516413 0.010846317
-0.0082963016 -0.015555566 0.010587841
-0.0072225472 -0.015476886 0.010149509
-0.0062059741 -0.015514935 0.0097965002
-0.0051331813 -0.015399544 0.008874923
-0.0041387905 -0.015520466 0.0079163909
-0.003067465 -0.015337326 0.0068612993
-0.030252106 -0.014604465 0.0057161152
-0.029662775 -0.014831387 0.0064009428
-0.028527943 -0.014792267 0.0070899427
-0.02720117 -0.014646783 0.0073109269
-0.026373176 -0.014768979 0.007679075
-0.025145711 -0.014668331 0.0081033409
-0.024108471 -0.014674722 0.0086916089
-0.023137011 -0.014723552 0.0088540614
-0.021998951 -0.014665968 0.0089721978
-0.021002667 -0.014701867 0.0088173449
-0.019963033 -0.014709603 0.0090538561
-0.018706633 -0.014549604 0.0095526874
-0.017759208 -0.01462523 0.0096921027
-0.0167435 -0.014650562 0.010217756
-0.015557173 -0.014520028 0.010323048
-0.014508566 -0.014508566 0.010491014
-0.013511319 -0.014550651 0.010319352
-0.012435004 -0.014507505 0.010224611
-0.01149993 -0.014636274 0.010282218
-0.010319518 -0.014447325 0.010259539
-0.0093658566 -0.014569111 0.010043174
-0.0083791818 -0.014663569 0.0099982917
-0.0072627105 -0.014525421 0.0092554688
-0.0063225334 -0.014752577 0.0089478493
-0.0052610482 -0.014730935 0.0078429878
-0.0041461657 -0.01451158 0.0069894493
-0.030560367 -0.013699475 0.0055624247
-0.029504972 -0.013698737 0.0059966743
-0.02815615 -0.013556665 0.0066078901
-0.0272409 -0.01362045 0.0073366165
-0.026081948 -0.013562612 0.0075788498
-0.025313562 -0.013711513 0.0081033409
-0.024403458 -0.013793259 0.0083744228
-0.023494037 -0.01388284 0.0085887015
-0.022324501 -0.013819929 0.0090289414
-0.021238612 -0.013805098 0.0088737011
-0.019980533 -0.013670891 0.0091016889
-0.018671831 -0.013485211 0.0095526874
-0.017853417 -0.013652612 0.0098767281
-0.016655153 -0.013532312 0.010402381
-0.015695957 -0.013603164 0.01052174
-0.014508731 -0.013472393 0.01052475
-0.013483008 -0.013483008 0.010520011
-0.012514685 -0.013557576 0.010246575
-0.011388995 -0.013459722 0.010246575
-0.01032025 -0.013416325 0.010114044
-0.0094776256 -0.013689904 0.0094028413
-0.0083466582 -0.01356332 0.0090261996
-0.0072755646 -0.013511763 0.0088159442
-0.0063214912 -0.013696564 0.0078978539
-0.0052145566 -0.013557847 0.0070581436
-0.03040738 -0.012582364 0.005319804
-0.029302863 -0.01255837 0.0060669184
-0.028487273 -0.01266101 0.0067738295
-0.027316749 -0.01260773 0.0074030459
-0.026062323 -0.012509915 0.0077818036
-0.025368994 -0.012684497 0.008250922
-0.024402091 -0.012731526 0.0083654821
-0.023119908 -0.012610858 0.0082578361
-0.022255635 -0.012717506 0.0087635517
-0.020961609 -0.012576966 0.0087644458
-0.019951725 -0.01260109 0.0089972913
-0.018783489 -0.012522326 0.0093411505
-0.017573491 -0.012404816 0.0095757544
-0.016918762 -0.012689071 0.010163546
-0.015814541 -0.012651633 0.010476857
-0.014394763 -0.012338368 0.01053533
-0.013464108 -0.012428408 0.010220885
-0.012405295 -0.012405295 0.0096822679
-0.0113516 -0.012383563 0.0098228455
-0.010308756 -0.012370507 0.009545058
-0.0093353484 -0.012447131 0.0086158216
-0.0083379336 -0.012506899 0.0080009103
-0.007328813 -0.012563679 0.0075957775
-0.0062802685 -0.012560537 0.0061222911
-0.030695783 -0.011643228 0.0056273341
-0.029382631 -0.011543177 0.0062320828
-0.028152943 -0.011469717 0.007177949
-0.026934808 -0.011395495 0.0074030459
-0.025960606 -0.011422667 0.0078040063
-0.024585033 -0.01126814 0.008250922
-0.023917396 -0.011438754 0.0083654821
-0.023069067 -0.011534533 0.0084200501
-0.021867812 -0.011454568 0.0089257658
-0.020895949 -0.011492771 0.0088173449
-0.019914724 -0.011529577 0.0090913177
-0.01866206 -0.011404593 0.0095526874
-0.017624093 -0.011403825 0.0097945035
-0.016588109 -0.011404324 0.010284841
-0.015387848 -0.011284422 0.010449022
-0.014502833 -0.011395083 0.010493845
-0.013390607 -0.011330514 0.010046303
-0.012185718 -0.011170242 0.0098235309
-0.011488684 -0.011488684 0.0094113946
-0.010333073 -0.011366381 0.0090271831
-0.0093035977 -0.011371064 0.0082919598
-0.0083846133 -0.011528843 0.0075509846
-0.0073138941 -0.011493262 0.0064367056
-0.0062722238 -0.011499077 0.0050821602
-0.030299744 -0.010448188 0.0055624247
-0.029187048 -0.010423946 0.0064009428
-0.027916843 -0.010339572 0.0070492327
-0.027022969 -0.01039345 0.0073159337
-0.025895178 -0.010358072 0.0080102384
-0.024860229 -0.010358429 0.0083781481
-0.02397725 -0.010424891 0.0088079274
-0.022987379 -0.010448809 0.0087837875
-0.021772001 -0.01036762 0.0091202259
-0.020963786 -0.010481893 0.0091454685
-0.01961912 -0.010325853 0.0099551082
-0.018658644 -0.010365914 0.010092586
-0.017832583 -0.010489754 0.010059804
-0.016536467 -0.010335292 0.010402381
-0.015675779 -0.010450519 0.010476857
-0.014447431 -0.010319593 0.010384679
-0.013322581 -0.010248139 0.010021389
-0.012346127 -0.01028844 0.0097239017
-0.011323441 -0.010294038 0.0092130005
-0.010117214 -0.010117214 0.0088553727
-0.0092674252 -0.010297139 0.008323431
-0.0084321974 -0.010540246 0.0069590211
-0.0073261713 -0.010465959 0.0056595802
-0.030329198 -0.0094125094 0.0060346723
-0.029242676 -0.0093994308 0.0070899427
-0.028063884 -0.0093546277 0.0073727965
-0.026931116 -0.0093223099 0.0083568692
-0.025846301 -0.0093046678 0.0090424716
-0.024985157 -0.0093694339 0.0098684728
-0.023639087 -0.0092500774 0.010083795
-0.022743991 -0.0093043605 0.010103434
-0.021849481 -0.0093640639 0.010434747
-0.02064652 -0.0092909336 0.010460526
-0.019538108 -0.0092548933 0.010665268
-0.018497698 -0.009248849 0.010530889
-0.017584493 -0.0093094371 0.0110614
-0.016510984 -0.0092874281 0.010997653
-0.015382119 -0.0092292717 0.010898829
-0.014351132 -0.009225728 0.010638088
-0.013418796 -0.0092899352 0.010629267
-0.012283996 -0.0092129968 0.010090232
-0.011384133 -0.0093142902 0.0093566179
-0.010320716 -0.0092886435 0.0088610649
-0.0093411561 -0.0093411561 0.0080774426
-0.0083090374 -0.009347667 0.0064831972
-0.0074277516 -0.0095499661 0.0052884519
-0.031490497 -0.0083974656 0.0057067573
-0.030013876 -0.0082796896 0.0067366064
-0.029043438 -0.0082981251 0.0079362094
-0.028241806 -0.0083679426 0.0087278485
-0.02669405 -0.0082135536 0.0094275177
-0.025795765 -0.0082546454 0.010349274
-0.024697794 -0.0082325973 0.010676026
-0.023620522 -0.0082158335 0.011088043
-0.022531264 -0.0081931874 0.011610866
-0.021456445 -0.0081738839 0.012169331
-0.020328032 -0.0081312126 0.012575567
-0.019514682 -0.008216708 0.012710243
-0.018291889 -0.008129728 0.012666315
-0.017391104 -0.0081840493 0.01245299
-0.016337708 -0.0081688538 0.012432516
-0.015251563 -0.0081341667 0.01192376
-0.014329618 -0.0081883529 0.011529505
-0.013226634 -0.0081394669 0.011068821
-0.012380017 -0.0082533453 0.010939866
-0.011338465 -0.0082461564 0.010227889
-0.010388574 -0.0083108591 0.0092263818
-0.0092950314 -0.0082622496 0.0081335306
-0.0084284646 -0.0084284646 0.0064194202
-0.0073709963 -0.0084239952 0.0051678121
-0.030906053 -0.0072114128 0.0063472688
-0.030101009 -0.007265761 0.0076838732
-0.029066462 -0.0072666155 0.0087278485
-0.027686078 -0.0071778721 0.0097051561
-0.026783289 -0.0072108852 0.010349274
-0.025761772 -0.0072132959 0.011137962
-0.024593828 -0.0071732001 0.012014002
-0.023751123 -0.0072286027 0.012958497
-0.022541419 -0.0071722693 0.013007551
-0.021424089 -0.0071413629 0.013106108
-0.020421052 -0.007147368 0.013287932
-0.019382736 -0.007141008 0.01368776
-0.018365789 -0.0071422514 0.01353243
-0.017431984 -0.0071778758 0.013370484
-0.016210059 -0.0070919008 0.013174087
-0.015389679 -0.0071818503 0.013020456
-0.014288469 -0.0071442346 0.012524962
-0.013292662 -0.007157587 0.011777639
-0.012491231 -0.0072865514 0.011176169
-0.011353552 -0.0072249877 0.010709107
-0.010410172 -0.0072871204 0.009817481
-0.009468128 -0.0073640998 0.0085454583
-0.0082984455 -0.0072611398 0.0069909096
-0.0072878473 -0.0072878473 0.0052495003
-0.031284999 -0.0062569999 0.0067939758
-0.029831178 -0.0061719678 0.0083999336
-0.028726129 -0.0061555989 0.0091332495
-0.027940588 -0.0062090196 0.010043561
-0.026473504 -0.0061092698 0.010516524
-0.025659412 -0.0061582588 0.011470079
-0.024537791 -0.0061344476 0.012698263
-0.02375876 -0.0061979373 0.013073027
-0.022483358 -0.006131825 0.013144046
-0.021389067 -0.0061111622 0.013880014
-0.020346425 -0.0061039277 0.013842553
-0.01928301 -0.0060893712 0.014282733
-0.018344497 -0.0061148326 0.014090776
-0.017268416 -0.0060947351 0.01405561
-0.016193094 -0.0060724104 0.01382187
-0.015281751 -0.0061127003 0.013386458
-0.014157141 -0.0060673463 0.013100177
-0.013338056 -0.0061560259 0.01257062
-0.012391712 -0.0061958558 0.011777639
-0.011298416 -0.0061627724 0.010810316
-0.010288356 -0.0061730132 0.010214716
-0.0093513597 -0.0062342398 0.0084965229
-0.0083793337 -0.0062845 0.0071291625
-0.0072557167 -0.0062191859 0.0052883029
-0.032386217 -0.0052235834 0.0055298507
-0.031096617 -0.0051827696 0.0071211159
-0.02994079 -0.0051622051 0.0083815157
-0.028730189 -0.0051303911 0.0095292628
-0.027366811 -0.0050679278 0.010554463
-0.026374876 -0.0050720917 0.010759741
-0.025661523 -0.0051323045 0.012260973
-0.024503453 -0.0051048859 0.013220668
-0.023526337 -0.0051144212 0.013513774
-0.022603992 -0.0051372708 0.014059663
-0.021395968 -0.0050942781 0.014614791
-0.020402752 -0.005100688 0.014433056
-0.01937573 -0.0050988761 0.014496535
-0.018328564 -0.0050912676 0.01422891
-0.017389566 -0.0051145782 0.014116019
-0.016285777 -0.0050893049 0.013822287
-0.015191988 -0.0050639962 0.013761044
-0.014339392 -0.0051212115 0.013405263
-0.013291797 -0.0051122294 0.013128519
-0.012364289 -0.0051517873 0.01227966
-0.011297336 -0.005135153 0.011116832
-0.01034445 -0.0051722252 0.010285288
-0.0093373349 -0.0051874081 0.0083947778
-0.0083561633 -0.0052226023 0.0073180199
-0.0073634251 -0.0052595893 0.0052883029
-0.032626905 -0.0042099231 0.0057579279
-0.03088269 -0.0041176919 0.0072967708
-0.030183673 -0.0041632652 0.0086016655
-0.028778179 -0.0041111684 0.0098479986
-0.027442615 -0.0040655727 0.01100108
-0.026388003 -0.0040596928 0.011579305
-0.025596797 -0.0040954878 0.012821525
-0.02464357 -0.0041072615 0.013568431
-0.023777762 -0.0041352632 0.013905317
-0.022448281 -0.0040815058 0.014345884
-0.021344149 -0.0040655523 0.014517784
-0.020451648 -0.0040903296 0.014436305
-0.019427951 -0.0040900949 0.014425009
-0.018166194 -0.0040369318 0.014330089
-0.017388839 -0.0040914915 0.014206976
-0.016293848 -0.004073462 0.014126658
-0.015489052 -0.0041304138 0.01379621
-0.014304799 -0.0040870854 0.013404816
-0.013237583 -0.0040731025 0.012962759
-0.012373953 -0.0041246512 0.01228562
-0.011284166 -0.0041033332 0.01087448
-0.010262037 -0.0041048145 0.0098727047
-0.0092227152 -0.0040989844 0.0083176494
-0.0083237235 -0.0041618617 0.0072224438
-0.0072109131 -0.0041205217 0.0051826835
-0.032424398 -0.0031378448 0.0057579279
-0.031902026 -0.0031902029 0.0074309409
-0.030412208 -0.0031460905 0.0087216496
-0.028770007 -0.0030825008 0.0098479986
-0.028090699 -0.0031211886 0.01103586
-0.026898768 -0.003103704 0.012040406
-0.025615269 -0.0030738323 0.013144702
-0.02463365 -0.0030792062 0.013735473
-0.023446161 -0.0030581949 0.014331669
-0.022336517 -0.0030458886 0.01467222
-0.021285854 -0.0030408364 0.01497227
-0.020086823 -0.0030130234 0.014897496
-0.019189645 -0.0030299439 0.014854074
-0.018639209 -0.0031065347 0.014675766
-0.017512789 -0.0030904922 0.014479607
-0.016299875 -0.0030562265 0.014330447
-0.015288059 -0.0030576119 0.014073819
-0.01417669 -0.003037862 0.013466239
-0.013353716 -0.0030816267 0.013157278
-0.012401017 -0.0031002543 0.012507737
-0.011262254 -0.0030715237 0.011089951
-0.010317986 -0.0030953959 0.0097397864
-0.00935994 -0.00311998 0.0082634687
-0.008365063 -0.0031368984 0.0068454146
-0.0073159453 -0.003135405 0.0051826835
-0.032619536 -0.0021044861 0.0057660639
-0.031380728 -0.0020920485 0.0072967708
-0.03025594 -0.0020866166 0.008482486
-0.029039729 -0.0020742663 0.0094546378
-0.027925581 -0.0020685615 0.010898829
-0.026566526 -0.002043579 0.011866063
-0.025533611 -0.0020426889 0.012954444
-0.024469437 -0.0020391198 0.013747007
-0.023348738 -0.0020303249 0.014270037
-0.022678042 -0.0020616401 0.014539868
-0.021550803 -0.0020524573 0.014873147
-0.020454418 -0.0020454419 0.014750063
-0.019174829 -0.002018403 0.014762402
-0.017884992 -0.0019872214 0.014736712
-0.0171056 -0.0020124237 0.014481395
-0.016275715 -0.0020344644 0.014067203
-0.015148937 -0.0020198582 0.014036804
-0.014353455 -0.0020504936 0.013486862
-0.013343519 -0.0020528489 0.012980402
-0.012252518 -0.0020420863 0.012290865
-0.011317711 -0.0020577656 0.010862499
-0.010344111 -0.0020688223 0.0094906092
-0.0093315495 -0.0020736775 0.0082472861
-0.0084495433 -0.0021123858 0.0068475902
-0.0072964025 -0.0020846864 0.0050220788
-0.032705598 -0.0010550192 0.0050069988
-0.03120807 -0.001040269 0.0067079961
-0.030010032 -0.0010348287 0.0082661808
-0.029185403 -0.0010423358 0.0092966855
-0.027786529 -0.0010291307 0.010560393
-0.027005829 -0.0010386858 0.011321187
-0.025963657 -0.0010385462 0.01259923
-0.024859088 -0.0010357953 0.013169229
-0.023860192 -0.0010373996 0.013737351
-0.022171391 -0.0010077906 0.014316231
-0.021428589 -0.0010204091 0.014497966
-0.020316208 -0.0010158104 0.014497966
-0.019407535 -0.0010214492 0.014616787
-0.018224493 -0.0010124719 0.014530301
-0.017352005 -0.0010207063 0.014267057
-0.016358191 -0.0010223869 0.013893068
-0.015400043 -0.0010266695 0.013858467
-0.014335603 -0.0010239716 0.013388127
-0.01316923 -0.0010130177 0.01268515
-0.012335495 -0.0010279579 0.011963129
-0.011311011 -0.0010282737 0.010366529
-0.010241544 -0.0010241545 0.0090092123
-0.0093369707 -0.0010374412 0.0082916915
-0.0082980245 -0.0010372531 0.0063587427
-0.031617966 0 0.0068225563
-0.030427432 0 0.0083144605
-0.028895283 0 0.0091442764
-0.028041283 0 0.010322839
-0.026464023 0 0.011210054
-0.025701484 0 0.011969566
-0.025175724 0 0.012753606
-0.023341682 0 0.013356417
-0.022756424 0 0.013899058
-0.021530246 0 0.014262229
-0.02038276 0 0.014310896
-0.019473042 0 0.014218479
-0.018465526 0 0.014200836
-0.017544601 0 0.014045715
-0.016414341 0 0.013823718
-0.015367179 0 0.013491213
-0.014257399 0 0.013100773
-0.013309491 0 0.012507737
-0.012305556 0 0.011445373
-0.011310249 0 0.010030538
-0.0103743 0 0.0085625947
-0.0093106683 0 0.0074208379
-0.008354716 0 0.0059845746
-0.031337887 0.0010445962 0.0069517195
-0.030153161 0.0010397641 0.0082733035
-0.029448893 0.0010517462 0.0093246698
-0.028351301 0.0010500482 0.010519952
-0.02650621 0.0010194696 0.010679275
-0.025530096 0.0010212039 0.011850774
-0.024474809 0.0010197838 0.012535214
-0.023718886 0.0010312559 0.012904823
-0.02278805 0.0010358205 0.013062328
-0.021487975 0.001023237 0.013880223
-0.020622419 0.001031121 0.013880312
-0.019462418 0.0010243378 0.013896376
-0.018559076 0.0010310598 0.014019132
-0.017574213 0.0010337773 0.013811648
-0.016428659 0.0010267912 0.013483912
-0.015347878 0.001023192 0.013164103
-0.014389623 0.0010278302 0.012627929
-0.013396008 0.0010304622 0.011604995
-0.012212256 0.0010176881 0.010835677
-0.011429477 0.0010390433 0.009788692
-0.010312277 0.0010312276 0.0083947778
-0.0093050627 0.0010338958 0.0073047578
-0.0083574755 0.0010446844 0.0054839551
-0.032253813 0.0020808913 0.0052025914
-0.031104926 0.0020736617 0.0064840615
-0.030538378 0.002106095 0.0081171691
-0.02923811 0.0020884364 0.0092767775
-0.028072871 0.0020794719 0.010416299
-0.026749609 0.0020576622 0.010544419
-0.026122773 0.002089822 0.011984527
-0.024844835 0.0020704027 0.011989027
-0.024021955 0.0020888657 0.012617379
-0.022663662 0.0020603328 0.012850374
-0.021420162 0.0020400155 0.01309675
-0.020477837 0.0020477837 0.013565212
-0.019655393 0.0020689887 0.013677895
-0.018589221 0.002065469 0.013504833
-0.017484222 0.0020569672 0.013243765
-0.016161714 0.0020202142 0.012933671
-0.015478479 0.0020637971 0.012522399
-0.014413935 0.0020591335 0.011632383
-0.013244444 0.0020376067 0.010898054
-0.012473166 0.002078861 0.01014933
-0.011269178 0.0020489413 0.0090384185
-0.01043088 0.0020861758 0.0082437098
-0.0093375975 0.0020750216 0.006904304
-0.0083601829 0.0020900457 0.0052236617
-0.03247213 0.0031424642 0.0053258538
-0.031620976 0.0031620974 0.0067490339
-0.030212995 0.0031254822 0.0079446435
-0.028976452 0.0031046197 0.0090350211
-0.027967537 0.0031075042 0.010130703
-0.027214514 0.0031401364 0.010693789
-0.025772547 0.0030927057 0.011486918
-0.024909504 0.003113688 0.012017936
-0.02354791 0.0030714665 0.012002617
-0.022537865 0.0030733452 0.012265116
-0.021609079 0.0030870114 0.012673497
-0.02037438 0.0030561569 0.012656718
-0.019584658 0.0030923143 0.012827575
-0.018520026 0.003086671 0.012913048
-0.017439479 0.0030775552 0.012586206
-0.016553899 0.0031038562 0.012541384
-0.015366278 0.0030732555 0.011726707
-0.01434399 0.0030737121 0.011151016
-0.013477288 0.0031101434 0.010246813
-0.012394265 0.0030985663 0.0098152459
-0.011394882 0.0031076951 0.0088045001
-0.010426929 0.0031280788 0.0076722801
-0.0095184343 0.0031728116 0.0066181421
-0.0083642919 0.0031366097 0.0050686598
-0.032811902 0.0042337938 0.0056098104
-0.031139266 0.0041519022 0.0073540211
-0.029999802 0.0041379039 0.0085357428
-0.029220961 0.0041744229 0.0096669495
-0.027919237 0.0041361833 0.010366172
-0.02682667 0.0041271802 0.010826498
-0.025924444 0.004147911 0.011430144
-0.024769245 0.0041282075 0.011851221
-0.023716966 0.0041246898 0.012005061
-0.022637011 0.0041158199 0.012152433
-0.021596935 0.0041137016 0.012111634
-0.020872572 0.0041745147 0.012100101
-0.019621968 0.0041309409 0.012606323
-0.018419152 0.004093145 0.012507617
-0.017440978 0.0041037593 0.012371957
-0.016273297 0.0040683243 0.012235016
-0.015333082 0.0040888218 0.011500657
-0.014476673 0.0041361921 0.01101777
-0.013436656 0.0041343556 0.010406435
-0.01247745 0.0041591502 0.0098227262
-0.011439808 0.0041599302 0.0088702142
-0.010415041 0.0041660164 0.0074916482
-0.0093364576 0.0041495366 0.0059634745
-0.0085147526 0.0042573763 0.0050137937
-0.032619406 0.0052611944 0.0066322088
-0.031150697 0.005191783 0.0076112449
-0.030265018 0.0052181068 0.0086907148
-0.028761068 0.005135905 0.0098241568
-0.027465971 0.0050862907 0.010674834
-0.026907371 0.0051744948 0.011317313
-0.025761623 0.0051523247 0.011822134
-0.024784241 0.0051633837 0.012437314
-0.023706298 0.0051535433 0.012254983
-0.022497704 0.0051131146 0.01229164
-0.021446154 0.005106227 0.012265116
-0.020860801 0.0052152001 0.012215108
-0.019531492 0.0051398664 0.012524158
-0.018436983 0.0051213838 0.012570053
-0.017585427 0.0051721842 0.012345999
-0.016413175 0.0051291171 0.011975199
-0.015562302 0.0051874337 0.011449039
-0.014390466 0.0051394519 0.010855258
-0.013319598 0.0051229224 0.010389507
-0.012533623 0.0052223429 0.0097625852
-0.011451992 0.005205451 0.0087600648
-0.010311628 0.0051558139 0.007424593
-0.0094418442 0.005245469 0.0053478181
-0.032277029 0.006247167 0.0061973929
-0.031381223 0.0062762443 0.0077889562
-0.03017772 0.0062436662 0.0092495978
-0.028656587 0.0061406973 0.0099989176
-0.02784016 0.0061867018 0.010709435
-0.02677097 0.0061779162 0.011481553
-0.02548386 0.0061161267 0.011822134
-0.024829553 0.0062073884 0.01246959
-0.023573086 0.0061495006 0.012168735
-0.022641776 0.00617503 0.012334615
-0.021523995 0.0061497129 0.012215436
-0.020587543 0.0061762626 0.012111634
-0.019426001 0.0061345268 0.012215108
-0.018613728 0.0062045762 0.012192667
-0.017538315 0.0061899931 0.012053877
-0.016544158 0.0062040593 0.01167056
-0.015556122 0.0062224488 0.010984898
-0.014265231 0.0061136703 0.01063028
-0.013464621 0.0062144408 0.010186672
-0.012401503 0.0062007513 0.0092945993
-0.01138417 0.0062095472 0.0078580379
-0.010396544 0.0062379264 0.0068970323
-0.0094015868 0.0062677241 0.0055148005
-0.032440033 0.0073251687 0.0059075356
