ply
format ascii 1.0
comment PCL generated
element vertex 1283
property float x
property float y
property float z
element camera 0
property float view_px
property float view_py
property float view_pz
property float x_axisx
property float x_axisy
property float x_axisz
property float y_axisx
property float y_axisy
property float y_axisz
property float z_axisx
property float z_axisy
property float z_axisz
property float focal
property float scalex
property float scaley
property float centerx
property float centery
property int viewportx
property int viewporty
property float k1
property float k2
end_header
0.033602342 -0.080441974 0.016769767
0.035059627 -0.081462078 0.016025484
0.034900259 -0.078774869 0.015494257
0.037116878 -0.081450924 0.014576077
0.038286928 -0.081747763 0.013451308
0.038235884 -0.079490393 0.012304634
0.040636856 -0.082315683 0.011061132
0.042233977 -0.083412103 0.0091504753
0.04291768 -0.082695045 0.0077852309
0.044163689 -0.083069801 0.0054162741
0.0041807247 -0.081524134 0.0061018467
0.0052039092 -0.08118099 0.0072323084
0.006172372 -0.080240838 0.0082458854
0.0072811078 -0.081132345 0.0094739497
0.008249023 -0.080427967 0.01157254
0.0092627304 -0.080276996 0.012028396
0.01027918 -0.080177605 0.012980312
0.011202905 -0.079438783 0.013446242
0.012283098 -0.079840139 0.013452619
0.013308026 -0.079848155 0.014591783
0.01419718 -0.079098575 0.01492846
0.015229918 -0.079195574 0.015768021
0.016279597 -0.079363033 0.016330004
0.017501511 -0.080301046 0.017206877
0.018549744 -0.08038222 0.017834783
0.019294642 -0.079209581 0.018356115
0.020180384 -0.078703493 0.018876702
0.021611907 -0.080272794 0.018877894
0.022630038 -0.080233768 0.018689424
0.023499275 -0.079693191 0.018350869
0.024844635 -0.080745064 0.018344343
0.025406381 -0.079267912 0.01814571
0.026454702 -0.079364106 0.018241286
0.027677016 -0.079955824 0.018093109
0.028488673 -0.079361305 0.017897069
0.029544841 -0.079465434 0.017650574
0.030398263 -0.079035483 0.01720506
0.031411268 -0.079034798 0.017053604
0.032660291 -0.079609454 0.016965717
0.033915762 -0.080164529 0.016582459
0.034239147 -0.078548633 0.016100317
0.035486344 -0.079083852 0.015154719
0.036931943 -0.080019206 0.014024734
0.037466228 -0.07898286 0.01341778
0.039321952 -0.080713473 0.0122962
0.039802894 -0.079605788 0.011128902
0.041886359 -0.081678398 0.010228008
0.042972375 -0.081752323 0.0087450743
0.043976322 -0.081670314 0.0072861314
0.0041659107 -0.08019378 0.0055550039
0.0051410678 -0.07917244 0.0073349774
0.0062732482 -0.080506682 0.008528769
0.0073099961 -0.080409959 0.0090976357
0.0082616219 -0.079518117 0.011365712
0.0092534088 -0.079168059 0.012105703
0.010223905 -0.078724064 0.013041526
0.011312326 -0.079186283 0.013458312
0.012356592 -0.079288132 0.01367718
0.013275615 -0.078632489 0.014662534
0.014381423 -0.079097822 0.015032113
0.015487374 -0.079501852 0.015520036
0.016125152 -0.07760229 0.016270816
0.017003348 -0.077015162 0.016680568
0.018126061 -0.077539258 0.017464131
0.019499619 -0.079024769 0.01814571
0.020505248 -0.078945205 0.018408209
0.021745518 -0.079733565 0.018427134
0.022283167 -0.077991083 0.018303514
0.023333231 -0.078115597 0.018129975
0.02461765 -0.078981631 0.018123448
0.025403172 -0.078241765 0.018050045
0.026664043 -0.078966588 0.018141747
0.027290864 -0.077829503 0.018056422
0.028468128 -0.078287356 0.01765734
0.029597329 -0.078586012 0.01742062
0.0303072 -0.07778848 0.017132819
0.031465441 -0.078156091 0.016699255
0.032861508 -0.079073012 0.016876578
0.032965068 -0.076918498 0.016664922
0.034633759 -0.078435279 0.016208053
0.035526283 -0.07815782 0.015570641
0.037064549 -0.079276949 0.014303714
0.038222034 -0.079543151 0.014029473
0.038605161 -0.078226246 0.013356864
0.039878048 -0.078733578 0.012471735
0.041854914 -0.080570713 0.011179924
0.042380467 -0.079592586 0.0094952285
0.043453816 -0.079665333 0.007925719
0.044497613 -0.079681776 0.0055120289
0.0052709687 -0.080118723 0.0070427358
0.0062870551 -0.07963603 0.0078485608
0.0071909362 -0.078073025 0.0092410445
0.0082639772 -0.078507781 0.011395007
0.009182279 -0.07753925 0.012148976
0.010243824 -0.077853061 0.012890249
0.011342932 -0.078369342 0.013363987
0.012339717 -0.078151539 0.013505071
0.013279404 -0.07763344 0.014404356
0.014323493 -0.077756099 0.014948487
0.015351594 -0.077781409 0.015192717
0.016177339 -0.07684236 0.016034752
0.017152628 -0.076682337 0.016555786
0.018396614 -0.077674598 0.017035514
0.019591618 -0.078366473 0.017725974
0.020467417 -0.077776186 0.018336922
0.021393819 -0.077425249 0.018186599
0.022146782 -0.076507069 0.018049955
0.023515597 -0.077703707 0.017813236
0.024214366 -0.076678827 0.017676026
0.025296764 -0.076902166 0.017623425
0.026578661 -0.077691473 0.017665058
0.027082693 -0.076232761 0.01765734
0.028555959 -0.077509031 0.017496407
0.029192949 -0.076505661 0.017238408
0.030512054 -0.077297203 0.016992748
0.03164145 -0.077572592 0.016680896
0.032212179 -0.076503925 0.016839683
0.033495788 -0.077141814 0.016866297
0.034501635 -0.077121302 0.016757607
0.035265334 -0.076576151 0.01595673
0.036310721 -0.076655969 0.014758289
0.037107363 -0.076220527 0.014090389
0.03877924 -0.07755848 0.013837516
0.040450405 -0.078826427 0.012764484
0.042570125 -0.080883235 0.011881948
0.042211611 -0.078245908 0.010210216
0.043625902 -0.078942105 0.0086041391
0.043894779 -0.077581473 0.0064391792
0.0052545145 -0.078817718 0.0070714653
0.0062253941 -0.077817425 0.007620275
0.0072788219 -0.07798738 0.0092187226
0.0082842577 -0.077664919 0.011256784
0.0092575382 -0.07714615 0.012252003
0.010409426 -0.078070693 0.012722582
0.011253921 -0.076731279 0.013441801
0.012387604 -0.077422529 0.013790309
0.013388086 -0.077238955 0.014037192
0.014283299 -0.076517671 0.014723301
0.015374091 -0.076870456 0.01521489
0.016725697 -0.078401707 0.015995771
0.017525753 -0.077319495 0.016634345
0.018531729 -0.077215537 0.016960174
0.019524446 -0.077070184 0.017625421
0.020246228 -0.075923353 0.018297791
0.021342466 -0.076223098 0.018025488
0.022214359 -0.075730771 0.017877072
0.023132998 -0.075433694 0.017813236
0.024186209 -0.075581901 0.017771602
0.024726363 -0.074179091 0.017607808
0.026026573 -0.075076655 0.017640263
0.027497722 -0.076382563 0.017638952
0.028453628 -0.076215073 0.017272145
0.02914663 -0.075379215 0.017219603
0.030649576 -0.076623939 0.016960293
0.03133484 -0.075810097 0.016891599
0.032190163 -0.075445697 0.017046839
0.033307329 -0.075698473 0.017073452
0.034196377 -0.07543318 0.016921222
0.035825834 -0.076769643 0.016347229
0.036865335 -0.076802783 0.015023023
0.0373706 -0.075751215 0.014232159
0.038698081 -0.076377794 0.014092982
0.039872106 -0.076677129 0.013561428
0.041510753 -0.077832662 0.012480259
0.042062242 -0.076943129 0.011333972
0.043181211 -0.077109307 0.0091533661
0.043403089 -0.075703062 0.0076535642
0.0052304273 -0.077410325 0.005274564
0.0063262349 -0.07802356 0.0074201226
0.0073088701 -0.077265203 0.0088190734
0.008347746 -0.077216655 0.010777712
0.0093059866 -0.076515883 0.012211472
0.01033148 -0.076452948 0.012701154
0.0113385 -0.076277189 0.01334092
0.012512684 -0.077161551 0.013873458
0.013410683 -0.076337732 0.014277577
0.014450416 -0.076380767 0.01494956
0.015503054 -0.076481737 0.015173763
0.016019227 -0.074088924 0.015662581
0.017206501 -0.074898884 0.016634345
0.01815003 -0.07461679 0.016973674
0.018750284 -0.073027425 0.017526478
0.020388903 -0.075438939 0.018286914
0.020830993 -0.073404454 0.018284351
0.022105657 -0.074355386 0.018373489
0.023270469 -0.074870206 0.018090397
0.024195734 -0.074603513 0.017702043
0.025268292 -0.074794143 0.017638952
0.026639024 -0.075818762 0.017702043
0.027251527 -0.074689373 0.017715126
0.028473265 -0.075250775 0.017525852
0.029513096 -0.075309277 0.017281324
0.030476158 -0.075174525 0.017225176
0.031767782 -0.075832769 0.016919345
0.032698967 -0.07561636 0.017082214
0.033514235 -0.075153127 0.017157137
0.034592673 -0.075289935 0.016857743
0.034916159 -0.073822737 0.016429394
0.036339436 -0.074697733 0.01536116
0.037181541 -0.074363083 0.01494658
0.038880974 -0.075715579 0.014322639
0.03936879 -0.074699752 0.013798356
0.041870203 -0.077459879 0.013012379
0.041761383 -0.075374208 0.011409998
0.042520341 -0.074916795 0.009554714
0.043534365 -0.074919604 0.0082300007
0.045029182 -0.075730897 0.0052541494
0.0053478787 -0.078079022 0.0054849088
0.0063144253 -0.076825507 0.0074121654
0.007260202 -0.075713538 0.0088931024
0.008331011 -0.076020472 0.010500938
0.009265271 -0.075151645 0.011770219
0.010340916 -0.075488687 0.012730479
0.011334842 -0.075222135 0.013240695
0.012346908 -0.075110354 0.013496876
0.013322666 -0.074811898 0.0140194
0.014332682 -0.074734695 0.014488667
0.015130983 -0.073637448 0.015336037
0.016334414 -0.074525766 0.015326649
0.017150206 -0.073645003 0.01622203
0.01821827 -0.073885202 0.016925573
0.019278938 -0.074071705 0.017265886
0.019805618 -0.072290502 0.017998695
0.021124603 -0.073433146 0.018186599
0.022233052 -0.07377331 0.018188506
0.023393901 -0.074250206 0.018123448
0.02446717 -0.074420974 0.017909199
0.025432736 -0.074263588 0.017875761
0.02631028 -0.073871173 0.018040806
0.02749618 -0.074341521 0.018187195
0.028638715 -0.074665226 0.017876804
0.029431319 -0.074085735 0.017390996
0.030417012 -0.074014731 0.017305642
0.031759322 -0.074788086 0.017046839
0.032715417 -0.074632041 0.01741758
0.0338949 -0.074979626 0.01741758
0.035110392 -0.07538408 0.017255336
0.03578575 -0.074638851 0.01671201
0.036852449 -0.074728578 0.015657306
0.037086219 -0.073170103 0.014941454
0.038084354 -0.073162049 0.014852762
0.040447835 -0.075710051 0.014072448
0.042132795 -0.076892354 0.013046473
0.042064939 -0.074896105 0.011606246
0.043123081 -0.074952021 0.009605974
0.044299398 -0.075205952 0.0086072683
0.045354728 -0.075247616 0.0059123933
0.0053763068 -0.077418819 0.0051257312
0.0062639192 -0.07516703 0.0074073374
0.0072540096 -0.07461267 0.0082419515
0.0083122728 -0.07481046 0.0098834336
0.0092551075 -0.07404086 0.011671871
0.010458451 -0.075300843 0.01256305
0.011326435 -0.074136667 0.013234377
0.012302738 -0.073816426 0.013494521
0.013345095 -0.073911294 0.014024079
0.014296451 -0.073524602 0.014410675
0.015288917 -0.073386803 0.015233546
0.016274543 -0.073235445 0.015296668
0.017174309 -0.072738253 0.016278118
0.01840337 -0.07361348 0.017109066
0.01932204 -0.073220365 0.017412007
0.020366885 -0.073320784 0.018731475
0.021589009 -0.074019462 0.018819928
0.022337662 -0.073105074 0.018948436
0.023069225 -0.072216704 0.018532485
0.024469178 -0.073407531 0.018445849
0.025260407 -0.072749972 0.018430263
0.026545811 -0.073511474 0.018450528
0.02745422 -0.073211253 0.018395394
0.028501855 -0.073290482 0.017918229
0.029080337 -0.072199456 0.01761812
0.030532217 -0.073277317 0.017627984
0.031243436 -0.072565399 0.01730749
0.032349717 -0.07278686 0.017450005
0.033627827 -0.073369801 0.017450005
0.034755006 -0.073598839 0.017261654
0.035905242 -0.07386221 0.016921222
0.0370102 -0.074020401 0.015959561
0.037344456 -0.072670288 0.01558277
0.038873769 -0.073655561 0.014988899
0.039674971 -0.073246099 0.014390916
0.041846063 -0.075322911 0.013075739
0.041917156 -0.073610611 0.011641681
0.043179929 -0.07402274 0.0097330511
0.04429264 -0.07416442 0.0089290142
0.045611005 -0.074636191 0.0070831478
0.0063078166 -0.074642502 0.0069504082
0.0073222308 -0.074268341 0.0080378652
0.0082774311 -0.073462203 0.0095961094
0.0095041627 -0.074977286 0.011801183
0.010366904 -0.073605016 0.012437761
0.01134603 -0.07323347 0.013033479
0.012330664 -0.072956428 0.013527364
0.013256866 -0.072402887 0.01394859
0.014389408 -0.072974853 0.014342308
0.015390321 -0.072847515 0.015247166
0.016288415 -0.072279833 0.015516102
0.017552484 -0.073307432 0.016394436
0.018216752 -0.071854964 0.017193168
0.019054674 -0.071204305 0.01774025
0.020560302 -0.072989069 0.019284606
0.021393061 -0.072328925 0.019105464
0.022665199 -0.073146783 0.019067198
0.023883378 -0.073726952 0.018966854
0.024561334 -0.072660618 0.018868566
0.025356345 -0.072012015 0.018685699
0.026527323 -0.072439998 0.018685699
0.02749232 -0.072294623 0.018394023
0.028368162 -0.071933553 0.018081248
0.029611764 -0.07249777 0.017834961
0.03042176 -0.071998164 0.017657489
0.031264547 -0.071605898 0.017475754
0.032425817 -0.071944781 0.01750344
0.033062525 -0.071134523 0.017517686
0.034246862 -0.071515508 0.017489463
0.034648862 -0.07028769 0.016925961
0.035386898 -0.069790825 0.016156197
0.037822068 -0.072577484 0.015657306
0.038483433 -0.071903259 0.015064806
0.03939477 -0.071718685 0.014357746
0.042243745 -0.074982651 0.013152063
0.042269934 -0.073199153 0.011600792
0.042949583 -0.072605245 0.009770155
0.043838546 -0.072384574 0.0084141195
0.045197047 -0.072931603 0.0068327785
0.047155008 -0.074400119 0.0052475929
0.0063728495 -0.07434991 0.00569731
0.007303616 -0.073036157 0.0081194341
0.0084176064 -0.073654056 0.0095368624
0.009309005 -0.072403371 0.011268646
0.010241825 -0.071692772 0.012097538
0.011296028 -0.07188382 0.012924463
0.01241979 -0.072448775 0.01351428
0.013411855 -0.072217681 0.014029056
0.014418505 -0.072092526 0.014603972
0.015416021 -0.071941428 0.015294105
0.016517024 -0.072261982 0.015941858
0.017413283 -0.071701758 0.017397314
0.018148031 -0.070575677 0.017510653
0.019132134 -0.070486806 0.017836571
0.020366209 -0.071281731 0.018761665
0.021133147 -0.070443824 0.018976927
0.022075096 -0.07023894 0.019040167
0.02314231 -0.070433117 0.018880785
0.024216363 -0.070631057 0.018733799
0.025535608 -0.071499705 0.018584877
0.026612788 -0.07164982 0.018360496
0.027250169 -0.070648588 0.018135041
0.02851788 -0.071294695 0.018014073
0.0294872 -0.071176 0.017767787
0.030232854 -0.070543326 0.017617434
0.03166322 -0.071497589 0.017463833
0.032391194 -0.070855737 0.01750344
0.033448715 -0.070951819 0.017643869
0.034319226 -0.070657231 0.017503709
0.035270214 -0.070540428 0.016925961
0.036420427 -0.0708175 0.016335189
0.037495375 -0.070937194 0.015839189
0.038141023 -0.07025978 0.015227109
0.03999931 -0.071793631 0.014421374
0.041627266 -0.072847717 0.013150632
0.041848812 -0.07144919 0.011427343
0.04350118 -0.072501965 0.009770155
0.043638784 -0.071039878 0.0083958209
0.04531721 -0.072095565 0.0062312186
0.0062488732 -0.071862042 0.0054236352
0.0073543307 -0.072492689 0.0078904033
0.0082800305 -0.071415268 0.0090426207
0.0094245309 -0.072254732 0.011218727
0.010408462 -0.071818389 0.012183875
0.01125998 -0.070630789 0.012953281
0.012365896 -0.071103901 0.013520896
0.013398509 -0.071115166 0.014302403
0.014268834 -0.070324965 0.014900595
0.01534865 -0.070603788 0.015537113
0.016287673 -0.070240594 0.016394436
0.017202653 -0.069822535 0.017315
0.018435689 -0.070670135 0.01776883
0.019152949 -0.069555439 0.018324167
0.020263031 -0.069907457 0.018627346
0.021139564 -0.069458567 0.018976927
0.022294218 -0.069922775 0.019221365
0.023273619 -0.069820859 0.018819928
0.024541322 -0.070556298 0.018562615
0.025025854 -0.06907136 0.018596351
0.026362028 -0.069960766 0.018524081
0.02747304 -0.070208877 0.018275291
0.028349813 -0.069862038 0.018050909
0.029754682 -0.070795618 0.017751336
0.030474892 -0.070092253 0.017728686
0.03161636 -0.070371896 0.017604619
0.032529015 -0.07014069 0.01753208
0.033540811 -0.070130788 0.017676234
0.034160648 -0.069326021 0.017517686
0.035728302 -0.070435792 0.017038107
0.036723617 -0.070386939 0.016463816
0.037300531 -0.069560446 0.015952528
0.038730033 -0.070325583 0.015428901
0.040412616 -0.071499243 0.014287323
0.041293517 -0.071231313 0.012907714
0.042568319 -0.071639359 0.011128038
0.04345572 -0.071391538 0.0095560253
0.04409913 -0.070763722 0.0079626441
0.045660578 -0.071604088 0.0061165988
0.0063386555 -0.071838096 0.0055224001
0.0072398367 -0.070329845 0.0077705681
0.0083612865 -0.071070932 0.0091769695
0.0092910165 -0.070198789 0.011411279
0.010331864 -0.070256673 0.012365222
0.011329528 -0.070037082 0.01333186
0.012421346 -0.070387632 0.013713896
0.013357413 -0.069869541 0.014435083
0.01439306 -0.069909148 0.01513952
0.015452572 -0.070051655 0.015892833
0.016485047 -0.070061445 0.016837716
0.017410256 -0.069641024 0.017477691
0.018524263 -0.069980547 0.017829597
0.019250996 -0.068898305 0.018262565
0.020383257 -0.069303073 0.018517226
0.021370359 -0.069199257 0.018807262
0.022028251 -0.068087317 0.018836021
0.023256781 -0.068759181 0.018614084
0.024264412 -0.068749167 0.018428117
0.025227576 -0.068619013 0.018471867
0.026354058 -0.068925999 0.018413037
0.027553264 -0.069393404 0.018275291
0.028410882 -0.06899786 0.018051356
0.029416848 -0.068977438 0.01801905
0.030403834 -0.06891536 0.017951071
0.031554248 -0.069215775 0.017768234
0.032426085 -0.068905428 0.01775074
0.033320658 -0.068660751 0.017952353
0.034737475 -0.06947495 0.017814934
0.035410091 -0.068796746 0.017505378
0.0363026 -0.068571575 0.016857743
0.037264507 -0.068486124 0.01606977
0.038244396 -0.068437345 0.015180439
0.039763324 -0.069330923 0.01433146
0.041436344 -0.070441782 0.012571305
0.042409558 -0.070337802 0.011004239
0.043806348 -0.070924565 0.0090866089
0.045989718 -0.072727926 0.0076806545
0.046171393 -0.07135579 0.0051593184
0.0063466746 -0.070871204 0.0055662692
0.0073436918 -0.070289619 0.0077069104
0.0083680693 -0.070082583 0.0095207393
0.0093112169 -0.069316834 0.01119265
0.010208345 -0.068395913 0.012171298
0.01128999 -0.068766303 0.013162881
0.0124512 -0.069519199 0.01363641
0.013353372 -0.068821229 0.014501721
0.014420206 -0.069010988 0.015087515
0.015182548 -0.067815386 0.015736341
0.016234981 -0.067983977 0.016496032
0.017422527 -0.068665259 0.017255455
0.018144539 -0.067538001 0.017602891
0.019686107 -0.069419429 0.01769644
0.020583604 -0.068955071 0.018250287
0.021177528 -0.067566402 0.018502414
0.022244496 -0.067744605 0.018688083
0.023160165 -0.067466564 0.018428117
0.024641663 -0.068791308 0.018351763
0.025131689 -0.067352928 0.018381149
0.026079161 -0.067203991 0.018219143
0.027299009 -0.067741983 0.018219143
0.028770875 -0.068844594 0.018191069
0.029346189 -0.067799814 0.018219143
0.030390805 -0.0678728 0.018196911
0.031781495 -0.068689041 0.018067867
0.032497581 -0.068041809 0.018016934
0.033378344 -0.067768149 0.018069565
0.034553759 -0.068091229 0.018019706
0.035343982 -0.067658477 0.01793614
0.036535621 -0.067996852 0.017104417
0.037454627 -0.067823246 0.016695112
0.038398176 -0.067702048 0.015489817
0.040532831 -0.06963332 0.014465302
0.042307824 -0.070865601 0.012008756
0.042337336 -0.069185406 0.010260612
0.043623168 -0.069589339 0.0087448657
0.044317201 -0.069052383 0.0070725381
0.0062666815 -0.068933494 0.0055224001
0.007367047 -0.069460727 0.0076391697
0.0083918357 -0.069232643 0.0095922053
0.0092886612 -0.068116851 0.011143744
0.010378521 -0.068498239 0.012268871
0.011409606 -0.068457633 0.013252795
0.012347424 -0.067910835 0.013784796
0.013330272 -0.067676768 0.01474002
0.01430169 -0.067422256 0.015708089
0.015318211 -0.067400128 0.016530782
0.016046988 -0.066193826 0.017316192
0.017103987 -0.066403709 0.017703295
0.018512968 -0.067880884 0.017868966
0.018865973 -0.065534428 0.018466383
0.020213852 -0.066705711 0.0186252
0.021202702 -0.066637062 0.018942565
0.022502111 -0.067506336 0.018942565
0.022954393 -0.06586913 0.018823802
0.024153002 -0.066420756 0.018519998
0.025436427 -0.067152172 0.018196255
0.026351824 -0.066893093 0.018165946
0.027370697 -0.066906147 0.018125206
0.028379591 -0.066894755 0.018044114
0.029417882 -0.066951044 0.018054307
0.030251984 -0.06655436 0.018103272
0.031348515 -0.066741996 0.017966032
0.032584425 -0.067205377 0.018011272
0.033333782 -0.066667564 0.018097043
0.034792356 -0.067538105 0.017935127
0.035710435 -0.067339674 0.017877847
0.036609229 -0.067116924 0.01733166
0.037202943 -0.066362008 0.016731441
0.038363021 -0.066630505 0.015770406
0.040773273 -0.069000922 0.014337689
0.041326616 -0.068188913 0.012228936
0.042619728 -0.068607368 0.0099747181
0.043373574 -0.068158478 0.0079607069
0.044467505 -0.068252452 0.0061636865
0.0063202507 -0.068469383 0.005872637
0.0073631052 -0.068371691 0.0076391697
0.0083157718 -0.06756565 0.0096622109
0.0093804849 -0.067747943 0.01123932
0.010203129 -0.066320337 0.012574613
0.011252821 -0.066493943 0.013406724
0.012309965 -0.066678979 0.0143314
0.013211406 -0.066057026 0.0150446
0.014244354 -0.066134498 0.015750945
0.015275029 -0.066191792 0.01661104
0.016032994 -0.065134034 0.017513245
0.01748604 -0.066858388 0.018022895
0.018457903 -0.066653542 0.018458754
0.019295149 -0.066009723 0.018645465
0.02034591 -0.066124208 0.019021481
0.021333683 -0.066032827 0.019080937
0.022115318 -0.065340713 0.019186676
0.023642756 -0.066816486 0.019064039
0.024220973 -0.065598466 0.018886477
0.025443487 -0.066153064 0.018452615
0.026528096 -0.06632024 0.01857537
0.027168456 -0.065405548 0.018292516
0.02841467 -0.065962628 0.018297791
0.029267626 -0.065599851 0.018247366
0.030245837 -0.065532647 0.018155426
0.031678867 -0.066423431 0.018145442
0.032766219 -0.066556379 0.017990232
0.033242963 -0.065478563 0.017981738
0.034540121 -0.066032588 0.01784879
0.035368066 -0.065683551 0.017499894
0.036139309 -0.065251529 0.016991049
0.037639294 -0.066123083 0.016611069
0.038514096 -0.065879375 0.015441447
0.039615095 -0.066025153 0.014256597
0.042595096 -0.069217026 0.010974497
0.042254098 -0.0669882 0.0094499588
0.042935528 -0.066447839 0.0076614618
0.045447603 -0.068699867 0.0053191185
0.0062941932 -0.067138061 0.0064306557
0.0073071443 -0.066808179 0.0080468357
0.008369619 -0.066956952 0.0097816288
0.0093233166 -0.06629914 0.011334151
0.010336723 -0.066155031 0.012935758
0.011471381 -0.066742584 0.013596654
0.012309651 -0.065651469 0.014810711
0.013260869 -0.065284282 0.015341491
0.014436434 -0.065995127 0.016278893
0.015231738 -0.064988747 0.016902745
0.016125932 -0.064503729 0.017776757
0.017058646 -0.064220786 0.018232107
0.017985705 -0.063949175 0.018593788
0.019374328 -0.065260895 0.018812507
0.020186087 -0.064595476 0.019081086
0.021045901 -0.064139888 0.019186676
0.022384753 -0.065119281 0.019259751
0.02334726 -0.064966291 0.019186437
0.024586283 -0.065563418 0.019035637
0.025391161 -0.065001376 0.018672228
0.026225761 -0.064555719 0.018512279
0.027467722 -0.065108679 0.018468648
0.028444489 -0.065015979 0.018292516
0.029543187 -0.065198757 0.018247277
0.030192157 -0.064409934 0.0183281
0.031403366 -0.064832754 0.018088549
0.032493547 -0.064987093 0.017943919
0.033484217 -0.064939089 0.017915249
0.034357712 -0.064673334 0.017617106
0.035137851 -0.064252071 0.017245382
0.036662005 -0.065176897 0.016811997
0.036907203 -0.063839488 0.016305923
0.038340323 -0.064573176 0.014947414
0.040386569 -0.066275395 0.013665795
0.041315127 -0.066104203 0.010202438
0.043288253 -0.067571908 0.0092561841
0.043280147 -0.065950707 0.0072745383
0.044116873 -0.065662324 0.0051567256
0.006291097 -0.06605652 0.0063318908
0.0073431502 -0.066088349 0.0080029666
0.0083304308 -0.065602139 0.0098829567
0.0093033183 -0.06512323 0.011673927
0.01030659 -0.064931519 0.01301071
0.011240788 -0.064379059 0.013745695
0.012378627 -0.064987794 0.014872819
0.01339569 -0.064917572 0.01555723
0.014249459 -0.064122565 0.016584009
0.015212064 -0.063890666 0.016856372
0.016253835 -0.063999474 0.017736882
0.017217264 -0.063805155 0.01844424
0.018156908 -0.063549176 0.018684775
0.018903475 -0.062679939 0.01891306
0.019859502 -0.062557429 0.018896639
0.020973653 -0.062920958 0.019251049
0.022297088 -0.063850753 0.019251049
0.023100458 -0.063275166 0.01910001
0.024339024 -0.063889936 0.018933386
0.02549815 -0.064255342 0.018665195
0.02660233 -0.064459488 0.018486291
0.027437286 -0.064020336 0.018247277
0.028710485 -0.06459859 0.018267721
0.029538685 -0.064170249 0.018178403
0.030515252 -0.064082026 0.018155426
0.031439919 -0.063894033 0.01794526
0.032321569 -0.063633084 0.017915249
0.033310894 -0.063593529 0.017868519
0.034160595 -0.06329757 0.017556518
0.035350967 -0.063631743 0.017109275
0.035868455 -0.062769793 0.016461968
0.03685873 -0.062759459 0.015994787
0.038566962 -0.063939966 0.014545381
0.039808773 -0.064306475 0.013311356
0.042001966 -0.066153094 0.0096698999
0.042872425 -0.06587714 0.0084199309
0.043349985 -0.065024979 0.0060247779
0.0063127987 -0.065232255 0.005921334
0.007290489 -0.064572901 0.007817924
0.008305301 -0.064366087 0.0097862482
0.0093594035 -0.064475894 0.011236191
0.010319598 -0.063981511 0.013158053
0.011392993 -0.064215049 0.014165014
0.01237817 -0.063953884 0.015428066
0.013267831 -0.063277349 0.016245812
0.014383491 -0.063698322 0.016634047
0.015361124 -0.063492648 0.017116427
0.016301857 -0.063169695 0.017646074
0.017283786 -0.063034989 0.018407583
0.018381692 -0.063314721 0.018574417
0.019257385 -0.062839888 0.018954158
0.020545758 -0.063691854 0.018856883
0.021403039 -0.063189924 0.019186676
0.022257406 -0.062725417 0.019251049
0.023402862 -0.063085973 0.019117385
0.024354093 -0.062914744 0.018865734
0.024991283 -0.061978381 0.018636376
0.026609203 -0.063452713 0.018487126
0.027424714 -0.062975265 0.01839456
0.028285941 -0.062633157 0.018179029
0.029521672 -0.063115299 0.018075109
0.030178903 -0.06236973 0.017978251
0.031340808 -0.062681615 0.01782003
0.032098845 -0.062191509 0.017642498
0.033147339 -0.062276818 0.017552257
0.034185976 -0.062339131 0.017225832
0.035563923 -0.06299895 0.016933441
0.036399551 -0.062688112 0.0162853
0.037599608 -0.063004747 0.015829295
0.038834888 -0.063362189 0.01445356
0.040268049 -0.064015873 0.013076812
0.041515868 -0.064349599 0.010048568
0.043032337 -0.065073289 0.0078618824
0.043869723 -0.064760067 0.0059201419
0.0062424089 -0.063464485 0.0059369802
0.007285499 -0.063487917 0.0079895258
0.0083799558 -0.063897163 0.009794116
0.0093557257 -0.063411035 0.011567831
0.01032585 -0.062987685 0.013124168
0.011239181 -0.062326368 0.014592856
0.012225718 -0.062147401 0.015809357
0.013256948 -0.06220568 0.016643614
0.014303627 -0.062322948 0.016819239
0.015229921 -0.061935011 0.017612994
0.016333243 -0.062270485 0.017869711
0.017225079 -0.061807636 0.018634945
0.018159688 -0.061541166 0.018844694
0.019029986 -0.061096273 0.019080609
0.02000846 -0.061025802 0.018956453
0.021218183 -0.061633766 0.019245952
0.022420892 -0.062167019 0.01932779
0.023482889 -0.062280707 0.019080609
0.024233349 -0.061593097 0.018865734
0.02567832 -0.062655099 0.01862365
0.026013985 -0.061032813 0.018398792
0.02741033 -0.061927043 0.01808688
0.028485307 -0.062057279 0.018048823
0.029402321 -0.061846264 0.018048823
0.030430669 -0.061875694 0.017879993
0.031646106 -0.062271368 0.017733097
0.032250736 -0.061477967 0.017607152
0.032759231 -0.06055494 0.017557442
0.03431017 -0.061556481 0.016982943
0.034959316 -0.060929094 0.016665161
0.036594335 -0.06200707 0.016153693
0.037218731 -0.061360613 0.015340626
0.038296409 -0.061475817 0.014203936
0.03995904 -0.062500037 0.012640506
0.040993027 -0.062514365 0.010022789
0.043144833 -0.064191096 0.0076155961
0.0062706084 -0.062706083 0.0060194433
0.0073499382 -0.062999465 0.0080973804
0.0083269589 -0.062452193 0.0096739829
0.0092062326 -0.061374884 0.012108833
0.010325952 -0.061955709 0.013076037
0.011300214 -0.061637528 0.014490426
0.012214131 -0.061070655 0.01576826
0.013196129 -0.060905214 0.016643614
0.014253478 -0.061086331 0.016909361
0.015342319 -0.061369278 0.017612994
0.016133789 -0.060501713 0.017822385
0.016943861 -0.059801862 0.018593788
0.018573755 -0.061912518 0.018705726
0.019064775 -0.060204554 0.018931687
0.020097381 -0.06029214 0.018891603
0.021338385 -0.060966812 0.01921466
0.02231539 -0.060860157 0.019153506
0.023031402 -0.060081922 0.019014657
0.024427559 -0.061068896 0.018707633
0.025321461 -0.060771506 0.018319935
0.025799248 -0.059536725 0.018101335
0.027011877 -0.060026392 0.017948836
0.02848723 -0.061044063 0.017903596
0.029215818 -0.060446519 0.018016547
0.030547492 -0.061094984 0.017978251
0.031288732 -0.060558837 0.017840773
0.032173242 -0.060324833 0.017673582
0.033572558 -0.061041016 0.01762104
0.034623995 -0.061101172 0.016968936
0.035498846 -0.060855165 0.01657778
0.036424287 -0.060707148 0.016153693
0.037183061 -0.060296856 0.015232772
0.038785063 -0.061239574 0.014122248
0.039994832 -0.061530508 0.012421578
0.041218791 -0.061828189 0.0099650323
0.04313539 -0.063124962 0.0076155961
0.0062640626 -0.061596613 0.0064360499
0.0072587542 -0.061180927 0.0083014965
0.0082461284 -0.060815196 0.010010213
0.0093925837 -0.061573606 0.012269139
0.010254141 -0.06049943 0.013054401
0.011361193 -0.060937304 0.014288008
0.012290131 -0.060426481 0.015720874
0.01319061 -0.059865076 0.016394377
0.014259469 -0.060093477 0.01667884
0.015132373 -0.059520669 0.017249525
0.016115298 -0.059425164 0.017851472
0.017365919 -0.060269956 0.018634766
0.018286871 -0.059940297 0.018878251
0.019108703 -0.059337553 0.019098133
0.020159431 -0.059470318 0.019062042
0.0212324 -0.059652936 0.019616753
0.021853833 -0.058608003 0.019506156
0.02305937 -0.059152298 0.019336641
0.024395499 -0.059972268 0.018891603
0.025380755 -0.059898581 0.018599123
0.026456596 -0.060036123 0.018319935
0.027015146 -0.0590331 0.018101335
0.028494081 -0.060041096 0.018042833
0.029640395 -0.060302872 0.018075109
0.030427285 -0.059840325 0.018043488
0.031273689 -0.059520893 0.017979354
0.032416098 -0.059767183 0.017675847
0.03341436 -0.059740826 0.017533243
0.034688018 -0.060193911 0.016834706
0.035450038 -0.059758637 0.016470373
0.036319491 -0.059523609 0.015903831
0.037584729 -0.059932407 0.014463574
0.038805872 -0.060251221 0.013567805
0.039843608 -0.060276229 0.011706769
0.041468598 -0.061166182 0.0094212294
0.042303406 -0.060875636 0.007173121
0.006311927 -0.061015293 0.0062779486
0.0072787767 -0.060309865 0.0090462863
0.0083630374 -0.060632017 0.010080844
0.0092467796 -0.059590358 0.01237458
0.010217567 -0.059261892 0.01313591
0.011281456 -0.059484042 0.014393926
0.01233831 -0.059635162 0.015985698
0.013126439 -0.058564115 0.016325027
0.014299464 -0.059240639 0.016689867
0.01535782 -0.059383571 0.017304838
0.01637912 -0.05937431 0.017851472
0.017089611 -0.058305733 0.018405348
0.017993234 -0.057978198 0.018445104
0.019139802 -0.058426768 0.018891603
0.020482976 -0.059400633 0.018878251
0.021078996 -0.058218181 0.019184798
0.022368833 -0.058972381 0.019153506
0.023283018 -0.058713697 0.019079506
0.024694547 -0.059678487 0.018852919
0.0255767 -0.059337944 0.018577099
0.025923871 -0.057830174 0.018256873
0.027243061 -0.058522131 0.018109173
0.028473532 -0.05898089 0.018064171
0.029462324 -0.058924649 0.018155515
0.030071778 -0.058138773 0.018023372
0.031618044 -0.059156336 0.018220186
0.032534458 -0.058968704 0.017698288
0.034019202 -0.059791323 0.01762104
0.034927245 -0.059581775 0.016587079
0.035042062 -0.058069702 0.016225934
0.036526769 -0.058848683 0.015775621
0.037440911 -0.058691159 0.014163554
0.038600609 -0.058916718 0.013486952
0.040136624 -0.059690367 0.011349082
0.041497581 -0.060171492 0.0092522204
0.041838668 -0.05918641 0.0069865286
0.0063495301 -0.060320538 0.0067045391
0.0073315892 -0.059700083 0.0089897215
0.0082450556 -0.058746021 0.0098851025
0.0092861596 -0.058812346 0.012191892
0.010372763 -0.059124753 0.013106704
0.011199622 -0.058034409 0.014664412
0.012355002 -0.058686256 0.015794635
0.013219691 -0.05796326 0.016217083
0.014051281 -0.057208788 0.016250849
0.015258133 -0.057980906 0.016958833
0.016343895 -0.058225129 0.017159194
0.016911432 -0.056703035 0.01796791
0.0184772 -0.058511134 0.018166065
0.019223979 -0.057671934 0.018671393
0.020280769 -0.057800189 0.018482924
0.021541219 -0.058469024 0.018788785
0.022282945 -0.057733081 0.018782198
0.022849105 -0.056626044 0.018703997
0.024327986 -0.057778966 0.018668026
0.025378833 -0.057863742 0.018416196
0.025942495 -0.056873932 0.018066585
0.027671073 -0.058416709 0.018016547
0.028854385 -0.058739282 0.01802814
0.029481383 -0.057946164 0.018028498
0.030716568 -0.058361478 0.01801908
0.031500969 -0.057921134 0.018189281
0.032800324 -0.058425575 0.017665565
0.033481918 -0.057832405 0.01741153
0.034121994 -0.057204522 0.016269058
0.035511043 -0.057832271 0.015911281
0.036707655 -0.058120452 0.015075296
0.037530255 -0.057816878 0.013931364
0.038669318 -0.058003977 0.012796819
0.039798085 -0.058166429 0.010734439
0.040963769 -0.058373373 0.0088177323
0.042760067 -0.05944692 0.0068218112
0.0062843896 -0.058654305 0.0066532791
0.0073105958 -0.058484767 0.0086860359
0.0082468791 -0.057728156 0.010060668
0.00924874 -0.057547718 0.01237005
0.010230698 -0.057291906 0.013579398
0.011231593 -0.057179019 0.014781445
0.01229123 -0.057359077 0.015794933
0.013155344 -0.056669176 0.01609841
0.014201905 -0.056807619 0.016344219
0.015159243 -0.056594506 0.017193049
0.016117645 -0.056411762 0.017906755
0.017235 -0.056774121 0.018405348
0.018177813 -0.056553196 0.018585473
0.019021286 -0.056062739 0.018973678
0.019934786 -0.055817403 0.018767446
0.021066844 -0.056178253 0.01907286
0.022222329 -0.056565929 0.018987417
0.023441831 -0.057075765 0.01892662
0.024003526 -0.056008227 0.018747598
0.025068276 -0.056152936 0.018475056
0.026109554 -0.056235962 0.018121868
0.027476953 -0.056989234 0.017911702
0.028738216 -0.057476431 0.01788488
0.029715257 -0.057381183 0.017944306
0.030245813 -0.056458849 0.017767966
0.031481594 -0.05686998 0.018011332
0.032484952 -0.056848668 0.017520487
0.03289222 -0.055817101 0.016740829
0.03414819 -0.056244075 0.015711278
0.035831198 -0.057329915 0.015372097
0.036326919 -0.056508545 0.014381886
0.038750727 -0.058649749 0.013459206
0.03909966 -0.057620551 0.012122393
0.039728831 -0.057046525 0.010174394
0.041683324 -0.058356654 0.0085362494
0.041996554 -0.057361145 0.0055019557
0.0062977928 -0.057729766 0.0068585873
0.0072571421 -0.057020403 0.0089359283
0.0083027491 -0.057081398 0.010202736
0.0093011707 -0.056840487 0.012317628
0.010312702 -0.056719858 0.01352939
0.0114243 -0.0571215 0.014639497
0.012333347 -0.056527834 0.015596718
0.013315749 -0.056335863 0.015842706
0.014421525 -0.056655996 0.016178578
0.015306843 -0.056125093 0.017161429
0.016343256 -0.056179944 0.017847121
0.017051414 -0.055166338 0.018414378
0.01815656 -0.055478379 0.018485099
0.019187333 -0.055542279 0.01884973
0.019945228 -0.054849379 0.018687874
0.02083887 -0.054577991 0.01907286
0.022407845 -0.056019612 0.019066989
0.023532238 -0.056272745 0.018891603
0.024620399 -0.056421749 0.018833995
0.025525276 -0.056155603 0.018657386
0.025780076 -0.054534778 0.018206954
0.02717429 -0.055355035 0.018164575
0.028128278 -0.055251971 0.018102974
0.028933836 -0.054874517 0.018076688
0.030513037 -0.055940568 0.018130243
0.031763349 -0.056354325 0.018216819
0.032243174 -0.055417955 0.017290503
0.033316217 -0.055527028 0.016678602
0.03441776 -0.055675786 0.015804291
0.035394859 -0.055620492 0.015285194
0.036841642 -0.056285843 0.01405549
0.038137086 -0.056690261 0.013192475
0.039004289 -0.056453574 0.011812091
0.040293187 -0.056823727 0.010217458
0.041318677 -0.056813184 0.0083185434
0.042423066 -0.056908991 0.0054149628
0.0061978251 -0.055780426 0.0066837966
0.0072808298 -0.056166403 0.0088811517
0.0082255146 -0.055522222 0.01052624
0.0092691146 -0.055614684 0.012343854
0.01033191 -0.055792317 0.013408989
0.011216943 -0.055064995 0.01505813
0.012265024 -0.055192608 0.015815169
0.013285282 -0.055185016 0.016015261
0.014167898 -0.05464761 0.016576022
0.015283563 -0.055020828 0.017594904
0.016087536 -0.054295436 0.018342465
0.017173016 -0.054549582 0.01859206
0.01844091 -0.055322733 0.018823713
0.019379893 -0.055079695 0.018853277
0.020319507 -0.054862667 0.018601954
0.021225411 -0.05457963 0.018754423
0.022006944 -0.054017045 0.018740982
0.022638826 -0.053152028 0.018696666
0.024275165 -0.054619122 0.018366605
0.025431786 -0.054932658 0.018350124
0.025918368 -0.05383046 0.017918646
0.027354032 -0.054708064 0.017881513
0.028311232 -0.054600231 0.017808229
0.029570973 -0.055063188 0.017776877
0.030606933 -0.05509248 0.017879844
0.031336781 -0.054586649 0.017997175
0.032903086 -0.055523958 0.017255157
0.033377334 -0.054617457 0.016263425
0.034519944 -0.054825798 0.015552938
0.035774115 -0.055194348 0.015194416
0.037024118 -0.055536173 0.013848692
0.037489418 -0.054714285 0.012876004
0.039452709 -0.056064378 0.011273414
0.04010047 -0.055523727 0.0096214414
0.041404851 -0.055896547 0.007645309
0.0429339 -0.05654709 0.0052148402
0.0062528248 -0.055233285 0.006693542
0.0072724866 -0.05506311 0.0086044371
0.0082505792 -0.054660089 0.0098684132
0.0093510505 -0.055067297 0.012012452
0.010217633 -0.054153457 0.01338011
0.011148194 -0.053714026 0.014825583
0.012244128 -0.054078229 0.015837848
0.013204047 -0.053831887 0.016133666
0.014235601 -0.05389192 0.01672706
0.015327785 -0.054158174 0.017515987
0.015990485 -0.052968476 0.018195629
0.017074056 -0.053230882 0.018523455
0.018252878 -0.053744581 0.018442154
0.01903338 -0.053093113 0.018767446
0.020357735 -0.053948 0.018356711
0.021457246 -0.054154001 0.018740982
0.022500107 -0.054204803 0.018734396
0.023684673 -0.054577723 0.018619508
0.024551686 -0.054218307 0.01839307
0.025374616 -0.053794187 0.018395394
0.026682682 -0.054391619 0.01788488
0.027410503 -0.053805806 0.017843693
0.028197853 -0.05337451 0.017911553
0.029131006 -0.053239424 0.018125117
0.030339668 -0.05360008 0.017878056
0.030815763 -0.052685015 0.017879158
0.031587821 -0.052317325 0.017197996
0.033518426 -0.053832624 0.016193599
0.034248237 -0.053386956 0.01554209
0.035224631 -0.053340156 0.014875025
0.036094155 -0.053138617 0.013933241
0.038202073 -0.054721888 0.01220715
0.039437562 -0.055005018 0.010569006
0.039554998 -0.053754229 0.0092208087
0.041646019 -0.055180971 0.0070081055
0.0052554565 -0.054656748 0.0052211583
0.0062639164 -0.054287273 0.0071236789
0.0072448999 -0.053819254 0.0088080466
0.0083789453 -0.054463148 0.010478228
0.0092289401 -0.053322762 0.011836052
0.010266565 -0.053386137 0.013184428
0.011351457 -0.053661432 0.01520735
0.012256047 -0.053109538 0.015702337
0.01320191 -0.05280764 0.016099662
0.01428617 -0.053062916 0.016755074
0.01531893 -0.053105623 0.017838776
0.016419487 -0.053363334 0.018302232
0.01748739 -0.05349084 0.018455595
0.018398965 -0.053152565 0.018418998
0.019396912 -0.053086288 0.018744528
0.020130441 -0.052339148 0.01859206
0.021467863 -0.053158518 0.018977523
0.022287644 -0.052679885 0.018778026
0.023382826 -0.052865516 0.018749446
0.024540454 -0.053170983 0.018607557
0.025606221 -0.053260941 0.018765837
0.026360584 -0.052721169 0.018412322
0.027527563 -0.053016048 0.018398494
0.028966118 -0.05379422 0.018272996
0.029001048 -0.052001879 0.018323451
0.03030738 -0.052532792 0.017946988
0.031603675 -0.053012621 0.018027008
0.032035477 -0.05205765 0.017089933
0.033318575 -0.052501995 0.016252041
0.034599841 -0.052917406 0.015461296
0.035233732 -0.052347261 0.014868468
0.036634535 -0.052916553 0.013697237
0.038337518 -0.053879753 0.01213178
0.038771972 -0.053056382 0.010475188
0.039908193 -0.053210925 0.0088111758
0.04121016 -0.053573206 0.0063837469
0.0052089044 -0.053130828 0.0051706731
0.0062380377 -0.05302332 0.0073503256
0.0073512178 -0.053558871 0.0087454319
0.0082591288 -0.052651946 0.010744631
0.009202729 -0.052148797 0.012064487
0.010327626 -0.052670892 0.013444424
0.011285249 -0.052322518 0.015218705
0.012221103 -0.051939685 0.015577674
0.013318485 -0.052249439 0.016182095
0.013988711 -0.050958876 0.016601503
0.01488422 -0.050606348 0.017843187
0.016101042 -0.051322073 0.018218577
0.016910968 -0.050732903 0.01844418
0.018210668 -0.051596895 0.018495858
0.019259488 -0.05169652 0.018987417
0.020100227 -0.05125558 0.018758744
0.021377366 -0.051916461 0.018980265
0.022590501 -0.05236889 0.018840551
0.023390098 -0.051864997 0.018778026
0.024622522 -0.052322861 0.018790185
0.025535053 -0.052091509 0.018861055
0.026261259 -0.051512469 0.018593103
0.027324283 -0.051612537 0.018568754
0.02843871 -0.051799078 0.018412858
0.029593727 -0.052044142 0.01837033
0.030030556 -0.051051944 0.018040538
0.031142499 -0.051234435 0.017796814
0.032996289 -0.052587837 0.017414987
0.032575227 -0.050343532 0.01621455
0.034226488 -0.051339734 0.015836418
0.035569903 -0.051830433 0.014873534
0.036481977 -0.051682804 0.012978554
0.0380775 -0.052485202 0.011585146
0.0392382 -0.052661795 0.010205597
0.04010031 -0.052438866 0.0085597932
0.041154865 -0.05247245 0.0056614578
0.0051815128 -0.05181513 0.0056780279
0.0062358864 -0.051965721 0.0079238415
0.0072770393 -0.051978853 0.0089068115
0.0082255416 -0.051409632 0.010782927
0.0093700672 -0.052055929 0.012121856
0.010193021 -0.050965108 0.013308674
0.011229686 -0.051044028 0.015164346
0.012333769 -0.051390707 0.01553604
0.013178377 -0.050686065 0.015960485
0.014283866 -0.051013805 0.016519248
0.015020424 -0.050068077 0.017511934
0.016205395 -0.050641861 0.018028408
0.017274441 -0.050807178 0.018231422
0.018371891 -0.051033031 0.018418998
0.019279258 -0.050734889 0.018758744
0.02010276 -0.0502569 0.018607557
0.021216417 -0.050515279 0.018841058
0.022184914 -0.050420262 0.018743724
0.02328245 -0.050614022 0.018955916
0.024400704 -0.050834797 0.018811047
0.025422649 -0.050845299 0.018843472
0.026234508 -0.050450977 0.018547416
0.026879419 -0.049776703 0.018481821
0.028336706 -0.050601259 0.018309921
0.029352348 -0.050607495 0.0182046
0.030798417 -0.051330693 0.01799652
0.031607997 -0.050980639 0.017751068
0.032426789 -0.050666858 0.017291695
0.032926176 -0.049888145 0.016115695
0.034042865 -0.050063036 0.0154984
0.035247035 -0.050352909 0.01440531
0.036368519 -0.05051183 0.012899965
0.038039554 -0.051404804 0.011282802
0.039187711 -0.051562779 0.0097398758
0.040500417 -0.051923614 0.0079211593
0.0052281469 -0.05123584 0.0057660639
0.0062702689 -0.051207196 0.0078733563
0.007186166 -0.050303165 0.0093748868
0.0082884403 -0.050766695 0.010827541
0.0091676777 -0.049912911 0.01269421
0.010168031 -0.049823351 0.013516486
0.011112378 -0.049500592 0.015006095
0.012123187 -0.049503013 0.015515298
0.013166485 -0.04962752 0.016084969
0.014169569 -0.049593493 0.016814232
0.015147412 -0.049481545 0.017512441
0.016154705 -0.049473781 0.017749757
0.017108766 -0.049313501 0.018218547
0.018181151 -0.04949313 0.018375158
0.019387996 -0.050000619 0.018743724
0.020006536 -0.04901601 0.018675715
0.021307161 -0.049716711 0.018751025
0.02255716 -0.050240945 0.018675715
0.023495195 -0.050054982 0.01875037
0.024475167 -0.049970131 0.018685043
0.025594508 -0.050165236 0.018825024
0.026256617 -0.049483623 0.018335164
0.02761014 -0.050107289 0.018275142
0.02850865 -0.049890138 0.018018156
0.029257102 -0.049434412 0.017953515
0.029828208 -0.048719406 0.017757475
0.031493042 -0.049779326 0.017381638
0.03243842 -0.049671333 0.016771287
0.033425331 -0.049631551 0.016006857
0.034542583 -0.04978196 0.015259951
0.035431903 -0.049604665 0.014412999
0.03666136 -0.049900182 0.013071686
0.037936237 -0.05023988 0.011453927
0.03874955 -0.049966525 0.0095922053
0.040427078 -0.050792996 0.0070081055
0.0052177561 -0.050090462 0.0061979294
0.0062567038 -0.05005363 0.007887423
0.0072936439 -0.050013557 0.0093748868
0.0082752267 -0.049651362 0.011003733
0.0093360143 -0.049792077 0.012717217
0.010266081 -0.04927719 0.013855547
0.011131736 -0.04857485 0.015186757
0.012120172 -0.04848069 0.01546523
0.013190947 -0.048705038 0.016181409
0.014093554 -0.048320755 0.016960114
0.015281632 -0.048901219 0.017505586
0.016253024 -0.048759073 0.017792672
0.017215287 -0.048607871 0.017903417
0.018345453 -0.048921209 0.018060029
0.019319599 -0.048807412 0.018437892
0.020445984 -0.049070362 0.018219054
0.021298062 -0.048681282 0.018602878
0.022273108 -0.048595872 0.0185785
0.022918301 -0.047829498 0.01844272
0.024155153 -0.048310306 0.018634409
0.025535017 -0.049027231 0.018335164
0.026352908 -0.048651524 0.017949939
0.027130412 -0.048231844 0.017949939
0.028571457 -0.04897964 0.017668337
0.029195169 -0.048323039 0.017552793
0.030376919 -0.048603069 0.017276525
0.031394843 -0.048611373 0.016984344
0.032585979 -0.048878968 0.016275078
0.033382978 -0.048557062 0.015635014
0.034569185 -0.048803553 0.014948517
0.03584614 -0.049160421 0.014174074
0.036798812 -0.049065083 0.012757897
0.03819428 -0.049549337 0.011358321
0.039561078 -0.04997189 0.0092390478
0.040351115 -0.04966291 0.0060339868
0.0051890439 -0.04877701 0.0061589777
0.0062167635 -0.048697978 0.00771752
0.0071937121 -0.048300635 0.0097847283
0.0081985686 -0.048166592 0.011009812
0.0092881788 -0.04850493 0.01263395
0.01031471 -0.04847914 0.01347214
0.011149688 -0.047639575 0.014675736
0.012258219 -0.048011355 0.015343517
0.013169385 -0.047612391 0.015941709
0.014261402 -0.047877565 0.016784698
0.015332609 -0.048042174 0.017365992
0.016106606 -0.047313154 0.017907709
0.017211951 -0.047585983 0.018184245
0.018412089 -0.048076008 0.018435299
0.018794045 -0.046490531 0.018653125
0.020210685 -0.047495112 0.018492162
0.021270929 -0.047606364 0.018508404
0.022283522 -0.047605708 0.01858151
0.023764916 -0.048563089 0.018502831
0.024179649 -0.047351811 0.01860258
0.025326286 -0.047613416 0.018419713
0.026115289 -0.047208406 0.018018156
0.027312335 -0.047543693 0.01796326
0.028353119 -0.047592737 0.01764217
0.02960035 -0.047972981 0.017473876
0.030212361 -0.0473327 0.017079115
0.031347312 -0.047526572 0.016659856
0.032498043 -0.0477315 0.015796155
0.03341461 -0.047590505 0.015076846
0.034853753 -0.048180189 0.014377594
0.035809543 -0.048087101 0.013353765
0.036074787 -0.047097638 0.012191027
0.038416177 -0.04879893 0.010392547
0.039738197 -0.049149875 0.0085309744
0.040180236 -0.048422337 0.0055418313
0.0052447319 -0.048251536 0.0066840947
0.0062075057 -0.047590874 0.0082445145
0.0072119259 -0.047392655 0.010025024
0.0083188647 -0.047833472 0.011288673
0.0092095593 -0.047071084 0.012479097
0.010185306 -0.046852406 0.013594478
0.011241985 -0.047011938 0.014736205
0.012284311 -0.04708986 0.015624911
0.013186555 -0.046660118 0.016030103
0.014229566 -0.046754286 0.01689738
0.015179697 -0.046551075 0.017700732
0.016256392 -0.046737127 0.017999142
0.017231289 -0.046625841 0.018167138
0.018317454 -0.046811268 0.018302977
0.019294674 -0.046713423 0.018713534
0.020051965 -0.046119522 0.018511713
0.020912508 -0.045808349 0.018504828
0.02214648 -0.046306275 0.018474609
0.022735503 -0.045471005 0.018446267
0.024240512 -0.046460982 0.018316031
0.025243642 -0.046448302 0.018199384
0.026399495 -0.046706799 0.017944574
0.027090071 -0.046153456 0.017770261
0.028551806 -0.046906538 0.017315358
0.029333496 -0.046528995 0.017011762
0.030425159 -0.046651911 0.016787827
0.031488024 -0.046724167 0.016491473
0.032406002 -0.04658363 0.015512198
0.033520229 -0.046725169 0.015026093
0.034735363 -0.046994906 0.014073551
0.035226397 -0.046297554 0.012518585
0.036985632 -0.04725942 0.011778772
0.037851669 -0.047058832 0.0096816421
0.03925775 -0.047522541 0.0077673495
0.0041633691 -0.046837904 0.005456239
0.0051988829 -0.046789944 0.0071739256
0.0061660199 -0.046245147 0.0085641742
0.0072057727 -0.046322823 0.010468423
0.0082430728 -0.046367288 0.011485904
0.0092619937 -0.046309967 0.012410581
0.01028135 -0.046266079 0.013689607
0.011234998 -0.045961354 0.014753908
0.012320567 -0.046202127 0.015502095
0.013247215 -0.045855746 0.015915692
0.014288915 -0.045928657 0.01663959
0.015257901 -0.045773704 0.017238677
0.016131207 -0.045369022 0.017764956
0.01700509 -0.045013472 0.018208057
0.018116349 -0.045290872 0.018364578
0.019312695 -0.045740589 0.018674046
0.020249952 -0.04556239 0.018461823
0.021188131 -0.045403138 0.018479705
0.022251707 -0.045514856 0.018343627
0.023089087 -0.045174297 0.018326283
0.024511568 -0.04595919 0.018240362
0.025185175 -0.045333315 0.018178761
0.026340285 -0.045588955 0.017730623
0.027150126 -0.045250211 0.017550737
0.028351827 -0.045565434 0.01709044
0.029320393 -0.04549716 0.016874045
0.03084025 -0.046260376 0.016439319
0.031351533 -0.045510288 0.01604265
0.032716341 -0.046007354 0.015354395
0.033463221 -0.045631662 0.014777303
0.034569237 -0.045753404 0.014022171
0.035790954 -0.046016939 0.012518585
0.03672019 -0.045900237 0.011793613
0.037648544 -0.045788772 0.0096737146
0.040050223 -0.047427896 0.007543534
0.0042156759 -0.046372436 0.0056811869
0.0051429383 -0.045257859 0.0070720613
0.0062185014 -0.045602344 0.0086685419
0.0073224762 -0.046026994 0.010465175
0.0081579601 -0.044868782 0.011349559
0.0093017546 -0.045475245 0.012682438
0.010246286 -0.045083657 0.01362294
0.011231289 -0.044925157 0.014697284
0.012424764 -0.045557469 0.015294433
