ply
format ascii 1.0
comment PCL generated
element vertex 1266
property float x
property float y
property float z
element camera 0
property float view_px
property float view_py
property float view_pz
property float x_axisx
property float x_axisy
property float x_axisz
property float y_axisx
property float y_axisy
property float y_axisz
property float z_axisx
property float z_axisy
property float z_axisz
property float focal
property float scalex
property float scaley
property float centerx
property float centery
property int viewportx
property int viewporty
property float k1
property float k2
end_header
0.027907925 -0.099228173 0.0082150102
0.02888103 -0.099020675 0.0067469478
0.030364936 -0.10051841 0.0054962337
-0.0052094231 -0.098979041 0.0052456558
-0.0041256123 -0.097983293 0.0082253516
-0.0030609318 -0.096929505 0.010577023
-0.0020855949 -0.099065758 0.012447447
-0.00103731 -0.098544449 0.013682842
0 -0.097569175 0.014341682
0.0010443777 -0.099215873 0.015074551
0.0020450018 -0.097137585 0.016177505
0.0030707174 -0.09723939 0.016579717
0.0041099074 -0.097610302 0.016890228
0.005035162 -0.095668077 0.017516822
0.0061032367 -0.096634582 0.017518967
0.0070783026 -0.096062683 0.017477155
0.0080939485 -0.096115641 0.017549902
0.0091987047 -0.097097442 0.017552972
0.010221396 -0.097103253 0.017341912
0.011198308 -0.096712656 0.017299563
0.01224156 -0.096912347 0.017118722
0.01314137 -0.096033089 0.01700303
0.014279544 -0.096896909 0.01649937
0.01528457 -0.096802272 0.01620394
0.016230529 -0.09636876 0.015645146
0.017706951 -0.09895061 0.015093654
0.018445637 -0.097351976 0.014233798
0.019371886 -0.096859433 0.013631731
0.020677419 -0.098217741 0.013244689
0.021417195 -0.096887313 0.012776613
0.022607947 -0.097625226 0.012127966
0.023972174 -0.099015497 0.011680216
0.024773505 -0.098061785 0.010942042
0.025729517 -0.097772166 0.010517001
0.027000604 -0.098656058 0.0091333985
0.027881579 -0.098101854 0.007730633
0.028664708 -0.09725526 0.0065399408
-0.0051021026 -0.095919527 0.0069356859
-0.0040762359 -0.095791541 0.0092942715
-0.003069388 -0.096174158 0.011267126
-0.0020345671 -0.095624655 0.013066709
-0.0010284117 -0.096670695 0.013853252
0 -0.096659623 0.014367014
0.0010107668 -0.095012084 0.015269637
0.0020374677 -0.095760986 0.016376942
0.0030382082 -0.095197193 0.016985208
0.0040409476 -0.094962277 0.017201394
0.0051552746 -0.096919164 0.017765969
0.0060976646 -0.095530078 0.01767835
0.0071309982 -0.095759124 0.017686903
0.0081517538 -0.095783107 0.017709285
0.0092110233 -0.09620402 0.017718017
0.01012997 -0.095221728 0.017517924
0.011285772 -0.096442044 0.017269999
0.012270294 -0.096117303 0.017124087
0.013198366 -0.095434345 0.016839266
0.01444242 -0.096970528 0.016207129
0.015240763 -0.095508784 0.015681505
0.016205033 -0.095204569 0.015289128
0.017333113 -0.095841914 0.014949918
0.018331181 -0.0957295 0.01393351
0.019638687 -0.097159818 0.013449162
0.020628791 -0.096955322 0.012946367
0.02141927 -0.095876731 0.012545854
0.022895573 -0.09782654 0.011904359
0.023726238 -0.096968099 0.011114508
0.024626855 -0.096455187 0.01052177
0.025985369 -0.097704992 0.0096244812
0.027156977 -0.098182917 0.0077831447
0.027811095 -0.096823812 0.0068398416
0.029626234 -0.099459499 0.0055371225
-0.0052313125 -0.097302414 0.0079880357
-0.00413536 -0.096147113 0.010277539
-0.0030678578 -0.095103592 0.01192975
-0.0020252017 -0.094171874 0.013153195
-0.0010221608 -0.095060952 0.014101565
0 -0.093571521 0.014954388
0.0010217376 -0.095021598 0.015669376
0.0020267733 -0.094244957 0.016285419
0.0030310464 -0.093962438 0.017019391
0.0040930486 -0.095163383 0.017154545
0.0050907834 -0.094688572 0.017584056
0.0060249628 -0.093386926 0.01767835
0.0072378376 -0.096159846 0.017695129
0.0082047135 -0.095379792 0.017740965
0.0092662619 -0.095751368 0.017764747
0.010178618 -0.094661146 0.017546207
0.011181801 -0.094537042 0.017322272
0.012184416 -0.094429225 0.017060816
0.013253749 -0.094815284 0.01667729
0.014217113 -0.094442248 0.015986323
0.015265697 -0.094647318 0.015699267
0.016249971 -0.094452962 0.015109599
0.017097525 -0.093533516 0.014834404
0.018536106 -0.095769882 0.01393351
0.019500574 -0.095450178 0.013430685
0.02063797 -0.095966563 0.012821317
0.021658272 -0.095915206 0.011980742
0.022792861 -0.096351638 0.011248112
0.023439744 -0.094778091 0.010703743
0.024994066 -0.096852012 0.010010481
0.025945609 -0.096517667 0.007887125
0.027026275 -0.096670911 0.0069906712
0.028124709 -0.096873999 0.0063929558
0.029001057 -0.096324943 0.0051394701
-0.0052441852 -0.096493013 0.0085670948
-0.0041470933 -0.095383145 0.010405183
-0.0030811823 -0.094489589 0.012039542
-0.0020586275 -0.094696872 0.01325503
-0.0010345235 -0.095176153 0.014259487
0 -0.095799491 0.014983863
0.0010266022 -0.094447412 0.015357852
0.0020267016 -0.093228266 0.0163697
0.0030541543 -0.093660735 0.016850114
0.0040600253 -0.093380585 0.01701048
0.0050751935 -0.093383566 0.017686903
0.0061919624 -0.094943419 0.017641008
0.007150453 -0.093977384 0.017641008
0.0081826942 -0.094100982 0.017623812
0.0091332337 -0.093361937 0.017592132
0.010186131 -0.093712412 0.017162412
0.011208012 -0.093739733 0.017043889
0.012269574 -0.094066739 0.01667729
0.01318417 -0.09330336 0.016318202
0.014187853 -0.093234457 0.015994966
0.01543739 -0.094682656 0.015268981
0.016151767 -0.092872664 0.014922202
0.0174553 -0.094463974 0.01433453
0.018488796 -0.094498292 0.013533771
0.01957456 -0.094782077 0.01303497
0.020608375 -0.094798528 0.012381315
0.021322858 -0.093414426 0.011161327
0.022634154 -0.094651923 0.010818034
0.023870768 -0.095483072 0.010214865
0.025102058 -0.096224561 0.0082591176
0.026352266 -0.09697634 0.0073347092
0.027144782 -0.096050769 0.0065861642
0.027879624 -0.094997235 0.0053107142
-0.0063125831 -0.09574084 0.0057426691
-0.0052791107 -0.096079811 0.0080056787
-0.0041155037 -0.093627714 0.0099598169
-0.003087783 -0.093662746 0.011774302
-0.002052505 -0.093388982 0.013066709
-0.0010181569 -0.092652284 0.014178663
0 -0.092828698 0.014973134
0.0010151931 -0.092382573 0.015216738
0.0020577069 -0.093625665 0.016188771
0.003079799 -0.093420573 0.016586453
0.0040407469 -0.091926992 0.016987264
0.0051197424 -0.093179308 0.0177055
0.0060868743 -0.092317589 0.017709792
0.0070989532 -0.092286393 0.017701983
0.0081867361 -0.093124121 0.017741144
0.0091513628 -0.092530444 0.017346323
0.010089585 -0.091815218 0.017186046
0.011252794 -0.093091294 0.017179638
0.012250966 -0.09290316 0.016928315
0.013188341 -0.092318386 0.016425043
0.014296435 -0.092926823 0.016172469
0.015395124 -0.093397088 0.015376627
0.016274851 -0.092563212 0.014943838
0.017301578 -0.09261433 0.013990611
0.018246653 -0.092246965 0.01320684
0.019636994 -0.094050869 0.012565315
0.020498894 -0.093269974 0.011873096
0.021461515 -0.092999898 0.010567158
0.022565566 -0.093339384 0.010444999
0.02358385 -0.093310013 0.0089375377
0.025007091 -0.094818555 0.0080116987
0.026303228 -0.095743753 0.0067456663
0.027467217 -0.096135259 0.0056050122
-0.0062325089 -0.093487635 0.0059934556
-0.0051503726 -0.092706703 0.0078012049
-0.0041806721 -0.09406513 0.0092100203
-0.0030967288 -0.092901863 0.011149526
-0.0020593144 -0.092669144 0.012195617
-0.0010364432 -0.093279883 0.014080435
0 -0.091679215 0.014481157
0.0010180498 -0.091624483 0.015081286
0.0020318455 -0.091433048 0.015856773
0.0030117824 -0.090353474 0.01589188
0.004105892 -0.092382573 0.01625663
0.005067185 -0.09120933 0.016767174
0.0060923952 -0.091385931 0.016877294
0.0071396939 -0.091796063 0.016877294
0.0080881342 -0.090991512 0.017004818
0.0090600224 -0.090600222 0.016679615
0.010303814 -0.092734322 0.016600966
0.011301529 -0.092467055 0.016063392
0.012274365 -0.092057735 0.015986323
0.0133363 -0.092328236 0.015824437
0.014417698 -0.0926852 0.015438199
0.015408063 -0.092448384 0.015024662
0.016390173 -0.092194721 0.014317453
0.017084967 -0.090449832 0.013576329
0.018598296 -0.092991479 0.012761325
0.019353708 -0.09167546 0.012220412
0.020587433 -0.092643447 0.011261314
0.022020128 -0.094371974 0.010206133
0.022608444 -0.092489086 0.0087328553
0.023652287 -0.092552423 0.0082004368
0.025242414 -0.094659053 0.007076472
0.025971681 -0.093498051 0.0063779056
-0.0061599724 -0.091372922 0.0057577789
-0.0052085272 -0.092711784 0.0070627034
-0.0041420031 -0.092159562 0.0089080334
-0.0030971277 -0.091881454 0.010858387
-0.0020680516 -0.092028297 0.011606723
-0.0010291936 -0.091598228 0.013634682
0 -0.091253772 0.014170796
0.0010191468 -0.090704061 0.014463872
0.0020291964 -0.090299241 0.014795959
0.0030971277 -0.091881454 0.015449107
0.0040575168 -0.090279743 0.015816092
0.00509445 -0.09068121 0.016516387
0.0061283829 -0.09090434 0.016578078
0.0071105231 -0.090405218 0.01658532
0.0081017315 -0.090131767 0.016803861
0.0092506604 -0.09147875 0.01658532
0.010116362 -0.090035625 0.016412407
0.01127236 -0.091203637 0.016043186
0.012358682 -0.091660231 0.015988976
0.013143762 -0.089984216 0.015387416
0.014443256 -0.091817841 0.015066504
0.015422734 -0.091508217 0.014374793
0.016455153 -0.091531791 0.01384005
0.017433511 -0.09126956 0.013170123
0.018495118 -0.091448084 0.012556523
0.019217158 -0.090017214 0.012082547
0.020854833 -0.092804007 0.010983735
0.021845315 -0.092582531 0.0094082952
0.02247704 -0.090929843 0.008290261
0.02374286 -0.09187454 0.0074012876
0.025000682 -0.09271086 0.0066750944
-0.006372836 -0.093468264 0.0064019561
-0.0052993745 -0.093268991 0.0076898932
-0.0041178144 -0.090591915 0.0092223883
-0.0031047731 -0.091073349 0.010832787
-0.0020697594 -0.091069415 0.011450529
-0.0010273217 -0.090404309 0.01342532
0 -0.090170167 0.013727903
0.0010269585 -0.090372339 0.014337242
0.0020480859 -0.090115778 0.014663011
0.0030432043 -0.089267321 0.015107512
0.0040616347 -0.08935596 0.015493661
0.0051235161 -0.090173878 0.015698761
0.0061280341 -0.089877836 0.016171753
0.0071287481 -0.089618549 0.01592499
0.0081457961 -0.089603759 0.016385615
0.0090861879 -0.088842727 0.016362399
0.010207746 -0.089828163 0.016273111
0.011228462 -0.089827694 0.015947223
0.012214232 -0.089571036 0.015461892
0.013151619 -0.089026339 0.015205145
0.014323894 -0.090035908 0.014974117
0.015295749 -0.089735061 0.014300883
0.016277129 -0.089524209 0.013508499
0.017551823 -0.090856493 0.013132155
0.018420072 -0.090053692 0.012445122
0.019648021 -0.091001362 0.011900038
0.02083928 -0.091692835 0.01045692
0.022039732 -0.092356972 0.0085714757
0.023334891 -0.093339562 0.0076585114
0.024058551 -0.092050105 0.0070435405
0.024942856 -0.091457143 0.0052577853
-0.0074088797 -0.092081793 0.0057156086
-0.006300949 -0.091363758 0.0069849491
-0.0052152416 -0.090745203 0.0080883205
-0.0041916869 -0.091169186 0.010067105
-0.0031471031 -0.091265991 0.010838866
-0.0020709708 -0.090087235 0.011419296
-0.0010477885 -0.0911576 0.013382584
0 -0.088544637 0.013687313
0.0010400369 -0.090483218 0.014337242
0.0020742409 -0.090229489 0.014663011
0.0030391898 -0.088136509 0.015090615
0.0041013374 -0.089204088 0.015252858
0.0051734592 -0.09001819 0.015589684
0.0061069396 -0.088550627 0.015758753
0.0071605039 -0.088994838 0.015735716
0.0081137894 -0.088237457 0.016311586
0.0090932064 -0.087900989 0.016273111
0.010349977 -0.090044796 0.015686214
0.011340288 -0.089691363 0.015376627
0.012331849 -0.089405902 0.015255183
0.013267985 -0.088793434 0.01511091
0.014300121 -0.088865042 0.014554739
0.015438199 -0.089541554 0.013923794
0.016610099 -0.090317413 0.01336959
0.017345063 -0.088765912 0.012948573
0.018705323 -0.090409063 0.012438357
0.019673297 -0.090082996 0.011374712
0.020484878 -0.08910922 0.0099138319
0.022438601 -0.092959918 0.0080940425
0.022814898 -0.090222552 0.0070663095
0.023783281 -0.089962848 0.0056996346
-0.0083191274 -0.089430615 0.0051586628
-0.0075301398 -0.092513144 0.0064089298
-0.0062969406 -0.090256147 0.0074471831
-0.0052246111 -0.089863315 0.0091791451
-0.0041800477 -0.089871019 0.010419548
-0.0031096616 -0.089143634 0.010974079
-0.0021251135 -0.091379881 0.011583775
-0.001046393 -0.089989789 0.013190478
0 -0.089224264 0.013421535
0.0010474228 -0.090078354 0.014102489
0.0020405501 -0.087743655 0.014369428
0.0031307419 -0.089747936 0.0146752
0.0041051786 -0.088261344 0.014785796
0.0052085598 -0.089587227 0.014992654
0.0061995452 -0.088860147 0.015047967
0.0072545586 -0.089127436 0.015045762
0.008218348 -0.088347241 0.015302211
0.0091628544 -0.087556161 0.015392214
0.010066505 -0.086571939 0.015279561
0.011163693 -0.087279782 0.015039206
0.012445098 -0.089189865 0.014967322
0.013510273 -0.089375652 0.014862329
0.014388125 -0.088384204 0.01446712
0.015445344 -0.088553309 0.013794869
0.016225535 -0.087212257 0.01302135
0.017718367 -0.089634098 0.01269114
0.018709585 -0.089390241 0.012154371
0.019638691 -0.088890918 0.010811031
0.020919092 -0.089952096 0.0090867281
0.021915272 -0.089748256 0.0075316727
0.022741579 -0.088898897 0.0064310133
0.024143392 -0.090275288 0.0050739646
-0.009663742 -0.091268674 0.0051145852
-0.0084276013 -0.089543261 0.006477803
-0.0074491315 -0.090453736 0.0075804293
-0.0063339695 -0.089731239 0.0091791451
-0.0052375896 -0.089039028 0.010441333
-0.0041787974 -0.088799447 0.011134982
-0.0031712481 -0.089852028 0.011150718
-0.0020990497 -0.089209609 0.012211204
-0.0010453536 -0.088855058 0.013109028
0 -0.088577203 0.013211668
0.0010244489 -0.087078162 0.014056414
0.0020923845 -0.088926338 0.014265239
0.0031238047 -0.088507794 0.014379054
0.0041358992 -0.087887861 0.014518172
0.0052230489 -0.088791825 0.014604688
0.0061765658 -0.087501347 0.014784276
0.0072319973 -0.08781711 0.014767081
0.0082831755 -0.088008739 0.015204757
0.009215584 -0.087036073 0.015204757
0.010231064 -0.086964041 0.014844686
0.01116949 -0.086309701 0.014650226
0.012178219 -0.086262383 0.014317453
0.013274721 -0.086796254 0.014229029
0.014503222 -0.088055275 0.013873756
0.015372473 -0.087110676 0.013191938
0.01645386 -0.087411135 0.012813747
0.017622476 -0.088112384 0.012617201
0.018724635 -0.088421889 0.011988938
0.019424543 -0.086899273 0.010738224
0.020846277 -0.088596679 0.0089248717
0.021803228 -0.088251166 0.007216543
0.022923645 -0.088568628 0.0062407851
-0.010592573 -0.08897762 0.0050420165
-0.009456981 -0.088265158 0.006247431
-0.0085738963 -0.090025909 0.0076623559
-0.0074125752 -0.088950902 0.009239167
-0.0063186195 -0.088460669 0.010721803
-0.0052350895 -0.087949499 0.011384666
-0.0042092791 -0.088394858 0.01134792
-0.0031353903 -0.087790929 0.011987329
-0.0020755038 -0.08717116 0.012596637
-0.0010356402 -0.086993776 0.013190478
0 -0.086469643 0.013294458
0.0010223667 -0.085878797 0.014081568
0.0020551393 -0.086315848 0.014188528
0.0030382958 -0.085072279 0.01426208
0.0041637025 -0.087437756 0.014292449
0.0052708467 -0.088550217 0.014292449
0.0062142606 -0.086999647 0.014232039
0.0073077963 -0.087693557 0.014002919
0.0082675125 -0.086808883 0.014566422
0.0093413657 -0.087186076 0.014544904
0.010327183 -0.086748339 0.014428884
0.011209879 -0.085602708 0.014238566
0.012289159 -0.086024113 0.014003605
0.013212213 -0.085371226 0.013795733
0.01425449 -0.085526943 0.013136357
0.015423934 -0.08637403 0.012838453
0.016472911 -0.086482786 0.012551069
0.017613925 -0.087033518 0.012359083
0.018809332 -0.087776884 0.01109007
0.019540297 -0.086388685 0.0098213255
0.020666752 -0.086800359 0.0082458258
0.02194521 -0.087780841 0.0072077811
0.023490459 -0.089690842 0.0056854486
-0.010507538 -0.087212563 0.0054736137
-0.0093209641 -0.085960001 0.0073940158
-0.008465155 -0.087825976 0.0091024041
-0.0073059406 -0.08662758 0.01055944
-0.0062075648 -0.085871316 0.01119718
-0.0051855738 -0.086080529 0.011566907
-0.0041185054 -0.085458986 0.012524188
-0.0030649386 -0.08479663 0.012956142
-0.0020559339 -0.085321262 0.013181746
-0.0010136081 -0.084129475 0.013891041
0 -0.084944926 0.014018089
0.0010189431 -0.084572285 0.014087051
0.0020161637 -0.083670788 0.014150739
0.0030718499 -0.084987849 0.013911396
0.0040644296 -0.084336907 0.013864696
0.0050719082 -0.084193677 0.013814986
0.0061631915 -0.085257486 0.013852268
0.0072707213 -0.086209983 0.013814986
0.0082391845 -0.085481539 0.014076024
0.0093422383 -0.086156197 0.014055967
0.010299653 -0.08548712 0.014317751
0.011168224 -0.08426933 0.013772339
0.012323 -0.085234091 0.013319284
0.013149591 -0.083955079 0.01322946
0.014193 -0.08414422 0.013191938
0.015258134 -0.084428348 0.01290673
0.016182676 -0.083947629 0.012507617
0.017688673 -0.086362347 0.01218307
0.018953919 -0.087398626 0.010529727
0.01954899 -0.08539822 0.0099065602
0.020948408 -0.086935893 0.0082519054
0.021986691 -0.08689978 0.0065141618
0.02307724 -0.087064132 0.005359292
-0.011268511 -0.084001631 0.0054736137
-0.010249615 -0.084046841 0.0080795884
-0.0092148269 -0.083957314 0.0090527236
-0.008072068 -0.08273869 0.01097846
-0.0072518345 -0.08495006 0.011448085
-0.0062222923 -0.085037991 0.013016462
-0.0050944635 -0.083549201 0.013668269
-0.0040720459 -0.083476938 0.013589174
-0.0030635607 -0.083737321 0.0139305
-0.0020346432 -0.083420366 0.013647288
-0.0010126616 -0.083038248 0.014049977
0 -0.084072813 0.014204353
0.0010194535 -0.083595186 0.014301151
0.0020273661 -0.083122008 0.014301151
0.0030584666 -0.083598085 0.0140239
0.0040473053 -0.082969755 0.013876975
0.0050908253 -0.083489537 0.013613194
0.006163355 -0.084232517 0.013566792
0.0070587182 -0.08268784 0.013661414
0.0082655996 -0.0847224 0.013702571
0.0092906719 -0.084648348 0.013673544
0.010288414 -0.084364995 0.013388634
0.011285181 -0.084125899 0.013275415
0.012188032 -0.083284885 0.013219774
0.013213714 -0.083348036 0.012969732
0.01431636 -0.083852969 0.012885213
0.015347582 -0.083900116 0.012749285
0.016438024 -0.084244877 0.012345374
0.01759134 -0.084852353 0.011375546
0.018257719 -0.08317405 0.01038155
0.019880975 -0.085802101 0.0096019506
0.021060495 -0.086348027 0.0081342459
0.021959387 -0.085746177 0.0065141618
-0.012596413 -0.08502578 0.0066005588
-0.011350105 -0.083578043 0.0089273751
-0.010221317 -0.082792677 0.010139644
-0.0091069434 -0.081962489 0.011054844
-0.00811926 -0.082207501 0.013406366
-0.007148833 -0.082722209 0.0143767
-0.0060612229 -0.081826508 0.015360296
-0.0051891766 -0.084064662 0.015420735
-0.0041900333 -0.084848173 0.015517116
-0.0030929158 -0.083508722 0.015118867
-0.0020781106 -0.084163472 0.015170932
-0.001033545 -0.083717145 0.014859676
0 -0.082145154 0.014774561
0.0010172888 -0.082400389 0.014759123
0.0020519067 -0.083102219 0.014720947
0.003026861 -0.081725247 0.01424253
0.004106815 -0.083163001 0.013934255
0.0051464164 -0.083371945 0.013675511
0.0061165369 -0.08257325 0.013557374
0.0072439304 -0.083822623 0.013545156
0.0081871822 -0.082895219 0.013559252
0.0091789868 -0.082610883 0.013410121
0.010310457 -0.083514705 0.013334304
0.011068637 -0.081505418 0.013220876
0.012184608 -0.082246102 0.01296255
0.013296702 -0.082848683 0.012772501
0.014349734 -0.083023466 0.012660205
0.015293324 -0.082583956 0.012493879
0.01618137 -0.081918187 0.012224466
0.017278528 -0.082327105 0.011357188
0.018545987 -0.083456941 0.010564029
0.019902183 -0.084846146 0.009599328
0.020710871 -0.083879024 0.0076603293
0.022034969 -0.084992029 0.0060841739
-0.013761208 -0.084684357 0.0060333312
-0.012475849 -0.083172329 0.008161515
-0.011341605 -0.082484402 0.01068154
-0.010228124 -0.081824988 0.011618793
-0.0090617295 -0.080548704 0.014754653
-0.0081271166 -0.081271164 0.015758991
-0.0071098581 -0.081255518 0.016302109
-0.0060489099 -0.080652133 0.016753286
-0.0051777367 -0.082843788 0.016933709
-0.0041049318 -0.082098641 0.017238557
-0.0030942368 -0.082512982 0.017176598
-0.0020546049 -0.082184196 0.016821951
-0.0010166336 -0.081330687 0.016755432
0 -0.082578383 0.016373813
0.0010356848 -0.082854792 0.016034275
0.0020277877 -0.081111506 0.015923768
0.0030889583 -0.082372218 0.01521644
0.0040571238 -0.081142478 0.014741391
0.0050815772 -0.081305236 0.014023632
0.006122801 -0.081637345 0.013764739
0.007193089 -0.082206726 0.013414055
0.0082620261 -0.082620263 0.013414055
0.0093532503 -0.083140001 0.013408661
0.01029727 -0.082378156 0.013314247
0.011305579 -0.082222387 0.01318571
0.012340487 -0.082269914 0.012844205
0.01321962 -0.081351511 0.012618124
0.014309182 -0.081766754 0.012543797
0.015429933 -0.082292974 0.012359828
0.016171841 -0.080859199 0.011990905
0.017464221 -0.082184568 0.011352837
0.01839352 -0.081748977 0.010155559
0.019537525 -0.082263261 0.0089492798
0.020837244 -0.083348975 0.0073896646
0.021662576 -0.082524098 0.0052930415
-0.014722799 -0.083078653 0.0056370199
-0.013542204 -0.082294933 0.0081205666
-0.012489088 -0.082219832 0.010292977
-0.011148852 -0.080069035 0.012589753
-0.010184515 -0.080457672 0.014882386
-0.0091376612 -0.080208361 0.015964001
-0.0082033705 -0.081008285 0.016638219
-0.0071031014 -0.080163576 0.017170042
-0.0061108265 -0.080459215 0.017781913
-0.0050376109 -0.079594254 0.017996669
-0.0040690391 -0.080363527 0.017882109
-0.0030886212 -0.081333689 0.017883301
-0.0020338669 -0.08033774 0.017719418
-0.0010223441 -0.08076518 0.017719418
0 -0.080947615 0.017719418
0.0010186422 -0.08047273 0.017525166
0.0020604478 -0.081387691 0.017043412
0.003096632 -0.081544638 0.016184896
0.0041056927 -0.081087433 0.015761226
0.0051119472 -0.080768771 0.014984757
0.0061679883 -0.081211843 0.014489084
0.007091633 -0.080034144 0.013933629
0.0083718067 -0.08267159 0.013840079
0.0093369707 -0.081957854 0.013812929
0.010297966 -0.081353933 0.013526469
0.011407772 -0.081928544 0.013370067
0.012331128 -0.081179924 0.013027102
0.013286721 -0.080742382 0.012529045
0.014446837 -0.081521437 0.012378931
0.015364566 -0.080920048 0.011946768
0.016468799 -0.08131469 0.011380255
0.017383961 -0.080784284 0.010877848
0.018223401 -0.079980485 0.010074914
0.019838301 -0.082485564 0.0084136128
0.020710191 -0.081805259 0.0063298047
-0.014807839 -0.082500823 0.0074468553
-0.013486275 -0.080917656 0.0094929338
-0.012192814 -0.079253286 0.012725145
-0.011241619 -0.0797133 0.0149993
-0.010165095 -0.079287745 0.015725881
-0.0090950513 -0.078823783 0.016612589
-0.0080650095 -0.078633837 0.01731053
-0.0071430309 -0.079593778 0.018023372
-0.0060612992 -0.078796893 0.018528074
-0.0050794794 -0.079239875 0.018782705
-0.0040928321 -0.079810224 0.018744618
-0.00306095 -0.079584695 0.018785208
-0.0020328949 -0.079282902 0.018255264
-0.0010310254 -0.08041998 0.018142253
0 -0.079605855 0.01804021
0.001031511 -0.080457859 0.017861187
0.0020507411 -0.079978906 0.017500877
0.0030554868 -0.079442658 0.017304897
0.0041107992 -0.080160588 0.016475558
0.0050937431 -0.079462394 0.015522927
0.0060918899 -0.079194568 0.014944911
0.0071710711 -0.079906218 0.014197588
0.0082985451 -0.080910817 0.013952255
0.009435324 -0.081772812 0.013762772
0.01036535 -0.080849729 0.013570935
0.011264313 -0.079874218 0.013305277
0.012429447 -0.080791406 0.012556911
0.013472078 -0.080832474 0.012259632
0.014448578 -0.080499224 0.011598289
0.015523816 -0.080723844 0.011161447
0.01643293 -0.080110535 0.010599971
0.017481921 -0.08021117 0.010074914
0.018798616 -0.08146067 0.0092050731
0.019234736 -0.078963652 0.0071670711
0.020524748 -0.080046512 0.0056243241
-0.015636632 -0.08026804 0.0057802796
-0.014984578 -0.082415178 0.0084642172
-0.013314271 -0.078861453 0.011917591
-0.012133741 -0.077858172 0.014331877
-0.011218858 -0.07853201 0.015639395
-0.010225119 -0.078733414 0.016625613
-0.0091354065 -0.078158475 0.01764977
-0.0082378266 -0.079289079 0.018374026
-0.0070312284 -0.077343516 0.018892735
-0.0060291956 -0.077374674 0.019038469
-0.0050818739 -0.078260854 0.019202411
-0.0040430264 -0.077828258 0.019256651
-0.0030399859 -0.078026302 0.019182175
-0.0020569251 -0.07919161 0.018929631
-0.001012868 -0.077990837 0.018647552
0 -0.079197273 0.018588036
0.0010193039 -0.078486398 0.01815322
0.0020179455 -0.077690907 0.017929822
0.0030929898 -0.079386741 0.017770559
0.0040432699 -0.077832945 0.017359912
0.0050894623 -0.078377724 0.016476452
0.0061304593 -0.078674227 0.015736938
0.0071455403 -0.078600943 0.014636666
0.008205289 -0.078975908 0.014200538
0.0092965672 -0.079537302 0.013836145
0.010342265 -0.079635441 0.013370067
0.011354387 -0.079480708 0.013076454
0.012502976 -0.080227427 0.01225397
0.01343655 -0.079585724 0.011774212
0.014462126 -0.079541698 0.011271626
0.015566554 -0.079908311 0.010633975
0.016254254 -0.078223594 0.010161221
0.017663352 -0.080004595 0.0094492435
0.018547496 -0.079342067 0.0082763135
0.019818811 -0.080318339 0.0061311722
-0.015700245 -0.079547912 0.0067226887
-0.014553764 -0.079006143 0.0091624856
-0.013270725 -0.077582695 0.01233536
-0.012322962 -0.078045428 0.014658272
-0.011273482 -0.077889509 0.016316116
-0.010127865 -0.076971769 0.017318547
-0.0092090545 -0.077765346 0.018490672
-0.0080633638 -0.07660196 0.019101381
-0.0071195285 -0.07729774 0.019335181
-0.006115451 -0.077462375 0.019441396
-0.0050465879 -0.076708138 0.019524723
-0.0040152781 -0.076290287 0.019672006
-0.003055613 -0.077408865 0.019477934
-0.0020203453 -0.076773122 0.019284844
-0.0010194131 -0.077475399 0.019277096
0 -0.076884858 0.019012064
0.0010195345 -0.077484623 0.018500447
0.0020575118 -0.078185454 0.018131435
0.0030689125 -0.077745788 0.017998904
0.0040504998 -0.076959491 0.017500877
0.0051595373 -0.07842496 0.016864419
0.0061336672 -0.07769312 0.016116172
0.0071144276 -0.07724236 0.015025496
0.0082212314 -0.078101695 0.014533818
0.0092615122 -0.078208327 0.013980418
0.010360389 -0.078738958 0.013370067
0.011452448 -0.079126 0.012986898
0.012354285 -0.078243807 0.012079328
0.013337007 -0.077970192 0.011489421
0.014440753 -0.078392655 0.010856837
0.015666565 -0.079377256 0.010246187
0.016553082 -0.078627132 0.00953421
0.017539438 -0.078411601 0.0090948939
0.018524384 -0.078214064 0.0075009763
0.019634264 -0.078537054 0.0056075752
-0.015655441 -0.078277208 0.0073208809
-0.014388685 -0.077082247 0.0099727511
-0.013439387 -0.077534921 0.012409449
-0.012260828 -0.076630175 0.015068978
-0.01118312 -0.076248549 0.01682961
-0.010164705 -0.076235287 0.017995328
-0.0091050491 -0.075875409 0.018899739
-0.0081137242 -0.076066159 0.019199401
-0.0071147182 -0.076229125 0.019477934
-0.0060818125 -0.076022655 0.019635022
-0.0050483062 -0.075724594 0.019750208
-0.0040574656 -0.076077484 0.019948184
-0.0030289521 -0.075723797 0.019842088
-0.0020268646 -0.076007418 0.019684494
-0.0010123483 -0.075926125 0.019819736
0 -0.075001545 0.019560009
0.0010182405 -0.076368034 0.018975168
0.0020398635 -0.07649488 0.018723875
0.0030194761 -0.075486906 0.018225819
0.0040839487 -0.076574035 0.017985195
0.0050923419 -0.076385133 0.017249495
0.0061477725 -0.076847158 0.016572744
0.0071585071 -0.076698296 0.015670657
0.0082225548 -0.077086449 0.014985323
0.0092487931 -0.077073276 0.014197111
0.010547271 -0.079104535 0.013712436
0.01141222 -0.077810593 0.013200045
0.012459007 -0.077868797 0.012209266
0.013456751 -0.077635102 0.011369556
0.014381887 -0.077045821 0.010422379
0.015636321 -0.078181602 0.0099767148
0.016829606 -0.078888781 0.0091759861
0.017496865 -0.077192053 0.0077313483
0.018914029 -0.078808457 0.0065228045
-0.015773537 -0.077816114 0.0084081292
-0.014580478 -0.077068239 0.010445446
-0.01333332 -0.075897358 0.012710154
-0.012151951 -0.074937031 0.015554368
-0.011324471 -0.076182805 0.017114878
-0.010287141 -0.076124847 0.018323481
-0.0091911852 -0.075571969 0.019116282
-0.0081232348 -0.075139917 0.019441396
-0.0071200682 -0.075269289 0.019602507
-0.0061068069 -0.075317286 0.019849688
-0.0050858376 -0.075270399 0.020004153
-0.0040746164 -0.0753804 0.020011544
-0.0030133787 -0.074330002 0.020241171
-0.0020129599 -0.07447952 0.020096481
-0.0010083121 -0.074615099 0.020124763
0 -0.075114377 0.020056486
0.001007583 -0.074561141 0.019289106
0.0020074921 -0.074277207 0.019263834
0.003055664 -0.075373046 0.018892646
0.0040546888 -0.075011745 0.018134654
0.0050041266 -0.074061073 0.01780045
0.0061961086 -0.076418668 0.017053038
0.007159614 -0.075687349 0.016413808
0.0082189683 -0.076025456 0.015937567
0.0092578782 -0.076120332 0.014719397
0.010346057 -0.076560818 0.014084876
0.011493493 -0.07731986 0.013180137
0.012606693 -0.077741273 0.012343973
0.013432787 -0.07646355 0.011605978
0.014533724 -0.076821111 0.010286927
0.015698858 -0.077447698 0.0097494423
0.016542776 -0.07651034 0.0082799494
0.01787829 -0.077823147 0.0067291856
0.018920256 -0.077783279 0.0051034689
-0.016418938 -0.074911408 0.0062991381
-0.015627423 -0.076053463 0.0087032616
-0.014471273 -0.075457349 0.011179984
-0.013171855 -0.073965035 0.012782156
-0.012268187 -0.074631467 0.015376896
-0.011306777 -0.075035885 0.017088294
-0.010244931 -0.074787997 0.018029064
-0.0091799721 -0.074459776 0.019110799
-0.0081944298 -0.074774168 0.01950711
-0.0071126162 -0.074174426 0.019693047
-0.0060555772 -0.073676191 0.019862205
-0.005061374 -0.073896065 0.020242482
-0.0040270933 -0.073494449 0.020446479
-0.0030697894 -0.07469821 0.020592064
-0.0020045063 -0.073164478 0.020568967
-0.0010099194 -0.073724121 0.02067852
0 -0.074203454 0.020554781
0.0009998926 -0.072992153 0.019994169
0.0020533642 -0.074947789 0.019706041
0.0030442672 -0.074077167 0.019377708
0.0040249056 -0.073454529 0.018980503
0.0051321648 -0.074929602 0.018481523
0.0061273985 -0.07455001 0.017882645
0.0071053854 -0.074099019 0.017168075
0.0081234649 -0.074126624 0.016312063
0.0091438852 -0.074167065 0.015758246
0.010370684 -0.07570599 0.014309376
0.011655583 -0.077350684 0.013713092
0.012641385 -0.076901756 0.012594074
0.013526379 -0.075955816 0.011849701
0.014461069 -0.075404152 0.010691434
0.015557284 -0.075712122 0.009909898
0.016949397 -0.077331617 0.0077339411
0.017811816 -0.076486029 0.0060662925
-0.01704804 -0.076716185 0.0073726177
-0.015653351 -0.07513608 0.0097285211
-0.014249678 -0.073284052 0.011667937
-0.013353783 -0.07395941 0.012907058
-0.012452922 -0.074717529 0.015343636
-0.011244897 -0.07360296 0.01698333
-0.010293177 -0.074110873 0.018213749
-0.0090445532 -0.072356425 0.01910612
-0.0081129503 -0.073016547 0.019606292
-0.0070396052 -0.072407372 0.019958794
-0.0061235297 -0.073482357 0.02009204
-0.0050268406 -0.072386511 0.020480454
-0.0040801754 -0.073443159 0.020652235
-0.0030182602 -0.07243824 0.020829737
-0.0020280075 -0.073008269 0.020928442
-0.0010177817 -0.073280282 0.020972878
0 -0.07230898 0.021012306
0.0010153505 -0.073105231 0.020712078
0.0020103811 -0.072373718 0.020428449
0.0029912738 -0.071790569 0.020337045
0.0040480844 -0.072865523 0.019833505
0.0050468971 -0.072675318 0.019548684
0.0060987333 -0.073184803 0.018696725
0.0070987372 -0.073015578 0.018211335
0.0081343409 -0.07320907 0.017102242
0.0089554098 -0.071643278 0.016569912
0.010310191 -0.074233368 0.015127659
0.011427355 -0.074797228 0.014424503
0.012604564 -0.075627387 0.013473541
0.013756553 -0.076190136 0.012124181
0.014677441 -0.075483978 0.011121511
0.015571354 -0.074742496 0.0098751187
0.016810941 -0.075649232 0.0075158179
0.01787941 -0.075724557 0.005657047
-0.018140011 -0.075761214 0.0054340661
-0.016874481 -0.074880511 0.0080235302
-0.015597178 -0.073826641 0.010560066
-0.014465961 -0.073363088 0.012625545
-0.013357184 -0.072950773 0.012970716
-0.012364936 -0.073159203 0.015331894
-0.011400845 -0.073587276 0.016532272
-0.010152977 -0.072086141 0.018018454
-0.0090550743 -0.071434475 0.019108802
-0.0081417682 -0.072258189 0.01950416
-0.0070762984 -0.071773879 0.019848675
-0.0060769501 -0.071910575 0.020042032
-0.0050864853 -0.072228089 0.020530283
-0.0040238309 -0.071422994 0.02063641
-0.0030454777 -0.072076306 0.020706475
-0.0020374018 -0.072327763 0.020814538
-0.001013239 -0.071939968 0.020902902
0 -0.073256679 0.02096644
0.0010049711 -0.071352951 0.020555079
0.0020198936 -0.071706221 0.02045235
0.0030755694 -0.072788477 0.020412982
0.0040427977 -0.071759656 0.020187467
0.0050156661 -0.071222462 0.02014038
0.0061068572 -0.072264478 0.019164354
0.0070550237 -0.071558103 0.018485397
0.0080644535 -0.071572028 0.017751902
0.0092465254 -0.072944805 0.016912252
0.01019005 -0.072349355 0.015746117
0.011071956 -0.071464442 0.01454705
0.012332852 -0.072969377 0.014074236
0.01353886 -0.073943004 0.012840658
0.014671803 -0.074407004 0.011477381
0.015665524 -0.074150145 0.0099261105
0.016469192 -0.073082037 0.0070894063
0.018109033 -0.075631849 0.0052703917
-0.018171325 -0.074823104 0.0060843825
-0.016590904 -0.072585203 0.0093213022
-0.01573411 -0.073425852 0.011614621
-0.014485715 -0.072428577 0.012894511
-0.013248315 -0.071337081 0.01345098
-0.012481784 -0.072810404 0.015461713
-0.011277308 -0.071764685 0.016586512
-0.010102017 -0.070714116 0.018285125
-0.00919466 -0.071514025 0.019138426
-0.0081292056 -0.071130551 0.019624978
-0.0070338054 -0.070338048 0.019872785
-0.0060795597 -0.070928194 0.020145684
-0.0050217854 -0.07030499 0.020537317
-0.0040386994 -0.070677243 0.02068758
-0.0030489732 -0.071142703 0.020718724
-0.0020155336 -0.070543677 0.02088961
-0.0010171401 -0.071199805 0.02088961
0 -0.07101275 0.020925373
0.0010267473 -0.071872309 0.020530581
0.0020284241 -0.070994839 0.020465374
0.0030608296 -0.071419358 0.020412982
0.0040528057 -0.070924096 0.020254076
0.0051169377 -0.071637124 0.02024141
0.0061295354 -0.071511246 0.019098073
0.0070938105 -0.070938103 0.018819213
0.0081948619 -0.071705043 0.018402457
0.0091268187 -0.070986368 0.017297089
0.010067977 -0.070475839 0.016199857
0.011193732 -0.07123284 0.014912069
0.01224548 -0.071431965 0.014425397
0.013426866 -0.072298512 0.013326466
0.014692447 -0.073462233 0.011592686
0.015845306 -0.073944762 0.0096821189
0.01712459 -0.074920081 0.006896317
0.018030871 -0.07424476 0.0050232112
-0.019104963 -0.073235691 0.0052117109
-0.017899889 -0.072652496 0.0073214173
-0.016828261 -0.072571881 0.010598302
-0.015664065 -0.072054699 0.012347788
-0.014290106 -0.070429809 0.013225675
-0.013692461 -0.07267537 0.014402479
-0.01240164 -0.071309432 0.015585452
-0.011383695 -0.071406811 0.016600668
-0.010156762 -0.070081659 0.018231452
-0.0089807464 -0.068852387 0.018946558
-0.008117076 -0.070009783 0.019440979
-0.0071185217 -0.070168287 0.019814014
-0.0060682697 -0.069785103 0.019928604
-0.0050068949 -0.06909515 0.02024433
-0.0040209531 -0.069361441 0.020478696
-0.003047708 -0.070097283 0.020664304
-0.001994618 -0.068814322 0.020736605
-0.0010226177 -0.070560619 0.020861834
0 -0.069222212 0.020831496
0.0010216447 -0.070493482 0.020386398
0.0020157816 -0.069544464 0.020254284
0.003025085 -0.069576956 0.020491987
0.0040542786 -0.069936305 0.020337045
0.0051145307 -0.07058052 0.020254076
0.0060719182 -0.069827057 0.019222885
0.0071057528 -0.070042424 0.019023538
0.0081117256 -0.069963634 0.018480778
0.0091657024 -0.070270382 0.017451704
0.010233367 -0.070610225 0.016586691
0.011211832 -0.070328765 0.015289754
0.012228757 -0.070315354 0.014555305
0.013367691 -0.070951588 0.013417274
0.014435612 -0.071146943 0.011905789
0.015493595 -0.071270533 0.0089938939
0.016484074 -0.071087576 0.0062499344
-0.018890679 -0.07136479 0.0059079826
-0.017810076 -0.071240306 0.0092372298
-0.016797205 -0.071388125 0.011216581
-0.015647689 -0.070936188 0.013081074
-0.014694334 -0.071372479 0.013680667
-0.013445139 -0.070328422 0.015087694
-0.012390704 -0.070213988 0.016225874
-0.011375678 -0.070322372 0.017290056
-0.010230922 -0.069570273 0.018488795
-0.0091487179 -0.069123641 0.018984824
-0.008161814 -0.069375418 0.019510776
-0.0070193126 -0.068187609 0.019936323
-0.0060653309 -0.06874042 0.019994617
-0.0050917165 -0.06924735 0.020188898
-0.0040323706 -0.068550296 0.020430088
-0.0030126655 -0.068287082 0.02066052
-0.002051783 -0.069760621 0.020676553
-0.0010170811 -0.069161519 0.020603448
0 -0.068516485 0.020729214
0.0009977991 -0.067850344 0.020228267
0.0020425376 -0.069446273 0.02009812
0.003071605 -0.069623046 0.020317703
0.004062539 -0.069063164 0.020202011
0.0050622183 -0.068846166 0.020187467
0.0061748065 -0.069981143 0.01932165
0.0070989225 -0.068960965 0.018965364
0.008138461 -0.06917692 0.018402457
0.009061696 -0.068466149 0.017594188
0.010132414 -0.068900414 0.016747504
0.011185057 -0.069143996 0.015791446
0.012284912 -0.0696145 0.014854938
0.013238863 -0.069249436 0.01411882
0.01427987 -0.06935937 0.012196958
0.01541519 -0.069882192 0.009550035
0.016476294 -0.070024252 0.0065854192
-0.018742938 -0.069765382 0.0072660744
-0.017618855 -0.069439016 0.010572821
-0.016481053 -0.069014415 0.011940509
-0.015610239 -0.06972573 0.013318628
-0.014760687 -0.07064043 0.014010131
-0.013461666 -0.069379359 0.015256822
-0.012408876 -0.069282889 0.016141981
-0.011194998 -0.068187714 0.017076373
-0.010156649 -0.06804955 0.018397391
-0.0092230858 -0.068660751 0.019223422
-0.0081072515 -0.067898229 0.019424945
-0.0071286648 -0.068231508 0.019936323
-0.0060926471 -0.068034559 0.019994617
-0.0049724439 -0.066630743 0.020188898
-0.0040240567 -0.067402951 0.020282209
-0.0030566172 -0.068264447 0.020496756
-0.0020206205 -0.06769079 0.020629942
-0.0010265632 -0.068779737 0.020514548
0 -0.067936204 0.020514548
0.0010150042 -0.068005279 0.020130754
0.0020161187 -0.067539975 0.020076543
0.0030414693 -0.067926146 0.020219952
0.0040379269 -0.067635275 0.020192772
0.0050600423 -0.067804568 0.020174831
0.0060754931 -0.067843005 0.019199789
0.0071563413 -0.068496414 0.018755555
0.0081369337 -0.068146825 0.01841712
0.0091004688 -0.067747936 0.017451704
0.010084883 -0.067568719 0.016713798
0.011237811 -0.068448484 0.015943557
0.012311094 -0.068736933 0.015072465
0.01319765 -0.06801866 0.014427334
0.014432123 -0.069068015 0.012842119
0.015271916 -0.068214558 0.009649992
0.016411997 -0.068725236 0.0069206655
-0.019547304 -0.067901164 0.0064710677
-0.018733986 -0.068691283 0.00841102
-0.01758145 -0.068257399 0.011313796
-0.016457502 -0.067887194 0.012827903
-0.015547141 -0.068407416 0.013738781
-0.014425986 -0.068008222 0.014325023
-0.013440956 -0.068238705 0.015358061
-0.012280279 -0.067541532 0.016343951
-0.011295864 -0.06777519 0.017587811
-0.010337158 -0.068225242 0.018383801
-0.0091660246 -0.067217514 0.018955708
-0.0082064103 -0.067702882 0.019344985
-0.007060424 -0.066569708 0.019657671
-0.0060983971 -0.067082368 0.019778252
-0.0050587468 -0.066775456 0.020089358
-0.0040707188 -0.067166865 0.020112634
-0.0030448914 -0.066987611 0.020394266
-0.0019995361 -0.065984689 0.020514548
-0.0010200393 -0.067322597 0.02048853
0 -0.066387102 0.020425409
0.0010179705 -0.06718605 0.020165145
0.0020522291 -0.067723557 0.020076543
0.0030434309 -0.066955484 0.019944698
0.0040904321 -0.067492127 0.020124763
0.0050718281 -0.066948131 0.019789189
0.0060881758 -0.066969939 0.019054115
0.0071996818 -0.067882717 0.018585622
0.0082200374 -0.067815311 0.018436641
0.0091512417 -0.067109108 0.017548054
0.010253215 -0.067671217 0.016811371
0.011374814 -0.06824889 0.016115367
0.012298524 -0.067641884 0.015397847
0.013346085 -0.067757048 0.014749944
0.01430169 -0.067422256 0.013330519
0.015488768 -0.06815058 0.011392027
0.016419563 -0.067730702 0.0079733729
0.017472936 -0.067836106 0.0054059625
-0.020003155 -0.068431847 0.0068142116
-0.018674579 -0.067435972 0.0095250607
-0.017547024 -0.067091562 0.011468232
-0.016406601 -0.066651814 0.013365537
-0.015440138 -0.066907264 0.0139727
-0.014563658 -0.067616984 0.015015692
-0.013470763 -0.067353815 0.015897185
-0.01222894 -0.066240087 0.017063171
-0.011347175 -0.067051485 0.018091172
-0.010184878 -0.066201702 0.018541992
-0.0090732956 -0.065529361 0.018975437
-0.0080354 -0.065287627 0.019137502
-0.0070410999 -0.065381639 0.019824475
-0.0061000953 -0.066084363 0.019748181
-0.0050668526 -0.065869085 0.020001531
-0.0040348526 -0.065566353 0.020057768
-0.0030543203 -0.066176943 0.020394266
-0.0020478079 -0.066553757 0.020530879
-0.0010105859 -0.065688089 0.020362675
0 -0.066000789 0.020302624
0.0010014575 -0.065094732 0.020127863
0.0020280906 -0.065912947 0.020044386
0.0030541378 -0.066172987 0.019944698
0.0040944889 -0.066535451 0.020124763
0.0050960616 -0.066248804 0.019789189
0.0061048414 -0.066135779 0.018931895
0.0071906024 -0.066769876 0.01843515
0.0081454068 -0.066181429 0.018073142
0.0092288069 -0.066652499 0.01746729
0.010154459 -0.066003978 0.016708881
0.011297656 -0.066758879 0.016074002
0.012360332 -0.066951796 0.015397847
0.013285733 -0.066428669 0.014642686
0.014383145 -0.066778883 0.013034552
0.015714716 -0.0680971 0.011336088
0.016179906 -0.06573087 0.0079041123
0.01773308 -0.067802951 0.005366087
-0.019621531 -0.066093579 0.0077774823
-0.018511059 -0.065817103 0.010686517
-0.017496975 -0.065870963 0.012310386
-0.016348768 -0.065395072 0.013650537
-0.015268233 -0.065144457 0.014338613
-0.014490086 -0.066240393 0.015589625
-0.01342062 -0.066070743 0.016110182
-0.012336663 -0.065795533 0.017481476
-0.011237135 -0.065379702 0.017953336
-0.010132276 -0.064846568 0.018499374
-0.0092241904 -0.065594241 0.018975437
-0.0081305839 -0.065044671 0.019137502
-0.0071120374 -0.065024346 0.01969853
-0.0060699875 -0.064746529 0.019700468
-0.005082841 -0.065060362 0.0199821
-0.0040790462 -0.065264739 0.020123035
-0.0030609947 -0.065301217 0.020558178
-0.0020313214 -0.065002285 0.020585537
-0.00100581 -0.064371839 0.020522475
0 -0.064781055 0.020606756
0.0010134791 -0.064862661 0.020257413
0.0020210962 -0.064675078 0.020040274
0.0030215543 -0.064459823 0.019903809
0.0040805065 -0.065288104 0.019884825
0.0050968388 -0.065239541 0.019789636
0.0061360807 -0.065451525 0.018855333
0.0071542109 -0.065409929 0.018384427
0.0082104243 -0.065683395 0.017858505
0.0092077609 -0.065477408 0.017186284
0.010239368 -0.065531954 0.016497582
0.011333511 -0.065940425 0.015866935
0.012322062 -0.065717667 0.015217274
0.013260869 -0.065284282 0.014375806
0.014568433 -0.066598549 0.013279736
0.015577519 -0.066464081 0.01134339
0.016775951 -0.067103803 0.0081404746
0.017967351 -0.067641795 0.0060912073
-0.020647461 -0.065039501 0.0056661665
-0.01978961 -0.06561818 0.0092350841
-0.01883778 -0.065932229 0.011521548
-0.017454037 -0.06468261 0.013358265
-0.01663631 -0.065505475 0.014293134
-0.015482159 -0.065025069 0.015160382
-0.014305674 -0.064375535 0.015758902
-0.013353769 -0.064714417 0.016626477
-0.012258878 -0.064359114 0.017470628
-0.011187907 -0.064076193 0.01794678
-0.010201918 -0.064272083 0.01877588
-0.0092228018 -0.064559609 0.018990397
-0.0081337215 -0.064053059 0.019068807
-0.0071705957 -0.064535365 0.019459635
-0.0061008232 -0.064058639 0.019638568
-0.0050172363 -0.063217178 0.019912004
-0.0040479894 -0.063755833 0.020082384
-0.0030853658 -0.064792678 0.020542115
-0.0020370975 -0.064168572 0.020543694
-0.0010252545 -0.064591035 0.020498484
0 -0.062999658 0.020538062
0.001017219 -0.064084798 0.020055354
0.0020444025 -0.064398676 0.02005589
0.0030234572 -0.063492604 0.019803077
0.004046042 -0.063725159 0.019769311
0.0050771935 -0.063972637 0.019355297
0.0060927882 -0.063974276 0.018756568
0.0071761347 -0.064585209 0.017781943
0.0081960447 -0.064543858 0.017260432
0.0092217065 -0.064551942 0.016971469
0.010243299 -0.064532787 0.016388029
0.011230747 -0.064321555 0.015685648
0.012376437 -0.06497629 0.015104353
0.01352778 -0.065557703 0.014371127
0.014318449 -0.064433023 0.012738794
0.015535084 -0.065247349 0.01092127
0.016625606 -0.065463327 0.0078585148
0.017902769 -0.066345558 0.0054326653
-0.020797504 -0.064472266 0.006755352
-0.019852461 -0.064781718 0.01045993
-0.018525111 -0.063808717 0.012373537
-0.017473025 -0.063725151 0.013792813
-0.01649945 -0.063935369 0.014709949
-0.015414968 -0.063715205 0.015709788
-0.014536825 -0.064377367 0.016103119
-0.013501988 -0.064394094 0.016954362
-0.012237958 -0.063229449 0.017710358
-0.011191484 -0.063079268 0.018244028
-0.010267863 -0.063660748 0.01904121
-0.009141922 -0.062977679 0.019273132
-0.0082444297 -0.063894331 0.019355774
-0.0071456078 -0.063289672 0.019713014
-0.0061824 -0.063884802 0.019706011
-0.0049634525 -0.06154681 0.019999832
-0.004059759 -0.062926263 0.019909471
-0.0029972154 -0.061942451 0.020479053
-0.0020245977 -0.062762529 0.020453781
-0.001015109 -0.06293676 0.020261317
0 -0.063608862 0.020223141
0.0010191882 -0.06318967 0.019886613
0.0020208231 -0.062645517 0.019668281
0.0030516437 -0.063067302 0.01938796
0.0040753447 -0.06316784 0.018967539
0.0050115469 -0.062143181 0.018660814
0.0061670593 -0.063726284 0.018026382
0.0071537038 -0.063361377 0.017576426
0.0081889145 -0.06346409 0.017134786
0.0092394324 -0.063649423 0.016788304
0.010241692 -0.06349849 0.016144246
0.011324706 -0.063830167 0.015445888
0.012468725 -0.064421743 0.014769852
0.013216411 -0.063032113 0.013447016
0.01438264 -0.063694544 0.011560559
0.015792791 -0.065276869 0.0093984008
0.016733058 -0.0648406 0.0071956217
0.017747059 -0.064724565 0.0051353574
-0.02104963 -0.06420137 0.0064965785
-0.019712972 -0.063289016 0.010299683
-0.018605331 -0.063051395 0.012605786
-0.017778391 -0.063793048 0.014157176
-0.016320586 -0.062222235 0.015168339
-0.015511043 -0.06307824 0.015972018
-0.014255918 -0.062115069 0.016546965
-0.013176248 -0.061827011 0.01736936
-0.012323589 -0.062644914 0.017960072
-0.011231146 -0.06228181 0.018561393
-0.010179755 -0.06209651 0.019197196
-0.0091376668 -0.061933078 0.019255847
-0.0081734527 -0.062322576 0.019475013
-0.0070268088 -0.061233621 0.019634962
-0.0061536385 -0.062561996 0.019774169
-0.0051285122 -0.062567852 0.019909471
-0.0041021942 -0.062558465 0.019894779
-0.0030107691 -0.06121897 0.020920396
-0.002036073 -0.062100224 0.020623147
-0.001010739 -0.061655082 0.02058959
0 -0.060455523 0.020528436
0.0010003875 -0.061023634 0.019719601
0.0020140305 -0.061427925 0.019605637
0.0030319588 -0.061649825 0.019283921
0.004018168 -0.061277065 0.018853158
0.0050657988 -0.061802745 0.018494606
0.0060988422 -0.062004894 0.017836452
0.0071806596 -0.06257432 0.017202884
0.0081895245 -0.062445126 0.016945928
0.0092373826 -0.062608927 0.016586095
0.01020654 -0.062259894 0.015740067
0.011188964 -0.062047891 0.015071779
0.012194313 -0.061987758 0.014492333
0.013451577 -0.063118942 0.013301015
0.014588185 -0.063562803 0.011411041
0.015478184 -0.062944613 0.0093069375
0.01689592 -0.064415693 0.0069691837
0.017724611 -0.063600078 0.0050970018
-0.021155713 -0.063467138 0.0065315068
-0.019547896 -0.061730199 0.010142267
-0.018788392 -0.062627971 0.012096435
-0.017545858 -0.061926562 0.013882548
-0.016520316 -0.061951183 0.015187889
-0.01537153 -0.061486121 0.016038418
-0.014132483 -0.060567785 0.016789228
-0.013253102 -0.061168164 0.017884284
-0.012279873 -0.061399363 0.018255621
-0.011148205 -0.06080839 0.01883319
-0.010272985 -0.061637912 0.019075602
-0.0091355462 -0.060903642 0.019454777
-0.0081447838 -0.061085876 0.019385219
-0.0071534454 -0.061315246 0.019612402
-0.0060780658 -0.060780659 0.019815207
-0.005050309 -0.060603708 0.020039409
-0.004073245 -0.061098672 0.020410359
-0.0030767408 -0.061534818 0.020665079
-0.0020011337 -0.060034011 0.020436287
-0.0010120862 -0.060725171 0.020452172
0 -0.060721703 0.020243436
0.0010352279 -0.062113672 0.019930929
0.0020135569 -0.060406711 0.019639611
0.0030367309 -0.060734618 0.019254059
0.0040483987 -0.060725983 0.018675178
0.0051191202 -0.061429441 0.018458307
0.0060678362 -0.060678359 0.017740965
0.0071619698 -0.06138831 0.017283976
0.0081783943 -0.061337955 0.016692221
0.0091212997 -0.060808662 0.016334265
0.01034726 -0.062083561 0.015813559
0.011274768 -0.061498731 0.015024334
0.012352919 -0.061764598 0.014105916
0.013422435 -0.0619497 0.012851626
0.014512507 -0.06219646 0.011094213
0.015739411 -0.062957644 0.008192867
0.01669167 -0.062593766 0.0061732829
-0.021225192 -0.062614314 0.0065483153
-0.019516746 -0.060604632 0.010142267
-0.018423773 -0.060389038 0.012375712
-0.017400058 -0.060388435 0.013864964
-0.016364574 -0.060344368 0.015500456
-0.015190803 -0.059750494 0.016036212
-0.01432679 -0.060377188 0.016651183
-0.013192193 -0.059872258 0.017432243
-0.012154249 -0.059758388 0.018158048
-0.011284844 -0.060527798 0.018789917
-0.010218825 -0.06029107 0.018995553
-0.0091481656 -0.059971306 0.01916942
-0.0081560034 -0.060150526 0.019278169
-0.0070323972 -0.059273064 0.019495428
-0.0061274027 -0.060252793 0.019562125
-0.005046051 -0.059543401 0.019758701
-0.0040403651 -0.059595384 0.019826412
-0.0029943446 -0.058888778 0.020551592
-0.0020395042 -0.060165375 0.020372719
-0.0010059967 -0.059353806 0.020381629
0 -0.059698969 0.020162642
0.0010004542 -0.059026796 0.020089358
0.0019926066 -0.058781892 0.019859582
0.0030740087 -0.060455505 0.019418627
0.0040354924 -0.059523512 0.019040018
