ply
format ascii 1.0
comment PCL generated
element vertex 1271
property float x
property float y
property float z
element camera 0
property float view_px
property float view_py
property float view_pz
property float x_axisx
property float x_axisy
property float x_axisz
property float y_axisx
property float y_axisy
property float y_axisz
property float z_axisx
property float z_axisy
property float z_axisz
property float focal
property float scalex
property float scaley
property float centerx
property float centery
property int viewportx
property int viewporty
property float k1
property float k2
end_header
-0.035632696 -0.056593105 0.014428556
-0.033844303 -0.055381589 0.016202927
-0.03284866 -0.055432111 0.017164379
-0.031506289 -0.054881923 0.018067062
-0.030685326 -0.055233587 0.018673509
-0.029607985 -0.05513211 0.019204795
-0.028428677 -0.054826733 0.019328594
-0.027741451 -0.055482902 0.019278675
-0.026503364 -0.055045448 0.019044161
-0.025468277 -0.055011477 0.019107461
-0.024399258 -0.054898329 0.018955559
-0.023541357 -0.055271015 0.018912554
-0.022411207 -0.055009328 0.018405497
-0.021571735 -0.055470176 0.018282384
-0.020581216 -0.05556928 0.018282384
-0.019463163 -0.055316359 0.018048048
-0.018574595 -0.055723786 0.017880797
-0.017183367 -0.054582458 0.0176799
-0.01622393 -0.054755762 0.017587036
-0.015255247 -0.054918889 0.018064737
-0.014099689 -0.054384515 0.01836592
-0.013183934 -0.054764032 0.018506944
-0.012255522 -0.05514985 0.01867485
-0.011262508 -0.055288676 0.018818706
-0.010177785 -0.054960035 0.018896967
-0.0091353273 -0.054811962 0.018909454
-0.0081309574 -0.054883964 0.018685877
-0.0070978603 -0.054754924 0.018735647
-0.0061035035 -0.054931533 0.018950373
-0.0050145257 -0.054156877 0.01910907
-0.00409558 -0.055290334 0.019312084
-0.0030127049 -0.054228686 0.019367158
-0.0020394574 -0.055065349 0.019316733
-0.0010113897 -0.054615043 0.019545645
0 -0.054730389 0.019213825
0.0010270509 -0.055460747 0.019493461
0.0020453073 -0.055223301 0.019306839
0.00293757 -0.052876256 0.01925844
0.0040619439 -0.054836243 0.019467562
0.0051302994 -0.055407234 0.01958099
0.0060281921 -0.054253731 0.01958099
0.0071861469 -0.055435989 0.01968646
0.0081743365 -0.055176772 0.019474387
0.0090996874 -0.054598127 0.020066738
0.010160118 -0.054864638 0.019736677
0.011078908 -0.054387368 0.01998964
0.012126148 -0.054567665 0.019813776
0.013229857 -0.054954793 0.019898564
0.014161077 -0.054621298 0.020382196
0.015217796 -0.054784067 0.020990491
0.016007649 -0.054025814 0.020896852
0.016928751 -0.053773683 0.021010071
0.018204222 -0.054612666 0.020987719
0.019006334 -0.054018006 0.021178693
0.020321941 -0.054869242 0.021068007
0.021008162 -0.054020986 0.021269858
0.022144821 -0.054355469 0.021379441
0.022775955 -0.053473983 0.021197855
0.024282465 -0.054635547 0.021584213
0.025144411 -0.054311927 0.021586299
0.026130233 -0.054270484 0.021375299
0.027331049 -0.054662097 0.021061122
0.027952086 -0.053907596 0.020751268
0.02905277 -0.05409826 0.020468116
0.030362649 -0.054652765 0.019904852
0.031041078 -0.054071557 0.018974185
0.032485161 -0.054818712 0.018177211
0.033637874 -0.055043794 0.017284334
0.034550916 -0.054874983 0.016013384
0.036018457 -0.055571336 0.015393794
0.037190173 -0.055785257 0.013779521
0.037175097 -0.054255549 0.012988538
0.039148413 -0.055631954 0.012554318
0.040386684 -0.055920023 0.012298495
0.042105805 -0.056842837 0.012027591
0.043070603 -0.056727134 0.011737078
0.042572357 -0.054735884 0.011692375
0.043759529 -0.054953828 0.011669129
0.045271572 -0.055560566 0.011734754
0.045214098 -0.054256916 0.011828542
0.04717502 -0.055379372 0.012511313
0.047683273 -0.054785036 0.012647718
0.047829729 -0.053808443 0.012187213
0.05060178 -0.055765226 0.011898607
0.051446423 -0.055562135 0.011152446
0.051713001 -0.054754943 0.010317326
0.054960255 -0.057074107 0.0096334219
0.055336371 -0.056380451 0.0073928237
0.055761911 -0.055761911 0.0062866509
-0.04612295 -0.055557191 0.0056650639
-0.044646464 -0.055029362 0.0070936084
-0.043731626 -0.05518515 0.0081647635
-0.042552203 -0.055006504 0.0094791353
-0.041636314 -0.055168115 0.010855585
-0.040489409 -0.055024069 0.011224031
-0.039665803 -0.055323359 0.012104601
-0.038186356 -0.054699373 0.012481362
-0.037556015 -0.055290803 0.013684452
-0.036406081 -0.055129208 0.015388459
-0.035276428 -0.054989729 0.016178221
-0.034294102 -0.055078406 0.017168015
-0.032493718 -0.053817719 0.01784128
-0.031740613 -0.054266211 0.01865086
-0.030540219 -0.053954385 0.019011438
-0.029397178 -0.05372588 0.019154221
-0.028562136 -0.054064043 0.019184947
-0.027430207 -0.053844478 0.019219905
-0.026175119 -0.053356972 0.019160241
-0.025494745 -0.054048859 0.019263327
-0.024300564 -0.053663746 0.019160241
-0.023283048 -0.053652242 0.018903524
-0.02260319 -0.054453138 0.018746376
-0.02144191 -0.054115295 0.018326491
-0.020526947 -0.05439641 0.018495083
-0.019563112 -0.05457079 0.018229872
-0.018370137 -0.054089844 0.018049181
-0.017230356 -0.053718172 0.017888159
-0.01621555 -0.053714007 0.017603874
-0.015100322 -0.053354472 0.018128604
-0.014059095 -0.053223714 0.018566668
-0.013299861 -0.054222513 0.018638343
-0.012170297 -0.053752147 0.018813193
-0.011199794 -0.053962644 0.018941641
-0.010125029 -0.05366265 0.019117534
-0.0090044923 -0.053026453 0.019063711
-0.0081691761 -0.05412079 0.018806428
-0.0070246672 -0.053186767 0.018720388
-0.0060542934 -0.053479593 0.018973082
-0.0050850278 -0.053901292 0.019289434
-0.0040537543 -0.053712245 0.01958102
-0.0030239283 -0.05342273 0.019560009
-0.0020100111 -0.053265296 0.019361377
-0.0010187882 -0.053995773 0.019345134
0 -0.053572811 0.019198567
0.00099812832 -0.052900802 0.019620121
0.0020123268 -0.053326663 0.01950404
0.0030306927 -0.053542238 0.01916489
0.0040569231 -0.053754233 0.01961866
0.0050356677 -0.053378075 0.019857407
0.0059994506 -0.052995145 0.01958099
0.0071116812 -0.053845584 0.019514799
0.0081389537 -0.053920567 0.019244283
0.0091574825 -0.053927395 0.019949496
0.010133558 -0.053707857 0.019864231
0.011026901 -0.053129617 0.019962251
0.012107432 -0.053474493 0.020135641
0.013215926 -0.053880312 0.02002722
0.013848481 -0.052426394 0.020373225
0.015112197 -0.05339643 0.020911574
0.01601484 -0.053049162 0.020745277
0.017070951 -0.0532212 0.021003485
0.018529037 -0.054557722 0.020834118
0.019054199 -0.053151187 0.021147579
0.020156873 -0.053415716 0.020974547
0.021216972 -0.053547595 0.021053642
0.022173457 -0.053417873 0.021051526
0.023395 -0.053910218 0.021099538
0.023720935 -0.052383728 0.020952135
0.025087219 -0.053184904 0.020892441
0.026450247 -0.05391781 0.020645887
0.027152753 -0.053299848 0.020602971
0.028218282 -0.053413175 0.020324379
0.029074598 -0.053136334 0.01944831
0.030086244 -0.053152364 0.018641979
0.031194367 -0.053332306 0.01821962
0.032526765 -0.053872455 0.017806798
0.033584569 -0.053938854 0.016569853
0.034568258 -0.05388581 0.015907347
0.035517868 -0.053784199 0.015070021
0.036603294 -0.053888183 0.013143301
0.038092051 -0.05456429 0.013081014
0.038556866 -0.053776681 0.012563705
0.039361022 -0.05349062 0.012432486
0.041757595 -0.055328816 0.012354255
0.04226635 -0.054636989 0.012247354
0.043123219 -0.054417398 0.012704402
0.044458866 -0.054798137 0.012637109
0.044425063 -0.053512007 0.01266408
0.044795439 -0.052759074 0.012724072
0.046287719 -0.053331506 0.013637781
0.04760189 -0.053678729 0.013816565
0.049120381 -0.05423709 0.013159841
0.049921274 -0.053996481 0.012820333
0.050652444 -0.053691592 0.012226343
0.052025612 -0.054065831 0.011989176
0.053412348 -0.054439507 0.010697782
0.053294849 -0.053294849 0.0096687078
0.056073096 -0.055034708 0.0075287223
0.057627037 -0.055531509 0.0062964857
-0.047159165 -0.054495037 0.0052958131
-0.046051871 -0.054424938 0.0066199899
-0.044636879 -0.053979483 0.0078615248
-0.043434594 -0.053776164 0.0088872612
-0.041909162 -0.053153083 0.010117173
-0.040909354 -0.053182162 0.01127544
-0.040189721 -0.053586293 0.011927724
-0.03876736 -0.053050075 0.012400746
-0.038247697 -0.053753518 0.013616323
-0.036927365 -0.05333953 0.015123636
-0.036043383 -0.053550169 0.016670853
-0.035221346 -0.05386794 0.016978115
-0.033857781 -0.053351656 0.017531514
-0.033310831 -0.0541301 0.018467844
-0.031905077 -0.053518195 0.018703461
-0.030502476 -0.052870959 0.01898253
-0.029692095 -0.053241 0.019098252
-0.028329426 -0.052611791 0.019108921
-0.027516071 -0.052993916 0.019090623
-0.02645072 -0.052901439 0.018970609
-0.025113501 -0.052236084 0.019142807
-0.024347717 -0.052753385 0.018970609
-0.023213485 -0.052482661 0.018806636
-0.022426883 -0.053008996 0.018688828
-0.021557333 -0.053380065 0.018259883
-0.020596722 -0.053551476 0.01823929
-0.019380718 -0.053041968 0.018153876
-0.01838691 -0.053117737 0.01807344
-0.017514305 -0.053573169 0.017888159
-0.016266508 -0.052866153 0.017671227
-0.015279645 -0.052969437 0.018017918
-0.014180428 -0.052670162 0.018601418
-0.013206663 -0.05282665 0.018682122
-0.012226805 -0.052982818 0.01882109
-0.011319289 -0.053509366 0.018942267
-0.0099936016 -0.051966727 0.019158423
-0.009186713 -0.053078789 0.019081801
-0.0080615906 -0.052400339 0.018759847
-0.0070478236 -0.05235526 0.018720388
-0.0061070533 -0.052927796 0.018932194
-0.0050613517 -0.052638058 0.019288361
-0.0040533398 -0.052693415 0.019468069
-0.0030492132 -0.052853025 0.019375741
-0.0020360099 -0.052936256 0.019450814
-0.0010107616 -0.052559603 0.019190639
0 -0.053573947 0.019094765
0.00099845009 -0.051919404 0.019655138
0.0020118747 -0.052308738 0.019711256
0.0030495788 -0.052859362 0.019198775
0.0040277429 -0.052360654 0.019574106
0.005131437 -0.053366944 0.01950404
0.0059304452 -0.051397193 0.019530267
0.0071369773 -0.053017545 0.01934585
0.0082395235 -0.053556904 0.019138128
0.0091401003 -0.052809469 0.019741893
0.010283016 -0.053471681 0.019668549
0.011236857 -0.053119686 0.020003378
0.012008222 -0.052035626 0.019805372
0.013037985 -0.052151941 0.019698977
0.014057633 -0.052214064 0.020189464
0.01519377 -0.052671734 0.020476937
0.016381485 -0.05323983 0.020479649
0.017241016 -0.052737229 0.020489872
0.018284984 -0.052823287 0.020753741
0.019325197 -0.05289001 0.021053642
0.020141399 -0.052367635 0.020605296
0.020952767 -0.051883042 0.020974547
0.022440271 -0.053040642 0.020752162
0.023402419 -0.052909814 0.020627409
0.024122858 -0.052266192 0.020916671
0.025508894 -0.053058498 0.020708114
0.026224591 -0.052449182 0.020276636
0.027158143 -0.052304573 0.019998908
0.02847413 -0.052880526 0.019478142
0.029157946 -0.052283213 0.018902898
0.029950008 -0.051913347 0.018241704
0.031692214 -0.053161129 0.017878324
0.032187119 -0.05230407 0.017440945
0.033968028 -0.053525377 0.016471148
0.03452551 -0.052803718 0.015860885
0.035597119 -0.052887149 0.014811963
0.036894586 -0.053292181 0.013088763
0.037807576 -0.053134974 0.012879908
0.038006492 -0.052008882 0.01280582
0.039905827 -0.053207774 0.012940586
0.041268378 -0.053648893 0.012959301
0.042160235 -0.053471517 0.012988538
0.043393862 -0.053725734 0.013037354
0.043680564 -0.052823007 0.013572574
0.044465806 -0.052550498 0.013761729
0.045600187 -0.05269355 0.014065057
0.046291284 -0.052329279 0.014215171
0.047872987 -0.052965861 0.014312118
0.048380561 -0.052412271 0.013744742
0.049086209 -0.052091487 0.013617694
0.051460695 -0.053519122 0.012750715
0.05234411 -0.053370465 0.012446761
0.053139873 -0.053139873 0.011981606
0.054557435 -0.053528048 0.010712922
0.055519659 -0.053463373 0.0096334219
0.056063976 -0.053005941 0.0074464381
0.057371512 -0.053273547 0.006044507
-0.047290623 -0.053596038 0.005972892
-0.046031147 -0.053354286 0.0070305169
-0.044410728 -0.052673187 0.007996738
-0.043137249 -0.052380942 0.0090947747
-0.042570945 -0.0529541 0.010335416
-0.040737588 -0.051940426 0.011575401
-0.040339269 -0.052751355 0.012205452
-0.039572548 -0.053110521 0.013197958
-0.037794545 -0.052095182 0.014524072
-0.036718011 -0.052017178 0.015575588
-0.03575905 -0.052106045 0.016946077
-0.034887273 -0.052330911 0.017208487
-0.033759963 -0.052174486 0.017899483
-0.033089615 -0.052736577 0.018378258
-0.031858373 -0.052412163 0.01858744
-0.030856585 -0.052456193 0.01875332
-0.02968364 -0.052202262 0.018986076
-0.028503403 -0.051916916 0.019007683
-0.027445791 -0.051842049 0.018933922
-0.026523778 -0.052027412 0.019150168
-0.025407299 -0.051830892 0.019187152
-0.024571415 -0.052214257 0.019401282
-0.023264134 -0.051585689 0.019035608
-0.022357525 -0.051828809 0.018802643
-0.021636851 -0.052546639 0.018449396
-0.02041922 -0.052069012 0.018286586
-0.019343933 -0.051923189 0.018174469
-0.018430972 -0.052221086 0.018252432
-0.017431702 -0.052295111 0.01791063
-0.016327119 -0.052042689 0.017603874
-0.015136386 -0.051463716 0.017973214
-0.014137954 -0.051502544 0.018647164
-0.013173554 -0.051680867 0.01856941
-0.012314684 -0.052337404 0.018906474
-0.011275196 -0.052275907 0.018941641
-0.010266082 -0.052357022 0.01912269
-0.009112238 -0.051636014 0.019017935
-0.0081479736 -0.051943328 0.018775076
-0.0070880037 -0.05164117 0.018711179
-0.0060650739 -0.051553126 0.018860698
-0.0050736004 -0.051750727 0.019150555
-0.0040304698 -0.051388491 0.019150555
-0.0030757627 -0.052287966 0.019177496
-0.0020272569 -0.051695053 0.019087762
-0.0010222932 -0.052136958 0.018821925
0 -0.051185891 0.018811017
0.0010119923 -0.05161161 0.019191235
0.0020043391 -0.051110648 0.019530147
0.0030635118 -0.0520797 0.018985152
0.0040504611 -0.051643383 0.01902914
0.0050443457 -0.051452328 0.019187868
0.006055566 -0.051472314 0.019239157
0.0071767368 -0.052287657 0.019128412
0.0081738112 -0.052108049 0.019028544
0.0090617817 -0.051350094 0.019467562
0.010050988 -0.051260035 0.019482642
0.011026542 -0.051123057 0.01965788
0.012376827 -0.052601516 0.019482642
0.013018329 -0.051071905 0.019468725
0.014030498 -0.051111102 0.019682646
0.014985634 -0.050951157 0.020010471
0.015960719 -0.050874792 0.019800425
0.017125266 -0.051375799 0.019840807
0.018426588 -0.052208666 0.019940794
0.019149592 -0.051401537 0.020199358
0.020049091 -0.051125184 0.019911885
0.021335185 -0.05181402 0.019911885
0.022033503 -0.051077668 0.020052493
0.022900239 -0.050778791 0.019750148
0.024337778 -0.051717777 0.020130903
0.025387529 -0.051790558 0.020148367
0.026515871 -0.0520119 0.019680858
0.027261889 -0.05149468 0.0193564
0.028295698 -0.05153859 0.018860608
0.029211156 -0.051371343 0.018560648
0.030253019 -0.051430132 0.01773411
0.030984251 -0.050974093 0.017440945
0.033245157 -0.052984469 0.016831368
0.033282861 -0.051437147 0.016257614
0.034352452 -0.051528677 0.015512884
0.035697415 -0.052016236 0.014227778
0.036451381 -0.051639456 0.013090402
0.037352148 -0.051485397 0.012565792
0.038465753 -0.051625088 0.01280582
0.039593998 -0.051776767 0.013059407
0.040890429 -0.052135296 0.013043076
0.042894125 -0.053356107 0.013060838
0.042989578 -0.052201629 0.014418453
0.043404825 -0.051480144 0.014289171
0.044522278 -0.05160537 0.014009148
0.045235455 -0.051266849 0.01423341
0.046453342 -0.051502615 0.014312118
0.048032865 -0.052120771 0.014385283
0.048137072 -0.051145639 0.01371944
0.050032403 -0.052074544 0.013746619
0.050762739 -0.051777996 0.013325334
0.051524483 -0.051524483 0.012835413
0.053847685 -0.052812152 0.01238957
0.054026466 -0.051987734 0.011876136
0.054597195 -0.051564019 0.010583162
0.057595663 -0.053406887 0.0096334219
0.057081457 -0.051984899 0.0078451037
0.059484016 -0.053222541 0.0060352087
-0.048509374 -0.05272758 0.0053718388
-0.048255909 -0.053617679 0.0062616467
-0.046207421 -0.052508432 0.0071357489
-0.045148533 -0.052498292 0.0079731345
-0.043628912 -0.051939182 0.0090658069
-0.041959614 -0.051170263 0.010745734
-0.041480217 -0.051850274 0.011649698
-0.04117712 -0.052791182 0.012343794
-0.039575115 -0.052072521 0.013856083
-0.037576918 -0.050779618 0.015214384
-0.036735702 -0.051021807 0.016768366
-0.035455324 -0.050650463 0.017088503
-0.034245241 -0.050360646 0.017500013
-0.033806268 -0.051221617 0.018254489
-0.032702893 -0.051098268 0.018538564
-0.031702194 -0.051132575 0.018921435
-0.030645236 -0.051075395 0.019019008
-0.029440504 -0.050759491 0.019080043
-0.028554641 -0.050990429 0.019161314
-0.027508341 -0.05094137 0.019172996
-0.026220273 -0.050423604 0.019206554
-0.025337476 -0.050674953 0.01927799
-0.024261972 -0.050545774 0.019463241
-0.023387428 -0.050842233 0.019201815
-0.022494229 -0.05112325 0.019054204
-0.021487422 -0.051160529 0.018594772
-0.020524055 -0.051310133 0.018688828
-0.019322062 -0.05084753 0.018269449
-0.018575767 -0.051599354 0.018475026
-0.017301358 -0.050886348 0.018058598
-0.016328186 -0.051025581 0.017852128
-0.015194027 -0.050646756 0.018034756
-0.01421052 -0.050751857 0.018701971
-0.013186298 -0.050716531 0.018656224
-0.012112962 -0.050470676 0.018818915
-0.011391222 -0.051778279 0.018913418
-0.01012538 -0.0506269 0.018886566
-0.0090195946 -0.050108861 0.018838823
-0.0081372941 -0.050858088 0.018711179
-0.0070880419 -0.050628871 0.018572152
-0.0060555972 -0.050463311 0.018624127
-0.005075152 -0.050751522 0.018998116
-0.0040990016 -0.051237524 0.018998116
-0.0030659069 -0.051098451 0.019037396
-0.0020286092 -0.050715227 0.018730611
-0.0010216897 -0.051084485 0.018705904
0 -0.050395843 0.018626451
0.0010162647 -0.050813232 0.018711358
0.0020269023 -0.050672557 0.01892513
0.0030697472 -0.051162455 0.01869753
0.0040470697 -0.050588369 0.018516988
0.0051010563 -0.051010564 0.018828332
0.0061020409 -0.050850343 0.01887393
0.0070752427 -0.050537448 0.018928885
0.0081065781 -0.050666112 0.01877287
0.0092071714 -0.051150955 0.018999994
0.01005774 -0.0502887 0.018888772
0.011018552 -0.050084326 0.019171029
0.01236594 -0.051524751 0.018936485
0.013191842 -0.050737854 0.018903762
0.014255721 -0.050913289 0.019369364
0.015187631 -0.05062544 0.019499928
0.015764909 -0.049265344 0.019336492
0.01708808 -0.050259061 0.019514322
0.018340105 -0.050944734 0.019369245
0.019109199 -0.050287362 0.019598603
0.019934731 -0.049836826 0.018904358
0.020992709 -0.049982641 0.018904865
0.022350954 -0.050797619 0.019047767
0.023400025 -0.050869618 0.019034743
0.024714675 -0.051488906 0.019306123
0.025673606 -0.051347211 0.019301862
0.025737906 -0.049495973 0.018994629
0.027140511 -0.050260209 0.018776536
0.028314572 -0.050561734 0.017959148
0.029338244 -0.05058318 0.01732561
0.030247696 -0.050412826 0.016889095
0.031630602 -0.051017102 0.016613156
0.032699004 -0.051092196 0.0161452
0.03310059 -0.05015241 0.015575439
0.034672715 -0.050989285 0.014890105
0.03559985 -0.050856926 0.013458341
0.03628765 -0.050399516 0.012576818
0.038057521 -0.051429082 0.012429714
0.03850745 -0.050667699 0.012444556
0.039854474 -0.051095482 0.012830377
0.041948467 -0.052435584 0.013016909
0.042464312 -0.051785745 0.013116807
0.043257169 -0.051496632 0.014319211
0.044098262 -0.051277049 0.014085084
0.0445145 -0.050584659 0.013953596
0.045001235 -0.050001372 0.014142931
0.046798982 -0.050868459 0.014312118
0.046991713 -0.049991183 0.014191985
0.048241857 -0.050251935 0.013938338
0.04936561 -0.050373074 0.014086932
0.049849652 -0.049849652 0.013481349
0.052912448 -0.051874951 0.013394386
0.053008746 -0.050969947 0.012750715
0.053162012 -0.050152842 0.012250483
0.055112865 -0.051030431 0.011662871
0.056267496 -0.05115227 0.010719806
0.056966804 -0.050863218 0.0097282827
0.058937471 -0.051699538 0.0087470412
0.060489196 -0.052145857 0.0065443218
0.060367998 -0.051159322 0.005300045
-0.049150165 -0.052355614 0.0059531629
-0.047688998 -0.051928021 0.0066610575
-0.046130147 -0.051372208 0.0075119734
-0.045289312 -0.051608752 0.0083681941
-0.044227317 -0.051598534 0.0092265606
-0.041909866 -0.0500874 0.010697007
-0.040902767 -0.050105888 0.011846274
-0.039982226 -0.050234079 0.012167782
-0.038744941 -0.04996058 0.013807893
-0.038376439 -0.050822854 0.015202194
-0.036617644 -0.049840681 0.016936153
-0.035189599 -0.049265437 0.017336667
-0.034614865 -0.049886126 0.017900318
-0.033527579 -0.049783371 0.018362045
-0.032811768 -0.05024302 0.018750429
-0.031607974 -0.049960993 0.018937945
-0.030415434 -0.049678545 0.019072592
-0.029616799 -0.050042178 0.01908645
-0.028331567 -0.049580242 0.019193411
-0.027422931 -0.049767539 0.019084841
-0.02628825 -0.049543239 0.019238859
-0.025348099 -0.049682274 0.019206554
-0.024654798 -0.050336879 0.019298583
-0.023692561 -0.050475456 0.019018233
-0.022530377 -0.050181292 0.01885891
-0.021449065 -0.050047815 0.018685877
-0.020777328 -0.050904457 0.018471211
-0.019142723 -0.049368076 0.01784128
-0.018579062 -0.050576337 0.018198162
-0.017558124 -0.050608713 0.017781734
-0.016261907 -0.049802095 0.017562836
-0.015169342 -0.049553182 0.017798215
-0.014090247 -0.049315866 0.018419027
-0.013032626 -0.049122978 0.018360257
-0.012320609 -0.050309151 0.01861164
-0.011219627 -0.049978338 0.018464655
-0.010063821 -0.049312726 0.018479317
-0.0091534164 -0.049835265 0.018515259
-0.0081226621 -0.049751304 0.018453509
-0.0071494738 -0.050046317 0.018279314
-0.0061199577 -0.049979653 0.018189102
-0.0050510713 -0.049500495 0.01839143
-0.0040643779 -0.049788631 0.01839143
-0.0030609686 -0.049995817 0.018533677
-0.0020149527 -0.04936634 0.018221825
-0.0010052912 -0.049259268 0.018286318
0 -0.049773194 0.018355519
0.00098761276 -0.048393026 0.018560976
0.0020140992 -0.04934543 0.018563896
0.0030798048 -0.050303478 0.018167049
0.004060233 -0.049737852 0.01820448
0.0050013922 -0.049013644 0.018441647
0.0060625398 -0.04951074 0.018585593
0.0070142238 -0.049099568 0.018566996
0.008165082 -0.050011124 0.018312871
0.0090086116 -0.049046885 0.01877287
0.01002482 -0.049121615 0.018493205
0.011134498 -0.049599126 0.018585593
0.012164134 -0.049670212 0.018362671
0.012964508 -0.048866227 0.018220484
0.014107306 -0.049375571 0.018497139
0.01494273 -0.048812918 0.018643588
0.01622195 -0.049679723 0.018406004
0.017182279 -0.049525395 0.018415838
0.018143879 -0.049391672 0.018373519
0.019346345 -0.049893208 0.01850909
0.020062549 -0.049153242 0.018275976
0.021478467 -0.050116424 0.018331081
0.022245148 -0.049546015 0.018321991
0.023442002 -0.049941659 0.018365651
0.024225434 -0.049460262 0.018530309
0.025763342 -0.05049615 0.01855278
0.026367329 -0.049692273 0.018114239
0.027358884 -0.049651306 0.017844468
0.028529083 -0.049925897 0.016654164
0.029331159 -0.049559545 0.01651305
0.030105408 -0.049172167 0.016122669
0.031888708 -0.050404731 0.015756577
0.03248509 -0.049742792 0.014956027
0.033798236 -0.050185263 0.014359862
0.034881275 -0.050270073 0.013534933
0.035516925 -0.049723696 0.012689292
0.036814358 -0.050108433 0.012321502
0.037556671 -0.049737211 0.01204741
0.038385186 -0.049496688 0.012292266
0.039525546 -0.049660303 0.012670457
0.041902408 -0.051330447 0.012591362
0.042633392 -0.050952103 0.013029993
0.043211326 -0.050413214 0.013883621
0.043746397 -0.049850546 0.013999611
0.044541106 -0.049602594 0.013729751
0.045617223 -0.049672086 0.014121801
0.046121981 -0.049129937 0.014051676
0.047478206 -0.049498558 0.014095157
0.048950661 -0.049970467 0.013854653
0.049407043 -0.049407043 0.013934731
0.051757991 -0.05072283 0.013477743
0.052819937 -0.050748568 0.013474762
0.052832659 -0.049784623 0.012962133
0.054260507 -0.050165374 0.012489289
0.055416204 -0.050285075 0.011952013
0.056134589 -0.050010819 0.011161536
0.056946453 -0.049828146 0.010465622
0.058455862 -0.050251532 0.0098505616
0.059621435 -0.050369833 0.0088968575
0.062054522 -0.051536806 0.007346034
0.062063303 -0.050685033 0.0058423877
-0.048578836 -0.05069096 0.0061828196
-0.047377996 -0.050536528 0.0063544214
-0.046431195 -0.050652213 0.0073103011
-0.045917232 -0.051256444 0.0082131028
-0.043475885 -0.049686726 0.0089913309
-0.042625688 -0.049903244 0.010048896
-0.041055355 -0.049266428 0.011679053
-0.039671972 -0.048827041 0.012219965
-0.039122894 -0.049418394 0.013899118
-0.037426129 -0.048552815 0.016183078
-0.036768209 -0.04902428 0.017185599
-0.035844017 -0.049157508 0.017815769
-0.034534074 -0.048753984 0.018199533
-0.033832096 -0.049210321 0.018737704
-0.032786272 -0.049179412 0.018937945
-0.031675592 -0.049046077 0.01909402
-0.030593948 -0.048950318 0.019238859
-0.029505512 -0.048836712 0.019151241
-0.028455665 -0.048781142 0.019032776
-0.027468722 -0.048833285 0.019094974
-0.026541132 -0.048999015 0.019241065
-0.025498509 -0.048957139 0.019102484
-0.024634195 -0.049268391 0.019022167
-0.023065284 -0.048136245 0.018743515
-0.022218203 -0.048476078 0.01865989
-0.021093506 -0.048213728 0.01819852
-0.020286459 -0.048687503 0.017971963
-0.019040765 -0.048102982 0.017634809
-0.018460559 -0.049228154 0.017730176
-0.017578728 -0.049634058 0.017575264
-0.016352437 -0.049057309 0.017425537
-0.015337373 -0.049079593 0.017493218
-0.014250499 -0.048858855 0.017577827
-0.013026981 -0.048099622 0.017680585
-0.01231395 -0.0492558 0.017838687
-0.011182012 -0.048794236 0.01802966
-0.010166742 -0.04880036 0.018012106
-0.0091390917 -0.048741821 0.018236399
-0.0081162667 -0.048697598 0.018089235
-0.0071251062 -0.048857871 0.017895997
-0.0060496954 -0.048397563 0.017593652
-0.0050479867 -0.04846067 0.017883241
-0.0040799556 -0.048959468 0.01801002
-0.003023091 -0.048369456 0.017908514
-0.0020415173 -0.048996419 0.017594427
-0.0010090023 -0.048432112 0.017906487
0 -0.048353255 0.018001467
0.0010085145 -0.048408702 0.018280178
0.0020005505 -0.04801321 0.018233389
0.0030646056 -0.04903369 0.018003732
0.0040660566 -0.048792675 0.017955333
0.0049315556 -0.047342934 0.018237948
0.0059776446 -0.047821157 0.018414289
0.0070909718 -0.048623804 0.018408686
0.0081450352 -0.048870213 0.017963439
0.009016769 -0.048089433 0.018484026
0.0099826902 -0.047916912 0.018312871
0.011125703 -0.048548523 0.018440455
0.011988551 -0.047954205 0.01802063
0.01301906 -0.048070375 0.017659128
0.014096966 -0.048332453 0.017871052
0.015268838 -0.048860282 0.018113017
0.016101956 -0.048305869 0.017685354
0.017170763 -0.048482154 0.017659932
0.018446306 -0.049190152 0.017342836
0.019265221 -0.048670035 0.017637193
0.020380227 -0.048912544 0.017291248
0.021561425 -0.049283259 0.017457068
0.022198116 -0.048432253 0.01743269
0.023170272 -0.048355352 0.017434806
0.024309965 -0.04861993 0.017669111
0.025700819 -0.049345572 0.017295241
0.026297551 -0.048549324 0.016606033
0.027059793 -0.048106302 0.016509354
0.028559538 -0.048959211 0.015565723
0.029341526 -0.048565283 0.01513508
0.030913113 -0.049460977 0.014738858
0.031875316 -0.049355332 0.014469594
0.033258814 -0.049888223 0.013467699
0.033779964 -0.049134497 0.013194531
0.035075184 -0.049517907 0.012670457
0.035850391 -0.049166251 0.012120992
0.036470938 -0.048627917 0.011602521
0.037217245 -0.04828183 0.011539936
0.038693935 -0.04887655 0.011668414
0.039963033 -0.049185272 0.01205349
0.041567333 -0.049880799 0.012245536
0.042414334 -0.049655806 0.012803376
0.042523507 -0.048598293 0.013578445
0.043078847 -0.048088014 0.013673246
0.04478341 -0.04885463 0.01343748
0.04574775 -0.0487976 0.013763666
0.046224695 -0.048234463 0.01400888
0.047497768 -0.048508361 0.014166832
0.048011869 -0.048011869 0.014018685
0.049845483 -0.048828229 0.014115483
0.051104348 -0.049060173 0.013728648
0.051459491 -0.048432462 0.013481349
0.053316403 -0.049215142 0.01319474
0.054138418 -0.049031019 0.012744725
0.054260928 -0.048231933 0.012335688
0.056904837 -0.049662404 0.011966914
0.057527572 -0.049309347 0.01110512
0.057994481 -0.048837457 0.010702133
0.060803797 -0.050320383 0.010545969
0.059808861 -0.048658058 0.0097020566
0.062251016 -0.049800813 0.0084144771
0.063577637 -0.050028302 0.0066840649
0.06286253 -0.048667762 0.0051030815
-0.04981079 -0.04981079 0.005202353
-0.048076797 -0.049121946 0.0060560107
-0.047949977 -0.050081089 0.0067404211
-0.046321351 -0.049479626 0.0071475208
-0.045252081 -0.049461577 0.0077685416
-0.044129826 -0.04938338 0.0086682141
-0.042841509 -0.049110997 0.0096072555
-0.041350875 -0.048587278 0.010931045
-0.040447649 -0.0487446 0.012354702
-0.0386842 -0.047846247 0.013617665
-0.03728636 -0.047363751 0.016220301
-0.036643136 -0.047839649 0.017000943
-0.035358895 -0.047481943 0.017713279
-0.034672 -0.047928941 0.018140346
-0.034050219 -0.04849577 0.018640757
-0.032766413 -0.048125669 0.018825561
-0.031705331 -0.048069376 0.01897347
-0.03046588 -0.04772988 0.019135505
-0.029598588 -0.047970124 0.018967718
-0.028673261 -0.048130117 0.019024104
-0.027565258 -0.047983967 0.01903984
-0.026089981 -0.047162659 0.019094974
-0.025397781 -0.047747828 0.019016981
-0.024633884 -0.048241355 0.019024104
-0.023445737 -0.04791085 0.01880917
-0.022283522 -0.047605708 0.018421501
-0.020994766 -0.046988286 0.018162727
-0.020734342 -0.048725702 0.017836511
-0.019076366 -0.047188904 0.017528147
-0.018475672 -0.048242033 0.017638534
-0.01757955 -0.048602287 0.017452627
-0.016511099 -0.048501354 0.017302483
-0.015414856 -0.048299883 0.017148763
-0.014061799 -0.047207467 0.017275155
-0.013090963 -0.047328867 0.017193139
-0.012038838 -0.047152117 0.017247528
-0.011434597 -0.048856914 0.017473042
-0.010023993 -0.047112763 0.017611384
-0.0091773691 -0.047926262 0.017521203
-0.008156145 -0.047917351 0.017294437
-0.0071834708 -0.048231874 0.017159462
-0.0060766786 -0.047600649 0.01666984
-0.0051104031 -0.04803779 0.017286807
-0.0040806341 -0.047947451 0.017342091
-0.0030334748 -0.047524437 0.017551303
-0.0020280788 -0.047659848 0.017059833
-0.0010040504 -0.047190368 0.017223358
0 -0.047648981 0.017076731
0.0010188652 -0.047886662 0.017052352
0.0020051557 -0.04712116 0.017204136
0.0030382301 -0.047598936 0.01697287
0.0040494213 -0.0475807 0.01692155
0.005063768 -0.04759942 0.017224759
0.0060485154 -0.047380038 0.01750055
0.0069982838 -0.046988476 0.017391741
0.0081039676 -0.047610808 0.017323822
0.009069304 -0.047361918 0.017736316
0.010183674 -0.047863271 0.017565787
0.010963324 -0.04684329 0.017459244
0.012164617 -0.047644749 0.01733467
0.013144036 -0.047520746 0.01665017
0.014369734 -0.04824125 0.017223507
0.015277778 -0.047870371 0.01725173
0.016118301 -0.047347512 0.017133862
0.017392127 -0.048084114 0.01717633
0.018406607 -0.048061695 0.016748965
0.018988429 -0.046971377 0.0168567
0.020479821 -0.04812758 0.016669989
0.021263259 -0.047589198 0.016706407
0.022092013 -0.047196575 0.016669989
0.023505934 -0.048033863 0.016664803
0.02412999 -0.047254566 0.01680091
0.025680723 -0.048279759 0.016575336
0.026349394 -0.047631595 0.015680373
0.027363248 -0.047632322 0.015205026
0.028291814 -0.047489833 0.014724135
0.029498072 -0.04780722 0.014256299
0.030301733 -0.047472715 0.013729334
0.031677067 -0.048026521 0.013237983
0.032743074 -0.048091393 0.012596577
0.033775523 -0.048104536 0.0123716
0.035078883 -0.048491396 0.011969179
0.035526827 -0.04770745 0.011092901
0.035969861 -0.046960652 0.010851532
0.038160115 -0.04847366 0.010804325
0.038852561 -0.048054487 0.011322737
0.039714042 -0.047860514 0.011711806
0.041603237 -0.048883803 0.012131184
0.042428736 -0.048637819 0.012428313
0.043159578 -0.048297621 0.013316989
0.043930568 -0.048017133 0.013365477
0.044742819 -0.047793467 0.01344949
0.04521551 -0.047225088 0.013750672
0.046552807 -0.047564823 0.013994902
0.047354829 -0.047354829 0.014083952
0.048970014 -0.047949802 0.013735533
0.049749937 -0.04771933 0.013890296
0.050825398 -0.047775876 0.0136002
0.052834384 -0.048690509 0.013448626
0.053120796 -0.048013028 0.013238579
0.052625783 -0.046668146 0.012814134
0.054759338 -0.047660906 0.012554675
0.055910885 -0.047778394 0.01218462
0.056610543 -0.04751242 0.011658609
0.058155403 -0.0479527 0.010935694
0.058370959 -0.047300607 0.010491729
0.060213719 -0.04796686 0.01050806
0.062337071 -0.048830707 0.0099603832
0.062628336 -0.048254624 0.0090763569
0.06425868 -0.048712224 0.0065837204
0.065456137 -0.048832357 0.0052676201
-0.05050325 -0.048398949 0.0052175224
-0.049075682 -0.04803152 0.0055136383
-0.048702836 -0.048702836 0.0064784884
-0.047641091 -0.048699785 0.0075979531
-0.046331208 -0.048437174 0.0079220235
-0.04543376 -0.048603557 0.0079653561
-0.044350617 -0.048574485 0.0086109638
-0.042967565 -0.048207514 0.0091397464
-0.041998025 -0.048297729 0.01012215
-0.040229183 -0.047449805 0.01126197
-0.038761869 -0.046922263 0.012558699
-0.038105499 -0.047374401 0.014718771
-0.036498148 -0.046636522 0.01684168
-0.035472989 -0.046621643 0.017594695
-0.034487505 -0.046659563 0.018072128
-0.03359843 -0.046834175 0.01828301
-0.032806627 -0.04715953 0.018441617
-0.031691536 -0.047026154 0.018714517
-0.030600257 -0.046920393 0.018984914
-0.029650921 -0.047032498 0.018807143
-0.028337233 -0.046554025 0.018766165
-0.027384063 -0.046654332 0.018807143
-0.026472263 -0.046835542 0.018826097
-0.025064133 -0.046118006 0.018752486
-0.024373429 -0.04671574 0.01880917
-0.02326189 -0.04652378 0.018458337
-0.02212639 -0.046264272 0.018046319
-0.021290967 -0.046637356 0.017691016
-0.020665765 -0.047531258 0.017466515
-0.019262275 -0.046634983 0.017277122
-0.018654026 -0.047671396 0.017136455
-0.017568873 -0.047539301 0.017102569
-0.016475704 -0.047367647 0.016382515
-0.015416395 -0.047276944 0.016054004
-0.014327665 -0.047076613 0.016154677
-0.01311922 -0.046421856 0.016177297
-0.012172423 -0.046660956 0.016243458
-0.011377406 -0.047578245 0.017000228
-0.010004895 -0.046022516 0.016772836
-0.0091536045 -0.04678509 0.016981483
-0.0081847599 -0.047062367 0.016711593
-0.0071474919 -0.046969231 0.016640961
-0.006111308 -0.04685336 0.016202569
-0.0050804345 -0.046739995 0.016481787
-0.0041022603 -0.047175992 0.016437471
-0.0030218922 -0.046335682 0.016532212
-0.0020318192 -0.046731841 0.016303152
-0.0010132975 -0.046611682 0.016730756
0 -0.046132252 0.016646028
0.001016041 -0.046737887 0.016381145
0.0020099925 -0.046229828 0.016595751
0.0030535341 -0.046820857 0.016569763
0.0040676314 -0.046777762 0.01650238
0.0050697653 -0.046641842 0.016625673
0.0060941163 -0.046721559 0.016834766
0.0070804972 -0.04652898 0.016705632
0.0081472108 -0.046846461 0.01663959
0.0092095593 -0.047071084 0.01694271
0.010097538 -0.046448678 0.016381174
0.011196398 -0.0468213 0.016402215
0.012174617 -0.046669364 0.016353905
0.013120805 -0.046427462 0.016135991
0.0143234 -0.047062598 0.016228557
0.015155937 -0.046478204 0.016228557
0.016250543 -0.046720311 0.016107857
0.017296528 -0.046802368 0.015967548
0.018243998 -0.046623554 0.015894592
0.019377986 -0.046915121 0.016089261
0.020300409 -0.046690941 0.015840769
0.021441841 -0.046967842 0.015865892
0.022601837 -0.047258385 0.015732884
0.023466285 -0.046932571 0.015758306
0.024382193 -0.046732537 0.015737712
0.025518987 -0.046954934 0.015261948
0.026459606 -0.046813149 0.014736295
0.027224749 -0.046382908 0.014367551
0.028812358 -0.047334589 0.013680786
0.028952589 -0.045924798 0.012950927
0.030782651 -0.047200065 0.01273787
0.032136254 -0.047686052 0.012507886
0.032969989 -0.047394361 0.01135084
0.033688661 -0.046959952 0.011183321
0.034896474 -0.047212876 0.010858566
0.035347566 -0.046456803 0.010042876
0.037007492 -0.047287352 0.0099217892
0.03786964 -0.047081176 0.0099233091
0.038782626 -0.04694739 0.010584652
0.040525004 -0.047798723 0.011024714
0.041206941 -0.047387984 0.011808693
0.042490121 -0.047671843 0.012144595
0.043492381 -0.047634512 0.012544841
0.043556977 -0.046595838 0.012742519
0.044651289 -0.04668089 0.013021529
0.045792595 -0.046810206 0.013673246
0.046652194 -0.046652194 0.013739645
0.047333959 -0.046326853 0.013912678
0.049155023 -0.047106899 0.013715357
0.049879435 -0.046825591 0.013934731
0.050782062 -0.046719495 0.013516217
0.051904991 -0.046816267 0.013625801
0.053012878 -0.046896007 0.013315499
0.053909227 -0.04678914 0.013281733
0.054820251 -0.04669873 0.013139486
0.055228777 -0.046191338 0.012854338
0.05674129 -0.046608914 0.012567371
0.057562515 -0.04645396 0.012041122
0.059360169 -0.047078755 0.011151493
0.061262362 -0.047763877 0.011103034
0.060541574 -0.046415206 0.010709941
0.062461704 -0.047102269 0.0097522438
0.064604893 -0.047932662 0.0081795454
0.064703673 -0.047243953 0.006655246
0.066398822 -0.047724154 0.0050004721
-0.049511194 -0.046416745 0.0053921938
-0.049401794 -0.04729959 0.0057838857
-0.048916247 -0.047852848 0.0075028837
-0.046925642 -0.046925642 0.0080921352
-0.046146121 -0.047194894 0.008235693
-0.045346677 -0.047455825 0.0081807375
-0.043672133 -0.046791568 0.0082435012
-0.043272413 -0.047494113 0.0083372593
-0.042378023 -0.047675278 0.0091044307
-0.040580817 -0.046824019 0.01036796
-0.039743457 -0.047064621 0.011225373
-0.038232591 -0.046499096 0.012918234
-0.036514696 -0.045643371 0.016200513
-0.035571989 -0.045735411 0.016982377
-0.034269731 -0.045357 0.017629594
-0.033431139 -0.045587916 0.018196344
-0.032628823 -0.045884281 0.01849246
-0.031302538 -0.045439165 0.018750697
-0.031053657 -0.046580486 0.018932343
-0.029653698 -0.046014357 0.018743515
-0.0284489 -0.045721445 0.018734336
-0.027207611 -0.045346022 0.018682688
-0.026245372 -0.045424681 0.018701792
-0.025005661 -0.04501019 0.018420815
-0.024448758 -0.045841422 0.018362224
-0.023294888 -0.045576956 0.017912269
-0.022554396 -0.046133991 0.017583758
-0.021461757 -0.045989476 0.017359257
-0.020432636 -0.045973431 0.016657591
-0.019282607 -0.045669332 0.016021073
-0.018616293 -0.04654073 0.016099572
-0.017286764 -0.045759082 0.015950412
-0.016402189 -0.046131156 0.015726238
-0.01545348 -0.046360441 0.0153943
-0.014391284 -0.046257697 0.015408635
-0.013342279 -0.046184812 0.015447289
-0.012074843 -0.045280661 0.01563713
-0.011229634 -0.045939412 0.015830368
-0.01045933 -0.047066983 0.016084731
-0.0092587024 -0.046293512 0.016130179
-0.0081528546 -0.04585981 0.016159028
-0.0071878494 -0.046207603 0.015863091
-0.0061137127 -0.045852847 0.015647769
-0.0050793891 -0.045714505 0.015662909
-0.0040658205 -0.045740481 0.015580148
-0.0030841844 -0.046262763 0.015638292
-0.0020379862 -0.045854688 0.01556012
-0.0010249777 -0.046123993 0.015622884
0 -0.045210492 0.015550345
0.0010134542 -0.04560544 0.015561938
0.0020232312 -0.045522705 0.015965134
0.0030730271 -0.046095405 0.015924454
0.0040653325 -0.045734994 0.015965134
0.0050361035 -0.045324933 0.015969574
0.0060317772 -0.045238331 0.0160065
0.0071276808 -0.045820806 0.016177148
0.0081016496 -0.045571778 0.016020775
0.0091605028 -0.045802511 0.016182512
0.010128362 -0.045577627 0.016095877
0.011058675 -0.045240037 0.01613158
0.012441235 -0.04665463 0.016034901
0.013321682 -0.046113513 0.015515804
0.014283798 -0.045912206 0.015515804
0.015294458 -0.045883372 0.015671521
0.016247204 -0.04569526 0.015333831
0.017330259 -0.045874216 0.01531139
0.018363032 -0.045907579 0.015347064
0.019246737 -0.045584373 0.015358776
0.020513017 -0.046154287 0.01500386
0.021211144 -0.045452449 0.015016437
0.022204829 -0.04541897 0.014674902
0.023338288 -0.04566187 0.014701068
0.024749657 -0.046405606 0.014548182
0.025340347 -0.045612626 0.014053881
0.026688304 -0.046191297 0.013195217
0.02751147 -0.045852453 0.01236099
0.028738411 -0.046186734 0.012060463
0.029835341 -0.04629622 0.011836678
0.031194106 -0.046791159 0.011461973
0.031718999 -0.046043709 0.011120021
0.03306058 -0.04649144 0.010543346
0.033751972 -0.046025418 0.010288388
0.03503399 -0.046368517 0.0099034309
0.036135338 -0.046459723 0.0097120702
0.037041545 -0.046301935 0.0095352829
0.037960786 -0.046168525 0.0096780956
0.039632745 -0.046933513 0.010236293
0.040457752 -0.046682023 0.010517359
0.041123405 -0.046263833 0.011109203
0.042282674 -0.046407815 0.011634439
0.042401291 -0.045429956 0.0119721
0.043821737 -0.045859959 0.012309372
0.044943467 -0.045964912 0.012424231
0.045398805 -0.045398805 0.013021529
0.046372354 -0.045364257 0.01343748
0.047699858 -0.045670073 0.013629496
0.048729546 -0.04568395 0.013252079
0.05029925 -0.046193186 0.013829768
0.050938051 -0.045844246 0.013401806
0.051471829 -0.045416318 0.013534993
0.053108994 -0.045959707 0.013146579
0.053513821 -0.045436263 0.013309509
0.054267421 -0.045222852 0.01324141
0.05599473 -0.045813873 0.013095945
0.056881841 -0.045708623 0.012694836
0.057977322 -0.045771569 0.012240618
0.05942867 -0.046108451 0.011791199
0.060413871 -0.046078376 0.011140585
0.061364841 -0.04602363 0.010886073
0.062754273 -0.046294134 0.010709941
0.063135237 -0.045823961 0.0096529126
0.064132884 -0.045809202 0.0083443522
0.066058114 -0.046447113 0.0063211024
0.066375449 -0.045952234 0.0050060153
-0.05128222 -0.046049342 0.0055760145
-0.049997844 -0.045831356 0.006693095
-0.048888016 -0.045767505 0.0074618757
-0.04738231 -0.04532221 0.0083326995
-0.047627673 -0.04656928 0.0086098909
-0.045894064 -0.045894064 0.0088791251
-0.044623245 -0.045660995 0.0087802708
-0.04453418 -0.046654854 0.0085672736
-0.042763814 -0.045892876 0.0085487962
-0.042461716 -0.046707887 0.0089144707
-0.04143396 -0.046746008 0.0099119544
-0.039776854 -0.046057411 0.010430843
-0.038671702 -0.045987971 0.012013346
-0.037387997 -0.045696437 0.013405353
-0.035638884 -0.044803169 0.016113788
-0.034444198 -0.044574846 0.017121732
-0.03361455 -0.0448194 0.017664105
-0.032194078 -0.044266853 0.018264651
-0.031520132 -0.044738252 0.018581718
-0.030427052 -0.044626344 0.018743515
-0.029324738 -0.044492707 0.018534988
-0.028965723 -0.045517564 0.018506318
-0.02778654 -0.045281772 0.018368542
-0.026496056 -0.044839483 0.018387914
-0.025628591 -0.045106322 0.018185705
-0.024284381 -0.044521369 0.017912269
-0.023193337 -0.044369861 0.017633736
-0.02248672 -0.04497344 0.017398238
-0.021133741 -0.04428022 0.016321629
-0.020449044 -0.044987895 0.016105503
-0.019593272 -0.045373894 0.015518069
-0.01827145 -0.044663545 0.015428007
-0.017556505 -0.045440365 0.01530382
-0.016255457 -0.044702508 0.014950782
-0.015097475 -0.044285927 0.014872342
-0.014399366 -0.045255151 0.014688492
-0.013204015 -0.044690512 0.014601171
-0.012206093 -0.044755675 0.014483839
-0.011347276 -0.045389105 0.014509737
-0.010262744 -0.045156069 0.014405757
-0.0091799619 -0.044879813 0.014384598
-0.0082701268 -0.045485698 0.014289856
-0.0071654348 -0.045039874 0.014687777
-0.0061248583 -0.044915628 0.014058262
-0.0051069674 -0.044941314 0.014491349
-0.0040530092 -0.044583101 0.014651537
-0.0030796984 -0.04516891 0.014822066
-0.0020497499 -0.045094498 0.014514297
-0.0010146411 -0.04464421 0.01459083
0 -0.045218471 0.014504939
0.0010247016 -0.045086868 0.014594853
0.002030239 -0.044665255 0.014594853
0.0030667116 -0.044978436 0.014644265
0.0040393523 -0.044432875 0.014682353
0.0050743497 -0.04465428 0.01543662
0.0062002121 -0.045468219 0.015433431
0.0071739694 -0.045093521 0.014853925
0.008143818 -0.044790998 0.014831901
0.0093044974 -0.045488656 0.01511395
0.010191428 -0.04484228 0.014627278
0.011280232 -0.045120928 0.014797062
0.012279958 -0.045026515 0.014062405
0.013190546 -0.044644926 0.014046043
0.014327707 -0.045029934 0.014022708
0.015311338 -0.044913258 0.014062405
0.016275927 -0.044758797 0.013822615
0.017510939 -0.045322429 0.013791531
0.018291185 -0.044711787 0.01392585
0.019343322 -0.044795062 0.014107376
0.020553784 -0.045218326 0.013498187
0.021698911 -0.045464385 0.013642281
0.022300549 -0.044601098 0.013558149
0.023679158 -0.045299258 0.013477176
0.02433843 -0.044620454 0.012732297
0.025427774 -0.044752881 0.012409359
0.026578318 -0.044978693 0.011915386
0.027714271 -0.045163997 0.011717647
0.028902709 -0.045418546 0.01132974
0.030084841 -0.045645963 0.010918081
0.030864824 -0.045268409 0.010739893
0.032275815 -0.045810834 0.010262847
0.033080954 -0.045486312 0.010072768
0.033883259 -0.045177676 0.0092336833
0.035099 -0.045422237 0.0090493262
0.035970524 -0.045220088 0.0089810193
0.036948573 -0.04515937 0.0087373853
0.037692275 -0.044823244 0.0092051923
0.039375514 -0.045592699 0.0094341636
0.040129904 -0.045274764 0.0096220076
0.041493423 -0.045642763 0.01047647
0.041868549 -0.044932105 0.010795444
0.04258075 -0.044608403 0.011369079
0.043888126 -0.044908781 0.011860669
0.044400707 -0.044400707 0.01190576
0.045729984 -0.044713762 0.012699604
0.047167759 -0.045116987 0.013303697
0.047587331 -0.044549841 0.013456136
0.049442828 -0.045322593 0.013070077
0.050253194 -0.045125317 0.01356563
0.050866861 -0.044762839 0.013358325
0.052139532 -0.044983126 0.01345703
0.05341544 -0.045197681 0.013301224
0.053044379 -0.044036843 0.013309509
0.054918244 -0.044748198 0.01331386
0.056414884 -0.045131907 0.01319474
0.056565542 -0.044444356 0.012812048
0.05793763 -0.044723783 0.012444615
0.059111822 -0.044843454 0.01189214
0.059764259 -0.044569958 0.011897564
0.061775353 -0.045301925 0.011273026
0.061818402 -0.04459032 0.010731637
0.063163124 -0.044825442 0.010454804
0.06413465 -0.044792451 0.0093862116
0.065343224 -0.044923466 0.0080371201
0.066568948 -0.045062058 0.0061320364
-0.05359355 -0.045186717 0.0052778423
-0.052238353 -0.044924986 0.0061808527
-0.050865181 -0.04463679 0.0074169636
-0.0499379 -0.044736035 0.0084492266
-0.047946982 -0.043866388 0.0087010264
-0.048364159 -0.045209974 0.0093103051
-0.047290601 -0.0451888 0.009331733
-0.045367032 -0.044335965 0.0096043348
-0.044887505 -0.044887505 0.0091691613
-0.043931529 -0.04497752 0.0087531805
-0.04244642 -0.044516977 0.0087439716
-0.042008817 -0.045159478 0.0089692771
-0.04130942 -0.045546286 0.0092920065
-0.039999157 -0.045262203 0.0099208057
-0.038677033 -0.044948984 0.01049459
-0.037745163 -0.045084503 0.011322856
-0.035992566 -0.044219442 0.012958407
-0.034599874 -0.043758664 0.016139925
-0.033288412 -0.043375809 0.017154008
-0.032472901 -0.043635461 0.0175713
-0.031224944 -0.043312017 0.01825121
-0.030371165 -0.043532003 0.018175572
-0.029505266 -0.043749187 0.018162131
-0.028482674 -0.043741249 0.018143654
-0.027491488 -0.043782737 0.018221021
-0.026485559 -0.04380304 0.018209934
-0.025124053 -0.043213371 0.017960519
-0.024731902 -0.044311326 0.01778388
-0.023709072 -0.044325657 0.017364174
-0.022361308 -0.043706194 0.016320497
-0.021690434 -0.044413745 0.016038775
-0.020448271 -0.043963782 0.015626699
-0.019479137 -0.044084363 0.014968723
-0.018393552 -0.043940153 0.014733642
-0.01761074 -0.044544816 0.014633805
-0.01633087 -0.043889213 0.01436007
-0.015309845 -0.043888222 0.014162898
-0.014429539 -0.044319302 0.013969332
-0.013339777 -0.044123877 0.013987184
-0.012254629 -0.043912422 0.01390183
-0.011305956 -0.044196013 0.013776422
-0.010266625 -0.044146489 0.013490081
-0.0092119826 -0.044012807 0.013446212
-0.0082176374 -0.044169802 0.013446212
-0.0072902031 -0.044782676 0.013441056
-0.0061955922 -0.044401746 0.013219714
-0.0051311622 -0.044127993 0.013268173
-0.0040701698 -0.043754324 0.013309807
-0.0030898261 -0.044287506 0.013125747
-0.0020517458 -0.044112537 0.013231605
-0.0010265533 -0.044141792 0.013410598
0 -0.043981992 0.013584346
0.001013139 -0.043564979 0.012910992
0.0020365026 -0.043784808 0.012767315
0.003052694 -0.043755278 0.012965173
0.0040711453 -0.043764811 0.013104051
0.0051464043 -0.044259079 0.01320374
0.00622193 -0.044590499 0.013198793
0.007092617 -0.043568932 0.013253033
0.0082225148 -0.044196017 0.013216108
0.0092624566 -0.044253957 0.013331443
0.010150812 -0.043648489 0.013177782
0.011287183 -0.044122625 0.012892574
0.012193196 -0.043692283 0.012924999
0.013238369 -0.043788455 0.012924999
0.014285364 -0.043876477 0.01280421
0.015377478 -0.044082105 0.012924999
0.016639885 -0.044719689 0.012595087
0.017413972 -0.044047106 0.012212098
0.018379299 -0.043906104 0.012212098
0.019653874 -0.044479821 0.012477398
0.020326475 -0.043701921 0.012122959
0.021395056 -0.043808926 0.012234718
0.022591686 -0.044156477 0.012376577
0.023655871 -0.044226192 0.012295783
0.024638414 -0.044143826 0.011991441
0.025679355 -0.044168491 0.011656582
0.026559912 -0.043926008 0.011063188
0.0276541 -0.044041716 0.010771364
0.028913559 -0.044402968 0.010206789
0.030170148 -0.044735048 0.0095781088
0.031263147 -0.044810511 0.0091131926
0.032186057 -0.044645179 0.0087675154
0.033342294 -0.044803709 0.0085503757
0.034333184 -0.044737179 0.0084051788
0.035731856 -0.04519029 0.0082444847
0.036341228 -0.04464779 0.00807634
0.037288245 -0.044538736 0.0080571473
0.038229994 -0.044429451 0.0081250966
0.039205678 -0.044364318 0.0087028742
0.040294081 -0.044426806 0.0094341636
0.041028365 -0.044105493 0.009781301
0.041904274 -0.043948386 0.010324657
0.043032475 -0.044057056 0.010471761
0.043466765 -0.043466765 0.011415213
0.045095026 -0.04407014 0.011186481
0.045662805 -0.043633349 0.011974037
0.046477739 -0.043446582 0.012118131
0.047494438 -0.043452356 0.013051301
0.048891775 -0.043798883 0.012841523
0.049524751 -0.043460496 0.013113201
0.050719723 -0.043618962 0.013019741
