ply
format ascii 1.0
comment PCL generated
element vertex 1256
property float x
property float y
property float z
element camera 0
property float view_px
property float view_py
property float view_pz
property float x_axisx
property float x_axisy
property float x_axisz
property float y_axisx
property float y_axisy
property float y_axisz
property float z_axisx
property float z_axisy
property float z_axisz
property float focal
property float scalex
property float scaley
property float centerx
property float centery
property int viewportx
property int viewporty
property float k1
property float k2
end_header
-0.056212373 -0.082236618 0.013095438
-0.054337937 -0.080994286 0.013226479
-0.053404845 -0.081134282 0.012871623
-0.053352248 -0.082643673 0.012540221
-0.052072298 -0.082274236 0.012231231
-0.051096443 -0.082379974 0.012234211
-0.049469732 -0.081418931 0.012509853
-0.048229359 -0.08106637 0.012865484
-0.047457911 -0.081503801 0.013659507
-0.047044348 -0.082588963 0.013678163
-0.045337223 -0.081400923 0.013556778
-0.044946562 -0.082576238 0.012929469
-0.042807423 -0.080518723 0.012621492
-0.041647825 -0.080248244 0.012237757
-0.041547954 -0.082057208 0.011586189
-0.040210463 -0.081451967 0.011287212
-0.039868269 -0.082884029 0.010568142
-0.038526177 -0.082258597 0.010854602
-0.037519448 -0.08233434 0.010700822
-0.036610041 -0.082634091 0.010745376
-0.035678495 -0.082900032 0.011257172
-0.033987571 -0.081364177 0.012146622
-0.033109419 -0.081738882 0.013293982
-0.03126502 -0.079675376 0.0145908
-0.029940793 -0.078844085 0.015432537
-0.029351762 -0.079958245 0.016059518
-0.028619222 -0.08074709 0.015883029
-0.026697695 -0.078115478 0.016518563
-0.026826326 -0.08151076 0.016627759
-0.025951542 -0.082006872 0.016689956
-0.024902707 -0.081971407 0.016559392
-0.024120785 -0.082849652 0.0165402
-0.022751305 -0.081697866 0.01630497
-0.021328045 -0.080234073 0.01638183
-0.020645943 -0.081551477 0.016216934
-0.019349946 -0.080455035 0.016504616
-0.018207032 -0.079908639 0.01706627
-0.017321084 -0.080492094 0.017368883
-0.016006967 -0.079034396 0.017577171
-0.015310895 -0.080637373 0.017249852
-0.014293996 -0.080658972 0.016660213
-0.013089589 -0.079544425 0.016384959
-0.012335495 -0.081208676 0.016060531
-0.011170875 -0.080227189 0.015697867
-0.010256104 -0.081023224 0.015587896
-0.0092708981 -0.081377886 0.015556544
-0.008377145 -0.08272431 0.014978975
-0.0071922988 -0.081170231 0.014872313
-0.0061920178 -0.081528232 0.014914602
-0.005076448 -0.080207877 0.014828861
-0.0040690391 -0.080363527 0.014914602
-0.0030824314 -0.081170693 0.014977515
-0.0020388432 -0.080534309 0.014757842
-0.0010401255 -0.08216992 0.014742792
0 -0.082342766 0.014233798
0.0010188848 -0.0804919 0.014144421
0.0020424845 -0.080678135 0.013593316
0.0030791543 -0.081084393 0.013457686
0.004082147 -0.080622405 0.012652904
0.0051435027 -0.081267342 0.012458354
0.0062677478 -0.082525343 0.010684073
0.0072636572 -0.081975557 0.0097102821
0.0084912162 -0.083850764 0.0080578625
0.0095482934 -0.083812796 0.0062026381
-0.067412607 -0.082159109 0.0059212744
-0.066252515 -0.082026921 0.0062505901
-0.065623537 -0.082558639 0.0069591105
-0.06602785 -0.084429055 0.0078844428
-0.063355453 -0.082362086 0.0080139637
-0.061354637 -0.081112914 0.0098586082
-0.060116604 -0.080846466 0.011062384
-0.058473829 -0.080016814 0.012177497
-0.056891967 -0.079242378 0.012362599
-0.057294082 -0.081253424 0.013095438
-0.055319145 -0.079905435 0.013755083
-0.054436792 -0.080114521 0.013795555
-0.054084156 -0.081126228 0.013691783
-0.052848808 -0.080827586 0.013461679
-0.051051449 -0.079640262 0.013252795
-0.050526798 -0.080430411 0.013252795
-0.049527656 -0.080482438 0.013359338
-0.048954792 -0.081244119 0.013821512
-0.047912948 -0.081243694 0.013909549
-0.046526074 -0.080645196 0.014389396
-0.045658544 -0.08094015 0.014095098
-0.04412923 -0.080048367 0.013684481
-0.042979803 -0.079819627 0.013377637
-0.042306349 -0.080485247 0.012750685
-0.040994801 -0.079939857 0.012237877
-0.040912718 -0.081825435 0.011820525
-0.03931506 -0.080699332 0.011292905
-0.03835189 -0.080849931 0.011119187
-0.03765456 -0.081584886 0.010739177
-0.036682203 -0.08174891 0.010850996
-0.035777431 -0.082077637 0.011214107
-0.034001611 -0.080367438 0.012113065
-0.033024322 -0.080496781 0.013924062
-0.031439409 -0.079105608 0.015102297
-0.030810498 -0.080107294 0.015940398
-0.029681792 -0.079833791 0.016743481
-0.028456457 -0.079271562 0.016979784
-0.027158637 -0.078458279 0.017818421
-0.026574401 -0.079723202 0.017673612
-0.025279153 -0.07887096 0.017633647
-0.024633767 -0.080059744 0.017761916
-0.023570362 -0.079934269 0.017642647
-0.022472689 -0.079675898 0.01769498
-0.021599175 -0.080225512 0.017471105
-0.020410767 -0.079601988 0.017513335
-0.019324595 -0.079332553 0.017566651
-0.018407844 -0.079767324 0.01773113
-0.01718705 -0.078858234 0.017871201
-0.016452339 -0.080205157 0.018095046
-0.015067955 -0.078353368 0.017561913
-0.014176797 -0.078985013 0.017275423
-0.013219689 -0.079318136 0.017051846
-0.012153496 -0.078997724 0.016390026
-0.011224932 -0.079594977 0.016129225
-0.010265829 -0.080073468 0.016088605
-0.0092113893 -0.07983204 0.015866369
-0.0080888001 -0.078865796 0.01549238
-0.0072275763 -0.080535851 0.015206248
-0.0061272145 -0.079653785 0.015416324
-0.0051514059 -0.080361933 0.015336514
-0.0041042436 -0.080032751 0.015449166
-0.0031124847 -0.0809246 0.015680164
-0.0020373869 -0.079458088 0.015319139
-0.0010310862 -0.080424719 0.015206128
0 -0.080666445 0.015090883
0.0010729099 -0.08368697 0.015090883
0.0020585109 -0.080281928 0.014731169
0.0030199769 -0.078519396 0.014886379
0.0041163838 -0.080269478 0.013473511
0.0051547443 -0.080414012 0.01303184
0.0060394485 -0.078512833 0.012186676
0.0073550316 -0.081956066 0.010684073
0.008436434 -0.082255229 0.0092501044
0.009528175 -0.082577519 0.0072434843
0.010596555 -0.082653128 0.0057455003
-0.071300127 -0.080736913 0.0051117539
-0.069301113 -0.079644561 0.0054265857
-0.069144316 -0.080668375 0.0058456957
-0.067726225 -0.080229528 0.0058456957
-0.06747777 -0.081184193 0.0064946711
-0.066241093 -0.080961332 0.0071098208
-0.066442028 -0.082516707 0.0077958405
-0.06641268 -0.083832406 0.0088615417
-0.062825799 -0.080626436 0.0096405149
-0.061116949 -0.079762802 0.011571407
-0.060095433 -0.079781868 0.011881202
-0.057863515 -0.078166507 0.012601793
-0.057918567 -0.079638027 0.013047069
-0.05642046 -0.078988642 0.013692588
-0.055981662 -0.079825707 0.014050305
-0.054832064 -0.079661682 0.014126569
-0.053770877 -0.079622261 0.014097095
-0.052790239 -0.079702914 0.014013857
-0.051927738 -0.079968721 0.013758153
-0.051253043 -0.080540493 0.013850093
-0.050109081 -0.080383323 0.013890684
-0.048455831 -0.079385087 0.014152288
-0.047135886 -0.07890138 0.014395535
-0.046764836 -0.080019832 0.014661551
-0.045645125 -0.079878971 0.014654547
-0.044147156 -0.079054214 0.014445066
-0.043164685 -0.079135254 0.013812512
-0.042261593 -0.079369336 0.013353497
-0.041067068 -0.079054102 0.012575448
-0.040365919 -0.079696812 0.012209982
-0.039507873 -0.080055423 0.011297077
-0.038210846 -0.079519868 0.011022002
-0.037582688 -0.080385193 0.010850996
-0.036400624 -0.080081373 0.011195123
-0.035750713 -0.080964848 0.011257172
-0.034536641 -0.080585495 0.011973858
-0.032694947 -0.078672223 0.014031678
-0.031596802 -0.078482382 0.015400916
-0.0304398 -0.078128822 0.016495556
-0.029088032 -0.077233739 0.01684767
-0.02850035 -0.078375965 0.017127872
-0.027197631 -0.077563614 0.01769498
-0.026229253 -0.077678941 0.017886251
-0.0254668 -0.078437746 0.018070102
-0.024613285 -0.078967623 0.018168449
-0.023740336 -0.079478517 0.018056303
-0.022740647 -0.079592265 0.018083096
-0.021260388 -0.077954754 0.017936051
-0.02030028 -0.078156076 0.018078446
-0.019530732 -0.079150863 0.018121988
-0.018265812 -0.078137085 0.018334538
-0.017183818 -0.077832587 0.018467098
-0.016183393 -0.077882573 0.018497109
-0.015012296 -0.077063121 0.018167704
-0.014366131 -0.07901372 0.01782003
-0.013241692 -0.078431562 0.017469287
-0.012148307 -0.077951632 0.017146647
-0.011171456 -0.078200191 0.01658392
-0.010264573 -0.079037204 0.016481966
-0.0091556199 -0.078331411 0.016522467
-0.0083378674 -0.080251969 0.016285151
-0.0071944091 -0.079138502 0.015944034
-0.006140294 -0.07880044 0.016016066
-0.0050767129 -0.078181379 0.015929371
-0.0040694978 -0.078337833 0.016136885
-0.0030829718 -0.079129606 0.016482681
-0.0020402889 -0.078551121 0.01655212
-0.0010163288 -0.078257315 0.016426295
0 -0.078234181 0.016456187
0.0010279864 -0.079154946 0.016682327
0.0020356746 -0.078373469 0.016475767
0.0031450829 -0.080723792 0.016600072
0.0041163685 -0.079240099 0.016244769
0.0050524287 -0.077807397 0.013979167
0.0061341021 -0.078720979 0.013245851
0.0071421405 -0.078563541 0.012408257
0.0081785787 -0.078718826 0.010695696
0.0093413647 -0.079920568 0.0092921257
0.010310703 -0.079392411 0.0072784126
0.011428494 -0.079999462 0.006128639
-0.072685756 -0.08005967 0.0058360994
-0.071397237 -0.079796918 0.0062636435
-0.069938451 -0.079333171 0.0063991845
-0.068993442 -0.079446994 0.006739676
-0.068013929 -0.079523981 0.0067107379
-0.065968856 -0.07833802 0.007309258
-0.066637479 -0.080388069 0.0077478886
-0.065239877 -0.079971455 0.008752048
-0.065423839 -0.081511669 0.0098126233
-0.062940605 -0.079724766 0.010010391
-0.061286468 -0.078945279 0.011724025
-0.059411515 -0.077849567 0.012406498
-0.058040861 -0.07738781 0.012882143
-0.057766378 -0.078397222 0.013790667
-0.056389969 -0.077920683 0.014114171
-0.056124114 -0.078989491 0.014324486
-0.054285828 -0.07784383 0.014410198
-0.053992666 -0.078912362 0.014382571
-0.052789707 -0.078667015 0.013991714
-0.051547587 -0.078352332 0.013918668
-0.05052305 -0.078362279 0.013932675
-0.049778711 -0.078816287 0.014128685
-0.048086762 -0.077757321 0.014465541
-0.047351796 -0.078233406 0.014944494
-0.046978969 -0.079342261 0.01493299
-0.045485333 -0.078565575 0.014890134
-0.044284262 -0.078269862 0.0146465
-0.042956177 -0.077730224 0.01438272
-0.041827664 -0.077534206 0.014057875
-0.041286565 -0.078444473 0.012737602
-0.039856341 -0.077668771 0.012229174
-0.038926277 -0.077852555 0.011640906
-0.038478974 -0.079037897 0.011260897
-0.037438694 -0.079037249 0.011100054
-0.036482912 -0.079220034 0.011116743
-0.035855446 -0.080147468 0.011475325
-0.034374628 -0.079165809 0.012036324
-0.032855339 -0.078031428 0.01394698
-0.031465009 -0.077140026 0.015844703
-0.030234078 -0.076592997 0.016938984
-0.02944063 -0.077154756 0.017620534
-0.028399898 -0.077085435 0.017683476
-0.02767984 -0.07791362 0.017825663
-0.026451031 -0.077318393 0.018167198
-0.025537699 -0.07763461 0.018392622
-0.024636297 -0.07801494 0.018404186
-0.023606239 -0.07800322 0.018381476
-0.022302868 -0.077046275 0.018341064
-0.021383632 -0.077388376 0.018442214
-0.020528072 -0.078006677 0.018465906
-0.019223943 -0.076895773 0.01846841
-0.018237175 -0.077001408 0.018541515
-0.017260933 -0.077166528 0.01846692
-0.016100636 -0.076478019 0.018653095
-0.015298796 -0.077513896 0.018422961
-0.014264863 -0.077437826 0.017990649
-0.013083713 -0.076489396 0.017935514
-0.012202042 -0.077279598 0.017539024
-0.011273482 -0.077889509 0.016744733
-0.010192825 -0.077465475 0.016718864
-0.009334188 -0.078822032 0.016789198
-0.0081571126 -0.077492572 0.016616881
-0.0071671335 -0.077814594 0.01644361
-0.0061886832 -0.078389987 0.016479135
-0.0050915247 -0.077391177 0.016369462
-0.0040638596 -0.077213332 0.016632766
-0.0030707344 -0.077791937 0.016901761
-0.0019936245 -0.075757734 0.016883045
-0.0010171662 -0.077304624 0.016883314
0 -0.077249475 0.016970366
0.0010096964 -0.07673692 0.017206967
0.0020501029 -0.077903904 0.01692912
0.0030592566 -0.07750117 0.01729846
0.0041607805 -0.079054825 0.01668033
0.00516561 -0.078517273 0.016319156
0.0061198226 -0.077517755 0.014619827
0.0071208035 -0.077311575 0.013483167
0.0081571126 -0.077492572 0.012141943
0.0091943014 -0.077640764 0.010831654
0.010184326 -0.077400878 0.0096595883
0.01153592 -0.07970272 0.0087579191
0.012250847 -0.0775887 0.0056476295
-0.073967032 -0.079250388 0.0054293573
-0.072193213 -0.078470886 0.0066567659
-0.070683531 -0.077959783 0.0067662299
-0.070318744 -0.078715011 0.0069851577
-0.069079436 -0.078499362 0.0071730614
-0.068075299 -0.078548424 0.0072390139
-0.066716291 -0.078183152 0.0075142086
-0.066538371 -0.079212353 0.008287102
-0.065279961 -0.078967698 0.0087265074
-0.064294964 -0.079051189 0.0099290609
-0.063332647 -0.079165809 0.010160059
-0.061094023 -0.077661894 0.011455208
-0.060575016 -0.078329764 0.012270749
-0.058601871 -0.077107728 0.012628615
-0.057681147 -0.077251531 0.013683796
-0.056637168 -0.077232502 0.013699889
-0.055417802 -0.076969169 0.013834745
-0.0547891 -0.077531748 0.014325857
-0.05412966 -0.078071624 0.014032841
-0.052810363 -0.077662297 0.014128685
-0.051890291 -0.077835441 0.013924569
-0.051086504 -0.078193627 0.014126748
-0.048912313 -0.076425485 0.014285356
-0.049279645 -0.078637727 0.014984667
-0.047206629 -0.076967329 0.014998674
-0.046234015 -0.077056691 0.014954209
-0.045399584 -0.077385657 0.014858335
-0.044405576 -0.077451587 0.014833361
-0.04295031 -0.076696984 0.014421761
-0.042134091 -0.077074558 0.014189959
-0.040679038 -0.076273195 0.013387918
-0.03999 -0.07690385 0.012213588
-0.03943114 -0.077824615 0.011638939
-0.037986059 -0.076998763 0.011391222
-0.037089672 -0.07727015 0.010978013
-0.037138991 -0.079583548 0.010978013
-0.0355937 -0.078515515 0.011345208
-0.034008559 -0.077292174 0.011804521
-0.032895468 -0.077098757 0.013348639
-0.03108138 -0.075196892 0.015760601
-0.030744074 -0.076860182 0.016979784
-0.029115006 -0.07529743 0.017738998
-0.028378975 -0.076015107 0.017945528
-0.027428992 -0.076191649 0.018136412
-0.026400091 -0.076154113 0.018919975
-0.025523597 -0.076570794 0.018861681
-0.024701366 -0.07719177 0.018911302
-0.023357565 -0.076165967 0.01876983
-0.02237715 -0.076285742 0.018976986
-0.021533547 -0.076905526 0.019036293
-0.020235308 -0.075882405 0.018889755
-0.01920511 -0.07580965 0.018863767
-0.018337302 -0.076405428 0.018925995
-0.017193541 -0.075853854 0.019075215
-0.016365409 -0.076712854 0.01917088
-0.015159209 -0.075796045 0.018626809
-0.014183861 -0.07598497 0.018397689
-0.013290218 -0.076674335 0.018101573
-0.01220837 -0.076302305 0.01773113
-0.011181117 -0.076234885 0.017230093
-0.010215107 -0.076613307 0.017110348
-0.0092045227 -0.076704353 0.01709041
-0.0081613371 -0.07651253 0.016834855
-0.0071784887 -0.076912381 0.016833067
-0.006100398 -0.076254979 0.016969264
-0.0050893053 -0.07633958 0.016901761
-0.0040858923 -0.076610483 0.017020017
-0.0030845308 -0.077113271 0.017423362
-0.0020511616 -0.076918557 0.017449766
-0.0010395007 -0.077962548 0.017370701
0 -0.07562568 0.018052101
0.0010189693 -0.076422699 0.017854303
0.0020402279 -0.076508544 0.017811775
0.0030355121 -0.075887799 0.0176678
0.0041476046 -0.077767581 0.017583758
0.0052429745 -0.078644611 0.017269939
0.0062632943 -0.078291178 0.01634106
0.0072278054 -0.077440768 0.015927345
0.0083177816 -0.0779792 0.013612926
0.0091711823 -0.076426513 0.012265712
0.010532697 -0.078995228 0.011187553
0.011335407 -0.077286869 0.0093356371
0.012787605 -0.079922527 0.0066390634
-0.073406033 -0.076507695 0.0054581761
-0.073303662 -0.077492446 0.0063203275
-0.071997508 -0.077214718 0.0068301857
-0.070885621 -0.077140234 0.0071947277
-0.071425498 -0.078887865 0.0073962212
-0.068737723 -0.077069573 0.0075142086
-0.068611883 -0.078111991 0.0074416697
-0.067336924 -0.077858314 0.0076882541
-0.066419929 -0.078017063 0.0085974336
-0.066410437 -0.079264075 0.0092875063
-0.063253157 -0.076733336 0.0097536743
-0.062422935 -0.076988287 0.010183126
-0.060511004 -0.075895153 0.010920316
-0.059164751 -0.075486064 0.012318879
-0.058446161 -0.075877473 0.012628615
-0.058053825 -0.076713979 0.013588011
-0.056639135 -0.07620538 0.01358825
-0.055800136 -0.076466851 0.013758153
-0.054896399 -0.076647803 0.013921052
-0.053667951 -0.076373622 0.01372087
-0.053110436 -0.077062197 0.013854265
-0.0522057 -0.077264436 0.013615847
-0.050538756 -0.076323837 0.013823926
-0.050121449 -0.077270567 0.01404646
-0.049585015 -0.078070022 0.014696479
-0.047388755 -0.07623408 0.014890194
-0.046469301 -0.076416187 0.014980018
-0.045371983 -0.076307423 0.014805377
-0.044324059 -0.076278612 0.01479423
-0.043276642 -0.076249316 0.014675409
-0.041937333 -0.075691774 0.014255971
-0.041125368 -0.076081932 0.013926119
-0.040630534 -0.07709384 0.01356113
-0.039469384 -0.076861426 0.011813015
-0.038428385 -0.07685677 0.011059433
-0.037729315 -0.077554703 0.010655016
-0.037017655 -0.078265898 0.010767817
-0.035471588 -0.077202871 0.011230528
-0.034607261 -0.077604167 0.011475742
-0.033197049 -0.076768175 0.013373852
-0.032102045 -0.076630682 0.016264141
-0.030383456 -0.07494586 0.017375737
-0.028871659 -0.073672511 0.017721206
-0.028597152 -0.075578183 0.018060505
-0.027577236 -0.075582057 0.018564939
-0.026587002 -0.075670697 0.019224644
-0.025832234 -0.076463409 0.019455552
-0.024259778 -0.074800983 0.019467324
-0.023496479 -0.075597368 0.019252241
-0.022587461 -0.075976007 0.019036293
-0.021427292 -0.075505696 0.019112349
-0.020489633 -0.075811639 0.01894632
-0.019382175 -0.07548847 0.019000769
-0.018204655 -0.074841365 0.019347697
-0.017214756 -0.074934818 0.019186616
-0.016373763 -0.075728655 0.019236058
-0.015206162 -0.075017065 0.018749237
-0.014346708 -0.075832598 0.018586636
-0.013162805 -0.074926734 0.018310308
-0.012142478 -0.074878618 0.017960966
-0.011244303 -0.075643495 0.017472446
-0.010267098 -0.075976521 0.017420799
-0.0092157852 -0.075774238 0.017415911
-0.008182521 -0.075688317 0.017061949
-0.0070711658 -0.074752323 0.017061949
-0.0061213863 -0.075497098 0.017190486
-0.0051289713 -0.07590878 0.01711911
-0.0041582128 -0.076926939 0.017440379
-0.0030897474 -0.07621377 0.017635763
-0.0020526943 -0.075949684 0.01763919
-0.00099555322 -0.073670939 0.017632753
0 -0.074957021 0.018069208
0.0010139017 -0.075028725 0.017825752
0.0020226808 -0.074839197 0.017821282
0.003069334 -0.075710237 0.017893046
0.0040420522 -0.074777961 0.017533839
0.0050913054 -0.07535132 0.017471075
0.0062405774 -0.07696712 0.017131031
0.0073620239 -0.077827111 0.01644066
0.008424527 -0.077926874 0.015937895
0.0093579199 -0.076942898 0.013812363
0.010462065 -0.077419281 0.012855977
0.011434034 -0.076919869 0.011367798
0.012918599 -0.079664692 0.0094476938
0.013618301 -0.077519558 0.0067183673
-0.073947668 -0.076030701 0.006165266
-0.073515408 -0.076666072 0.0066567659
-0.07249555 -0.076698191 0.0072735846
-0.071633309 -0.076900467 0.0072912574
-0.069933966 -0.076196708 0.0077758729
-0.068953477 -0.076266728 0.0075829029
-0.068754464 -0.077216551 0.0074466765
-0.066617005 -0.075985022 0.008014679
-0.066705726 -0.07729394 0.0086200833
-0.066658512 -0.07848502 0.0088903308
-0.06333565 -0.075795121 0.0095850229
-0.0633047 -0.07702072 0.0096375942
-0.061090879 -0.075587019 0.010329872
-0.059714012 -0.075157292 0.012026459
-0.059826408 -0.076619789 0.012197614
-0.057799395 -0.075345635 0.012616068
-0.056557976 -0.075067855 0.01322192
-0.055857062 -0.075510472 0.013458908
-0.055322714 -0.076199211 0.013695568
-0.0537416 -0.075444937 0.013382643
-0.053256575 -0.076230004 0.013420731
-0.051287718 -0.074880071 0.013374239
-0.050424971 -0.075122915 0.013635546
-0.050050627 -0.076118663 0.013957024
-0.0479527 -0.074479721 0.014600039
-0.048048347 -0.076250635 0.014800191
-0.046571244 -0.07554891 0.014805377
-0.045072984 -0.074780181 0.014964074
-0.044621572 -0.075752899 0.014906257
-0.043326158 -0.075304992 0.014628232
-0.041745193 -0.074326806 0.01439485
-0.041264452 -0.075307623 0.013908833
-0.040162407 -0.075175792 0.013483614
-0.039401654 -0.075692646 0.012042552
-0.039058745 -0.077061847 0.010889053
-0.037798107 -0.076646164 0.010616511
-0.036718059 -0.076583378 0.010623068
-0.036753297 -0.078911491 0.010996848
-0.034498487 -0.076314837 0.011345208
-0.033240739 -0.075830437 0.012792617
-0.031470072 -0.074106947 0.016299486
-0.030271569 -0.073660821 0.017536432
-0.029368039 -0.073926441 0.017901957
-0.028328087 -0.07385537 0.018168986
-0.027381584 -0.074031696 0.018712044
-0.026620889 -0.074743263 0.019399434
-0.025497936 -0.074453972 0.01950711
-0.024471538 -0.074434258 0.019614935
-0.023573907 -0.074821532 0.019363821
-0.022401253 -0.074331425 0.019224644
-0.021322137 -0.074119814 0.019139171
-0.020362785 -0.074324168 0.019300699
-0.019298544 -0.074147038 0.019264698
-0.018241215 -0.07397826 0.019436359
-0.017263744 -0.074132547 0.01934436
-0.015982719 -0.072921157 0.018973559
-0.015275816 -0.074342303 0.018624276
-0.014279967 -0.074459828 0.018584877
-0.013216862 -0.074217759 0.018259346
-0.012257982 -0.074569389 0.018075436
-0.011281385 -0.074867375 0.017428428
-0.01016717 -0.074220344 0.017428428
-0.0091313086 -0.074065059 0.017430216
-0.0081973458 -0.074800782 0.017186612
-0.0071844952 -0.074924022 0.017211437
-0.0061368775 -0.074665345 0.017248929
-0.0051476597 -0.075155832 0.017399937
-0.0041515422 -0.075765647 0.017543435
-0.0031100784 -0.075678572 0.017764986
-0.0020323384 -0.07418035 0.017748624
-0.0010132617 -0.073968105 0.017627537
0 -0.075277001 0.018250406
0.0010132617 -0.073968105 0.018131971
0.0020594411 -0.075169601 0.017993391
0.0030552053 -0.074343331 0.01811102
0.0040244195 -0.073445655 0.017987639
0.0050896294 -0.074308589 0.01794517
0.0060581295 -0.073707245 0.017583758
0.0071070869 -0.074116766 0.017439067
0.0082921265 -0.07566566 0.016734004
0.0091028754 -0.073834434 0.01612404
0.010337878 -0.075466514 0.015190691
0.011599453 -0.076978192 0.013607949
0.012643572 -0.076915063 0.01177156
0.013421364 -0.075366125 0.010675669
0.014643024 -0.076352909 0.0077292025
0.015536334 -0.075610161 0.005202651
-0.074310601 -0.075357229 0.006328702
-0.07276278 -0.074841723 0.0069476962
-0.072646156 -0.075804681 0.0075653493
-0.070534877 -0.074683987 0.0075903833
-0.069694646 -0.07489574 0.0078493953
-0.069647871 -0.075979494 0.0077403784
-0.067356192 -0.074609935 0.007543236
-0.066422679 -0.074725516 0.0081064105
-0.066605382 -0.076120436 0.0086200833
-0.06470152 -0.07513725 0.0088802874
-0.0641509 -0.075719096 0.0095048249
-0.063107997 -0.075729601 0.0093971789
-0.060815569 -0.074215606 0.010109544
-0.060332917 -0.07489603 0.011278778
-0.059203681 -0.074783593 0.011959285
-0.058235601 -0.074874341 0.012426347
-0.057652205 -0.075471982 0.012678236
-0.055884399 -0.074512534 0.013382643
-0.054896154 -0.074575908 0.013494223
-0.053962275 -0.074716993 0.013223678
-0.052815117 -0.07456252 0.013287485
-0.051107921 -0.073595405 0.013016135
-0.051052868 -0.075016461 0.013458014
-0.049530458 -0.074295685 0.013952017
-0.049034756 -0.075117074 0.014582455
-0.04729959 -0.07403414 0.014873803
-0.046028744 -0.073645987 0.014874697
-0.044970319 -0.07358779 0.015131444
-0.044305634 -0.074186176 0.015030295
-0.042697534 -0.07319577 0.014801204
-0.042487353 -0.074611939 0.014477223
-0.040977545 -0.073759578 0.014051735
-0.040222343 -0.074256629 0.013701588
-0.039441723 -0.074731685 0.011804521
-0.038580611 -0.075075783 0.010706544
-0.037618246 -0.075236492 0.010555863
-0.036928866 -0.075967953 0.010897338
-0.036427069 -0.077139676 0.011049539
-0.034735292 -0.075786091 0.011103809
-0.033357918 -0.075055316 0.012170494
-0.031795751 -0.073848195 0.015964329
-0.030561309 -0.073347144 0.017697275
-0.029398549 -0.072989501 0.018104672
-0.02798404 -0.071958959 0.018475145
-0.027601583 -0.073604226 0.019228786
-0.026637278 -0.073764771 0.01974982
-0.025269508 -0.072776183 0.019957781
-0.024643917 -0.073931746 0.02001524
-0.023543758 -0.073702201 0.019921035
-0.022292268 -0.07295651 0.019851625
-0.021314956 -0.073079854 0.019805044
-0.020263685 -0.072949268 0.019897997
-0.019265516 -0.073006161 0.019886702
-0.018285329 -0.073141314 0.019750684
-0.017262058 -0.073109895 0.019566447
-0.016259968 -0.073169857 0.019320011
-0.015329004 -0.073579222 0.018756181
-0.01413147 -0.07267613 0.01867184
-0.013305608 -0.073692597 0.018384248
-0.012318777 -0.073912658 0.0181624
-0.011245565 -0.07360734 0.01761055
-0.010181981 -0.073310263 0.017608225
-0.0092397947 -0.073918357 0.017605275
-0.0082174726 -0.073957257 0.017584831
-0.0071382993 -0.073422506 0.01761958
-0.0061636409 -0.073963687 0.017664522
-0.0051875953 -0.074701369 0.017755806
-0.0041227201 -0.074208967 0.017968416
-0.0030271946 -0.072652668 0.017998546
-0.0020182827 -0.072658181 0.018016011
-0.0010175994 -0.073267154 0.018006772
0 -0.073560588 0.018318981
0.0010321869 -0.074317455 0.018334806
0.0020233884 -0.07284198 0.018476516
0.00302683 -0.072643921 0.018615127
0.0040935469 -0.073683843 0.018392265
0.005096734 -0.073392972 0.018348664
0.0060790423 -0.072948508 0.018125385
0.0070893778 -0.072919317 0.017980903
0.0080361376 -0.072325237 0.017500252
0.0090445532 -0.072356425 0.016868114
0.010346647 -0.074495867 0.016546577
0.011254253 -0.073664203 0.015874177
0.012219626 -0.073317751 0.013721943
0.013312716 -0.073731966 0.012445837
0.014367036 -0.073887609 0.011261135
0.015383669 -0.073841609 0.007797569
-0.074711472 -0.074711472 0.0062235892
-0.074017495 -0.075074889 0.0069447458
-0.071312271 -0.073379293 0.0075879097
-0.071065918 -0.074201182 0.0075384676
-0.070639975 -0.074857287 0.0078423619
-0.068877235 -0.074095204 0.0076170564
-0.068028256 -0.074307784 0.007448107
-0.067065477 -0.07440076 0.007543236
-0.066803493 -0.075286478 0.0084353983
-0.064818189 -0.074227273 0.0087150335
-0.064364806 -0.074916415 0.0094911754
-0.063120075 -0.074692093 0.0088802874
-0.0616505 -0.074189581 0.010102451
-0.059925709 -0.073357329 0.010498673
-0.05987031 -0.074575298 0.011624128
-0.058809858 -0.074562497 0.011959285
-0.05717301 -0.073805161 0.012271166
-0.055478688 -0.072944202 0.012949914
-0.05515267 -0.073883764 0.013209969
-0.053511813 -0.073064208 0.01260069
-0.052219372 -0.072697558 0.012935132
-0.051898997 -0.073696576 0.01283437
-0.050660573 -0.073406138 0.013403237
-0.049873214 -0.073770799 0.013964504
-0.048720703 -0.073599361 0.014499009
-0.047080908 -0.072668359 0.01457721
-0.046807021 -0.073851071 0.014740765
-0.044819474 -0.072322339 0.014930636
-0.043822952 -0.072358824 0.014848232
-0.043134961 -0.072918624 0.014516979
-0.042180669 -0.073044568 0.014330506
-0.040782228 -0.072388455 0.013902009
-0.040017758 -0.072852843 0.013597846
-0.039585065 -0.073961563 0.011374772
-0.038632892 -0.074133389 0.010648459
-0.038028814 -0.075001277 0.010591328
-0.036789775 -0.074630685 0.010710686
-0.036114912 -0.075416431 0.011054039
-0.034778032 -0.074825466 0.011125237
-0.033158846 -0.07357119 0.011688232
-0.032066874 -0.073443487 0.015527278
-0.030570896 -0.07235112 0.016923815
-0.028880261 -0.070706844 0.017809153
-0.028420804 -0.072067037 0.01827687
-0.027590584 -0.072553016 0.019011676
-0.02662354 -0.072702743 0.019602209
-0.025818996 -0.073325947 0.019664943
-0.024396757 -0.072173737 0.019941121
-0.02348274 -0.0724902 0.01993072
-0.022324661 -0.07204777 0.019614935
-0.021176327 -0.071596153 0.01956448
-0.020228781 -0.071812175 0.019575149
-0.019315429 -0.072178707 0.019614935
-0.018201446 -0.071794592 0.019631326
-0.01732119 -0.072341442 0.019599527
-0.016224267 -0.071995184 0.01913932
-0.015347492 -0.072644792 0.018906504
-0.01434773 -0.072763488 0.018609136
-0.01330663 -0.072674669 0.018316001
-0.012339415 -0.073008202 0.017994314
-0.011235063 -0.072517224 0.017592341
-0.01030856 -0.073190771 0.017649472
-0.009161192 -0.07227163 0.017640024
-0.0081621902 -0.07243944 0.017667174
-0.0071171452 -0.072188184 0.017679602
-0.0061659412 -0.07296364 0.017760247
-0.0051545687 -0.073194876 0.01792416
-0.0040413383 -0.071733758 0.017956048
-0.0030668152 -0.072581291 0.018022656
-0.0020449401 -0.072595373 0.018058419
-0.0010196223 -0.072393179 0.018092155
0 -0.07355018 0.018425524
0.0010139077 -0.071987443 0.018447131
0.0020484659 -0.072720543 0.018635601
0.0031246282 -0.073949531 0.018826932
0.0040785423 -0.072394125 0.019000024
0.0049649081 -0.070501693 0.019021243
0.0060660085 -0.071781099 0.018714368
0.0070528965 -0.071536519 0.018392265
0.0080853626 -0.071757592 0.018080354
0.0092645762 -0.073087208 0.017849207
0.010129276 -0.071917862 0.017198533
0.011092009 -0.071593881 0.01686275
0.012239515 -0.072417133 0.015862614
0.013309 -0.072687618 0.014799982
0.014223544 -0.07213369 0.012782484
0.015335646 -0.072588719 0.011189193
0.016301049 -0.072335906 0.0073136091
-0.075817727 -0.074749872 0.0051644146
-0.073523752 -0.073523752 0.0065629482
-0.071437038 -0.072472364 0.0070728064
-0.071494825 -0.073597617 0.0071760118
-0.070488252 -0.073644444 0.0074712634
-0.068592951 -0.072750099 0.0073465109
-0.068821102 -0.074115038 0.0074351132
-0.066885725 -0.07315626 0.007309258
-0.067394853 -0.074883163 0.0077177286
-0.065426283 -0.073868386 0.0083751678
-0.065132119 -0.074741773 0.0092238188
-0.064860083 -0.075670101 0.0089717209
-0.061693881 -0.073196128 0.0097026527
-0.059116594 -0.071347617 0.010329872
-0.059960358 -0.073635526 0.011305541
-0.05785292 -0.072316155 0.011759549
-0.057415579 -0.073074371 0.011871427
-0.05690781 -0.073769383 0.012523741
-0.055099051 -0.072772332 0.012547553
-0.054387212 -0.073213555 0.012491167
-0.05395183 -0.074051529 0.012739778
-0.051341508 -0.071878113 0.012503117
-0.049963202 -0.071376003 0.013252616
-0.050030336 -0.072960906 0.013635546
-0.048372176 -0.072043665 0.014459729
-0.047139734 -0.071734376 0.014703453
-0.045953806 -0.071483701 0.014914334
-0.04460448 -0.070961669 0.014977306
-0.04402354 -0.071666226 0.014857978
-0.043016054 -0.07169342 0.014697701
-0.041660327 -0.071127385 0.01441288
-0.040874586 -0.071530528 0.014019638
-0.040046513 -0.071878359 0.01356563
-0.039187651 -0.072187781 0.011559695
-0.038563982 -0.072958887 0.010767817
-0.037626084 -0.073161833 0.011054039
-0.03687514 -0.07375028 0.011184156
-0.03583125 -0.073770218 0.011237681
-0.034588601 -0.073369764 0.011478633
-0.033508398 -0.073299624 0.011828423
-0.032339782 -0.073025316 0.015086949
-0.030312892 -0.070730083 0.016999662
-0.029262081 -0.070632607 0.017900914
-0.028246135 -0.070615336 0.01832971
-0.027391039 -0.071013808 0.01884374
-0.026576504 -0.071552128 0.019518852
-0.0255614 -0.071571916 0.019667655
-0.024488768 -0.071425572 0.019878328
-0.023337781 -0.071028031 0.019679159
-0.022051053 -0.070162445 0.019486248
-0.021004358 -0.070014529 0.019394606
-0.020578763 -0.072025664 0.019450009
-0.019384859 -0.071417898 0.019497663
-0.01827924 -0.07108593 0.019459188
-0.017443234 -0.07182508 0.019216388
-0.016149569 -0.07065437 0.018907994
-0.015548179 -0.072558165 0.018869042
-0.014363207 -0.071816035 0.01873973
-0.013227774 -0.071226478 0.018255293
-0.012326435 -0.071904205 0.01823768
-0.011315417 -0.072007202 0.017698318
-0.010105664 -0.070739649 0.017679602
-0.0092017725 -0.071569338 0.017640024
-0.0081199659 -0.071049698 0.017684489
-0.007099343 -0.070993431 0.0177086
-0.006143033 -0.071668722 0.01781702
-0.005099609 -0.071394533 0.017954558
-0.0040498869 -0.070873022 0.017991513
-0.0030920217 -0.072147176 0.018037915
-0.0020335317 -0.071173608 0.018073678
-0.001014708 -0.071029551 0.018210351
0 -0.071404338 0.01842773
0.0010173833 -0.071216837 0.018547267
0.002041193 -0.071441755 0.018648624
0.0030491555 -0.071146958 0.01892221
0.0040486711 -0.070851743 0.019223928
0.0050880574 -0.071232803 0.019370079
0.0061050951 -0.071226113 0.018938422
0.0071346648 -0.071346648 0.018823057
0.0081554689 -0.07136035 0.018479317
0.0091301017 -0.071011901 0.01820603
0.010110527 -0.070773691 0.017692357
0.011199081 -0.071266882 0.017320365
0.012305285 -0.071780831 0.01633364
0.013340752 -0.071834818 0.015252173
0.014608222 -0.073041111 0.013835758
0.01552448 -0.072447576 0.012257248
0.016801851 -0.073508099 0.011048526
0.017852204 -0.073509075 0.0071092546
-0.073385864 -0.072337493 0.0058291256
-0.072458833 -0.072458833 0.0068002939
-0.07134448 -0.072393663 0.0070594251
-0.069966301 -0.072054848 0.0071228743
-0.069112144 -0.072253607 0.0073964
-0.068404168 -0.072613657 0.0071933866
-0.067708679 -0.072998419 0.0073817968
-0.067573458 -0.074009024 0.0075180829
-0.066179544 -0.073651426 0.0077597797
-0.06483572 -0.073338762 0.0082730353
-0.06351842 -0.073046185 0.0084260404
-0.061626855 -0.072072081 0.0088469982
-0.059839383 -0.071188234 0.0099827647
-0.059497517 -0.07202331 0.01043424
-0.057563134 -0.070926003 0.011306524
-0.05768108 -0.072363533 0.011698931
-0.0563908 -0.072054915 0.01211378
-0.054802217 -0.071346283 0.012151867
-0.054105356 -0.071793646 0.012139082
-0.053453892 -0.07231997 0.012443185
-0.052228857 -0.072075821 0.012415588
-0.050821174 -0.07156451 0.012802541
-0.049210414 -0.07073997 0.013258815
-0.049187176 -0.07221096 0.014338017
-0.047712464 -0.071568698 0.014531612
-0.04618514 -0.070817217 0.014727622
-0.045189768 -0.070865773 0.014907181
-0.04409913 -0.070763722 0.014759213
-0.042764734 -0.070256352 0.014507204
-0.042332668 -0.071242779 0.014151216
-0.040947363 -0.070634201 0.013657987
-0.040136412 -0.071010575 0.012960672
-0.039463956 -0.071658239 0.011475325
-0.038506012 -0.07180851 0.011090666
-0.037589319 -0.072046198 0.010658413
-0.036387775 -0.071735904 0.010841548
-0.035396859 -0.071834803 0.010867804
-0.034532897 -0.072205149 0.011442006
-0.033244856 -0.071684219 0.011422515
-0.03191711 -0.071041308 0.014249921
-0.030573139 -0.070318222 0.016521096
-0.029441567 -0.070050627 0.017450571
-0.028387185 -0.069954135 0.018235803
-0.027297739 -0.069760889 0.01880163
-0.026491417 -0.070304148 0.01936245
-0.025802793 -0.071215704 0.019536227
-0.024660794 -0.070899785 0.019536704
-0.023559896 -0.070679687 0.019516736
-0.022119209 -0.069373883 0.01926139
-0.021350004 -0.070150018 0.019230425
-0.020659059 -0.071273759 0.019129992
-0.01932608 -0.070184186 0.019230425
-0.018422564 -0.070619829 0.019114971
-0.017332803 -0.070350789 0.019067049
-0.016423794 -0.070827611 0.018806815
-0.01545713 -0.071102798 0.018806815
-0.014190551 -0.069939144 0.018712938
-0.013502025 -0.071664594 0.01823917
-0.01230608 -0.07075996 0.018075734
-0.011312809 -0.070962168 0.01754871
-0.010228503 -0.070576668 0.017660737
-0.0091230199 -0.069943152 0.017736137
-0.008143343 -0.07023634 0.017802864
-0.0071457634 -0.070436813 0.017838627
-0.0061022011 -0.070175312 0.018002898
-0.0050622332 -0.069858819 0.01819849
-0.0040983069 -0.070695795 0.018166453
-0.003059749 -0.070374228 0.01815632
-0.0020431485 -0.070488617 0.018173397
-0.0010280911 -0.070938282 0.018361986
0 -0.070388786 0.018618822
0.0010212797 -0.070468299 0.018828243
0.0020452163 -0.070559956 0.018878549
0.0030267271 -0.069614723 0.019223928
0.0040362775 -0.069625787 0.019395351
0.0051142266 -0.070576325 0.019468427
0.0060303248 -0.069348738 0.019390702
0.0071355477 -0.070336118 0.019287527
0.0080786478 -0.069678344 0.018944442
0.0091799293 -0.070379458 0.01870054
0.010231542 -0.070597641 0.01814431
0.011203138 -0.070274234 0.017844081
0.012225838 -0.070298575 0.017291665
0.013370062 -0.070964172 0.01618278
0.014482412 -0.071377598 0.015600264
0.015324037 -0.070490569 0.014245391
0.016209891 -0.069905154 0.012504011
0.017215047 -0.069872841 0.010675043
0.018812975 -0.072116405 0.0073092282
-0.072194174 -0.071147881 0.0061944723
-0.071483195 -0.071483195 0.0062732697
-0.070207492 -0.071255364 0.0066357553
-0.068700224 -0.070782043 0.0065391958
-0.068189621 -0.071336836 0.0065672398
-0.067482039 -0.071699671 0.0065677762
-0.06769114 -0.073063448 0.0069710612
-0.067029566 -0.073516302 0.0076266825
-0.065620944 -0.073151216 0.0076263249
-0.063688241 -0.07218001 0.0075029433
-0.061839927 -0.071273133 0.0079927146
-0.06001737 -0.070365191 0.0083008111
-0.058735512 -0.070070438 0.0096934736
-0.057758685 -0.070135549 0.010292143
-0.057886668 -0.071568966 0.010554612
-0.056247622 -0.070830338 0.011448562
-0.055134561 -0.070738681 0.011817932
-0.054403365 -0.07114286 0.011500061
-0.053093925 -0.0707919 0.011832833
-0.052425086 -0.071298115 0.011838943
-0.050803423 -0.070502706 0.01240015
-0.050613422 -0.071702346 0.012680292
-0.048565429 -0.070264876 0.013551861
-0.047220446 -0.069804139 0.014104158
-0.045760725 -0.069149539 0.014449924
-0.045349326 -0.070085324 0.014555216
-0.044260293 -0.069993019 0.014433205
-0.042919602 -0.069488876 0.014236957
-0.042394672 -0.070313118 0.013978362
-0.041034449 -0.069758564 0.013457447
-0.040148184 -0.07000196 0.012693554
-0.039289102 -0.070306815 0.011424005
-0.038844462 -0.071389824 0.010791063
-0.037995048 -0.071768425 0.010647923
-0.036457799 -0.070832297 0.010653704
-0.036122277 -0.072244555 0.010722995
-0.034811046 -0.071731851 0.010922998
-0.033279814 -0.0707196 0.011230856
-0.032328818 -0.070914827 0.014387906
-0.030607641 -0.069377318 0.016516536
-0.029228596 -0.068536013 0.017130584
-0.028456755 -0.069109261 0.018114567
-0.02748608 -0.069224201 0.018714935
-0.026538704 -0.069408916 0.01926139
-0.025905998 -0.07046432 0.01936245
-0.024375161 -0.069062956 0.019516736
-0.023515174 -0.069523126 0.019278407
-0.022092385 -0.068285555 0.019337237
-0.021304028 -0.068984471 0.019145608
-0.020420922 -0.069431134 0.019101769
-0.019394143 -0.069410622 0.019093901
-0.018091125 -0.068344258 0.019027948
-0.017168505 -0.06867402 0.018946558
-0.016558954 -0.070375554 0.018641353
-0.015383278 -0.069737531 0.018615156
-0.014479018 -0.070326656 0.018954307
-0.013254669 -0.069332115 0.01827696
-0.012254999 -0.069444992 0.018309712
-0.011352269 -0.070177659 0.01785925
-0.010226666 -0.069541328 0.017918736
-0.0091328463 -0.069003724 0.017822176
-0.0082138712 -0.069817908 0.018015921
-0.0071202088 -0.069167741 0.018260658
-0.0061299214 -0.06947244 0.018345416
-0.0051063141 -0.069445871 0.018283218
-0.0040764068 -0.069298916 0.018259108
-0.0030683205 -0.069548592 0.018257052
-0.0020474035 -0.069611713 0.018299282
-0.0010215214 -0.069463462 0.018302172
0 -0.06980285 0.01863426
0.0010257185 -0.069748864 0.019062072
0.0020283042 -0.068962343 0.019113809
0.0030701451 -0.069589958 0.019372344
0.0040452653 -0.068769507 0.019716591
0.0050527905 -0.068717949 0.019892842
0.0060478146 -0.068541899 0.019917071
0.0071436232 -0.069395199 0.019629687
0.0081744632 -0.069482937 0.019315183
0.0091027441 -0.068776295 0.019081056
0.010157953 -0.069074079 0.018606752
0.011130213 -0.06880495 0.018206835
0.012250622 -0.069420189 0.017808586
0.013392188 -0.070051447 0.017427832
0.014304551 -0.069479249 0.016876698
0.015517307 -0.070345126 0.015568137
0.016328482 -0.069396049 0.014379799
0.017440217 -0.069760866 0.012007415
0.018449886 -0.069699571 0.010377795
0.019302944 -0.06908422 0.0069253743
-0.071176946 -0.070130222 0.00548172
-0.070484512 -0.070484512 0.0056687891
-0.069282182 -0.070331916 0.0058406889
-0.068142444 -0.070239134 0.0057490766
-0.066739701 -0.069868125 0.0057439506
-0.067183726 -0.071449354 0.0059361458
-0.066768654 -0.072153218 0.0062791705
-0.066171236 -0.072679885 0.0072466433
-0.06433066 -0.071835898 0.0073352754
-0.06279844 -0.071313486 0.0073468685
-0.059880752 -0.069172591 0.0074596703
-0.058868956 -0.069196843 0.0084558427
-0.057957333 -0.069341809 0.0090841055
-0.057210181 -0.069692403 0.009827435
-0.056305908 -0.069861032 0.010581732
-0.055095885 -0.069649518 0.010926723
-0.054296441 -0.069958881 0.010878056
-0.053173658 -0.069855593 0.011256874
-0.051606856 -0.06915319 0.011301309
-0.050868206 -0.069554485 0.011700481
-0.050105851 -0.06993942 0.012095779
-0.049172841 -0.070097454 0.012420148
-0.047392458 -0.069028147 0.013174474
-0.046777792 -0.069646932 0.013891876
-0.045053653 -0.068604432 0.014170319
-0.044059694 -0.068651147 0.014157355
-0.043153036 -0.068839371 0.013899535
-0.04189565 -0.068463624 0.013700217
-0.041203637 -0.069016092 0.012823313
-0.039788958 -0.068355389 0.011559904
-0.039456867 -0.069568686 0.011160314
-0.03901916 -0.070656314 0.010265559
-0.037683018 -0.070132285 0.010340184
-0.036735509 -0.07032226 0.010300428
-0.036501467 -0.071929365 0.010536969
-0.034412786 -0.069868386 0.010795563
-0.033471771 -0.070081517 0.010937214
-0.032087993 -0.069351465 0.014463216
-0.030580088 -0.068295531 0.016375691
-0.029511597 -0.068181969 0.016880393
-0.028461602 -0.06810455 0.017628133
-0.027856233 -0.069124728 0.018148154
-0.026492715 -0.068269685 0.018655539
-0.025373049 -0.067999773 0.018913329
-0.024615429 -0.068718068 0.019003242
-0.023399046 -0.068162434 0.018882573
-0.02214694 -0.067447498 0.018708646
-0.021248974 -0.067794345 0.018462479
-0.020223895 -0.067750044 0.018407464
-0.019190779 -0.067672744 0.018417627
-0.018025296 -0.067094155 0.018413067
-0.017196234 -0.067773394 0.018422753
-0.016389627 -0.06863156 0.018386096
-0.015329367 -0.068471171 0.018413067
-0.014428718 -0.06905172 0.018533617
-0.013294088 -0.068515681 0.018210709
-0.012461415 -0.069576241 0.018253744
-0.011057192 -0.067348354 0.018041581
-0.010105561 -0.067707263 0.017971933
-0.0091606835 -0.0681962 0.018247873
-0.0081310943 -0.068097919 0.018244386
-0.0071060974 -0.068015508 0.018446624
-0.0061291452 -0.068442121 0.018488377
-0.0050992793 -0.06833034 0.018365681
-0.0040827007 -0.068385243 0.018317342
-0.0031024262 -0.069287516 0.018317342
-0.0020414267 -0.068387792 0.018345237
-0.0010210271 -0.068408817 0.018368602
0 -0.068792179 0.018491983
0.0010101981 -0.067683272 0.018852532
0.0020456852 -0.068530455 0.019075572
0.0030692103 -0.068545699 0.019334078
0.0040600705 -0.068006188 0.019413292
0.0050679506 -0.067910537 0.019806653
0.006056149 -0.067626998 0.019878685
0.0071086525 -0.068039961 0.019566029
0.0081948396 -0.068631783 0.019504011
0.0091218175 -0.067906864 0.019161552
0.010043527 -0.067291632 0.018636942
0.011148839 -0.067906566 0.018424958
0.012349769 -0.068952873 0.017924845
0.01341582 -0.069143072 0.017536074
0.014525754 -0.069516115 0.017252892
0.015095004 -0.067424349 0.01657173
0.016182458 -0.067764044 0.015458345
0.017523792 -0.069064356 0.014317214
0.018437721 -0.068629295 0.011445045
0.020124858 -0.070966601 0.0087255239
0.020706341 -0.069366246 0.0064070523
-0.067267798 -0.071607657 0.0055353642
-0.066904776 -0.072388776 0.0058067441
-0.065420598 -0.071962662 0.0061596036
-0.062542193 -0.069962457 0.0062767565
-0.060519122 -0.068866588 0.006510824
-0.05931456 -0.068680018 0.0068824887
-0.057527997 -0.06780085 0.0076715946
-0.058005225 -0.069606267 0.0090754926
-0.055960089 -0.068395667 0.0096177757
-0.054839451 -0.068290636 0.0099208057
-0.054804157 -0.06955912 0.010298103
-0.052680507 -0.068174779 0.010612309
-0.052240159 -0.068957008 0.010645062
-0.05090015 -0.068559386 0.011101395
-0.049502112 -0.068065405 0.011412114
-0.049084265 -0.068926841 0.011917293
-0.047870114 -0.068683207 0.012363017
-0.046450723 -0.068127729 0.01275447
-0.045390997 -0.06808649 0.013167769
-0.044410273 -0.068164602 0.013237059
-0.04287795 -0.067379631 0.013204336
-0.042364102 -0.068195872 0.012886971
-0.040842243 -0.067389697 0.011756629
-0.040485125 -0.068513289 0.011366397
-0.039431088 -0.068485573 0.010492563
-0.038140025 -0.068033554 0.010324359
-0.037383739 -0.068536855 0.010217845
-0.036938827 -0.069656074 0.010242164
-0.035847794 -0.069586895 0.010498106
-0.034690585 -0.06938117 0.010753393
-0.033459786 -0.069010809 0.011140019
-0.031547863 -0.067166418 0.013293147
-0.030703425 -0.067547537 0.014715612
-0.029322842 -0.066734746 0.016649038
-0.028427182 -0.067006931 0.017437577
-0.027024835 -0.066060707 0.018340915
-0.026661251 -0.067678563 0.018950731
-0.025668716 -0.067765407 0.0188936
-0.024599064 -0.067647427 0.018838733
-0.023516065 -0.067480877 0.018817484
-0.022496767 -0.067490302 0.018703908
-0.021466844 -0.06746722 0.018706441
-0.020709747 -0.068342164 0.018644452
-0.019204328 -0.066709772 0.018603325
-0.018276634 -0.067014322 0.018476725
-0.017275542 -0.067069754 0.018489271
-0.016432209 -0.067782864 0.018423408
-0.015415802 -0.067829527 0.018326342
-0.014267636 -0.067261718 0.018696219
-0.013440956 -0.068238705 0.018366426
-0.012267872 -0.067473292 0.018479437
-0.011204203 -0.067225218 0.01821503
-0.010123651 -0.066816092 0.01834321
-0.0091873771 -0.067374095 0.018208623
-0.0081533622 -0.067265235 0.018412888
-0.007164761 -0.067553461 0.018401444
-0.0061684852 -0.067853339 0.018412888
-0.0050967736 -0.067277409 0.018399775
-0.0040882416 -0.067455992 0.018345803
-0.0030417882 -0.066919342 0.018483996
-0.0020417634 -0.067378193 0.018390775
-0.0010254547 -0.067680009 0.018410176
0 -0.06690114 0.018528461
0.0010132854 -0.066876836 0.019055158
0.0020348269 -0.067149289 0.01913178
0.0030206137 -0.066453502 0.019154787
0.0040692585 -0.067142762 0.019525588
0.0051223272 -0.067614719 0.019910783
0.0060622576 -0.066684835 0.019834816
0.0071311179 -0.067236252 0.019760221
0.0082030036 -0.067674778 0.019823879
0.0091068959 -0.066783898 0.019796789
0.01021246 -0.067402236 0.019201607
0.011210893 -0.067265362 0.019086272
0.012240137 -0.067320757 0.018275172
0.013267815 -0.067359678 0.018036187
0.014278704 -0.067313895 0.017763555
0.015267134 -0.067175388 0.017246813
0.016227925 -0.066940196 0.016711801
0.017195964 -0.066760801 0.015497893
0.018789789 -0.068895891 0.013919681
0.019065753 -0.066228405 0.011221468
0.020787535 -0.068598866 0.0099825561
0.021944083 -0.068967119 0.0064070523
-0.064993806 -0.070409961 0.0052656531
-0.064299628 -0.070838571 0.0055365562
-0.061216716 -0.068604939 0.0053665936
-0.059237927 -0.067552023 0.0058895051
-0.057948727 -0.067261919 0.0065589249
-0.057122242 -0.067508101 0.0079217255
-0.056607153 -0.068138242 0.0088817477
-0.055724144 -0.068340927 0.0094420016
-0.054003045 -0.067503802 0.0096120238
-0.053439982 -0.068109781 0.0097052455
-0.052266441 -0.067946374 0.0097872019
-0.05087259 -0.067484051 0.010326654
-0.050014529 -0.067728013 0.010448039
-0.048694242 -0.067343101 0.010810941
-0.047402035 -0.066981137 0.011433899
-0.046262063 -0.066822976 0.012005597
-0.0451 -0.066624999 0.011939794
-0.044287149 -0.066945694 0.012387425
-0.043530367 -0.067368425 0.01231721
-0.042427849 -0.067263663 0.011856347
-0.041076347 -0.066749066 0.01145944
-0.04002849 -0.066714153 0.010944635
-0.039140306 -0.066950522 0.010400116
-0.038598944 -0.067808956 0.0099826753
-0.037852228 -0.068344302 0.0099750459
-0.036435388 -0.067665718 0.0098719001
-0.03536069 -0.067601323 0.010240227
-0.03456796 -0.068088405 0.010863572
-0.033160292 -0.06735684 0.010867804
-0.031688269 -0.066443145 0.012297958
-0.030673679 -0.066459641 0.014487088
-0.02930107 -0.065674812 0.015404791
-0.028751243 -0.066743955 0.017048031
-0.027434042 -0.066044912 0.017712742
-0.025901249 -0.064753123 0.018474162
-0.025824623 -0.067144021 0.018115819
-0.024626283 -0.066696182 0.018112689
-0.023426158 -0.066204362 0.018128812
-0.022489633 -0.066446647 0.018094122
-0.021451099 -0.066396259 0.017993659
-0.020854041 -0.067775629 0.017716944
-0.019358672 -0.066227041 0.017922789
-0.018173378 -0.065626092 0.018096715
-0.017485006 -0.06685444 0.018243432
-0.016262606 -0.066066839 0.017980784
-0.015301482 -0.06630642 0.018185824
-0.014625817 -0.067905575 0.01840359
-0.013254896 -0.066274479 0.018059522
-0.012170544 -0.06592378 0.018098146
-0.011282265 -0.066667929 0.018163949
-0.010132557 -0.06586162 0.018304855
-0.0091745974 -0.066260979 0.018358976
-0.0082184207 -0.066774666 0.018484771
-0.0071113785 -0.066034228 0.018650889
-0.0061220014 -0.066321678 0.018441945
-0.0051149256 -0.066494033 0.018501759
-0.0040263329 -0.065427914 0.018416405
-0.0030579718 -0.066256054 0.018551588
-0.0020660649 -0.067147106 0.018479466
-0.0010194102 -0.066261664 0.018289685
0 -0.066178791 0.018847317
0.0010082126 -0.065533817 0.018965334
0.0020164063 -0.065533206 0.019134074
0.0030707512 -0.066532947 0.019154787
0.0040772068 -0.066254608 0.019734532
0.0050808485 -0.066051029 0.019910783
0.006067601 -0.065732345 0.019801974
0.0071603609 -0.066489063 0.019801974
0.0081225298 -0.065995552 0.019865632
0.0091488613 -0.066075109 0.019919455
0.010043734 -0.065284267 0.019037187
0.011129693 -0.065766372 0.019260168
0.012156675 -0.065848656 0.018412828
0.01315052 -0.065752603 0.018202811
0.014173682 -0.065806381 0.018026114
0.015433753 -0.0668796 0.017554551
0.016049534 -0.06520123 0.016949683
0.017525319 -0.06700857 0.016448826
0.018605635 -0.067187019 0.015087485
0.019083787 -0.065286644 0.013068438
0.021016933 -0.068305038 0.011047989
0.021990949 -0.068067223 0.0098597705
0.022779725 -0.067303739 0.0065001249
-0.057812244 -0.066071138 0.0056205392
-0.057409391 -0.066803657 0.0065611005
