ply
format ascii 1.0
comment PCL generated
element vertex 1291
property float x
property float y
property float z
element camera 0
property float view_px
property float view_py
property float view_pz
property float x_axisx
property float x_axisy
property float x_axisz
property float y_axisx
property float y_axisy
property float y_axisz
property float z_axisx
property float z_axisy
property float z_axisz
property float focal
property float scalex
property float scaley
property float centerx
property float centery
property int viewportx
property int viewporty
property float k1
property float k2
end_header
-0.052760284 0.023214525 0.016003907
-0.052156083 0.023417018 0.015884995
-0.050726783 0.023249775 0.015866101
-0.049903307 0.023358995 0.015832961
-0.048788726 0.023333738 0.015529484
-0.047921158 0.02342812 0.015341967
-0.046813156 0.023406578 0.014974117
-0.045894235 0.023480771 0.014861107
-0.044581808 0.023352375 0.014763743
-0.043677986 0.023436965 0.014651477
-0.042441566 0.023342861 0.014326006
-0.041468602 0.023392543 0.013824254
-0.041407607 0.023972824 0.013519347
-0.03926627 0.02334751 0.012935579
-0.038084835 0.023274066 0.012861192
-0.037502076 0.023572734 0.01256457
-0.03623829 0.023448303 0.011847794
-0.034861371 0.023240915 0.01194188
-0.03439245 0.023644809 0.011139989
-0.032674979 0.023188693 0.010843396
-0.032380983 0.023746055 0.010551333
-0.031423569 0.023838568 0.01044789
-0.029852185 0.023455288 0.010018349
-0.029323993 0.023893623 0.0098199844
-0.028004033 0.02369572 0.0097452998
-0.026521051 0.023338525 0.0093191266
-0.026056269 0.023884913 0.0086005926
-0.024912724 0.023829561 0.0085064769
-0.023507897 0.023507897 0.0079652369
-0.022621108 0.023698302 0.0075545013
-0.021625705 0.023788277 0.0073127151
-0.020627797 0.023884816 0.0065143704
-0.019571738 0.023921015 0.0060834587
-0.01828065 0.023657311 0.0061566234
-0.017436797 0.023975596 0.0059786439
-0.016366825 0.024004675 0.0058398843
-0.015070936 0.023682898 0.0059223175
-0.014097663 0.023857584 0.0055158734
-0.013022273 0.023874165 0.0054422319
-0.011874339 0.023748677 0.0046495199
-0.11899539 0.024880854 0.010079741
-0.11172026 0.023574 0.026639849
-0.10910823 0.023236012 0.02858448
-0.11078974 0.023814617 0.028924882
-0.10916109 0.023685899 0.029148042
-0.10730739 0.023505429 0.029554605
-0.10755742 0.023786737 0.030135691
-0.10483261 0.023409223 0.030087382
-0.10433437 0.023526378 0.029551417
-0.10504817 0.02392186 0.028998941
-0.10258097 0.023593625 0.028626055
-0.10112887 0.023494586 0.028198481
-0.1008491 0.023668667 0.028003693
-0.099194333 0.023520308 0.027881026
-0.10037574 0.024048354 0.027897924
-0.098181881 0.023770351 0.027193934
-0.095542438 0.023377405 0.02696529
-0.096227169 0.023798117 0.026824862
-0.095151767 0.023787942 0.026576489
-0.093071885 0.023523662 0.026586354
-0.093504392 0.023895565 0.026528239
-0.091901034 0.023749707 0.026270777
-0.091162145 0.023826471 0.026350141
-0.091177158 0.024104306 0.025963306
-0.08846081 0.023658123 0.025577217
-0.087846249 0.023770163 0.025320232
-0.087412052 0.023934253 0.02511999
-0.086444184 0.023954412 0.024823874
-0.084574319 0.023722066 0.024820745
-0.08499492 0.024134362 0.024408042
-0.082749151 0.023790384 0.02445966
-0.082787052 0.024102559 0.024224609
-0.081232302 0.023953116 0.023911327
-0.080090091 0.023923015 0.023740321
-0.080349952 0.024316434 0.023387969
-0.07825619 0.023998564 0.02304852
-0.076715842 0.023844112 0.022458732
-0.076875597 0.024221078 0.021882951
-0.075178377 0.024015317 0.021770656
-0.074068353 0.023993975 0.021437109
-0.073471829 0.024140744 0.021086127
-0.071260512 0.023753505 0.020774424
-0.071615897 0.024223026 0.020362228
-0.070873171 0.024329595 0.019870877
-0.068931721 0.024021661 0.020221978
-0.067941628 0.024040883 0.020430416
-0.067026451 0.02408763 0.020134777
-0.065709114 0.023989042 0.019946575
-0.065731332 0.024384202 0.019245416
-0.063557327 0.023964237 0.019372612
-0.062430073 0.023931529 0.019333988
-0.062428087 0.024336373 0.018810183
-0.061294042 0.024306258 0.018573165
-0.06023778 0.024306474 0.018505037
-0.059528898 0.024449369 0.018028766
-0.057603393 0.024088692 0.017373741
-0.05638922 0.02401763 0.017150789
-0.056044377 0.024321146 0.01682052
-0.054747205 0.024215112 0.016431123
-0.053994663 0.024350533 0.016342133
-0.053689301 0.024697078 0.01606518
-0.051707726 0.024270974 0.015995264
-0.050911251 0.024394976 0.015956342
-0.049990185 0.024463281 0.015832961
-0.048509344 0.024254672 0.015494108
-0.047851913 0.024457643 0.015346289
-0.046780046 0.024453206 0.014984876
-0.045307476 0.024234232 0.014933228
-0.045104533 0.024700101 0.014763743
-0.043887939 0.024620062 0.014647186
-0.042411443 0.024386581 0.014349729
-0.041947249 0.024738124 0.013698041
-0.040430024 0.024470804 0.01336816
-0.039316878 0.024440221 0.012924492
-0.038852215 0.02482225 0.012699306
-0.037161496 0.024420412 0.012433231
-0.036581781 0.0247465 0.011823595
-0.035679374 0.024867445 0.011777133
-0.034354649 0.024692405 0.011208236
-0.03340045 0.024780978 0.011070192
-0.032602295 0.024995092 0.010875583
-0.030709598 0.024355888 0.010317504
-0.03016769 0.024780603 0.010096133
-0.029096873 0.024786225 0.0097361505
-0.02764949 0.024459166 0.0097533464
-0.027130993 0.024960512 0.0092903376
-0.02590679 0.024827341 0.0086907148
-0.024749892 0.024749892 0.0084559321
-0.02381485 0.024897344 0.008166194
-0.022551563 0.02469933 0.0077278912
-0.021456091 0.024674507 0.0071803331
-0.020581009 0.024913853 0.0069340467
-0.019246081 0.024592215 0.0063497126
-0.018394927 0.024887254 0.0061348975
-0.017302971 0.024873022 0.0063425004
-0.016233137 0.024890808 0.0060243607
-0.015274944 0.025094552 0.0060444176
-0.014077497 0.024906341 0.0055545568
-0.012949622 0.02482011 0.0051631033
-0.012022615 0.025138197 0.0042651296
-0.11990247 0.026160538 0.0086363256
-0.11168584 0.024591377 0.026404649
-0.11043892 0.024541982 0.02826187
-0.10856602 0.024351256 0.02889958
-0.10814819 0.024486383 0.028894007
-0.1087888 0.024866009 0.029085428
-0.1062376 0.024516368 0.030028939
-0.10550433 0.024583533 0.029555947
-0.10374244 0.024409985 0.02902317
-0.10280429 0.024428742 0.02850458
-0.10182866 0.024438877 0.028686374
-0.10266513 0.024888515 0.027951449
-0.10008773 0.024511281 0.028143078
-0.099358514 0.02458355 0.027917892
-0.098787822 0.024696955 0.027915359
-0.097374968 0.024599992 0.027756602
-0.096386991 0.024609443 0.027051926
-0.09647847 0.024897669 0.026631951
-0.094947517 0.024768917 0.026565194
-0.094976395 0.025048718 0.026698887
-0.093683772 0.024982339 0.026617557
-0.091079131 0.024560664 0.026468515
-0.091798127 0.025035853 0.026315153
-0.088747784 0.024482148 0.026152551
-0.089047223 0.024850389 0.025669932
-0.088648774 0.025030242 0.025494009
-0.085968651 0.024562471 0.025156796
-0.086545825 0.025025299 0.024823874
-0.085823983 0.025119212 0.024820745
-0.084610872 0.025069889 0.024691492
-0.082675435 0.024802631 0.024359167
-0.081827141 0.024858877 0.024200261
-0.080386691 0.024734367 0.024162561
-0.080557451 0.025108816 0.023804545
-0.079815947 0.025205037 0.023485363
-0.077872694 0.02491926 0.023135126
-0.077422507 0.025110001 0.02265808
-0.076589316 0.025180047 0.022063524
-0.074844219 0.024948075 0.021861523
-0.074679106 0.025243644 0.021109492
-0.072382741 0.02481694 0.020869792
-0.071920879 0.025015958 0.020513594
-0.071050756 0.025076736 0.020213515
-0.069596089 0.024929943 0.019842058
-0.069686905 0.025340693 0.020056814
-0.06817016 0.025170522 0.020430416
-0.067143828 0.025178934 0.020134777
-0.066309609 0.025260804 0.019995928
-0.065188646 0.025234314 0.019399524
-0.06378682 0.025096454 0.019245416
-0.063612998 0.025445201 0.019571334
-0.062539943 0.025439974 0.018859357
-0.060149763 0.024889557 0.01873827
-0.060606964 0.025518723 0.018420666
-0.058794573 0.025197674 0.018240333
-0.058082648 0.025345154 0.01748243
-0.057491858 0.025551936 0.01720804
-0.056004334 0.025360454 0.017053545
-0.054933932 0.025354121 0.016403973
-0.05407311 0.025446169 0.016373038
-0.05270312 0.025297496 0.016186595
-0.051632177 0.02528923 0.016008645
-0.051031545 0.025515772 0.015962899
-0.048920345 0.024980603 0.015968651
-0.04890288 0.025514545 0.015761673
-0.047736123 0.025459263 0.015373737
-0.046581611 0.025408151 0.014984876
-0.045503899 0.025397526 0.01496914
-0.044635277 0.025505871 0.014799207
-0.043335423 0.025367074 0.014761269
-0.042623334 0.025573999 0.014478415
-0.041669469 0.025642751 0.013579041
-0.040889282 0.025824809 0.013479978
-0.039582517 0.025675144 0.013280064
-0.038255148 0.025503432 0.013010174
-0.037395909 0.025642911 0.012554139
-0.036553781 0.025802668 0.012233257
-0.03543197 0.025768707 0.011741281
-0.034258403 0.0256938 0.011170954
-0.033474602 0.025915818 0.010775924
-0.031938389 0.02555071 0.010795563
-0.031066032 0.025709819 0.010281652
-0.030233001 0.025914 0.010221839
-0.0289631 0.025744976 0.0099673569
-0.028289773 0.026113637 0.0097533464
-0.026803553 0.025731411 0.0093541741
-0.025535554 0.025535554 0.0091183782
-0.025003443 0.026090547 0.008620441
-0.02385015 0.026018346 0.0081784427
-0.022508699 0.025724227 0.0081603527
-0.02189065 0.02626878 0.0071496665
-0.020337731 0.025689764 0.0070217252
-0.019535497 0.02604733 0.0063920319
-0.018451167 0.026048707 0.0060403347
-0.017135993 0.025703987 0.0060209334
-0.016401375 0.026242198 0.0059082806
-0.015226725 0.026102956 0.0058584809
-0.014092046 0.026016084 0.0053359568
-0.013165289 0.026330577 0.0051206946
-0.012006133 0.026195198 0.0044998229
-0.11757438 0.02672145 0.0068019331
-0.1118492 0.025653485 0.026404649
-0.10983302 0.025424309 0.028292179
-0.10881481 0.025424019 0.028962791
-0.10941124 0.025804538 0.028959095
-0.10691886 0.025456872 0.029690981
-0.10576907 0.025425259 0.03033933
-0.10649095 0.025847318 0.029896468
-0.10364938 0.025404261 0.029559582
-0.10373125 0.025676051 0.028908223
-0.10203841 0.025509601 0.02876702
-0.10166775 0.025673673 0.028202385
-0.10017181 0.025554035 0.028311342
-0.10015891 0.025814153 0.028056353
-0.098069064 0.025538821 0.027778119
-0.098941676 0.026037285 0.027725577
-0.097041383 0.025808878 0.026957601
-0.096017934 0.025811274 0.02640745
-0.095877796 0.026053749 0.026342064
-0.094325356 0.025913559 0.026553661
-0.091666155 0.025462821 0.026753634
-0.092535801 0.025993204 0.026441067
-0.090388142 0.02567845 0.026351243
-0.089842103 0.025816696 0.026263952
-0.089310572 0.025962377 0.025647998
-0.087487146 0.025731513 0.025426865
-0.087091833 0.025920188 0.025122344
-0.087181121 0.026259372 0.024825811
-0.084437601 0.025743172 0.024969727
-0.083583817 0.025797475 0.025105298
-0.083412878 0.026066527 0.024350643
-0.082447194 0.026090885 0.024158239
-0.081618935 0.026159916 0.02378279
-0.079712667 0.025880735 0.023649722
-0.079808742 0.026252877 0.023251832
-0.079157785 0.026385928 0.023029745
-0.077698939 0.026249642 0.022431135
-0.075769432 0.025948435 0.021870762
-0.075411052 0.026184395 0.021803975
-0.073672488 0.025941018 0.021211684
-0.073307842 0.026181372 0.020902395
-0.072593041 0.026301825 0.020575434
-0.0707791 0.026021728 0.020213515
-0.069605872 0.02597234 0.019842058
-0.069589362 0.026359608 0.020056814
-0.066891 0.025727309 0.020703018
-0.066926152 0.026143027 0.02050674
-0.066909522 0.026551398 0.020394057
-0.064932838 0.026182594 0.019662321
-0.064272761 0.026341297 0.019628674
-0.063401282 0.026417201 0.019405484
-0.061788175 0.026181431 0.019082725
-0.061342478 0.026440723 0.018772185
-0.060340334 0.02646506 0.018631518
-0.059450686 0.026540486 0.018194795
-0.058412187 0.026550993 0.01765129
-0.056418259 0.026119566 0.017170519
-0.055455547 0.026158279 0.017039776
-0.054696597 0.026296442 0.016419709
-0.054329779 0.026632246 0.01635927
-0.052130569 0.026065284 0.016125321
-0.052583437 0.026828287 0.01606518
-0.050838247 0.026478255 0.015969783
-0.049833406 0.026507132 0.015968651
-0.04856734 0.026395293 0.01573652
-0.047674499 0.026485832 0.015348583
-0.046758246 0.026567187 0.014974117
-0.045726009 0.02658489 0.014848769
-0.044448055 0.026457176 0.014795035
-0.044110764 0.026896808 0.014707267
-0.042660493 0.02666281 0.014429867
-0.041297022 0.026472451 0.013845354
-0.040657483 0.026748344 0.013333052
-0.039383702 0.026610611 0.013138056
-0.038142439 0.026487807 0.013029635
-0.037627906 0.026877075 0.012691438
-0.036280222 0.026676634 0.012063205
-0.035096355 0.026588149 0.011468887
-0.034497805 0.026951412 0.011010587
-0.032672007 0.026348392 0.010878772
-0.032162942 0.02680245 0.01072982
-0.031401046 0.027069867 0.010342181
-0.029854443 0.026655754 0.01017803
-0.029166909 0.027006397 0.0098290145
-0.027950738 0.02687571 0.0098221898
-0.026790371 0.026790371 0.0093643963
-0.026197955 0.027289538 0.0089627206
-0.024735531 0.026886446 0.0085718334
-0.023831818 0.027081612 0.0082728863
-0.022541011 0.026834536 0.0081730783
-0.021566395 0.026957996 0.0072641969
-0.020430498 0.026882235 0.0070529878
-0.019521581 0.027113309 0.006726861
-0.018243697 0.026828965 0.0063630939
-0.017376617 0.027150963 0.0061626434
-0.016187241 0.026978737 0.0060483813
-0.015068584 0.026908185 0.0060483813
-0.014160274 0.027231297 0.0054437816
-0.01319248 0.027484335 0.0054539442
-0.011832994 0.026893171 0.0047894716
-0.12042285 0.028463582 0.0068019331
-0.11178786 0.026664995 0.026199281
-0.10970255 0.026409872 0.028264791
-0.10980514 0.026681622 0.028840184
-0.10816662 0.026531436 0.029150635
-0.10694624 0.026481926 0.03002882
-0.10645775 0.026614439 0.0300982
-0.10516396 0.026546242 0.029695868
-0.10481282 0.026716992 0.029559582
-0.10515196 0.02706882 0.029156357
-0.10127339 0.02633108 0.029010385
-0.10167591 0.026702764 0.028477043
-0.1015412 0.026939502 0.028316379
-0.10064297 0.026976468 0.028127611
-0.098179325 0.026590234 0.028030396
-0.097436264 0.026666768 0.027810901
-0.096291728 0.026633881 0.027438849
-0.096460998 0.026967591 0.026714355
-0.095601454 0.0270178 0.026595473
-0.092345633 0.026384465 0.02660656
-0.093319394 0.026958935 0.02678597
-0.093246073 0.027240425 0.026452571
-0.091671497 0.027084762 0.026485771
-0.090190612 0.026953517 0.025931954
-0.088386297 0.026721438 0.025652081
-0.087711655 0.026829448 0.025371104
-0.08763887 0.027126316 0.024894625
-0.085392445 0.02674944 0.024785072
-0.084048353 0.026649475 0.024819046
-0.084363341 0.027079592 0.024916917
-0.082125589 0.026690818 0.02446124
-0.082618527 0.027190907 0.024268895
-0.081098653 0.027032886 0.023933351
-0.079668261 0.026900971 0.023603857
-0.078478925 0.026848052 0.023161232
-0.078898929 0.027351629 0.022943318
-0.076535769 0.026890945 0.022544533
-0.077143081 0.027475614 0.021864176
-0.074951015 0.027065646 0.021672726
-0.074754417 0.027374856 0.021324962
-0.074609831 0.027712222 0.020902395
-0.072064646 0.027154794 0.02042672
-0.070735544 0.027045943 0.020219177
-0.07078936 0.027470496 0.019764334
-0.06935671 0.027322341 0.020056814
-0.067774691 0.027109876 0.020423025
-0.067761801 0.027528232 0.019989371
-0.065505579 0.027034048 0.020267516
-0.065798894 0.027593082 0.019471079
-0.064314157 0.027412592 0.019322246
-0.062080789 0.026901675 0.019322246
-0.062623881 0.027596965 0.019022971
-0.061203707 0.027436143 0.01862067
-0.059798717 0.027276609 0.018428713
-0.05981265 0.027770158 0.018151909
-0.057557628 0.02720906 0.017583907
-0.057435211 0.02765399 0.017246932
-0.056290925 0.027614417 0.017016023
-0.055102244 0.027551122 0.016551733
-0.053360831 0.02720356 0.016395956
-0.052925464 0.027521241 0.016204268
-0.051924128 0.027551578 0.016177952
-0.05106518 0.027660307 0.015995264
-0.049939215 0.027625948 0.015979916
-0.048326153 0.027314782 0.015822291
-0.047988109 0.027726462 0.015494108
-0.046963818 0.027751347 0.015068144
-0.045846302 0.027721019 0.015014887
-0.045140035 0.027943831 0.014823616
-0.043582663 0.027637783 0.014846355
-0.04254723 0.027655698 0.014647186
-0.041713309 0.027808871 0.014089674
-0.040034182 0.027391808 0.013334513
-0.039422344 0.027702186 0.013177574
-0.038729861 0.027971566 0.013029635
-0.036996111 0.027482824 0.012726992
-0.036412619 0.027844943 0.012328625
-0.034996767 0.027573211 0.011561126
-0.033748988 0.027421052 0.011150777
-0.033488695 0.02808729 0.010932088
-0.032283466 0.027979003 0.010818839
-0.030797698 0.027611729 0.010603189
-0.030143756 0.02799063 0.010417849
-0.028988549 0.027914898 0.010089159
-0.027649524 0.027649524 0.010013491
-0.0271414 0.028227055 0.0098635852
-0.02561364 0.027748108 0.0091536939
-0.024960756 0.028216507 0.0088260472
-0.023642255 0.027940847 0.0084396005
-0.022467259 0.027816607 0.0081837773
-0.021667508 0.02816776 0.0078282654
-0.020513872 0.028071614 0.0072641969
-0.01934452 0.027942086 0.0068565011
-0.018190168 0.027820256 0.0066635311
-0.017367052 0.028221458 0.0061217844
-0.016056074 0.027830528 0.00603953
-0.015200706 0.028229883 0.0059757531
-0.014096362 0.028192723 0.0057524145
-0.012987493 0.028139567 0.005658567
-0.01195891 0.028266516 0.0050380528
-0.010809793 0.028105464 0.0040734708
-0.11945571 0.029320948 0.0054755509
-0.11131638 0.027573781 0.025841624
-0.11079593 0.027698983 0.027351499
-0.10888256 0.027475039 0.028567463
-0.10773224 0.027441233 0.028919458
-0.10765892 0.027683722 0.029311448
-0.10640456 0.027624262 0.029462487
-0.10554219 0.027666399 0.02960518
-0.1048447 0.027753009 0.029301763
-0.1029668 0.027525779 0.029071242
-0.10269796 0.02772845 0.028833926
-0.10210451 0.027846685 0.028299868
-0.099799529 0.02749579 0.028166115
-0.10038067 0.027941011 0.028096855
-0.098964863 0.027833868 0.027727783
-0.096611232 0.02745793 0.027674407
-0.097078428 0.02788423 0.027513981
-0.095679812 0.027778011 0.02684474
-0.093742609 0.027511418 0.026405871
-0.095629849 0.028373692 0.026441902
-0.092925429 0.027877629 0.026489347
-0.091904677 0.027881196 0.026402831
-0.092363015 0.028338654 0.026171088
-0.090326414 0.028032336 0.025858521
-0.088633262 0.027826723 0.025652498
-0.088325098 0.028056208 0.025448084
-0.086349592 0.027755227 0.024977386
-0.085596509 0.027844649 0.024821162
-0.085335121 0.028098149 0.024873823
-0.083253525 0.027751178 0.025157392
-0.083038509 0.028025499 0.02446124
-0.082487531 0.028191941 0.024170518
-0.080601342 0.027900467 0.024028927
-0.079526782 0.027886016 0.023785233
-0.079697505 0.028313588 0.023214638
-0.078236036 0.028164973 0.022943318
-0.07690873 0.028061293 0.022543818
-0.076143309 0.028162593 0.021990776
-0.075318441 0.028244417 0.021923989
-0.074993402 0.028518621 0.021481276
-0.072890475 0.0281149 0.021259397
-0.072781205 0.028479604 0.020882696
-0.071927413 0.028559417 0.020219177
-0.06975282 0.028109346 0.019764334
-0.068850338 0.028166048 0.020137906
-0.068930931 0.028632851 0.020272195
-0.066109136 0.027889794 0.019993156
-0.066888392 0.028666455 0.020129621
-0.065434173 0.028495528 0.019627392
-0.063518658 0.028114818 0.019692659
-0.063637532 0.028636891 0.019899696
-0.06209176 0.028414875 0.018997908
-0.060544275 0.028184403 0.018624872
-0.059964143 0.02840407 0.018211454
-0.058591668 0.028249554 0.018177539
-0.057893075 0.028420238 0.017527252
-0.057302188 0.028651094 0.017452747
-0.055540204 0.028294068 0.016991943
-0.054942716 0.028527949 0.016944885
-0.053696901 0.028427772 0.017011255
-0.052971207 0.028604452 0.01640445
-0.052253015 0.02879248 0.016265541
-0.051210552 0.028805938 0.016159087
-0.049513631 0.028444 0.016176641
-0.048788153 0.028636524 0.015933216
-0.047874194 0.028724516 0.015656114
-0.046261679 0.028387852 0.015357435
-0.04653072 0.029216964 0.015177518
-0.044423662 0.02855807 0.014868766
-0.043079272 0.028369276 0.014784306
-0.04286718 0.028935349 0.014585525
-0.041243643 0.028553292 0.01403594
-0.040570792 0.028826617 0.013412446
-0.039505556 0.028828379 0.013209045
-0.038679898 0.029009925 0.013105482
-0.037246723 0.028733188 0.01262638
-0.036693145 0.029138675 0.012181431
-0.035163108 0.028769819 0.011860549
-0.03466719 0.029250443 0.011139035
-0.033219956 0.02893351 0.010855287
-0.031966951 0.028770257 0.010745436
-0.031031962 0.028891828 0.010771215
-0.029965483 0.028895289 0.010359436
-0.028598649 0.028598649 0.010009259
-0.027768103 0.028836109 0.010023177
-0.026932018 0.029086579 0.0098412335
-0.025686679 0.028897515 0.0096006989
-0.024837913 0.029157549 0.0089627206
-0.023539474 0.028889356 0.0088044107
-0.022513324 0.028945703 0.0083651245
-0.021730781 0.029336557 0.008045733
-0.020347698 0.02891515 0.0074922442
-0.019483553 0.029225333 0.0067804754
-0.01847133 0.029336819 0.0063060522
-0.017149244 0.028939348 0.0060225129
-0.016405432 0.029529778 0.0059382915
-0.015233954 0.02937977 0.0058065355
-0.013941481 0.028955383 0.0052616596
-0.013051028 0.029364815 0.0051316321
-0.011938209 0.029302876 0.0045202374
-0.11807522 0.03005551 0.0052830577
-0.11240549 0.028874805 0.026572078
-0.10967454 0.028434139 0.028042138
-0.10911671 0.028553905 0.028567463
-0.10788956 0.028499128 0.028828382
-0.10721537 0.028590765 0.029306173
-0.10623442 0.028601576 0.02952674
-0.10582866 0.028768955 0.029429138
-0.10385979 0.02851053 0.029179245
-0.10294428 0.028539009 0.028787851
-0.10405657 0.029135838 0.028554976
-0.10107664 0.02858733 0.028022051
-0.10058252 0.028737864 0.028137267
-0.10009491 0.028893376 0.027984113
-0.098857984 0.028833579 0.028300434
-0.098327436 0.028980719 0.027600437
-0.096956916 0.028880782 0.02750662
-0.095465899 0.028742421 0.026860237
-0.096269093 0.029299289 0.026409119
-0.09333095 0.028717214 0.026382267
-0.092750058 0.028855573 0.026420355
-0.093707725 0.029481081 0.026280791
-0.09116634 0.029007472 0.025860786
-0.089934126 0.028944317 0.02571553
-0.090056024 0.029320568 0.025400937
-0.087233312 0.028735679 0.025222868
-0.08606039 0.028686797 0.024903625
-0.086848088 0.029298149 0.024579912
-0.084724933 0.028930463 0.024830639
-0.083611704 0.028902812 0.02508679
-0.083101198 0.02908542 0.02446124
-0.081196263 0.028778423 0.024366677
-0.081682503 0.029321924 0.024149776
-0.080493376 0.029270319 0.023854792
-0.07840804 0.028887173 0.023389071
-0.079218611 0.029574947 0.023025095
-0.077714898 0.029405635 0.022803009
-0.075912274 0.029117035 0.02227214
-0.076004267 0.029557217 0.021923989
-0.073730722 0.029076906 0.021519065
-0.073151015 0.029260406 0.021174699
-0.072876662 0.029573137 0.020585001
-0.07123851 0.029333506 0.019964457
-0.069962293 0.029237973 0.019840658
-0.069377594 0.029432921 0.019769102
-0.068092056 0.029331962 0.02034986
-0.067585833 0.029568803 0.01993978
-0.065889172 0.029284077 0.019801915
-0.06445796 0.029110044 0.019785315
-0.064329728 0.029528402 0.019641846
-0.063020505 0.029409567 0.019817293
-0.061655298 0.029260142 0.019206643
-0.060806476 0.02935485 0.018569261
-0.060304217 0.029623125 0.018356442
-0.0585481 0.02927405 0.018194914
-0.05834737 0.029704116 0.017373353
-0.0568824 0.029494578 0.017214805
-0.056163676 0.029671377 0.017040819
-0.055178136 0.029711304 0.017004639
-0.054201778 0.029757839 0.017033339
-0.053092059 0.029731551 0.016762793
-0.052276757 0.029872434 0.016323298
-0.050738081 0.029597213 0.016318709
-0.049760822 0.029644744 0.016346186
-0.049410932 0.030076217 0.016183645
-0.047485288 0.029546399 0.01586464
-0.047320686 0.030113164 0.015592605
-0.046072938 0.030000983 0.01535359
-0.044329759 0.029553171 0.014929146
-0.043873329 0.029962271 0.014801443
-0.042523395 0.029766377 0.014572889
-0.041144568 0.029539689 0.014324993
-0.040690478 0.029982455 0.013380378
-0.039061848 0.029560316 0.013161659
-0.038067017 0.029607682 0.012612432
-0.037295546 0.029836437 0.012392819
-0.03624386 0.029847885 0.012162089
-0.035107121 0.029787861 0.011756897
-0.034457568 0.030150371 0.011127234
-0.033046987 0.029848892 0.011074096
-0.03222901 0.03008041 0.010817558
-0.031181507 0.030106282 0.010878772
-0.02989242 0.02989242 0.010562927
-0.029314773 0.030400503 0.010332316
-0.027791781 0.02992961 0.010008663
-0.026677001 0.02987824 0.0099208057
-0.025747877 0.030039189 0.0099200308
-0.024687022 0.030053766 0.0091921389
-0.023475332 0.029877696 0.0091093183
-0.022686793 0.030249057 0.0088070333
-0.021599496 0.030239295 0.0083995163
-0.020461977 0.030154491 0.0075925887
-0.019532727 0.030384244 0.0067282617
-0.018164437 0.029917898 0.0066109002
-0.017458474 0.030552329 0.0060225129
-0.01630416 0.03043443 0.0058737695
-0.014992204 0.029984409 0.0057884157
-0.014274989 0.03074613 0.0051724315
-0.012967813 0.030258231 0.005140543
-0.011904732 0.030302955 0.0047349036
-0.010817718 0.030289611 0.0040198863
-0.12078474 0.031843252 0.0051988959
-0.11266201 0.029974297 0.026756138
-0.10926954 0.029340897 0.02771911
-0.11011092 0.029843148 0.028415561
-0.10869437 0.029737143 0.028687179
-0.10717905 0.029601837 0.029429734
-0.10701881 0.029841786 0.029698372
-0.10462797 0.029458363 0.029410809
-0.1042513 0.029640079 0.029183328
-0.10469023 0.030059572 0.028812379
-0.10119496 0.029346539 0.028698832
-0.10138709 0.029699247 0.028022051
-0.1009015 0.02985861 0.027953744
-0.099235281 0.029668281 0.02796036
-0.098534808 0.029765725 0.028245986
-0.097715005 0.029828792 0.027550876
-0.09549351 0.029460764 0.027579397
-0.095383726 0.029743312 0.026886493
-0.095854789 0.030215098 0.026782781
-0.092699952 0.029541742 0.02653265
-0.093065523 0.029987779 0.026480228
-0.091599397 0.029846998 0.026345998
-0.091041155 0.030002199 0.025995076
-0.090632468 0.030210825 0.025712848
-0.088317379 0.029781442 0.025325686
-0.087395519 0.029817294 0.025044113
-0.088045798 0.030396763 0.02472195
-0.085904054 0.030014668 0.024525136
-0.084822893 0.02999834 0.024879426
-0.084640451 0.030303372 0.024885416
-0.082089841 0.02975757 0.024550349
-0.082224183 0.030183563 0.024677157
-0.080797806 0.030040212 0.02438435
-0.078732066 0.029652338 0.02404055
-0.079166643 0.030208323 0.023348361
-0.078160405 0.030222023 0.023074329
-0.076515503 0.029985804 0.022691339
-0.076877646 0.030540433 0.021985739
-0.075392157 0.030366288 0.021763384
-0.074419603 0.030396739 0.021497548
-0.073872335 0.030604254 0.021174699
-0.071251258 0.02994618 0.020649225
-0.071972385 0.030694107 0.019977808
-0.070504852 0.030517025 0.019872069
-0.068858668 0.030256083 0.019615233
-0.067807145 0.030252419 0.020267397
-0.066901527 0.030314757 0.01990658
-0.065578766 0.03018705 0.019904912
-0.066037938 0.030888714 0.019785315
-0.063739106 0.030302199 0.019501597
-0.062345557 0.030133687 0.019624412
-0.062162895 0.030554643 0.018904835
-0.060855269 0.030427635 0.018550009
-0.059991729 0.030522108 0.018386036
-0.059394658 0.030757949 0.018310487
-0.057240337 0.03018127 0.017595351
-0.056338727 0.030255985 0.017256528
-0.056419119 0.03087084 0.016937166
-0.054415841 0.030347297 0.016835123
-0.05398003 0.030694528 0.016973138
-0.052711647 0.030572755 0.016337961
-0.051631663 0.030557517 0.01630801
-0.051219057 0.03094485 0.01615876
-0.049547717 0.030571997 0.016248643
-0.048082117 0.030312639 0.016223639
-0.048135132 0.031020418 0.015986174
-0.046697956 0.030778199 0.015758991
-0.045404423 0.030621588 0.015524715
-0.044769093 0.030911995 0.015162826
-0.043691996 0.030904094 0.014868766
-0.042436048 0.030766139 0.014683604
-0.041451316 0.030822774 0.01421532
-0.040239293 0.030708935 0.013447613
-0.038987763 0.030557975 0.012919247
-0.038612023 0.031104133 0.012713939
-0.037481952 0.031056475 0.012115568
-0.035969637 0.030679984 0.012017787
-0.035206951 0.030939445 0.011740744
-0.03413723 0.030936867 0.011709094
-0.033450935 0.031292811 0.011177987
-0.032210596 0.031136909 0.01096797
-0.031105649 0.031105649 0.011039674
-0.030201411 0.031280033 0.010780752
-0.029158875 0.031318791 0.010671228
-0.027565969 0.030746659 0.010341346
-0.026918121 0.03122502 0.010195255
-0.025714189 0.031071313 0.010002881
-0.024489949 0.030878631 0.0095743239
-0.023807842 0.031383067 0.0093452334
-0.022458317 0.031013865 0.0089119673
-0.021344213 0.03094911 0.0086070597
-0.020363713 0.031081457 0.0080498457
-0.019196823 0.030928217 0.0069394708
-0.01846181 0.031493679 0.0069192052
-0.017450523 0.031629074 0.0066457093
-0.015950307 0.030837262 0.0058861077
-0.015155477 0.031393491 0.0057884157
-0.014069382 0.031385545 0.0051177144
-0.012832754 0.03101249 0.0050849617
-0.012019651 0.031688172 0.0046126246
-0.12126727 0.033072893 0.0051280558
-0.11069845 0.030467462 0.026573628
-0.11089321 0.030803669 0.027647644
-0.10933144 0.030653674 0.028318465
-0.10623303 0.030065954 0.028582454
-0.10689507 0.030541452 0.029198378
-0.10625362 0.030650085 0.029548436
-0.10519839 0.030640308 0.029178083
-0.10461203 0.030768244 0.02887854
-0.10278432 0.030529995 0.028775841
-0.10200348 0.030601043 0.028402776
-0.10177867 0.030842021 0.0276106
-0.10116189 0.030967927 0.027632833
-0.099241018 0.030693099 0.02768293
-0.098858342 0.030893233 0.02769655
-0.097765498 0.030873315 0.027539492
-0.097791903 0.031210182 0.027439713
-0.095906988 0.030937737 0.026759863
-0.093995161 0.030650595 0.0265854
-0.093428455 0.030800588 0.026333809
-0.093204133 0.031068044 0.026365131
-0.091208287 0.030744368 0.026280791
-0.092033945 0.031375211 0.025992811
-0.089510255 0.030865606 0.025706857
-0.088163838 0.030754829 0.025400937
-0.088361062 0.031186258 0.025181681
-0.087065496 0.031094821 0.024805397
-0.085691258 0.030972743 0.024487555
-0.086165987 0.03152414 0.024770051
-0.084229663 0.031196171 0.024830639
-0.082848176 0.031068066 0.024550349
-0.082058854 0.031161591 0.024600059
-0.080597311 0.030998966 0.024601161
-0.080805644 0.031482719 0.02385217
-0.079756498 0.031482827 0.023341864
-0.076761402 0.03070456 0.022954315
-0.077926748 0.031591926 0.022472113
-0.07547529 0.03101724 0.022210926
-0.075249486 0.031353954 0.021741569
-0.07486549 0.031633306 0.02134198
-0.073037371 0.031301729 0.020807713
-0.071929082 0.031273514 0.020573705
-0.071339913 0.031473491 0.019977808
-0.06984131 0.031272229 0.019894511
-0.069495797 0.031589001 0.019745767
-0.068388045 0.031563714 0.020314485
-0.066447631 0.031147327 0.020016164
-0.066713676 0.031768415 0.019904912
-0.065236278 0.031565942 0.019782662
-0.063349985 0.031155732 0.0193519
-0.062763743 0.031381872 0.019400388
-0.061665487 0.031355333 0.019277573
-0.060544163 0.031315945 0.019083619
-0.061113309 0.032164901 0.018426597
-0.058439713 0.031306989 0.018078834
-0.057654135 0.031447709 0.017885268
-0.057194173 0.03177454 0.017436504
-0.055450488 0.031387068 0.01707685
-0.054876372 0.031659447 0.016727328
-0.054010279 0.031770751 0.016665459
-0.053003818 0.031802289 0.016379714
-0.051779076 0.031701475 0.016266108
-0.050801188 0.031750742 0.01616931
-0.049396839 0.031529896 0.016267419
-0.048959855 0.031930339 0.016223639
-0.048159048 0.032106031 0.015986174
-0.046460781 0.031677805 0.015679121
-0.045864139 0.031998236 0.015611231
-0.04521054 0.032293245 0.01516667
-0.04337902 0.031740744 0.015027851
-0.042418666 0.031814002 0.014670193
-0.041136954 0.031643812 0.014349461
-0.040648334 0.032090787 0.013641834
-0.039843176 0.032305278 0.013224274
-0.038090467 0.031742059 0.012549222
-0.036983263 0.031699941 0.012286574
-0.036576964 0.032273792 0.012068897
-0.035206541 0.032005947 0.011913985
-0.034253202 0.032112379 0.011767149
-0.032897953 0.031836726 0.011525929
-0.031826355 0.031826355 0.011137545
-0.030781642 0.031843077 0.011111706
-0.029970013 0.032110728 0.010903269
-0.028989751 0.032210834 0.010807544
-0.028250353 0.032596562 0.0104765
-0.027139265 0.032567117 0.010148346
-0.025830397 0.032288 0.0099909306
-0.024907131 0.03248756 0.0095097721
-0.02346823 0.032002132 0.0087879598
-0.022398103 0.03199729 0.0083346963
-0.021884443 0.032826666 0.0082232654
-0.020383067 0.032183789 0.0079423189
-0.019448068 0.032413449 0.0072449446
-0.018301453 0.032296684 0.0069203377
-0.017243186 0.032330975 0.0066410005
-0.016423156 0.032846313 0.0059989393
-0.015166314 0.032499243 0.0058710277
-0.013955408 0.032204788 0.0056586266
-0.013049932 0.032624833 0.0050858259
-0.01195059 0.032592516 0.0045749545
-0.010668542 0.032005627 0.0040821731
-0.11191948 0.031830311 0.026634037
-0.11144421 0.031988617 0.027725697
-0.10933095 0.03167532 0.028305471
-0.10946643 0.03201377 0.028341115
-0.10775919 0.031814616 0.029074103
-0.106094 0.031624172 0.029213846
-0.10711443 0.032238323 0.028900623
-0.10524246 0.031985454 0.028775841
-0.10335548 0.03172297 0.028607428
-0.10227432 0.03170504 0.028032124
-0.10190073 0.031908311 0.0276106
-0.10032196 0.0317345 0.0276618
-0.099830829 0.031904697 0.027678072
-0.09814816 0.031693678 0.028230399
-0.098804496 0.032241467 0.027555913
-0.0967784 0.031916279 0.027648181
-0.094419166 0.031473055 0.027068675
-0.095564626 0.032201122 0.026862293
-0.095634423 0.032578759 0.026605755
-0.092866987 0.031987518 0.026531696
-0.091857366 0.031995267 0.026248217
-0.090564594 0.031903438 0.02598682
-0.090445131 0.032227576 0.025706857
-0.089390106 0.032222018 0.025319576
-0.088309653 0.032207049 0.024977386
-0.086674824 0.031987138 0.0246014
-0.086565107 0.032331545 0.024459422
-0.084465303 0.031932004 0.024511278
-0.084137097 0.03220062 0.024834275
-0.08358667 0.032389838 0.024713784
-0.08182241 0.032107532 0.024604201
-0.080857217 0.032135561 0.024362922
-0.080248415 0.032307804 0.023880243
-0.078239314 0.031913403 0.023355901
-0.078351863 0.032385435 0.023202598
-0.076651596 0.032110803 0.022485405
-0.075478911 0.032052688 0.022175491
-0.076114565 0.03277155 0.021655351
-0.074201435 0.03239781 0.021032304
-0.072776601 0.03222964 0.020793319
-0.07309404 0.03283935 0.020267099
-0.071114831 0.032419998 0.020164162
-0.070061453 0.032416493 0.019898593
-0.069783874 0.032777276 0.019720405
-0.06822329 0.032537263 0.020314485
-0.067176901 0.032538813 0.020149738
-0.066379726 0.03266304 0.019872367
-0.064371191 0.032185595 0.019817919
-0.064852417 0.032957785 0.019558638
-0.063311271 0.032710824 0.019515395
-0.061512101 0.032319918 0.019331157
-0.061419316 0.032827564 0.019015819
-0.06040208 0.032850254 0.01830709
-0.058695216 0.032491997 0.018119365
-0.057689786 0.032516062 0.0178065
-0.056812625 0.032614656 0.017607391
-0.055446543 0.032430999 0.017142296
-0.05528624 0.032959107 0.016753942
-0.053757228 0.032675963 0.016723096
-0.052767701 0.032715976 0.016533941
-0.051887687 0.032826904 0.016286224
-0.049997807 0.03229025 0.016244859
-0.049813285 0.032855574 0.016380876
-0.048628416 0.032771323 0.016147822
-0.047785737 0.03291906 0.015750289
-0.046776474 0.032956153 0.01547125
-0.045673598 0.03292748 0.01540336
-0.044577364 0.032902341 0.015225232
-0.043866806 0.033167582 0.014986962
-0.042425226 0.032879554 0.014610887
-0.041289698 0.03282002 0.01445365
-0.040603898 0.033124235 0.013666451
-0.039183896 0.03282975 0.013083994
-0.038146522 0.032848395 0.012496144
-0.037652496 0.033349358 0.012366563
-0.036030468 0.032851309 0.012245744
-0.03533987 0.033198062 0.011913985
-0.034062527 0.032998074 0.011792064
-0.033062745 0.033062745 0.011676073
-0.03274063 0.033831988 0.011476845
-0.030965747 0.033101317 0.011168957
-0.029740214 0.032926667 0.010864049
-0.028917134 0.033201154 0.010829628
-0.028251331 0.03368428 0.010780931
-0.026662387 0.033061359 0.010354161
-0.026132829 0.033754904 0.010111153
-0.024656737 0.033232994 0.0096397698
-0.023501188 0.033115312 0.0090209544
-0.022884712 0.033782195 0.0086345971
-0.021252485 0.032941353 0.0082475543
-0.02064343 0.033681385 0.008122623
-0.019405037 0.033419788 0.0072502196
-0.018237071 0.033255838 0.0069203377
-0.017350722 0.033617027 0.006564945
-0.016123887 0.033322703 0.0058905184
-0.015103052 0.033442475 0.0057743192
-0.014060983 0.033530038 0.0056385994
-0.012986938 0.033549592 0.0053463578
-0.011907549 0.033557639 0.0046335459
-0.010885917 0.033746343 0.0041969419
-0.11329287 0.033260293 0.026532888
-0.1092053 0.032357123 0.027014852
-0.10954349 0.032760672 0.027764857
-0.10937788 0.03301974 0.02833876
-0.1068195 0.032554515 0.029018611
-0.10725553 0.033001702 0.029213846
-0.10457218 0.032488443 0.028729588
-0.1028437 0.032264691 0.028580785
-0.10279472 0.032568626 0.028607428
-0.10190162 0.03260852 0.028146148
-0.10091798 0.032619953 0.0276106
-0.10067378 0.032873072 0.027512491
-0.099227838 0.032734957 0.027577847
-0.099134453 0.033044819 0.027392775
-0.097780414 0.032936558 0.027539492
-0.09565901 0.03256477 0.027646691
-0.095750786 0.032946505 0.02721858
-0.094636619 0.032917086 0.026950359
-0.092061877 0.032373406 0.026708424
-0.093532927 0.033256151 0.026597947
-0.091745175 0.032987032 0.026364088
-0.090495437 0.032907434 0.026200294
-0.090831324 0.033409223 0.025713265
-0.088192716 0.032815896 0.025394827
-0.087823071 0.033062801 0.024977684
-0.087438159 0.033309773 0.02472195
-0.085857227 0.033101581 0.024514019
-0.084761962 0.03307784 0.024442345
-0.085144378 0.033637289 0.024565876
-0.081720702 0.032688282 0.024428636
-0.082848199 0.033558764 0.024564534
-0.081153788 0.033293862 0.02426213
-0.079451889 0.033018965 0.023834944
-0.079813085 0.033605509 0.023038745
-0.078417696 0.033458218 0.023200214
-0.07660614 0.033126976 0.022551715
-0.077381022 0.033920445 0.021826148
-0.074855275 0.033269014 0.021361768
-0.073796406 0.033260353 0.021064818
-0.07394056 0.033801399 0.020781785
-0.072137766 0.033455197 0.020431906
-0.070331126 0.033096999 0.020022362
-0.070570298 0.033705216 0.019894511
-0.069149114 0.033526845 0.019733727
-0.068303883 0.03362653 0.02025491
-0.067686521 0.03384326 0.019751459
-0.066034161 0.033541162 0.019955814
-0.065029256 0.033563484 0.019817919
-0.064022601 0.033585627 0.01948595
-0.062548943 0.033359438 0.019135684
-0.062341187 0.033812169 0.019157946
-0.061215647 0.033774149 0.018743187
-0.059515819 0.033412389 0.018338531
-0.058801942 0.033601109 0.0180071
-0.05760584 0.033516124 0.017689377
-0.057055436 0.033810627 0.017525911
-0.05659838 0.034172609 0.017121822
-0.054698866 0.03366084 0.016917318
-0.053319436 0.033455331 0.016566753
-0.052769598 0.033772543 0.016807497
-0.051301196 0.033502825 0.016703606
-0.051152699 0.034101799 0.016337961
-0.049607895 0.03377559 0.016417116
-0.048196808 0.033528212 0.016405135
-0.047999386 0.034132894 0.015946925
-0.046844523 0.034068745 0.015725106
-0.044999495 0.033487994 0.015568227
-0.044827711 0.034154445 0.015427202
-0.043538507 0.033981271 0.015160352
-0.042349271 0.033879418 0.01494348
-0.041746486 0.03425353 0.014676005
-0.040326994 0.033959575 0.01390478
-0.039277069 0.033969354 0.013357162
-0.038411539 0.034143593 0.01266852
-0.037564658 0.03434483 0.012485713
-0.03622321 0.03409243 0.012355983
-0.035556894 0.034479413 0.011946976
-0.033704974 0.033704974 0.011936188
-0.033386949 0.034463946 0.012024999
-0.032363314 0.034520868 0.011735976
-0.030731171 0.033910256 0.011492193
-0.029939851 0.03421697 0.011102974
-0.029031033 0.034407146 0.01096797
-0.027462054 0.033799451 0.0109092
-0.027321462 0.034971468 0.010562956
-0.025610801 0.034147736 0.010369092
-0.024364419 0.033898324 0.0099283457
-0.023887813 0.034745909 0.0089651942
-0.022421366 0.034165889 0.0088123977
-0.021392817 0.034228507 0.0083335042
-0.020439835 0.034424983 0.0082110167
-0.019533496 0.034726217 0.0076948404
-0.018253123 0.034358818 0.0070834756
-0.017356081 0.034712162 0.0067442954
-0.016046029 0.034231529 0.0059536099
-0.015282091 0.034930494 0.0057743192
-0.014089034 0.034680702 0.0056661963
-0.012936283 0.034496754 0.0053171217
-0.01195 0.034763638 0.0046571195
-0.010981008 0.035139229 0.0041791797
-0.12044036 0.036132108 0.0042659044
-0.11111737 0.033641037 0.026287347
-0.111029 0.033925526 0.027081132
-0.10954799 0.033785827 0.027611136
-0.10645501 0.033141654 0.028314859
-0.10806479 0.033963222 0.029152274
-0.10631756 0.03373538 0.029361635
-0.1056558 0.03385089 0.028879046
-0.10516112 0.034022715 0.028595269
-0.10261451 0.033527512 0.028498888
-0.10187637 0.033619199 0.028168678
-0.10345133 0.034483775 0.027500063
-0.1010538 0.034028322 0.027647257
-0.099609993 0.033887938 0.027453959
-0.09923467 0.034111917 0.027800173
-0.097115681 0.033734918 0.027499586
-0.096964419 0.034040701 0.027393252
-0.096018739 0.034071162 0.027125448
-0.093850113 0.033663627 0.026950359
-0.094023488 0.034096427 0.026692957
-0.092324875 0.033852451 0.026605755
-0.091854274 0.034058325 0.026499212
-0.091804817 0.034426805 0.026175857
-0.090374626 0.034280028 0.025786698
-0.088988215 0.03414664 0.025586605
-0.088867299 0.034501422 0.025502026
-0.08697658 0.034169368 0.025056809
-0.085351616 0.033934977 0.024830639
-0.085985631 0.034603972 0.024728477
-0.08344876 0.033997644 0.024777204
-0.083273426 0.034350287 0.024671078
-0.0823799 0.034411859 0.024665326
-0.080035254 0.033861071 0.024414986
-0.080681793 0.03457791 0.024010509
-0.078876361 0.034248944 0.023439676
-0.07718382 0.033960879 0.023405999
-0.077059962 0.034364574 0.022638202
-0.076501727 0.034582969 0.021954268
-0.074487507 0.034140106 0.021609843
-0.074601956 0.034674149 0.021098822
-0.073016725 0.03442217 0.020819575
-0.071569882 0.034229074 0.020565808
-0.071771838 0.034830451 0.020068675
-0.07019902 0.034575634 0.020014197
-0.068965346 0.034482673 0.019794196
-0.068715468 0.034886312 0.020196557
-0.067001075 0.03454743 0.02013582
-0.066055201 0.03460034 0.019958436
-0.064915903 0.034552012 0.019756973
-0.064512059 0.034899965 0.019457817
-0.063535489 0.034944519 0.019313902
-0.062371444 0.034885719 0.019129664
-0.060010523 0.034143917 0.018743187
-0.060536303 0.035047334 0.018312037
-0.059157677 0.034860775 0.018017441
-0.05760105 0.034560628 0.017732203
-0.056588821 0.034582056 0.017460555
-0.055574968 0.034603283 0.016977698
-0.054528188 0.034604426 0.0168733
-0.05430191 0.035136528 0.016526431
-0.05252092 0.034663804 0.016723096
-0.051855545 0.034923125 0.016532093
-0.050951373 0.035029069 0.016294032
-0.049507245 0.034760404 0.016428381
-0.048950937 0.035116974 0.016400814
-0.048267018 0.035395812 0.015960366
-0.046391312 0.034793485 0.015742064
-0.045585506 0.034984224 0.015568227
-0.044493843 0.034959447 0.015316159
-0.043492634 0.035006266 0.015310973
-0.043192219 0.035633583 0.01494348
-0.041002173 0.034694146 0.014676005
-0.040270656 0.034971885 0.014239043
-0.039495345 0.035225574 0.013518512
-0.038416926 0.035215516 0.013295263
-0.037438478 0.035299137 0.01284948
-0.036767706 0.035686303 0.012592137
-0.035064101 0.035064101 0.012387812
-0.034103353 0.035169084 0.012329638
-0.033160497 0.035299882 0.012144685
-0.031753242 0.034928568 0.011879444
-0.031037876 0.03531896 0.011726618
-0.030393839 0.035821307 0.011387378
-0.028674867 0.035047058 0.011217564
-0.027816022 0.035304952 0.010844499
-0.026882309 0.035484646 0.010248095
-0.025515387 0.035083659 0.010201246
-0.024924656 0.035761461 0.0095484257
-0.023527922 0.03529188 0.0089157224
-0.022373525 0.035158396 0.0087127984
-0.021583945 0.035613511 0.0084715784
-0.02018545 0.035058938 0.0082768202
-0.019267304 0.035323389 0.0076948404
-0.018512646 0.035936311 0.0072850585
-0.017088326 0.03524467 0.0067593455
-0.016237728 0.035723001 0.0063937902
-0.015181232 0.035784334 0.0059635341
-0.014105144 0.035805367 0.0056661963
-0.013151618 0.036166947 0.0053490102
-0.012024434 0.036073301 0.004689008
-0.010762523 0.035516325 0.0042422414
-0.0098158829 0.035991572 0.0040442944
-0.1113515 0.034733497 0.026208311
-0.11114687 0.034990683 0.02674523
-0.10768621 0.034218047 0.027120322
-0.10911807 0.035000138 0.027960807
-0.10716738 0.03470182 0.02893436
-0.10601548 0.034658909 0.028900623
-0.10670204 0.035222031 0.028467923
-0.10470213 0.03490071 0.028391063
-0.10279678 0.034604855 0.028324157
-0.10372529 0.035266597 0.028149992
-0.10107756 0.034713507 0.027493745
-0.099148311 0.034398396 0.027388632
-0.099888317 0.035012402 0.027420074
-0.097689211 0.034598265 0.027617961
-0.097961538 0.035059918 0.027392566
-0.097050957 0.035103537 0.027383834
-0.094430998 0.034523159 0.027303249
-0.094964832 0.035095699 0.026732951
-0.093875483 0.035074357 0.026584893
-0.092626736 0.034992319 0.026536286
-0.092506513 0.035339568 0.0262523
-0.091327026 0.035285443 0.026132941
-0.090248205 0.035269413 0.02571553
-0.089215763 0.03527135 0.025540113
-0.086848915 0.034739565 0.025308877
-0.087194048 0.035292827 0.024980724
-0.086756848 0.035538949 0.024542153
-0.084738404 0.035135433 0.024658382
-0.084020637 0.035267923 0.024652392
-0.082899265 0.03523219 0.024499267
-0.080964714 0.034845572 0.024533182
-0.08184281 0.035675071 0.024362922
-0.07963185 0.035162117 0.023880243
-0.078565627 0.035147782 0.023341686
-0.078812189 0.03572819 0.023405999
-0.077278808 0.035506479 0.022657037
-0.0757576 0.035284359 0.022154272
-0.075040862 0.035435967 0.021883368
-0.074221611 0.035542745 0.02129513
-0.07229393 0.035114195 0.020996094
-0.072468512 0.035709124 0.020819575
-0.070791937 0.035395969 0.020252794
-0.070148684 0.035597838 0.020056635
-0.06922441 0.03566106 0.019923955
-0.067337111 0.035222489 0.020328701
-0.067897551 0.036070574 0.020289123
-0.066317834 0.035790578 0.020094544
-0.064660743 0.035459116 0.020243466
-0.064161852 0.035762344 0.019772977
-0.062606804 0.035477191 0.019624412
-0.061238043 0.03528972 0.019575924
-0.062136244 0.036424693 0.019077152
-0.059992518 0.035785012 0.018551707
-0.058633421 0.035598863 0.018271536
-0.058714934 0.036296505 0.017718792
-0.05615456 0.035356574 0.017460555
-0.055234794 0.035433643 0.016954929
-0.055406854 0.036227562 0.016771227
-0.053614549 0.035743032 0.01647234
-0.052811623 0.035911903 0.016406089
-0.05190403 0.036015041 0.01610291
-0.05043418 0.035724211 0.016409665
-0.049953714 0.036136732 0.016203433
-0.049029745 0.036239374 0.016327173
-0.047634907 0.035990819 0.01600787
-0.046602346 0.036010902 0.015678883
-0.045680042 0.036119103 0.015485555
-0.044548139 0.036062781 0.015327126
-0.043880187 0.036388446 0.015206277
-0.042668235 0.036268 0.014802545
-0.041349847 0.036048584 0.014578491
-0.040301431 0.036059175 0.014041007
-0.0393999 0.036205314 0.013358861
-0.038130157 0.036011815 0.013193905
-0.037454054 0.036383938 0.012707889
-0.036187895 0.036187895 0.012464672
-0.034960948 0.036020372 0.012108535
-0.034598269 0.036760658 0.012387812
-0.032862578 0.036042824 0.01223883
-0.032044768 0.036317404 0.011879444
-0.030753793 0.036056168 0.011726618
-0.029898796 0.036305681 0.011539787
-0.029094484 0.036637496 0.011473805
-0.027788194 0.036338408 0.010878921
-0.02667057 0.036271974 0.010369092
-0.025916202 0.036714621 0.010230601
-0.024714412 0.036534347 0.0096348822
-0.023442965 0.036230039 0.0089157224
-0.022681052 0.036721703 0.0085977614
-0.02147631 0.036509726 0.0083656311
-0.020306947 0.036338747 0.0080965459
-0.019331042 0.036514193 0.0074400008
-0.018349886 0.036699772 0.0072639287
-0.017342182 0.036852136 0.0068953037
-0.016225249 0.036777232 0.0063562691
-0.015007215 0.036446095 0.0059989393
-0.014030377 0.036694836 0.0057743192
-0.013078925 0.037056956 0.0057567656
-0.01188565 0.036737464 0.0050023198
-0.010887836 0.037018646 0.0047244728
-0.0097925225 0.036993977 0.0041486025
-0.11313762 0.036328591 0.026208311
-0.10956624 0.035507578 0.026674211
-0.11027105 0.036069967 0.027246982
-0.10833672 0.03577156 0.028193176
-0.10705953 0.035686508 0.02890864
-0.10650792 0.035844009 0.029084802
-0.10541399 0.035820287 0.028498888
-0.10359415 0.035547014 0.028391063
-0.10412668 0.036083501 0.028238207
-0.10172391 0.035603367 0.027733088
-0.10185125 0.036008015 0.027237505
-0.10245357 0.036590561 0.027136803
-0.099346921 0.035846829 0.027094632
-0.099161051 0.036152467 0.027531385
-0.09878964 0.036396183 0.027304202
-0.095363393 0.035507645 0.027304053
-0.09699294 0.036502719 0.026886493
-0.0948039 0.0360667 0.026879191
-0.09257333 0.035605125 0.026536286
-0.093301348 0.036283854 0.026486158
-0.091970392 0.036168132 0.026167095
-0.090901092 0.036153842 0.026104689
-0.09019877 0.036286861 0.02571553
-0.089187302 0.036297157 0.025302887
-0.088316195 0.03636549 0.025162548
-0.088209994 0.036754161 0.024980724
-0.086033002 0.036278974 0.024514019
-0.084833235 0.036209304 0.024658382
-0.085204303 0.036816675 0.024640828
-0.081909969 0.035835613 0.024570286
-0.083900243 0.037170991 0.024604201
-0.081067815 0.036376584 0.024604201
-0.080120705 0.036418501 0.02399683
-0.078499503 0.036151085 0.023516536
-0.078021139 0.036409866 0.023038745
-0.075441532 0.035681807 0.022259593
-0.076579548 0.036716219 0.022127301
-0.075296506 0.036602467 0.021798819
-0.074189216 0.036572151 0.021346718
-0.073602594 0.036801297 0.020895898
-0.072300613 0.036674224 0.020786554
-0.070638731 0.03635817 0.020525336
-0.071069419 0.037125815 0.02036193
-0.069344491 0.036773592 0.019959241
-0.067615382 0.036408283 0.020049036
