ply
format ascii 1.0
comment PCL generated
element vertex 1259
property float x
property float y
property float z
element camera 0
property float view_px
property float view_py
property float view_pz
property float x_axisx
property float x_axisy
property float x_axisz
property float y_axisx
property float y_axisy
property float y_axisz
property float z_axisx
property float z_axisy
property float z_axisz
property float focal
property float scalex
property float scaley
property float centerx
property float centery
property int viewportx
property int viewporty
property float k1
property float k2
end_header
-0.06750305 -0.038573168 0.016937405
-0.065414771 -0.037982769 0.016274661
-0.064892769 -0.03829737 0.016041368
-0.063466765 -0.038080055 0.015936613
-0.063285865 -0.038615104 0.01572156
-0.061576433 -0.038219851 0.015319794
-0.060974605 -0.038510274 0.014762253
-0.059804194 -0.038445551 0.014930993
-0.057564761 -0.037678752 0.014893115
-0.058330987 -0.038887322 0.014480323
-0.056541886 -0.03840581 0.014490247
-0.055755887 -0.038600229 0.014300793
-0.054663971 -0.03858633 0.014547825
-0.05299395 -0.038155641 0.014422745
-0.052773897 -0.038772658 0.013727963
-0.051949546 -0.038962159 0.013532937
-0.050289534 -0.038519643 0.013601929
-0.048956003 -0.038313389 0.013553768
-0.048928961 -0.039143167 0.013354957
-0.047214542 -0.038630076 0.013501763
-0.045888931 -0.038418639 0.01306662
-0.045219034 -0.038759168 0.012760758
-0.043712709 -0.038381889 0.012852907
-0.042920623 -0.038628563 0.012622714
-0.041506514 -0.038313702 0.012713075
-0.040497757 -0.038366295 0.013230354
-0.040103432 -0.039019551 0.014248401
-0.039272197 -0.039272197 0.015471429
-0.037728015 -0.038805958 0.016210139
-0.035929516 -0.038043015 0.016809046
-0.034538411 -0.037678264 0.017312378
-0.033874318 -0.038108606 0.017821014
-0.032426059 -0.037656065 0.018654406
-0.031246059 -0.03749527 0.018825382
-0.031905141 -0.039606381 0.018699944
-0.029736603 -0.038232774 0.018605769
-0.028874135 -0.038498845 0.017907262
-0.028318217 -0.039209839 0.016259074
-0.026746927 -0.038515572 0.015342116
-0.025881715 -0.038822569 0.014873207
-0.024558689 -0.038439684 0.01455757
-0.023642266 -0.038687345 0.014659345
-0.022593545 -0.038731787 0.014937967
-0.02159196 -0.038865529 0.015611768
-0.020264726 -0.038396321 0.015775919
-0.019303013 -0.038606025 0.016260117
-0.018341934 -0.038841743 0.016561896
-0.016752118 -0.037692264 0.017188698
-0.016013395 -0.038432144 0.016621232
-0.014893646 -0.038297944 0.016253769
-0.013716554 -0.0379843 0.015628546
-0.012770222 -0.038310666 0.015001804
-0.011757623 -0.038479492 0.012092233
-0.010780511 -0.03880984 0.0080009103
-0.0099571226 -0.03982849 0.0061427057
-0.0086739454 -0.039032754 0.0040662587
-0.12119219 -0.03856115 0.0054343045
-0.11536765 -0.037044659 0.016555905
-0.11294287 -0.036601856 0.019366592
-0.11154597 -0.036486998 0.019892365
-0.11260744 -0.037181702 0.020820826
-0.10962649 -0.036542162 0.021280199
-0.10880124 -0.0366158 0.02182132
-0.10916536 -0.037095025 0.021978945
-0.10657869 -0.036571119 0.021791786
-0.1047871 -0.03631236 0.021464556
-0.10625663 -0.037189819 0.021265537
-0.10243513 -0.036214437 0.020916611
-0.10262706 -0.03665252 0.020690382
-0.10326444 -0.037260365 0.020450443
-0.099966407 -0.036446087 0.020435005
-0.099508435 -0.036661003 0.020292819
-0.098382242 -0.036631685 0.019999146
-0.096684746 -0.036386732 0.019984305
-0.097652815 -0.037150525 0.020076454
-0.095080122 -0.036569275 0.020059705
-0.093173318 -0.036234066 0.020495445
-0.094878606 -0.037311815 0.019878417
-0.092347443 -0.036729097 0.019689769
-0.092512615 -0.037217718 0.019892812
-0.091649391 -0.037299171 0.019746065
-0.088482887 -0.036434129 0.019830704
-0.089748248 -0.037395101 0.019830137
-0.088383168 -0.03727001 0.019340396
-0.08606793 -0.03673631 0.018965781
-0.084712349 -0.036604103 0.019105196
-0.084879071 -0.037134595 0.018707424
-0.083754279 -0.037106328 0.018705279
-0.082309648 -0.036933817 0.018833101
-0.081255309 -0.03693423 0.018534213
-0.080105238 -0.03689057 0.01849705
-0.079704992 -0.03719566 0.018301606
-0.078619927 -0.037185099 0.017871588
-0.076038569 -0.036456846 0.017562479
-0.076282322 -0.037081685 0.017333895
-0.073573418 -0.036268584 0.017543346
-0.07447388 -0.03723694 0.017917037
-0.07370507 -0.03738663 0.017444134
-0.071917519 -0.037016369 0.017779142
-0.071209922 -0.03719921 0.017532498
-0.070701391 -0.037493162 0.017636538
-0.069930553 -0.03765491 0.017319739
-0.069054313 -0.037764076 0.017036736
-0.066946678 -0.037192598 0.016937405
-0.065410234 -0.03692513 0.016454428
-0.064610012 -0.037071317 0.016139686
-0.064086005 -0.0373835 0.016046673
-0.063214406 -0.037500072 0.015834153
-0.062900804 -0.037957381 0.01539436
-0.061148882 -0.037547559 0.014981478
-0.059510529 -0.037194081 0.015262544
-0.058825072 -0.037434135 0.015157402
-0.057105012 -0.037012506 0.01478368
-0.057272259 -0.037821304 0.014561176
-0.055980969 -0.037679497 0.014300793
-0.053913653 -0.036999565 0.014502823
-0.053047635 -0.03713334 0.014337987
-0.052442621 -0.037459016 0.013558418
-0.051662631 -0.037670668 0.013480604
-0.050348662 -0.037493683 0.013433278
-0.048689038 -0.037046004 0.013376564
-0.047934517 -0.0372824 0.013191581
-0.047689755 -0.037935033 0.01342392
-0.046641696 -0.037964173 0.01299569
-0.045434408 -0.037862007 0.012834579
-0.044467993 -0.037960481 0.012930185
-0.042349719 -0.037056003 0.012786508
-0.041647606 -0.037376054 0.012826353
-0.040814526 -0.037592325 0.012945741
-0.039751861 -0.03760311 0.013954192
-0.038496681 -0.037427329 0.014764428
-0.038172569 -0.038172569 0.015813023
-0.036112294 -0.037174419 0.016449094
-0.034561947 -0.036656611 0.016963094
-0.033459324 -0.036596134 0.017513692
-0.032267939 -0.036431544 0.018189192
-0.032079745 -0.037426367 0.018854141
-0.030179741 -0.036423825 0.018918216
-0.030381078 -0.037976347 0.018908381
-0.028574459 -0.037040964 0.018761933
-0.027594723 -0.03714674 0.01737842
-0.026511803 -0.037116524 0.017016321
-0.025778247 -0.037593279 0.016391009
-0.024386937 -0.037110556 0.015794456
-0.023495341 -0.037378952 0.01603803
-0.022631627 -0.037719376 0.016340047
-0.021498419 -0.037622236 0.01641202
-0.020043222 -0.036921725 0.016418368
-0.020083867 -0.039051965 0.016789317
-0.018035419 -0.037131745 0.016802579
-0.016911183 -0.036993209 0.016968369
-0.015867591 -0.037024379 0.016260117
-0.014734592 -0.036836479 0.016279608
-0.013831645 -0.037239045 0.015416622
-0.012735873 -0.037146296 0.012895763
-0.011849044 -0.037701502 0.011292934
-0.010979023 -0.038426582 0.0078577995
-0.0097997198 -0.038110022 0.0053909421
-0.12058466 -0.037271623 0.0050442219
-0.11377372 -0.035489049 0.01641351
-0.11273097 -0.03548938 0.019025713
-0.11252307 -0.035754994 0.019799024
-0.11255525 -0.03610263 0.020567358
-0.11079023 -0.035874933 0.02091828
-0.10977115 -0.035886724 0.021556884
-0.10811438 -0.035688244 0.021579027
-0.10619169 -0.035397232 0.021705121
-0.10585557 -0.035634547 0.021500587
-0.10433253 -0.03547306 0.021161348
-0.1034077 -0.035513755 0.020898342
-0.10252054 -0.035568353 0.020700485
-0.10055855 -0.035247326 0.020562232
-0.10305557 -0.036498848 0.020881653
-0.099843137 -0.035733335 0.020551443
-0.09856347 -0.035650618 0.020510942
-0.098636486 -0.03606065 0.020639658
-0.097814322 -0.036148772 0.020404667
-0.096792571 -0.036164258 0.020219982
-0.094873033 -0.035840925 0.020530701
-0.094538987 -0.036116019 0.019869775
-0.091739602 -0.035444848 0.019785285
-0.093130775 -0.036395933 0.019892812
-0.090447068 -0.035758145 0.01960963
-0.090077333 -0.036030933 0.019758284
-0.089751668 -0.036328055 0.019826889
-0.087146983 -0.035698764 0.019280046
-0.086637199 -0.03592274 0.019045264
-0.087069437 -0.036547668 0.018957585
-0.084844112 -0.03605875 0.018946886
-0.084021136 -0.036160998 0.018750668
-0.082187057 -0.03582513 0.018707424
-0.08086317 -0.035705816 0.01860261
-0.08244922 -0.03688518 0.018639743
-0.078865938 -0.035752557 0.018477738
-0.078207321 -0.035933092 0.018159807
-0.077018693 -0.035871718 0.017592162
-0.075604916 -0.035702322 0.017400146
-0.074620903 -0.035733953 0.017757595
-0.074095517 -0.035989251 0.017797977
-0.073398128 -0.036167193 0.01771152
-0.07198137 -0.035990685 0.017671585
-0.072758533 -0.036922239 0.017459422
-0.069893114 -0.036005542 0.017185211
-0.070081577 -0.036658056 0.017101169
-0.067974351 -0.036111373 0.01676777
-0.066450179 -0.035862003 0.016930312
-0.066343427 -0.036381882 0.016274661
-0.063934676 -0.035635721 0.016100556
-0.063262977 -0.035849024 0.016025007
-0.062528983 -0.036033653 0.015624076
-0.061672386 -0.036152776 0.015285879
-0.060808554 -0.03627177 0.015062332
-0.060109366 -0.03649497 0.015038997
-0.058317654 -0.036050912 0.01515311
-0.05713328 -0.035972808 0.014639705
-0.056910798 -0.036508814 0.014451742
-0.055106074 -0.036030892 0.014243931
-0.055375881 -0.036917254 0.014406741
-0.054113898 -0.036797449 0.014326692
-0.052063603 -0.036125768 0.013757408
-0.051323157 -0.036353905 0.013685226
-0.051048484 -0.036928691 0.013702899
-0.048602141 -0.035923321 0.013532937
-0.047982689 -0.036253586 0.013712853
-0.046870738 -0.0362183 0.013693541
-0.04600215 -0.036373794 0.013106078
-0.045121711 -0.036527101 0.012834579
-0.043736454 -0.036269251 0.012912452
-0.042926993 -0.036487944 0.012786508
-0.042342734 -0.036914177 0.012561381
-0.040620919 -0.036345031 0.01266548
-0.039581217 -0.036371928 0.013097346
-0.039552711 -0.037355337 0.013940483
-0.03747312 -0.03640246 0.014330745
-0.036087036 -0.036087036 0.015107781
-0.035108816 -0.036172722 0.015742719
-0.033960644 -0.036083188 0.017084658
-0.032763053 -0.03593367 0.018049777
-0.031435862 -0.035627313 0.018501639
-0.03009654 -0.0352856 0.018699944
-0.030034561 -0.03647054 0.018935114
-0.030759037 -0.038733598 0.018876344
-0.02761637 -0.036113717 0.018417418
-0.026773656 -0.036412172 0.017699957
-0.025550857 -0.036197048 0.017259449
-0.02462652 -0.03640442 0.017038137
-0.02359111 -0.036458988 0.016959429
-0.022498848 -0.036426704 0.017020643
-0.021095231 -0.035861894 0.016782582
-0.021328578 -0.038166929 0.016338974
-0.019504754 -0.036842313 0.016782582
-0.017905122 -0.035810243 0.016459256
-0.017093521 -0.036323734 0.016621232
-0.015891017 -0.036019638 0.015684664
-0.014895856 -0.03617565 0.015249819
-0.013773027 -0.036021765 0.013651371
-0.012607422 -0.03572103 0.011925429
-0.012080726 -0.037340429 0.0091556311
-0.010994127 -0.037380032 0.0070605576
-0.0098029096 -0.037033215 0.0048617125
-0.12075626 -0.036226876 0.0052155256
-0.11307981 -0.034235168 0.01641351
-0.11445765 -0.034973171 0.018865764
-0.11228732 -0.034630667 0.019813567
-0.10991155 -0.034217745 0.020486951
-0.11055869 -0.034747016 0.020759195
-0.10907676 -0.034610894 0.021280199
-0.10832343 -0.034705564 0.021487594
-0.10743196 -0.034757398 0.021487594
-0.10604293 -0.034647688 0.021323264
-0.10369842 -0.034220479 0.021009654
-0.10343965 -0.034479883 0.020717174
-0.1028415 -0.034630299 0.020575404
-0.101581 -0.034558482 0.020533949
-0.10130561 -0.034823801 0.020489424
-0.098812267 -0.034324259 0.020646065
-0.10021807 -0.035182938 0.020778716
-0.098699994 -0.035022579 0.020776063
-0.095414095 -0.034224622 0.020777941
-0.096644543 -0.03504692 0.02033022
-0.094299451 -0.034576464 0.020780921
-0.09220276 -0.03418754 0.020432949
-0.092520446 -0.034695167 0.020063698
-0.091661192 -0.034768037 0.02003184
-0.089739412 -0.034434889 0.019640952
-0.08986786 -0.034889873 0.019749731
-0.088590398 -0.034803372 0.019698441
-0.088443644 -0.035164338 0.019227117
-0.087074362 -0.035042122 0.01892364
-0.084838375 -0.034563784 0.018957585
-0.084327094 -0.034784928 0.018869698
-0.083953172 -0.035069045 0.01860261
-0.082147688 -0.03475479 0.018707424
-0.083291993 -0.03569657 0.018750668
-0.079425432 -0.034487356 0.018788636
-0.079567254 -0.035009589 0.018640012
-0.079549767 -0.035474893 0.018113017
-0.077265516 -0.034928247 0.017848283
-0.075904384 -0.03478951 0.017439425
-0.074614704 -0.034680072 0.017757595
-0.074236192 -0.034997061 0.017664403
-0.073487341 -0.035146117 0.017816603
-0.073250785 -0.035548177 0.017671585
-0.071002215 -0.034971237 0.017563492
-0.069610439 -0.03480522 0.01714173
-0.069651276 -0.035361417 0.016891062
-0.0673621 -0.034733582 0.016786098
-0.066834323 -0.035008453 0.016835034
-0.066762768 -0.035535023 0.016233116
-0.063965991 -0.034604553 0.016186148
-0.064076401 -0.035242021 0.016031951
-0.063612983 -0.035580143 0.015556097
-0.061922155 -0.035231568 0.015712559
-0.061482821 -0.035595316 0.015062332
-0.059241936 -0.034910426 0.014957786
-0.058210343 -0.034926206 0.015047967
-0.057905972 -0.03538698 0.014450699
-0.057145946 -0.035581436 0.014451742
-0.055242695 -0.035057865 0.014100045
-0.054713894 -0.035403106 0.014243931
-0.053114902 -0.035055835 0.014240682
-0.051846679 -0.03491715 0.013682216
-0.051710196 -0.035550758 0.013520062
-0.04952994 -0.034776341 0.013518155
-0.049567476 -0.035559274 0.013528109
-0.048484426 -0.035555243 0.013581425
-0.047130212 -0.035347659 0.013511121
-0.046668958 -0.035815712 0.013023257
-0.045087837 -0.035426158 0.012757659
-0.043113403 -0.034701031 0.012834579
-0.043148682 -0.035597663 0.012636751
-0.041547075 -0.035155214 0.012475878
-0.040762629 -0.035399124 0.012124747
-0.039772976 -0.03547319 0.012696147
-0.038811315 -0.03557704 0.013288915
-0.03744695 -0.035307124 0.013655126
-0.037307106 -0.036209837 0.014251888
-0.034960173 -0.034960173 0.014484942
-0.03384554 -0.034903213 0.015940577
-0.032527529 -0.034626078 0.018039316
-0.031487815 -0.034636594 0.018420607
-0.030515833 -0.03472491 0.018559098
-0.029285427 -0.034514967 0.01878804
-0.028342541 -0.034640882 0.018811613
-0.029416366 -0.037336156 0.018441588
-0.028339464 -0.037408091 0.017800927
-0.026032217 -0.035794299 0.017631978
-0.025318159 -0.036326054 0.017171919
-0.02451843 -0.036777645 0.017160177
-0.02341854 -0.036800563 0.016899735
-0.022667937 -0.037402097 0.016771883
-0.019925952 -0.03460823 0.016585916
-0.018744972 -0.034365784 0.016620606
-0.01829383 -0.035511553 0.016310722
-0.016567582 -0.034170639 0.016055316
-0.015930753 -0.035047658 0.015087843
-0.014794369 -0.034872439 0.013676822
-0.013717459 -0.034821242 0.012226313
-0.012945338 -0.035599679 0.011224836
-0.012152063 -0.036456186 0.0077471435
-0.01087734 -0.035895225 0.0063236058
-0.0098169763 -0.03599558 0.0045737624
-0.11907663 -0.034640476 0.0055230856
-0.11640011 -0.034172509 0.016560733
-0.1136805 -0.033683114 0.019061685
-0.11219536 -0.033553753 0.019961268
-0.1106611 -0.033407126 0.020561308
-0.10901751 -0.033224385 0.020836383
-0.1071821 -0.032979108 0.021382719
-0.10823478 -0.03362634 0.021265388
-0.10694759 -0.033552185 0.021413922
-0.10383654 -0.032898709 0.021017015
-0.10661393 -0.034116458 0.02076444
-0.10359955 -0.033486724 0.020564944
-0.10323142 -0.033708218 0.020461142
-0.10204736 -0.033665109 0.020450443
-0.09915147 -0.033050492 0.020525873
-0.10073595 -0.033932112 0.020455807
-0.098740831 -0.033613902 0.020604819
-0.09842705 -0.03386737 0.020831794
-0.096478887 -0.033557873 0.020942897
-0.09561123 -0.033621531 0.020373225
-0.095331736 -0.033895727 0.020780921
-0.093593605 -0.033651635 0.019946456
-0.092188209 -0.033522986 0.019834697
-0.092748627 -0.034114435 0.019755483
-0.090809621 -0.033789627 0.019329697
-0.089683041 -0.033763029 0.019280046
-0.089517042 -0.034101728 0.019290596
-0.088292785 -0.034040593 0.018664122
-0.088399924 -0.034497529 0.018405765
-0.085293986 -0.033696391 0.018318474
-0.084476992 -0.033790797 0.018386394
-0.082344092 -0.033354569 0.01824528
-0.082596481 -0.033885736 0.01849705
-0.083064593 -0.03452035 0.018551677
-0.079822168 -0.033609334 0.018753529
-0.080375902 -0.034293715 0.018338859
-0.078242734 -0.033834696 0.017974257
-0.076586515 -0.033572171 0.017562479
-0.076057062 -0.033803139 0.01726988
-0.075139239 -0.033865575 0.017369539
-0.073777102 -0.033726674 0.01754415
-0.073423207 -0.034051344 0.017412663
-0.071394712 -0.03359751 0.017560333
-0.071060337 -0.033939265 0.017565191
-0.071053095 -0.034449987 0.016964614
-0.067761786 -0.033359651 0.016925931
-0.067436829 -0.033718415 0.016756743
-0.067452744 -0.034261711 0.016891062
-0.0654203 -0.033765316 0.016498566
-0.065521814 -0.034372102 0.016268164
-0.063450642 -0.033840343 0.016268164
-0.062241849 -0.03375829 0.015735149
-0.061299387 -0.03382035 0.015062332
-0.061793409 -0.034691039 0.014849782
-0.059739105 -0.034136631 0.014734656
-0.060116343 -0.03497678 0.01468429
-0.057637703 -0.034155674 0.014256418
-0.056681417 -0.034222744 0.014291495
-0.055933826 -0.034420818 0.013976485
-0.055007678 -0.034514621 0.014127612
-0.052814834 -0.033801492 0.0140616
-0.052983347 -0.034601372 0.013558418
-0.05067182 -0.033781216 0.013507068
-0.050827947 -0.034606263 0.013520062
-0.049344014 -0.03432627 0.013665348
-0.047749318 -0.033955071 0.013685226
-0.047113027 -0.034264021 0.013682216
-0.046223491 -0.034398876 0.01288721
-0.044594128 -0.03397648 0.01282829
-0.044336788 -0.034604322 0.01285848
-0.043130692 -0.034504555 0.012700409
-0.041661549 -0.034183837 0.012539536
-0.041221462 -0.03471281 0.012124747
-0.039825726 -0.03444387 0.012539536
-0.038601145 -0.034312133 0.012849897
-0.038096603 -0.034831181 0.013230354
-0.036670055 -0.034512993 0.013793886
-0.035770793 -0.03468683 0.013961613
-0.033933755 -0.033933755 0.014753491
-0.032428849 -0.033474941 0.015552491
-0.031817801 -0.033938989 0.017644733
-0.030715348 -0.033892795 0.018278509
-0.02906381 -0.033215784 0.018441588
-0.028464492 -0.033735693 0.018531024
-0.027447861 -0.033781983 0.018219531
-0.025606191 -0.032775924 0.01776734
-0.025181236 -0.03357498 0.017531008
-0.024209499 -0.033682782 0.017049909
-0.02279296 -0.033153396 0.017049909
-0.021866888 -0.033320971 0.016771883
-0.02067527 -0.033080433 0.01654774
-0.019981872 -0.03365368 0.016233146
-0.01931053 -0.034329835 0.016204894
-0.017901089 -0.033696167 0.01562351
-0.017027635 -0.03405527 0.015213072
-0.015959475 -0.034046881 0.013457626
-0.01469955 -0.033598974 0.012194723
-0.013909762 -0.034239415 0.011107504
-0.013243212 -0.035315234 0.0088934004
-0.012028865 -0.034993064 0.0069338977
-0.010919031 -0.034940898 0.0055474937
-0.0099496646 -0.035376586 0.0044046938
-0.11901446 -0.033540443 0.0064592957
-0.11516797 -0.032754194 0.016265482
-0.11176755 -0.032081425 0.018720448
-0.11183874 -0.032401878 0.019703537
-0.11150374 -0.032609586 0.020337075
-0.10787034 -0.031847436 0.020661891
-0.10912351 -0.032527201 0.021327734
-0.10733883 -0.032305863 0.021017015
-0.10687711 -0.032482259 0.02110368
-0.10600516 -0.032536238 0.020826906
-0.10465156 -0.032441985 0.020677269
-0.10304017 -0.032265104 0.020574331
-0.10336623 -0.032697484 0.020461142
-0.10143 -0.032415774 0.020401984
-0.10078179 -0.032544121 0.020457119
-0.099883527 -0.032593574 0.020400047
-0.094864421 -0.031285077 0.02061069
-0.097498 -0.032499332 0.020813853
-0.096573152 -0.032540955 0.020784885
-0.093929559 -0.031997979 0.02032271
-0.094986461 -0.032717559 0.02061668
-0.093843475 -0.032687057 0.019834697
-0.092383102 -0.032544047 0.019668669
-0.092094004 -0.032815106 0.019377589
-0.09125603 -0.032894615 0.019305378
-0.090245806 -0.032913174 0.019061595
-0.089273922 -0.03294633 0.019114614
-0.087474287 -0.03267112 0.01867339
-0.087429933 -0.03305278 0.018558443
-0.08651191 -0.033109501 0.018558443
-0.084397495 -0.032704033 0.018546939
-0.084621444 -0.033205885 0.018512994
-0.082388617 -0.032744195 0.018690407
-0.079351962 -0.031946894 0.018546939
-0.081044763 -0.033057734 0.018747896
-0.080001175 -0.033067156 0.018535465
-0.077744342 -0.032568578 0.017961383
-0.078993715 -0.033545274 0.017788321
-0.074998714 -0.032291118 0.017231762
-0.075289503 -0.032872885 0.017485142
-0.075090691 -0.033254452 0.017386645
-0.072606221 -0.032620188 0.01764822
-0.072288662 -0.032955129 0.017393202
-0.071572043 -0.033115424 0.016984552
-0.070278771 -0.033009727 0.016900688
-0.068160884 -0.032507498 0.016746044
-0.067822389 -0.032851469 0.016576856
-0.066584043 -0.032763578 0.016850352
-0.066423647 -0.033211824 0.016691029
-0.064863414 -0.032963376 0.016453981
-0.063924544 -0.033027682 0.016199887
-0.063879043 -0.033563565 0.015920758
-0.062476706 -0.033392724 0.015562594
-0.060371201 -0.032833461 0.015175372
-0.059511177 -0.032943688 0.014953882
-0.05788523 -0.032626223 0.014999509
-0.057909057 -0.033244088 0.01468429
-0.057117157 -0.03340815 0.014627516
-0.055154569 -0.032880608 0.014240712
-0.053944845 -0.032790005 0.014332026
-0.053898826 -0.033417273 0.014160395
-0.052544117 -0.0332422 0.013922304
-0.05139146 -0.033190321 0.013761133
-0.050766815 -0.033484496 0.013770729
-0.048922915 -0.032969791 0.014038712
-0.048625801 -0.033497773 0.013969719
-0.047140751 -0.033212803 0.013789326
-0.045455266 -0.032770075 0.013553441
-0.04496336 -0.033187244 0.013328373
-0.044568539 -0.033698164 0.013333887
-0.042846259 -0.033205852 0.012786508
-0.04165547 -0.03311076 0.012522697
-0.040569402 -0.03309609 0.011807084
-0.039412361 -0.033021167 0.012119204
-0.039354131 -0.033888284 0.012349188
-0.03762706 -0.033326827 0.012786508
-0.036790457 -0.033544242 0.013163388
-0.035821732 -0.033650722 0.01316607
-0.034015983 -0.032952987 0.014420509
-0.032829747 -0.032829747 0.015126228
-0.031843998 -0.032905467 0.015367359
-0.030264137 -0.032351319 0.017569691
-0.029920211 -0.033125948 0.017795116
-0.028566662 -0.03279876 0.017842382
-0.027267085 -0.032510757 0.01761049
-0.026457608 -0.032807436 0.017495781
-0.025194883 -0.032543391 0.017428398
-0.024264475 -0.032704294 0.016441315
-0.023446435 -0.033038162 0.016362607
-0.022075141 -0.032587115 0.015820473
-0.020998683 -0.032547962 0.015508115
-0.019922316 -0.032504831 0.015405118
-0.018921852 -0.032587636 0.015240967
-0.018029526 -0.032877374 0.014434218
-0.017005691 -0.032948527 0.013453692
-0.015915209 -0.032891434 0.011985898
-0.015059671 -0.033346418 0.01100564
-0.014190527 -0.03383895 0.0091376603
-0.01320205 -0.034105297 0.0077922344
-0.012154216 -0.034252793 0.0063169301
-0.010873762 -0.033708666 0.0050778687
-0.0098471325 -0.033917904 0.0043466091
-0.12085445 -0.032960303 0.0064271092
-0.11190725 -0.030800162 0.015829235
-0.11451398 -0.031809438 0.018406957
-0.11125505 -0.031193003 0.019807875
-0.11095645 -0.031402767 0.020443439
-0.11136062 -0.031817321 0.020817727
-0.10936937 -0.031548858 0.021698922
-0.10633881 -0.030972471 0.021536052
-0.10828464 -0.031848423 0.02110368
-0.10579179 -0.031423304 0.020905912
-0.10402125 -0.031206373 0.020678371
-0.10453134 -0.031676162 0.020180166
-0.1015671 -0.031091969 0.020385295
-0.10200424 -0.031547707 0.020377636
-0.099812068 -0.031191271 0.020330876
-0.098591775 -0.031134246 0.020406723
-0.10071904 -0.032144375 0.020468533
-0.098154545 -0.031662755 0.020676136
-0.09466581 -0.030869287 0.020513684
-0.096552812 -0.031830598 0.020207167
-0.096285127 -0.032095041 0.020236075
-0.09259247 -0.031210946 0.019450724
-0.093377165 -0.031833127 0.019472688
-0.090725161 -0.031284537 0.019217432
-0.090367556 -0.031523567 0.019257784
-0.090393633 -0.031903632 0.019061595
-0.087590411 -0.031282291 0.018905431
-0.087361693 -0.031576514 0.01872912
-0.087836646 -0.032135356 0.018398911
-0.085528322 -0.031677157 0.018558443
-0.08394061 -0.031477727 0.018512994
-0.083336085 -0.031646617 0.018396258
-0.08233849 -0.031668652 0.018690407
-0.08213447 -0.032000441 0.018546939
-0.080532901 -0.031789303 0.018747896
-0.079078943 -0.031631578 0.018493146
-0.07795772 -0.03160448 0.017921269
-0.077160962 -0.031709984 0.0178186
-0.075309813 -0.031379089 0.017127246
-0.07646814 -0.032310482 0.017503589
-0.074186243 -0.031794105 0.017386645
-0.072851144 -0.031674411 0.017560333
-0.073170297 -0.032281011 0.017393202
-0.071171358 -0.031867772 0.016984552
-0.06911169 -0.031414408 0.01696232
-0.070116378 -0.032361407 0.01663816
-0.067504428 -0.031642701 0.016756743
-0.067629479 -0.032204513 0.016891062
-0.066912822 -0.032377172 0.016748071
-0.064585745 -0.031763479 0.016653538
-0.065062135 -0.032531068 0.01639235
-0.063074552 -0.032071806 0.015956998
-0.060736135 -0.031415243 0.015701324
-0.061281443 -0.032253392 0.01541239
-0.059289545 -0.031762257 0.015430331
-0.058595099 -0.031960964 0.015569985
-0.058202945 -0.032334968 0.015587449
-0.056418538 -0.031935021 0.015034378
-0.055365525 -0.031941649 0.014574438
-0.055311546 -0.032536205 0.014516175
-0.052988734 -0.03179324 0.014275044
-0.051583886 -0.031581972 0.014272064
-0.051714044 -0.032321278 0.013922304
-0.050083734 -0.03196834 0.013955474
-0.049159929 -0.032060821 0.014007807
-0.048295006 -0.032196667 0.01394558
-0.046160262 -0.031472906 0.013761133
-0.046134505 -0.032186866 0.013520062
-0.045121647 -0.032229748 0.013230056
-0.043168217 -0.031586498 0.013296723
-0.042500954 -0.031875715 0.012852311
-0.041663293 -0.032048687 0.012427866
-0.040956568 -0.032334134 0.011847228
-0.039650511 -0.032149062 0.012021571
-0.038262703 -0.031885587 0.012010515
-0.037602335 -0.032230575 0.012438416
-0.03691892 -0.032575514 0.012989819
-0.035748485 -0.032498624 0.0126957
-0.034773014 -0.032599699 0.013579756
-0.033170454 -0.032100439 0.01418975
-0.031495284 -0.031495284 0.014881521
-0.030811541 -0.031874008 0.0155662
-0.029615046 -0.031730406 0.017532349
-0.028509811 -0.031677566 0.017532349
-0.027505718 -0.031737369 0.01709944
-0.026225923 -0.031471107 0.01709944
-0.025190903 -0.031488627 0.017477483
-0.024394717 -0.031819198 0.015819222
-0.022873843 -0.031191604 0.016153932
-0.022081863 -0.03154552 0.015376925
-0.021385247 -0.032077871 0.015107393
-0.020031098 -0.03162805 0.014723986
-0.019065384 -0.031775642 0.013879478
-0.018145507 -0.032021485 0.012330741
-0.016865037 -0.031621944 0.011510104
-0.016186183 -0.032372367 0.010531127
-0.015092298 -0.032340642 0.0088208616
-0.01397832 -0.032257661 0.0076139271
-0.013212574 -0.033031434 0.0067257881
-0.011924514 -0.032521401 0.0056677163
-0.010843606 -0.032530818 0.0048834085
-0.11813963 -0.031145904 0.0064592957
-0.11492012 -0.030575076 0.016381741
-0.1137281 -0.030538101 0.018554658
-0.11224864 -0.030422527 0.019807875
-0.11063891 -0.030269139 0.020300955
-0.11078052 -0.030596526 0.020552635
-0.10864124 -0.030294193 0.021536052
-0.10804985 -0.030421803 0.02086848
-0.10574224 -0.03006397 0.020826906
-0.1046128 -0.030037338 0.020519406
-0.10505417 -0.030465709 0.020178914
-0.1039298 -0.030444084 0.019916028
-0.1022968 -0.030271504 0.019955158
-0.1038166 -0.031037955 0.019694686
-0.10063565 -0.030400354 0.019848228
-0.099840097 -0.030477505 0.019845814
-0.099779226 -0.030782953 0.019721985
-0.097626172 -0.030442571 0.02044192
-0.096236534 -0.03033543 0.020318359
-0.095209584 -0.030341515 0.020152122
-0.093508787 -0.03013061 0.020319253
-0.093723595 -0.030539151 0.01965183
-0.093304634 -0.03074812 0.019722939
-0.091071978 -0.030357327 0.019499689
-0.091191396 -0.030750589 0.019290894
-0.089564979 -0.030557465 0.019038737
-0.087485798 -0.03020343 0.019141078
-0.087985046 -0.030741762 0.01867339
-0.08569745 -0.030307636 0.018529743
-0.086320795 -0.030904979 0.018593669
-0.085033715 -0.030824725 0.018398911
-0.082238331 -0.030188756 0.018283963
-0.081868775 -0.030438391 0.01839152
-0.08195585 -0.030866491 0.018410325
-0.079697959 -0.030411063 0.018585622
-0.07983274 -0.030868659 0.018394202
-0.078754894 -0.030863402 0.017990202
-0.076414652 -0.030356506 0.017830431
-0.076551504 -0.030833248 0.017053127
-0.075576097 -0.030869111 0.017282486
-0.074048474 -0.030677225 0.017205119
-0.07449352 -0.031308871 0.017466664
-0.07196831 -0.030692369 0.017365515
-0.071151905 -0.030797092 0.017197371
-0.070533998 -0.030992212 0.016930014
-0.0682754 -0.030461334 0.016482949
-0.067716368 -0.030683979 0.016470432
-0.067656726 -0.031143572 0.01650846
-0.06518089 -0.030487835 0.016576707
-0.064949408 -0.030877588 0.016438127
-0.063615859 -0.030747665 0.016074121
-0.062319092 -0.030631419 0.015735149
-0.062265635 -0.031132817 0.01522702
-0.061062519 -0.031066898 0.015141487
-0.059398033 -0.030759696 0.015003771
-0.058920465 -0.031067153 0.015018314
-0.057481125 -0.030869493 0.014999509
-0.056195434 -0.030748447 0.014849216
-0.055745579 -0.031088881 0.01467222
-0.054952309 -0.031247392 0.014640987
-0.053209525 -0.030861525 0.014313251
-0.052385952 -0.031003932 0.014275044
-0.050761096 -0.030668164 0.014143825
-0.050529987 -0.031178078 0.013967931
-0.049505122 -0.031209752 0.013955474
-0.047933877 -0.03089072 0.013928235
-0.048054527 -0.031672303 0.013724953
-0.046018064 -0.03103544 0.01344499
-0.044492196 -0.030720802 0.01319474
-0.044912416 -0.031767316 0.013225198
-0.042966168 -0.031150473 0.012957513
-0.042225622 -0.031398539 0.012593329
-0.041286115 -0.031507824 0.011861712
-0.040094655 -0.031425539 0.01203984
-0.038502991 -0.031016301 0.011835575
-0.03819444 -0.031646822 0.012086928
-0.036754631 -0.03134954 0.012254506
-0.035648987 -0.0313279 0.012320399
-0.034385543 -0.031161901 0.012712389
-0.03307312 -0.03093937 0.01315558
-0.032183304 -0.031110529 0.013476819
-0.030848825 -0.030848825 0.014304101
-0.029790323 -0.030854264 0.015216559
-0.028554333 -0.030669469 0.015287668
-0.027487075 -0.03065866 0.015198648
-0.026421914 -0.03064942 0.01520595
-0.025491273 -0.030801956 0.015189976
-0.024329353 -0.030676141 0.014897525
-0.023161246 -0.030530734 0.014865309
-0.022223646 -0.030689796 0.014258921
-0.021273753 -0.030846944 0.013569862
-0.020191735 -0.030818965 0.012453675
-0.019148706 -0.030850695 0.011983842
-0.018035207 -0.030765941 0.010615021
-0.01724926 -0.031264286 0.0097714365
-0.016294893 -0.031503461 0.0085299015
-0.015013376 -0.031099137 0.007771045
-0.014492926 -0.032330375 0.007152915
-0.013171955 -0.031832226 0.0059890449
-0.012003602 -0.031645861 0.0052084327
-0.010952596 -0.031762529 0.0047076344
-0.11964964 -0.030456271 0.0077809095
-0.11445922 -0.02940237 0.016671628
-0.11161558 -0.02893737 0.019048005
-0.1119465 -0.029294411 0.020323187
-0.110838 -0.029277964 0.020539463
-0.10929752 -0.029146004 0.020837307
-0.10865928 -0.029254422 0.021655589
-0.10825592 -0.029428795 0.021564782
-0.10670386 -0.029291255 0.021290839
-0.10642342 -0.029503521 0.020767361
-0.10496546 -0.029390329 0.020622581
-0.10557244 -0.029858872 0.020137727
-0.10276557 -0.029361593 0.019845814
-0.10076588 -0.029087057 0.019935459
-0.101192 -0.029514335 0.019815445
-0.099452019 -0.029312173 0.019935459
-0.097680598 -0.02909635 0.019688368
-0.098436117 -0.029636681 0.020006031
-0.096890889 -0.029488532 0.020363688
-0.094761416 -0.029157359 0.02029258
-0.095287278 -0.029644929 0.020283043
-0.094791137 -0.029821932 0.019700766
-0.092285201 -0.029363474 0.019642353
-0.09273196 -0.02984477 0.019441247
-0.089518979 -0.029145714 0.01917547
-0.089610517 -0.029518759 0.019005448
-0.089135945 -0.02971198 0.019048005
-0.085928537 -0.028987939 0.018523633
-0.086752899 -0.029622938 0.018408209
-0.085384101 -0.029515492 0.018408209
-0.083325483 -0.029163921 0.018333018
-0.083864778 -0.029724225 0.018133014
-0.082749002 -0.029704768 0.018137813
-0.081864066 -0.029768752 0.018101186
-0.080029532 -0.029484563 0.018494189
-0.080236532 -0.029954972 0.018159807
-0.077281103 -0.029241497 0.017733872
-0.077747069 -0.029820791 0.017333895
-0.075840466 -0.029493516 0.016767561
-0.07479386 -0.029496171 0.016975403
-0.075365677 -0.030146273 0.016657412
-0.073666684 -0.029893728 0.016982615
-0.072139747 -0.029704602 0.016657412
-0.072157025 -0.030155174 0.016575515
-0.070173807 -0.029770708 0.016577303
-0.068743818 -0.029612722 0.016162157
-0.067647345 -0.029595714 0.01620084
-0.066513807 -0.029561689 0.016430378
-0.066858128 -0.030193994 0.016334802
-0.064667203 -0.029683309 0.016318738
-0.063962556 -0.029849194 0.016074121
-0.062127523 -0.029484248 0.015608013
-0.061728261 -0.029799851 0.015386492
-0.060208105 -0.02957591 0.015304357
-0.060049333 -0.030024666 0.015048712
-0.059364907 -0.030222135 0.015309155
-0.057683196 -0.029909803 0.015093297
-0.056198835 -0.029689951 0.014922321
-0.05592468 -0.030113289 0.014796525
-0.054706469 -0.030034924 0.014710873
-0.053946141 -0.030209839 0.014273345
-0.052350719 -0.029914698 0.014148265
-0.051506311 -0.030045349 0.013797194
-0.050527465 -0.030101469 0.013813853
-0.048257314 -0.029374016 0.013891697
-0.048342127 -0.030079544 0.013882756
-0.047153082 -0.030006507 0.013511628
-0.046213374 -0.030092428 0.013230056
-0.044342462 -0.029561641 0.013070047
-0.043756723 -0.02988264 0.012931824
-0.04303908 -0.030127356 0.012671202
-0.041857623 -0.030051626 0.012461782
-0.040943597 -0.030168965 0.011455595
-0.039458517 -0.029860498 0.011318028
-0.039037559 -0.030362548 0.011233091
-0.037993312 -0.030394649 0.011307001
-0.036398415 -0.029975163 0.011600316
-0.036151394 -0.03067391 0.0115363
-0.034261599 -0.029978897 0.01179561
-0.033949398 -0.030663971 0.012131512
-0.032179877 -0.030034551 0.011865109
-0.030727588 -0.029668014 0.01229319
-0.030407222 -0.030407222 0.013035059
-0.0288576 -0.029926399 0.013595521
-0.027607134 -0.029730758 0.013467669
-0.026763512 -0.029975133 0.012909383
-0.025507431 -0.029758669 0.012896955
-0.024487291 -0.029810613 0.012734592
-0.023592915 -0.030027347 0.012597859
-0.022353858 -0.029805144 0.011828482
-0.021239849 -0.029735789 0.010767698
-0.020302666 -0.029919719 0.010401309
-0.019203499 -0.029872112 0.0096509457
-0.01827395 -0.030098271 0.0087520778
-0.017236754 -0.03016432 0.0085299015
-0.016256748 -0.03034593 0.0076432228
-0.015559858 -0.031119715 0.0073332787
-0.014178568 -0.030538455 0.0065209866
-0.013109354 -0.030588493 0.0058045387
-0.012104716 -0.030812006 0.0050967634
-0.010942982 -0.030640351 0.0047297478
-0.11901042 -0.029211648 0.0072669983
-0.11353042 -0.028122215 0.016381741
-0.11401246 -0.028503116 0.018566281
-0.11309648 -0.028538363 0.019910365
-0.10935944 -0.027855709 0.02056855
-0.11233678 -0.028886603 0.021290839
-0.10837048 -0.028134644 0.021547914
-0.10631903 -0.027870039 0.021502823
-0.10674506 -0.028256046 0.021226853
-0.10618433 -0.028385909 0.020826459
-0.1029813 -0.02780495 0.02043274
-0.10427384 -0.02843832 0.020163864
-0.1032339 -0.028441994 0.019743681
-0.10065597 -0.028017644 0.019694686
-0.10096415 -0.028396169 0.019774497
-0.098467082 -0.027985381 0.019845814
-0.099221997 -0.028499935 0.019531429
-0.097884417 -0.028418059 0.019609869
-0.094980948 -0.027874844 0.020162582
-0.095403098 -0.028306413 0.020197213
-0.095238686 -0.028571606 0.020146787
-0.093786433 -0.028452065 0.019700766
-0.092812724 -0.028476633 0.019616753
-0.090698831 -0.028147914 0.019369423
-0.091513358 -0.02873094 0.019037932
-0.090631865 -0.028788947 0.018519372
-0.087234899 -0.028039789 0.018649638
-0.086382709 -0.028100399 0.018487036
-0.086869784 -0.028603464 0.017989397
-0.084151939 -0.028050648 0.018005401
-0.084709018 -0.028589295 0.017888129
-0.083647534 -0.028588397 0.017833561
-0.08048024 -0.027858546 0.017980278
-0.081385329 -0.028537715 0.017731607
-0.081669047 -0.029014003 0.018257588
-0.078877397 -0.028395861 0.018131554
-0.079104602 -0.028862489 0.017631412
-0.077641971 -0.028716892 0.017025024
-0.075831488 -0.028436808 0.016602874
-0.074823275 -0.028453924 0.016655326
-0.074803457 -0.028852763 0.016553223
-0.073712014 -0.028843833 0.016656131
-0.072310813 -0.028711647 0.016652942
-0.071405172 -0.028775219 0.016647309
-0.069607064 -0.028475618 0.016592264
-0.069980957 -0.029069016 0.016198844
-0.066905037 -0.028225562 0.016403615
-0.067528278 -0.028940689 0.016646445
-0.065702565 -0.028612405 0.016503781
-0.06516964 -0.02884558 0.016334802
-0.063698903 -0.028664505 0.016156256
-0.063434094 -0.029029163 0.015726984
-0.061480183 -0.028620085 0.015633553
-0.060911708 -0.028852915 0.015562594
-0.059327226 -0.0286042 0.015048712
-0.058121808 -0.028532526 0.015309155
-0.057767767 -0.028883884 0.015085906
-0.056096405 -0.028577415 0.014876217
-0.055902716 -0.02902641 0.014487326
-0.055208143 -0.029227842 0.01441744
-0.052998371 -0.028619122 0.0141927
-0.052045885 -0.028678348 0.014084399
-0.051300436 -0.028856497 0.013731629
-0.049698222 -0.028550044 0.013751775
-0.049747348 -0.029199529 0.013919294
-0.048625074 -0.029175043 0.013919294
-0.046740636 -0.028681757 0.013421953
-0.045846634 -0.028787423 0.013230056
-0.044947162 -0.028894605 0.013070047
-0.043449 -0.028612755 0.013090849
-0.043879353 -0.029618565 0.012735099
-0.041701771 -0.028870458 0.012461782
-0.040920619 -0.029075177 0.011553615
-0.040480584 -0.029539887 0.011160553
-0.038570829 -0.028928123 0.010933906
-0.037439756 -0.028882097 0.010933906
-0.036812689 -0.029233607 0.011079788
-0.03582539 -0.029311687 0.011066765
-0.034638081 -0.029225882 0.010822356
-0.033855513 -0.029487059 0.010715693
-0.033046227 -0.029741604 0.010855138
-0.031728797 -0.029540604 0.011036783
-0.030315539 -0.029232841 0.011401117
-0.029142762 -0.029142762 0.01272729
-0.028517867 -0.029614709 0.012493283
-0.027168822 -0.029342327 0.0124183
-0.026236149 -0.029515669 0.011519641
-0.025025103 -0.029377297 0.011293203
-0.023947079 -0.029389597 0.010787338
-0.022680458 -0.029160589 0.010420263
-0.021882687 -0.029541628 0.0090533793
-0.020672143 -0.029376203 0.0088364482
-0.019602794 -0.029404195 0.0085342824
-0.018522996 -0.029418876 0.0079935491
-0.017406015 -0.029372651 0.0075742602
-0.01648112 -0.029666018 0.0068778992
-0.015487612 -0.029868968 0.0062572956
-0.0142798 -0.029658047 0.0059280992
-0.013261917 -0.029839315 0.0053559542
-0.011831845 -0.029041803 0.0045366883
-0.010834772 -0.029253887 0.004422307
-0.11804111 -0.027900627 0.0063245595
-0.11492384 -0.027413025 0.016046077
-0.11277363 -0.027149208 0.018446743
-0.11027063 -0.026794732 0.020138055
-0.1113093 -0.027302282 0.020457566
-0.10886836 -0.026957879 0.021502823
-0.10835047 -0.027087618 0.021856397
-0.10887884 -0.027483979 0.021737784
-0.10502333 -0.026770653 0.021480471
-0.10630807 -0.027366433 0.020833284
-0.10418395 -0.027087824 0.020800829
-0.10319644 -0.027102094 0.020507604
-0.10279236 -0.027271442 0.020020068
-0.10249016 -0.027471591 0.019830793
-0.099213213 -0.026870245 0.019983679
-0.10032173 -0.027456472 0.019972622
-0.097934455 -0.027088255 0.01957339
-0.096830331 -0.027070845 0.01955232
-0.096703582 -0.027329274 0.019936264
-0.094802499 -0.027086427 0.020212829
-0.093281984 -0.026948128 0.020329654
-0.093832888 -0.027411856 0.02013135
-0.092157885 -0.027228467 0.019861281
-0.090976946 -0.027188513 0.019474238
-0.091435686 -0.027643347 0.019184947
-0.08841493 -0.027044566 0.01888451
-0.0887044 -0.027456123 0.019024253
-0.09006092 -0.028211853 0.018375546
-0.086541347 -0.027439939 0.018032879
-0.08532954 -0.027389729 0.017986298
-0.084660396 -0.027514629 0.017926216
-0.082076162 -0.027012408 0.017988086
-0.083223023 -0.027741008 0.017967165
-0.082944252 -0.02800715 0.017668426
-0.079187699 -0.027090527 0.018101186
-0.080325387 -0.027846131 0.018068969
-0.078236073 -0.027488349 0.017333895
-0.07680659 -0.02735577 0.016851664
-0.0772838 -0.027908038 0.016580611
-0.075081967 -0.027494807 0.016604424
-0.073447593 -0.027280536 0.016484559
-0.073285244 -0.027614728 0.016782343
-0.071033336 -0.027159804 0.016738504
-0.071187429 -0.027624972 0.016710818
-0.070826821 -0.027901476 0.016726345
-0.069059134 -0.027623652 0.016302913
-0.067973308 -0.027614156 0.016279697
-0.067660324 -0.027923306 0.016312748
-0.066563174 -0.027913587 0.016127139
-0.065591119 -0.027956871 0.016525745
-0.064178556 -0.027810706 0.016156256
-0.062474713 -0.027531229 0.01582846
-0.061717141 -0.027666304 0.015701324
-0.060495768 -0.027594561 0.015467465
-0.059579793 -0.027662046 0.015480459
-0.058877211 -0.027832862 0.01537773
-0.057513364 -0.027691618 0.015430331
-0.05615665 -0.027548546 0.015320987
-0.056576993 -0.028288497 0.015349299
-0.054318212 -0.027691636 0.014837295
-0.053197172 -0.027662529 0.014317542
-0.052877083 -0.028057229 0.014333814
-0.051592972 -0.027946193 0.014199108
-0.050876535 -0.028144466 0.014165401
-0.049224328 -0.027822444 0.014143825
-0.048121441 -0.027803497 0.014143825
-0.046897285 -0.027712032 0.013958991
-0.046077836 -0.027861018 0.013950795
-0.044329245 -0.027441911 0.013343215
-0.044185735 -0.02802022 0.013260305
-0.042518169 -0.027636809 0.012963206
-0.041795973 -0.027863981 0.012756288
-0.04155802 -0.028434435 0.011859685
-0.0400097 -0.028114924 0.011323512
-0.038814947 -0.028033016 0.010929257
-0.037732299 -0.028029708 0.010792702
-0.036499199 -0.027911151 0.011002451
-0.035879292 -0.028268533 0.010516495
-0.034960132 -0.028405106 0.010172069
-0.033323199 -0.027948486 0.010571271
-0.032966089 -0.028570609 0.01060763
-0.032026157 -0.028713103 0.010812372
-0.030733511 -0.028538259 0.011042744
-0.02990648 -0.02879883 0.011152536
-0.028966168 -0.028966168 0.010639489
-0.027384317 -0.028479688 0.01058659
-0.026645705 -0.028866181 0.010056496
-0.025240192 -0.028532391 0.0095998347
-0.024247747 -0.028656429 0.0093124509
-0.023170359 -0.02868711 0.0086763799
-0.022235116 -0.028905651 0.0082017183
-0.020810656 -0.02847774 0.0079869628
-0.020087445 -0.0290152 0.0077270567
-0.018568419 -0.028398756 0.0067739785
-0.017498378 -0.028434863 0.00636518
-0.016412694 -0.028448669 0.0062572956
-0.015116424 -0.028073359 0.0061426163
-0.014268712 -0.028537424 0.0059595704
-0.013081643 -0.028343558 0.0054998994
-0.011898025 -0.028122606 0.0049059689
-0.01097038 -0.028522989 0.0043476522
-0.12035671 -0.027353799 0.0062377751
-0.11295655 -0.025907466 0.015627176
-0.11173686 -0.025865015 0.018057615
-0.11397998 -0.026630837 0.020043522
-0.11026563 -0.026006045 0.020457566
-0.10887216 -0.025921945 0.021593958
-0.11036374 -0.026529744 0.021856397
-0.10641203 -0.025828162 0.021856397
-0.10525556 -0.025797931 0.021784037
-0.10705704 -0.026499268 0.021358818
-0.10355591 -0.025888978 0.021184981
-0.10359792 -0.026161091 0.020798415
-0.10326543 -0.026343223 0.020416468
-0.10188589 -0.026259249 0.020431489
-0.099909887 -0.0260182 0.020346403
-0.1011075 -0.026607238 0.020217359
-0.096356347 -0.025626687 0.020232379
-0.0985099 -0.026481157 0.020368576
-0.097231105 -0.026421497 0.020568818
-0.094217353 -0.025883887 0.020450979
-0.094316795 -0.02619911 0.020414263
-0.092763156 -0.026057068 0.020207942
-0.091622613 -0.026029153 0.019865274
-0.092812002 -0.026670117 0.019607276
-0.09092249 -0.026430957 0.019291818
-0.088585228 -0.026054479 0.019070715
-0.088913023 -0.026462208 0.019023836
-0.087710358 -0.026418783 0.018701971
-0.086158521 -0.026267841 0.018328458
-0.086255759 -0.026622148 0.018254966
-0.083899863 -0.026218709 0.018288672
-0.084819809 -0.026841713 0.017969459
-0.082359783 -0.026397366 0.017988086
-0.080030195 -0.025983829 0.017792881
-0.080726661 -0.026554823 0.017888665
-0.079364158 -0.026454719 0.018030256
-0.077805229 -0.02628555 0.01726225
-0.078365602 -0.026837533 0.016795695
-0.07671348 -0.026636627 0.016607076
-0.074395768 -0.026195694 0.016628861
-0.075641066 -0.027014669 0.016532898
-0.073511727 -0.026634684 0.016628504
-0.072154045 -0.026527222 0.016638398
-0.071882099 -0.02682168 0.016638398
-0.069557659 -0.0263476 0.016772151
-0.068671539 -0.026412131 0.016576707
-0.069353044 -0.027091032 0.016279697
-0.066591367 -0.026425147 0.016446501
-0.066331126 -0.02674642 0.016184181
-0.064874642 -0.026587969 0.016454935
-0.064304076 -0.026793364 0.016294003
-0.063617595 -0.026956609 0.015780479
-0.061174795 -0.026368447 0.01572156
-0.060398716 -0.026490668 0.015617192
-0.059427064 -0.02652994 0.01522702
-0.058087211 -0.026403278 0.015332788
-0.057330173 -0.026541747 0.015467465
-0.057047937 -0.026909405 0.015320987
-0.054925691 -0.026406582 0.015292555
-0.05399726 -0.026469246 0.014831632
-0.054066028 -0.027033014 0.014380813
-0.051852327 -0.026455272 0.01442036
-0.051772173 -0.026964676 0.014333814
-0.050009534 -0.026600817 0.014228135
-0.048859362 -0.026554001 0.014549971
-0.048482776 -0.026934875 0.014677793
-0.04698183 -0.026694223 0.01418522
-0.045171801 -0.026262676 0.014081597
-0.045658082 -0.027177429 0.013517052
-0.043961834 -0.026805997 0.013250083
-0.043251522 -0.027032202 0.01300174
-0.04180491 -0.026798019 0.012754738
-0.040491719 -0.02663929 0.011360735
-0.039704334 -0.026827252 0.010989249
-0.039181102 -0.027209101 0.010688215
-0.037676711 -0.026911937 0.010057837
-0.036622468 -0.026928285 0.010314405
-0.036039066 -0.027302323 0.0099365413
-0.03394261 -0.026517665 0.0097105205
-0.033734739 -0.027205436 0.0099898577
-0.032588962 -0.027157471 0.0098486245
-0.031735495 -0.027358184 0.0097917318
-0.030592179 -0.027314447 0.0097614825
-0.029207895 -0.027044347 0.0099196136
-0.027946001 -0.026871156 0.0095387697
-0.027478239 -0.027478239 0.0093387961
-0.025830552 -0.026906826 0.008962065
-0.025076497 -0.027257062 0.0085083246
-0.02397085 -0.027239602 0.0082984567
-0.02277201 -0.027109537 0.0080433488
-0.021983355 -0.027479196 0.0074316561
-0.020875165 -0.027467323 0.007378608
-0.019659465 -0.027304815 0.0068071783
-0.018572394 -0.027312344 0.0061246157
-0.017509909 -0.027359234 0.0060729384
-0.016244711 -0.02707452 0.0060744286
-0.015652696 -0.027951244 0.005966872
-0.014319999 -0.027538462 0.0058533847
-0.012955975 -0.026991615 0.0054297447
-0.012198362 -0.027723553 0.0048342049
-0.010941701 -0.027354253 0.0043062866
-0.12037379 -0.026263371 0.0063690841
-0.11349115 -0.024988875 0.01635778
-0.11438679 -0.025419286 0.018057615
-0.1131153 -0.025371654 0.020354658
-0.10953911 -0.024801308 0.020467579
-0.11113185 -0.025401568 0.021622837
-0.10700961 -0.024694527 0.021828473
-0.10697372 -0.024925916 0.021828473
-0.10719591 -0.025222566 0.021620244
-0.10595769 -0.025178064 0.02147612
-0.10374794 -0.024899505 0.021003187
-0.10553742 -0.025584828 0.020518333
-0.10169271 -0.024904337 0.020091265
-0.10114311 -0.025025101 0.020094931
-0.10045844 -0.025114611 0.020172089
-0.098027624 -0.024764873 0.020249367
-0.097484328 -0.024889614 0.020160109
-0.097680524 -0.025207877 0.020160109
-0.095684297 -0.024961121 0.020245582
-0.095781185 -0.025260972 0.020335048
-0.094506867 -0.025201831 0.020368308
-0.093321338 -0.025165305 0.020275623
-0.093498379 -0.025499558 0.019863755
-0.091392107 -0.025211615 0.019555956
-0.090157822 -0.025160322 0.01929462
-0.092151001 -0.026019106 0.019010633
-0.088470645 -0.025277328 0.018831134
-0.087352172 -0.025258457 0.018336266
-0.087251775 -0.025537102 0.017721713
-0.085765824 -0.025412098 0.017708242
-0.085096389 -0.025528919 0.017721713
-0.083294325 -0.025304604 0.017463923
-0.081826657 -0.025177432 0.017631233
-0.081247829 -0.025323998 0.017485142
-0.080102272 -0.025295453 0.017867386
-0.078702793 -0.025184894 0.017990202
-0.079588383 -0.025812447 0.016795695
-0.078368425 -0.025764961 0.016548216
-0.075784519 -0.025261506 0.016562253
-0.076100357 -0.025724065 0.016551673
-0.074053176 -0.02538966 0.016272187
-0.073551588 -0.025583161 0.016445279
-0.072531998 -0.025599528 0.016219258
-0.071514681 -0.025617199 0.016336679
-0.069591776 -0.0253061 0.016232818
-0.070458636 -0.026015498 0.016037375
-0.066778392 -0.025041895 0.015739024
-0.06806726 -0.025930382 0.016144276
-0.065639898 -0.025408991 0.015881956
-0.065133914 -0.025626456 0.016156256
-0.064382292 -0.025752919 0.016008645
-0.062980488 -0.025619179 0.01594013
-0.061896678 -0.025612418 0.015726984
-0.06108097 -0.025718303 0.015535057
-0.059729643 -0.025598418 0.015194237
-0.058692895 -0.025611443 0.015304357
-0.057843652 -0.025708288 0.015110999
-0.055825245 -0.025279356 0.015153676
-0.055539701 -0.02563371 0.014848888
-0.054815229 -0.025795402 0.014616251
-0.053421851 -0.025642488 0.014450699
-0.052798569 -0.025860524 0.01442036
-0.051489875 -0.025744937 0.014179558
-0.049892049 -0.025476789 0.014386773
-0.049047526 -0.025590012 0.01464954
-0.048383925 -0.025804758 0.014444292
-0.046565637 -0.025399439 0.01436761
-0.04598793 -0.02566768 0.014237642
-0.045011558 -0.025720889 0.013753802
-0.044268858 -0.025913477 0.013504833
-0.042800181 -0.02568011 0.013263226
-0.042227045 -0.025985874 0.013053626
-0.040693562 -0.025701197 0.0115363
-0.039672215 -0.025733327 0.011413515
-0.038741823 -0.025827883 0.010916352
-0.03787766 -0.025973251 0.01022917
-0.036943506 -0.02607777 0.010218233
-0.035644166 -0.025923029 0.010029703
-0.034982596 -0.026236946 0.0095025897
-0.033111524 -0.025634728 0.0094878674
-0.032273434 -0.025818747 0.0095680058
-0.0318477 -0.026356716 0.0093691051
-0.03053052 -0.026169017 0.0090511739
-0.029192654 -0.025949026 0.0090511739
-0.028539287 -0.026343958 0.0083207488
-0.02698276 -0.025903448 0.0086189508
-0.026309844 -0.026309844 0.0082823932
