ply
format ascii 1.0
comment PCL generated
element vertex 1308
property float x
property float y
property float z
element camera 0
property float view_px
property float view_py
property float view_pz
property float x_axisx
property float x_axisy
property float x_axisz
property float y_axisx
property float y_axisy
property float y_axisz
property float z_axisx
property float z_axisy
property float z_axisz
property float focal
property float scalex
property float scaley
property float centerx
property float centery
property int viewportx
property int viewporty
property float k1
property float k2
end_header
-0.076861583 0.092441626 0.012617528
-0.077797107 0.094848514 0.012419105
-0.07675086 0.094872586 0.012363434
-0.075154029 0.09420716 0.012104809
-0.074318767 0.094491005 0.012085468
-0.073181257 0.094393209 0.011975646
-0.072213165 0.094514281 0.012013465
-0.07129319 0.094702885 0.012321055
-0.070000246 0.094394267 0.012228668
-0.06880156 0.094205208 0.012336463
-0.067768469 0.094240531 0.012191862
-0.066289477 0.093647033 0.01193589
-0.066603728 0.095608577 0.01106748
-0.065833054 0.096051507 0.011237174
-0.06362474 0.094376691 0.010970175
-0.062985763 0.095012411 0.010866046
-0.061628304 0.09456756 0.011063904
-0.059833378 0.093424045 0.011143684
-0.059595667 0.094714537 0.010748804
-0.058582909 0.09479779 0.010701507
-0.057580721 0.094901554 0.010388047
-0.056841832 0.095451377 0.010318875
-0.054978989 0.09409865 0.010190189
-0.054480191 0.095073268 0.010202795
-0.054186985 0.096452825 0.010338485
-0.051989287 0.094429523 0.010428876
-0.051674884 0.095813848 0.010689735
-0.050070498 0.094814345 0.010358304
-0.048849877 0.094513886 0.010327816
-0.048831064 0.096576989 0.010080844
-0.046972055 0.095011652 0.0099576414
-0.045618456 0.094419591 0.0099967718
-0.045284927 0.095960908 0.0095424652
-0.043782882 0.09504088 0.0090557933
-0.042620946 0.094831608 0.0088763535
-0.042288404 0.096504301 0.0085667372
-0.040859874 0.095698126 0.0077031851
-0.039411787 0.094801322 0.0075324774
-0.039040048 0.09651567 0.007665664
-0.037425973 0.095168903 0.0081857145
-0.036400381 0.095283344 0.0087121129
-0.035644162 0.09613122 0.0099745989
-0.03315603 0.09221521 0.011091202
-0.032703616 0.093891017 0.013342619
-0.031105878 0.092280768 0.015368223
-0.030029507 0.092159517 0.015294284
-0.029196763 0.092804 0.015886724
-0.028296519 0.093273707 0.016348183
-0.027827304 0.095255002 0.015565515
-0.026758103 0.095258839 0.014580965
-0.025370654 0.09408284 0.013437599
-0.024446782 0.094598405 0.012471169
-0.023477223 0.094976038 0.011610985
-0.02244789 0.095136292 0.011250377
-0.021337554 0.094952114 0.010874778
-0.020365657 0.095397025 0.010761797
-0.019217767 0.095021188 0.010862738
-0.018132795 0.094930507 0.010937393
-0.017173462 0.095527381 0.011575162
-0.015880337 0.094223328 0.012152851
-0.014958672 0.095094413 0.013236374
-0.014045985 0.096160978 0.013800681
-0.012569541 0.093224101 0.014355183
-0.011491453 0.092976302 0.014280856
-0.010559888 0.093982995 0.013931066
-0.0094262455 0.093215093 0.013962001
-0.0083716922 0.093135074 0.01369068
-0.0072984798 0.092794955 0.012964636
-0.0063642776 0.094403446 0.0060884655
-0.11568887 0.096407391 0.0092225671
-0.1128201 0.094895415 0.012355804
-0.10997001 0.093370773 0.013580978
-0.11263941 0.096548073 0.014184564
-0.10850742 0.093900666 0.015281171
-0.1075679 0.093991369 0.015769899
-0.10890471 0.096092395 0.015933335
-0.10622989 0.094660297 0.016028434
-0.10578071 0.095202632 0.015922636
-0.10472421 0.095203824 0.016203552
-0.10190938 0.09359026 0.016749054
-0.10201426 0.094652414 0.016761392
-0.1014401 0.095100105 0.016833603
-0.098328911 0.093153708 0.016906887
-0.099902108 0.095650956 0.017065585
-0.098443776 0.095268175 0.016543329
-0.095700704 0.093620256 0.016107261
-0.097547531 0.096475586 0.01596725
-0.094768025 0.094768025 0.015648514
-0.093633331 0.094685398 0.015891641
-0.095013037 0.097172432 0.015639901
-0.091742374 0.094905913 0.015212119
-0.090622403 0.094837397 0.015241474
-0.091266029 0.096634626 0.014840096
-0.088992402 0.095349006 0.014603764
-0.087215133 0.094570629 0.014444053
-0.087879166 0.096452743 0.014164627
-0.085481793 0.094979778 0.01421833
-0.085455649 0.096137613 0.014171809
-0.08401984 0.095718808 0.014480293
-0.082305372 0.094967738 0.013684303
-0.081840083 0.095657244 0.013222814
-0.080759406 0.095636137 0.013240933
-0.079661191 0.095593423 0.012717694
-0.078918695 0.095982201 0.012537926
-0.077684268 0.095775127 0.012381285
-0.075816862 0.09477108 0.012501419
-0.076908879 0.097490139 0.012233883
-0.073976554 0.095112719 0.012214541
-0.073778853 0.096233286 0.012085468
-0.073281161 0.096989773 0.012042522
-0.070685849 0.094951138 0.012352526
-0.069727451 0.095082894 0.012348354
-0.069720574 0.096536182 0.012231052
-0.067146406 0.094424643 0.012294441
-0.067592233 0.096560337 0.012225479
-0.066492468 0.096521325 0.011409968
-0.064714789 0.095480844 0.01150915
-0.064054213 0.096081324 0.010970175
-0.062570758 0.095446922 0.010842681
-0.061138339 0.094869837 0.010971457
-0.061484747 0.097081184 0.010971457
-0.058970384 0.094773836 0.010576457
-0.058133934 0.095128261 0.01037398
-0.058222584 0.097037643 0.010166824
-0.055977188 0.09505561 0.010213286
-0.054944031 0.095095448 0.010142922
-0.055261496 0.097520292 0.010142922
-0.053308208 0.095954776 0.010110229
-0.051623348 0.094818406 0.010767162
-0.051522948 0.096605532 0.010883331
-0.050080292 0.095898435 0.010606408
-0.049049895 0.095967188 0.01038605
-0.048571199 0.097142398 0.01031056
-0.046702683 0.095528215 0.010070086
-0.046413612 0.097144768 0.010162413
-0.045512095 0.097525917 0.0099285245
-0.043609325 0.095727786 0.0094525218
-0.043176327 0.097146742 0.0089371502
-0.041690987 0.096209973 0.0086727142
-0.040455639 0.095815994 0.0079078078
-0.039811864 0.096839674 0.0077090859
-0.038795412 0.096988536 0.0079140365
-0.037364695 0.096080653 0.0083037615
-0.036588743 0.096852563 0.0088630021
-0.03505196 0.095596269 0.010070622
-0.03431895 0.096522048 0.011063695
-0.032621935 0.094708845 0.01279965
-0.03111966 0.093358979 0.01494953
-0.030457575 0.094523512 0.015294284
-0.029083239 0.093481846 0.016435534
-0.028214199 0.09404733 0.017019302
-0.027426643 0.09493839 0.016359568
-0.026406934 0.09506496 0.015261322
-0.025429877 0.095362045 0.014079541
-0.024491178 0.095835045 0.012955517
-0.023326227 0.095425487 0.012284636
-0.022205157 0.095164962 0.011589676
-0.021515166 0.096818253 0.01133284
-0.020077085 0.095101982 0.011118144
-0.018986113 0.094930574 0.011070818
-0.018185802 0.096277773 0.011168659
-0.016926557 0.095211886 0.012160152
-0.015957497 0.09574499 0.013204664
-0.015067244 0.096860863 0.013703883
-0.013658988 0.094562232 0.014222443
-0.012677021 0.095077671 0.014705241
-0.011608315 0.094977126 0.015079319
-0.010458519 0.094126672 0.014364302
-0.0094586965 0.094586968 0.014152586
-0.0083301216 0.093713872 0.013830543
-0.0073245717 0.094173066 0.013067782
-0.0064565362 0.096848048 0.0047113001
-0.11597841 0.097722545 0.0088062882
-0.11090421 0.094320402 0.012255371
-0.11314859 0.097137004 0.013768822
-0.11115523 0.096334532 0.014542639
-0.10896806 0.095347054 0.015533954
-0.11005564 0.097233623 0.01596415
-0.10625999 0.094800577 0.016421467
-0.10567454 0.095211722 0.016459674
-0.10672055 0.097115703 0.016421467
-0.10393284 0.095534228 0.016809255
-0.10272461 0.095387146 0.016929477
-0.10290519 0.09653993 0.01680097
-0.10060474 0.095364906 0.017082185
-0.1016739 0.097392894 0.016972452
-0.099829257 0.096643217 0.017065585
-0.096964367 0.094879113 0.016727835
-0.097589172 0.096528418 0.016494036
-0.096050218 0.096050218 0.01602152
-0.094160132 0.09520635 0.015648514
-0.094495371 0.096618868 0.015717745
-0.092237458 0.095381923 0.015371829
-0.091366246 0.095566995 0.015468568
-0.091656663 0.096985541 0.015275091
-0.089293927 0.095597029 0.014718384
-0.088060856 0.095399261 0.014097929
-0.088567913 0.097104579 0.013890147
-0.086452045 0.095940679 0.013702393
-0.085749365 0.096335717 0.013609618
-0.085103244 0.096804939 0.013769299
-0.083362818 0.096025527 0.013838559
-0.083356068 0.097248755 0.013559312
-0.081910037 0.096802779 0.013185263
-0.079757698 0.095499352 0.012913257
-0.080492646 0.097664408 0.012387604
-0.07934954 0.097578488 0.012304932
-0.07627207 0.095078878 0.012184411
-0.07701692 0.097340837 0.012175858
-0.074955314 0.096069492 0.012065321
-0.074504048 0.096855268 0.012104809
-0.074254058 0.097929269 0.011994272
-0.071970433 0.096313372 0.011941105
-0.070762828 0.096110709 0.012323081
-0.070748575 0.097547278 0.012321055
-0.068813704 0.096339189 0.012012571
-0.068528563 0.097439058 0.012335628
-0.067223512 0.09710063 0.012270063
-0.064799063 0.0951083 0.012184471
-0.065265477 0.097363263 0.012044072
-0.064574659 0.09793824 0.01134938
-0.062225275 0.095974579 0.011098146
-0.062383123 0.097876966 0.011193573
-0.060841367 0.097132713 0.011243969
-0.059853055 0.097261213 0.01059854
-0.058777366 0.097249821 0.01060608
-0.057475585 0.096857004 0.010166824
-0.056200713 0.096495569 0.010084599
-0.056282908 0.098495096 0.010113329
-0.054127883 0.096581131 0.010113329
-0.053746212 0.097818106 0.010055423
-0.052602671 0.097690679 0.010619313
-0.051220652 0.097105823 0.010767162
-0.050112002 0.097025372 0.010330349
-0.049355425 0.097637914 0.010252923
-0.047497507 0.096050508 0.0098522305
-0.047663685 0.098577172 0.0096872747
-0.046195667 0.097762927 0.0096073449
-0.044412214 0.096226469 0.0095401704
-0.044418089 0.098586492 0.0089971125
-0.042826671 0.097430684 0.0086826384
-0.041788798 0.097507201 0.0083037615
-0.040706281 0.097480834 0.007558167
-0.039700791 0.097642481 0.0074783266
-0.038386635 0.09703289 0.0077053308
-0.038203146 0.09932819 0.0080256462
-0.036440261 0.097531289 0.0084609985
-0.035031274 0.096601397 0.0099386871
-0.034797572 0.098955601 0.010691494
-0.032404158 0.095121883 0.012190014
-0.031519279 0.095608488 0.014609545
-0.030305399 0.095096253 0.015281975
-0.028803583 0.09361165 0.016378731
-0.028168654 0.0949388 0.017162174
-0.026865812 0.094030343 0.017133594
-0.027161315 0.098867193 0.016312033
-0.025644166 0.097234137 0.014938802
-0.024400219 0.096539997 0.01372093
-0.023504416 0.097222812 0.01292336
-0.022493759 0.097472958 0.012431055
-0.021135427 0.096166201 0.012283623
-0.020234449 0.096912354 0.011981338
-0.019318057 0.097663522 0.011681199
-0.018090196 0.096835755 0.012187004
-0.017048644 0.096964166 0.01292336
-0.015986357 0.096983902 0.013498873
-0.01492022 0.096981429 0.014059067
-0.013735856 0.096150994 0.014654875
-0.012595325 0.095514551 0.014963955
-0.011530813 0.095391273 0.01472643
-0.010572367 0.09620855 0.014357448
-0.0094584255 0.095635198 0.014061958
-0.0083850874 0.095380366 0.013703883
-0.007375563 0.095882319 0.012403727
-0.11492644 0.097900294 0.0084849596
-0.11338271 0.097487941 0.012152314
-0.11162725 0.096884035 0.013768822
-0.10962965 0.096056454 0.014777303
-0.1105539 0.097797677 0.015480459
-0.10878833 0.097170159 0.015861183
-0.10732326 0.09680137 0.016653031
-0.10700747 0.097472154 0.016574591
-0.10525708 0.096836515 0.016723454
-0.10316461 0.095870145 0.016994417
-0.10390664 0.097545013 0.017057419
-0.10128716 0.096066184 0.017118454
-0.10182496 0.097582258 0.017136961
-0.10042249 0.097251259 0.017045617
-0.09801358 0.095928185 0.017106861
-0.098428801 0.097370431 0.016885787
-0.097613372 0.097613372 0.016659737
-0.094960436 0.096003957 0.016423047
-0.09454491 0.096645907 0.01575011
-0.094580732 0.097768851 0.015709519
-0.09278778 0.097005412 0.015424877
-0.092876449 0.098214179 0.015354455
-0.091243826 0.097609676 0.015012592
-0.090666935 0.098133631 0.014647961
-0.088606656 0.097045384 0.01437825
-0.088052757 0.097600646 0.014170468
-0.086296976 0.096820995 0.013831705
-0.086327873 0.098051421 0.013885409
-0.083182916 0.095660359 0.01421833
-0.084490061 0.098393492 0.014257193
-0.082237713 0.096998326 0.013632357
-0.081250936 0.097079046 0.013313591
-0.081651971 0.098841861 0.013313591
-0.079897918 0.098008111 0.01282081
-0.078234538 0.097264558 0.012538046
-0.078367375 0.09876436 0.012381285
-0.076302052 0.097497068 0.012366503
-0.07500723 0.097192474 0.012425721
-0.074755847 0.098250553 0.01239413
-0.073038153 0.097384214 0.012360752
-0.072323047 0.097848825 0.012238771
-0.072002433 0.098869011 0.012374222
-0.069533944 0.096926108 0.012356967
-0.067979895 0.096217692 0.012012571
-0.069070905 0.099289432 0.012294441
-0.066462554 0.097056426 0.012294441
-0.066316552 0.098405212 0.01225245
-0.065331183 0.098532282 0.012139499
-0.062889226 0.096430153 0.011112392
-0.062886223 0.098059878 0.010982245
-0.062145133 0.098575033 0.011103898
-0.060252007 0.09724886 0.011287063
-0.060045343 0.098645918 0.010628164
-0.058927394 0.09856946 0.010673076
-0.057174463 0.097408339 0.010377824
-0.057163965 0.099228024 0.010160089
-0.055026595 0.097354747 0.010159314
-0.054453809 0.098230399 0.010173202
-0.053502135 0.098443925 0.010108262
-0.052548468 0.098662436 0.010799229
-0.051652152 0.098999962 0.010868132
-0.050420877 0.098696187 0.010412812
-0.048489545 0.096979089 0.010412812
-0.048508693 0.09917333 0.010233134
-0.046829555 0.09791635 0.0097404718
-0.045687988 0.097751044 0.0094417036
-0.045786176 0.10029353 0.0090608001
-0.044069335 0.098887287 0.0087930262
-0.042770501 0.098372154 0.0085667372
-0.041895501 0.098830417 0.008197844
-0.040351573 0.097693279 0.0072602332
-0.039502017 0.098221235 0.0072266459
-0.038853955 0.099293448 0.0074572563
-0.037795015 0.099346906 0.0077264011
-0.036307838 0.098244742 0.0082070529
-0.035688683 0.099495724 0.0088987648
-0.034060266 0.097923264 0.010144681
-0.033690862 0.099985778 0.011361659
-0.031699605 0.097212121 0.013559222
-0.030041477 0.095303997 0.014731407
-0.028967286 0.095178232 0.016068757
-0.027918071 0.095128238 0.017006993
-0.026971543 0.095437773 0.017021775
-0.02625245 0.096609019 0.016867489
-0.026043169 0.099832147 0.01579681
-0.02414001 0.096560039 0.014896125
-0.02329717 0.097424529 0.013795078
-0.022224838 0.097365953 0.013171017
-0.021423114 0.098546326 0.012669951
-0.020295661 0.098273724 0.012388021
-0.019017993 0.097203076 0.012431055
-0.01791485 0.096950963 0.013171017
-0.017005194 0.09777987 0.013506025
-0.015967885 0.097936362 0.014202774
-0.014803203 0.097278193 0.014723957
-0.013672807 0.096761413 0.015516341
-0.012401738 0.095079996 0.015990406
-0.011632369 0.097288907 0.014985144
-0.010435339 0.096005127 0.014308006
-0.0093698781 0.095780984 0.013962001
-0.0084171314 0.096797012 0.013428599
-0.0073944316 0.097183958 0.0062453449
-0.11684012 0.10061233 0.007912755
-0.11377954 0.098892488 0.01227811
-0.10992399 0.096442744 0.013895899
-0.11101717 0.098329492 0.014577031
-0.10938319 0.097813815 0.015526205
-0.10882711 0.098261371 0.016117275
-0.10824376 0.098692834 0.016824335
-0.10598517 0.097590312 0.016777039
-0.10478132 0.097446628 0.016787261
-0.1046373 0.098295644 0.016996235
-0.10337714 0.098102801 0.017066538
-0.10233904 0.098118886 0.01714322
-0.10139446 0.098225892 0.017146081
-0.098534197 0.096459791 0.017156184
-0.099388309 0.098330989 0.017073512
-0.097779475 0.097779475 0.016874194
-0.09610144 0.097146027 0.016659737
-0.097295813 0.099434182 0.016464412
-0.095409147 0.09858945 0.016315669
-0.093399838 0.097597584 0.016257167
-0.093873635 0.099207371 0.015741974
-0.091634735 0.097954378 0.015677303
-0.090585969 0.097959243 0.015709519
-0.090708219 0.099245459 0.015371829
-0.088061452 0.097496606 0.014974356
-0.087682612 0.098246783 0.01485762
-0.087268695 0.098975472 0.01453796
-0.085333608 0.097975627 0.014559627
-0.085354194 0.099224254 0.014335066
-0.083975405 0.09885712 0.01423049
-0.081839174 0.097577482 0.013757765
-0.081774227 0.098766275 0.013574332
-0.080867454 0.098956227 0.013574332
-0.078435764 0.097260341 0.012876362
-0.078577921 0.098753333 0.012428463
-0.078551933 0.100073 0.012430191
-0.076139294 0.098346591 0.012488991
-0.076134875 0.099725962 0.012470484
-0.073539786 0.097702861 0.012405515
-0.073104262 0.098531842 0.012428463
-0.072647005 0.099355467 0.012372017
-0.071673334 0.099486865 0.012476861
-0.070096634 0.098772533 0.012356967
-0.071131162 0.10177228 0.011907369
-0.067043379 0.097422414 0.012230217
-0.06727016 0.099303573 0.012189031
-0.065461755 0.098192632 0.012191862
-0.065167107 0.099353135 0.011767775
-0.064505644 0.099983744 0.010989726
-0.063358821 0.099870689 0.010968775
-0.060750775 0.097410724 0.011122167
-0.060826503 0.099243246 0.011131138
-0.059136413 0.098208688 0.010878056
-0.058766134 0.099368192 0.01073128
-0.057709627 0.099388801 0.010422289
-0.056205928 0.098625503 0.010173976
-0.054837562 0.098074868 0.010312647
-0.054740004 0.09982001 0.01034829
-0.053431939 0.099383406 0.010526031
-0.05273677 0.10009224 0.010974318
-0.051077716 0.098963082 0.010870397
-0.050005313 0.098946683 0.010535359
-0.049231626 0.099533506 0.010501295
-0.047982931 0.099164724 0.010233134
-0.04631307 0.097888991 0.0099942386
-0.046290569 0.10011681 0.0098611116
-0.044969723 0.09957581 0.0092427433
-0.043410573 0.098467879 0.0090096593
-0.042867843 0.099667743 0.0086017251
-0.041988015 0.10012527 0.008274585
-0.040561095 0.099267937 0.0073617995
-0.040053938 0.10067611 0.0072602332
-0.038724173 0.10003746 0.0073275566
-0.037807569 0.10046012 0.0078062415
-0.036646269 0.10023832 0.0079966784
-0.035567638 0.10023607 0.0086742043
-0.034515388 0.10031035 0.0094842613
-0.03387443 0.10162329 0.010668725
-0.031508155 0.097675286 0.011969388
-0.030334331 0.097279064 0.014398128
-0.029163836 0.096865594 0.016068757
-0.027803613 0.095767997 0.017006993
-0.027314337 0.097701289 0.017133594
-0.025577111 0.09514685 0.016930431
-0.025444089 0.098595843 0.016959786
-0.025402024 0.10271253 0.016360879
-0.023416206 0.098986693 0.015226096
-0.022211431 0.098364905 0.014552891
-0.021210881 0.0986306 0.013709843
-0.020195501 0.098851658 0.013405085
-0.019140013 0.098890066 0.013531297
-0.018527463 0.10135613 0.01377669
-0.016790777 0.097596399 0.014359415
-0.015870109 0.098394677 0.014788121
-0.014815035 0.09841416 0.016457975
-0.013338111 0.095418803 0.016785085
-0.012704119 0.098456927 0.016667783
-0.011466641 0.096945241 0.016185701
-0.010319183 0.095968403 0.014431238
-0.0094288671 0.097431637 0.014021546
-0.0083944639 0.097585641 0.011221349
-0.0076027885 0.10100848 0.0049560964
-0.11736859 0.10215414 0.0058499277
-0.11177211 0.098192319 0.012543291
-0.11246841 0.099736147 0.014048368
-0.11008989 0.09855666 0.014598578
-0.10886543 0.098397605 0.015335709
-0.10907284 0.099542208 0.015872031
-0.10706493 0.098667681 0.016673893
-0.10659932 0.099211246 0.01680097
-0.10648561 0.10009647 0.016871393
-0.10334279 0.098123461 0.017006308
-0.10305136 0.098845191 0.016699493
-0.10305867 0.099871285 0.016887218
-0.10025915 0.098170422 0.016824275
-0.10004272 0.098989636 0.016806871
-0.098509237 0.098509237 0.016746551
-0.09694726 0.097989701 0.01650998
-0.096679576 0.09878131 0.016433865
-0.096511371 0.09969306 0.015994877
-0.094174109 0.098359615 0.01575312
-0.094703168 0.10002358 0.01577124
-0.092649139 0.098966129 0.015617907
-0.091616467 0.098987907 0.015677303
-0.091876976 0.10042367 0.015588641
-0.08904437 0.098472595 0.015265167
-0.088161185 0.098656558 0.015188843
-0.088220291 0.099912129 0.014936566
-0.086425066 0.099072628 0.01453796
-0.085335277 0.099031068 0.01453796
-0.084460303 0.099240862 0.014310896
-0.082986519 0.098743461 0.014257193
-0.082723364 0.099692263 0.01371026
-0.081586704 0.099599354 0.013574332
-0.079236045 0.098002471 0.013574332
-0.079685681 0.099872716 0.013230205
-0.079080455 0.10045355 0.012593716
-0.075860336 0.097683161 0.012495279
-0.076527767 0.09991125 0.012557089
-0.074893735 0.099155083 0.012593716
-0.073520683 0.098727778 0.012570202
-0.07394138 0.10073173 0.012559444
-0.07169193 0.099103548 0.012491226
-0.070994854 0.099604718 0.01270318
-0.070484266 0.10038668 0.012424916
-0.069141537 0.099989295 0.011962384
-0.068365961 0.1004125 0.012230217
-0.066816062 0.099693805 0.012185514
-0.065495439 0.099299535 0.012236446
-0.065901831 0.10155365 0.012078732
-0.063829258 0.099999174 0.011279523
-0.062010597 0.098796539 0.011094928
-0.061859798 0.10025553 0.011016965
-0.061349768 0.1011733 0.011187047
-0.059311755 0.099559017 0.010850191
-0.058827996 0.10054239 0.010704607
-0.057083908 0.099368282 0.010538965
-0.056453001 0.10012419 0.010392696
-0.056084607 0.10138371 0.010488123
-0.05414534 0.099797294 0.010488123
-0.0529579 0.099560849 0.010398358
-0.052982338 0.10163958 0.010799229
-0.050554559 0.099002674 0.01095587
-0.050670914 0.10134183 0.010623097
-0.04985866 0.10188509 0.010545939
-0.047332682 0.098872706 0.010291934
-0.048066605 0.10268775 0.0099301338
-0.045770179 0.10005575 0.0096073449
-0.044729296 0.10010842 0.0092492998
-0.044718683 0.10252576 0.0090007782
-0.042310242 0.099429078 0.0082289279
-0.041674577 0.10044642 0.0079753399
-0.041003745 0.10143031 0.0073200762
-0.039800067 0.10111368 0.0072185099
-0.03843892 0.1003683 0.0073019564
-0.037981361 0.10200709 0.0073019564
-0.036744773 0.10158849 0.0073982179
-0.035532445 0.10121363 0.0082900226
-0.034428209 0.10113287 0.008937031
-0.03296034 0.099944256 0.010110527
-0.032957796 0.10326776 0.01119256
-0.030515082 0.09891095 0.012391806
-0.029056553 0.097547002 0.015280038
-0.028298432 0.098520465 0.016342729
-0.026840273 0.097037911 0.016923189
-0.025967369 0.097637303 0.01710093
-0.024710419 0.096782476 0.0169833
-0.02384359 0.097447708 0.016763717
-0.022997718 0.098262981 0.016360879
-0.022591302 0.10112298 0.015864164
-0.021215763 0.099714085 0.015370905
-0.020207994 0.099976391 0.014725655
-0.01914224 0.099965036 0.014810294
-0.017830612 0.098592795 0.015174568
-0.01688778 0.099215716 0.015622944
-0.015961874 0.10002775 0.016000003
-0.014344228 0.096311249 0.016567618
-0.013832832 0.10002202 0.016663581
-0.012489896 0.097837523 0.016553938
-0.011472696 0.098039404 0.014829308
-0.010506921 0.098765068 0.014015585
-0.0094161695 0.098346658 0.013386041
-0.0084676798 0.09949524 0.0058831573
-0.11528701 0.10140987 0.0056376159
-0.11506774 0.10216293 0.011368304
-0.11169089 0.10010033 0.014174014
-0.10944061 0.099017695 0.015051752
-0.11111107 0.10149568 0.015697867
-0.10801966 0.099629775 0.016051441
-0.10676185 0.099435054 0.016707003
-0.10622888 0.099918254 0.016996235
-0.1052131 0.099952437 0.016904503
-0.10368787 0.099498451 0.016929477
-0.10404874 0.10086358 0.016476691
-0.10276324 0.10064441 0.016750276
-0.10183652 0.10077572 0.016575456
-0.10073092 0.10073092 0.016575456
-0.098701507 0.099751525 0.016358435
-0.099171959 0.10130469 0.016266376
-0.096734621 0.099889003 0.016221195
-0.095632374 0.099835992 0.01584816
-0.095177434 0.10046507 0.015619218
-0.094533883 0.10090696 0.015738785
-0.09233924 0.09968441 0.015764624
-0.092637919 0.10115635 0.015659332
-0.090069897 0.099495813 0.015486509
-0.089248464 0.099748276 0.015439272
-0.089642063 0.1013809 0.015188843
-0.087135158 0.09973301 0.015144378
-0.086101882 0.09975218 0.014640987
-0.086453877 0.10139652 0.01437825
-0.083394542 0.099031024 0.014318407
-0.084290296 0.10136175 0.01423049
-0.083719805 0.10196643 0.013757765
-0.081596501 0.10067101 0.013663203
-0.080669589 0.10083698 0.013664842
-0.079848282 0.10114115 0.013437212
-0.077551313 0.099559121 0.01303196
-0.077703923 0.10112154 0.012608021
-0.075993977 0.10026983 0.012593716
-0.07521002 0.10063313 0.012760848
-0.074647471 0.10130729 0.012843817
-0.073396541 0.10105321 0.012525439
-0.071784243 0.10028681 0.012373447
-0.071528941 0.10142163 0.012691826
-0.069954865 0.10069261 0.012186527
-0.06873434 0.10045788 0.011866301
-0.068647519 0.10189866 0.012131035
-0.066616997 0.1004542 0.012131035
-0.066103384 0.10128745 0.011992186
-0.065013811 0.10125101 0.011837006
-0.063304722 0.10023247 0.010943323
-0.063684709 0.10254318 0.010968775
-0.062411904 0.10222639 0.010927379
-0.060187321 0.1003122 0.010927379
-0.060000099 0.10178588 0.010422289
-0.058905631 0.10174609 0.010422289
-0.057783071 0.1016554 0.010422289
-0.05712359 0.10239134 0.01031217
-0.054795858 0.10010781 0.010311395
-0.054661993 0.10182136 0.010312647
-0.053438123 0.10153244 0.010473996
-0.052243039 0.10128752 0.010663837
-0.051816419 0.10255333 0.010997951
-0.050088894 0.1012435 0.010443836
-0.049066324 0.10133262 0.010077
-0.049344636 0.10417201 0.0097539723
-0.046952512 0.10137475 0.0093207657
-0.045250118 0.09997119 0.0091818273
-0.045143284 0.1021098 0.0090171099
-0.043742727 0.1013551 0.0088768005
-0.042334042 0.10054335 0.0084814131
-0.042436924 0.103372 0.0080991983
-0.040639799 0.1015995 0.0073466897
-0.039192084 0.10062832 0.0071803927
-0.03922607 0.10351324 0.0073019564
-0.037538219 0.10188945 0.0072476268
-0.036798742 0.10282001 0.0073845983
-0.035543922 0.10232341 0.0079753399
-0.034123275 0.10130347 0.0082228184
-0.033703074 0.10328361 0.0095241666
-0.0322969 0.10227351 0.010317266
-0.030601069 0.10024488 0.011947662
-0.029124901 0.098816626 0.012919307
-0.028012553 0.098562688 0.015180379
-0.026980801 0.098583698 0.016314149
-0.026099462 0.099177949 0.016623139
-0.024919802 0.098640889 0.016643196
-0.024100041 0.099543646 0.016413569
-0.022679923 0.097936034 0.016298413
-0.02168536 0.098100431 0.016104847
-0.021065269 0.10006002 0.015797973
-0.020228246 0.10114123 0.014810294
-0.018939523 0.099958599 0.015226096
-0.017744072 0.099158049 0.015622944
-0.016526461 0.09812586 0.015653163
-0.015559006 0.098540373 0.016202271
-0.014772835 0.10024424 0.016532511
-0.01343814 0.098201789 0.016334236
-0.012441644 0.098496348 0.015516341
-0.011509338 0.099398836 0.014298737
-0.010403191 0.09883032 0.013454169
-0.0093836822 0.099049978 0.0071917176
-0.0088150343 0.10467853 0.0042062402
-0.12008812 0.10674499 0.0050158501
-0.11271057 0.1011235 0.012541294
-0.11009807 0.099711463 0.014185697
-0.11221173 0.10259359 0.015112072
-0.10942005 0.10100312 0.015871793
-0.10774308 0.10042074 0.016391993
-0.10770884 0.10137302 0.016799688
-0.10522437 0.10001524 0.017050773
-0.10511667 0.100912 0.017006308
-0.10501362 0.10183138 0.017071247
-0.1032866 0.10117871 0.01672551
-0.10171188 0.1006633 0.017082274
-0.10088956 0.10088956 0.016824275
-0.099996388 0.10104898 0.016649097
-0.099289693 0.10140224 0.016405761
-0.098532453 0.10171092 0.016266376
-0.095532767 0.099686362 0.016187727
-0.096703023 0.10201637 0.01584816
-0.094855092 0.10117876 0.015741974
-0.093172863 0.10050107 0.015617907
-0.093794554 0.10232133 0.015455157
-0.091210097 0.10064562 0.015278727
-0.091463633 0.10209894 0.015162379
-0.090379737 0.10207594 0.015085816
-0.088358894 0.10098159 0.014733106
-0.087285675 0.10095692 0.014763355
-0.087704912 0.10267892 0.01438871
-0.085949816 0.10186645 0.014360279
-0.084885702 0.10186285 0.014264703
-0.08463081 0.1028425 0.01421383
-0.081561312 0.10038316 0.013931781
-0.082471944 0.10282216 0.013886034
-0.080213457 0.10132226 0.013827205
-0.078207858 0.10010605 0.013677239
-0.078635976 0.10201424 0.012979984
-0.078654371 0.10343588 0.012928009
-0.076562092 0.1020828 0.012884974
-0.075289093 0.10179933 0.012755841
-0.073186725 0.10037037 0.012760848
-0.073336065 0.10203279 0.012248695
-0.072615951 0.10251664 0.012182772
-0.071285717 0.10214073 0.012423396
-0.069174506 0.10061746 0.01192385
-0.069336019 0.10240397 0.011808634
-0.067477308 0.10121597 0.012131035
-0.067307644 0.10256402 0.012179136
-0.066005103 0.10220144 0.01201117
-0.064011931 0.10074008 0.011790216
-0.063716806 0.10194688 0.011112392
-0.063839935 0.10387515 0.011112392
-0.06153626 0.10185312 0.011186033
-0.06137253 0.10336426 0.011158794
-0.059377931 0.10179074 0.010446995
-0.058300845 0.10176147 0.010741651
-0.058544636 0.10407935 0.010769427
-0.056371909 0.10210761 0.010345697
-0.055618826 0.10268091 0.010322541
-0.054619595 0.10281336 0.010301501
-0.052919865 0.10160614 0.010386586
-0.052159149 0.10218935 0.010769427
-0.051490743 0.10298149 0.010867387
-0.049717661 0.10155097 0.010358691
-0.049456388 0.10321333 0.010049075
-0.0485612 0.10359722 0.0097748935
-0.046765473 0.10203376 0.0096073449
-0.046251822 0.10325988 0.009218961
-0.045103192 0.10309301 0.0090989172
-0.043677155 0.10226846 0.0087168217
-0.043122392 0.10349374 0.0083051026
-0.041416388 0.10194803 0.0081054866
-0.040199753 0.10155727 0.0073466897
-0.040048495 0.1039096 0.0071386695
-0.03837055 0.10232147 0.0071170032
-0.037637107 0.10323321 0.0070560277
-0.036739938 0.10373629 0.007157594
-0.035151463 0.10225881 0.0073440671
-0.034673508 0.10402052 0.0074116588
-0.033376236 0.10335866 0.008500725
-0.032021526 0.10246888 0.0096169412
-0.031902876 0.10560951 0.010729969
-0.029746223 0.10198705 0.012075692
-0.028158149 0.10011785 0.012919307
-0.027193334 0.10040615 0.014580965
-0.026012281 0.099887155 0.01594913
-0.024746677 0.098986708 0.016186863
-0.023963936 0.10002338 0.016167313
-0.022969352 0.1002299 0.016113013
-0.021791281 0.099617288 0.016113013
-0.020912455 0.10037979 0.015769154
-0.019663181 0.099350803 0.014810294
-0.018579127 0.099088684 0.015005559
-0.018067423 0.1020278 0.015195876
-0.016610995 0.099665962 0.015342087
-0.01569866 0.10047142 0.015575618
-0.01462762 0.10030368 0.016040713
-0.013398203 0.098940581 0.015189946
-0.012593935 0.10075148 0.014517844
-0.011553701 0.1008323 0.013600469
-0.010406212 0.099899642 0.0096866786
-0.0097646415 0.10415617 0.0051836371
-0.11827224 0.10622599 0.004776001
-0.1120306 0.10156045 0.013092369
-0.1120405 0.10252763 0.014113694
-0.11064445 0.1022144 0.015333802
-0.10841142 0.10111449 0.015838683
-0.10918333 0.10282313 0.016314775
-0.10701154 0.10176587 0.016880512
-0.10653959 0.10232019 0.016989201
-0.10731738 0.10409785 0.016995847
-0.10363946 0.10154573 0.016995847
-0.10312358 0.1020713 0.016828805
-0.10292698 0.10292698 0.017066538
-0.10000957 0.10105134 0.017136961
-0.10152206 0.10365936 0.016824275
-0.098926388 0.10208361 0.016427606
-0.09796837 0.10218206 0.016324967
-0.098002821 0.10332906 0.016176909
-0.095744863 0.1020577 0.015828937
-0.094230391 0.10155942 0.015741974
-0.094508797 0.10300397 0.015537649
-0.092922434 0.10242587 0.015370339
-0.092582762 0.10322446 0.015265346
-0.092531122 0.10436649 0.015156239
-0.089915983 0.10261001 0.015085816
-0.08880803 0.10255213 0.015001088
-0.0889109 0.10390791 0.014971167
-0.086541712 0.1023725 0.015188843
-0.085747249 0.10268498 0.015028834
-0.084904246 0.1029464 0.014665157
-0.082837261 0.10171158 0.014647424
-0.083028711 0.10325366 0.014424443
-0.081224538 0.10232182 0.014406323
-0.079270214 0.10117383 0.014141738
-0.079284057 0.10254071 0.013869375
-0.078687526 0.10314445 0.013487458
-0.07716275 0.10253131 0.013355285
-0.07623817 0.10270976 0.013121128
-0.075404979 0.10301808 0.013074219
-0.073927261 0.10244206 0.013018012
-0.074150324 0.10424031 0.012843817
-0.07238882 0.10326052 0.012535274
-0.070407547 0.10193332 0.01268056
-0.070680752 0.1038793 0.012147993
-0.068620257 0.10240253 0.011955023
-0.068222992 0.10340048 0.012400091
-0.066934362 0.10305766 0.012287796
-0.065935627 0.10315735 0.012153149
-0.064680651 0.10285284 0.012151062
-0.064184375 0.10376474 0.011313081
-0.062267672 0.10237227 0.011313081
-0.061549526 0.10293628 0.011317939
-0.061348256 0.10439966 0.011287063
-0.058983017 0.10216701 0.010822952
-0.05925674 0.10450733 0.010876656
-0.057080932 0.10253426 0.01090306
-0.056290474 0.10302219 0.010780573
-0.056263253 0.10495261 0.010526031
-0.053848136 0.10241704 0.010520786
-0.052681327 0.10220177 0.010569692
-0.052328788 0.10358965 0.010816216
-0.050795041 0.10264831 0.010831922
-0.050990261 0.10523521 0.010195166
-0.049393337 0.10415551 0.010003477
-0.047494736 0.10237753 0.0098454058
-0.047063205 0.10375298 0.0094389617
-0.046730079 0.10541437 0.0093687475
-0.044448864 0.1026557 0.0091775358
-0.044022407 0.10415057 0.0088196099
-0.043128721 0.10458715 0.008333981
-0.041383795 0.10292892 0.0081288517
-0.041522406 0.1059914 0.0072185099
-0.039597847 0.10381056 0.0071356595
-0.038678255 0.10421641 0.0070474744
-0.037675746 0.10441564 0.0068238676
-0.036197081 0.10326814 0.0069103241
-0.03546489 0.10424528 0.007157594
-0.034404319 0.10428809 0.0070632398
-0.032959826 0.10313234 0.0074126124
-0.032551244 0.10524902 0.0086915493
-0.031404801 0.10504364 0.0097865164
-0.030290537 0.10493506 0.010701388
-0.028431147 0.10214153 0.011743575
-0.027334739 0.1019796 0.012921095
-0.025857035 0.10032529 0.013960034
-0.025125908 0.10155054 0.015575618
-0.023904057 0.10081276 0.015641063
-0.022750612 0.10030952 0.015864164
-0.021908149 0.10119478 0.015993744
-0.020799948 0.10087975 0.015823454
-0.019680116 0.10047217 0.014926285
-0.018652745 0.10051757 0.015150368
-0.017704861 0.10102186 0.015175849
-0.016607227 0.10068131 0.015007257
-0.015543162 0.10051244 0.015045285
-0.014491608 0.10040614 0.014859468
-0.013519162 0.10087375 0.014122486
-0.012604536 0.10188666 0.013688892
-0.01137184 0.10027895 0.0084762871
-0.010774095 0.10450872 0.0060770214
-0.0099179717 0.1068937 0.0041756034
-0.11390227 0.1043217 0.012633562
-0.11147548 0.10306223 0.014098704
-0.10988572 0.10256001 0.015333802
-0.11044295 0.10407124 0.015794575
-0.10795251 0.10271209 0.016274691
-0.10762788 0.10340717 0.017029345
-0.10733581 0.10414761 0.017233491
-0.10472682 0.10263228 0.017208904
-0.10314417 0.10210229 0.017208904
-0.1040612 0.1040612 0.017038763
-0.10181408 0.10286371 0.017157763
-0.10192069 0.10404403 0.017189652
-0.10071006 0.10389038 0.016649097
-0.097249508 0.10138778 0.01647529
-0.098494999 0.10379042 0.016372651
-0.097188734 0.10352713 0.016358435
-0.095513441 0.10286062 0.016176909
-0.095511742 0.10400166 0.015757859
-0.094358988 0.10390091 0.015574038
-0.092142522 0.10261326 0.015551031
-0.092516668 0.10421418 0.015265346
-0.0903612 0.10296974 0.015241057
-0.089294501 0.1029513 0.015241057
-0.089699768 0.10464972 0.015346438
-0.086649984 0.10230961 0.015126407
-0.086555764 0.10344468 0.015334278
-0.08701773 0.10528071 0.015164554
-0.08425723 0.10321511 0.015065849
-0.084643073 0.10500026 0.014647424
-0.082850993 0.10409483 0.014414072
-0.081269071 0.10343336 0.014197767
-0.080735497 0.1041063 0.013933182
-0.080192573 0.10478495 0.013869375
-0.076456755 0.10125353 0.013487458
-0.077370889 0.10386775 0.013023019
-0.075599179 0.10289888 0.012791157
-0.074969217 0.10347863 0.012988538
-0.074662492 0.10452749 0.012760848
-0.072871551 0.10349873 0.012248695
-0.072121814 0.10394026 0.012200415
-0.071539149 0.10463934 0.012423396
-0.070455872 0.1046163 0.01197803
-0.068855532 0.10381296 0.011849821
-0.068330765 0.10463148 0.012251437
-0.066926256 0.1041075 0.012297034
-0.066646539 0.10534452 0.012151062
-0.064283311 0.10327483 0.012265027
-0.06288939 0.10271933 0.011744618
-0.063854814 0.10606392 0.011528194
-0.061776731 0.10438137 0.011744618
-0.060521141 0.10405388 0.011389107
-0.060832769 0.10645734 0.011001468
-0.058671162 0.10454133 0.010991305
-0.057391129 0.10415427 0.011018723
-0.056597974 0.10465286 0.011001468
-0.055012312 0.10367704 0.011047572
-0.053979509 0.10372532 0.010980308
-0.053498082 0.10485623 0.010957062
-0.05186975 0.1037395 0.011012793
-0.051415659 0.10497364 0.011062503
-0.050026547 0.10431067 0.010822028
-0.048894186 0.10416587 0.010304004
-0.048689079 0.10603399 0.010003477
-0.047461387 0.10570946 0.0096456707
-0.045452263 0.10358887 0.009436518
-0.045450516 0.10605119 0.0090012252
-0.044033583 0.105251 0.0088312328
-0.042679735 0.10456534 0.0086329579
-0.042346675 0.10640959 0.0081215203
-0.040611297 0.10473439 0.007291317
-0.039780412 0.10536433 0.0072166622
-0.038382191 0.10448486 0.0071057975
-0.037734788 0.10565741 0.0068365932
-0.036403175 0.1049268 0.006857127
-0.035592683 0.10569949 0.0071611702
-0.034191925 0.10471277 0.007032752
-0.033581745 0.10616164 0.0073761344
-0.032218978 0.10524865 0.0075432956
-0.03085915 0.10428264 0.0086714327
-0.029998556 0.10499495 0.009462893
-0.028938232 0.10503506 0.010471523
-0.027322156 0.10298351 0.011507869
-0.026227949 0.10281355 0.012452662
-0.024853254 0.10148411 0.012689114
-0.023893071 0.10180525 0.013335019
-0.022945739 0.10221284 0.015318513
-0.02174405 0.10147223 0.015666544
-0.020879114 0.10230765 0.015396386
-0.01980933 0.10217444 0.014540732
-0.018662276 0.10160573 0.014566481
-0.017630318 0.10163359 0.014452934
-0.016729306 0.102467 0.013626903
-0.015471203 0.10107853 0.013623565
-0.014600126 0.10220087 0.013439626
-0.013546024 0.10211618 0.011659145
-0.012482211 0.10193805 0.0083042681
-0.01181726 0.10528104 0.0060417652
-0.010887501 0.10669751 0.0043701231
-0.11338673 0.10490921 0.012534052
-0.11063097 0.10332516 0.014257401
-0.11121102 0.10485612 0.015586674
-0.1088249 0.10359294 0.015969843
-0.10865653 0.10443687 0.016447753
-0.10794411 0.10476928 0.017056435
-0.10523322 0.1031494 0.017200381
-0.10430706 0.103264 0.017105401
-0.1045177 0.1045177 0.017089546
-0.1035018 0.10455795 0.01699999
-0.10237285 0.10448363 0.017156243
-0.10062497 0.1037695 0.016887218
-0.099871047 0.10407615 0.016615629
-0.099718258 0.10502242 0.016794235
-0.098752059 0.10512316 0.016266733
-0.096231535 0.1035535 0.016266376
-0.096701846 0.10520311 0.015881628
-0.095078915 0.10458681 0.015741974
-0.093812361 0.10435308 0.015709519
-0.093670473 0.10537929 0.015558153
-0.091618828 0.10425591 0.015439272
-0.090804271 0.1045305 0.015245289
-0.090402737 0.1052926 0.015396655
-0.088412374 0.1042003 0.015468717
-0.087362602 0.10420358 0.015350938
-0.087959319 0.10619479 0.015444428
-0.085760109 0.10481792 0.015053004
-0.084856234 0.1050096 0.014920861
-0.084017061 0.10528721 0.014573902
-0.081915483 0.10396966 0.014441639
-0.081774548 0.10513871 0.014205515
-0.080380529 0.10470622 0.013991654
-0.078863502 0.10409983 0.013902038
-0.078164071 0.10457085 0.013378292
-0.077957034 0.10572255 0.012999445
-0.075942829 0.1044214 0.012791157
-0.075999595 0.10597128 0.012749851
-0.074179232 0.10491063 0.01231727
-0.073756859 0.10582506 0.011968523
-0.073339939 0.10677433 0.012019664
-0.07067278 0.10442695 0.01197803
-0.069891408 0.10483712 0.011875778
-0.069971859 0.10657252 0.011817724
-0.067232706 0.1040006 0.012125194
-0.067990452 0.10684215 0.012251437
-0.065686971 0.10488727 0.012115926
-0.063921787 0.10374193 0.012210608
-0.064663529 0.10669483 0.011517763
-0.063389853 0.10636602 0.011571556
-0.061544411 0.10504995 0.011571556
-0.061145056 0.10619931 0.011364371
-0.058709215 0.10378951 0.011078447
-0.058386024 0.10509484 0.011089891
-0.058483437 0.10721963 0.011089891
-0.056693234 0.10589869 0.011012793
-0.054785453 0.10430308 0.010995537
-0.054242246 0.10529377 0.010914654
-0.052835833 0.10461495 0.010921419
-0.051641356 0.10433662 0.010957062
-0.051476531 0.10617035 0.010831922
-0.049762953 0.10481984 0.0105142
-0.049209815 0.10590808 0.0098914504
-0.048091888 0.10580215 0.0098004043
-0.046499308 0.10462345 0.0095705986
-0.046329889 0.10666649 0.0091362298
-0.044954512 0.10596421 0.0087364316
-0.04358327 0.10523766 0.0087514818
-0.043152425 0.10680226 0.008618772
-0.041954618 0.10650019 0.0080445707
-0.0408119 0.10632575 0.0075439513
-0.039927654 0.10683345 0.0067171156
-0.038491696 0.10585217 0.0068900287
-0.037327044 0.10558221 0.0067615509
-0.036656965 0.10673646 0.0067236423
-0.035063989 0.10519198 0.0071057975
-0.034767047 0.10756055 0.0070514679
-0.033472713 0.10689673 0.0073450208
-0.032019738 0.10566514 0.0074386895
-0.031358436 0.10705121 0.0082844198
-0.030242484 0.10692879 0.0089733005
-0.029139988 0.10684662 0.0097522438
-0.027633507 0.10521989 0.01004532
-0.026314702 0.10420622 0.011155993
-0.025248727 0.104151 0.01167205
-0.024248969 0.104376 0.01207757
-0.022772523 0.10247636 0.012879789
-0.021777397 0.10266487 0.014452934
-0.020942699 0.10366637 0.014427185
-0.019719223 0.10274754 0.014306724
-0.018649338 0.10257137 0.013219029
-0.017693497 0.1030386 0.013180584
-0.016587129 0.10263287 0.012365252
-0.015725754 0.10378998 0.011531621
-0.014765581 0.10441376 0.010643452
-0.013626616 0.10377193 0.0079751313
-0.012889598 0.10633919 0.0067889094
-0.011944484 0.10750036 0.0051770508
-0.11135788 0.10407278 0.011523545
-0.11167549 0.10535424 0.014048368
-0.11083688 0.10555894 0.015179932
-0.10899168 0.1047997 0.01597479
-0.10904592 0.10586982 0.016389608
-0.10670725 0.10461495 0.016952127
-0.1055407 0.10449575 0.017012328
-0.10551988 0.10551988 0.017029345
-0.10373094 0.10477873 0.016996235
-0.10390694 0.10602749 0.016925931
-0.1019921 0.1051465 0.017043054
-0.10027042 0.10444836 0.016821563
-0.10078482 0.10608929 0.016596228
-0.099944673 0.10632412 0.01642859
-0.098026223 0.10540454 0.016234934
-0.098684959 0.10726626 0.016234577
-0.096458629 0.10599849 0.016063631
-0.093907468 0.10434163 0.015696138
-0.0944186 0.10608832 0.015465885
-0.092554003 0.105175 0.015431106
-0.09172862 0.10543519 0.015316516
-0.090877824 0.1056719 0.015196919
-0.089780718 0.10562437 0.015175402
-0.088615865 0.10549507 0.015291125
-0.087197922 0.10505774 0.015164554
-0.086006761 0.10488629 0.015265256
-0.085641228 0.10572992 0.014920861
-0.085403018 0.10675377 0.014701843
-0.084056817 0.10640104 0.014504313
-0.083310895 0.10680884 0.014274955
-0.081611872 0.10598945 0.014222771
-0.078898095 0.10381328 0.013964027
-0.079975523 0.10663404 0.013725609
-0.078800499 0.10648716 0.013463229
-0.076892257 0.10533186 0.013095111
-0.076956987 0.10688471 0.012988538
-0.075774267 0.10672433 0.012969017
-0.074002296 0.10571757 0.012411773
-0.07353773 0.10657642 0.012185842
-0.071936794 0.10578941 0.012154222
-0.070871115 0.10577778 0.012218654
-0.071081311 0.10769896 0.011945903
-0.068720266 0.10572349 0.011889935
-0.068993747 0.10780273 0.012030959
-0.067093186 0.10649712 0.012251437
-0.064894989 0.10466934 0.012210608
-0.065769918 0.10781954 0.012265027
-0.064032875 0.10672146 0.011755049
-0.061964586 0.10502473 0.011939347
-0.062463786 0.10769618 0.011528194
-0.060836039 0.10672989 0.011389107
-0.058882263 0.1051469 0.011088878
-0.059210274 0.10765505 0.011030942
-0.057062488 0.10567127 0.011079729
-0.055737019 0.10516419 0.010991335
-0.055471074 0.10667515 0.010981917
-0.054405585 0.10667762 0.010885835
-0.053178247 0.10635649 0.010920167
-0.052866496 0.10789081 0.010829389
-0.050346844 0.10488926 0.010691464
-0.050963458 0.1084329 0.010146379
-0.049324691 0.10722759 0.0099540055
-0.047598317 0.10577404 0.0098454058
-0.046829551 0.10643081 0.009337157
-0.046427019 0.10796981 0.0090152919
-0.044246268 0.10534826 0.0087178349
-0.043932091 0.10715144 0.0087026358
-0.042533901 0.10633475 0.008238703
-0.04193946 0.10753708 0.0079397261
-0.040736724 0.1072019 0.0071407855
-0.039588366 0.10699558 0.0070389211
-0.038221117 0.10616978 0.0066657066
-0.037717946 0.10776557 0.0064862967
-0.036330972 0.10685579 0.0065304041
-0.035446394 0.10741332 0.0067895949
-0.034576956 0.10805299 0.0066261888
-0.032928403 0.10622066 0.0072280765
-0.032551553 0.10850517 0.0073910952
-0.031145083 0.10739683 0.007820487
-0.029942274 0.1069367 0.0081302226
-0.029508691 0.10929145 0.0082964897
-0.027956625 0.10752548 0.0086503029
-0.026483871 0.10593548 0.0092025399
-0.025755569 0.10731487 0.0096822679
-0.024411416 0.10613658 0.010698199
-0.023483085 0.1067413 0.01140514
-0.02226714 0.106034 0.011680514
-0.021248348 0.10624174 0.012075394
-0.019963689 0.10507205 0.011564523
-0.01904906 0.10582811 0.011985153
-0.017880091 0.10517701 0.011564523
-0.017234741 0.10771713 0.010673672
-0.016026918 0.10684612 0.0092344284
-0.015047465 0.1074819 0.0075991452
-0.014250464 0.10961895 0.0070393682
-0.013109119 0.10924266 0.0056222677
-0.011748209 0.1068019 0.0043459237
-0.1146028 0.10817648 0.012709409
-0.11171073 0.10644136 0.014087766
-0.109861 0.10567582 0.015007019
-0.11040972 0.10722483 0.015495688
-0.10778596 0.10569303 0.016014129
-0.10629077 0.1052487 0.016528606
-0.10794683 0.10794683 0.016906261
-0.10433487 0.10537822 0.017029345
-0.10310957 0.10519259 0.016840011
-0.10408559 0.10727189 0.016993791
-0.10170613 0.10590021 0.017150044
-0.10212135 0.10744017 0.016895562
-0.099978462 0.10629289 0.016649097
-0.09814924 0.10545823 0.0168567
-0.098126665 0.10656767 0.016491055
-0.096744865 0.10620904 0.016491055
-0.095012084 0.10545297 0.016139835
-0.095627226 0.107315 0.015729606
-0.09437561 0.10710041 0.015465885
-0.09291894 0.10664561 0.015467495
-0.092023998 0.10683246 0.015254289
-0.090229109 0.10596675 0.015126407
-0.091167018 0.10832787 0.015158683
-0.089280948 0.10734972 0.015444428
-0.088288531 0.10743544 0.015001088
-0.086904109 0.10704042 0.015112221
-0.086950548 0.10841982 0.014957696
-0.083720021 0.10569653 0.014741957
-0.084463052 0.10798441 0.014573902
-0.082316384 0.10658917 0.014246494
-0.081090949 0.10636605 0.014025748
-0.080673561 0.10721091 0.013940811
-0.079585165 0.10717469 0.013715535
-0.077894174 0.10631502 0.013604373
-0.07799565 0.10791179 0.013311893
-0.076719992 0.1076211 0.013215363
-0.075002737 0.10669404 0.013215691
-0.075799935 0.10936848 0.012612551
-0.073773086 0.10798669 0.012318969
-0.071161605 0.10569591 0.012212425
-0.071514547 0.10780551 0.012260765
-0.06991531 0.10699162 0.012020141
-0.069493003 0.10798144 0.011949033
-0.068112686 0.10749034 0.01209718
-0.067109682 0.10758854 0.012631178
-0.066412516 0.10818813 0.012300164
-0.064811476 0.10731082 0.012435228
-0.062883079 0.10585319 0.011859804
-0.062747069 0.10741448 0.012193203
-0.061979394 0.10792963 0.011845201
-0.060807459 0.10774656 0.011790782
-0.06011444 0.10842069 0.011187524
-0.058376588 0.10720064 0.011215001
-0.057345897 0.10725807 0.011160046
-0.056845207 0.10832766 0.011061192
-0.05449634 0.10584866 0.010972947
-0.054529533 0.10798986 0.010730028
-0.053657904 0.10838897 0.010779321
-0.05201298 0.10721043 0.010778189
-0.051267419 0.1078752 0.010200709
-0.049625132 0.10664124 0.0099629462
-0.048385084 0.10623682 0.0096726418
-0.048631068 0.10914972 0.0096274912
-0.047076382 0.1080617 0.009337157
-0.045421377 0.10668742 0.009072125
-0.045576584 0.10960083 0.008618772
-0.044051118 0.10851616 0.008392483
-0.042756159 0.10795931 0.0082296133
-0.042357929 0.10969618 0.0077744722
-0.040477972 0.10758619 0.0072345734
-0.039440986 0.10766323 0.0071818531
-0.038866594 0.1090424 0.0068574846
-0.037627786 0.10858305 0.0065447688
-0.036121346 0.10730165 0.0064598024
-0.03548393 0.10860234 0.0065429807
-0.034120951 0.10769425 0.006513983
-0.033314783 0.10854171 0.0070375204
-0.032566033 0.10963898 0.0071171522
-0.030846292 0.10743019 0.0073644221
-0.030466381 0.10989659 0.0076719224
-0.029029416 0.10859152 0.0080907941
-0.027567398 0.10708874 0.0080626309
-0.027247243 0.11007886 0.0081664324
-0.025958547 0.10924222 0.0080637038
-0.025124742 0.11033039 0.0085307956
-0.024243334 0.11129895 0.0087260604
-0.022944655 0.11035287 0.0088657737
-0.021749569 0.10983533 0.0089253187
-0.021281604 0.11312852 0.0085821152
-0.019737381 0.11074865 0.0088350773
-0.018345535 0.10899407 0.0074573755
-0.017348399 0.10951177 0.0070864558
-0.016227497 0.10926515 0.0069288909
-0.015300811 0.11038443 0.0066760778
-0.013943234 0.1083282 0.005585134
-0.012953881 0.1090285 0.0046159327
-0.11295991 0.10768141 0.012559533
-0.10968284 0.10554387 0.013780594
-0.11124852 0.10806999 0.014852881
-0.10902505 0.10692842 0.015316099
-0.10785541 0.10680827 0.015562385
-0.10817351 0.10817351 0.016188353
-0.10582835 0.10687616 0.016651481
-0.10375933 0.10583451 0.016605616
-0.10455314 0.10772141 0.016523033
-0.10281 0.10700633 0.016783744
-0.10148691 0.1067182 0.016823858
-0.10155534 0.10790255 0.016565263
-0.099478818 0.10680883 0.016804308
-0.0997345 0.10822254 0.016435117
-0.097363427 0.10678569 0.016306996
-0.096302636 0.10677031 0.01646331
-0.097079366 0.10881423 0.016282767
-0.095146798 0.10783304 0.016019911
-0.092615254 0.10614333 0.015728235
-0.093476206 0.10834742 0.015497983
-0.091317609 0.10706203 0.015254289
-0.090346716 0.10715541 0.015126407
-0.089835964 0.10780316 0.01507619
-0.088096678 0.10697454 0.015188843
-0.086680233 0.10652269 0.015001088
-0.088032819 0.10950424 0.015151858
-0.085543424 0.10772135 0.015018761
-0.085064083 0.10845672 0.014920861
-0.082929134 0.10707306 0.014736354
-0.081485599 0.10655809 0.014573067
-0.081366263 0.10778388 0.0144701
-0.080675647 0.1082752 0.014237881
-0.07873702 0.10708234 0.014176697
-0.078989685 0.10887767 0.013732255
-0.077530116 0.10832974 0.013535142
-0.076097295 0.1078045 0.013411522
-0.075856484 0.10897693 0.013245702
-0.074279889 0.10823642 0.012849391
-0.072612464 0.10734017 0.012367547
-0.073126279 0.10968942 0.012513697
