ply
format ascii 1.0
comment PCL generated
element vertex 1237
property float x
property float y
property float z
element camera 0
property float view_px
property float view_py
property float view_pz
property float x_axisx
property float x_axisy
property float x_axisz
property float y_axisx
property float y_axisy
property float y_axisz
property float z_axisx
property float z_axisy
property float z_axisz
property float focal
property float scalex
property float scaley
property float centerx
property float centery
property int viewportx
property int viewporty
property float k1
property float k2
end_header
-0.026943769 -0.01616626 0.0097098053
-0.025874339 -0.016171461 0.0093689859
-0.024483658 -0.015967602 0.0090185106
-0.023758391 -0.016198903 0.0088646412
-0.022546051 -0.016104322 0.0087120831
-0.021841528 -0.016381146 0.0084471703
-0.020306749 -0.016031643 0.0080992579
-0.019595191 -0.016329326 0.0072493851
-0.018406129 -0.016240703 0.0069847405
-0.017180048 -0.016106294 0.006891042
-0.016265862 -0.016265862 0.0066204369
-0.015274064 -0.016365068 0.0066070855
-0.013930907 -0.016074123 0.0062256455
-0.013229386 -0.016536733 0.0057247579
-0.11459054 -0.014718051 0.019731045
-0.11114553 -0.014407753 0.024903566
-0.10942944 -0.01431787 0.026516795
-0.10856146 -0.014338307 0.02767086
-0.10925604 -0.014567472 0.028471947
-0.10557656 -0.014212229 0.02880165
-0.10643008 -0.014466225 0.029133469
-0.10366518 -0.014228554 0.028786689
-0.10371852 -0.014376824 0.028559446
-0.10357401 -0.014500361 0.028352678
-0.10118102 -0.014308427 0.028221071
-0.10036788 -0.014338269 0.028028548
-0.10033146 -0.014480829 0.027795404
-0.098710835 -0.01439533 0.027688861
-0.098841704 -0.014566146 0.02786693
-0.096227601 -0.01433177 0.027595073
-0.095891431 -0.014435269 0.027378649
-0.095294826 -0.014501386 0.02716592
-0.096694835 -0.014876128 0.026723951
-0.092173524 -0.014338103 0.026664138
-0.092939675 -0.014619725 0.026602596
-0.091299616 -0.014524939 0.025918275
-0.090500869 -0.014563358 0.025517255
-0.090008914 -0.014652614 0.025037736
-0.08866825 -0.014604182 0.024760574
-0.087373793 -0.014562298 0.024725437
-0.087218679 -0.014711585 0.024428815
-0.08629366 -0.014733063 0.024269462
-0.083313897 -0.014399933 0.024043411
-0.083434157 -0.014600978 0.023742586
-0.081632391 -0.0144665 0.02361834
-0.081038341 -0.014545343 0.023474276
-0.080050528 -0.014554641 0.023117036
-0.079252064 -0.014599064 0.023091763
-0.079956397 -0.014925194 0.023182154
-0.077338316 -0.014631572 0.022567213
-0.076182649 -0.014610371 0.022367775
-0.076562457 -0.014887145 0.021566659
-0.074526362 -0.01469534 0.021117479
-0.073331587 -0.014666318 0.021263033
-0.073325478 -0.014877634 0.021275192
-0.070266537 -0.01446664 0.021071583
-0.071238749 -0.014885708 0.020791203
-0.07023558 -0.014898458 0.020152956
-0.06779927 -0.014602919 0.020361602
-0.067722082 -0.014814205 0.020169258
-0.066162556 -0.014702789 0.020149142
-0.064793661 -0.014630826 0.020114303
-0.064202473 -0.014734994 0.020150751
-0.063516803 -0.014820587 0.020075321
-0.061901111 -0.014688399 0.019841909
-0.06143336 -0.014828742 0.019530654
-0.060220022 -0.014790883 0.019420981
-0.059792329 -0.014948082 0.018635392
-0.05826975 -0.0148323 0.018212497
-0.05689026 -0.014749327 0.018277884
-0.056687515 -0.014974061 0.017939597
-0.055035673 -0.014817297 0.01797986
-0.054669529 -0.015007322 0.017884046
-0.052504618 -0.014701293 0.017403185
-0.05296693 -0.015133409 0.017115742
-0.050399967 -0.014699991 0.016884267
-0.04992478 -0.014871211 0.016747862
-0.048831992 -0.014861911 0.016408086
-0.047737498 -0.014851665 0.016453385
-0.046985313 -0.014949872 0.016037226
-0.046073087 -0.015000539 0.015619904
-0.043926522 -0.014642174 0.015479267
-0.043629833 -0.01489799 0.014937729
-0.042387154 -0.014835505 0.014838547
-0.041550454 -0.014915547 0.014662236
-0.040665291 -0.014981949 0.014154315
-0.039494332 -0.0149438 0.01365906
-0.038083818 -0.014810374 0.013492495
-0.037301797 -0.014920719 0.013222337
-0.036669057 -0.015099023 0.012945116
-0.035447635 -0.015038391 0.012430459
-0.034533951 -0.015108604 0.012391508
-0.032687213 -0.014761967 0.012222826
-0.032393511 -0.015116971 0.0120323
-0.03134061 -0.01512995 0.011695266
-0.030260149 -0.015130075 0.011565089
-0.029539006 -0.015316521 0.010715067
-0.028294707 -0.015235611 0.010621518
-0.026880817 -0.015053257 0.010290802
-0.025935069 -0.01512879 0.0098917186
-0.024726542 -0.015050938 0.0095089972
-0.023933221 -0.015230231 0.0093544126
-0.022819012 -0.015212674 0.0090761185
-0.021620743 -0.015134521 0.0085021853
-0.020686766 -0.01524288 0.0082692504
-0.019480806 -0.015151738 0.0072917342
-0.018379847 -0.015136344 0.0071627796
-0.0176921 -0.015480587 0.0070969462
-0.016190603 -0.015111229 0.0070242882
-0.015068258 -0.015068258 0.0070363581
-0.013948794 -0.015021778 0.0066801906
-0.013210848 -0.015412657 0.0062422752
-0.011834745 -0.015062404 0.0053591132
-0.11361889 -0.013550876 0.01936537
-0.11105257 -0.01336744 0.024830699
-0.11117675 -0.013507456 0.026393265
-0.10952546 -0.013432368 0.027657747
-0.10628127 -0.013158633 0.028487265
-0.10806318 -0.013507898 0.028815776
-0.10660871 -0.013455468 0.029279292
-0.10405287 -0.01326164 0.028786689
-0.10576189 -0.013612916 0.028559446
-0.10254161 -0.013330409 0.02844435
-0.10089622 -0.013248998 0.028238147
-0.10169271 -0.013489849 0.028357953
-0.098512486 -0.013202704 0.027948231
-0.099458292 -0.013468311 0.028290987
-0.098297551 -0.013451244 0.028039247
-0.095973179 -0.013272886 0.028012335
-0.095407762 -0.013336569 0.027656376
-0.095176771 -0.01344889 0.027253181
-0.092954971 -0.013279282 0.026798636
-0.094712064 -0.013680631 0.026645243
-0.092788301 -0.013553347 0.026687145
-0.091003157 -0.013443648 0.026402324
-0.091435567 -0.013662785 0.0254893
-0.088545531 -0.013384789 0.025119334
-0.088705808 -0.013566771 0.024777263
-0.088468023 -0.013691479 0.024877101
-0.085185125 -0.013342248 0.024630696
-0.086002 -0.013634462 0.024451762
-0.084931798 -0.01363103 0.024428815
-0.082518212 -0.01340921 0.024137735
-0.08315523 -0.013683772 0.024010688
-0.081441514 -0.013573585 0.023774266
-0.080075458 -0.013519233 0.023462415
-0.079463281 -0.013592402 0.02304107
-0.079500176 -0.01378003 0.023091763
-0.07758408 -0.013629635 0.022531807
-0.077213012 -0.013750261 0.022099018
-0.075009696 -0.013543418 0.021513551
-0.074809387 -0.013697493 0.021191597
-0.073690571 -0.013685392 0.021102607
-0.071976416 -0.013560774 0.021327972
-0.07104855 -0.013582811 0.020900279
-0.070330426 -0.013646202 0.020641565
-0.068820573 -0.013555568 0.020415872
-0.067945592 -0.013589119 0.020580411
-0.068097375 -0.013832279 0.020103395
-0.06635005 -0.013691279 0.020286769
-0.066344857 -0.013911017 0.020133972
-0.064273909 -0.013697717 0.020086169
-0.062603518 -0.013564096 0.019989431
-0.062439796 -0.013757921 0.019759744
-0.061120097 -0.013699331 0.019420981
-0.060273141 -0.013746507 0.019311279
-0.05897595 -0.013690845 0.018435985
-0.057650283 -0.01362643 0.018238634
-0.056617752 -0.013630199 0.018442839
-0.055750813 -0.013674729 0.01797986
-0.054895673 -0.013723918 0.018021911
-0.054131426 -0.013798206 0.017549932
-0.053624708 -0.013942424 0.01725024
-0.05094685 -0.013516512 0.016878337
-0.051525284 -0.013954764 0.016839772
-0.050418232 -0.013945469 0.016787082
-0.048214983 -0.013625974 0.016416281
-0.048210219 -0.013927395 0.01634869
-0.047074515 -0.013908381 0.015974492
-0.046071712 -0.013928656 0.015907854
-0.04518519 -0.013985892 0.015450329
-0.044046093 -0.013965833 0.014915645
-0.042473163 -0.013803778 0.014750898
-0.041270055 -0.013756685 0.014623195
-0.040839292 -0.013971336 0.013874888
-0.039383117 -0.013837311 0.013411254
-0.038679179 -0.013967481 0.01328215
-0.037521657 -0.013936616 0.013087273
-0.035922661 -0.013735134 0.012860209
-0.035508726 -0.013988286 0.0124906
-0.034064457 -0.013838686 0.012187958
-0.033142015 -0.013898264 0.012036353
-0.032188378 -0.013948297 0.011967629
-0.030728048 -0.013774641 0.011487961
-0.030557178 -0.014187261 0.011372566
-0.028695988 -0.013816587 0.010482848
-0.027508067 -0.013754033 0.010621518
-0.027196322 -0.014142087 0.010184079
-0.02567444 -0.013906988 0.0098917186
-0.024777597 -0.014004729 0.0095038116
-0.02392452 -0.014137217 0.0092574954
-0.022358274 -0.013840836 0.0090596974
-0.021551954 -0.014008771 0.0084615648
-0.02086547 -0.014276374 0.0082916021
-0.019338887 -0.013966975 0.0073973835
-0.01838864 -0.014061901 0.0072621703
-0.017263915 -0.014026931 0.0071237981
-0.016306154 -0.014132001 0.0069714785
-0.015395254 -0.014295593 0.0069754124
-0.01413526 -0.01413526 0.006662786
-0.012913717 -0.01398986 0.0062446296
-0.012069616 -0.014264091 0.0054903328
-0.010963957 -0.014253145 0.0040664375
-0.11339639 -0.012484006 0.022911489
-0.11092085 -0.012324538 0.024817437
-0.10949642 -0.012279972 0.026095092
-0.1074663 -0.012165996 0.027657747
-0.1081708 -0.012362378 0.028454006
-0.10640854 -0.012277909 0.028783709
-0.10610583 -0.012361845 0.029096007
-0.1057593 -0.01244227 0.02865544
-0.10375822 -0.012327709 0.028559446
-0.10209975 -0.01225197 0.028418243
-0.10294197 -0.012477813 0.028357059
-0.10005837 -0.012252046 0.028448284
-0.099858463 -0.012353624 0.028171271
-0.098737366 -0.012342171 0.028086782
-0.097273871 -0.012287226 0.028425902
-0.096677437 -0.0123418 0.027990013
-0.096281633 -0.012423436 0.027811319
-0.09585052 -0.012502241 0.027243704
-0.093740657 -0.012361404 0.026789367
-0.093220644 -0.012429418 0.026675522
-0.091222584 -0.012299674 0.026716173
-0.091460429 -0.012471877 0.026544362
-0.089214355 -0.012305428 0.025828928
-0.089377195 -0.012471236 0.025209606
-0.089254655 -0.012600658 0.025099814
-0.086320147 -0.012331449 0.024937212
-0.08558777 -0.012374135 0.02473408
-0.086414807 -0.012646069 0.024568081
-0.084831715 -0.012567662 0.024451762
-0.083738849 -0.012560827 0.024152458
-0.082093902 -0.012469959 0.02402541
-0.081214331 -0.012494513 0.023754239
-0.080357999 -0.012523324 0.023517519
-0.079168916 -0.012500355 0.023294985
-0.078769341 -0.012603094 0.023378938
-0.077252887 -0.012527495 0.022567213
-0.077617146 -0.012758981 0.022290587
-0.075568184 -0.012594698 0.021633983
-0.075466946 -0.012754977 0.021228433
-0.072603486 -0.012446312 0.021191597
-0.072309263 -0.012575524 0.021362901
-0.071348131 -0.012590846 0.020968974
-0.070537142 -0.012633517 0.020900279
-0.068373337 -0.012431516 0.02045536
-0.068713285 -0.01268553 0.020415872
-0.06678912 -0.01252296 0.020103395
-0.066734403 -0.012711314 0.02007091
-0.065293118 -0.012637377 0.019841045
-0.064620622 -0.012712253 0.019830197
-0.064590126 -0.012918024 0.019656032
-0.062547736 -0.012721573 0.019256115
-0.060222179 -0.012459761 0.018930078
-0.061533112 -0.012954339 0.018784344
-0.058463305 -0.012527851 0.017884046
-0.057654705 -0.012579207 0.017884046
-0.057532091 -0.012784909 0.017884046
-0.055684637 -0.012607843 0.017558783
-0.054573026 -0.012593775 0.017487049
-0.054789264 -0.012891592 0.017282963
-0.052074548 -0.012497891 0.017100215
-0.051267948 -0.012555416 0.016701818
-0.050893117 -0.012723279 0.016741753
-0.049639739 -0.012673976 0.016718328
-0.049761742 -0.012981324 0.016648084
-0.047895048 -0.012772013 0.016499192
-0.047163449 -0.012862759 0.015860379
-0.045916315 -0.012813855 0.015768975
-0.044936642 -0.01283904 0.015241534
-0.043634351 -0.012771029 0.015052259
-0.042427927 -0.012728378 0.014353484
-0.041277975 -0.012700915 0.014151841
-0.039853327 -0.012585261 0.01369381
-0.039707277 -0.012878035 0.013143182
-0.038205773 -0.012735258 0.013068974
-0.037150547 -0.012737331 0.012970477
-0.036718328 -0.01295941 0.013087273
-0.035200786 -0.012800286 0.012763888
-0.034597848 -0.012974193 0.012191147
-0.033536404 -0.012981834 0.012124866
-0.031674877 -0.01266995 0.012056142
-0.031305127 -0.012953845 0.011683106
-0.029985847 -0.012851077 0.011565089
-0.028997038 -0.012887572 0.010908276
-0.028468482 -0.013139299 0.010959595
-0.026690511 -0.012811445 0.010391116
-0.025891077 -0.012945538 0.010117501
-0.025052426 -0.01307083 0.0096479058
-0.023483226 -0.012809033 0.0092574954
-0.022536399 -0.012877942 0.0090596974
-0.021822687 -0.013093613 0.0086288452
-0.020369709 -0.012865079 0.0086015761
-0.019410534 -0.012940357 0.0076337755
-0.01837972 -0.01297392 0.0072641075
-0.017120076 -0.012840057 0.0073392093
-0.016464561 -0.013171648 0.0070739985
-0.015150862 -0.012986452 0.0070635378
-0.014061923 -0.012980237 0.0069714785
-0.013185942 -0.013185942 0.0066677928
-0.012118138 -0.013219788 0.0056210756
-0.010660776 -0.012792932 0.0046428144
-0.11346807 -0.011450906 0.022991896
-0.11080116 -0.011285302 0.024813384
-0.10933364 -0.011239906 0.026815027
-0.10857274 -0.011266982 0.027802557
-0.10673569 -0.011181834 0.028348267
-0.10632981 -0.011246422 0.028797179
-0.10810111 -0.011544779 0.028872102
-0.10363375 -0.011176188 0.028760582
-0.10398608 -0.011325217 0.02846393
-0.10325977 -0.011358574 0.02844435
-0.10175982 -0.011306646 0.028432369
-0.10041326 -0.011270876 0.028532386
-0.09988822 -0.01132753 0.028276622
-0.097879194 -0.011215325 0.02851975
-0.098581918 -0.011414749 0.028392583
-0.097040996 -0.011355861 0.027852237
-0.095183909 -0.011258312 0.02779758
-0.095731363 -0.011446141 0.027109295
-0.094753057 -0.011453666 0.026675522
-0.092718571 -0.011332269 0.026578575
-0.093098097 -0.011506506 0.026549101
-0.092561565 -0.011570196 0.026315242
-0.090085827 -0.011390162 0.025722802
-0.08908096 -0.011394076 0.025200337
-0.087248839 -0.011291025 0.025099814
-0.086952426 -0.011386626 0.024937212
-0.085945368 -0.01139035 0.024766326
-0.08379142 -0.011240312 0.024608433
-0.084479488 -0.011472523 0.024541467
-0.082926981 -0.01140246 0.024276376
-0.082260199 -0.011453952 0.024235725
-0.081266612 -0.011460676 0.023900867
-0.081681669 -0.01166881 0.023750305
-0.078177735 -0.011315198 0.023378223
-0.079579093 -0.011671599 0.023522764
-0.076943345 -0.011437523 0.023207009
-0.075381368 -0.011358835 0.022758514
-0.075849876 -0.011588176 0.021832526
-0.075208008 -0.011651945 0.021275371
-0.072478257 -0.01138944 0.021184325
-0.072625153 -0.011577923 0.021520168
-0.071124285 -0.011505399 0.021027982
-0.070771649 -0.011619226 0.020968974
-0.069850706 -0.011641785 0.020607322
-0.067990705 -0.01150612 0.020880282
-0.067098111 -0.011532487 0.020543814
-0.066871852 -0.011676037 0.020267814
-0.064857028 -0.011506892 0.019981086
-0.06470602 -0.011668299 0.019908369
-0.063021392 -0.011553921 0.01979962
-0.062502325 -0.011652975 0.019569069
-0.061506927 -0.011665107 0.018730521
-0.05996212 -0.011571637 0.018844903
-0.058988001 -0.011586929 0.018027067
-0.058648471 -0.011729694 0.017745793
-0.056606509 -0.011530955 0.017805159
-0.05563413 -0.011546706 0.017676085
-0.055774406 -0.011798431 0.017741621
-0.053932801 -0.011632564 0.017653972
-0.052598376 -0.011571642 0.016896635
-0.05168068 -0.011601786 0.016981393
-0.050638188 -0.011604585 0.01678592
-0.05037732 -0.011790437 0.016815245
-0.04847838 -0.011592655 0.016648769
-0.047639512 -0.011645213 0.016581774
-0.046676282 -0.01166907 0.01601693
-0.04561989 -0.011670205 0.015814275
-0.044374615 -0.011621922 0.015243739
-0.044176929 -0.011852345 0.014487118
-0.042290237 -0.011629815 0.014184892
-0.041844007 -0.011802156 0.014054239
-0.041066721 -0.011887735 0.013617456
-0.039245248 -0.011667505 0.013157099
-0.038420483 -0.011739593 0.012924939
-0.038292319 -0.012034728 0.012826443
-0.036219165 -0.011717964 0.01293233
-0.035089027 -0.011696343 0.012671828
-0.034386449 -0.011820341 0.012107015
-0.033214774 -0.011785886 0.012055039
-0.03247764 -0.011908468 0.011901081
-0.031413145 -0.01191533 0.011760533
-0.029996505 -0.011784341 0.01154232
-0.029316014 -0.01194356 0.010959595
-0.027967624 -0.011832456 0.011565089
-0.026870357 -0.011822957 0.010405213
-0.025938196 -0.01188834 0.009981215
-0.025038825 -0.01197509 0.0095677972
-0.023775456 -0.011887728 0.0095023513
-0.022674786 -0.011877269 0.0089886189
-0.021640405 -0.011902222 0.008705318
-0.02061178 -0.011933136 0.0085021853
-0.019654149 -0.012010869 0.008055985
-0.018271299 -0.011822605 0.007887274
-0.017360048 -0.011935033 0.0072621703
-0.016490411 -0.012092968 0.0070594549
-0.015010382 -0.011793871 0.0072122812
-0.014195982 -0.012011984 0.0070242882
-0.013134981 -0.012040398 0.0070028603
-0.011790599 -0.011790599 0.0057237446
-0.010848607 -0.011933468 0.0049922168
-0.11471867 -0.010524648 0.022999585
-0.10961305 -0.010149355 0.024813384
-0.11015315 -0.010294687 0.026815027
-0.10723027 -0.010116063 0.027886152
-0.10566504 -0.010063337 0.028446376
-0.10707875 -0.010296034 0.028735101
-0.10445351 -0.010141117 0.028805256
-0.10493548 -0.010287792 0.028624058
-0.10360449 -0.010257869 0.02844435
-0.10245005 -0.010245005 0.028612047
-0.10258038 -0.010361654 0.028462619
-0.10185844 -0.010393718 0.028507918
-0.099578358 -0.01026581 0.028335333
-0.099768765 -0.010392579 0.028428257
-0.099083856 -0.01042988 0.028176963
-0.096059702 -0.010219117 0.028221279
-0.094659738 -0.010178466 0.027906865
-0.095272765 -0.010355735 0.027123004
-0.093828626 -0.010310837 0.026683301
-0.093923286 -0.010435919 0.026573837
-0.092743799 -0.010420651 0.026544362
-0.090597503 -0.01029517 0.026333064
-0.090500861 -0.010402398 0.025618106
-0.089414559 -0.010397041 0.025139034
-0.087771274 -0.010326032 0.025154918
-0.087408893 -0.01040582 0.024992317
-0.085688218 -0.010323881 0.02487427
-0.084849477 -0.010347497 0.024668664
-0.085336529 -0.010535373 0.024576604
-0.084094197 -0.010511775 0.024403781
-0.082520507 -0.010445634 0.024285525
-0.081313752 -0.01042484 0.02397424
-0.080165841 -0.010411148 0.023750305
-0.081632577 -0.010741129 0.023522198
-0.079121299 -0.010549506 0.023487896
-0.07658007 -0.010348657 0.023414195
-0.076581225 -0.010490578 0.022908896
-0.074645229 -0.010367393 0.021915555
-0.075050861 -0.010570544 0.021538824
-0.074193545 -0.010599077 0.021420956
-0.071295142 -0.010332629 0.021691203
-0.070920408 -0.010429472 0.02123037
-0.070663378 -0.010546773 0.021102369
-0.069347069 -0.010507131 0.020943165
-0.067850351 -0.010438515 0.020843655
-0.067680232 -0.010575037 0.020659238
-0.065965675 -0.010470742 0.020234078
-0.065877028 -0.010625327 0.020128936
-0.063886769 -0.01047324 0.020078033
-0.062374379 -0.01039573 0.020034313
-0.062723376 -0.01063108 0.019575417
-0.061598353 -0.010620405 0.018937677
-0.059140418 -0.010375512 0.018831491
-0.059008699 -0.010537268 0.018245488
-0.057539586 -0.010461743 0.018087626
-0.057047281 -0.01056431 0.017984718
-0.056797102 -0.010716434 0.017785937
-0.054354083 -0.010452708 0.017855644
-0.054010298 -0.010590254 0.0175533
-0.053043321 -0.010608664 0.016846299
-0.051283784 -0.010466078 0.016765982
-0.051187616 -0.010664087 0.016726285
-0.050104573 -0.010660548 0.016719967
-0.048177879 -0.010473452 0.01666519
-0.048345864 -0.010743525 0.016581923
-0.046620652 -0.010595603 0.016428262
-0.046099767 -0.010720876 0.015940875
-0.044902008 -0.010690954 0.015458137
-0.043339457 -0.010570599 0.01457873
-0.042950474 -0.010737618 0.014415681
-0.042253695 -0.01083428 0.014279723
-0.0408803 -0.010757973 0.01382336
-0.0395712 -0.010694918 0.013661683
-0.038541012 -0.010705836 0.013510823
-0.037446789 -0.010699082 0.013200432
-0.036006752 -0.010590222 0.013325721
-0.035736848 -0.010829348 0.012859911
-0.034653127 -0.010829102 0.012277424
-0.03316607 -0.010698731 0.01217103
-0.032031156 -0.010677052 0.012187958
-0.031076677 -0.010716095 0.011824429
-0.030269178 -0.010810421 0.01179558
-0.029125802 -0.010787333 0.011775047
-0.027725894 -0.010663806 0.01179558
-0.027091131 -0.010836451 0.010621041
-0.025885861 -0.010785775 0.010156006
-0.024696138 -0.010737451 0.010228455
-0.024038121 -0.010926418 0.010019958
-0.022324728 -0.010630823 0.0092873871
-0.02191213 -0.010956065 0.008705318
-0.020445384 -0.010760727 0.0084802508
-0.01951294 -0.010840523 0.0080964267
-0.018120302 -0.010659001 0.007887274
-0.017400164 -0.010875102 0.0075001419
-0.01604012 -0.010693413 0.0072364509
-0.015298782 -0.010927701 0.0073973835
-0.014328387 -0.011021836 0.0070635378
-0.012848498 -0.010707081 0.007135123
-0.011943522 -0.010857747 0.0059547424
-0.011072959 -0.011072959 0.0048645437
-0.0097243786 -0.010804866 0.0042411685
-0.1132056 -0.0093472507 0.022862732
-0.11135435 -0.0092795286 0.024588913
-0.1103609 -0.0092826914 0.027235359
-0.1083543 -0.0091998931 0.028056473
-0.10902653 -0.009345131 0.028452396
-0.10685155 -0.0092467684 0.028750211
-0.10587611 -0.0092513105 0.02898854
-0.10526067 -0.0092877056 0.028805256
-0.10461915 -0.009322498 0.028664261
-0.10166919 -0.0091502266 0.028352678
-0.1022932 -0.0092993807 0.02842468
-0.10061658 -0.0092402985 0.028393656
-0.099813811 -0.0092610754 0.028313667
-0.097731419 -0.0091623198 0.028497875
-0.097060978 -0.0091952505 0.028451592
-0.097403914 -0.0093259066 0.028239399
-0.095968284 -0.009287253 0.028091162
-0.094911933 -0.0092848623 0.027611405
-0.094569579 -0.0093530351 0.026723951
-0.094271161 -0.0094271153 0.026573837
-0.091202609 -0.0092227357 0.026573837
-0.091791943 -0.0093878126 0.026333064
-0.08949542 -0.0092581464 0.025755107
-0.089732289 -0.0093905879 0.025139034
-0.088303372 -0.009349769 0.024992317
-0.086411588 -0.0092583839 0.024932206
-0.084920235 -0.0092082173 0.024774432
-0.086230353 -0.0094643058 0.024587661
-0.08375401 -0.0093060015 0.024562925
-0.082501754 -0.0092814481 0.024432153
-0.082114175 -0.0093547795 0.024266064
-0.080987044 -0.0093446579 0.023900867
-0.08061754 -0.0094228294 0.023724049
-0.08080887 -0.0095694708 0.023793221
-0.077696823 -0.0093236184 0.023584574
-0.07755591 -0.0094324751 0.023610979
-0.076257288 -0.0094015822 0.022999287
-0.075591229 -0.0094489036 0.022140086
-0.074505433 -0.0094443504 0.021809071
-0.072726637 -0.0093505671 0.021763295
-0.0728122 -0.009497243 0.021853685
-0.070830502 -0.009374625 0.021478117
-0.069914177 -0.0093914559 0.021380812
-0.069243893 -0.009442349 0.021248758
-0.068867259 -0.0095354663 0.021128148
-0.067171775 -0.0094460296 0.020964265
-0.06683068 -0.0095472392 0.020539105
-0.066067599 -0.0095904572 0.02025488
-0.063883126 -0.0094253793 0.020207554
-0.063405275 -0.0095107909 0.020034313
-0.062050965 -0.0094654011 0.019575417
-0.061587941 -0.0095567489 0.019024879
-0.06053362 -0.0095579401 0.018600225
-0.058589529 -0.0094161741 0.018087626
-0.057081237 -0.0093405657 0.017870337
-0.057168048 -0.0095280074 0.017770022
-0.056579411 -0.0096078245 0.01777944
-0.054432698 -0.009421044 0.017558783
-0.054405119 -0.0096009029 0.017340094
-0.052423377 -0.0094362069 0.016772419
-0.051624782 -0.0094821034 0.016512066
-0.050833266 -0.0095312372 0.01648578
-0.049629454 -0.0095035117 0.016718328
-0.049470536 -0.0096790176 0.016604811
-0.047863465 -0.0095726922 0.01660037
-0.046226129 -0.0094553437 0.016670614
-0.045622919 -0.0095489826 0.016283959
-0.045228027 -0.009691719 0.015668511
-0.043747276 -0.0096030599 0.01531145
-0.042737056 -0.0096158376 0.014667273
-0.041863382 -0.0096607804 0.01457873
-0.040391505 -0.0095664077 0.013991892
-0.039968815 -0.0097221434 0.013747007
-0.038785893 -0.0096964734 0.013646513
-0.037255574 -0.009580005 0.013336122
-0.036628436 -0.0096957618 0.013370752
-0.035251774 -0.0096141193 0.012934595
-0.034252655 -0.0096335588 0.012768239
-0.033088893 -0.0096064517 0.012945473
-0.031887148 -0.0095661441 0.012476861
-0.030993875 -0.009618788 0.012103736
-0.030097289 -0.0096741281 0.012002617
-0.028859846 -0.0096199485 0.011876374
-0.027860388 -0.0096439803 0.011703312
-0.027086645 -0.0097511923 0.010290802
-0.025642039 -0.009615765 0.010069072
-0.02537369 -0.0099288346 0.0099550784
-0.023560144 -0.0096382406 0.009772718
-0.022556162 -0.0096669262 0.0089886189
-0.021818446 -0.0098183006 0.008654058
-0.020281153 -0.0096068606 0.0084173977
-0.019553561 -0.0097767804 0.0080964267
-0.018558312 -0.0098249875 0.0080140233
-0.017356366 -0.0097629549 0.007763505
-0.016265856 -0.0097595127 0.0071908236
-0.015201602 -0.0097724581 0.0074303746
-0.013754989 -0.0095226839 0.0070364773
-0.012986725 -0.0097400434 0.0069676936
-0.011910045 -0.0097445818 0.0058056712
-0.010715283 -0.009643754 0.0048609972
-0.0097227618 -0.0097227618 0.0041343868
-0.11596807 -0.0085114175 0.022911489
-0.11080685 -0.0082079144 0.024907619
-0.10781422 -0.0080608763 0.026888013
-0.10980264 -0.0082869921 0.027942032
-0.10880286 -0.0082897414 0.028348267
-0.10720663 -0.008246664 0.028686136
-0.10594828 -0.0082289921 0.028785586
-0.10454888 -0.0081999116 0.028657824
-0.1039796 -0.0082360087 0.02846393
-0.10381529 -0.0083052227 0.028213501
-0.10095669 -0.0081581157 0.028196514
-0.10027345 -0.0081855878 0.028280228
-0.10068661 -0.0083040502 0.02814889
-0.098356634 -0.0081963865 0.028582454
-0.098745041 -0.0083153723 0.028558254
-0.097196832 -0.0082720714 0.028314143
-0.09432745 -0.0081141889 0.028085053
-0.096080974 -0.0083548669 0.027619183
-0.095012531 -0.00835275 0.026797146
-0.092263229 -0.0082011754 0.026544362
-0.092229411 -0.0082902843 0.026497155
-0.090591498 -0.0082355915 0.026312977
-0.090453565 -0.0083175693 0.025734663
-0.090603091 -0.0084281946 0.025136769
-0.088241965 -0.0083051268 0.025090218
-0.086641498 -0.0082515711 0.024906278
-0.08634153 -0.008322075 0.024475485
-0.08451093 -0.008244969 0.024544477
-0.084213227 -0.0083173569 0.02423957
-0.084371112 -0.008437112 0.024139971
-0.082019158 -0.0083057377 0.024069041
-0.081131198 -0.0083211483 0.024145395
-0.081004262 -0.0084160268 0.023706585
-0.078796558 -0.0082943747 0.023793221
-0.077696316 -0.0082876068 0.02355352
-0.077533275 -0.0083819758 0.023610979
-0.075630769 -0.0082883025 0.022689432
-0.07569015 -0.008410017 0.022140086
-0.074794807 -0.0084275845 0.021809071
-0.073402956 -0.0083889095 0.021733612
-0.072496772 -0.0084054228 0.021904022
-0.071712852 -0.0084368056 0.021608084
-0.070086986 -0.0083685955 0.021386862
-0.069048978 -0.0083695734 0.021279365
-0.068284124 -0.0084042 0.021332443
-0.066658996 -0.0083323745 0.021235347
-0.066492684 -0.0084435157 0.020973355
-0.064954214 -0.0083811888 0.020427972
-0.063882761 -0.0083780671 0.020356417
-0.063336216 -0.0084448289 0.020181179
-0.061879825 -0.0083904844 0.019925296
-0.06100326 -0.0084142424 0.019112945
-0.060505807 -0.0084920432 0.018892467
-0.059241734 -0.0084631052 0.018592089
-0.058884598 -0.0085650329 0.018368274
-0.056544639 -0.008376983 0.017971009
-0.056684863 -0.0085562058 0.017754287
-0.055410076 -0.0085246274 0.017534554
-0.05386515 -0.0084494352 0.017374754
-0.052544076 -0.0084070517 0.016772419
-0.052339092 -0.0085451584 0.016438186
-0.050722614 -0.0084537696 0.016227186
-0.049851172 -0.0084853061 0.016660094
-0.048709776 -0.0084712654 0.016589731
-0.047811456 -0.0084998142 0.016569525
-0.046689823 -0.0084890593 0.016387582
-0.046545379 -0.0086596049 0.01608929
-0.044010643 -0.0083829798 0.015617996
-0.043975845 -0.0085806521 0.01457873
-0.042562172 -0.0085124345 0.014279664
-0.041610017 -0.0085353879 0.014351159
-0.040700357 -0.0085684955 0.013747007
-0.039411649 -0.0085214376 0.013478041
-0.038696133 -0.0085991407 0.013448715
-0.037495606 -0.0085704243 0.013432145
-0.036268935 -0.0085338671 0.013404459
-0.035438087 -0.0085910512 0.013117552
-0.034559768 -0.0086399419 0.012909085
-0.033343125 -0.0086046774 0.013132364
-0.032541748 -0.0086778002 0.013141811
-0.030970829 -0.0085436767 0.012283653
-0.029836645 -0.0085247559 0.012005627
-0.029227601 -0.0086600296 0.011913061
-0.028345868 -0.0087218052 0.011710018
-0.026849264 -0.0085917646 0.010349929
-0.026021665 -0.0086738886 0.010029465
-0.024808094 -0.008628902 0.0098245442
-0.02361094 -0.0085857967 0.0098429322
-0.022823278 -0.0086945826 0.0093689859
-0.021748973 -0.0086995894 0.0087006986
-0.020207021 -0.0085082194 0.0085848272
-0.019617081 -0.0087187029 0.0082392991
-0.018270405 -0.0085978378 0.0077146888
-0.017341692 -0.008670846 0.0075001419
-0.016351702 -0.0087209074 0.0071490705
-0.014910694 -0.0085203974 0.0073649287
-0.014154941 -0.0087107327 0.0071873963
-0.013274058 -0.0088493722 0.0068214238
-0.012000502 -0.0087276381 0.0062049925
-0.011036417 -0.0088291345 0.005125314
-0.010016194 -0.0089032836 0.0044499338
-0.1135816 -0.0072942306 0.022409886
-0.11120579 -0.0072077829 0.024935752
-0.10909821 -0.0071372655 0.027348787
-0.11033218 -0.0072860876 0.028056473
-0.10778598 -0.007185732 0.028462619
-0.10654858 -0.0071715387 0.028664261
-0.10721175 -0.0072862352 0.028887123
-0.1037882 -0.0071227201 0.028590024
-0.10473047 -0.0072585475 0.0283674
-0.10292084 -0.0072044586 0.028036147
-0.10052757 -0.0071080099 0.028198481
-0.10189695 -0.0072783539 0.028273791
-0.099593349 -0.007187149 0.028276622
-0.098696776 -0.0071966401 0.028580099
-0.098619819 -0.0072667236 0.02856487
-0.095304318 -0.0070971297 0.028424144
-0.096767113 -0.007283546 0.028227389
-0.095221587 -0.0072451206 0.028014034
-0.093642682 -0.0072032833 0.026863575
-0.09249752 -0.0071942513 0.026563406
-0.092312969 -0.0072605708 0.026597798
-0.090747505 -0.0072185518 0.026497155
-0.090732314 -0.007300301 0.025867462
-0.0890591 -0.0072489968 0.025443882
-0.087632582 -0.0072168009 0.025345594
-0.087367103 -0.0072805919 0.024936587
-0.086573333 -0.007301365 0.024524957
-0.084911428 -0.0072485358 0.02442041
-0.084826857 -0.0073307166 0.024252325
-0.082141429 -0.0071873753 0.024228722
-0.082585141 -0.0073176711 0.024139971
-0.082031019 -0.007361758 0.023988754
-0.08048702 -0.0073170015 0.023822576
-0.078909375 -0.0072679683 0.023967773
-0.077987462 -0.0072788298 0.023846835
-0.076547503 -0.0072409799 0.023707658
-0.077525601 -0.0074339611 0.022501886
-0.07472156 -0.0072645959 0.022037894
-0.073617637 -0.0072580772 0.021874249
-0.073566034 -0.0073566036 0.021702558
-0.072951928 -0.0074009201 0.021897972
-0.070939563 -0.0073026018 0.021602035
-0.071355172 -0.0074550174 0.021226406
-0.069151379 -0.007334237 0.021254808
-0.067817859 -0.0073034614 0.021160096
-0.067740835 -0.0074091535 0.021047026
-0.065881088 -0.0073201205 0.020952612
-0.065995604 -0.0074511166 0.020556629
-0.064988621 -0.0074577103 0.020315111
-0.063805781 -0.0074440078 0.019996077
-0.062213611 -0.0073812753 0.019681394
-0.061380498 -0.0074079907 0.018852264
-0.059418 -0.0072969473 0.018747002
-0.059869967 -0.0074837459 0.018294066
-0.057980426 -0.007379327 0.018249065
-0.05745098 -0.0074473489 0.018144816
-0.0564184 -0.0074514868 0.017751843
-0.054309152 -0.0073108473 0.017657697
-0.0543858 -0.0074647171 0.017227352
-0.053762466 -0.0075267451 0.016797692
-0.051795915 -0.0073994165 0.016494751
-0.051308971 -0.0074825585 0.016538471
-0.049896166 -0.0074313437 0.016688257
-0.048330333 -0.0073546157 0.016719967
-0.048078116 -0.0074788174 0.016664624
-0.046518669 -0.0074006971 0.016458839
-0.045194738 -0.0073572826 0.016388893
-0.044937097 -0.0074895164 0.015759677
-0.043445751 -0.0074175671 0.015309542
-0.042442821 -0.0074274936 0.014611989
-0.041735005 -0.007490898 0.01431489
-0.040121049 -0.0073907194 0.013821989
-0.038802523 -0.007341017 0.013431966
-0.038767878 -0.007538199 0.013296187
-0.037384685 -0.0074769375 0.013432145
-0.036206596 -0.0074542994 0.013297617
-0.035776589 -0.0075889737 0.013086557
-0.034168549 -0.0074743698 0.013006657
-0.03347658 -0.0075592278 0.012994111
-0.032007046 -0.0074683111 0.012994111
-0.030533187 -0.0073700794 0.012248009
-0.030597527 -0.0076493816 0.011815697
-0.02927495 -0.0075898012 0.011852533
-0.027576858 -0.007424539 0.011710286
-0.027080217 -0.0075824605 0.010355711
-0.025673807 -0.0074881939 0.010043561
-0.024490071 -0.0074534998 0.0099911392
-0.023968281 -0.0076262713 0.0098429322
-0.02258398 -0.0075279931 0.0095102787
-0.021922918 -0.0076730219 0.0088056624
-0.020432433 -0.0075277388 0.008833766
-0.019379009 -0.0075362814 0.0085074604
-0.018387234 -0.0075712139 0.0081988573
-0.017351273 -0.0075911824 0.0077477098
-0.016113037 -0.0075194179 0.0073020756
-0.015090523 -0.0075452616 0.0078938901
-0.014147681 -0.0076179826 0.0072523952
-0.012794968 -0.0074637313 0.0072442889
-0.012147876 -0.0077304672 0.0066796839
-0.010900414 -0.0076302895 0.0053202808
-0.0097215381 -0.0075611966 0.005084455
-0.11198293 -0.0061641973 0.022487342
-0.11065695 -0.0061476082 0.025105059
-0.10944896 -0.0061373245 0.027394235
-0.10840601 -0.0061361892 0.027942032
-0.10875604 -0.0062146308 0.028462619
-0.10638081 -0.0061373538 0.028671771
-0.10622454 -0.0061878376 0.029130995
-0.10473222 -0.0061607189 0.028470159
-0.10408369 -0.0061831889 0.028352678
-0.10277098 -0.0061662588 0.027985901
-0.10188489 -0.0061748419 0.027857989
-0.10101875 -0.0061848215 0.027933121
-0.099148862 -0.0061329193 0.028253019
-0.098854236 -0.0061783898 0.028375298
-0.097034447 -0.0061284914 0.028562516
-0.097835325 -0.0062448075 0.028314143
-0.096549936 -0.0062290281 0.028085053
-0.093656398 -0.006108026 0.027661949
-0.095572241 -0.0063014659 0.02679038
-0.092913315 -0.0061942204 0.026389658
-0.091251902 -0.006151814 0.026387602
-0.092611209 -0.0063144006 0.026204258
-0.090321183 -0.0062290467 0.025785863
-0.089216344 -0.0062243957 0.025508791
-0.087904654 -0.0062050344 0.025306284
-0.086784087 -0.006198863 0.02515918
-0.084614567 -0.0061167153 0.02475363
-0.086672977 -0.0063419249 0.024518162
-0.084302582 -0.0062446357 0.02451092
-0.083168156 -0.0062376116 0.024370611
-0.081511006 -0.0061907093 0.024228722
-0.080680601 -0.0062062005 0.024128109
-0.080679178 -0.0062866891 0.023898244
-0.079080887 -0.006243228 0.023793817
-0.077114128 -0.0061691296 0.023687869
-0.077659622 -0.0062967259 0.023512781
-0.075505815 -0.0062059569 0.022331595
-0.075186767 -0.0062655644 0.022030085
-0.076062754 -0.0064278385 0.021809071
-0.073106505 -0.0062662717 0.021726042
-0.072403431 -0.0062959506 0.021837831
-0.071285695 -0.0062899138 0.021541893
-0.070435397 -0.0063076476 0.021188617
-0.06916602 -0.0062878202 0.021480113
-0.069670767 -0.0064311475 0.021332443
-0.066483587 -0.0062328363 0.021257162
-0.067416579 -0.0064206263 0.021122754
-0.065112919 -0.0063012498 0.021018863
-0.063733809 -0.006268899 0.020705521
-0.063746817 -0.0063746818 0.020263582
-0.062009681 -0.006306069 0.019776016
-0.060955986 -0.0063057914 0.018911183
-0.060056854 -0.0063217743 0.018670261
-0.05888164 -0.006308747 0.018294066
-0.057155557 -0.0062351516 0.018204689
-0.057404328 -0.0063782586 0.017978191
-0.055994608 -0.0063390122 0.017718464
-0.055364538 -0.0063882158 0.017588258
-0.05401475 -0.0063546761 0.016880959
-0.052025296 -0.0062430352 0.016498357
-0.050929151 -0.006236223 0.016477495
-0.050163291 -0.0062704114 0.016354054
-0.048967537 -0.006251175 0.016433567
-0.049686369 -0.0064808303 0.016664624
-0.048429023 -0.0064572026 0.016469359
-0.046581864 -0.0063520726 0.016435772
-0.046306986 -0.0064614397 0.016195029
-0.045211397 -0.0064587705 0.015666187
-0.042930268 -0.0062824781 0.014595449
-0.043017216 -0.0064525828 0.01457566
-0.041275203 -0.0063500311 0.01431489
-0.040138807 -0.0063377065 0.013747007
-0.039713819 -0.0064400784 0.01348722
-0.038172651 -0.006362109 0.013506532
-0.037220381 -0.0063806372 0.013779759
-0.036600504 -0.006458912 0.013428837
-0.035218596 -0.0064033815 0.01321438
-0.034360513 -0.0064425962 0.013028651
-0.033457205 -0.0064755874 0.012957394
-0.032028403 -0.0064056804 0.012981147
-0.031539593 -0.0065254332 0.012255996
-0.029907361 -0.0064087198 0.011797786
-0.029131599 -0.0064736884 0.011862546
-0.028243933 -0.0065178303 0.011505842
-0.026702521 -0.0064086048 0.010172218
-0.026089663 -0.0065224157 0.009981215
-0.024822857 -0.0064755278 0.0099026561
-0.023551391 -0.0064231069 0.00970909
-0.022578502 -0.006451 0.0091299117
-0.021747218 -0.0065241656 0.0084615648
-0.020715596 -0.0065417672 0.0086664855
-0.019381987 -0.0064606625 0.0083365142
-0.018748345 -0.0066170632 0.007599324
-0.017316887 -0.0064938329 0.0073517561
-0.016344907 -0.0065379622 0.0071908236
-0.015228475 -0.0065264897 0.0075001419
-0.013893967 -0.0064126006 0.0070773065
-0.01296661 -0.0064833048 0.0070570111
-0.011972724 -0.0065305769 0.0066796839
-0.010802726 -0.0064816358 0.0056443214
-0.009793249 -0.0065288325 0.0051229596
-0.11449363 -0.0052520009 0.022540957
-0.11048884 -0.005115224 0.025704563
-0.10862687 -0.0050760219 0.027571648
-0.10819084 -0.0051033418 0.027809709
-0.106487 -0.0050708093 0.028538883
-0.10636583 -0.0051137414 0.028852969
-0.10688478 -0.005188582 0.029130995
-0.10497665 -0.0051459139 0.028555572
-0.10409302 -0.0051531196 0.028419912
-0.10311738 -0.0051558688 0.02810064
-0.10196437 -0.0051497151 0.027922034
-0.10106846 -0.0051565538 0.027985901
-0.10160057 -0.0052371426 0.028256804
-0.09722396 -0.005063748 0.028392881
-0.099117108 -0.0052166898 0.028580099
-0.096332103 -0.0051240479 0.027950764
-0.095581032 -0.0051387651 0.02780503
-0.095960893 -0.0052152658 0.027534604
-0.094807126 -0.0052091824 0.026688188
-0.091952711 -0.0051084836 0.026368409
-0.092616193 -0.0052031567 0.026139349
-0.090607278 -0.0051481407 0.026087135
-0.089401513 -0.0051380182 0.025693625
-0.090116389 -0.0052393251 0.025570899
-0.08809004 -0.0051817666 0.025254637
-0.087558828 -0.0052118348 0.025086552
-0.087833181 -0.0052911551 0.024731547
-0.085103653 -0.0051892465 0.024582118
-0.084281169 -0.0052025416 0.024517715
-0.083371788 -0.0052107368 0.024341047
-0.082033493 -0.0051919934 0.024252325
-0.081378788 -0.0052165887 0.024128109
-0.079787493 -0.0051810057 0.02390489
-0.078427978 -0.0051597352 0.023793817
-0.07877066 -0.0052513769 0.023687869
-0.077276215 -0.0052213655 0.02376169
-0.076515399 -0.0052407803 0.02270335
-0.0756386 -0.0052526807 0.022068948
-0.073695444 -0.0051898197 0.021905303
-0.073836245 -0.0052740173 0.022009522
-0.073703468 -0.0053408309 0.021940649
-0.070564613 -0.0051885741 0.021611989
-0.070534445 -0.0052637644 0.021226406
-0.06934303 -0.00525326 0.021275818
-0.068061434 -0.0052354946 0.02128163
-0.067406714 -0.0052661491 0.021257162
-0.066060439 -0.0052428921 0.02106297
-0.06568291 -0.0052970089 0.020851046
-0.064059503 -0.005250779 0.020818293
-0.063282266 -0.0052735223 0.020111561
-0.062296472 -0.0052793617 0.01940608
-0.061091036 -0.0052664685 0.018792212
-0.060134571 -0.0052749622 0.018564075
-0.059076365 -0.0052746753 0.018394738
-0.058373388 -0.0053066714 0.018151641
-0.056456782 -0.0052274796 0.01789701
-0.056771737 -0.0053558243 0.017565578
-0.055529896 -0.0053394129 0.017219186
-0.054149218 -0.0053087464 0.016849339
-0.05233258 -0.005233258 0.016687512
-0.051933188 -0.0052993046 0.016113341
-0.050106876 -0.0052194661 0.016357183
-0.05005639 -0.0053251474 0.016411126
-0.049197663 -0.0053475718 0.016469359
-0.047361881 -0.0052624308 0.016400248
-0.046775442 -0.0053153909 0.016231149
-0.045974899 -0.0053459182 0.015857249
-0.043982841 -0.005236052 0.015664548
-0.043533526 -0.0053089666 0.01477918
-0.042894918 -0.0053618648 0.014507711
-0.04112751 -0.0052727577 0.014451087
-0.040919777 -0.0053841807 0.01373446
-0.039555684 -0.0053453622 0.013617456
-0.038593687 -0.0053602345 0.013762295
-0.037785009 -0.0053978581 0.013797462
-0.036279526 -0.0053352239 0.013629705
-0.0356429 -0.0054004397 0.01355058
-0.034637857 -0.0054121651 0.013087809
-0.033000425 -0.0053226487 0.013062149
-0.032345053 -0.005390842 0.01328361
-0.031560071 -0.0054413909 0.012557656
-0.030100826 -0.0053751473 0.012118548
-0.029109599 -0.0053906664 0.012118548
-0.027792474 -0.0053447066 0.011618435
-0.026791671 -0.0053583342 0.010923058
-0.026219094 -0.0054623112 0.010333717
-0.024469504 -0.005319457 0.010029465
-0.023615148 -0.0053670788 0.0097390711
-0.022829887 -0.005435687 0.0096515715
-0.021816164 -0.0054540411 0.0087623
-0.020506863 -0.0053965426 0.0086930394
-0.0195789 -0.0054385834 0.0086215734
-0.018413464 -0.0054157246 0.0078263581
-0.017357448 -0.0054242024 0.0075787604
-0.016544702 -0.0055149002 0.0074372888
-0.01508227 -0.0053865248 0.0079306066
-0.014171716 -0.0054506599 0.0072523952
-0.013037993 -0.0054324968 0.0071905553
-0.011776031 -0.0053527416 0.0068570971
-0.01097681 -0.005488405 0.0058126748
-0.0097447596 -0.0054137558 0.0052623749
-0.008804868 -0.0055030426 0.0045606792
-0.11431707 -0.004195122 0.022540957
-0.10863538 -0.0040235324 0.025704563
-0.11147845 -0.0041674185 0.027571648
-0.10898711 -0.004112721 0.027888805
-0.1065703 -0.0040598209 0.028647125
-0.10751627 -0.0041352413 0.028966397
-0.10578072 -0.0041079894 0.029137433
-0.10423817 -0.0040877718 0.028896064
-0.10511679 -0.0041630412 0.028803676
-0.10210861 -0.004084344 0.028637528
-0.1013694 -0.0040957332 0.028036773
-0.10116979 -0.0041293795 0.028326571
-0.099562809 -0.004105683 0.028303832
-0.099190198 -0.0041329251 0.028557807
-0.097930618 -0.0041233944 0.028599203
-0.095871583 -0.0040796418 0.028135657
-0.095605679 -0.0041120723 0.027814537
-0.096242271 -0.0041844463 0.027572483
-0.092607677 -0.0040706671 0.027081043
-0.093893223 -0.004173032 0.026342958
-0.092279665 -0.0041474011 0.026103079
-0.090164274 -0.0040983763 0.026019335
-0.091679446 -0.0042151473 0.025734663
-0.089775331 -0.0041755969 0.025573164
-0.08841686 -0.0041607935 0.025159359
-0.087526098 -0.0041679093 0.025029093
-0.085917898 -0.0041406215 0.024939775
-0.085355736 -0.0041636941 0.024693817
-0.085653313 -0.0042297933 0.02452293
-0.082077824 -0.0041038916 0.02450794
-0.082328692 -0.0041685416 0.02426824
-0.080041289 -0.0041046813 0.024005294
-0.079425439 -0.004125997 0.023882389
-0.080246545 -0.0042235022 0.024021804
-0.078561552 -0.0041899495 0.023717672
-0.076080412 -0.0041124546 0.02363646
-0.076570027 -0.004195618 0.022939265
-0.075109228 -0.0041727354 0.021691382
-0.074025661 -0.0041704602 0.021947056
-0.074056886 -0.0042318222 0.021865606
-0.072229549 -0.0041872202 0.021865636
-0.071523011 -0.0042072358 0.021437675
-0.070721708 -0.0042221914 0.021164984
-0.068332456 -0.004141361 0.021226406
-0.067656457 -0.0041634743 0.021158874
-0.066942319 -0.004183895 0.021055639
-0.066172294 -0.0042014155 0.02106297
-0.065987304 -0.0042572455 0.020878673
-0.064973108 -0.0042605321 0.020818293
-0.063056082 -0.0042037386 0.019887358
-0.062451214 -0.0042339806 0.01940608
-0.061176706 -0.0042190831 0.01890856
-0.059781834 -0.0041952166 0.018826276
-0.060082287 -0.0042915922 0.018679082
-0.058052745 -0.0042220177 0.018326849
-0.056556232 -0.0041893506 0.018216133
-0.056302387 -0.004249237 0.017729789
-0.054978065 -0.0042290823 0.017418027
-0.054230914 -0.0042534047 0.017205775
-0.053289961 -0.0042631966 0.016937017
-0.052234139 -0.0042640115 0.016619742
-0.050820194 -0.0042350162 0.01659137
-0.049499933 -0.0042127604 0.016469359
-0.048198719 -0.0041911928 0.016518652
-0.048083011 -0.0042740456 0.016457051
-0.04671808 -0.0042470982 0.016271114
-0.045686819 -0.0042499369 0.016060442
-0.044730287 -0.0042600273 0.015884906
-0.043435264 -0.0042375866 0.015360087
-0.042306401 -0.0042306404 0.015045702
-0.041762937 -0.0042833779 0.014464259
-0.040411167 -0.004253807 0.014142811
-0.039453451 -0.0042652376 0.013838649
-0.039021067 -0.0043356745 0.013821989
-0.037724406 -0.0043113609 0.01401335
-0.036152467 -0.0042532315 0.013578832
-0.035381202 -0.0042886306 0.013171375
-0.034032013 -0.0042540017 0.01290524
-0.033387668 -0.0043080864 0.012879997
-0.031886294 -0.0042515057 0.012961
-0.030740891 -0.0042401226 0.012236655
-0.030352019 -0.0043360027 0.011785299
-0.028929736 -0.0042858869 0.011797786
-0.027698336 -0.0042612827 0.01150921
-0.02733098 -0.0043729567 0.01082617
-0.025891168 -0.0043151947 0.010557026
-0.024689998 -0.0042939126 0.0098136067
-0.024077894 -0.0043777991 0.0094674528
-0.022375325 -0.0042619663 0.0089902282
-0.021584153 -0.0043168305 0.0083877742
-0.020581499 -0.0043329471 0.0085244179
-0.01924176 -0.0042759469 0.0084771812
-0.018349774 -0.0043175938 0.007763505
-0.017378405 -0.0043446012 0.0075401366
-0.016347753 -0.0043594008 0.0075401366
-0.01524137 -0.0043546772 0.0078954697
-0.013933653 -0.0042872778 0.0072443187
-0.012867957 -0.0042893193 0.0072080493
-0.012074709 -0.0043908032 0.0068570971
-0.010964927 -0.004385971 0.0057171583
-0.0097192489 -0.0043196664 0.0053988695
-0.0087446431 -0.0043723215 0.0044191778
-0.11374229 -0.0031305216 0.021509588
-0.11191172 -0.0031086588 0.025467843
-0.110466 -0.0030971775 0.027484268
-0.10755864 -0.0030441124 0.028016925
-0.10696261 -0.0030560745 0.028329343
-0.10748164 -0.003100432 0.028728843
-0.10515644 -0.0030628091 0.029024333
-0.10550588 -0.0031031142 0.028441459
-0.10390087 -0.0030861646 0.028019845
-0.10219353 -0.0030658056 0.027600288
-0.10193401 -0.0030889092 0.027451932
-0.099453963 -0.0030445091 0.027583301
-0.099869505 -0.0030887476 0.027842045
-0.099220708 -0.0031006471 0.028142422
-0.09784811 -0.0030899402 0.028406143
-0.098585233 -0.0031463373 0.028072953
-0.095436431 -0.0030785946 0.027780086
-0.093789637 -0.0030583576 0.027486026
-0.095233642 -0.0031395704 0.026938558
-0.093825571 -0.0031275188 0.026323915
-0.093319833 -0.0031456123 0.026103079
-0.091617748 -0.0031233323 0.0260894
-0.091033414 -0.0031390833 0.025738567
-0.088649362 -0.0030924196 0.025683016
-0.088565722 -0.0031258489 0.025306493
-0.086806141 -0.0031002192 0.025176227
-0.086360708 -0.0031214713 0.025012046
-0.085700393 -0.0031353801 0.024781317
-0.083147667 -0.0030795434 0.024642289
-0.082548305 -0.0030955614 0.024408042
-0.08222647 -0.0031225241 0.024241209
-0.081779487 -0.0031453648 0.024107665
-0.080256984 -0.0031268953 0.024041772
-0.079119198 -0.0031231262 0.024118423
-0.077866532 -0.0031146612 0.023789823
-0.077612713 -0.0031464612 0.023442656
-0.076659217 -0.0031503786 0.022640705
-0.075400308 -0.0031416796 0.021757931
-0.075267628 -0.0031803222 0.021577954
-0.073045217 -0.0031305093 0.021766782
-0.072214499 -0.0031397608 0.021905303
-0.0713038 -0.0031457557 0.021491855
-0.07040491 -0.0031524587 0.021122187
-0.069644198 -0.0031656455 0.021188617
-0.069422208 -0.0032041019 0.021102935
-0.066897504 -0.0031358206 0.0209997
-0.067304492 -0.0032049757 0.020817697
-0.065174319 -0.0031535961 0.020752192
-0.063452266 -0.0031206033 0.020582646
-0.063317925 -0.0031658963 0.019693881
-0.061961416 -0.0031505805 0.019173443
-0.060985528 -0.0031544238 0.018869489
-0.060357727 -0.0031767224 0.018564075
-0.059221283 -0.0031725685 0.018456548
-0.058180235 -0.0031734672 0.018262357
-0.057666861 -0.0032037143 0.017978191
-0.055582784 -0.0031461953 0.017796367
-0.054636534 -0.0031521076 0.017676532
-0.0543493 -0.0031970176 0.017157555
-0.053003717 -0.0031802228 0.016937017
-0.051935744 -0.0031797395 0.016456306
-0.050943337 -0.0031839586 0.01641947
-0.048527606 -0.0030975067 0.016407758
-0.049481519 -0.0032270555 0.016467124
-0.04778685 -0.0031857898 0.016449541
-0.046249732 -0.0031533909 0.01623413
-0.046334311 -0.0032326262 0.016076595
-0.044909544 -0.0032078244 0.015886277
-0.042724952 -0.0031262157 0.015495837
-0.042710174 -0.003203263 0.015114844
-0.041886911 -0.0032220699 0.014940321
-0.040663462 -0.0032102733 0.014451087
-0.039281327 -0.0031849723 0.014346778
-0.038849205 -0.003237434 0.014235646
-0.03702366 -0.0031734568 0.014513731
-0.036812201 -0.0032481353 0.013961762
-0.034958847 -0.0031780771 0.013256907
-0.034571506 -0.0032410785 0.012826949
-0.03302091 -0.0031955719 0.012402117
-0.031801254 -0.0031801255 0.012479037
-0.031415261 -0.0032498545 0.01220125
-0.029983109 -0.0032124759 0.011506975
-0.028716836 -0.0031907593 0.011507601
-0.028086524 -0.0032407527 0.010963589
-0.026596749 -0.0031916096 0.010733098
-0.026150286 -0.0032687858 0.010157645
-0.024866946 -0.0032435146 0.010005414
-0.023937782 -0.0032642432 0.0093330741
-0.022854043 -0.003264863 0.0094668567
-0.02183187 -0.0032747805 0.0089837909
-0.020434983 -0.0032265761 0.0087901056
-0.019120477 -0.0031867465 0.0087901056
-0.018489983 -0.003262938 0.0081360042
-0.01725206 -0.0032347613 0.0077090263
-0.016202791 -0.0032405581 0.0077090263
-0.015184544 -0.0032538308 0.0078665614
-0.014037742 -0.0032394791 0.0072897077
-0.013032062 -0.0032580155 0.0071724951
-0.012033405 -0.0032818376 0.0067513883
-0.010590905 -0.0031772715 0.0055401921
-0.0097809071 -0.0032603026 0.0051549375
-0.0087165479 -0.0032687054 0.004152298
-0.11510979 -0.0021121062 0.02215299
-0.11010143 -0.0020389154 0.025635123
-0.10913774 -0.0020399578 0.027407408
-0.10867854 -0.0020505385 0.027797788
-0.10905107 -0.0020771632 0.028540671
-0.10663626 -0.0020506973 0.028866261
-0.10629532 -0.0020639871 0.028912127
-0.10410324 -0.00204124 0.028457493
-0.10428455 -0.0020650406 0.028095812
-0.10281615 -0.002056323 0.027523607
-0.10179488 -0.002056462 0.027462155
-0.099704996 -0.0020347959 0.02750662
-0.10098033 -0.0020820687 0.027583301
