ply
format ascii 1.0
comment PCL generated
element vertex 1287
property float x
property float y
property float z
element camera 0
property float view_px
property float view_py
property float view_pz
property float x_axisx
property float x_axisy
property float x_axisz
property float y_axisx
property float y_axisy
property float y_axisz
property float z_axisx
property float z_axisy
property float z_axisz
property float focal
property float scalex
property float scaley
property float centerx
property float centery
property int viewportx
property int viewporty
property float k1
property float k2
end_header
-0.064479902 0.028540285 0.01255396
-0.064272895 0.028922804 0.012560874
-0.062968895 0.028816273 0.012476593
-0.061563995 0.028659102 0.012162775
-0.061354589 0.029062701 0.011650771
-0.059880584 0.028870996 0.011919826
-0.058642261 0.028788019 0.011625409
-0.057976142 0.028988071 0.011446834
-0.056329753 0.028696291 0.011189461
-0.055661149 0.028900983 0.011189461
-0.054691061 0.028954092 0.011104822
-0.053801291 0.029052697 0.010951996
-0.052975014 0.029190315 0.010760814
-0.051628079 0.029040795 0.010772198
-0.049902696 0.028667506 0.010962963
-0.049408153 0.029000439 0.010798872
-0.048257794 0.028954677 0.010685146
-0.046807159 0.028722575 0.010560751
-0.046600949 0.029261062 0.010616392
-0.044685412 0.028726337 0.010403872
-0.043699618 0.028777797 0.010389328
-0.043186814 0.029151101 0.0099713206
-0.041770257 0.028917871 0.0096474588
-0.04099657 0.029129142 0.0099388957
-0.039814875 0.029054098 0.0098018646
-0.039070364 0.029302774 0.0095919371
-0.037647638 0.029042464 0.0089884996
-0.036794137 0.029218875 0.0089829862
-0.035123091 0.028737076 0.008870244
-0.034843788 0.029399445 0.0085752606
-0.033483204 0.029162791 0.0083996058
-0.032316394 0.029084757 0.0083307326
-0.031111149 0.028965553 0.0085054636
-0.030166 0.029088644 0.0084995031
-0.028687151 0.028687151 0.0082454085
-0.028055381 0.029134436 0.0081787705
-0.027036758 0.029199699 0.0080837309
-0.025838258 0.029068042 0.0077522099
-0.024844898 0.029165749 0.0073850751
-0.023567539 0.0289238 0.0069023967
-0.022570737 0.029019518 0.0067864358
-0.021845013 0.029490771 0.0066964924
-0.020556683 0.029212128 0.0063808858
-0.019525124 0.029287688 0.0058540106
-0.018479597 0.029349949 0.0060479343
-0.017054899 0.028780144 0.0059897602
-0.01630968 0.029357426 0.0058968663
-0.01521693 0.029346937 0.0058148801
-0.013998394 0.029073589 0.005402863
-0.013013813 0.02928108 0.0052728355
-0.011831845 0.029041803 0.0048431456
-0.01069489 0.028876204 0.0040266514
-0.11515867 0.029313115 0.011400729
-0.11593716 0.029782021 0.014451504
-0.11293496 0.029279433 0.015489548
-0.11241184 0.029416181 0.01576224
-0.11191017 0.029561177 0.016258121
-0.11051468 0.029470582 0.016456127
-0.10884911 0.029305529 0.016461402
-0.10928751 0.029709226 0.016542047
-0.10707065 0.029391941 0.016435623
-0.10582172 0.029336713 0.01601994
-0.10764493 0.030140581 0.016182214
-0.10500535 0.029698484 0.015936375
-0.10330988 0.02951711 0.016003758
-0.1030942 0.02975915 0.015969276
-0.10155546 0.029620344 0.016344994
-0.10143689 0.029897189 0.016081661
-0.099495374 0.029636919 0.016016006
-0.098546334 0.029669864 0.015528053
-0.098178118 0.029880296 0.015369177
-0.096440189 0.029673902 0.015234053
-0.095191129 0.029615017 0.015379846
-0.095626168 0.030084638 0.015094876
-0.09349294 0.029747754 0.015108317
-0.092090689 0.029638382 0.015108317
-0.091835968 0.029900083 0.014847398
-0.089620635 0.029522091 0.014739215
-0.088015735 0.029338578 0.014387012
-0.088954158 0.030008631 0.014346272
-0.086420603 0.029509474 0.014651775
-0.085775286 0.029650716 0.014581203
-0.085229546 0.029830342 0.014440298
-0.08341217 0.029563807 0.014606565
-0.083931923 0.03012941 0.01463145
-0.081905462 0.029783806 0.014552832
-0.08022029 0.029554844 0.014031053
-0.081505574 0.030428747 0.013977736
-0.079441205 0.030058835 0.013898224
-0.077567957 0.029752091 0.013684303
-0.077284515 0.030055091 0.013518095
-0.075329676 0.02970748 0.012956262
-0.074405156 0.029762063 0.012562603
-0.074274711 0.030140463 0.012180239
-0.072690278 0.029931292 0.011884868
-0.071513876 0.029886397 0.011784196
-0.07080365 0.030037913 0.011872828
-0.069430709 0.029908614 0.012453586
-0.068654537 0.03003636 0.012207091
-0.067002147 0.029778732 0.012205869
-0.065781035 0.029707562 0.012290716
-0.065059707 0.029863471 0.012235403
-0.064132199 0.02992836 0.01229611
-0.06242932 0.029627474 0.012235403
-0.061511781 0.029695341 0.01188612
-0.061004471 0.029967109 0.011632591
-0.059391491 0.029695746 0.011919826
-0.059016891 0.030044962 0.011464357
-0.057608325 0.029870981 0.011193722
-0.056850825 0.030034399 0.011132807
-0.055701971 0.029993368 0.011308104
-0.054746475 0.030056888 0.011333346
-0.053810336 0.030133786 0.01107043
-0.052871417 0.030212238 0.010747999
-0.051228009 0.029883007 0.010865897
-0.050592773 0.030140374 0.011026353
-0.049708366 0.030257266 0.010931641
-0.048067395 0.029908599 0.010685146
-0.047921937 0.03049578 0.010607839
-0.046293993 0.030144926 0.010579616
-0.044761699 0.029841131 0.010562301
-0.044267803 0.030231668 0.010369182
-0.042658973 0.029861283 0.0099507868
-0.041732483 0.029961782 0.0099317431
-0.040955104 0.030177444 0.0097214878
-0.03941818 0.029829971 0.0092186034
-0.038265489 0.029762046 0.0090109706
-0.037611555 0.030089244 0.0088848472
-0.036847651 0.030345123 0.008880049
-0.035311177 0.029960999 0.0087077022
-0.034573983 0.030252235 0.0083429813
-0.033099629 0.029896438 0.0084085166
-0.032269046 0.030117774 0.0082933605
-0.03123429 0.030157244 0.0084863901
-0.030086108 0.030086108 0.0084863901
-0.029300025 0.030385209 0.0084640682
-0.027834391 0.029975498 0.0081627369
-0.026930461 0.030162117 0.008140415
-0.025889227 0.030204099 0.0081084371
-0.024646519 0.030004457 0.00772506
-0.023612957 0.030052856 0.0075004101
-0.022689344 0.030252459 0.0073027313
-0.021566689 0.030193366 0.0070461333
-0.020419262 0.030091545 0.0065643489
-0.019667262 0.03059352 0.0058773458
-0.018163405 0.029916197 0.0060682893
-0.017520711 0.030661244 0.006133914
-0.016264042 0.030359546 0.0058131516
-0.014993906 0.029987812 0.005784899
-0.014234683 0.030659316 0.0051933527
-0.012924767 0.03015779 0.0051614642
-0.011876641 0.03023145 0.0048431456
-0.11695255 0.030832946 0.012950212
-0.11595001 0.030849086 0.014330864
-0.11294167 0.030326929 0.015226364
-0.11361929 0.030794013 0.015641093
-0.112384 0.030746568 0.015820235
-0.10939676 0.030214345 0.016281664
-0.11094325 0.0309361 0.016281664
-0.10864443 0.03058921 0.016355246
-0.10732937 0.030515213 0.016432732
-0.10827005 0.03108744 0.01601994
-0.10397431 0.030152548 0.016179323
-0.10423376 0.030533122 0.015936375
-0.10293366 0.030459963 0.01582101
-0.10265837 0.03069168 0.016033381
-0.10145327 0.030647343 0.016327739
-0.10052598 0.030686878 0.016127974
-0.098126166 0.030272966 0.016155005
-0.098077968 0.030583452 0.015839815
-0.098019801 0.030897547 0.015625745
-0.095322922 0.030377636 0.01543501
-0.095484823 0.030767331 0.01540038
-0.094399959 0.030759539 0.015246272
-0.093414418 0.030784298 0.015215784
-0.092421539 0.03080718 0.015145212
-0.090756722 0.030604012 0.014886558
-0.089696459 0.030602321 0.014841288
-0.090725824 0.03132201 0.014461935
-0.087821923 0.030684769 0.014421195
-0.086948223 0.03074998 0.014975429
-0.086668454 0.03102945 0.014726698
-0.083645277 0.030321414 0.014911652
-0.084274717 0.030936291 0.014808208
-0.082590513 0.030706732 0.01461643
-0.08052101 0.030326096 0.014501303
-0.081083022 0.030939575 0.01399225
-0.079828247 0.030866923 0.01417914
-0.078462802 0.030748935 0.013997108
-0.078384534 0.031139061 0.013812035
-0.07706438 0.031039821 0.013513505
-0.075584598 0.030872583 0.013093978
-0.075637892 0.0313357 0.012562603
-0.073228046 0.030777005 0.012136489
-0.07324858 0.031238366 0.011849761
-0.07177484 0.031066723 0.011581004
-0.069939904 0.030731173 0.011638373
-0.069602117 0.031053254 0.012290537
-0.068408214 0.030997474 0.012182534
-0.066384971 0.03055816 0.012182534
-0.066909902 0.03129657 0.012215823
-0.065239146 0.031015335 0.012095153
-0.063626684 0.030752897 0.012155861
-0.063149773 0.03103972 0.012095153
-0.06176642 0.03088321 0.011878431
-0.060908079 0.030988323 0.011657953
-0.060018659 0.031081092 0.011779279
-0.058628846 0.030913392 0.011648536
-0.057510417 0.030885225 0.011249483
-0.057131708 0.031260747 0.011087865
-0.055359829 0.030873751 0.011121422
-0.054515399 0.030998953 0.011273295
-0.05381301 0.031211548 0.010994613
-0.052264672 0.030932156 0.010980785
-0.051882811 0.031345867 0.010985613
-0.050359651 0.031072978 0.011090636
-0.048765827 0.030743673 0.011191428
-0.048673622 0.031367447 0.011161029
-0.047296442 0.031172656 0.010962963
-0.045750245 0.030854817 0.011026353
-0.045373708 0.031329464 0.010662973
-0.044163298 0.031237453 0.010625452
-0.042845137 0.031062726 0.010288626
-0.041831389 0.031105392 0.010058671
-0.040565994 0.030958259 0.0096774995
-0.039498638 0.03095839 0.0095900297
-0.038884599 0.031323705 0.0093769133
-0.037961185 0.031453554 0.0089285374
-0.036089137 0.030781912 0.0089223683
-0.035670992 0.031347238 0.008500874
-0.034356445 0.031135529 0.0086005032
-0.033785522 0.031605814 0.0083429813
-0.032277912 0.031201983 0.0082721114
-0.031241098 0.031241098 0.0084292591
-0.030096089 0.031170951 0.0083649457
-0.029350558 0.031524673 0.0084305406
-0.027840525 0.031052893 0.0083250105
-0.026965164 0.03127959 0.0081668198
-0.025787037 0.031159338 0.008158952
-0.024630994 0.031056469 0.0078200102
-0.023912044 0.031520426 0.0073611438
-0.022458317 0.031013865 0.0071495771
-0.02145962 0.03111645 0.0069050193
-0.020407572 0.0311484 0.0065643489
-0.019224163 0.030972265 0.0062102973
-0.018434955 0.031447865 0.006275475
-0.017437885 0.031606164 0.0061902404
-0.016028706 0.030988831 0.0060179532
-0.015152073 0.031386439 0.0059706271
-0.014071753 0.031390835 0.0054930747
-0.012824 0.030991334 0.0054084957
-0.012017645 0.031682882 0.004869163
-0.010870519 0.031524509 0.00422737
-0.11793242 0.032163389 0.013096571
-0.11360214 0.031266645 0.014128476
-0.1145013 0.031805914 0.015173674
-0.11242431 0.031520832 0.015503883
-0.10934251 0.030945994 0.015970916
-0.11037857 0.031536736 0.016224474
-0.10968155 0.031638909 0.01619038
-0.10809799 0.03148485 0.016283423
-0.10799011 0.031761795 0.015981495
-0.1061789 0.031538285 0.015950739
-0.10462304 0.031386912 0.015946448
-0.10598658 0.032117143 0.015429556
-0.10426459 0.031917732 0.015593022
-0.10199852 0.031545933 0.015740842
-0.10128808 0.031652525 0.016057521
-0.09995205 0.031563804 0.016008794
-0.099767439 0.031840671 0.015876681
-0.098286755 0.031705406 0.015538603
-0.096486934 0.031463131 0.015492707
-0.095630072 0.031526398 0.01531148
-0.096183673 0.032061223 0.015357584
-0.093480043 0.031510126 0.015305489
-0.094385885 0.032177005 0.015257865
-0.092684522 0.031960178 0.01522401
-0.090224393 0.031473625 0.014971346
-0.089903183 0.031730536 0.015084445
-0.088810213 0.031717934 0.01474607
-0.087529726 0.031637248 0.014583558
-0.08807113 0.032221142 0.014975429
-0.085504189 0.03166822 0.014981419
-0.08496625 0.031862345 0.014911652
-0.084481359 0.032081529 0.014788181
-0.082115024 0.031582702 0.014706641
-0.082626462 0.03219213 0.014319032
-0.081282072 0.032085028 0.013958335
-0.078823432 0.031529374 0.013981044
-0.079740956 0.032327414 0.013485491
-0.076999374 0.031643577 0.013321847
-0.076865397 0.032027248 0.013327807
-0.076548912 0.032344609 0.012779176
-0.074592963 0.031968411 0.012245208
-0.073467225 0.031942271 0.01206097
-0.072701491 0.032074187 0.011638373
-0.071219578 0.031889364 0.011581004
-0.070945114 0.032247782 0.011613816
-0.069620892 0.032132722 0.012207091
-0.067585133 0.031680532 0.012172878
-0.067954935 0.032359492 0.012182534
-0.066290639 0.032076117 0.012213171
-0.064208053 0.031577732 0.011871129
-0.06370908 0.03185454 0.011941642
-0.06289354 0.031979766 0.011941642
-0.061811171 0.031971294 0.012045175
-0.061837334 0.032545965 0.011454761
-0.059512123 0.031881496 0.011331856
-0.058446001 0.031879637 0.011331856
-0.057939362 0.032188535 0.0111413
-0.056485631 0.031973001 0.011086643
-0.055657137 0.032109886 0.011057615
-0.055059291 0.032387819 0.011057615
-0.053411096 0.032046657 0.011218667
-0.052571673 0.032186739 0.010994613
-0.051459026 0.032161891 0.010982901
-0.049859501 0.031825215 0.011198938
-0.049365561 0.032194931 0.011296004
-0.048452713 0.032301806 0.01109764
-0.046577796 0.031757589 0.011049479
-0.046397079 0.032370057 0.011136949
-0.045261342 0.03232953 0.010859668
-0.043565027 0.031876847 0.010691971
-0.042825259 0.032118943 0.010522723
-0.041755341 0.032119494 0.01030618
-0.04103478 0.032395877 0.009868741
-0.040264346 0.032646764 0.0096875727
-0.03862026 0.03218355 0.0094504356
-0.037379727 0.032039765 0.009229362
-0.0367397 0.032417383 0.0091362
-0.035044555 0.031858686 0.0088245869
-0.034753617 0.032581516 0.0085478127
-0.03312723 0.032058608 0.0086475015
-0.032184709 0.032184709 0.0083637536
-0.030990934 0.032059584 0.0084966421
-0.030144947 0.032298159 0.0083429813
-0.028968455 0.032187171 0.0083355606
-0.028191982 0.032529209 0.0083429813
-0.027242433 0.03269092 0.0081697702
-0.026043078 0.032553848 0.0082240403
-0.024958791 0.032554943 0.0077905655
-0.023540357 0.032100488 0.0071271658
-0.02251159 0.032159414 0.0068292022
-0.021933027 0.03289954 0.0067252815
-0.020443076 0.032278541 0.0064131021
-0.019641597 0.032735996 0.006260246
-0.018409893 0.032488044 0.0061693788
-0.017310262 0.032456741 0.0062556863
-0.016373027 0.032746054 0.0059563518
-0.015123776 0.032408092 0.0060485005
-0.013955408 0.032204788 0.0057558715
-0.012980646 0.032451615 0.0054464936
-0.011891752 0.032432053 0.0048314929
-0.010701974 0.032105923 0.0041815937
-0.11586723 0.032653496 0.0130665
-0.11670269 0.033190671 0.014165133
-0.1148044 0.032953113 0.015060127
-0.11192045 0.032425553 0.015411466
-0.11216415 0.032802727 0.015506506
-0.11108768 0.032797318 0.016047508
-0.1091847 0.032545444 0.01608029
-0.1105351 0.033267848 0.015972823
-0.10815117 0.032869473 0.015924364
-0.10655296 0.032704376 0.015851974
-0.10552459 0.032712623 0.015795857
-0.10493923 0.032859758 0.015429556
-0.10297268 0.032572992 0.015655667
-0.10341894 0.033051416 0.015587032
-0.10078747 0.032545954 0.016171068
-0.10083893 0.032905336 0.016081661
-0.10007222 0.033002544 0.016171902
-0.09748698 0.032495659 0.015929848
-0.098350331 0.033139788 0.015688777
-0.097846434 0.033332299 0.015551388
-0.094260395 0.03246747 0.015509367
-0.094836526 0.03303295 0.015305489
-0.092764564 0.032678429 0.015251875
-0.09215603 0.032837208 0.015207529
-0.091169119 0.032863289 0.014880449
-0.090918146 0.033158384 0.014841288
-0.088734105 0.032747112 0.014542073
-0.088502064 0.033054989 0.014897943
-0.086648487 0.032757353 0.014993101
-0.086169206 0.032978341 0.0152964
-0.085704356 0.033210441 0.015032798
-0.083674297 0.032834221 0.015066713
-0.082700491 0.032868143 0.014978528
-0.081889607 0.032968543 0.014713049
-0.079714671 0.032515198 0.013940394
-0.08011771 0.03311532 0.013914168
-0.078292936 0.032798391 0.013463497
-0.076924123 0.032666408 0.013155013
-0.077553533 0.033391107 0.013087064
-0.075850546 0.033117846 0.01233229
-0.074168414 0.032846011 0.012165844
-0.075099051 0.033740155 0.012025118
-0.072631039 0.033111207 0.011768132
-0.071085922 0.032890502 0.011796474
-0.070417337 0.033074811 0.011638373
-0.069206268 0.033006068 0.012476325
-0.069251679 0.033543784 0.012465715
-0.067529947 0.033229023 0.012442112
-0.065417908 0.032708954 0.012372345
-0.066003621 0.033542823 0.011989146
-0.064213142 0.033176791 0.012130082
-0.062771864 0.032981828 0.012175918
-0.062469725 0.033388991 0.012106031
-0.061486199 0.033439863 0.011585534
-0.059403282 0.032883961 0.011658907
-0.058736581 0.033106074 0.011478841
-0.057180271 0.032825712 0.011197209
-0.056194011 0.032868195 0.011049151
-0.056157779 0.033478677 0.010990232
-0.054286249 0.032997523 0.010990232
-0.053214122 0.032992754 0.01108849
-0.052665353 0.0333189 0.011041582
-0.050727952 0.032761805 0.010994613
-0.050466001 0.033286087 0.011322111
-0.049170181 0.033136427 0.011068791
-0.04811741 0.033147551 0.010777384
-0.047353465 0.033362672 0.010757238
-0.046222039 0.033322867 0.010732383
-0.044742428 0.033024173 0.010651827
-0.044238746 0.033448808 0.010603607
-0.042776089 0.03315147 0.010428578
-0.041506801 0.032992586 0.010363609
-0.040806286 0.033289339 0.0098247826
-0.039461635 0.033062451 0.0095056295
-0.03861082 0.033248208 0.0093653202
-0.037974697 0.03363473 0.0092029274
-0.03637442 0.033164915 0.0091186166
-0.035501827 0.033350203 0.0089223683
-0.034260329 0.033189692 0.0085243583
-0.033102203 0.033102203 0.0085478127
-0.032756999 0.0338489 0.0086153746
-0.031225992 0.03337951 0.008648783
-0.029765684 0.032954868 0.0083350241
-0.0292283 0.033558421 0.0083305538
-0.028161423 0.033577085 0.0083916783
-0.02676402 0.033187386 0.0082206428
-0.026214389 0.033860255 0.0082818568
-0.024741892 0.033347767 0.007948786
-0.023589326 0.033239506 0.0076188445
-0.022900011 0.033804778 0.0071241856
-0.021276772 0.032978997 0.0069998503
-0.020669967 0.033724684 0.0067499578
-0.019360216 0.033342596 0.0063881278
-0.018183379 0.033157926 0.006421268
-0.017396403 0.033705533 0.0063814521
-0.016202256 0.033484664 0.0061693788
-0.015135375 0.033514045 0.0062423944
-0.014169199 0.033788092 0.0059521794
-0.01296798 0.033500616 0.0056828558
-0.011948994 0.033674441 0.0052392185
-0.010676852 0.033098243 0.0044688284
-0.11796756 0.034317836 0.012964904
-0.11619551 0.034112446 0.014050066
-0.11239372 0.033301841 0.014742494
-0.11298715 0.033790547 0.015010118
-0.11267312 0.034014527 0.01539129
-0.11009799 0.033553675 0.016047508
-0.11037014 0.033960044 0.015982658
-0.10793158 0.033532143 0.015755683
-0.10617849 0.033310898 0.015676349
-0.10674173 0.033819161 0.015743226
-0.10505693 0.033618215 0.015609413
-0.10439993 0.03374543 0.015411973
-0.10351496 0.033800807 0.015506357
-0.10201871 0.033655658 0.01572001
-0.10188109 0.033960365 0.01608485
-0.10065167 0.033903722 0.016111195
-0.097923093 0.033335522 0.016222984
-0.098845556 0.034011375 0.016083658
-0.097890556 0.034048889 0.015759945
-0.094510823 0.033234574 0.015551388
-0.095844164 0.034077924 0.015492707
-0.094179824 0.033862408 0.01543501
-0.092559159 0.033657879 0.015630096
-0.093141384 0.034258898 0.015345365
-0.090651169 0.033730667 0.014993101
-0.089804344 0.033808693 0.014948756
-0.090111718 0.034328274 0.014938533
-0.087902509 0.033890121 0.014941245
-0.086925209 0.033922032 0.014993101
-0.0872292 0.034460917 0.014993101
-0.083961971 0.033584792 0.014811009
-0.085170865 0.034499593 0.014943749
-0.083238706 0.034149215 0.014687389
-0.081460476 0.033853706 0.014166802
-0.081260934 0.03421513 0.013539463
-0.080685094 0.034425639 0.013816684
-0.077685408 0.033593688 0.013564795
-0.078673176 0.034486871 0.012772411
-0.076151825 0.033845257 0.012703836
-0.075232729 0.033907712 0.012417465
-0.075034522 0.034301497 0.01206097
-0.073629871 0.034147184 0.01187554
-0.071838893 0.033806536 0.011540681
-0.072205111 0.034486022 0.011556447
-0.070578091 0.034219682 0.011601776
-0.069579169 0.034254361 0.012132883
-0.068397187 0.034198593 0.011883616
-0.066949621 0.034006156 0.012087971
-0.066396058 0.034268931 0.012165666
-0.064920664 0.034056742 0.011867046
-0.06365262 0.033948068 0.011724442
-0.063309781 0.034337509 0.011999339
-0.062161189 0.034295827 0.011907727
-0.060071494 0.033724349 0.011432767
-0.059917774 0.03423873 0.011342496
-0.058519956 0.034047976 0.011181682
-0.057923954 0.034325305 0.01100412
-0.057492614 0.034712523 0.010939062
-0.055532619 0.034173921 0.010785669
-0.054125119 0.033960856 0.010888338
-0.053505443 0.034243483 0.01111272
-0.052223574 0.034105193 0.011182368
-0.051847946 0.034565296 0.011156112
-0.050314393 0.034256607 0.011346042
-0.048807912 0.033953328 0.011218727
-0.048450597 0.034453757 0.011070818
-0.047564965 0.034592703 0.011001408
-0.045573812 0.033915397 0.01100108
-0.045505609 0.034670942 0.010910839
-0.04390046 0.034263771 0.01068449
-0.042929891 0.034343913 0.010573626
-0.042308014 0.034714267 0.010247767
-0.040681105 0.034257773 0.0098978579
-0.039355449 0.034037143 0.0098204613
-0.038616404 0.034325693 0.0095056295
-0.037687577 0.034457214 0.009339273
-0.0363447 0.034206778 0.0092288554
-0.03577479 0.034690708 0.0089553595
-0.03409468 0.03409468 0.0088797808
-0.033437673 0.034516305 0.0091946125
-0.032303307 0.03445686 0.0088575482
-0.030996639 0.034203187 0.00881055
-0.030162256 0.03447115 0.0086741447
-0.029196408 0.034603149 0.0085816681
-0.027700182 0.034092534 0.0086937845
-0.027407907 0.03508212 0.0084295571
-0.025488483 0.033984646 0.0084084272
-0.024615644 0.034247853 0.0083730221
-0.0239025 0.034767274 0.007812798
-0.022518242 0.034313511 0.0075037777
-0.021408601 0.034253761 0.0071114302
-0.020464059 0.034465782 0.0069633126
-0.01955317 0.034761194 0.0064131021
-0.018390426 0.034617275 0.006421268
-0.017334701 0.034669403 0.0064885616
-0.016089762 0.034324825 0.0061718822
-0.015278689 0.034922719 0.0061575472
-0.014122994 0.034764294 0.0058944523
-0.012958883 0.034557022 0.0054970682
-0.011928613 0.034701422 0.0048726201
-0.010939082 0.035005063 0.0042452812
-0.0097188745 0.034555998 0.004042387
-0.11717825 0.035153471 0.012297124
-0.11485687 0.034773178 0.0139108
-0.11425485 0.034911204 0.014623255
-0.11253235 0.034706239 0.014885873
-0.10971848 0.034157641 0.015462548
-0.11179947 0.035136975 0.016125709
-0.1097069 0.034810845 0.015874058
-0.10886302 0.03487844 0.015673786
-0.10881968 0.035206366 0.015588135
-0.10545962 0.034457102 0.015466273
-0.10454755 0.034500688 0.01554817
-0.10653543 0.035511807 0.015254378
-0.10362832 0.034895249 0.015514523
-0.10260087 0.034905452 0.015535831
-0.10081199 0.034654122 0.015974045
-0.10007627 0.034763336 0.01604116
-0.10011239 0.035145842 0.015851557
-0.098892696 0.035090957 0.015855491
-0.096814603 0.034726977 0.015759945
-0.096989699 0.035172086 0.015609235
-0.094363488 0.034599941 0.015551388
-0.094415165 0.035007868 0.015627831
-0.094756149 0.035533555 0.015643567
-0.092084877 0.034928747 0.015514046
-0.091103815 0.034958441 0.01534763
-0.091262564 0.035431348 0.015517741
-0.089289896 0.035078172 0.015284657
-0.088413998 0.035152555 0.01532045
-0.088075221 0.035444904 0.015353203
-0.085330524 0.03476429 0.015353203
-0.085271105 0.035174333 0.014737934
-0.08422637 0.035183169 0.014577866
-0.081733584 0.03457959 0.014461309
-0.082336143 0.035286918 0.014252156
-0.081381232 0.035336588 0.013834596
-0.078716025 0.034635048 0.013842046
-0.078718349 0.035104129 0.013223469
-0.078771286 0.035608936 0.012772411
-0.07586132 0.034769773 0.012913972
-0.075868055 0.035262614 0.012421966
-0.07464686 0.035190664 0.012237757
-0.073193938 0.035005793 0.01203993
-0.072770029 0.035314865 0.01188758
-0.071387745 0.035161126 0.011834294
-0.070093267 0.035046633 0.01188758
-0.069542095 0.035305988 0.012053788
-0.068276189 0.03520491 0.012053788
-0.067216314 0.035208546 0.012032062
-0.066096261 0.035180267 0.01196605
-0.065629832 0.035504662 0.011826575
-0.064155728 0.035285652 0.011724442
-0.063609436 0.035578154 0.011868179
-0.061214011 0.034828659 0.011658907
-0.061397087 0.035545681 0.011359334
-0.059858728 0.035273891 0.011241347
-0.058594458 0.035156675 0.01114136
-0.057944998 0.035410833 0.010898352
-0.056162484 0.034969095 0.010837018
-0.055104807 0.034970358 0.010793716
-0.054612435 0.035337456 0.010939062
-0.053265661 0.035155334 0.011169553
-0.052615173 0.035434712 0.011086643
-0.051724676 0.035560716 0.011141211
-0.04996964 0.035085067 0.011410207
-0.04962302 0.03559912 0.011454046
-0.048470836 0.035545278 0.011165679
-0.046851132 0.03513835 0.011043012
-0.046266235 0.035506647 0.011043012
-0.04518684 0.035503943 0.010883182
-0.043747932 0.035211749 0.010835111
-0.043184962 0.035627596 0.010573626
-0.041393746 0.035025477 0.010305792
-0.040624693 0.035279337 0.010144442
-0.039797604 0.035495158 0.0099444687
-0.038787346 0.035555068 0.0098837912
-0.037692741 0.035538871 0.0096865892
-0.03688094 0.035796203 0.009465009
-0.03531393 0.03531393 0.0093372166
-0.034491047 0.035568893 0.0093710124
-0.033308879 0.035457838 0.0094174743
-0.031895045 0.035084549 0.009072274
-0.031308565 0.035626989 0.0090526342
-0.03034631 0.03576529 0.0090010166
-0.028755084 0.0351451 0.0089616776
-0.027973693 0.035505071 0.0086937845
-0.026980868 0.035614744 0.0083988905
-0.025802191 0.035478011 0.0084084272
-0.024960937 0.035813518 0.0082392991
-0.023653405 0.035480104 0.007977277
-0.022479301 0.035324614 0.0075027049
-0.021610651 0.035657573 0.0071344674
-0.02040112 0.035433523 0.0071081221
-0.019264026 0.035317384 0.0068326592
-0.018582832 0.036072556 0.006475389
-0.017131073 0.035332836 0.0064942837
-0.016310601 0.035883319 0.0063332617
-0.015147223 0.035704169 0.0062448978
-0.014105144 0.035805367 0.0059840679
-0.013030619 0.035834201 0.0057558715
-0.011985677 0.035957035 0.0049644709
-0.01075827 0.035502292 0.0045701563
-0.0098268185 0.036031671 0.0041731298
-0.11623386 0.03592683 0.012267411
-0.11528201 0.035959527 0.014007181
-0.11415034 0.035936218 0.014300138
-0.1116939 0.035491515 0.014671057
-0.11255525 0.03610263 0.015296429
-0.11132719 0.036048803 0.01572001
-0.10996078 0.035948716 0.015609413
-0.11041173 0.03644659 0.015466273
-0.10805365 0.036017884 0.015406191
-0.10633759 0.035796814 0.015459955
-0.10597147 0.0360303 0.015638232
-0.10426033 0.035806578 0.015459955
-0.10208672 0.035417844 0.015485555
-0.10315357 0.036156923 0.01558733
-0.10082053 0.035707273 0.016021311
-0.1010058 0.036149446 0.016102433
-0.099453181 0.035972428 0.015926689
-0.097546585 0.035662193 0.015880346
-0.097089693 0.035880975 0.015534997
-0.096706308 0.036132026 0.015518486
-0.094766326 0.03580061 0.015462935
-0.094575942 0.036130138 0.015193701
-0.093875632 0.036270134 0.015440613
-0.092934467 0.036319219 0.01534763
-0.092112653 0.036416631 0.015207529
-0.08935485 0.03574194 0.015213519
-0.089087285 0.036059141 0.015197307
-0.088672936 0.036323853 0.014994621
-0.086895913 0.036030009 0.015257865
-0.085844129 0.03603334 0.015251875
-0.085177787 0.036200561 0.014637142
-0.083390072 0.035889398 0.014552951
-0.083782695 0.036520664 0.014409244
-0.081492618 0.035983752 0.014236003
-0.079767905 0.035685644 0.013802469
-0.080635242 0.036554642 0.013680696
-0.078715794 0.036166713 0.013219297
-0.077267423 0.035987567 0.012821853
-0.076965541 0.036344841 0.012913972
-0.076073639 0.036429632 0.012625784
-0.074074566 0.035979077 0.012575984
-0.073790625 0.036360599 0.012360841
-0.072095424 0.036047712 0.012237757
-0.071429513 0.036247812 0.011895567
-0.07065282 0.03639691 0.012017339
-0.069001719 0.036093209 0.012442112
-0.069310643 0.03682128 0.012207091
-0.067743413 0.036559939 0.011961609
-0.065572813 0.035959285 0.01238361
-0.065209776 0.036346436 0.012035817
-0.064092204 0.036318917 0.012086928
-0.062333923 0.035921246 0.01215142
-0.062694266 0.03675181 0.011826575
-0.060914844 0.036335174 0.011579871
-0.059573576 0.036169671 0.011442631
-0.059188362 0.036589168 0.011134177
-0.057038985 0.035913434 0.010898352
-0.056103125 0.035990685 0.010850668
-0.05610555 0.036684398 0.010873437
-0.054386094 0.036257394 0.010866165
-0.053302988 0.036246032 0.01096043
-0.052527562 0.036447696 0.010824323
-0.051079918 0.03618161 0.011174917
-0.050398998 0.03645885 0.011213869
-0.04960173 0.036662146 0.011318386
-0.04790118 0.036192 0.010956168
-0.047197595 0.036470871 0.01086688
-0.046124242 0.036470331 0.010867834
-0.044761326 0.036235359 0.010759979
-0.044311378 0.036746021 0.010638595
-0.042931829 0.036492053 0.010305792
-0.041736625 0.036385775 0.010208279
-0.040595636 0.036322411 0.0098837912
-0.039802831 0.036575571 0.0098586977
-0.03847 0.036332779 0.0098204613
-0.037769701 0.036690567 0.0096185803
-0.036366973 0.036366973 0.0094435215
-0.035392564 0.036465067 0.0089829564
-0.034857966 0.03703659 0.0092385709
-0.033025954 0.036222011 0.0093712211
-0.032306507 0.036614042 0.0092936158
-0.031043759 0.036396131 0.0090919733
-0.030088866 0.036536481 0.0090526342
-0.029130492 0.03668284 0.0090526342
-0.027840214 0.036406435 0.0086230338
-0.026782751 0.036424544 0.0083988905
-0.026106879 0.036984745 0.0083890557
-0.024853924 0.036740582 0.0081256628
-0.023491012 0.036304295 0.0078450441
-0.022771515 0.036868166 0.0072355568
-0.021443542 0.036454022 0.0070554614
-0.020425715 0.036551278 0.0069969594
-0.019434832 0.03671024 0.0065059662
-0.018344726 0.036689453 0.0064026713
-0.017295558 0.036753062 0.0063862205
-0.016246196 0.036824711 0.0062695742
-0.014963862 0.036340807 0.0063904226
-0.014143266 0.03699008 0.0061575472
-0.012975441 0.03676375 0.0059342682
-0.01182686 0.036555748 0.0055385232
-0.010822847 0.03679768 0.0047001839
-0.0097351223 0.036777131 0.0042135417
-0.11773803 0.0374621 0.012279958
-0.11619833 0.03731139 0.01401937
-0.11284785 0.036571059 0.014300138
-0.11340497 0.037095081 0.014958292
-0.11268214 0.037206367 0.015538245
-0.11060144 0.036867145 0.015885919
-0.11015888 0.0370727 0.015793592
-0.10863205 0.036913801 0.015310377
-0.10713116 0.036760692 0.015406191
-0.1071789 0.037141204 0.015406191
-0.1043233 0.036513153 0.015466273
-0.10523772 0.037205253 0.015203714
-0.10461067 0.037360955 0.015230477
-0.10192423 0.036776785 0.01523757
-0.10226905 0.037285589 0.016047627
-0.10104711 0.037227884 0.016077518
-0.09767618 0.036368791 0.015791774
-0.099750176 0.037540387 0.015675217
-0.097451262 0.037073851 0.015779406
-0.095134035 0.03659001 0.015462935
-0.095285803 0.037055586 0.015391529
-0.094746657 0.037259921 0.015010953
-0.09319333 0.037065528 0.015205562
-0.092657231 0.037275895 0.01526013
-0.090985343 0.03702892 0.015139222
-0.090392262 0.03722034 0.015203297
-0.090027928 0.037511636 0.015139222
-0.08770182 0.036982693 0.014941245
-0.087058626 0.037159167 0.014806837
-0.087061174 0.037619028 0.014634222
-0.083768636 0.03664878 0.014637142
-0.085595295 0.037921965 0.014552951
-0.082663126 0.037092429 0.014510989
-0.082077555 0.037307978 0.014308453
-0.081012428 0.037308354 0.013938516
-0.079691552 0.037189391 0.013433665
-0.077227451 0.036526494 0.012826025
-0.078446813 0.037611481 0.012762189
-0.076187618 0.037035648 0.012736201
-0.076049365 0.037489124 0.012628317
-0.075026818 0.037513409 0.012394875
-0.07359767 0.037332151 0.012285769
-0.071827926 0.036970258 0.012146711
-0.072358012 0.037798963 0.012056202
-0.070681609 0.037482671 0.012097448
-0.068620965 0.03694975 0.012307912
-0.068704955 0.037573021 0.012541682
-0.06670472 0.037058178 0.012381762
-0.066180684 0.037360061 0.012158513
-0.065302379 0.037468575 0.012033165
-0.063523687 0.037055481 0.01188612
-0.062923655 0.037327588 0.01188612
-0.062022094 0.037427124 0.011826575
-0.060734089 0.037292864 0.011676937
-0.060258452 0.037661534 0.011381298
-0.058341812 0.037126608 0.010942787
-0.057335827 0.03716211 0.010833293
-0.057048839 0.037673764 0.010665178
-0.054680981 0.036804505 0.010639578
-0.054632787 0.037493087 0.010665178
-0.053740829 0.037618577 0.01077494
-0.052212171 0.037294406 0.01069808
-0.052157693 0.038031649 0.011095047
-0.050192703 0.037377544 0.011209011
-0.048739005 0.037084024 0.011351973
-0.048026875 0.037354235 0.010930508
-0.047378909 0.037687771 0.010831475
-0.045639209 0.037148193 0.01086241
-0.045180671 0.037650559 0.010614187
-0.044004682 0.037564971 0.010475546
-0.042932402 0.037565853 0.01046288
-0.042116828 0.037797153 0.010144442
-0.040407784 0.037217695 0.0098978579
-0.039570581 0.037431631 0.0098247826
-0.038836453 0.037757661 0.0097059608
-0.037291486 0.037291486 0.0095056295
-0.036410693 0.037481595 0.0092888176
-0.035572834 0.037728764 0.0092676282
-0.033916607 0.037096288 0.0096255243
-0.033366252 0.037671573 0.0097698867
-0.032372318 0.037767705 0.0094852149
-0.031130269 0.037571013 0.0093884766
-0.030048525 0.037560657 0.0091312528
-0.028859189 0.037410058 0.0092011094
-0.02750016 0.037019446 0.008905977
-0.027051376 0.037871923 0.0083172619
-0.0259034 0.037775792 0.0083083212
-0.024675664 0.03754992 0.0080392063
-0.023888975 0.038005188 0.0078901052
-0.022506785 0.037511308 0.0072146356
-0.021722892 0.038015064 0.0070075989
-0.020640392 0.038021773 0.0068327188
-0.019408835 0.037739404 0.0066953599
-0.018282 0.037639413 0.0064791441
-0.017337505 0.037925791 0.0063775182
-0.01596866 0.037260205 0.0062739551
-0.015204582 0.038011458 0.0063174069
-0.014006069 0.037708648 0.0060953498
-0.013071756 0.038125955 0.0060138702
-0.011955244 0.038039416 0.0055765212
-0.010767094 0.037684828 0.0047981143
-0.0097106313 0.037763566 0.0043533444
-0.11694076 0.03827152 0.012279958
-0.11409186 0.03768171 0.013663858
-0.11432581 0.038108598 0.014078081
-0.11324979 0.038102727 0.014992982
-0.11111535 0.037737288 0.015638471
-0.11194206 0.038380135 0.01581496
-0.10982434 0.038016114 0.01572001
-0.10942759 0.038246535 0.015236795
-0.10887416 0.038426168 0.014978558
-0.1052175 0.037503265 0.014893413
-0.10614032 0.038210511 0.015147239
-0.1055136 0.038368579 0.014896661
-0.10259996 0.037689779 0.014836133
-0.10240694 0.038006701 0.014997274
-0.10154463 0.038079236 0.01555863
-0.10031302 0.03801335 0.01592803
-0.1005017 0.038490012 0.015607417
-0.098095141 0.037972309 0.015534997
-0.096330769 0.037694648 0.015711099
-0.097253874 0.038474057 0.015451491
-0.096305855 0.03852234 0.015203297
-0.093629174 0.037872475 0.015203297
-0.093998589 0.038453966 0.015130967
-0.092038758 0.038085002 0.01526013
-0.090624027 0.037935637 0.015139222
-0.09032777 0.038256463 0.015251875
-0.089724317 0.038453277 0.015007406
-0.088354647 0.038322493 0.015043378
-0.086884089 0.038144231 0.015206546
-0.086165145 0.038295619 0.01459235
-0.084832512 0.038174629 0.014287084
-0.083793022 0.038184162 0.014287084
-0.082664192 0.038152702 0.014222175
-0.083052129 0.038829565 0.014074475
-0.080070071 0.037927926 0.013938516
-0.079441778 0.038132053 0.013841301
-0.078992121 0.038428593 0.013084173
-0.078007005 0.038469207 0.013306111
-0.076631889 0.038315944 0.012740374
-0.075791106 0.038429294 0.012606382
-0.074864201 0.03850159 0.012559265
-0.073391967 0.038291458 0.012394875
-0.072830476 0.03855731 0.012214541
-0.071162559 0.038236596 0.012144685
-0.070314452 0.038353335 0.012109488
-0.069560945 0.038526062 0.012306422
-0.06783811 0.038158935 0.012523413
-0.067329183 0.038473815 0.012341291
-0.066546015 0.03863962 0.012155861
-0.06503927 0.03838383 0.011851907
-0.06466683 0.038800098 0.011791557
-0.062941998 0.038405284 0.011791557
-0.061203413 0.037988324 0.011662692
-0.061204232 0.038655303 0.011494339
-0.059810933 0.038449883 0.011322677
-0.058544304 0.038319908 0.010939062
-0.057729702 0.038486466 0.010695457
-0.056347232 0.038273592 0.010609567
-0.055499077 0.038422436 0.010544389
-0.054639392 0.038568981 0.010541052
-0.053105436 0.038235914 0.01077494
-0.052416477 0.038510066 0.011022538
-0.051121734 0.038341299 0.011183321
-0.049461726 0.037885576 0.011209011
-0.049588803 0.038808625 0.01122728
-0.04798656 0.038389243 0.010890871
-0.047031261 0.038480122 0.010867327
-0.046143398 0.038631678 0.010890871
-0.044975497 0.038550422 0.010860175
-0.044029776 0.038660288 0.010537565
-0.043097083 0.038787376 0.010380119
-0.041900199 0.038677104 0.010187298
-0.041053746 0.038893022 0.0099418163
-0.040083293 0.038999956 0.009868741
-0.03851876 0.03851876 0.0098312497
-0.037255809 0.038320258 0.0096414983
-0.036583789 0.038735777 0.0094435215
-0.035301402 0.038510621 0.0095533729
-0.034684077 0.039019585 0.0094174743
-0.033248208 0.03861082 0.0095203519
-0.031996418 0.038395699 0.0094389617
-0.031304386 0.038860612 0.0093884766
-0.03022684 0.038863078 0.0092999339
-0.02868763 0.038250171 0.0092642903
-0.028335549 0.039233834 0.008905977
-0.027183339 0.039144006 0.0083890557
-0.025785688 0.038678531 0.0083909333
-0.02510673 0.039297488 0.0081416965
-0.023723645 0.038820509 0.0078763366
-0.022349015 0.038312595 0.0074662864
-0.021756941 0.039162494 0.007176131
-0.020442225 0.038732633 0.0069811046
-0.019308472 0.038616944 0.0066744387
-0.018284172 0.038719419 0.0063731968
-0.017057957 0.038380399 0.0063775182
-0.016347481 0.039233953 0.0063423216
-0.015129864 0.038905364 0.0063972771
-0.013934339 0.038587399 0.0061844587
-0.012962529 0.038887586 0.0059392154
-0.011830411 0.038717709 0.0055385232
-0.010694302 0.038499486 0.004889816
-0.0096773487 0.038709395 0.0046488941
-0.11544745 0.038832325 0.012473226
-0.1160095 0.039379373 0.013742894
-0.1136431 0.038933285 0.01463142
-0.11240976 0.038870666 0.015194267
-0.11279071 0.039370347 0.015696675
-0.11160995 0.039329223 0.015885919
-0.10831561 0.03853536 0.015972733
-0.10988899 0.039474688 0.015310377
-0.1083528 0.039304446 0.015059471
-0.10592663 0.038804803 0.01498878
-0.10495701 0.038834095 0.015242606
-0.10460982 0.039096601 0.014977574
-0.10284974 0.038831025 0.014966905
-0.10335829 0.039425328 0.015186787
-0.10034372 0.038674142 0.015712678
-0.10080232 0.039259855 0.015771329
-0.09992443 0.039331958 0.015545815
-0.098030075 0.039001212 0.015421271
-0.09786731 0.039359681 0.015451193
-0.096424647 0.039205626 0.015369236
-0.094824068 0.03898323 0.015102476
-0.094569191 0.039315283 0.014758497
-0.093341537 0.039245877 0.015114099
-0.091450967 0.038892943 0.015241712
-0.091017999 0.039158907 0.014930725
-0.089788154 0.039084256 0.015197307
-0.088796288 0.039112654 0.014949322
-0.087792598 0.039136458 0.01498881
-0.087172545 0.039333954 0.014995486
-0.086204275 0.039377265 0.014590949
-0.08432816 0.039001774 0.014481276
-0.083779484 0.039238494 0.014552951
-0.083780542 0.039742053 0.014530897
-0.082065172 0.039433919 0.014048547
-0.07968533 0.038794175 0.01383242
-0.080579318 0.039752465 0.01371929
-0.078581572 0.039290786 0.013081938
-0.076467976 0.038757741 0.013327926
-0.077303581 0.039725453 0.012736201
-0.074793875 0.038977094 0.012672216
-0.073855437 0.039037876 0.012518018
-0.074160337 0.039767139 0.01235795
-0.072036937 0.039196573 0.012272954
-0.071616367 0.03954934 0.012268871
-0.071157038 0.039891072 0.012219399
-0.069639109 0.039640728 0.012332171
-0.068540744 0.039625119 0.012523502
-0.067522153 0.039655868 0.01247862
-0.06560123 0.03914912 0.012525409
-0.065032214 0.039445773 0.011927396
-0.064202145 0.039591324 0.011927396
-0.062474396 0.039178859 0.012061507
-0.062005438 0.039555192 0.011857063
-0.06096451 0.039573457 0.011857063
-0.060174827 0.039758369 0.011621475
-0.059212867 0.039834112 0.011245221
-0.057486162 0.039388668 0.01077494
-0.057227995 0.039951622 0.010617107
-0.056479301 0.040187199 0.010641128
-0.054621082 0.03962706 0.010526925
-0.052939963 0.039175574 0.011095792
-0.052543595 0.03967578 0.011121333
-0.050551835 0.038967043 0.01134643
-0.050660945 0.039882023 0.011203766
-0.048789684 0.039243877 0.011146069
-0.04773961 0.039252568 0.010867983
-0.04717743 0.039671931 0.010844439
-0.04606558 0.039637826 0.010775328
-0.044714343 0.039391208 0.010548919
-0.044292331 0.039971128 0.010294437
-0.042761177 0.039554089 0.010154635
-0.041504279 0.039375857 0.0099494755
-0.040991712 0.039912984 0.0097589195
-0.039597813 0.039597813 0.00954777
-0.038658157 0.039731998 0.0095056295
-0.037586175 0.039733957 0.009339273
-0.036497407 0.039717767 0.00912866
-0.035197619 0.039463997 0.0089366436
-0.034649167 0.040063102 0.0093907416
-0.032949854 0.039327245 0.0095434785
-0.032612253 0.040221781 0.0094174743
-0.031174405 0.039774239 0.0092594326
-0.029623065 0.039144766 0.0092594326
-0.029242197 0.040072642 0.0089945197
-0.027840814 0.039619621 0.0087091625
-0.026492441 0.039208815 0.0082848072
-0.025827877 0.039817981 0.0083243549
-0.024590794 0.039559104 0.0079223812
-0.023558242 0.039620683 0.0078440607
-0.022699224 0.039993871 0.0073561966
-0.021378482 0.039550193 0.0069832802
-0.020178337 0.039294656 0.0069517195
-0.019583613 0.040255208 0.0065684319
-0.018436793 0.04012714 0.0063522756
-0.017353076 0.040128991 0.0064718723
-0.016043453 0.039573852 0.0064026713
-0.015001567 0.039647002 0.0063972771
-0.014102382 0.040137552 0.0060617924
-0.013081223 0.040333774 0.0057583749
-0.011802367 0.039698873 0.0054300129
-0.010972306 0.040597536 0.0050415099
-0.00979371 0.040263034 0.0045290291
-0.11783759 0.040707532 0.012267411
-0.11479666 0.040020853 0.013795793
-0.1137641 0.04002811 0.01430279
-0.11424948 0.040574577 0.01504153
-0.1120445 0.040166896 0.015538245
-0.11000703 0.039812069 0.015915334
-0.11074889 0.040465944 0.015888542
-0.10850838 0.040032219 0.015384585
-0.10654677 0.039693892 0.015274882
-0.10803809 0.040647995 0.015274882
-0.10506953 0.039926421 0.015292674
-0.10479697 0.040225096 0.01529637
-0.10389638 0.040286351 0.01514411
-0.10134948 0.039703924 0.015273869
-0.10181799 0.040302955 0.015642226
-0.10012354 0.040049419 0.015823781
-0.098935671 0.039995272 0.015659988
-0.098822445 0.040379062 0.015470445
-0.097736835 0.040369563 0.015649319
-0.095115729 0.039718654 0.015408456
-0.095496126 0.040320586 0.015249968
-0.095154829 0.040627908 0.014989048
-0.092778161 0.040063299 0.015130967
-0.09290687 0.040580012 0.015197307
-0.090272903 0.039888028 0.014905602
-0.089520842 0.040021084 0.014949322
-0.090543382 0.040960103 0.014905602
-0.088498354 0.040517319 0.014749646
-0.086611755 0.040137153 0.014844477
-0.087356269 0.040981956 0.014312655
-0.083885431 0.039845582 0.014403164
-0.083680749 0.040251501 0.014245123
-0.083566569 0.040711917 0.014193028
-0.082088105 0.040511016 0.013958573
-0.081136145 0.040568072 0.013751894
-0.08005999 0.040563729 0.013368189
-0.078157492 0.040134929 0.013034731
-0.07786338 0.040531624 0.013282031
-0.076735519 0.040499303 0.012701064
-0.075485788 0.040400844 0.012776166
-0.074558802 0.04047478 0.012585342
-0.073157005 0.040289365 0.012335658
-0.071992189 0.040230926 0.012269109
-0.071788728 0.040715992 0.012001008
-0.069429137 0.039974354 0.012362033
-0.069144264 0.040422801 0.012318015
-0.06790369 0.040317815 0.01247716
-0.066301629 0.039991461 0.012529671
-0.066750549 0.040911626 0.012778103
-0.065259062 0.040653188 0.012132943
-0.063431092 0.040173028 0.012075752
-0.063438185 0.040858489 0.012168318
-0.062625527 0.041030519 0.012108713
-0.060734808 0.040489875 0.012168318
-0.060235184 0.040873874 0.011726499
-0.058312878 0.040288899 0.011444688
-0.058278728 0.041010957 0.011232227
-0.057281908 0.041070048 0.011115342
-0.055126581 0.040284809 0.011230648
-0.054541029 0.040638413 0.0109891
-0.054099474 0.041115601 0.011157393
-0.052073926 0.040383864 0.011203945
-0.051361904 0.04066151 0.011133403
-0.051289748 0.041468307 0.010997593
-0.04914191 0.04059549 0.010872841
-0.048543047 0.040991906 0.010745406
-0.047296695 0.040847149 0.010820001
-0.045821413 0.040493343 0.010683328
-0.045264453 0.04095355 0.01024124
-0.043678019 0.040482063 0.010053366
-0.042529054 0.040402602 0.010122746
-0.042199265 0.041117236 0.0099358261
-0.040385202 0.040385202 0.0095830262
-0.03985931 0.040936586 0.0095099509
-0.038758077 0.040911306 0.009283036
-0.037450515 0.04066056 0.0093344748
-0.036632948 0.040942706 0.0091021955
-0.035718556 0.041130461 0.0089845955
-0.034259707 0.040683404 0.0094713271
-0.033510733 0.04107767 0.0096665919
-0.032394063 0.041032482 0.0094745755
-0.03124621 0.04094331 0.0093970597
-0.03002993 0.040754907 0.0091534555
-0.028952532 0.040748008 0.0089984834
-0.027736725 0.040538292 0.0086916685
-0.027028549 0.041083392 0.0080333948
-0.025914975 0.041032042 0.0080046356
-0.02455583 0.040570501 0.0076990128
-0.023755472 0.04103218 0.0076017976
-0.022623951 0.040938575 0.0071955323
-0.02153722 0.04092072 0.0069582462
-0.020571122 0.041142244 0.0068840683
-0.019400058 0.040955681 0.0067833662
-0.018236626 0.040764224 0.0064033866
-0.017402427 0.041330766 0.0063397586
-0.01613709 0.040880624 0.0063773096
-0.015149265 0.041119434 0.006373018
-0.014104631 0.04122892 0.0061275661
-0.01279641 0.040521968 0.0058410764
-0.011837007 0.04089148 0.0056966841
-0.010767682 0.040917195 0.0054136813
-0.0097329943 0.041094866 0.0047823191
-0.1163241 0.041242182 0.011448413
-0.11513508 0.041195117 0.013795793
-0.11397301 0.041156918 0.01430279
-0.11375968 0.041463807 0.015194267
-0.11111761 0.040882893 0.015832901
-0.1106545 0.041100241 0.016045153
-0.10935546 0.041008297 0.015945494
-0.10941055 0.041427292 0.015627891
-0.10919888 0.041752513 0.01539281
-0.10762151 0.041556817 0.015304059
-0.10413902 0.040614214 0.015304059
-0.10575932 0.04166276 0.015232086
-0.10417347 0.041456789 0.015304059
-0.10161849 0.04085692 0.015545994
-0.1012057 0.041114818 0.015793592
-0.099023685 0.040651828 0.015894294
-0.099079952 0.041107636 0.015833199
-0.098684616 0.04138387 0.015588284
-0.096522793 0.04091727 0.015497416
-0.096408404 0.041317884 0.015391529
-0.095298566 0.041296043 0.015124768
-0.094426565 0.041377932 0.015072793
-0.093878701 0.041605331 0.015227884
-0.092746384 0.041575965 0.015157193
-0.091518022 0.041502357 0.01498881
-0.090994276 0.041750312 0.015051812
-0.088900961 0.041275445 0.015000075
-0.087965086 0.04133299 0.015000075
-0.087435469 0.041585159 0.014993459
-0.085717142 0.041271217 0.014818996
-0.084656626 0.041270103 0.014531523
-0.084343672 0.041638017 0.014426261
-0.081298247 0.040649123 0.014321208
-0.082821906 0.041948758 0.013958573
-0.081516281 0.041830722 0.013822883
-0.07969702 0.04144245 0.01377964
-0.079296634 0.041791469 0.013050646
-0.077679783 0.041500155 0.013282031
-0.076765105 0.041581098 0.012789279
-0.076058142 0.041778415 0.012683243
-0.07404352 0.041252818 0.012415141
-0.073107049 0.041321374 0.012298226
-0.072711982 0.041702457 0.012245208
-0.070998013 0.041327197 0.012164921
-0.069851741 0.04127603 0.012540877
-0.07010562 0.042063374 0.012396485
-0.067423783 0.041086368 0.012591153
-0.067585573 0.041838683 0.012614548
-0.066604853 0.0418966 0.012497932
-0.064424008 0.041189119 0.012092471
-0.064370662 0.041840933 0.011881292
-0.063217901 0.041788105 0.012061507
-0.061259188 0.041191522 0.012108028
-0.061182976 0.041862037 0.012072533
-0.060534138 0.042157702 0.011621475
-0.058904417 0.041768584 0.011376798
-0.058027983 0.041909095 0.011168391
-0.056165144 0.041329071 0.011060447
-0.055529896 0.041647423 0.011098415
-0.054773867 0.041885898 0.010787785
-0.053448409 0.041689757 0.011175871
-0.052262414 0.041596618 0.011157393
-0.051468421 0.041818094 0.011017621
-0.049798854 0.041322455 0.011016488
-0.049413253 0.041893844 0.011041582
-0.048347063 0.041900788 0.010932148
-0.046425529 0.041149899 0.011016488
-0.046173885 0.041878641 0.010620177
-0.045190401 0.041962516 0.010344684
-0.043633059 0.041504614 0.010196626
-0.043038364 0.041962404 0.01019156
-0.04161685 0.04161685 0.0097611845
-0.040676422 0.041746855 0.0093059838
-0.039861068 0.042015716 0.0093409717
-0.038764145 0.04199449 0.009267211
-0.037412029 0.04168769 0.0092787147
-0.036515307 0.041885205 0.0092140138
-0.035546429 0.042009417 0.0091021955
-0.034390979 0.041914001 0.0095041096
-0.03353468 0.042188786 0.0095252991
-0.031892546 0.041460309 0.0095618069
-0.031177362 0.041928176 0.0093286633
-0.030246567 0.042129148 0.0094510317
-0.028796889 0.041595504 0.009258002
-0.02804506 0.042067591 0.008738488
-0.026882818 0.041937195 0.0082242191
-0.025876831 0.042049851 0.0080506802
-0.025044702 0.042467102 0.0076916814
-0.023543188 0.041735653 0.0074869394
-0.022687297 0.042133551 0.0069312453
-0.021801222 0.042512383 0.0067242086
-0.020453352 0.041983195 0.0068694651
-0.01934197 0.041907605 0.0067407489
-0.018504409 0.042451292 0.0063053966
-0.017244017 0.04203229 0.0063026249
-0.016316095 0.042421844 0.0063269436
-0.015222078 0.042404361 0.0063269436
-0.013939624 0.041818868 0.0062171817
-0.013023388 0.042326011 0.0059198737
-0.011857543 0.042040382 0.005626142
-0.010692921 0.041702393 0.0054228306
-0.0097061023 0.042059779 0.0046339333
-0.0086460607 0.042149547 0.0040493309
-0.11552516 0.042009145 0.011242509
-0.11515354 0.042258173 0.013653725
-0.11492158 0.042563546 0.014278919
-0.11218414 0.041937992 0.01521349
-0.11160214 0.042114016 0.016041756
-0.11205918 0.042689212 0.01630196
-0.10971525 0.042198174 0.01634559
-0.10946415 0.042510346 0.015756458
-0.10811804 0.042399231 0.015568703
-0.10614661 0.042038258 0.015479416
-0.10583429 0.042333715 0.015485913
-0.10355363 0.041839849 0.015243262
-0.10295363 0.042021889 0.015276939
-0.10251611 0.042274684 0.01549682
-0.099573351 0.041488897 0.015355796
