ply
format ascii 1.0
comment PCL generated
element vertex 1261
property float x
property float y
property float z
element camera 0
property float view_px
property float view_py
property float view_pz
property float x_axisx
property float x_axisy
property float x_axisz
property float y_axisx
property float y_axisy
property float y_axisz
property float z_axisx
property float z_axisy
property float z_axisz
property float focal
property float scalex
property float scaley
property float centerx
property float centery
property int viewportx
property int viewporty
property float k1
property float k2
end_header
-0.10431956 -0.0084298635 0.016221255
-0.10337217 -0.0084385453 0.016339123
-0.10361756 -0.0085457778 0.016291499
-0.10078667 -0.0083988896 0.016153932
-0.10164136 -0.0085592717 0.016164869
-0.099913634 -0.008503288 0.015758783
-0.096917436 -0.0083369836 0.015724063
-0.098677307 -0.0085806353 0.015524447
-0.097327791 -0.0085562887 0.015289694
-0.095121697 -0.0084552616 0.014909655
-0.094856359 -0.0085264146 0.014869273
-0.092655875 -0.0084232623 0.014862269
-0.092645846 -0.0085191587 0.014792979
-0.093135223 -0.0086637419 0.014506489
-0.091146365 -0.0085784812 0.01443994
-0.089077167 -0.0084835393 0.014532864
-0.088387728 -0.0085192984 0.014330298
-0.086440429 -0.0084332125 0.014520466
-0.086362116 -0.0085295923 0.014261872
-0.086465806 -0.0086465804 0.014261872
-0.084178418 -0.0085243974 0.014267206
-0.083268806 -0.0085403901 0.01417315
-0.083156943 -0.0086396821 0.014089167
-0.08034873 -0.0084577613 0.014355719
-0.079484925 -0.008478391 0.014511466
-0.079312131 -0.0085742846 0.014301449
-0.077438906 -0.0084864544 0.013865113
-0.077698939 -0.0086332159 0.013360173
-0.076384462 -0.0086067002 0.013261557
-0.074752308 -0.0085431207 0.013292611
-0.074188046 -0.0086015128 0.01337409
-0.073008396 -0.008589223 0.01302129
-0.071428455 -0.0085287709 0.01302129
-0.070232011 -0.0085129719 0.012835801
-0.069477081 -0.0085510248 0.012958437
-0.068577625 -0.0085722031 0.012721092
-0.068127878 -0.0086511588 0.012448758
-0.066190548 -0.008540716 0.01227361
-0.065209903 -0.0085521191 0.012558788
-0.064367168 -0.0085822884 0.012550652
-0.062580824 -0.0084855352 0.012405366
-0.062277004 -0.0085899318 0.011676878
-0.061328009 -0.0086074397 0.011564046
-0.060117409 -0.0085882014 0.011369914
-0.059545629 -0.0086611817 0.011274874
-0.057360247 -0.0084978137 0.011032671
-0.057623364 -0.0086978665 0.011088014
-0.056230567 -0.008650857 0.011032671
-0.054642361 -0.0085713509 0.011131972
-0.05327604 -0.0085241664 0.010342747
-0.05333535 -0.008707813 0.0099042952
-0.051434442 -0.0085724071 0.0097056329
-0.050707728 -0.0086311027 0.010141104
-0.04932547 -0.0085783424 0.010202348
-0.048656568 -0.0086500561 0.01022926
-0.047375064 -0.0086136488 0.010203987
-0.046813842 -0.0087095518 0.010533959
-0.044448636 -0.0084664067 0.010445416
-0.044276711 -0.008639358 0.010064214
-0.043180913 -0.0086361831 0.010064214
-0.041735437 -0.0085611148 0.010294557
-0.041295364 -0.0086937612 0.0097520947
-0.039780002 -0.0086010816 0.0095834136
-0.039295055 -0.0087322351 0.0096159875
-0.037973866 -0.0086797411 0.0097519457
-0.03657667 -0.0086062746 0.0098263323
-0.035492223 -0.0086041754 0.0099179447
-0.034668665 -0.0086671663 0.0096633136
-0.033682283 -0.0086922022 0.0099163353
-0.032873679 -0.008766314 0.0099850595
-0.030880896 -0.0085188681 0.0099648535
-0.029998412 -0.0085709747 0.0096605122
-0.029391829 -0.0087086894 0.0099267364
-0.028412299 -0.0087422458 0.0096572936
-0.026929881 -0.0086175622 0.0093860328
-0.026278714 -0.0087595712 0.0091673136
-0.024812294 -0.0086303633 0.0087155402
-0.023681916 -0.0086116064 0.0085684359
-0.022912771 -0.0087286746 0.0083522201
-0.021861007 -0.0087444028 0.0078733563
-0.02032735 -0.0085588843 0.0079292655
-0.019535961 -0.0086826496 0.0078035295
-0.018269369 -0.0085973507 0.0074587166
-0.017379703 -0.0086898515 0.0071875453
-0.016432116 -0.0087637957 0.0069257319
-0.014980637 -0.0085603641 0.0069980919
-0.014165238 -0.0087170694 0.0067634583
-0.013285757 -0.0088571711 0.0057617426
-0.011986425 -0.0087174 0.0052365959
-0.010984005 -0.0087872045 0.0044344962
-0.11799724 -0.0075089154 0.011233002
-0.11560125 -0.0074239331 0.012499422
-0.1143842 -0.0074137901 0.014240801
-0.11304319 -0.0073953485 0.015403092
-0.11304957 -0.0074655381 0.015910983
-0.11049177 -0.0073661185 0.016223192
-0.10945729 -0.0073673176 0.016154706
-0.11045911 -0.0075069298 0.016287833
-0.10712047 -0.0073514045 0.016446322
-0.10880219 -0.0075407461 0.016231209
-0.10623305 -0.0074363127 0.01607272
-0.10338087 -0.0073097586 0.016209751
-0.10482752 -0.0074876808 0.016357481
-0.10205889 -0.0073650754 0.016362727
-0.10227085 -0.0074572493 0.016187191
-0.10201214 -0.0075166845 0.016153932
-0.098439656 -0.0073306123 0.016201138
-0.099705145 -0.0075046881 0.015735537
-0.097818039 -0.0074426769 0.015567213
-0.096358374 -0.0074121826 0.015396744
-0.095382884 -0.0074186684 0.014928699
-0.094797038 -0.0074559469 0.014986634
-0.093487903 -0.0074365381 0.014869273
-0.093220115 -0.0075004692 0.014862269
-0.090940341 -0.0074021206 0.014646083
-0.089969382 -0.0074092429 0.014558583
-0.089477107 -0.0074564251 0.014636964
-0.088500708 -0.0074639148 0.014328212
-0.086610831 -0.0073936069 0.014334142
-0.086685441 -0.0074913343 0.01427865
-0.083413608 -0.0072986907 0.014321208
-0.084111348 -0.0074529042 0.014335811
-0.083711311 -0.0075125536 0.014267206
-0.082510717 -0.007500974 0.014252394
-0.081171729 -0.0074763433 0.014441609
-0.079591885 -0.0074285758 0.014696002
-0.078415163 -0.0074176504 0.014439583
-0.078624539 -0.0075393389 0.013791889
-0.076073766 -0.007396061 0.013452619
-0.075147688 -0.0074089277 0.013461977
-0.075424105 -0.0075424104 0.013461977
-0.073884659 -0.0074955449 0.013648033
-0.072439522 -0.0074570095 0.013154536
-0.072555698 -0.0075804461 0.01300934
-0.07035432 -0.0074618221 0.012754142
-0.069222093 -0.0074546868 0.012836903
-0.068704046 -0.0075145052 0.012578815
-0.067125559 -0.0074583949 0.012428015
-0.067019083 -0.0075666704 0.01227361
-0.065764353 -0.0075467294 0.012511343
-0.06463781 -0.0075410777 0.012476146
-0.063868321 -0.0075775972 0.012355745
-0.062416337 -0.0075330059 0.011585683
-0.060140468 -0.0073856716 0.011511743
-0.060793024 -0.0075991279 0.011152804
-0.05845546 -0.0074397856 0.01127845
-0.058521107 -0.0075860694 0.011274874
-0.05727366 -0.007564446 0.011163473
-0.055113964 -0.0074191876 0.011192083
-0.054974902 -0.007545575 0.0109725
-0.05423433 -0.0075928061 0.0098546743
-0.052246626 -0.007463804 0.0098546743
-0.051991776 -0.0075821336 0.010086179
-0.050462488 -0.0075156894 0.010213733
-0.048826259 -0.0074300827 0.010308504
-0.049005054 -0.007623008 0.01032716
-0.047198609 -0.0075088697 0.010362715
-0.046013191 -0.0074905194 0.010647386
-0.045698527 -0.0076164207 0.010461986
-0.043895826 -0.0074944086 0.010105848
-0.043064021 -0.0075362036 0.010105848
-0.042300589 -0.007592414 0.010181576
-0.040397808 -0.0074417014 0.0097718239
-0.039128214 -0.0074026352 0.0096340179
-0.039017078 -0.0075866543 0.0096159875
-0.037624888 -0.0075249779 0.0097180903
-0.036328457 -0.0074793878 0.0096323192
-0.036001157 -0.0076366095 0.0098263323
-0.034549709 -0.0075577493 0.009537667
-0.033783723 -0.0076285824 0.0092220604
-0.032275155 -0.0075308695 0.0095631182
-0.030857651 -0.0074483985 0.0092821121
-0.030761003 -0.0076902509 0.0092228651
-0.029317651 -0.0076008723 0.0095720887
-0.027714474 -0.0074615893 0.0095048547
-0.02735099 -0.0076582767 0.0093017519
-0.025667964 -0.0074864896 0.0090310872
-0.024751855 -0.0075331731 0.0088597536
-0.024052652 -0.0076531167 0.0085620582
-0.022723339 -0.0075744465 0.0084145665
-0.021907087 -0.0076674805 0.0079737008
-0.020361854 -0.0075017354 0.0081451237
-0.019527007 -0.0075938366 0.0080195963
-0.018396555 -0.0075750514 0.007668227
-0.017364919 -0.0075971521 0.0073040426
-0.016046327 -0.0074882857 0.0071125627
-0.015087112 -0.0075435559 0.0072550774
-0.014120749 -0.0076034805 0.0068611801
-0.012775224 -0.0074522137 0.0061988831
-0.01210028 -0.0077001783 0.005338341
-0.010891881 -0.007624317 0.0045786202
-0.11708992 -0.0063867224 0.010975689
-0.11445148 -0.0063000815 0.012546092
-0.11403889 -0.0063354936 0.014384538
-0.1134067 -0.0063592535 0.015458971
-0.11231045 -0.0063571953 0.016033262
-0.11244646 -0.0064255116 0.016223192
-0.11116748 -0.0064135082 0.016287982
-0.10936865 -0.0063709896 0.016612798
-0.10790191 -0.006347171 0.016322374
-0.10781524 -0.006404866 0.016272128
-0.10614838 -0.0063689025 0.016027898
-0.10570507 -0.0064063673 0.015958667
-0.10355482 -0.0063400907 0.016027898
-0.10232719 -0.0063295169 0.016375005
-0.1025935 -0.0064120935 0.016637146
-0.099034987 -0.0062548411 0.016691089
-0.10011718 -0.0063904584 0.016109109
-0.099576443 -0.0064242864 0.015449792
-0.096395083 -0.0062866355 0.015373081
-0.09845034 -0.0064912308 0.015020162
-0.095691718 -0.0063794474 0.014850944
-0.093767844 -0.0063214279 0.014780849
-0.095356956 -0.0065016104 0.01470229
-0.093897544 -0.0064756926 0.014691502
-0.092225425 -0.0064343316 0.014398485
-0.089810662 -0.0063395761 0.0143646
-0.088959329 -0.0063542374 0.014391929
-0.087171286 -0.0063015381 0.014334142
-0.088969961 -0.0065099965 0.014328212
-0.08638873 -0.0063991654 0.014314145
-0.085239105 -0.0063929334 0.014246643
-0.084034301 -0.0063823517 0.014273137
-0.082813732 -0.0063702869 0.014147758
-0.08247707 -0.0064267842 0.013981253
-0.081643783 -0.0064455615 0.014132977
-0.079424225 -0.0063539376 0.014441699
-0.078888506 -0.0063963649 0.014182091
-0.077690646 -0.0063855322 0.01370886
-0.076651365 -0.0063876142 0.01328975
-0.077626973 -0.0065600262 0.013261557
-0.074640937 -0.0063977949 0.013378948
-0.074327007 -0.006463218 0.013587892
-0.07285928 -0.00642876 0.013307899
-0.072369218 -0.0064808251 0.013094395
-0.069948167 -0.0063589239 0.013225585
-0.07102029 -0.0065557188 0.013225585
-0.067774341 -0.0063538444 0.012932301
-0.06868007 -0.0065409588 0.012952596
-0.066304527 -0.0064165671 0.012649328
-0.065439746 -0.0064366967 0.012602091
-0.065298796 -0.0065298793 0.01260078
-0.063230298 -0.0064301998 0.012441933
-0.061970871 -0.0064107794 0.011732221
-0.061749566 -0.0064999545 0.011556953
-0.059818249 -0.0064090984 0.011369914
-0.058397997 -0.0063706907 0.011308938
-0.058043823 -0.0064493134 0.011212409
-0.057112578 -0.0064655752 0.010812163
-0.056216538 -0.0064865239 0.010677397
-0.054899983 -0.0064588212 0.010428369
-0.052981168 -0.0063577401 0.0096523464
-0.052035213 -0.0063716588 0.0097603202
-0.051064044 -0.0063830055 0.0099948049
-0.049778633 -0.0063547189 0.010039419
-0.050151661 -0.0065415208 0.01032716
-0.048892513 -0.0065190014 0.01032716
-0.047317829 -0.0064524314 0.010580868
-0.046609353 -0.0065036309 0.010694504
-0.045336187 -0.0064765979 0.010251105
-0.043653898 -0.0063883746 0.0099542439
-0.043466147 -0.0065199225 0.010190517
-0.04162072 -0.0064031878 0.010181576
-0.040701579 -0.0064265649 0.0098003745
-0.040216979 -0.006521672 0.0095834136
-0.038655769 -0.0064426283 0.0096466541
-0.037736949 -0.0064691915 0.0099195838
-0.036906194 -0.0065128575 0.0097156465
-0.035725899 -0.0064956183 0.0097156465
-0.034514155 -0.0064714039 0.0093368888
-0.033589114 -0.0065011182 0.0091033876
-0.032241803 -0.0064483606 0.0093979239
-0.031523723 -0.0065221493 0.0091714263
-0.030065734 -0.0064426572 0.009085983
-0.029248212 -0.006499602 0.0093202293
-0.028186986 -0.0065046889 0.0091041923
-0.026892679 -0.0064542424 0.0087777078
-0.026200671 -0.0065501677 0.0085855424
-0.02469546 -0.0064422935 0.0084047318
-0.02357416 -0.0064293165 0.0081388056
-0.022696132 -0.0064846091 0.0079891086
-0.021879965 -0.0065639894 0.0077556968
-0.020728324 -0.0065457863 0.0079606175
-0.019465307 -0.0064884359 0.0078368783
-0.018690357 -0.006596596 0.0071556568
-0.017357826 -0.0065091844 0.0070391595
-0.016378719 -0.0065514878 0.0069999397
-0.015234446 -0.0065290486 0.0071754158
-0.013902681 -0.0064166221 0.0067307949
-0.013069723 -0.0065348614 0.0061075985
-0.012012948 -0.0065525169 0.0053537488
-0.010860628 -0.006516377 0.0048128068
-0.1160331 -0.0052742315 0.011144996
-0.11644289 -0.0053414167 0.012528986
-0.11466555 -0.0053085899 0.014384538
-0.1127612 -0.0052692145 0.015384763
-0.1121204 -0.0052886978 0.015797555
-0.1096512 -0.0052214856 0.016085207
-0.10932384 -0.0052559534 0.016209275
-0.11044254 -0.0053612883 0.016357481
-0.10741726 -0.0052655521 0.015991122
-0.10713211 -0.0053035691 0.016016811
-0.10609265 -0.0053046327 0.015940875
-0.10427295 -0.0052663102 0.015763611
-0.10362782 -0.0052871336 0.015992016
-0.10481923 -0.005403053 0.016332686
-0.10017221 -0.0052173021 0.016348422
-0.10232934 -0.0053857542 0.016102135
-0.099417448 -0.0052881618 0.015350789
-0.098817512 -0.0053127692 0.015178591
-0.098453671 -0.0053507425 0.015075982
-0.097252503 -0.0053435438 0.014885992
-0.093815751 -0.0052119857 0.014852077
-0.094952121 -0.0053343889 0.014623016
-0.094862267 -0.0053899018 0.014783889
-0.092190124 -0.005298283 0.014748037
-0.092095174 -0.0053543705 0.014506489
-0.089854173 -0.0052855397 0.014167786
-0.089719102 -0.0053404225 0.0143646
-0.08990439 -0.0054159267 0.014378369
-0.087131329 -0.0053128856 0.014378548
-0.08681754 -0.0053591076 0.014313966
-0.085179746 -0.0053237341 0.014210284
-0.084008723 -0.0053170077 0.014321208
-0.083787382 -0.0053709857 0.014147758
-0.081954248 -0.0053217043 0.013926476
-0.080371827 -0.0052876202 0.01419583
-0.080433622 -0.0053622411 0.014504462
-0.079192817 -0.0053508654 0.014495641
-0.078371905 -0.0053679384 0.014118522
-0.07762602 -0.0053906958 0.013483673
-0.075707257 -0.0053314972 0.013483673
-0.074479476 -0.0053199623 0.013720691
-0.075046703 -0.0054381667 0.013645053
-0.072224088 -0.0053105946 0.013300747
-0.072242707 -0.0053912466 0.013300747
-0.070649296 -0.0053522191 0.01302129
-0.069473594 -0.0053441226 0.013017625
-0.06926778 -0.0054115448 0.012932301
-0.067320183 -0.0053428714 0.012864798
-0.066527151 -0.0053650928 0.012774408
-0.065350033 -0.00535656 0.012883186
-0.064212039 -0.0053510028 0.012774408
-0.06334275 -0.0053680292 0.012080133
-0.062256441 -0.0053669345 0.011704266
-0.060691942 -0.0053238547 0.01156038
-0.060087405 -0.0053649466 0.011424124
-0.059021205 -0.005365564 0.011305422
-0.05697231 -0.0052752136 0.01122424
-0.057354767 -0.0054108272 0.01100713
-0.056385074 -0.0054216417 0.010766596
-0.055065326 -0.0053985612 0.010420054
-0.052913383 -0.0052913376 0.0099183917
-0.052336484 -0.0053404574 0.0096694827
-0.050996035 -0.005312087 0.010074317
-0.051024046 -0.0054280898 0.010191232
-0.049855229 -0.0054190462 0.01032716
-0.048198916 -0.005355435 0.01032716
-0.04731144 -0.0053762998 0.010434419
-0.046446715 -0.0054007806 0.010414124
-0.044535492 -0.0053018439 0.010271966
-0.044088081 -0.0053765946 0.0099512339
-0.043210395 -0.0054012993 0.0099526048
-0.04170024 -0.0053461841 0.010250241
-0.041175801 -0.0054178685 0.0097085834
-0.039973501 -0.0054018241 0.0095610917
-0.038884439 -0.0054006167 0.0096810162
-0.037935942 -0.0054194201 0.009796977
-0.036688503 -0.0053953682 0.0098936558
-0.035727121 -0.0054131998 0.009957552
-0.034822617 -0.0054410337 0.0094630718
-0.033209596 -0.0053563863 0.0092900991
-0.032749981 -0.0054583298 0.0096221864
-0.031769931 -0.0054775742 0.0095561147
-0.030209819 -0.0053946106 0.0094374418
-0.029209791 -0.0054092202 0.0096522868
-0.028070888 -0.0053982479 0.0092353523
-0.026933152 -0.0053866301 0.0089514554
-0.026344713 -0.0054884818 0.0086979866
-0.024531104 -0.0053328485 0.0084494054
-0.023757119 -0.005399345 0.0082871914
-0.022868246 -0.00544482 0.0081149936
-0.021866098 -0.0054665245 0.0080736578
-0.020534635 -0.0054038507 0.0080527365
-0.019548202 -0.0054300562 0.0080855787
-0.018390682 -0.0054090237 0.0076071024
-0.017320408 -0.0054126275 0.007581681
-0.016579429 -0.0055264761 0.0071246922
-0.015121511 -0.0054005394 0.0073404312
-0.014201027 -0.0054619336 0.0068814456
-0.013073828 -0.0054474282 0.006360054
-0.011769997 -0.0053499988 0.0059467256
-0.010949382 -0.0054746908 0.0050419867
-0.0098078484 -0.0054488047 0.004571557
-0.11771107 -0.0042804023 0.011266321
-0.11551616 -0.0042391252 0.012528986
-0.11230996 -0.0041596279 0.014311463
-0.11494482 -0.0042970022 0.01544854
-0.1128293 -0.0042577097 0.015910983
-0.11066344 -0.0042157499 0.016185492
-0.11136424 -0.0042832401 0.016281635
-0.10896151 -0.0042315149 0.016369581
-0.10775758 -0.0042257872 0.016260535
-0.10858585 -0.0043004295 0.016357481
-0.10582928 -0.0042331712 0.016357481
-0.10469759 -0.0042302054 0.015952945
-0.10373502 -0.004234083 0.016363144
-0.10251141 -0.004227275 0.016398609
-0.10165472 -0.0042356136 0.01647529
-0.10222498 -0.0043042097 0.016508311
-0.098856576 -0.004206663 0.016034752
-0.099007934 -0.0042584059 0.015350789
-0.099303648 -0.0043175495 0.015123874
-0.095323637 -0.0041900501 0.015064448
-0.096104294 -0.0042713019 0.014869988
-0.094875216 -0.0042640548 0.01468882
-0.092050776 -0.0041841264 0.014909476
-0.093592137 -0.004303087 0.014820307
-0.091831058 -0.004271212 0.014527768
-0.090657569 -0.0042662388 0.014244795
-0.09038315 -0.0043039592 0.014255583
-0.088222057 -0.004251665 0.014264077
-0.087251224 -0.0042561572 0.014246643
-0.087124839 -0.0043024612 0.014103442
-0.084263697 -0.004213185 0.014302701
-0.083859779 -0.0042460649 0.014280289
-0.082645997 -0.0042382563 0.014210284
-0.081380188 -0.0042275423 0.014073014
-0.081539452 -0.0042915503 0.014155269
-0.07990095 -0.0042613838 0.014335096
-0.078289889 -0.0042318855 0.014817357
-0.078868836 -0.0043215798 0.013895988
-0.076703534 -0.0042613074 0.013206273
-0.075675227 -0.0042633931 0.01377061
-0.074843071 -0.0042767469 0.01370886
-0.073738649 -0.0042747045 0.013560504
-0.073158011 -0.0043034125 0.013389349
-0.071817607 -0.0042876182 0.013389349
-0.069833308 -0.0042323219 0.013300747
-0.069056921 -0.004249657 0.01306662
-0.06814453 -0.0042590331 0.012773335
-0.067758396 -0.0043021203 0.012864798
-0.067160316 -0.0043329233 0.012758136
-0.065815099 -0.0043157446 0.012774408
-0.064184859 -0.0042789909 0.012450069
-0.063903242 -0.0043324232 0.012078822
-0.062034164 -0.0042782179 0.011673301
-0.060576633 -0.0042509916 0.011673301
-0.060988527 -0.0043563233 0.011438459
-0.058860045 -0.0042807306 0.011369914
-0.05773741 -0.0042768451 0.011276901
-0.057080846 -0.0043079886 0.010976374
-0.055962179 -0.004304783 0.010961235
-0.054980479 -0.0043121944 0.010851294
-0.054140013 -0.0043312008 0.010493904
-0.052948821 -0.0043223528 0.010493904
-0.051694851 -0.0043079043 0.010497868
-0.050627001 -0.004308681 0.010435134
-0.04879779 -0.0042432859 0.010695785
-0.048573796 -0.0043176706 0.010695785
-0.046886079 -0.004262371 0.010711938
-0.046137795 -0.0042918879 0.010484427
-0.045249846 -0.0043095089 0.010475993
-0.044007238 -0.0042933887 0.010142416
-0.042896111 -0.0042896112 0.010198146
-0.042087175 -0.0043166331 0.010275811
-0.040877093 -0.0043028519 0.0097033083
-0.039860047 -0.0043091942 0.0095185637
-0.039467048 -0.0043852278 0.0094867349
-0.038026288 -0.0043458613 0.0097205937
-0.036334239 -0.0042746165 0.0095444918
-0.03576421 -0.0043350561 0.0093170106
-0.034286797 -0.0042858496 0.0091543198
-0.033591196 -0.0043343478 0.0090395808
-0.032229219 -0.004297229 0.0092967749
-0.030963102 -0.0042707724 0.0091889501
-0.030278787 -0.0043255412 0.0091041923
-0.029228676 -0.0043301741 0.0093315244
-0.027900828 -0.004292435 0.0090702772
-0.027435951 -0.0043897522 0.0087644756
-0.02611612 -0.0043526865 0.0085854232
-0.024774 -0.0043085217 0.0082335472
-0.024348449 -0.0044269911 0.0079113245
-0.02246611 -0.0042792591 0.0078368783
-0.021610947 -0.0043221898 0.0077164769
-0.020591913 -0.0043351394 0.0078891516
-0.019498318 -0.0043329597 0.0078368783
-0.018500971 -0.0043531698 0.0072411895
-0.017358908 -0.0043397271 0.00702703
-0.016399847 -0.0043732929 0.0069999397
-0.01523625 -0.0043532145 0.0072078109
-0.014032681 -0.0043177479 0.0068260431
-0.012870152 -0.0042900504 0.006360054
-0.012125663 -0.0044093318 0.0059467256
-0.010899707 -0.0043598828 0.0051192045
-0.0098026386 -0.0043567284 0.0048782825
-0.11640065 -0.0031745632 0.011286616
-0.11563393 -0.0031825851 0.012499422
-0.11540201 -0.0032056114 0.01401037
-0.11398286 -0.003195781 0.015130252
-0.11170704 -0.00316152 0.015665472
-0.11064093 -0.0031611694 0.015875667
-0.11070985 -0.0031935531 0.016031116
-0.10892724 -0.0031726379 0.016231209
-0.1091037 -0.0032089325 0.015952945
-0.10695204 -0.0031767932 0.01560533
-0.10627512 -0.0031882534 0.015494645
-0.10507476 -0.0031840836 0.015373498
-0.10252418 -0.0031384951 0.015683979
-0.10356539 -0.0032030535 0.015952945
-0.10236262 -0.0031988318 0.016059905
-0.10043493 -0.0031716293 0.016315252
-0.1009956 -0.0032232637 0.015946805
-0.097932942 -0.0031591272 0.015248001
-0.096484803 -0.0031462435 0.014924705
-0.096775599 -0.0031904043 0.014852077
-0.096577428 -0.0032192476 0.014909655
-0.095189728 -0.0032086426 0.014695644
-0.094106935 -0.0032081909 0.014864534
-0.09322606 -0.0032146915 0.014831096
-0.091315195 -0.0031854138 0.01457271
-0.090517513 -0.0031947356 0.014391929
-0.089407615 -0.0031931289 0.014402717
-0.088818535 -0.0032103083 0.014340967
-0.087982863 -0.003218885 0.014334142
-0.085103281 -0.0031519735 0.014279634
-0.084777273 -0.0031791478 0.014331847
-0.084069476 -0.0031925116 0.014358521
-0.083422638 -0.003208563 0.01438266
-0.081972033 -0.0031937156 0.01445207
-0.08104039 -0.0031989627 0.014289081
-0.079785779 -0.0031914311 0.014428884
-0.079760119 -0.003233518 0.014533967
-0.078358181 -0.0032201991 0.013614506
-0.077033527 -0.0032097304 0.013206273
-0.076793611 -0.0032448005 0.013397783
-0.07471852 -0.0032022223 0.013583004
-0.073930934 -0.0032143884 0.013534993
-0.072648615 -0.0032050859 0.013089597
-0.071996413 -0.0032237198 0.013203681
-0.071276113 -0.0032398233 0.012955099
-0.070361093 -0.003247435 0.01280272
-0.067791477 -0.0031777255 0.012649894
-0.068067208 -0.0032412955 0.012565702
-0.065962568 -0.003191737 0.012522489
-0.064948767 -0.0031942015 0.012538761
-0.0645625 -0.0032281249 0.01226905
-0.062776417 -0.003192021 0.011899322
-0.062308487 -0.0032228525 0.0114564
-0.061648007 -0.0032446319 0.011363149
-0.059965227 -0.0032124228 0.011091828
-0.059366297 -0.0032381616 0.011305422
-0.058387984 -0.0032437767 0.011184245
-0.056524646 -0.0031995082 0.010896862
-0.055809315 -0.0032197682 0.010851294
-0.05513281 -0.0032431064 0.010587215
-0.053620849 -0.0032172508 0.010406733
-0.052843202 -0.0032352982 0.010406733
-0.051736649 -0.0032335406 0.010478228
-0.04936723 -0.0031510997 0.010476589
-0.049997009 -0.0032606744 0.010695785
-0.048743896 -0.0032495928 0.010695785
-0.046572413 -0.0031753918 0.010753751
-0.046965171 -0.0032766399 0.010542035
-0.045248281 -0.00323202 0.010477364
-0.043078091 -0.0031520552 0.010423899
-0.043234374 -0.0032425781 0.010306865
-0.042213522 -0.003247194 0.010347039
-0.040995616 -0.0032364959 0.01011005
-0.039813735 -0.0032281405 0.0098367631
-0.039168395 -0.003264033 0.009796977
-0.037578538 -0.0032210175 0.010103971
-0.036989849 -0.00326381 0.0097376406
-0.035582501 -0.0032347729 0.009537667
-0.034944933 -0.0032760876 0.0091510713
-0.033412896 -0.0032335059 0.008888185
-0.03205663 -0.0032056628 0.0092900991
-0.031718604 -0.0032812348 0.0091166794
-0.030052936 -0.0032199572 0.0090518296
-0.029017424 -0.0032241582 0.0092443824
-0.028380774 -0.0032747046 0.0088713765
-0.026843211 -0.0032211852 0.0087614954
-0.026287595 -0.0032859494 0.0085854232
-0.024913149 -0.0032495409 0.0082335472
-0.024040917 -0.0032783069 0.0078811944
-0.022960175 -0.003280025 0.0080761909
-0.021857446 -0.0032786168 0.0077622533
-0.020476643 -0.0032331541 0.0077447593
-0.019264109 -0.003210685 0.0079627633
-0.018458916 -0.0032574555 0.0073332191
-0.017192598 -0.003223612 0.0070334971
-0.01628596 -0.003257192 0.0069942772
-0.015224639 -0.0032624227 0.0070213675
-0.014071017 -0.0032471577 0.0067251921
-0.012999883 -0.0032499707 0.0063244998
-0.01198379 -0.0032683066 0.0058320165
-0.010598829 -0.0031796489 0.0049237013
-0.0097836507 -0.0032612171 0.0045162439
-0.11738535 -0.0021342791 0.011266321
-0.1168091 -0.0021432862 0.012576878
-0.11371256 -0.0021057881 0.014162332
-0.11262314 -0.0021051054 0.015242726
-0.11271454 -0.0021266895 0.015665472
-0.11149713 -0.0021237549 0.015900224
-0.11020206 -0.0021192704 0.016050994
-0.10922078 -0.0021207919 0.016117096
-0.10756852 -0.0021091867 0.015755683
-0.10647593 -0.0021084342 0.015607297
-0.10594542 -0.0021189081 0.015528649
-0.10458996 -0.0021129283 0.015484184
-0.10301321 -0.0021023105 0.015528649
-0.10263 -0.0021160825 0.015615225
-0.10107774 -0.0021057865 0.016217858
-0.10180593 -0.0021432827 0.01650387
-0.10011552 -0.0021301173 0.016376376
-0.096934676 -0.0020846166 0.015307903
-0.097437479 -0.0021182061 0.014925301
-0.096777037 -0.0021269678 0.014828533
-0.094779961 -0.0021062212 0.014925301
-0.094852127 -0.0021315084 0.014685422
-0.094312713 -0.0021434708 0.014780283
-0.092563942 -0.0021279068 0.014748037
-0.092926338 -0.0021610777 0.014410764
-0.090163991 -0.0021215056 0.014074832
-0.089469098 -0.0021302167 0.014197469
-0.088215314 -0.0021256702 0.014246643
-0.08812622 -0.0021494199 0.014246643
-0.085491821 -0.0021109092 0.014172971
-0.084845513 -0.0021211379 0.014264137
-0.083338253 -0.0021098291 0.014317691
-0.082966417 -0.002127344 0.014280289
-0.082360536 -0.0021392347 0.014220089
-0.080572695 -0.002120334 0.014289081
-0.080663465 -0.0021510257 0.01444149
-0.07875859 -0.0021286104 0.014296025
-0.07797841 -0.0021363948 0.013926566
-0.077259369 -0.0021460936 0.013365716
-0.075383857 -0.002123489 0.013457119
-0.074606135 -0.0021316039 0.013587087
-0.073994249 -0.0021447609 0.013583183
-0.072547525 -0.0021337508 0.013172954
-0.071449541 -0.0021328221 0.013275266
-0.071146168 -0.0021559445 0.013015687
-0.069356762 -0.0021340542 0.013063729
-0.069376245 -0.0021680077 0.01274243
-0.068003736 -0.0021588486 0.012565702
-0.065657236 -0.0021179754 0.012494534
-0.066082262 -0.0021666314 0.012538761
-0.064017162 -0.0021339054 0.012270361
-0.062602982 -0.0021221349 0.011899322
-0.06293942 -0.0021703248 0.011424124
-0.061418414 -0.002155032 0.011215925
-0.059414946 -0.0021219624 0.011104256
-0.059367206 -0.0021588076 0.010812163
-0.057866793 -0.0021432145 0.010812163
-0.057057325 -0.0021531067 0.010671914
-0.056473609 -0.0021720619 0.010671914
-0.054257594 -0.0021277487 0.010498881
-0.053307053 -0.0021322821 0.010444254
-0.052950777 -0.0021612563 0.010242164
-0.051833343 -0.0021597226 0.010454655
-0.05108143 -0.0021736778 0.010454655
-0.049616031 -0.0021572188 0.010711938
-0.047891203 -0.0021284977 0.010775745
-0.047389176 -0.0021540537 0.01083371
-0.046225533 -0.0021500248 0.010699809
-0.045238789 -0.002154228 0.010648131
-0.044212803 -0.0021567219 0.010476589
-0.042977788 -0.0021488895 0.010423899
-0.041357398 -0.0021208923 0.010577738
-0.041522168 -0.0021853771 0.010165304
-0.039915446 -0.0021575915 0.0098488033
-0.038959119 -0.0021643955 0.0098656118
-0.038151011 -0.0021800578 0.010228813
-0.036507044 -0.0021474732 0.0099456906
-0.035911933 -0.0021764808 0.009537667
-0.034389213 -0.0021493258 0.0089685023
-0.033532143 -0.0021633641 0.0090054274
-0.032208528 -0.0021472352 0.0091674626
-0.031669714 -0.0021841181 0.0090945065
-0.030022746 -0.002144482 0.009079963
-0.029260976 -0.0021674796 0.0091714263
-0.028238835 -0.0021722182 0.0088713765
-0.027027719 -0.0021622174 0.0087777078
-0.025979782 -0.0021649818 0.0084257722
-0.024795929 -0.0021561678 0.0082412958
-0.023676967 -0.0021524518 0.0080343485
-0.022850564 -0.002176244 0.0081655979
-0.02148265 -0.002148265 0.0078733563
-0.020476962 -0.0021554695 0.0078891516
-0.019562641 -0.0021736268 0.007892102
-0.0182935 -0.0021521766 0.0074276328
-0.017338114 -0.0021672642 0.007396847
-0.016393151 -0.0021857535 0.0071430206
-0.01502098 -0.0021458543 0.0071430206
-0.014037961 -0.0021596863 0.0065431595
-0.012915247 -0.0021525412 0.0062872767
-0.011856589 -0.0021557435 0.0057959855
-0.0107971 -0.0021594202 0.0048782825
-0.0097119324 -0.0021582074 0.004442513
-0.11798782 -0.0010726165 0.011233002
-0.11439902 -0.0010495322 0.012504101
-0.11382163 -0.0010539041 0.01404649
-0.11365148 -0.0010621633 0.015130252
-0.11192832 -0.0010559276 0.015527219
-0.11094078 -0.0010565788 0.015726954
-0.1116269 -0.0010733355 0.015826464
-0.10834592 -0.0010519021 0.015952945
-0.10724403 -0.0010514121 0.015763611
-0.10704412 -0.0010598428 0.015485436
-0.10450888 -0.0010450889 0.015485436
-0.10457916 -0.0010563552 0.01536575
-0.10365255 -0.0010576791 0.015417963
-0.10338965 -0.0010658727 0.015692264
-0.10278624 -0.0010706901 0.01650387
-0.10045984 -0.0010574721 0.016376376
-0.098263949 -0.0010453612 0.016165167
-0.10034347 -0.0010789621 0.015506446
-0.096918985 -0.0010534673 0.01511386
-0.095652521 -0.0010511265 0.014912456
-0.096879549 -0.0010764394 0.014869988
-0.094667561 -0.0010636805 0.014800131
-0.093862876 -0.0010666236 0.01485014
-0.094202809 -0.0010827909 0.014542013
-0.091301993 -0.001061651 0.014283836
-0.090752885 -0.001067681 0.014033198
-0.090562649 -0.0010781267 0.01408726
-0.088592716 -0.0010673821 0.014235586
-0.085981637 -0.0010485565 0.014334142
-0.086528517 -0.0010682533 0.014317691
-0.084018767 -0.0010502347 0.014384985
-0.084926866 -0.0010750237 0.014346123
-0.082481682 -0.0010574575 0.014331847
-0.081088796 -0.0010531013 0.014073014
-0.082358077 -0.0010836589 0.014155269
-0.08053834 -0.0010738445 0.014434218
-0.079305045 -0.0010716898 0.014307231
-0.07822872 -0.0010716262 0.013901263
-0.076871201 -0.0010676556 0.013258547
-0.075162888 -0.0010586322 0.013422817
-0.075805068 -0.0010829295 0.013403118
-0.073348135 -0.0010630165 0.01351127
-0.072875202 -0.0010716941 0.013172954
-0.072566286 -0.0010830789 0.013316303
-0.069888115 -0.0010589109 0.013300747
-0.068927065 -0.0010604165 0.01325056
-0.068606205 -0.001071972 0.012747139
-0.067249216 -0.0010674478 0.012687951
-0.067167126 -0.0010833407 0.012510121
-0.065093756 -0.0010671108 0.012720019
-0.064043082 -0.0010673847 0.012522489
-0.063827872 -0.0010818283 0.012061447
-0.062135011 -0.0010712933 0.011525065
-0.060125224 -0.0010548285 0.011450768
-0.060142543 -0.001073974 0.011314362
-0.059008937 -0.0010728898 0.01123333
-0.057841219 -0.0010711337 0.011091828
-0.057439085 -0.0010837563 0.011073828
-0.056370366 -0.0010840455 0.01072365
-0.054813355 -0.0010747716 0.010550618
-0.054677971 -0.0010935594 0.010328948
-0.05206158 -0.0010624813 0.010345221
-0.052513819 -0.0010940379 0.010478228
-0.050561029 -0.0010757666 0.010444254
-0.049282111 -0.0010713503 0.010498881
-0.048900522 -0.0010866782 0.010516882
-0.047754969 -0.0010853403 0.010812581
-0.046301562 -0.0010767805 0.010638863
-0.045272321 -0.0010779124 0.010498881
-0.044531547 -0.0010861352 0.01036635
-0.04302673 -0.0010756683 0.010577738
-0.04178144 -0.001071319 0.010418683
-0.040915899 -0.0010767342 0.010141522
-0.039693415 -0.0010727949 0.0099512339
-0.039169364 -0.001088038 0.010080844
-0.037906874 -0.0010830536 0.010391295
-0.036561094 -0.0010753263 0.01022476
-0.036034595 -0.0010919574 0.009957552
-0.034595702 -0.0010811157 0.0091720521
-0.033515494 -0.0010811449 0.0090702772
-0.032730535 -0.0010910177 0.0092851222
-0.030971602 -0.0010679862 0.0091432333
-0.030523747 -0.0010901339 0.0090674758
-0.029236611 -0.0010828375 0.0090674758
-0.028356168 -0.0010906219 0.0087429583
-0.027469182 -0.0010987673 0.0085695982
-0.026136329 -0.0010890138 0.0081942379
-0.02502298 -0.0010879557 0.008162111
-0.024033479 -0.0010924309 0.007682234
-0.022953074 -0.0010930035 0.0076495409
-0.021624137 -0.001081207 0.0074818134
-0.020724798 -0.0010907789 0.0073919296
-0.019457564 -0.0010809758 0.0076949894
-0.018490445 -0.0010876732 0.0073332191
-0.017306106 -0.0010816316 0.0072420239
-0.016542284 -0.0011028189 0.0070213675
-0.015022826 -0.001073059 0.0069942772
-0.013972335 -0.0010747949 0.0066395998
-0.013057255 -0.0010881047 0.0060561597
-0.011942521 -0.0010856837 0.0057882965
-0.010917895 -0.0010917896 0.004791975
-0.0097400034 -0.0010822227 0.0044283271
-0.11664298 0 0.011286616
-0.11241788 0 0.012737274
-0.11350408 0 0.014015019
-0.11449638 0 0.015017509
-0.11157877 0 0.015469223
-0.11206196 0 0.015760034
-0.11007446 0 0.01571849
-0.10911866 0 0.015901268
-0.10878114 0 0.015755683
-0.1075281 0 0.015607297
-0.10476948 0 0.015528649
-0.10636085 0 0.015342981
-0.10339168 0 0.015468806
-0.10229208 0 0.01560533
-0.1026784 0 0.016355783
-0.09964294 0 0.016559541
-0.10024504 0 0.016140759
-0.098841399 0 0.015529275
-0.095087826 0 0.015123874
-0.097449102 0 0.014974862
-0.095942892 0 0.014928699
-0.094747297 0 0.014865518
-0.09508419 0 0.01497826
-0.093612157 0 0.014688671
-0.091896974 0 0.01449433
-0.089774698 0 0.014061123
-0.088592969 0 0.014164895
-0.088191591 0 0.014246643
-0.088058703 0 0.014246643
-0.085836537 0 0.01423946
-0.085291378 0 0.01424098
-0.084506527 0 0.01424098
-0.082085133 0 0.014169455
-0.082098737 0 0.013754487
-0.081925809 0 0.014088154
-0.079468817 0 0.014498651
-0.078897081 0 0.014328748
-0.077615909 0 0.014044017
-0.076659717 0 0.013515234
-0.076535679 0 0.013742656
-0.074602842 0 0.013473153
-0.074268788 0 0.013289869
-0.072707824 0 0.013116539
-0.071982272 0 0.013191342
-0.069753319 0 0.01341486
-0.07034345 0 0.013155162
-0.068475395 0 0.012955815
-0.067663044 0 0.012570143
-0.065833621 0 0.012503296
-0.065568283 0 0.012503296
-0.064701758 0 0.012195051
-0.062760346 0 0.01153475
-0.061792199 0 0.011425018
-0.060913362 0 0.011170596
-0.059743691 0 0.01100713
-0.058773227 0 0.011170596
-0.058311284 0 0.010775417
-0.055952743 0 0.010731131
-0.057008829 0 0.010489076
-0.05509115 0 0.010345221
-0.05393393 0 0.010235906
-0.052628174 0 0.0098017752
-0.051616032 0 0.010145038
-0.049972009 0 0.010216266
-0.049691886 0 0.010432392
-0.048622545 0 0.010214835
-0.046568371 0 0.010498881
-0.046275642 0 0.010498881
-0.045529705 0 0.010516882
-0.043554302 0 0.010250777
-0.043208878 0 0.01036635
-0.041947246 0 0.010372072
-0.040350884 0 0.010219544
-0.039507072 0 0.010141522
-0.038671013 0 0.010115147
-0.037594467 0 0.010478705
-0.036367033 0 0.010320514
-0.03557748 0 0.010174215
-0.034574416 0 0.009428829
-0.033607945 0 0.0091432333
-0.032358509 0 0.0093210042
-0.031312086 0 0.0093093514
-0.030561315 0 0.0091166794
-0.029244915 0 0.009079963
-0.02830405 0 0.0087429583
-0.026859177 0 0.0085906386
-0.025692331 0 0.0084047318
-0.025209274 0 0.0081698596
-0.023531264 0 0.0077440143
-0.022491524 0 0.0078447759
-0.021654654 0 0.0076053739
-0.020344134 0 0.0077002943
-0.019486131 0 0.0077193379
-0.01851018 0 0.0073816478
-0.01719893 0 0.0074578226
-0.016388785 0 0.0074578226
-0.015173879 0 0.0073332191
-0.014120531 0 0.0066935122
-0.01314945 0 0.0062928796
-0.011898305 0 0.0058163404
-0.010617414 0 0.0048911572
-0.0097916061 0 0.0043628514
-0.11468954 0.0010426322 0.011365086
-0.11569434 0.0010614159 0.012914747
-0.11397422 0.0010553168 0.014015019
-0.11322289 0.0010581578 0.015066475
-0.11366519 0.0010723132 0.015288621
-0.11146714 0.0010615919 0.015780896
-0.11073084 0.0010647196 0.015874296
-0.10905144 0.0010587518 0.015874654
-0.10756947 0.0010546027 0.015629083
-0.10749792 0.0010643359 0.015552402
-0.10608241 0.001060824 0.015528649
-0.10453228 0.0010558816 0.015342981
-0.10235827 0.0010444722 0.015468806
-0.10435532 0.0010758281 0.015538543
-0.10016792 0.0010434159 0.015605509
-0.10243805 0.0010782953 0.016492039
-0.09930177 0.0010564018 0.016095549
-0.098073363 0.0010545523 0.015929669
-0.099253394 0.0010788412 0.015361667
-0.097286493 0.0010690823 0.014947951
-0.095412567 0.0010601396 0.014947951
-0.094328538 0.0010598713 0.01486212
-0.092353597 0.0010494727 0.014928699
-0.093114242 0.0010702786 0.014718354
-0.092583679 0.0010765544 0.014374912
-0.090823866 0.0010685161 0.013940275
-0.089038819 0.0010599858 0.0139772
-0.089197278 0.0010746659 0.014037609
-0.086877994 0.0010594877 0.014009207
-0.086083166 0.0010627552 0.013922572
-0.085037611 0.0010629701 0.014111191
-0.083698161 0.0010594705 0.014139622
-0.082598388 0.0010589537 0.013905376
-0.082730122 0.0010744171 0.013485938
-0.080505133 0.001059278 0.013684273
-0.079473063 0.0010596409 0.014125526
-0.07850197 0.0010608374 0.014150083
-0.077475548 0.0010613089 0.013685167
-0.077692151 0.0010790577 0.013271093
-0.074885808 0.0010547298 0.013299674
-0.07450591 0.0010643702 0.013299674
-0.073791765 0.001069446 0.01313591
-0.072638117 0.0010682077 0.012973458
-0.072022349 0.0010749603 0.01295507
-0.070459887 0.0010675741 0.013270825
-0.069232211 0.0010651109 0.012858957
-0.068421237 0.0010690818 0.012714267
-0.068224452 0.0010829278 0.012583017
-0.066464782 0.0010720126 0.012503296
-0.065615885 0.0010756704 0.012508661
-0.063938156 0.0010656359 0.012098312
-0.063521795 0.0010766406 0.011865109
-0.062506005 0.0010776897 0.011122346
-0.061264139 0.0010748095 0.010785043
-0.060291339 0.001076631 0.010761499
-0.058766406 0.0010684801 0.010853171
-0.057139661 0.0010581418 0.010503024
-0.056721456 0.0010702162 0.01021871
-0.055917595 0.0010753383 0.010051638
-0.053980462 0.0010584404 0.0099508166
-0.053676624 0.0010735324 0.0098410845
-0.052722912 0.0010759778 0.0097577274
-0.05181348 0.0010794476 0.010181278
-0.050390255 0.0010721331 0.010194689
-0.049131639 0.0010680791 0.010198444
-0.047957085 0.0010657129 0.010198444
-0.04727494 0.0010744304 0.010466129
-0.046473619 0.0010807818 0.010465145
-0.045038003 0.0010723333 0.010526061
-0.044290308 0.0010802514 0.010250777
-0.042451553 0.0010612889 0.010250777
-0.041731738 0.0010700445 0.010320783
-0.041340325 0.0010879033 0.01036033
-0.039475501 0.0010669054 0.010143757
-0.039180297 0.0010883416 0.010136783
-0.038091838 0.0010883382 0.010526687
-0.036755275 0.0010810375 0.010492831
-0.035382848 0.0010722076 0.010233015
-0.034677394 0.0010836686 0.0092419684
-0.033696413 0.001086981 0.0091432333
-0.033102658 0.0011034219 0.0093210042
-0.031089768 0.0010720609 0.0092851222
-0.030164385 0.0010772995 0.0091088414
-0.029034572 0.0010753545 0.008921355
-0.028474819 0.0010951854 0.0087155402
-0.026735859 0.0010694343 0.0087297261
-0.026073515 0.0010863965 0.0084145665
-0.024713553 0.0010745024 0.0082984865
-0.023703979 0.0010774536 0.007858932
-0.023014452 0.0010959263 0.0081655979
-0.021829978 0.0010914989 0.0078209639
-0.020808119 0.0010951641 0.0077428818
-0.019582558 0.0010879199 0.0077632666
-0.018396201 0.0010821295 0.0075775385
-0.017380195 0.0010862622 0.0075825751
-0.016507553 0.0011005035 0.0075238645
-0.015004058 0.0010717185 0.0073603988
-0.01414584 0.0010881416 0.0068020821
-0.013072615 0.0010893845 0.0064404309
-0.011872791 0.0010793447 0.0059489906
-0.01096788 0.001096788 0.0049851537
-0.009728482 0.0010809425 0.0045343637
-0.11785746 0.0021428626 0.011496425
-0.11628969 0.0021337557 0.013066322
-0.11376978 0.0021068477 0.014194489
-0.11296348 0.0021114671 0.015066475
-0.11183987 0.0021101863 0.015474945
-0.11041343 0.0021031131 0.015851647
-0.11066236 0.0021281224 0.015871525
-0.10791923 0.0020955191 0.016061813
-0.10840019 0.0021254939 0.015521169
-0.10715663 0.0021219135 0.015485436
-0.10621753 0.0021243505 0.015482932
-0.10485364 0.0021182555 0.015325636
-0.10399406 0.0021223279 0.01547727
-0.10237709 0.002110868 0.015517592
-0.10275687 0.0021407683 0.01647529
-0.10147341 0.0021362824 0.016129673
-0.097872488 0.0020823935 0.016002923
-0.098282374 0.0021135993 0.015450746
-0.097404681 0.002117493 0.01511246
-0.095722005 0.0021037802 0.015029281
-0.096493199 0.0021442934 0.01500237
-0.095498383 0.002146031 0.014999717
-0.092981637 0.0021132191 0.015142947
-0.092828311 0.0021339841 0.014858842
-0.090798765 0.0021115993 0.014311522
-0.090179197 0.0021218637 0.014054835
-0.090837531 0.0021627983 0.014248312
-0.087486871 0.0021081173 0.014302015
-0.086872317 0.0021188369 0.013880819
-0.086595505 0.0021381606 0.013970912
-0.084950745 0.0021237687 0.014049143
-0.084434621 0.0021375853 0.013970912
-0.083013102 0.002128541 0.013786823
-0.082498848 0.0021428273 0.013384461
-0.080700167 0.0021236886 0.013499707
-0.07963416 0.0021235775 0.014106691
-0.077857904 0.0021042677 0.014101416
-0.078622103 0.0021540301 0.013654858
-0.077289619 0.0021469339 0.01327306
-0.074663475 0.0021031967 0.013271093
-0.075291447 0.0021511842 0.013255268
-0.073364049 0.0021264942 0.013027042
-0.073250607 0.0021544294 0.012860835
-0.072154649 0.00215387 0.012822598
-0.070276596 0.0021295939 0.013155162
-0.069266781 0.0021312856 0.012786537
-0.068613283 0.0021441651 0.012659609
-0.067684978 0.0021487295 0.012570143
-0.067073122 0.0021636488 0.012282401
-0.0660602 0.0021659082 0.012266457
-0.063279092 0.0021093029 0.012195051
-0.063748986 0.0021609825 0.011326998
-0.06262093 0.0021593424 0.011080563
-0.061064012 0.002142597 0.010956466
-0.060246821 0.0021516723 0.010775417
-0.059257571 0.0021548208 0.010875702
-0.05781132 0.00214116 0.010797471
-0.057400115 0.0021660421 0.010548711
-0.055979963 0.0021530755 0.010474473
-0.054322373 0.0021302891 0.010414183
-0.053491589 0.0021396636 0.010320365
-0.052556351 0.0021451574 0.0098968148
-0.05157762 0.0021490676 0.010225445
-0.050648797 0.0021552681 0.010347515
-0.049125612 0.0021358961 0.010352433
-0.048608314 0.0021603694 0.010352433
-0.047370508 0.002153205 0.010466129
-0.046374127 0.0021569361 0.010356039
-0.045096163 0.0021474361 0.010516882
-0.043934267 0.0021431348 0.010187209
-0.042623464 0.0021311732 0.010247588
-0.042493459 0.0021791519 0.010049969
-0.040756356 0.0021450715 0.010308504
-0.040173791 0.0021715562 0.010250777
-0.038633365 0.0021462983 0.009850204
-0.037400536 0.0021371734 0.010202169
-0.036252964 0.0021325273 0.010123044
-0.035775568 0.0021682163 0.0099047422
-0.034789879 0.0021743674 0.0098824203
-0.033526488 0.0021629992 0.0089758635
-0.032141037 0.0021427358 0.009428829
-0.031770241 0.0021910511 0.0089786649
-0.03040595 0.0021718536 0.0091771483
-0.029354604 0.0021744152 0.0091088414
-0.027965149 0.0021511654 0.0089362264
-0.026954692 0.0021563752 0.0087126493
-0.02569201 0.0021410009 0.0086612403
-0.024850532 0.0021609159 0.0087759495
-0.024104243 0.0021912949 0.0080917478
-0.022619115 0.0021542015 0.0082276762
-0.021499703 0.0021499703 0.0081205368
-0.02052325 0.0021603422 0.007892102
-0.019537421 0.0021708247 0.0078243911
-0.018433312 0.0021686249 0.0075775385
-0.017321542 0.0021651927 0.0075825751
-0.016230462 0.0021640616 0.0075825751
-0.015404887 0.0022006982 0.0075165331
-0.014068067 0.002164318 0.0066517293
-0.012860395 0.0021433991 0.0062273443
-0.011907545 0.0021650081 0.0059433877
-0.010904383 0.0021808767 0.0050271451
-0.0096866954 0.0021525989 0.0045472383
-0.11879347 0.0032398216 0.010976076
-0.11470415 0.0031569947 0.012727827
-0.11638106 0.0032328072 0.013960689
-0.11442405 0.0032081506 0.014832675
-0.11103854 0.0031426004 0.015185386
-0.11210854 0.0032031012 0.015486687
-0.10947625 0.0031579689 0.015521169
-0.10856232 0.0031620094 0.015763849
-0.10882046 0.0032006018 0.015494645
-0.10676097 0.0031711177 0.015382379
-0.1058433 0.0031752987 0.015368581
-0.10523883 0.0031890552 0.015339166
-0.10293044 0.0031509318 0.015397012
-0.10276644 0.0031783436 0.015491068
-0.1026529 0.0032079031 0.0155617
-0.10012496 0.0031618408 0.016183317
-0.099578395 0.003178034 0.015827358
-0.099037595 0.0031947612 0.015507579
-0.096752681 0.0031549786 0.015410423
-0.099145353 0.003268528 0.015227348
-0.096015282 0.0032005091 0.015227348
-0.094146185 0.003173467 0.015298963
-0.093818709 0.0031983652 0.015351385
-0.093277894 0.003216479 0.015221745
-0.091638178 0.0031966805 0.014389157
-0.09149088 0.0032290898 0.01433754
-0.088570535 0.0031632332 0.014358371
-0.087936483 0.003178427 0.014366388
-0.087963268 0.0032181682 0.014009207
-0.086482868 0.0032030691 0.014130026
-0.085351251 0.0032006721 0.01415211
-0.084371917 0.0032039967 0.014116168
-0.082078241 0.0031568555 0.013819993
-0.08219333 0.0032023373 0.013444543
-0.081081361 0.0032005799 0.013956785
-0.078581199 0.0031432477 0.014315903
-0.078917123 0.0031993429 0.014159083
-0.077145264 0.0031703529 0.013873845
-0.077007599 0.00320865 0.013354003
-0.075902745 0.0032071583 0.013271093
-0.074293889 0.0031840238 0.013354003
-0.073914349 0.0032136673 0.013089865
-0.072656788 0.0032054465 0.012947917
-0.071367867 0.0031955761 0.01294452
-0.070271559 0.0031941617 0.01309815
-0.070364997 0.0032476154 0.012869775
-0.067926347 0.0031840473 0.012698948
-0.067422122 0.0032105772 0.012659609
-0.06706088 0.0032448813 0.012132138
-0.065301754 0.0032115616 0.012132138
-0.064200707 0.0032100352 0.011881381
-0.063349403 0.0032211561 0.011531025
-0.06247998 0.0032317229 0.011081547
-0.061654888 0.003244994 0.010614455
-0.059515476 0.0031883291 0.010518163
-0.058678579 0.0032006497 0.010727733
-0.058325987 0.0032403325 0.010504961
-0.057569027 0.0032586241 0.010395348
-0.05608286 0.0032355494 0.01018554
-0.0555184 0.0032657883 0.010144144
-0.053853787 0.0032312272 0.010012507
-0.05242506 0.0032096978 0.0098413229
-0.051791862 0.0032369914 0.010225445
-0.049609158 0.0031665419 0.010352433
-0.050387111 0.0032861156 0.010520488
-0.048468508 0.0032312337 0.010516882
-0.046804421 0.0031912106 0.010611326
-0.046675809 0.0032564516 0.010559797
-0.044950292 0.003210735 0.010568202
-0.044070367 0.0032246606 0.010259688
-0.043159142 0.0032369357 0.010259688
-0.041972116 0.0032286241 0.010183096
-0.040700369 0.0032131867 0.010344952
-0.039892364 0.0032345157 0.010259688
-0.038602162 0.0032168468 0.010536522
-0.037899558 0.0032485335 0.01088202
-0.037068341 0.003270736 0.01051414
-0.035588518 0.0032353201 0.0099390447
-0.034660973 0.003249466 0.0096895099
-0.033633389 0.0032548439 0.0089142323
-0.032009199 0.0032009201 0.009185046
-0.03151755 0.0032604362 0.0089029372
-0.030289665 0.0032453213 0.0093190372
-0.028718479 0.0031909419 0.0091817975
-0.028255798 0.0032602842 0.0088692307
-0.026984699 0.0032381637 0.0089281797
-0.025773413 0.0032216767 0.0089029372
-0.024995754 0.0032603156 0.0087944567
-0.023905639 0.0032598597 0.0080917478
-0.022751749 0.0032502497 0.0082276762
-0.021845266 0.00327679 0.0080917478
-0.020529874 0.003241559 0.0078243911
-0.019222444 0.0032037408 0.0078055859
-0.018588368 0.0032802999 0.0076530278
-0.017310549 0.0032457276 0.0076949894
-0.01627682 0.003255364 0.0076530278
-0.015179425 0.003252734 0.0073919296
-0.014007637 0.0032325315 0.0064353645
-0.013157856 0.0032894639 0.0060583651
-0.011969711 0.0032644665 0.0056695044
-0.010751826 0.0032255477 0.0050126016
-0.0098198606 0.0032732869 0.0043854415
-0.11564165 0.0042051505 0.010903656
-0.11672166 0.0042833635 0.012886882
-0.11384846 0.0042166095 0.014085531
-0.11241122 0.0042022881 0.014890701
-0.11252318 0.0042461581 0.01520741
-0.11120217 0.0042362735 0.015608162
-0.10994042 0.0042284778 0.015800774
-0.10988593 0.004267415 0.01569435
-0.10839637 0.004250838 0.01550281
-0.10818581 0.0042845863 0.015385956
-0.10652728 0.0042610914 0.015382379
-0.10503159 0.0042437003 0.015339404
-0.10439084 0.0042608506 0.015369117
-0.10413229 0.0042941151 0.015397012
-0.10190517 0.0042460486 0.015324414
-0.10042157 0.0042282767 0.015511066
-0.10030165 0.0042681554 0.015634298
-0.097671337 0.0042009177 0.015711308
-0.097231746 0.0042274673 0.015486449
-0.097006232 0.0042640101 0.015330881
-0.095515385 0.004245128 0.015298963
-0.094679229 0.0042552464 0.015259027
-0.093575701 0.004253441 0.015383303
-0.093296677 0.0042895027 0.015330881
-0.093307488 0.0043398831 0.014331281
-0.090809651 0.0042733955 0.014164895
-0.089335561 0.0042540743 0.01433754
-0.089901865 0.0043326197 0.014344305
-0.086403891 0.0042148237 0.013935804
-0.086456843 0.0042694742 0.013810277
-0.085966475 0.0042983238 0.013807654
-0.08348646 0.0042271628 0.013810277
-0.082818717 0.0042471141 0.013552904
-0.081177339 0.0042170044 0.01367119
-0.080560662 0.0042400351 0.013829201
-0.080399856 0.0042879921 0.014142811
-0.079323635 0.004287764 0.013767153
-0.078470379 0.0042997464 0.013575315
-0.077221997 0.0042901114 0.013188511
-0.075300135 0.0042422609 0.013188511
-0.074090518 0.004233744 0.013386488
-0.074609287 0.0043251761 0.013073027
-0.072687946 0.0042757615 0.013014704
-0.071600042 0.0042746291 0.0131585
-0.071020484 0.0043042721 0.013223499
-0.069287725 0.0042638602 0.012853533
-0.069497012 0.0043435632 0.012714267
-0.067329615 0.0042748963 0.012273937
-0.065314882 0.0042138635 0.01211822
-0.065638617 0.0043041715 0.01211822
-0.063501082 0.0042334055 0.011834174
