ply
format ascii 1.0
comment PCL generated
element vertex 1288
property float x
property float y
property float z
element camera 0
property float view_px
property float view_py
property float view_pz
property float x_axisx
property float x_axisy
property float x_axisz
property float y_axisx
property float y_axisy
property float y_axisz
property float z_axisx
property float z_axisy
property float z_axisz
property float focal
property float scalex
property float scaley
property float centerx
property float centery
property int viewportx
property int viewporty
property float k1
property float k2
end_header
-0.10101993 0.008331541 0.021630168
-0.10019481 0.0083495677 0.021787047
-0.09984947 0.0084083769 0.021679252
-0.098267935 0.0083632283 0.021723539
-0.098529972 0.0084756967 0.021305889
-0.096873537 0.0084237857 0.020902216
-0.093562782 0.0082252994 0.020706117
-0.094939694 0.0084390836 0.020530403
-0.092933819 0.0083536021 0.020641267
-0.091424584 0.0083113266 0.020384818
-0.09244372 0.0085005723 0.019946128
-0.090034135 0.0083752684 0.019407004
-0.089362167 0.0084105572 0.018770874
-0.087934509 0.0083747152 0.018702775
-0.087025248 0.0083879754 0.018369764
-0.087028094 0.0084905447 0.018153578
-0.08631856 0.0085252905 0.018100142
-0.084256329 0.0084256334 0.01804626
-0.083776802 0.0084837275 0.017932028
-0.082559384 0.0084676296 0.017511845
-0.08089824 0.0084050121 0.017554283
-0.081422962 0.0085708378 0.017482549
-0.078869238 0.0084127188 0.017482549
-0.076952152 0.0083191516 0.017116159
-0.077776015 0.0085233981 0.017076939
-0.076199912 0.0084666573 0.017112941
-0.075702578 0.008529868 0.016848236
-0.074113362 0.0084700985 0.016708016
-0.073271938 0.0084952973 0.016782343
-0.071753718 0.008441614 0.01675114
-0.071867563 0.0085812015 0.016809255
-0.069747686 0.0084542651 0.016358018
-0.068225451 0.0083969785 0.015968859
-0.067880295 0.0084850369 0.015928179
-0.066010855 0.0083823306 0.015990883
-0.065787151 0.0084886644 0.015921801
-0.065570176 0.0085993679 0.014972746
-0.062717654 0.0083623538 0.014769793
-0.063249797 0.0085762432 0.014267057
-0.061507158 0.0084837452 0.013994485
-0.059731767 0.0083834063 0.013803959
-0.060796987 0.0086852843 0.013504535
-0.058333192 0.0084848274 0.013347208
-0.057141665 0.0084654316 0.013126343
-0.057328682 0.0086533865 0.013146907
-0.056038808 0.0086213546 0.013054341
-0.054580677 0.0085616745 0.012841523
-0.053899117 0.0086238589 0.012839437
-0.05235688 0.0085480623 0.012733102
-0.05104512 0.00850752 0.012742221
-0.050676428 0.0086257746 0.012742221
-0.048364315 0.0084111858 0.012248963
-0.0489728 0.0087062754 0.011870831
-0.047257751 0.0085923187 0.011390775
-0.04621958 0.0085989917 0.01148802
-0.045171835 0.0086041586 0.011673391
-0.044025578 0.0085903564 0.011764467
-0.042535484 0.0085070971 0.011774361
-0.042144816 0.0086450903 0.012040645
-0.041422207 0.008720465 0.013049394
-0.040054023 0.0086603295 0.013815045
-0.038488474 0.0085529946 0.014595747
-0.036362659 0.0083114654 0.015231699
-0.035544012 0.0083632972 0.017970502
-0.034800503 0.0084364852 0.01837787
-0.033002127 0.0082505317 0.01893425
-0.032770324 0.0084568579 0.018955529
-0.032724127 0.0087264339 0.01911369
-0.030246105 0.0083437525 0.018714011
-0.029722558 0.0084921597 0.017036855
-0.028991112 0.0085899588 0.015601516
-0.02724974 0.008384536 0.015116841
-0.026698673 0.0085435752 0.014696091
-0.025701817 0.0085672727 0.014686644
-0.024446934 0.0085032815 0.014772117
-0.023702005 0.0086189108 0.015090376
-0.0223528 0.0085153524 0.015010923
-0.021649117 0.0086596468 0.015466899
-0.020190824 0.0085013993 0.01562801
-0.019106237 0.0084916614 0.015671134
-0.017882114 0.0084151123 0.015720844
-0.017064895 0.0085324477 0.01574257
-0.015792452 0.0084226402 0.015344948
-0.014885959 0.0085062627 0.015099615
-0.013724034 0.0084455591 0.014219582
-0.012829468 0.0085529787 0.010491848
-0.012209649 0.0088797454 0.0072206259
-0.010935251 0.0087482007 0.0049253106
-0.11895646 0.0096451174 0.016256899
-0.11515429 0.0094217146 0.019405961
-0.11225678 0.0092689078 0.020440102
-0.11357901 0.0094649168 0.021146297
-0.11332881 0.0095323287 0.02237612
-0.10980344 0.0093229329 0.022719562
-0.11085912 0.0095022097 0.022454351
-0.10917707 0.0094480151 0.022421032
-0.10726857 0.0093729813 0.022569537
-0.10565231 0.0093222624 0.022288978
-0.10507882 0.0093634585 0.022267401
-0.1056198 0.0095057813 0.021968156
-0.10354104 0.0094128205 0.021647185
-0.10105758 0.009280798 0.021545857
-0.10075627 0.0093485191 0.02159971
-0.099751599 0.0093517127 0.021284908
-0.098509066 0.0093324371 0.021362156
-0.098045431 0.0093873274 0.021453023
-0.097762957 0.0094609307 0.021085322
-0.095819235 0.0093736202 0.02070117
-0.095570281 0.0094520049 0.020622164
-0.094008878 0.0094008874 0.020454794
-0.09365996 0.0094712311 0.02045846
-0.092698336 0.0094805118 0.020332813
-0.091158979 0.009430239 0.020209402
-0.089588776 0.0093755694 0.01968047
-0.090381458 0.0095698014 0.019222856
-0.08736375 0.0093604019 0.019063562
-0.086381726 0.009366692 0.018534482
-0.08701387 0.0095503023 0.018328339
-0.084654175 0.0094060199 0.01820755
-0.085337572 0.0096004773 0.017754287
-0.083342582 0.0094947238 0.017760903
-0.081183054 0.0093672751 0.017657846
-0.083014399 0.0097029814 0.017450124
-0.080303647 0.0095096417 0.017335534
-0.07850121 0.0094201444 0.017470181
-0.078429766 0.0095387548 0.017141342
-0.077448048 0.0095483884 0.017089576
-0.076183036 0.0095228795 0.017146528
-0.075255468 0.0095394254 0.016848236
-0.073697612 0.0094754072 0.016855478
-0.073085777 0.0095329266 0.016953558
-0.072309881 0.0095704254 0.016873032
-0.070993744 0.0095364731 0.017158628
-0.06969247 0.0095035182 0.016322583
-0.069528237 0.0096269865 0.016234666
-0.067218006 0.0094525311 0.016100556
-0.067817055 0.0096881501 0.016118079
-0.066056393 0.0095888302 0.016053826
-0.064221323 0.0094752777 0.015428901
-0.064548299 0.0096822437 0.015043586
-0.063410185 0.0096727395 0.014654905
-0.0617489 0.0095817251 0.014415413
-0.060488902 0.0095508788 0.014061481
-0.059167653 0.0095090866 0.013685971
-0.058678918 0.0096020037 0.013397068
-0.05803255 0.0096720904 0.013124913
-0.056508947 0.0095958589 0.013120145
-0.055237431 0.0095603243 0.012904733
-0.054386616 0.0095976377 0.012753844
-0.053224865 0.0095804753 0.012689739
-0.052312639 0.0096084438 0.012755781
-0.05112379 0.0095857102 0.012796372
-0.04998799 0.0095721679 0.012809813
-0.049038734 0.0095945345 0.012111038
-0.047942523 0.0095885033 0.011833608
-0.046578065 0.0095273312 0.011547983
-0.046412621 0.0097142691 0.011556417
-0.045164365 0.0096780779 0.011416167
-0.043337028 0.0095130056 0.011606872
-0.043375175 0.009759414 0.011375368
-0.041435093 0.0095619448 0.011632025
-0.040855031 0.009676191 0.012188792
-0.039764434 0.0096724285 0.013049394
-0.038700651 0.0096751628 0.013869196
-0.036860235 0.0094783455 0.014841616
-0.035841595 0.0094874809 0.01755634
-0.03438767 0.0093784546 0.018501401
-0.033484571 0.0094175348 0.018955529
-0.032423798 0.0094133606 0.019296229
-0.030699929 0.0092099784 0.019475669
-0.032735936 0.010159427 0.019077718
-0.029773772 0.0095701404 0.018475533
-0.028439447 0.0094798151 0.01721406
-0.027778143 0.0096155107 0.015907198
-0.026675966 0.0096033476 0.015486985
-0.025507681 0.0095653804 0.015486985
-0.024771789 0.0096933078 0.01546526
-0.023431592 0.0095856506 0.015707165
-0.02264693 0.0097058266 0.015636742
-0.021946302 0.0098758359 0.015954316
-0.019840358 0.0093980636 0.015988708
-0.018775277 0.0093876384 0.015944302
-0.018111024 0.0095881885 0.015862793
-0.016658563 0.0093704415 0.015765935
-0.01582725 0.0094963489 0.015269041
-0.014892845 0.0095739719 0.015061885
-0.013757366 0.0095243296 0.013551354
-0.013131501 0.0098486254 0.0091426969
-0.012130577 0.0099250171 0.006444633
-0.010814006 0.0097326059 0.0045643151
-0.11572905 0.010426041 0.016364425
-0.11270405 0.010245821 0.018925309
-0.11412249 0.010469952 0.020217568
-0.11221894 0.010390642 0.021063924
-0.10929623 0.0102146 0.022377461
-0.11050314 0.010424824 0.022637546
-0.10953431 0.010431839 0.022575051
-0.10910351 0.010490721 0.022483647
-0.10846651 0.010530729 0.022749722
-0.10598984 0.010391161 0.022714198
-0.10451183 0.010347705 0.022528797
-0.10441342 0.010441341 0.021987259
-0.10364069 0.010468756 0.021716297
-0.10112735 0.010319117 0.021585435
-0.10219869 0.010535948 0.021595389
-0.099341981 0.010348123 0.021511286
-0.099726163 0.010497491 0.02125901
-0.098854311 0.010516415 0.021072477
-0.096360445 0.010361338 0.020882905
-0.096879587 0.01053039 0.020772547
-0.094612919 0.010397024 0.020276815
-0.09467262 0.010519179 0.020122021
-0.09407302 0.010570003 0.019956261
-0.092651181 0.010528543 0.019874364
-0.091060527 0.010466727 0.019749552
-0.090285845 0.010498353 0.019301981
-0.088734232 0.01043932 0.019101351
-0.088195629 0.010499479 0.0188649
-0.087659881 0.010561431 0.018526882
-0.086391933 0.010535601 0.018365353
-0.085907564 0.010605873 0.018048793
-0.084165931 0.010520741 0.017628551
-0.082761452 0.010476133 0.017760903
-0.082788453 0.010613903 0.017657846
-0.081599265 0.010597307 0.017537892
-0.079925835 0.010516557 0.017518282
-0.079354964 0.010580661 0.01746124
-0.078336552 0.01058602 0.017077327
-0.076874524 0.010530756 0.017236203
-0.076113857 0.010571369 0.017112941
-0.075268194 0.010601154 0.016843796
-0.073882513 0.010554644 0.016843796
-0.073578946 0.010663615 0.016708016
-0.072362922 0.010641607 0.016740531
-0.070526429 0.010526332 0.016859859
-0.070260048 0.010645462 0.016302854
-0.068307929 0.010508912 0.016026348
-0.06821955 0.010659304 0.016076982
-0.067357905 0.01069173 0.016055763
-0.06542886 0.010553041 0.016053826
-0.065750435 0.01077876 0.015865356
-0.06373436 0.010622392 0.015292495
-0.063075617 0.010690781 0.014903814
-0.062794983 0.01082672 0.014640778
-0.060733046 0.010654921 0.014171928
-0.059745669 0.010668869 0.013804525
-0.058712032 0.010674914 0.013603777
-0.058123767 0.01076366 0.013337702
-0.057152603 0.010783509 0.013187408
-0.055784289 0.010727747 0.012993336
-0.054873768 0.010759562 0.012924403
-0.052722745 0.010544549 0.012741268
-0.052582331 0.010731088 0.012612551
-0.051928412 0.010818419 0.012903869
-0.050719183 0.010791315 0.01251629
-0.049125005 0.010679348 0.012365252
-0.048046023 0.010676892 0.011866033
-0.047449782 0.010784042 0.011705667
-0.045781817 0.010646935 0.011522561
-0.044497166 0.010594563 0.011688739
-0.043983381 0.010727653 0.011546254
-0.042494357 0.010623589 0.01136148
-0.041974496 0.010762691 0.011460006
-0.040914889 0.010767075 0.01196605
-0.039512809 0.010679137 0.012286991
-0.038569424 0.010713729 0.013151824
-0.037829354 0.010808387 0.013693392
-0.035719708 0.010505796 0.014584213
-0.034622204 0.010491576 0.017678976
-0.033540931 0.01048154 0.018618226
-0.032178849 0.010380274 0.018955529
-0.031682853 0.01056095 0.01936537
-0.029722605 0.010249173 0.019077718
-0.030669294 0.010953319 0.01888153
-0.030506803 0.011298816 0.018375427
-0.028099138 0.010807361 0.017912358
-0.026125329 0.010450131 0.017585427
-0.025421474 0.010592281 0.016631842
-0.024592562 0.010692418 0.016033113
-0.024248347 0.011021975 0.016527832
-0.022837339 0.010874922 0.016089559
-0.02083089 0.010415445 0.016527832
-0.01989587 0.01047151 0.016165257
-0.019163283 0.010646268 0.016058028
-0.017893566 0.010525626 0.015862793
-0.017037641 0.010648525 0.01540345
-0.015872911 0.01058194 0.015057951
-0.014729064 0.01052076 0.01414454
-0.014013955 0.010779966 0.010574222
-0.013146807 0.010955673 0.0088542402
-0.011924084 0.010840076 0.006074816
-0.010897459 0.010897459 0.0045542419
-0.0099179884 0.011019987 0.0040170252
-0.11500485 0.011396877 0.016291201
-0.11596196 0.011596195 0.018762738
-0.11375653 0.011480017 0.020231903
-0.11047067 0.011251642 0.020979375
-0.11236421 0.01155146 0.021794647
-0.11106472 0.011525583 0.022719562
-0.10989282 0.011512581 0.022504061
-0.10935449 0.01156634 0.022203088
-0.10691553 0.011418163 0.02218017
-0.10492299 0.011315225 0.022146881
-0.10811067 0.011774429 0.022020578
-0.10330708 0.011363778 0.021721154
-0.10306023 0.011451136 0.021669358
-0.10232789 0.011485783 0.021495491
-0.10058349 0.011406375 0.021584898
-0.099654473 0.011418741 0.021233112
-0.09976504 0.011551741 0.020935327
-0.097838603 0.011449198 0.021115452
-0.098088183 0.011601828 0.021158129
-0.095370673 0.011403015 0.020842433
-0.095077574 0.011492893 0.020760268
-0.095110931 0.011624668 0.020118356
-0.093489952 0.011554938 0.019952595
-0.091948643 0.01149358 0.019884765
-0.092143007 0.011650265 0.019630373
-0.090710677 0.011602527 0.019345522
-0.089970298 0.011643214 0.019103885
-0.088836491 0.01163335 0.018940598
-0.08716891 0.011552506 0.018511951
-0.085573688 0.011479396 0.018328339
-0.086332828 0.011724212 0.018048793
-0.083142146 0.011432046 0.01796627
-0.084371857 0.01174798 0.017781675
-0.082358569 0.011614669 0.017657846
-0.080607824 0.011515403 0.017450124
-0.080353133 0.011630058 0.017470181
-0.079116285 0.011603721 0.017272294
-0.077049792 0.011453346 0.017077744
-0.077464961 0.011672801 0.017058134
-0.075849876 0.011588176 0.016875237
-0.073806114 0.011434751 0.016803741
-0.074180409 0.011656922 0.016686291
-0.07347893 0.011714032 0.016639471
-0.071471609 0.011561584 0.016554534
-0.072318308 0.011873154 0.016654372
-0.070005506 0.011667585 0.01623261
-0.068647698 0.011617303 0.015971214
-0.068257563 0.011731768 0.015932322
-0.066981852 0.011695243 0.016048968
-0.066877395 0.011865344 0.016076982
-0.065786667 0.011863168 0.015932322
-0.064120874 0.011755493 0.015373528
-0.063043103 0.011753798 0.014894754
-0.061797317 0.011720181 0.014860928
-0.060564041 0.011687797 0.014624745
-0.059653942 0.011717739 0.013918519
-0.057897888 0.011579578 0.013397068
-0.056909867 0.01159275 0.013451695
-0.057104085 0.011851791 0.013252467
-0.05470575 0.01157237 0.013041019
-0.05434601 0.011721688 0.013040066
-0.053853381 0.011847744 0.012803972
-0.052688621 0.011828057 0.012984455
-0.051994774 0.01191547 0.013045341
-0.050402928 0.01179643 0.012551457
-0.048790354 0.011667258 0.012368143
-0.048304576 0.011807784 0.012084365
-0.047318749 0.011829687 0.011849105
-0.045716312 0.01169487 0.011673391
-0.045016211 0.01178996 0.011704057
-0.04413715 0.011841673 0.011445254
-0.042549819 0.0117012 0.01139766
-0.041678391 0.011755443 0.01134643
-0.041002158 0.011869045 0.011789382
-0.039629258 0.01178167 0.012183547
-0.038809497 0.011858458 0.012536049
-0.037954405 0.011928528 0.013509244
-0.035901159 0.011615081 0.014161795
-0.034700133 0.011566711 0.015570998
-0.033348206 0.011463445 0.018039256
-0.032525271 0.011541225 0.018612027
-0.031368975 0.011501957 0.018653035
-0.030055633 0.011400412 0.018775195
-0.02930869 0.011514128 0.018600911
-0.02815677 0.011471276 0.018263519
-0.027436262 0.01160765 0.018148512
-0.028059661 0.01234625 0.017876685
-0.026573401 0.012179475 0.017806888
-0.024798093 0.011859957 0.017169356
-0.023472857 0.011736428 0.017451137
-0.02170332 0.011368405 0.016505152
-0.021153392 0.011634366 0.016535461
-0.02006346 0.011615687 0.016087383
-0.018934052 0.01157081 0.015897155
-0.017848913 0.011549297 0.015303642
-0.016878663 0.011604081 0.014821887
-0.015766801 0.011562321 0.01376918
-0.014979681 0.011769749 0.012106448
-0.014179351 0.011997912 0.0094734728
-0.012940506 0.011862131 0.0073647201
-0.012144478 0.012144478 0.0058607757
-0.010860184 0.011946203 0.0043991506
-0.0096908361 0.011844355 0.0040325224
-0.11701159 0.012649901 0.016291201
-0.11326499 0.01235618 0.018907338
-0.1124926 0.012384506 0.020099699
-0.11132122 0.012369024 0.020977706
-0.11289219 0.012660806 0.021715492
-0.10846552 0.012279116 0.022495121
-0.11127201 0.012716801 0.022340924
-0.1071754 0.012366393 0.022220343
-0.10611191 0.012362553 0.022208184
-0.10750629 0.012647798 0.021942258
-0.10413425 0.012372386 0.02187416
-0.10438809 0.01252657 0.021584898
-0.10361555 0.01255946 0.021576196
-0.10196126 0.012485052 0.021494061
-0.10151894 0.012559044 0.021416187
-0.099926494 0.012490812 0.020986289
-0.098102003 0.012391832 0.02085191
-0.099198386 0.012663623 0.021030128
-0.097104266 0.012529583 0.02081579
-0.096019924 0.012524338 0.020415395
-0.095135972 0.012545402 0.02044028
-0.095195405 0.01269272 0.019980192
-0.092308059 0.012446031 0.020107388
-0.093304299 0.012723314 0.019783169
-0.091395743 0.01260631 0.019682199
-0.089715414 0.012518429 0.01956287
-0.089046888 0.012571325 0.019280702
-0.088364407 0.012623486 0.019208223
-0.08750964 0.012651996 0.018917263
-0.087536007 0.012810146 0.01842761
-0.085513972 0.012668736 0.018328339
-0.083853595 0.012578039 0.01820755
-0.083052814 0.012615618 0.018328279
-0.081792936 0.012583529 0.018130362
-0.081874192 0.012759614 0.017759889
-0.079410106 0.012538437 0.017482549
-0.078311071 0.012529771 0.017416537
-0.078907132 0.012795751 0.017023921
-0.077411421 0.012725164 0.017157376
-0.075779811 0.012629969 0.01701808
-0.074491225 0.012590067 0.016887993
-0.072712757 0.012465044 0.016734421
-0.073046945 0.012703816 0.016481966
-0.073125504 0.012904501 0.016441435
-0.070637822 0.012651551 0.01649189
-0.06993711 0.012715838 0.016266644
-0.068842329 0.012709353 0.01623261
-0.06709341 0.012580015 0.016153783
-0.067523353 0.01286159 0.016065091
-0.066181868 0.012809393 0.015961856
-0.064922005 0.012771541 0.015832216
-0.063526884 0.012705376 0.015550464
-0.063205875 0.012855431 0.014881641
-0.06162855 0.012750734 0.01481095
-0.061736032 0.012997059 0.014645666
-0.05921708 0.012689374 0.013912499
-0.058269076 0.012713253 0.013627559
-0.058217034 0.012937118 0.013284206
-0.055857562 0.012646995 0.013252467
-0.055057026 0.012705468 0.013041019
-0.054462422 0.012814687 0.013040066
-0.052630946 0.012631427 0.012816936
-0.05177781 0.012680281 0.012890249
-0.051657055 0.012914264 0.012858778
-0.049901478 0.012740803 0.01262179
-0.050037485 0.013053257 0.012297273
-0.048347481 0.012892661 0.011989176
-0.046902213 0.012791513 0.011674136
-0.046630297 0.013013106 0.011357993
-0.045114849 0.012889956 0.011277765
-0.043651756 0.012776122 0.01109466
-0.043427374 0.013028213 0.010813355
-0.041914366 0.012896729 0.010844231
-0.040358264 0.012744715 0.010860801
-0.040172096 0.013028787 0.011482924
-0.038568534 0.012856178 0.01189369
-0.03770094 0.012926036 0.012482435
-0.036871124 0.013013337 0.01278764
-0.034613471 0.012586717 0.013982892
-0.033606339 0.012602377 0.015791237
-0.032445714 0.012559631 0.018028229
-0.031299271 0.012519708 0.01826039
-0.030305577 0.012540238 0.018447012
-0.029461512 0.012626363 0.018448442
-0.028343573 0.012597143 0.018095732
-0.027249286 0.012576593 0.01773262
-0.026451753 0.012696841 0.017697632
-0.024991635 0.012495818 0.017465949
-0.024064383 0.012555329 0.016703576
-0.023159226 0.012632306 0.016842514
-0.02215551 0.012660291 0.016230524
-0.021071523 0.012642914 0.016034603
-0.019846873 0.012534867 0.015494138
-0.01888009 0.012586727 0.015146047
-0.018041216 0.012734976 0.014623046
-0.016847245 0.012635434 0.013563722
-0.015774807 0.012619845 0.011612296
-0.015211408 0.013038349 0.0094778538
-0.014048461 0.01296781 0.0084739029
-0.013123071 0.013123071 0.006904453
-0.011998847 0.013089651 0.0052697659
-0.010801523 0.012961827 0.0042577982
-0.1178375 0.013800788 0.016115636
-0.11409709 0.013484201 0.018907338
-0.1128049 0.013453795 0.020237446
-0.11370879 0.013687169 0.021193892
-0.1103515 0.01340719 0.022557229
-0.11252915 0.013800745 0.022525191
-0.10937607 0.013541798 0.022498518
-0.10770126 0.013462657 0.022293508
-0.10935038 0.013801504 0.022228837
-0.10649246 0.013572568 0.021777362
-0.10585738 0.013625206 0.021764249
-0.10487116 0.01363325 0.021465003
-0.10306326 0.013533558 0.021318614
-0.10122862 0.013428287 0.021225095
-0.10206874 0.013679317 0.021244466
-0.099293306 0.013445969 0.021278322
-0.10044939 0.013745707 0.02095893
-0.098705865 0.01365081 0.020811975
-0.096727192 0.013521005 0.020811528
-0.096034661 0.013570115 0.020166129
-0.095345229 0.013620746 0.020403981
-0.094187647 0.013604881 0.020107388
-0.09494321 0.013868109 0.020029277
-0.092349291 0.013642509 0.019854456
-0.090896733 0.013582271 0.019682199
-0.091450937 0.013823979 0.019598216
-0.089536823 0.013693867 0.019404173
-0.089099295 0.013789176 0.019280702
-0.087473378 0.013700649 0.018964052
-0.086589478 0.0137276 0.018569976
-0.084931798 0.01363103 0.018328339
-0.085420214 0.013880786 0.018186599
-0.083424456 0.013728076 0.018145531
-0.082523979 0.013753996 0.018113464
-0.081047781 0.013683391 0.017672122
-0.079008244 0.013514567 0.017394781
-0.079841614 0.013839212 0.017382413
-0.078395627 0.013772204 0.017009228
-0.076026931 0.013539041 0.017215878
-0.075765446 0.013679872 0.016900629
-0.075418636 0.013809046 0.017009228
-0.074984863 0.013925761 0.016790152
-0.074151993 0.013970665 0.016666532
-0.071555167 0.013679665 0.016617417
-0.071216404 0.013818108 0.016554534
-0.07129702 0.014043353 0.016337991
-0.068688512 0.013737702 0.016467422
-0.068967804 0.014009085 0.016463012
-0.066702776 0.013764064 0.016339779
-0.065388963 0.013710588 0.016123563
-0.065299258 0.013916235 0.015970379
-0.063706458 0.013803066 0.015832216
-0.062297508 0.013726569 0.015126765
-0.062421419 0.013991008 0.014963388
-0.06084403 0.013876709 0.014798105
-0.058955669 0.013686138 0.014307559
-0.059476659 0.014058119 0.013858855
-0.057632044 0.01387438 0.013558656
-0.055971753 0.013728921 0.013627559
-0.055920176 0.013980044 0.013318032
-0.054464407 0.013883084 0.013116807
-0.053267915 0.013849658 0.012837738
-0.053303301 0.014141693 0.012984991
-0.050999574 0.013812385 0.013019174
-0.05034427 0.013925011 0.012805074
-0.049596377 0.014016367 0.012028307
-0.047834132 0.013818748 0.011686653
-0.04728242 0.013969807 0.011606872
-0.04617333 0.013959379 0.011376947
-0.044767704 0.01385667 0.011376947
-0.04396655 0.013940613 0.011211246
-0.043079577 0.014000863 0.010769516
-0.041561022 0.013853674 0.010995865
-0.041083675 0.014054941 0.010887057
-0.039511103 0.013882279 0.011152029
-0.038716324 0.013980894 0.011533678
-0.037885018 0.014071578 0.011862814
-0.036762971 0.014056429 0.011991888
-0.035171997 0.013855636 0.012836933
-0.033580404 0.013642039 0.01382181
-0.032390457 0.013583095 0.015342236
-0.031608608 0.013697063 0.017638266
-0.030371973 0.013615021 0.018095732
-0.029300915 0.013603996 0.01773262
-0.028205108 0.013580237 0.01765272
-0.02707798 0.01353899 0.017615169
-0.025985906 0.013512671 0.017409474
-0.025306515 0.013707696 0.017364353
-0.024020527 0.01357682 0.016596556
-0.022917792 0.013542332 0.016505152
-0.022121836 0.013694469 0.015814334
-0.021009017 0.013655861 0.015687287
-0.019959835 0.013656729 0.015250981
-0.01902218 0.013738241 0.014430225
-0.017874192 0.0136685 0.01350224
-0.017071974 0.013870979 0.010641038
-0.016195619 0.014036204 0.0092888474
-0.015176114 0.014092106 0.0087758005
-0.014159806 0.014159806 0.0080342889
-0.013084768 0.014175166 0.0064250231
-0.011857855 0.01401383 0.0050585866
-0.010869524 0.014130382 0.0043151677
-0.11656376 0.014701735 0.015258372
-0.11548427 0.014697999 0.019005597
-0.11305882 0.014521316 0.020322174
-0.11216853 0.014540364 0.021563143
-0.11183573 0.014632711 0.022720903
-0.10988523 0.014513144 0.022957265
-0.10739312 0.014319083 0.022962332
-0.10999296 0.014806745 0.022498518
-0.10711089 0.014558761 0.022228837
-0.10519508 0.014438539 0.021669626
-0.10624882 0.014727559 0.021727771
-0.10310695 0.014434972 0.021576196
-0.10326004 0.014602429 0.021290243
-0.10284474 0.014692106 0.021189809
-0.10093465 0.014567888 0.021271706
-0.10194204 0.014866548 0.021215647
-0.10106096 0.014893195 0.021004111
-0.096551038 0.014379942 0.021072477
-0.097492293 0.014676259 0.020881414
-0.096229136 0.014643564 0.020525396
-0.095386252 0.014674807 0.020671308
-0.095325172 0.014828359 0.020155907
-0.093363211 0.014686348 0.020045429
-0.091252483 0.01451744 0.019887596
-0.091459289 0.014717586 0.019550085
-0.089245476 0.014528333 0.019529134
-0.089382663 0.01472185 0.019357145
-0.088846631 0.014807772 0.019163221
-0.087114677 0.014694042 0.018888175
-0.086210437 0.014718855 0.018719524
-0.085713506 0.01481468 0.018460214
-0.082616694 0.014457922 0.018218637
-0.083564095 0.014808828 0.018145531
-0.082419306 0.014793209 0.017932028
-0.081990391 0.014907343 0.017858654
-0.080771774 0.014879011 0.017532617
-0.079844095 0.014904231 0.017478228
-0.077679746 0.014696168 0.017064989
-0.076966017 0.014760604 0.017136455
-0.074688338 0.014522733 0.017008573
-0.075557314 0.014898625 0.017016381
-0.074008092 0.01480162 0.0164527
-0.073383495 0.014889405 0.016283453
-0.071512543 0.014723171 0.016214579
-0.071428016 0.014925256 0.016477108
-0.069568902 0.01475704 0.01626125
-0.068651594 0.014786497 0.016204387
-0.068711825 0.015030711 0.016080201
-0.066655569 0.014812347 0.015977412
-0.066025771 0.014909044 0.015961856
-0.065345332 0.01499729 0.015660822
-0.062992491 0.014698248 0.015279949
-0.063864529 0.015154296 0.014961749
-0.061387889 0.014817765 0.014903188
-0.060471054 0.01485254 0.014638245
-0.059674043 0.014918511 0.013999313
-0.057901189 0.014738484 0.014107794
-0.057747938 0.014971687 0.013558656
-0.056940459 0.015040876 0.013313174
-0.05527135 0.014880748 0.013234138
-0.05418551 0.014874453 0.013066649
-0.053106278 0.014869758 0.012849391
-0.052122232 0.014892067 0.013036877
-0.05121896 0.014938864 0.013211578
-0.05040551 0.015014407 0.013166189
-0.048701108 0.014822075 0.012810409
-0.04856864 0.015110242 0.012077063
-0.048211318 0.015339965 0.011919588
-0.045554619 0.014831736 0.011602581
-0.04513815 0.01504605 0.011468828
-0.044370502 0.015150902 0.011384666
-0.042930454 0.015025659 0.010947049
-0.04188161 0.015034424 0.010844231
-0.040672209 0.014984498 0.010821849
-0.039458409 0.014930209 0.010987818
-0.038922843 0.015136661 0.011082888
-0.037452649 0.01498106 0.011484265
-0.036770217 0.015140677 0.011590391
-0.035750262 0.015166779 0.011730492
-0.03359703 0.0146987 0.012071848
-0.03260434 0.014724541 0.012637675
-0.031651534 0.014770715 0.014503926
-0.030216079 0.014587073 0.016636968
-0.029483987 0.014741994 0.017059773
-0.028537627 0.014797288 0.01717487
-0.027210098 0.014651592 0.016967535
-0.026401863 0.014785042 0.017059773
-0.025152564 0.014672329 0.016636968
-0.024187822 0.014723022 0.016085893
-0.023227766 0.014781306 0.015788645
-0.021880997 0.014587332 0.014842182
-0.020984123 0.014688886 0.014064193
-0.020180209 0.014869628 0.013135701
-0.01895483 0.014742647 0.012217492
-0.017936859 0.014771531 0.010194778
-0.017082229 0.014946951 0.0092138648
-0.016341319 0.015251897 0.0086607337
-0.015288234 0.015288234 0.0083146989
-0.014325681 0.015427656 0.0069108307
-0.01301569 0.015184972 0.0063301027
-0.012210654 0.015540833 0.0049875379
-0.11987793 0.016199721 0.015922427
-0.11473777 0.015646059 0.019267321
-0.11240204 0.015468172 0.020591348
-0.11335988 0.015744427 0.02209723
-0.11069252 0.015517643 0.022475868
-0.10947635 0.015491937 0.02270487
-0.11062065 0.01580295 0.022805929
-0.10793509 0.015567562 0.02248913
-0.10797704 0.015724812 0.022228837
-0.10694475 0.015727168 0.021382481
-0.10484944 0.015571698 0.021631896
-0.10411496 0.015617244 0.021485358
-0.10395979 0.015751483 0.021143138
-0.10207614 0.0156239 0.020899534
-0.099932276 0.015453445 0.020905375
-0.10117108 0.015807981 0.020811975
-0.099171169 0.015658606 0.020808727
-0.099024065 0.015801713 0.020848274
-0.097489439 0.015724104 0.020525396
-0.094417952 0.015394231 0.02044028
-0.096816294 0.01595873 0.020558476
-0.094723068 0.015787177 0.020253301
-0.093450442 0.015750075 0.020123541
-0.092710964 0.015803006 0.01991719
-0.090674348 0.015633509 0.019682199
-0.089565657 0.015621916 0.019673914
-0.089749835 0.015838206 0.019638568
-0.087817036 0.015681613 0.019489497
-0.086800091 0.015686763 0.01912263
-0.08745113 0.015997157 0.018773139
-0.084578924 0.015662765 0.018537611
-0.084994771 0.01593652 0.018491119
-0.083689056 0.015890328 0.018197626
-0.081833653 0.015737241 0.018151045
-0.081540927 0.015884597 0.018031389
-0.080123223 0.015813794 0.017925769
-0.078538992 0.015707798 0.017797619
-0.078874536 0.015988082 0.017137438
-0.077248082 0.015872892 0.017448932
-0.075929649 0.015818678 0.017255634
-0.075371772 0.015923616 0.017130166
-0.074186459 0.015897099 0.016639054
-0.073128454 0.01589749 0.016475201
-0.072837926 0.016067188 0.016342849
-0.07097479 0.015889877 0.016557604
-0.069531031 0.015802508 0.016110927
-0.069489978 0.016036149 0.01607734
-0.0677315 0.01587457 0.016188323
-0.066941671 0.015938494 0.016085505
-0.065803401 0.015920177 0.015989989
-0.064619355 0.015890006 0.015852809
-0.064241521 0.01606038 0.015566409
-0.062976837 0.016011059 0.015166312
-0.061134119 0.015810547 0.015116572
-0.061397519 0.016157242 0.014727056
-0.059259843 0.015873171 0.014225781
-0.058649711 0.015995376 0.013858855
-0.057781931 0.016050536 0.013491362
-0.056541611 0.016002344 0.013449222
-0.055272717 0.015944052 0.013121039
-0.05434715 0.015984455 0.012946576
-0.053681988 0.016104596 0.01258716
-0.052467287 0.016061416 0.012779117
-0.051580295 0.016118841 0.012958854
-0.049829308 0.01590297 0.012810409
-0.049551617 0.016158136 0.011972755
-0.04818283 0.016060943 0.011919588
-0.046565372 0.015874559 0.011655629
-0.046334684 0.016163262 0.011602581
-0.045057755 0.016092055 0.011505723
-0.044157766 0.016155278 0.011420071
-0.043363146 0.016261181 0.0109438
-0.04174304 0.016055016 0.010672271
-0.040518727 0.015994234 0.010559827
-0.039603032 0.016055284 0.01071763
-0.038480211 0.016033422 0.01071763
-0.037750974 0.01617899 0.011164248
-0.037103388 0.016369142 0.01126489
-0.035352264 0.016069211 0.011597812
-0.034175161 0.016019607 0.011665106
-0.033000663 0.015968062 0.011832863
-0.031594001 0.015797 0.012165278
-0.030585233 0.015819948 0.014170825
-0.029549412 0.015830042 0.015215069
-0.028336439 0.015742466 0.01612094
-0.027307246 0.01575418 0.016085893
-0.026422286 0.015853371 0.016085893
-0.025386777 0.015866736 0.01594764
-0.024441684 0.015940228 0.015067726
-0.023101188 0.015750811 0.014776319
-0.022013197 0.015723711 0.013597012
-0.02098953 0.015742149 0.012828648
-0.020022269 0.015807055 0.011923313
-0.019218275 0.01601523 0.0099059641
-0.018271588 0.016121989 0.0085639954
-0.017224858 0.016148305 0.0076546073
-0.016377291 0.016377291 0.0078739822
-0.015238257 0.016326705 0.0066596568
-0.014051246 0.016212977 0.0062706769
-0.013048132 0.016310165 0.0055689514
-0.012152598 0.016571725 0.004499048
-0.11759924 0.016951242 0.015227497
-0.11311831 0.016453573 0.018970728
-0.11478843 0.016849676 0.020753682
-0.11195836 0.016586423 0.022720903
-0.10993306 0.016438589 0.023090899
-0.11068386 0.016706998 0.022982806
-0.11049306 0.016837038 0.023109347
-0.10757574 0.016550113 0.022752136
-0.10776668 0.016740454 0.02235198
-0.1054295 0.016537961 0.021540493
-0.10603918 0.016798286 0.021627158
-0.1054532 0.016872512 0.021730959
-0.1034409 0.016717721 0.021196395
-0.1025134 0.016736882 0.020859599
-0.10168072 0.016772076 0.021131933
-0.09897206 0.016495343 0.021188587
-0.10081215 0.01697889 0.021055937
-0.097202964 0.016545186 0.020907551
-0.097789563 0.016824011 0.020723075
-0.096414149 0.016767677 0.020668089
-0.096023448 0.016883243 0.020688236
-0.0945592 0.016810523 0.020622432
-0.092764296 0.016676728 0.020374775
-0.09170223 0.016673133 0.020107388
-0.091261648 0.016783752 0.019854456
-0.090715125 0.016877234 0.019701034
-0.08904244 0.01676093 0.019699723
-0.088299774 0.016819004 0.019529134
-0.088138886 0.016990628 0.019145101
-0.086478822 0.016873915 0.018773139
-0.085964136 0.01698057 0.018537611
-0.0850012 0.017000241 0.018616855
-0.082543224 0.016717615 0.018383205
-0.083323359 0.017091971 0.018186599
-0.081459612 0.016926672 0.017930716
-0.079515249 0.016740052 0.017930716
-0.081010886 0.017282322 0.017846793
-0.078791797 0.017036064 0.017398208
-0.076497011 0.016766468 0.017448932
-0.076155685 0.016923487 0.01720646
-0.074287094 0.016740754 0.017267495
-0.073062003 0.016699886 0.016590446
-0.073444732 0.017030662 0.016349077
-0.071470939 0.016816691 0.016283929
-0.070174962 0.0167582 0.0165838
-0.07052432 0.017096806 0.016064972
-0.068232536 0.0167957 0.016165197
-0.068495207 0.017123802 0.016420811
-0.066908814 0.016992714 0.016163379
-0.065069258 0.016792065 0.016001225
-0.064734496 0.01697954 0.016112506
-0.064159527 0.017109208 0.015868634
-0.06220983 0.016870463 0.015564293
-0.062132038 0.017139873 0.015374362
-0.060583733 0.017005961 0.015066594
-0.058929838 0.016837096 0.014371306
-0.059464134 0.017298657 0.013681978
-0.057186287 0.016944084 0.013512969
-0.056100875 0.016936114 0.013376087
-0.056030914 0.017240282 0.013305545
-0.054841317 0.017205119 0.0133017
-0.053217404 0.017029569 0.012864679
-0.052411914 0.017114095 0.012638599
-0.051116589 0.017038863 0.012689739
-0.051112894 0.017400134 0.012767106
-0.048338495 0.01681339 0.011995524
-0.047641486 0.016939195 0.011859179
-0.047277737 0.017191906 0.011621445
-0.046601158 0.017339965 0.011500388
-0.04448083 0.016945077 0.011500388
-0.044541199 0.017381931 0.011373013
-0.042561173 0.01702447 0.010837585
-0.041509639 0.017029595 0.010604352
-0.041392997 0.017428631 0.010414958
-0.039195187 0.016949268 0.010467201
-0.038531132 0.017124949 0.010516554
-0.037681494 0.017225826 0.010726839
-0.036806725 0.017320812 0.011005074
-0.035529207 0.017226283 0.011115134
-0.035019226 0.017509613 0.011082888
-0.032848723 0.01695418 0.011288524
-0.031878944 0.017002104 0.011665106
-0.031026382 0.017118003 0.012017012
-0.029374687 0.016785536 0.013819396
-0.028734187 0.017027667 0.014130414
-0.027438978 0.016885525 0.014354318
-0.026276842 0.016817179 0.014965624
-0.025450012 0.016966674 0.013749212
-0.024307821 0.016909787 0.013380647
-0.023238152 0.016900474 0.012655616
-0.022261502 0.016961144 0.012210459
-0.021233346 0.016986677 0.010080189
-0.020307103 0.017100718 0.0098172426
-0.01954071 0.017369522 0.0084572136
-0.018164273 0.017095786 0.0078916848
-0.017603077 0.017603077 0.0073676705
-0.01639854 0.017491776 0.0073034465
-0.015049245 0.017199136 0.0065982342
-0.014228798 0.017512366 0.0060615242
-0.013087796 0.017450394 0.005510509
-0.011862678 0.017254805 0.0046022534
-0.11725567 0.017958075 0.014886379
-0.11556944 0.017860731 0.018757045
-0.11306672 0.017634258 0.021140635
-0.11186504 0.017608386 0.022554517
-0.11246668 0.017868537 0.022725344
-0.11089169 0.017784517 0.022922903
-0.10920162 0.017680263 0.023134291
-0.10909842 0.017833395 0.022614986
-0.10794467 0.01781611 0.021911263
-0.10608771 0.017681284 0.021496624
-0.1059275 0.017829383 0.021586269
-0.10431408 0.017733393 0.02144742
-0.10282783 0.017657304 0.021131247
-0.102718 0.01781843 0.020374775
-0.10141239 0.017773306 0.020495296
-0.10075388 0.017841833 0.020375431
-0.099878833 0.017873054 0.020771772
-0.097745404 0.017677361 0.020850509
-0.098900311 0.018078551 0.020652533
-0.09590219 0.017721057 0.020584852
-0.094619341 0.017676139 0.020752192
-0.094555281 0.017860441 0.020738244
-0.092935145 0.017751658 0.020472944
-0.092174932 0.017806523 0.020407915
-0.091677375 0.017913969 0.020045429
-0.08988151 0.017767275 0.019809633
-0.089697227 0.017939445 0.019648343
-0.088801898 0.017971814 0.019474804
-0.086788431 0.017775942 0.019184738
-0.085995562 0.017828349 0.019059509
-0.086062036 0.018062403 0.018773139
-0.083573379 0.017759344 0.018682003
-0.083876006 0.018049268 0.018218637
-0.082046449 0.017881919 0.018186599
-0.080802009 0.017839404 0.017876357
-0.080180556 0.017935125 0.017876357
-0.078636117 0.017824186 0.017478377
-0.077134863 0.01772017 0.017137438
-0.076813146 0.017887993 0.017061144
-0.076027207 0.01795087 0.016788393
-0.075612716 0.018104455 0.017025888
-0.074890412 0.018187672 0.016406685
-0.072219506 0.017793212 0.016349077
-0.071476042 0.017869011 0.016303092
-0.072043911 0.018279798 0.016360641
-0.06970001 0.017953033 0.016149968
-0.069132499 0.018080808 0.016384751
-0.067926221 0.018042902 0.016288579
-0.066621535 0.017977238 0.016249955
-0.065742046 0.018026045 0.016112506
-0.065312102 0.018201735 0.016114533
-0.063466243 0.017982101 0.016084939
-0.063494362 0.018294984 0.015592694
-0.061772589 0.018105758 0.015553057
-0.060213212 0.017958326 0.01526317
-0.05930905 0.018004533 0.014778137
-0.057984281 0.017922414 0.014223725
-0.057307657 0.018041298 0.013681978
-0.057426762 0.018419905 0.013683528
-0.055343542 0.018093081 0.013376027
-0.054450504 0.018150168 0.013454318
-0.053580757 0.018217457 0.012972206
-0.052474745 0.018205525 0.012722731
-0.051697891 0.01830967 0.012715846
-0.049856458 0.018033188 0.012823611
-0.04875119 0.018016744 0.012759686
-0.048459377 0.018306876 0.01202926
-0.047017138 0.018165713 0.011945397
-0.045591038 0.018024364 0.011665642
-0.045221895 0.0183041 0.011500388
-0.044034742 0.018258307 0.011384666
-0.042549558 0.018083563 0.0109438
-0.041874301 0.0182529 0.010643125
-0.040294081 0.018026298 0.010469019
-0.039851066 0.018309949 0.010610372
-0.038739078 0.018293455 0.010557473
-0.037930418 0.018423345 0.010693967
-0.036410831 0.018205415 0.010767758
-0.035808083 0.018446587 0.010702461
-0.034092594 0.018111691 0.010967255
-0.033715267 0.018489016 0.01113379
-0.032551832 0.018446039 0.011189193
-0.031049635 0.018201509 0.011815935
-0.030573022 0.018562192 0.012036532
-0.02926461 0.018425865 0.012277752
-0.02791035 0.018249074 0.01206404
-0.027348824 0.018597201 0.011843711
-0.026003461 0.018419119 0.01100716
-0.025193607 0.018621361 0.010537833
-0.024100266 0.018622933 0.0099902153
-0.022767693 0.018430989 0.0098252594
-0.021940613 0.018649522 0.0089522004
-0.020754775 0.018570062 0.0081007183
-0.019574853 0.018487362 0.0073643923
-0.01838487 0.01838487 0.0072638988
-0.017371414 0.018457128 0.0065245628
-0.016186826 0.018345069 0.0064376891
-0.015245448 0.018512329 0.0063670278
-0.014182216 0.018545976 0.0055303276
-0.012916924 0.018298976 0.0053652525
-0.012073138 0.018658485 0.0043857694
-0.11863164 0.019237563 0.014954001
-0.11447869 0.018732876 0.019281507
-0.11354212 0.018750073 0.020970434
-0.1125841 0.018764015 0.021967083
-0.11089361 0.018654997 0.022624642
-0.11043098 0.01875243 0.022920787
-0.11021129 0.018893363 0.023109347
-0.10832082 0.018747834 0.022740573
-0.10741104 0.018770862 0.02235198
-0.1069017 0.018865004 0.021537513
-0.10418069 0.018566854 0.021586269
-0.10280225 0.018504404 0.021412581
-0.10465546 0.019028263 0.020811528
-0.1020406 0.018742152 0.020331204
-0.10252746 0.019025715 0.020455033
-0.099930294 0.018736929 0.020573407
-0.098956369 0.018749626 0.020800173
-0.098861307 0.018930888 0.020647854
-0.097786441 0.018926408 0.020617455
-0.095946863 0.018772211 0.020471305
-0.095285177 0.018847616 0.020688236
-0.094540112 0.01890802 0.020663917
-0.091242567 0.018453553 0.020472944
-0.092908777 0.019004067 0.02042523
-0.091434777 0.01891754 0.020193666
-0.089856759 0.018807229 0.020033509
-0.089034498 0.018854363 0.019677937
-0.087570727 0.018765155 0.019586295
-0.087195195 0.018909801 0.019164115
-0.086681418 0.019027626 0.01861012
-0.084689237 0.018819829 0.018529534
-0.085007757 0.019126745 0.018557966
-0.084306262 0.019209022 0.018113464
-0.081529498 0.018814499 0.018313318
-0.081562705 0.019066604 0.017674178
-0.079849184 0.018911649 0.017643183
-0.078475147 0.018834034 0.017188519
-0.079453819 0.019326603 0.016897142
-0.076428808 0.018845459 0.016950816
-0.075609095 0.018902274 0.016716182
-0.075855963 0.019231088 0.01676327
-0.074088633 0.019051362 0.016340464
-0.072928421 0.019024804 0.016254961
-0.072166763 0.019102965 0.016237944
-0.070196718 0.018858818 0.016402364
-0.069399051 0.018927015 0.016149968
-0.06953942 0.019257069 0.016330481
-0.067199111 0.01889975 0.016132861
-0.067797214 0.01937063 0.016420811
-0.065455124 0.019003099 0.016196668
-0.06431333 0.018977704 0.016272664
-0.063495614 0.019048683 0.016150326
-0.063142687 0.019263869 0.016001225
-0.061248496 0.019008152 0.01561749
-0.061038632 0.019275356 0.015395284
-0.060018905 0.01929179 0.014772117
-0.058598742 0.019177768 0.014074415
-0.057728551 0.019242849 0.01358214
-0.056079581 0.019045895 0.013600081
-0.054882132 0.01899766 0.013449222
-0.054823704 0.019349542 0.013405651
-0.052429579 0.018874647 0.013061434
-0.052039512 0.019116556 0.012858957
-0.051303312 0.019238742 0.012831837
-0.049745888 0.019051615 0.012958854
-0.049324956 0.019301068 0.012678325
-0.048421461 0.019368583 0.01243493
-0.046585798 0.019057825 0.011995524
-0.045716334 0.01913707 0.011957049
-0.045013458 0.019291481 0.011870831
-0.043617558 0.019149171 0.011526436
-0.043008037 0.019353617 0.011211246
-0.041455992 0.019133534 0.01091972
-0.040739071 0.019297453 0.010766059
-0.040084645 0.019500637 0.010889918
-0.038708676 0.019354338 0.010766059
-0.037546128 0.019309437 0.010731578
-0.03666484 0.019410796 0.010731578
-0.035341419 0.019277139 0.010908842
-0.03462518 0.019476663 0.010437369
-0.033372719 0.019377707 0.010437369
-0.032121878 0.019273126 0.010947108
-0.031719305 0.019687844 0.010947347
-0.030442094 0.019569917 0.010831654
-0.029118668 0.019412445 0.010712326
-0.02832297 0.019608209 0.01041764
-0.02694156 0.019397922 0.01016894
-0.025822597 0.019366946 0.0097350478
-0.024905529 0.019491281 0.0094504952
-0.023630651 0.019334169 0.0089522004
-0.022729447 0.019482382 0.0087986588
-0.021933356 0.019740021 0.0076801479
-0.020549046 0.019467516 0.0075160861
-0.019440183 0.019440183 0.0069639683
-0.018429425 0.019513506 0.0069072247
-0.017168909 0.019315021 0.006532371
-0.016383197 0.019659836 0.0064038038
-0.015098046 0.019411772 0.0063670278
-0.014112604 0.019540528 0.0057942569
-0.01315005 0.019725075 0.0052776337
-0.012043689 0.019707855 0.0044828653
-0.11835832 0.020259533 0.01307714
-0.11352318 0.01960855 0.019491762
-0.11358117 0.019798553 0.020970434
-0.11224809 0.01974735 0.021966428
-0.11090054 0.01969262 0.022541493
-0.10922076 0.019577306 0.022848517
-0.10904878 0.019732637 0.023110867
-0.10785542 0.019704357 0.023110867
-0.10788548 0.019901207 0.022292614
-0.10704664 0.019940061 0.021690369
-0.10623918 0.019985586 0.021596372
-0.10430386 0.019817732 0.021520615
-0.10282363 0.019733828 0.021347284
-0.10291076 0.019952087 0.020829082
-0.10201101 0.019981539 0.02073741
-0.099936455 0.01977909 0.020837426
-0.10026859 0.020053718 0.020684123
-0.098042302 0.019817062 0.02061522
-0.096655689 0.01974686 0.020628542
-0.096318632 0.019891892 0.020469725
-0.096074626 0.020059537 0.020671308
-0.093839809 0.019810626 0.020663917
-0.095021322 0.020285452 0.020301431
-0.091678828 0.019794293 0.020289272
-0.090989746 0.019871324 0.020099372
-0.092115559 0.020351112 0.01978004
-0.08953616 0.020013966 0.019661427
-0.087310694 0.019748848 0.019491374
-0.088096365 0.020166637 0.019253641
-0.086515248 0.020046216 0.019145101
-0.084428407 0.019804196 0.018742472
-0.084004477 0.019951064 0.018569499
-0.082946792 0.019949229 0.018197626
-0.082732841 0.020152872 0.018313318
-0.080213442 0.019792927 0.018019944
-0.079485573 0.019871393 0.017672122
-0.079728074 0.020197779 0.017583072
-0.0785807 0.020176126 0.017028719
-0.076188453 0.019829871 0.017028719
-0.077020638 0.020324893 0.016881973
-0.074463636 0.019926889 0.016808331
-0.073698148 0.020003784 0.016560137
-0.073495917 0.020238006 0.016360164
-0.071088865 0.019863065 0.016274661
-0.070784509 0.02007322 0.016514331
-0.070505805 0.020297127 0.016144633
-0.068285011 0.019960234 0.016519666
-0.068623446 0.020372586 0.016173095
-0.067027688 0.020214699 0.016248435
-0.065563433 0.02009202 0.016043484
-0.065452039 0.020386701 0.016153842
-0.064323299 0.020369045 0.016112506
-0.06236054 0.020082207 0.015991092
-0.062042188 0.020324165 0.015381128
-0.060787696 0.020262565 0.015242517
-0.06008305 0.020385321 0.01470679
-0.059152976 0.020434665 0.014024556
-0.057699192 0.020301567 0.013801426
-0.056489244 0.020250862 0.013791263
-0.056279838 0.020563789 0.013590306
-0.054472368 0.020293627 0.013496339
-0.053046126 0.020157527 0.013228893
-0.052021749 0.0201717 0.013002425
-0.050737247 0.020083494 0.012952536
-0.050431099 0.02038704 0.012885243
-0.049124502 0.020290554 0.012654215
-0.047982883 0.020259438 0.012556404
-0.047603413 0.020556021 0.012156159
-0.046411604 0.020507453 0.01200816
-0.044585995 0.020169854 0.011899829
-0.044238597 0.020500813 0.011614919
-0.042724341 0.020294063 0.011243582
-0.04182243 0.020375032 0.010848105
-0.041103072 0.020551536 0.010685354
-0.03989156 0.020484855 0.010656595
-0.038640913 0.020393817 0.010477513
-0.037798792 0.020519344 0.010635167
-0.036693655 0.020505277 0.010627121
-0.035389453 0.020375747 0.010168374
-0.034838807 0.020685541 0.0098291934
-0.03342725 0.020487668 0.0098316371
-0.032535456 0.020605789 0.0093171
-0.031275243 0.020490676 0.0093171
-0.030023495 0.020373086 0.0094205737
-0.029458242 0.020729873 0.0095475018
-0.028049489 0.020497706 0.0092367232
-0.026654277 0.020257249 0.0087663233
-0.02617274 0.020720087 0.0083206594
-0.024888679 0.020560214 0.0081651509
-0.023627933 0.020405943 0.0080752969
-0.022855837 0.02067909 0.0079428554
-0.021797003 0.020707155 0.0071653426
-0.020457676 0.020457676 0.0069639683
-0.019594561 0.020683149 0.0065329075
-0.018286612 0.020437978 0.0064264536
-0.017352914 0.020606587 0.0062508583
-0.016258972 0.020594697 0.0062161684
-0.015010236 0.020371035 0.0062830746
-0.014143423 0.020671157 0.0055303276
-0.0129995 0.020582544 0.0053252876
-0.01170342 0.020215001 0.0044828653
-0.11693787 0.021069886 0.012260526
-0.11411756 0.020748647 0.019430518
-0.11285094 0.020706594 0.021148562
-0.11172099 0.020689072 0.022028536
-0.11198337 0.020931471 0.022621721
-0.11058749 0.020865565 0.022900879
-0.10853535 0.0206734 0.023186684
-0.10820483 0.02080862 0.022924155
-0.10585628 0.020554617 0.022658706
-0.1064746 0.020877372 0.021690369
-0.10697255 0.021182681 0.021642148
-0.10423283 0.020846564 0.021520615
-0.10359028 0.020927329 0.0211218
-0.10239461 0.020896859 0.020829082
-0.10165482 0.020959757 0.020899534
-0.10105634 0.021053404 0.020612806
-0.10076931 0.021214591 0.020630449
-0.097412392 0.02072604 0.020434141
-0.097808592 0.021034105 0.020370752
-0.097323164 0.021157209 0.020490527
-0.095328562 0.020951331 0.020734519
-0.094946593 0.021099241 0.02078405
-0.093465351 0.021003449 0.020519227
-0.091893263 0.020884832 0.020666569
-0.092817195 0.021337286 0.020423919
-0.090025879 0.020936249 0.020265818
-0.087895237 0.02068123 0.019715339
-0.08794637 0.020939611 0.019698054
-0.08686357 0.020930979 0.019586295
-0.085648999 0.020889999 0.019474119
-0.086594284 0.021381304 0.018997699
-0.084032878 0.02100822 0.018999547
-0.084013268 0.021269182 0.018615097
-0.082121678 0.02105684 0.018410712
-0.081125021 0.021071432 0.018290669
-0.080958627 0.021304902 0.017952293
-0.079777077 0.021273885 0.017624766
-0.076572828 0.020695357 0.017198712
-0.076874889 0.021061612 0.017028719
-0.075552903 0.020986916 0.016875654
-0.074139811 0.020884452 0.016916752
-0.074260563 0.021217303 0.016394347
-0.072808109 0.021103797 0.016254961
-0.071280517 0.020964857 0.016160816
-0.071576983 0.021366261 0.016038805
-0.069022156 0.020915804 0.016068608
-0.069187328 0.021288408 0.016149968
-0.067703165 0.021157237 0.015714258
-0.066015363 0.020957256 0.015844285
-0.065865353 0.021246886 0.015684664
-0.065436915 0.021454727 0.015761346
-0.062967755 0.020989252 0.016028047
-0.063522622 0.021533091 0.015942574
-0.061709702 0.021279206 0.015408635
-0.059880052 0.021010544 0.015397102
-0.059606407 0.021288002 0.014772117
-0.058279827 0.021192662 0.014114767
-0.057359874 0.021244396 0.013837367
-0.056847271 0.021451801 0.013956845
-0.055086032 0.021186935 0.013538152
-0.054299481 0.021293912 0.013481498
-0.053616885 0.021446753 0.013262719
-0.052708618 0.021513723 0.013142914
-0.051096871 0.021290362 0.013014257
-0.050490439 0.021485291 0.012948751
-0.049018413 0.021312352 0.012690961
-0.048192263 0.021418782 0.01260227
-0.046974424 0.021352012 0.012270033
-0.045981623 0.021386802 0.012270093
-0.04538703 0.02161287 0.011988193
-0.044153791 0.021538433 0.011776716
-0.042753134 0.021376567 0.011359304
-0.04225472 0.021669086 0.010748744
-0.040506028 0.021318961 0.010516554
-0.039375182 0.021283882 0.010493875
-0.038808752 0.021560419 0.010389328
-0.037634976 0.0215057 0.010428101
-0.036505602 0.021473883 0.0098297298
-0.035719663 0.02164828 0.0094217658
-0.034263473 0.021414671 0.0092151463
-0.033570025 0.02165808 0.0089871883
-0.032660875 0.021773916 0.0084150136
