ply
format ascii 1.0
comment PCL generated
element vertex 1294
property float x
property float y
property float z
element camera 0
property float view_px
property float view_py
property float view_pz
property float x_axisx
property float x_axisy
property float x_axisz
property float y_axisx
property float y_axisy
property float y_axisz
property float z_axisx
property float z_axisy
property float z_axisz
property float focal
property float scalex
property float scaley
property float centerx
property float centery
property int viewportx
property int viewporty
property float k1
property float k2
end_header
-0.093993224 0.077095576 0.019621521
-0.091705158 0.076073602 0.019135207
-0.091341719 0.076643057 0.018768132
-0.090649933 0.076947041 0.018537551
-0.088851705 0.076307938 0.01821059
-0.087676704 0.076195233 0.017872453
-0.087870076 0.077283323 0.017659426
-0.085097924 0.075757906 0.017598331
-0.084552668 0.076201797 0.01743263
-0.083943464 0.076598421 0.017633677
-0.082746506 0.076461963 0.017575353
-0.081924886 0.076673292 0.01784718
-0.081074536 0.076862872 0.017634392
-0.079183541 0.076057881 0.01745531
-0.079525545 0.077404872 0.017298281
-0.07816752 0.077111207 0.016642153
-0.076347061 0.076347061 0.016448021
-0.076694094 0.077759296 0.015720129
-0.074913844 0.077024102 0.015565217
-0.073185831 0.076322369 0.014999688
-0.073087938 0.077324919 0.014848351
-0.071699657 0.076971687 0.014719576
-0.070490912 0.076803535 0.014650613
-0.07048206 0.077957436 0.014617711
-0.068740234 0.077200569 0.014523894
-0.067932203 0.077485174 0.014437854
-0.066514924 0.077072851 0.014332056
-0.06492079 0.076438993 0.014342129
-0.06454464 0.07724195 0.014627874
-0.063484341 0.07723929 0.014579177
-0.062381722 0.07718417 0.014504403
-0.061858863 0.077856846 0.013900578
-0.060179871 0.077072471 0.013578385
-0.058598161 0.076386891 0.013378859
-0.058607139 0.07778766 0.013180465
-0.057245512 0.077387452 0.013046175
-0.056840092 0.078289188 0.012932569
-0.055772681 0.078296266 0.012966812
-0.054067325 0.077390485 0.01265496
-0.053118385 0.077552848 0.012515187
-0.052538276 0.078271315 0.012548119
-0.050280001 0.076467507 0.012714297
-0.050254688 0.078055158 0.012573272
-0.048941366 0.077667825 0.012704939
-0.047716048 0.077406034 0.012148857
-0.046982981 0.077949047 0.012148857
-0.046073344 0.078217536 0.012133449
-0.044391818 0.077157207 0.01205045
-0.04398185 0.078309149 0.011795551
-0.042692684 0.077914149 0.01167956
-0.041241668 0.077195942 0.011665314
-0.040631484 0.078055218 0.011558592
-0.039436307 0.077806763 0.011556149
-0.038381014 0.077828169 0.011556149
-0.037626125 0.078477353 0.011458427
-0.036158286 0.077633969 0.011598676
-0.035157114 0.077771805 0.011385858
-0.034100324 0.07779137 0.011127144
-0.032829575 0.077308357 0.011082381
-0.032050967 0.077990688 0.010721385
-0.030918695 0.077829823 0.010377347
-0.029433725 0.076737933 0.0098882616
-0.029023938 0.07847213 0.0095939338
-0.02785694 0.078213722 0.0091097355
-0.026401965 0.077093743 0.0088801682
-0.025790829 0.078447111 0.0086437762
-0.02465635 0.078257114 0.0084047019
-0.023628384 0.078403279 0.0082911253
-0.022708254 0.078938216 0.0083989203
-0.021464223 0.078344427 0.0082796514
-0.020235166 0.077745646 0.0077264905
-0.019388031 0.07862924 0.007450223
-0.018018406 0.077373154 0.007295996
-0.017161582 0.078299716 0.0068476796
-0.016166918 0.07867901 0.0066723526
-0.015020785 0.078322664 0.0061435699
-0.014068258 0.078998685 0.0058071613
-0.012902883 0.078492545 0.0052532554
-0.011781634 0.078187212 0.0044758916
-0.1165558 0.07841026 0.015758455
-0.11361685 0.077134371 0.019327223
-0.11101617 0.076066636 0.021140099
-0.11099813 0.07676506 0.021723688
-0.1096826 0.076570876 0.022456616
-0.10877374 0.07665959 0.022830099
-0.10843599 0.07715638 0.022673935
-0.10740256 0.077163003 0.022387654
-0.10533028 0.07641609 0.022112727
-0.10511605 0.07701572 0.021975785
-0.10352352 0.076607406 0.021549225
-0.1029098 0.076922484 0.021302581
-0.10344712 0.078113131 0.021549225
-0.10102861 0.07707338 0.021719456
-0.10068654 0.077612542 0.021549523
-0.099032171 0.077140853 0.021425843
-0.097048901 0.076400198 0.02135551
-0.097176924 0.077323578 0.021230698
-0.095951773 0.077178605 0.021175355
-0.094618015 0.076942123 0.020961314
-0.09479671 0.077943958 0.020377904
-0.093223572 0.077511735 0.019873053
-0.091408379 0.076866142 0.019634485
-0.090644889 0.077100255 0.019174904
-0.08997573 0.07742098 0.018938839
-0.089103222 0.077572219 0.01863271
-0.088384144 0.077862225 0.018356889
-0.086486802 0.077108718 0.017911702
-0.08545199 0.077115208 0.017754585
-0.086264603 0.078809649 0.017729312
-0.08366283 0.077388123 0.017957002
-0.083785184 0.07848233 0.017818868
-0.082799204 0.078553095 0.01789543
-0.079941988 0.07682737 0.017587632
-0.079996139 0.077890977 0.017421663
-0.079703644 0.07864093 0.017103344
-0.077631906 0.077631906 0.016964763
-0.077356771 0.078416452 0.016527951
-0.07505846 0.077143423 0.015974015
-0.074575417 0.077726491 0.015853077
-0.074262775 0.078506365 0.015317351
-0.07244046 0.077689774 0.015229315
-0.071716927 0.078044891 0.014756292
-0.071205609 0.078645006 0.014718264
-0.06963516 0.078075789 0.014800727
-0.068525724 0.078013912 0.014738619
-0.06733793 0.077859484 0.014725238
-0.066265821 0.077836044 0.014437854
-0.066138424 0.078939408 0.014563948
-0.064784259 0.078590743 0.014627874
-0.062638171 0.077253744 0.014556527
-0.063250817 0.079331532 0.014205158
-0.061470438 0.078427799 0.013900578
-0.060289033 0.078269981 0.013886094
-0.059583809 0.078735746 0.013671815
-0.057829931 0.077807546 0.013378859
-0.057063252 0.078197792 0.013178557
-0.056594681 0.079018988 0.013129503
-0.055194721 0.078546338 0.013163626
-0.054116488 0.078521967 0.013089418
-0.053740826 0.079536423 0.012866259
-0.051920228 0.078410149 0.012915313
-0.051358361 0.079177476 0.01267305
-0.050364226 0.079296872 0.012285292
-0.048821237 0.078538507 0.01230827
-0.048258279 0.079358056 0.012065291
-0.046920381 0.078911558 0.012011051
-0.045599286 0.078473195 0.012121737
-0.045133803 0.079521462 0.012043744
-0.04357361 0.078645058 0.011786968
-0.042573649 0.078761257 0.011782169
-0.041339897 0.078439809 0.011533767
-0.040121317 0.078130983 0.011335373
-0.039094154 0.078188308 0.011508167
-0.03829959 0.07872694 0.011518359
-0.037099376 0.078438684 0.011482835
-0.03597372 0.078295745 0.011636823
-0.035200763 0.078935049 0.011413246
-0.03392842 0.078459479 0.011174589
-0.033072684 0.078947693 0.011105061
-0.031929173 0.078758627 0.010681719
-0.030657012 0.078228235 0.010614067
-0.03027489 0.080012217 0.010045946
-0.028817261 0.07898064 0.0097728372
-0.027444787 0.078112088 0.0094154477
-0.026996212 0.079908788 0.0088446438
-0.025398737 0.078312777 0.0086425841
-0.024516009 0.078877598 0.0083592236
-0.02353362 0.079158545 0.0082232952
-0.022253055 0.078415528 0.0082677603
-0.021385241 0.079125397 0.0082324445
-0.020293336 0.079037204 0.0080300272
-0.019229565 0.079054885 0.0077260137
-0.018226316 0.079338081 0.0074090064
-0.017093578 0.079057798 0.007040292
-0.016050994 0.079184905 0.0067996979
-0.015092138 0.079772733 0.0064087212
-0.014071362 0.080098525 0.0059057772
-0.01277849 0.078800693 0.0051704049
-0.011986061 0.080633506 0.0047545433
-0.11626509 0.079271652 0.014793098
-0.1120989 0.07713227 0.019183487
-0.11286508 0.078378528 0.020566493
-0.11147238 0.078134842 0.021580905
-0.10899089 0.077116199 0.022393107
-0.1093981 0.07814151 0.022500306
-0.1070677 0.077212282 0.022578001
-0.10634581 0.077436276 0.022240549
-0.10656054 0.078353345 0.021951616
-0.10367916 0.076989479 0.021801114
-0.10367166 0.077753738 0.021541685
-0.10394417 0.078745581 0.02103436
-0.10106201 0.077343374 0.021283239
-0.1010874 0.07816036 0.021377861
-0.099837273 0.077997871 0.02141875
-0.09850201 0.07776475 0.021225482
-0.098566331 0.078643352 0.020955563
-0.097309247 0.0784752 0.020997465
-0.095001832 0.077447146 0.020918906
-0.09566322 0.078843318 0.020532846
-0.093697466 0.07808122 0.020054638
-0.091755792 0.077322304 0.019712687
-0.092714496 0.079018041 0.019303948
-0.090432517 0.077959076 0.019063503
-0.08918561 0.077778153 0.018789083
-0.090226673 0.079611771 0.018646121
-0.087922007 0.078501791 0.018115968
-0.086912476 0.078535363 0.017853498
-0.08627256 0.078907833 0.01793021
-0.084832281 0.078548416 0.0178065
-0.08436989 0.079096779 0.017736852
-0.083219007 0.07900539 0.017680943
-0.080706477 0.077602379 0.017689586
-0.081462517 0.079346612 0.01756084
-0.08000166 0.078949004 0.017338127
-0.078793727 0.078793727 0.016897649
-0.078806743 0.079871699 0.016709119
-0.077219695 0.079335302 0.016397387
-0.076861307 0.080063872 0.015969574
-0.075657874 0.079920292 0.01544112
-0.074031867 0.079319865 0.015350163
-0.072229393 0.07851021 0.015187502
-0.072650239 0.080128938 0.014868975
-0.07010863 0.078479812 0.01486814
-0.06919466 0.078630298 0.014874518
-0.069518901 0.08021412 0.014752477
-0.067160599 0.078703828 0.014851958
-0.067076229 0.079852656 0.014807612
-0.066113017 0.079975426 0.01463756
-0.064003736 0.078693122 0.014585972
-0.063773863 0.079717331 0.014503539
-0.062712036 0.079718687 0.014138788
-0.060937472 0.078798458 0.013833612
-0.060604122 0.079742268 0.013603628
-0.059088696 0.079136647 0.013399243
-0.058157165 0.079305224 0.013290733
-0.057679653 0.080110632 0.013153315
-0.05619482 0.079520978 0.013056487
-0.055127006 0.079510108 0.013046175
-0.054759733 0.080529019 0.01295051
-0.052976429 0.079464644 0.012866259
-0.051771834 0.079242609 0.012842357
-0.051121306 0.079877049 0.012703598
-0.049502417 0.078993216 0.01230827
-0.049180325 0.080185317 0.012196839
-0.047958046 0.079930075 0.012075633
-0.046296526 0.078914538 0.011966795
-0.046229944 0.080633625 0.012186319
-0.044708095 0.079835884 0.012176603
-0.042991899 0.078643717 0.012220651
-0.043074772 0.080765203 0.012102246
-0.041174885 0.079182476 0.011782169
-0.040618148 0.080167398 0.011556149
-0.039907049 0.080892667 0.011530608
-0.038316879 0.079826832 0.01157859
-0.037164312 0.079637818 0.011566341
-0.036225684 0.0799096 0.01157859
-0.035058871 0.079679251 0.011495084
-0.034561384 0.081003241 0.011430591
-0.033076417 0.080023587 0.01103285
-0.031619027 0.079047568 0.011107534
-0.030905064 0.079926886 0.011109978
-0.029814346 0.079859853 0.010879457
-0.028533101 0.079258613 0.010599941
-0.027833691 0.080289498 0.0099602938
-0.026379945 0.079139836 0.0094065368
-0.025390221 0.079344444 0.0091043413
-0.024586212 0.080172427 0.0089835823
-0.023475667 0.080030687 0.0086858571
-0.02221919 0.079354249 0.0086892545
-0.021643814 0.081164308 0.0085539818
-0.020352472 0.080338709 0.0082232952
-0.019367499 0.080697924 0.008107394
-0.018427826 0.08129923 0.0077260137
-0.017018829 0.079775758 0.0077718198
-0.01624771 0.08123856 0.0072216988
-0.015230423 0.081591554 0.0064028502
-0.013723184 0.079172224 0.005805552
-0.01313649 0.082103066 0.0050752759
-0.011821193 0.080599047 0.004532218
-0.010729845 0.08047384 0.0040533543
-0.1166992 0.080628537 0.014415085
-0.11374164 0.079306096 0.019418985
-0.11223549 0.078980528 0.02107197
-0.11096614 0.07881707 0.021580905
-0.11090465 0.079516545 0.022222906
-0.10827943 0.078373685 0.022445321
-0.10838005 0.079200812 0.022314578
-0.1084118 0.079993173 0.022086948
-0.10577992 0.078816414 0.021836609
-0.10455662 0.078676268 0.021499932
-0.10492443 0.079742566 0.021365315
-0.1023666 0.078584462 0.020974964
-0.10252529 0.079509415 0.021054149
-0.10045596 0.078707762 0.020982534
-0.098976992 0.078356788 0.021365523
-0.099684238 0.079747394 0.021295309
-0.097508669 0.078836799 0.021025389
-0.095800705 0.078288749 0.021130651
-0.096132547 0.079413839 0.020890683
-0.094605595 0.079011269 0.020107031
-0.093198776 0.078701191 0.020061672
-0.093851373 0.080142751 0.019636273
-0.091154143 0.078724034 0.019416392
-0.09097413 0.079471655 0.019135207
-0.090744562 0.080192871 0.018996567
-0.087984197 0.078668222 0.018742651
-0.086725473 0.078465901 0.018425941
-0.087566264 0.080181159 0.018159598
-0.085310228 0.07906802 0.018344343
-0.085085414 0.079833232 0.018004
-0.083928481 0.07973206 0.017934054
-0.082708605 0.079567775 0.018152714
-0.082465336 0.080350839 0.018029273
-0.080615416 0.079568461 0.017703205
-0.07903108 0.07903108 0.01700291
-0.079669215 0.080731474 0.01692915
-0.07728038 0.079369038 0.016730368
-0.075795308 0.078910179 0.016658962
-0.076355919 0.080597922 0.016168296
-0.074773863 0.080039628 0.01572606
-0.07333789 0.079623997 0.015452564
-0.07293503 0.080334239 0.015289903
-0.071621619 0.080047697 0.014868975
-0.070806235 0.08031752 0.01486814
-0.070276223 0.080924138 0.014874518
-0.068665177 0.080285445 0.01490882
-0.067816257 0.080531806 0.014921218
-0.066166207 0.079819553 0.014865637
-0.064611219 0.079200849 0.014604986
-0.064647399 0.0805443 0.01461643
-0.063197829 0.080050588 0.014448881
-0.062243331 0.080177851 0.014138788
-0.062066007 0.08132787 0.013750643
-0.060840804 0.081121072 0.013581097
-0.058417555 0.079280965 0.013490498
-0.05882987 0.081292182 0.013238549
-0.057002869 0.080226257 0.013031036
-0.05635855 0.080816038 0.013031036
-0.05604472 0.081911519 0.012782723
-0.053837873 0.080228992 0.01265496
-0.052765366 0.080203354 0.012673944
-0.052739438 0.081799954 0.012718916
-0.050935566 0.080647983 0.012565553
-0.05040874 0.081512004 0.012061417
-0.049385469 0.081593387 0.012093991
-0.047365762 0.079995513 0.011902213
-0.047035635 0.081243373 0.011846811
-0.045765955 0.080888666 0.011877358
-0.044437673 0.080411032 0.01189366
-0.044003755 0.081567928 0.011918753
-0.042664252 0.081062086 0.011853695
-0.041360952 0.080600828 0.011480868
-0.040477414 0.080954827 0.011263639
-0.039321732 0.080768958 0.011458427
-0.038254444 0.080759391 0.011556149
-0.037446223 0.081311807 0.011556149
-0.036024597 0.080525577 0.011803985
-0.034617402 0.07972493 0.01157859
-0.034098558 0.080984071 0.011575788
-0.032613333 0.079955265 0.011474282
-0.031945232 0.080927923 0.011404812
-0.031098995 0.081500813 0.01134333
-0.029439382 0.079906896 0.011326134
-0.02929643 0.082464024 0.011326134
-0.028330887 0.082813367 0.010677308
-0.02661611 0.08091297 0.010795891
-0.026041759 0.082465574 0.010215133
-0.024862546 0.082154498 0.009571135
-0.023533434 0.081297316 0.0096474886
-0.022853581 0.082708202 0.0096772313
-0.021704579 0.082477406 0.0090883076
-0.020460324 0.081841297 0.0086858571
-0.019273594 0.081377402 0.0085539818
-0.018138621 0.081090309 0.0083030164
-0.017164323 0.081530534 0.0079414845
-0.016069708 0.081419855 0.0078712404
-0.014860571 0.080671676 0.0066126287
-0.014228319 0.083180942 0.0059057772
-0.012956625 0.082058623 0.0052141845
-0.011854676 0.081905037 0.0045615435
-0.01082976 0.082306176 0.0040173531
-0.11987922 0.08391545 0.0082229674
-0.1131694 0.079945356 0.018539011
-0.1109745 0.079120703 0.020960748
-0.11097404 0.079859816 0.021558344
-0.11023637 0.080077365 0.022024006
-0.1074229 0.078776799 0.022442639
-0.109208 0.080855928 0.022229791
-0.10594329 0.079200327 0.021948636
-0.10494013 0.079219513 0.021903336
-0.10505709 0.080093026 0.021499932
-0.10379139 0.079919368 0.021462649
-0.10281739 0.079969078 0.021208018
-0.10361022 0.081408031 0.020994872
-0.10087541 0.080076367 0.021365523
-0.099840105 0.080080085 0.0214127
-0.099950865 0.081012808 0.021118999
-0.09705466 0.079502225 0.021052897
-0.097533934 0.0807539 0.021158576
-0.096530974 0.080792226 0.020918906
-0.094255619 0.079754747 0.02039966
-0.094541706 0.080885679 0.019940585
-0.093242593 0.080670558 0.019786566
-0.091659918 0.08020243 0.019783407
-0.092177041 0.08158198 0.019369304
-0.089339122 0.079989679 0.01912418
-0.088822179 0.080462441 0.019037753
-0.089120537 0.081693821 0.018742651
-0.086636342 0.080373466 0.018698573
-0.085185789 0.079991527 0.018624097
-0.085290268 0.081078403 0.01834631
-0.083167367 0.080048591 0.018446565
-0.084051028 0.081923157 0.018455774
-0.081015848 0.079977185 0.01825434
-0.080792449 0.080792449 0.017885298
-0.079707138 0.080755912 0.017602146
-0.078463316 0.08055567 0.017141581
-0.077590279 0.080735832 0.017111838
-0.077215672 0.081446663 0.016494602
-0.074801967 0.079996549 0.016209155
-0.074564502 0.080865726 0.015581787
-0.073974237 0.081371658 0.014856637
-0.072511286 0.080918387 0.014856458
-0.071211986 0.080637097 0.014723063
-0.071380094 0.082033835 0.014630198
-0.069152378 0.080677778 0.014904678
-0.068937927 0.081664927 0.014712751
-0.067286029 0.080953509 0.014702201
-0.066565126 0.081357375 0.014796644
-0.065936357 0.081888698 0.014856547
-0.064863868 0.081877343 0.014635533
-0.063009366 0.080862023 0.014435858
-0.063211642 0.082496546 0.014238
-0.061876364 0.082146205 0.013828039
-0.060302906 0.081461824 0.013646722
-0.059978954 0.082471065 0.013427943
-0.058861971 0.082406759 0.013211489
-0.057031527 0.08132273 0.012998551
-0.056471456 0.082043439 0.012998551
-0.054277372 0.080372266 0.01265496
-0.053495273 0.080767371 0.012466639
-0.05291374 0.081487156 0.012534648
-0.051806625 0.081410415 0.012673944
-0.05128061 0.082262643 0.012551755
-0.049731616 0.081475198 0.012009144
-0.048448857 0.081099175 0.012093991
-0.047976222 0.082092643 0.011921406
-0.046665821 0.081665188 0.011902213
-0.045594014 0.081645101 0.011966795
-0.045277927 0.083009526 0.012040854
-0.044281662 0.08316312 0.01199773
-0.042606629 0.082017764 0.011943579
-0.041572183 0.082078412 0.011603475
-0.040497422 0.082060568 0.01135841
-0.039217696 0.081615202 0.011468619
-0.038333565 0.08199124 0.011566341
-0.03733512 0.082137272 0.011645526
-0.036050703 0.081644244 0.01187095
-0.036234234 0.084546544 0.011654109
-0.034207087 0.082310796 0.011813521
-0.033840276 0.08405488 0.011566341
-0.032410681 0.083187416 0.011679858
-0.031152276 0.082714662 0.01157859
-0.030422734 0.083662525 0.01162377
-0.029391058 0.083818942 0.011638731
-0.027850233 0.082479537 0.011283845
-0.027279211 0.084019966 0.011081457
-0.025929376 0.083190084 0.010712117
-0.024933616 0.083473407 0.010712117
-0.024339452 0.085188083 0.010623634
-0.022797864 0.083592169 0.010612994
-0.021803437 0.083943233 0.0097894073
-0.021055484 0.085330121 0.0091745257
-0.02046096 0.087527446 0.0089277029
-0.018350963 0.083119065 0.0087769032
-0.017019529 0.081906483 0.0083729029
-0.016159242 0.082950778 0.0079619884
-0.015195538 0.083575457 0.0072075427
-0.013992256 0.082877204 0.0059057772
-0.012784032 0.082030877 0.005035758
-0.011897934 0.083285533 0.0044042766
-0.11945207 0.08470238 0.0054458082
-0.11233236 0.08038462 0.018539011
-0.11134472 0.080415621 0.020529807
-0.11213958 0.081746608 0.021310925
-0.10959262 0.080643632 0.021906793
-0.11025426 0.081903167 0.022069156
-0.10776097 0.080820724 0.022038698
-0.10748057 0.081393056 0.021920502
-0.10684826 0.081707492 0.021746546
-0.10487008 0.080988772 0.021310925
-0.10349577 0.080726698 0.021216005
-0.10413662 0.08204703 0.02101326
-0.10119792 0.080545291 0.021122783
-0.10183612 0.081888847 0.021309435
-0.099410087 0.080770694 0.021359593
-0.09875489 0.081082962 0.021176815
-0.097696878 0.081067622 0.021052897
-0.096931741 0.081297584 0.021130651
-0.095070183 0.080602981 0.020785719
-0.095973089 0.082262643 0.020285547
-0.093500301 0.081033587 0.019803375
-0.092144676 0.080756016 0.019750655
-0.092931777 0.082371354 0.019714355
-0.091046184 0.081627615 0.019309282
-0.089324385 0.08101514 0.019239187
-0.089355141 0.081996486 0.019123286
-0.087903857 0.081625007 0.018946677
-0.086733803 0.081508875 0.018837303
-0.086359978 0.082147285 0.01874432
-0.084291525 0.08116962 0.018534064
-0.084201179 0.082096152 0.018577158
-0.082922444 0.081872791 0.018479198
-0.081492886 0.081492886 0.018343687
-0.081670731 0.082731389 0.017975539
-0.079966299 0.082070671 0.017320365
-0.078661859 0.081808329 0.017290086
-0.077511653 0.081701465 0.016897649
-0.076970026 0.082241945 0.016669095
-0.075684674 0.081991732 0.016512215
-0.074886546 0.082269728 0.015924782
-0.073825084 0.082262233 0.015423298
-0.072364375 0.08180321 0.015423298
-0.071962409 0.082545117 0.015289903
-0.071122125 0.082798883 0.015317172
-0.069428965 0.08205241 0.015141755
-0.069417484 0.083300978 0.014989555
-0.067088887 0.081764579 0.014879614
-0.067436516 0.08349283 0.014848709
-0.066019997 0.083057411 0.014869988
-0.064043544 0.081891753 0.014880627
-0.063580975 0.082655266 0.014692605
-0.062627099 0.082795143 0.014074445
-0.061349753 0.082504839 0.013978511
-0.060731389 0.083106115 0.013584793
-0.058942098 0.082097925 0.013529778
-0.05870777 0.083258294 0.013206661
-0.057626903 0.083238855 0.01278314
-0.056259956 0.082797676 0.01283893
-0.054811206 0.082216807 0.012729883
-0.054506492 0.08336287 0.012420952
-0.053230979 0.083040319 0.01228255
-0.051541127 0.082045063 0.012421846
-0.050937466 0.08277338 0.01208353
-0.049733859 0.08253704 0.011965513
-0.049115907 0.083283491 0.011920661
-0.048227146 0.083593719 0.011901468
-0.046065688 0.081661902 0.011874467
-0.045805864 0.083089709 0.011846811
-0.044861954 0.083315052 0.01189366
-0.043357857 0.082485676 0.011987418
-0.042555958 0.08298412 0.011915028
-0.041253228 0.082506455 0.011470556
-0.03989673 0.081893288 0.010917455
-0.039329659 0.082911171 0.011364996
-0.038105484 0.082561888 0.011109531
-0.037177995 0.082853816 0.011475056
-0.036549054 0.083847828 0.01216796
-0.034870937 0.082422212 0.012155712
-0.03523941 0.08589606 0.012155712
-0.034255613 0.086191535 0.011762202
-0.03240817 0.084261246 0.012262434
-0.031570613 0.084914058 0.013091445
-0.030620923 0.085301146 0.013238937
-0.029201651 0.084360324 0.012807548
-0.028171161 0.084513485 0.012885034
-0.02741736 0.085542157 0.011880517
-0.025557412 0.083061591 0.011724293
-0.025038831 0.084914297 0.01170826
-0.023393339 0.08294002 0.011263102
-0.022443341 0.083360977 0.011109799
-0.021397566 0.083450511 0.010795891
-0.020105163 0.082536988 0.009744823
-0.018766068 0.081319638 0.0093523562
-0.019489067 0.089420415 0.0092461705
-0.017075704 0.083244063 0.0089924634
-0.016300632 0.084763288 0.0085881352
-0.015137373 0.084336795 0.0079180002
-0.013879973 0.083279833 0.0059635043
-0.012939592 0.084107347 0.005192101
-0.011961484 0.084817797 0.0044169724
-0.01063305 0.082937784 0.0040220618
-0.1191263 0.085554346 0.005107969
-0.11461354 0.083068527 0.019166768
-0.11202001 0.081940562 0.020726621
-0.11112421 0.082044974 0.021076977
-0.11047082 0.082332022 0.021573961
-0.10980397 0.082614414 0.021948159
-0.10799652 0.08203581 0.022063285
-0.1076061 0.082532831 0.021920502
-0.1057649 0.081915952 0.021859884
-0.10443635 0.08168783 0.021405607
-0.10466971 0.082689069 0.021363378
-0.10269172 0.081945911 0.021247119
-0.10176264 0.08203315 0.02113077
-0.10208415 0.083140701 0.021251172
-0.098583013 0.081125602 0.021360487
-0.1000113 0.083167285 0.021295309
-0.098622911 0.082885213 0.021161616
-0.096356675 0.081851371 0.021094739
-0.096509159 0.082871988 0.020726532
-0.094272271 0.081840761 0.020406455
-0.092695884 0.081366383 0.020060897
-0.093908057 0.083356589 0.019712508
-0.091356426 0.08201316 0.019603074
-0.091340974 0.0829418 0.019184411
-0.090411566 0.083052479 0.018890113
-0.089444116 0.083130412 0.018862396
-0.087135643 0.081948996 0.018654048
-0.087429129 0.083215676 0.018620759
-0.086219788 0.083065398 0.018759787
-0.086120963 0.083994523 0.018277884
-0.084547959 0.083491117 0.018336743
-0.082211971 0.082211971 0.018320709
-0.081881955 0.082931727 0.018272758
-0.081642538 0.083763123 0.017944694
-0.079634815 0.08277829 0.017435044
-0.079102464 0.083321258 0.017404765
-0.078382149 0.083678238 0.017177284
-0.076165371 0.082425535 0.016684264
-0.076638259 0.084089205 0.016584694
-0.074701585 0.083118662 0.016153663
-0.073489942 0.082938649 0.015694201
-0.073442183 0.084085979 0.015582353
-0.071696624 0.083294608 0.015526742
-0.070409164 0.083019763 0.01535973
-0.070398636 0.084265031 0.015301913
-0.068709694 0.083508708 0.015039682
-0.067977026 0.083909146 0.014923304
-0.066910058 0.083903082 0.014871597
-0.065226845 0.083111621 0.014725298
-0.064883694 0.084029704 0.014507145
-0.063761085 0.083952099 0.014612108
-0.061805211 0.082756124 0.01424098
-0.061774764 0.084141485 0.013701588
-0.060662732 0.084076419 0.01349017
-0.059455737 0.083875053 0.013290465
-0.058996815 0.084740877 0.013077945
-0.057279918 0.083798394 0.012747705
-0.055652183 0.082953259 0.012889147
-0.056340899 0.085594825 0.012793243
-0.053373173 0.08267609 0.012709618
-0.052849956 0.083502926 0.012369066
-0.052704506 0.084972575 0.012393683
-0.050905179 0.083781444 0.012340456
-0.050177116 0.084340259 0.011886418
-0.049235195 0.084556088 0.011821628
-0.047723025 0.083780415 0.011750519
-0.047119729 0.084601328 0.011747241
-0.045914929 0.084355332 0.011874467
-0.044213682 0.083163828 0.01195085
-0.043989148 0.084759571 0.011854768
-0.042043105 0.083035134 0.011842877
-0.041412745 0.083887354 0.011475325
-0.040285449 0.083751328 0.010885864
-0.039249517 0.083803013 0.011475056
-0.038096208 0.083600014 0.01139605
-0.037675813 0.085039698 0.011554092
-0.036229912 0.084181264 0.012714446
-0.035330743 0.084579654 0.012714446
-0.034054942 0.084073134 0.012714446
-0.031813525 0.081073172 0.012417972
-0.031184858 0.082120128 0.013136625
-0.030107424 0.082016774 0.013571233
-0.028571216 0.080611646 0.013978332
-0.027988877 0.081893377 0.013602763
-0.026818387 0.081486635 0.013299018
-0.02565203 0.081060417 0.012447625
-0.024845978 0.08178468 0.012248188
-0.023619024 0.081126206 0.012232155
-0.022730513 0.081623204 0.012446314
-0.021823054 0.082096249 0.012141526
-0.020760126 0.082002506 0.01192373
-0.019722158 0.082002655 0.011092275
-0.018832522 0.08265385 0.010015786
-0.017675359 0.082138427 0.0097501874
-0.018331993 0.09051422 0.0096620619
-0.016004208 0.084288828 0.0090059936
-0.014956137 0.084395342 0.0079807341
-0.014128367 0.085857004 0.0059635043
-0.013029633 0.085778415 0.005192101
-0.011781528 0.084612787 0.0043493807
-0.11976541 0.087102115 0.005400449
-0.11405241 0.083708189 0.019057155
-0.11039066 0.081770852 0.020410568
-0.11152008 0.083379492 0.021231413
-0.11024961 0.08320725 0.021705449
-0.10881237 0.082904667 0.021954656
-0.10952073 0.08424671 0.021948159
-0.10652475 0.082737662 0.021904498
-0.10626166 0.083342478 0.021834671
-0.10566136 0.083692163 0.021382719
-0.10398956 0.083191641 0.021283239
-0.10194933 0.08238329 0.021080494
-0.10252001 0.083689809 0.021208018
-0.099690706 0.082219139 0.02139765
-0.10087947 0.084066227 0.021506965
-0.099158272 0.083501697 0.021344304
-0.097039156 0.082586512 0.021455228
-0.09766829 0.084015727 0.021436334
-0.096545756 0.083952829 0.020705134
-0.094165631 0.082782961 0.020710111
-0.094450809 0.083956271 0.020104557
-0.093007363 0.083602123 0.020060897
-0.091299288 0.082999349 0.019738287
-0.09166044 0.08428546 0.019309282
-0.090697244 0.084369525 0.019124597
-0.087771222 0.082608201 0.019088894
-0.088541962 0.084325679 0.018881649
-0.086324006 0.083203852 0.018812031
-0.085266903 0.083187222 0.018383563
-0.085691847 0.084633924 0.018326432
-0.082955368 0.082955368 0.018408656
-0.083171137 0.084223934 0.018514395
-0.081102125 0.083181664 0.018319756
-0.079306647 0.082396515 0.017975539
-0.080263667 0.084488064 0.01740706
-0.079431966 0.084727429 0.017293572
-0.0774839 0.083766371 0.017284155
-0.07712689 0.084522612 0.016700625
-0.075068064 0.083408959 0.016587824
-0.074809127 0.08429198 0.016423494
-0.074280851 0.0848924 0.015940398
-0.072533481 0.084096789 0.01564616
-0.071803659 0.084474891 0.015361518
-0.070684746 0.084399685 0.014978707
-0.069785409 0.084588371 0.014975667
-0.068362959 0.084139027 0.014923304
-0.068349831 0.085437283 0.014838636
-0.066584729 0.084552035 0.014561564
-0.065922037 0.085060693 0.014456779
-0.064370006 0.084419675 0.01432234
-0.06237543 0.083167233 0.014355958
-0.062984295 0.085402437 0.01410374
-0.061749265 0.085171394 0.013669938
-0.059857979 0.084011197 0.013595998
-0.060087971 0.085839957 0.013424188
-0.058014225 0.084384322 0.013185054
-0.056840114 0.084207572 0.012777537
-0.057231866 0.086387724 0.012914568
-0.055093061 0.084758557 0.012885243
-0.053850345 0.084471129 0.012719005
-0.0539052 0.086248316 0.012261331
-0.052324802 0.085428245 0.012482315
-0.05118902 0.085315034 0.012477368
-0.050326541 0.085662194 0.011942863
-0.048457626 0.084274128 0.011965513
-0.048382461 0.086013258 0.012064546
-0.046752203 0.085004002 0.011920661
-0.045509696 0.084669195 0.011996508
-0.044834774 0.085399561 0.011985987
-0.043639053 0.085149363 0.011853248
-0.042458791 0.084917583 0.011915028
-0.041713469 0.085566089 0.011474282
-0.039942861 0.084090225 0.010936201
-0.038893815 0.084094733 0.011603266
-0.038629193 0.085842654 0.011709988
-0.037142932 0.084898129 0.011878848
-0.036216766 0.085215919 0.012482345
-0.03624028 0.087855227 0.012714446
-0.032880936 0.08220233 0.012886047
-0.032234587 0.08318603 0.012482345
-0.031273793 0.083396778 0.013540298
-0.029795621 0.082194813 0.013972282
-0.028863277 0.082466505 0.014184862
-0.027898243 0.082661457 0.013608813
-0.026953012 0.082932338 0.013506204
-0.025866602 0.082773119 0.012320966
-0.024951613 0.083172038 0.012339652
-0.023890615 0.083097786 0.012446314
-0.022860227 0.083128095 0.012447625
-0.021840239 0.083200902 0.012409985
-0.020719176 0.082876705 0.012559116
-0.019917021 0.083861135 0.011645913
-0.018738598 0.083282657 0.011307746
-0.017804028 0.083783656 0.010661572
-0.016975386 0.084876932 0.010207474
-0.016192853 0.086361878 0.0094029307
-0.015016763 0.085810073 0.0086888075
-0.013900208 0.085539743 0.0061559677
-0.012781003 0.085206687 0.0052596927
-0.011993523 0.087225616 0.0045663118
-0.120873 0.089006484 0.0043585002
-0.11295623 0.083939947 0.018983066
-0.11211907 0.084089302 0.020061582
-0.11086345 0.083924666 0.020988256
-0.10862391 0.083005063 0.021692127
-0.11001492 0.084868655 0.021678776
-0.10803758 0.084144652 0.021904498
-0.10639875 0.083672799 0.021889806
-0.10651492 0.084585376 0.021746546
-0.10490426 0.084131137 0.021297365
-0.10355321 0.0838781 0.021122783
-0.10344373 0.084635764 0.020909339
-0.10202896 0.084330052 0.02109465
-0.10142165 0.084692299 0.021028757
-0.10048701 0.084785916 0.02127552
-0.098836318 0.084270962 0.021196842
-0.098872311 0.085198477 0.021326929
-0.09717904 0.084639803 0.020997167
-0.095391087 0.083985627 0.020717055
-0.095629752 0.085120976 0.020594895
-0.094128892 0.084715992 0.020118475
-0.092496738 0.084182419 0.020264775
-0.092717141 0.085341915 0.020120323
-0.090590864 0.084343217 0.019766539
-0.090026617 0.084792502 0.019329488
-0.090301648 0.086052157 0.019198388
-0.087256901 0.084140576 0.01904127
-0.086463779 0.084380306 0.018946677
-0.086375557 0.085322194 0.018401593
-0.084517173 0.084517173 0.018467903
-0.084647998 0.085706092 0.018408656
-0.083336323 0.085446104 0.018429428
-0.081806041 0.084952429 0.018455774
-0.081937574 0.086194068 0.01790601
-0.079909138 0.085166313 0.017502606
-0.078521967 0.084803723 0.017319113
-0.077861026 0.085226245 0.017095685
-0.076811619 0.085229322 0.016734987
-0.075299829 0.084712312 0.016566008
-0.076036498 0.086745866 0.015973181
-0.073487297 0.085035302 0.015602082
-0.072170049 0.084721357 0.015205145
-0.072303027 0.086125664 0.014984578
-0.07065542 0.085419238 0.015023679
-0.069709703 0.085552819 0.014926851
-0.069236077 0.086278796 0.014752477
-0.067002617 0.084800184 0.014702201
-0.067561671 0.086865008 0.014653146
-0.065960504 0.086174197 0.014508367
-0.06367977 0.084558375 0.01445508
-0.063811079 0.086144954 0.014334261
-0.062856756 0.086294867 0.014433324
-0.061047383 0.085255824 0.014184505
-0.06109811 0.086823627 0.013904721
-0.059296865 0.085768677 0.013728887
-0.058345005 0.085926272 0.013334572
-0.057510559 0.086265832 0.012909114
-0.056347154 0.086115465 0.012914568
-0.054829486 0.085407466 0.012803942
-0.054629192 0.086764008 0.012709618
-0.052924484 0.085737661 0.012261331
-0.05205854 0.086055957 0.012559354
-0.051230136 0.086450852 0.012560487
-0.050084878 0.086316489 0.012009144
-0.04898905 0.086263321 0.012165546
-0.047795326 0.086031578 0.012165546
-0.046324629 0.085279427 0.011920661
-0.046193298 0.087015279 0.012206823
-0.045127928 0.08703243 0.01224789
-0.043247592 0.08544036 0.011932045
-0.042890493 0.086853243 0.012037575
-0.041326899 0.08583279 0.011916012
-0.040502582 0.086334445 0.011607051
-0.03942351 0.086305521 0.011837214
-0.038424209 0.086454473 0.012032539
-0.037168875 0.086019397 0.012451112
-0.0364444 0.086823411 0.013091445
-0.034929413 0.085735828 0.012830943
-0.033143491 0.083894454 0.013553053
-0.032322545 0.084455669 0.013526052
-0.030770617 0.083080657 0.014073879
-0.030114938 0.084114134 0.014681101
-0.029136531 0.084287822 0.014687151
-0.027857441 0.083572313 0.014067829
-0.026991203 0.084087975 0.013397455
-0.025903357 0.083926871 0.012339652
-0.024673274 0.083272301 0.012287825
-0.023977913 0.084443949 0.012604773
-0.022780938 0.083875269 0.012840182
-0.021725681 0.083799049 0.012824148
-0.020791559 0.084205806 0.013528049
-0.019779243 0.084322028 0.012117594
-0.018722035 0.084249154 0.01170826
-0.017683778 0.08425799 0.010885745
-0.016553476 0.08380197 0.010682255
-0.016783454 0.090630643 0.010108888
-0.014915023 0.086294055 0.0088812709
-0.013859327 0.086354271 0.0064128637
-0.012988448 0.087672018 0.0051352382
-0.0119207 0.087779701 0.0045051575
-0.11498058 0.086499155 0.018302649
-0.11209902 0.085112222 0.019798487
-0.11083747 0.084940866 0.020643562
-0.10944441 0.084664553 0.021150887
-0.10938741 0.08542636 0.021746546
-0.1078194 0.08501146 0.021876365
-0.10811567 0.086072676 0.021711141
-0.10483442 0.084278658 0.021618515
-0.10419999 0.084598012 0.021618992
-0.10536785 0.086401641 0.021275252
-0.10312584 0.08541736 0.020994574
-0.10105395 0.084555358 0.021116078
-0.10159456 0.085884072 0.021150887
-0.10016692 0.085559256 0.021506071
-0.099437132 0.085829951 0.021196842
-0.098142423 0.085613608 0.021175355
-0.095644332 0.084331565 0.02072385
-0.096831717 0.086306535 0.02056548
-0.095229737 0.085811414 0.020573527
-0.093733251 0.085401401 0.020099342
-0.093497619 0.086143881 0.020085603
-0.090890743 0.084693655 0.019457787
-0.090599321 0.085392468 0.019256085
-0.090602756 0.086388677 0.019133359
-0.088097036 0.084987737 0.01904434
-0.087776236 0.085686326 0.019007385
-0.087011062 0.085962735 0.018881649
-0.085984401 0.085984401 0.018401593
-0.084183179 0.085222483 0.018460989
-0.083637409 0.085728355 0.018366128
-0.082157329 0.08527723 0.018348694
-0.081945926 0.086148292 0.018249333
-0.080420911 0.085643053 0.017794222
-0.078376241 0.084563836 0.01728335
-0.079700969 0.087139726 0.017074078
-0.07788071 0.086300246 0.017086267
-0.075526111 0.084837556 0.016734987
-0.075636841 0.086141966 0.016507566
-0.074542165 0.086090952 0.015991837
-0.073374093 0.085952513 0.015602082
-0.073330551 0.087146461 0.015354335
-0.07012105 0.084557742 0.015086979
-0.070207097 0.08592511 0.015235752
-0.070252486 0.087283395 0.014973968
-0.068367161 0.086247809 0.014923304
-0.067737341 0.086788468 0.014653146
-0.065863207 0.085726716 0.014626354
-0.06464012 0.085491776 0.014670879
-0.064553849 0.086777315 0.01453644
-0.063535869 0.086832359 0.014509946
-0.062097657 0.086305216 0.014466405
-0.061491478 0.086936228 0.014184505
-0.060573116 0.087140277 0.014020652
-0.059185557 0.086664565 0.013863415
-0.058935609 0.08786764 0.013323188
-0.05739978 0.087162629 0.013017416
-0.05564506 0.08609236 0.012899965
-0.055447087 0.087435797 0.012805402
-0.054400355 0.087467238 0.012596399
-0.052901953 0.086759202 0.012215644
-0.052202005 0.08735846 0.012393683
-0.050638761 0.086507894 0.012519151
-0.05050417 0.088113666 0.011742532
-0.049361311 0.087991901 0.011742532
-0.047505055 0.086564764 0.011891127
-0.047036529 0.087658986 0.011714011
-0.045997262 0.087715708 0.011952758
-0.044392344 0.086670764 0.01186198
-0.043733515 0.08746703 0.011770785
-0.042505894 0.087137088 0.011169702
-0.041522544 0.087303817 0.011607051
-0.040699918 0.08782614 0.011353761
-0.03909843 0.08665058 0.011699378
-0.038244911 0.08711341 0.01197812
-0.037775744 0.088503174 0.012470365
-0.036503609 0.088038117 0.012800366
-0.034212977 0.085014068 0.013065249
-0.033220761 0.085128203 0.013489366
-0.031760287 0.084011085 0.01386252
-0.031422269 0.085887544 0.014687151
-0.03008819 0.08507695 0.014982671
-0.028656811 0.083923519 0.014845967
-0.028233327 0.085745662 0.014601707
-0.027658479 0.087230593 0.014113009
-0.026308088 0.086290523 0.013368219
-0.025654456 0.087652728 0.013038307
-0.02432424 0.086721204 0.013305247
-0.02312151 0.08618018 0.014080316
-0.022298865 0.087071761 0.014119774
-0.020783801 0.085213587 0.014415562
-0.019753719 0.085252896 0.014337331
-0.018847169 0.085859329 0.013997763
-0.017630503 0.085041255 0.01233843
-0.0166132 0.085142657 0.011513293
-0.015675709 0.085693881 0.010888994
-0.015597256 0.091355361 0.010119259
-0.013901455 0.087686107 0.0078721941
-0.012844537 0.087771006 0.0050608218
-0.01179993 0.087963119 0.0044262111
-0.12225247 0.09224505 0.0041826069
-0.11363852 0.086532086 0.018210709
-0.1110685 0.085358202 0.019619972
-0.11168844 0.086636826 0.02024135
-0.1109129 0.086846896 0.020905614
-0.10831057 0.085616931 0.021642029
-0.10865389 0.086714163 0.02170974
-0.10636599 0.085712403 0.02168873
-0.10579005 0.08608406 0.021629632
-0.10606564 0.087162852 0.021599829
-0.10415306 0.086447038 0.021270871
-0.10304896 0.086394578 0.02091825
-0.10295822 0.087199315 0.020896882
-0.10026795 0.085796297 0.021144211
-0.10039896 0.086803272 0.021337271
-0.099434681 0.086874515 0.021378368
-0.096242271 0.084979877 0.021792889
-0.096714638 0.086315215 0.021326929
-0.096062742 0.086665303 0.021018535
-0.093837887 0.085588403 0.020797491
-0.093458153 0.086189188 0.020479709
-0.092394345 0.086165518 0.020411611
-0.092070192 0.086838938 0.020146161
-0.091572531 0.087362304 0.019643277
-0.08993683 0.086799502 0.019249916
-0.088889979 0.086798452 0.019143254
-0.08846654 0.087413371 0.019164979
-0.086887181 0.086887181 0.018654108
-0.085785136 0.086831294 0.018613636
-0.085936233 0.088058122 0.018436641
-0.082913242 0.086022496 0.01827836
-0.083317548 0.087536164 0.018272758
-0.082652442 0.087950677 0.017950445
-0.080481894 0.086753212 0.017579287
-0.080444351 0.0878537 0.017169863
-0.078707129 0.087102562 0.017000407
-0.077865161 0.087335244 0.017263293
-0.077248998 0.08783105 0.016627371
-0.075697936 0.087262906 0.016507566
-0.074715197 0.087343127 0.015973181
-0.073923774 0.087652482 0.015602082
-0.07309626 0.087927394 0.015354335
-0.071629144 0.087429687 0.015086979
-0.071021989 0.087982468 0.014909118
-0.068837672 0.086568594 0.014973968
-0.068828583 0.087888815 0.01481089
-0.067806572 0.087936655 0.014599293
-0.066087894 0.087068178 0.014754742
-0.065600671 0.087820247 0.014670879
-0.064112 0.087234363 0.01446262
-0.06273248 0.086779937 0.014509946
-0.062322076 0.087673433 0.01434955
-0.061615951 0.088174552 0.014412433
-0.059815712 0.087100074 0.014176846
-0.059392013 0.088027447 0.013874739
-0.057807013 0.087236039 0.013323188
-0.05709701 0.087760217 0.013026804
-0.056521747 0.088515192 0.012934268
-0.055392392 0.088414781 0.012805402
-0.053739369 0.087458186 0.012593448
-0.05347769 0.08877296 0.012170106
-0.052089423 0.088233106 0.012261331
-0.050938532 0.088081218 0.012477368
-0.050401468 0.089006849 0.01163128
-0.048392929 0.087317675 0.011742532
-0.048122775 0.08875978 0.011987418
-0.046888169 0.088448137 0.011866689
-0.04540541 0.087643005 0.012260586
-0.04499672 0.088922091 0.012042791
-0.043731593 0.088529803 0.012019783
-0.042233136 0.087633766 0.012158066
-0.041824389 0.089010887 0.011878848
-0.039826065 0.086988516 0.011855811
-0.039048459 0.087595187 0.012369692
-0.038493779 0.08874955 0.012520015
-0.037421998 0.088743597 0.013154238
-0.035490401 0.086638331 0.01355052
-0.034312032 0.086299971 0.013966799
-0.032754928 0.084958099 0.014573723
-0.032128539 0.086021572 0.014688373
-0.030995965 0.085755505 0.015907884
-0.029943859 0.085701391 0.015971452
-0.029658394 0.087915957 0.015788078
-0.028740579 0.088350669 0.014988869
-0.027544161 0.087929443 0.014119953
-0.026923828 0.089387111 0.013764411
-0.025467301 0.088074416 0.013472021
-0.024430154 0.088160992 0.013872087
-0.023479978 0.088583551 0.014246851
-0.022096293 0.087332964 0.01423195
-0.021341251 0.088566191 0.014866084
-0.020037459 0.087532058 0.014866084
-0.018735873 0.0863932 0.014826745
-0.017690759 0.086372532 0.014672756
-0.016667997 0.08646524 0.013488829
-0.015551624 0.086052321 0.011611521
-0.01496804 0.088739105 0.010888994
-0.014120334 0.090152904 0.0093432069
-0.012807397 0.088584505 0.0054731071
-0.011873536 0.089591235 0.0046174526
-0.11278102 0.086913817 0.016858011
-0.11241233 0.087431811 0.019340813
-0.11093818 0.087091662 0.020102322
-0.10898734 0.086367331 0.020542711
-0.10861177 0.086889416 0.021046609
-0.10705113 0.086464383 0.021629632
-0.1067332 0.087044545 0.02168873
-0.10689186 0.088028595 0.021586448
-0.10423109 0.086687244 0.0215424
-0.10372137 0.08712595 0.021456718
-0.10434385 0.088534169 0.021046609
-0.10082246 0.086419262 0.021262556
-0.10018671 0.086759627 0.021232337
-0.1004964 0.087934352 0.021524847
-0.097504571 0.086214572 0.021844953
-0.098508961 0.088029288 0.021861255
-0.096863471 0.08748959 0.021167248
-0.094522707 0.086303346 0.021065533
-0.094922207 0.087620497 0.020854324
-0.094158389 0.087881163 0.020610303
-0.09282767 0.087612636 0.020602643
-0.092436887 0.088235214 0.020146161
-0.090381123 0.087264538 0.019796163
-0.089401625 0.087322518 0.019585967
-0.089582361 0.088528454 0.019478261
-0.086607404 0.086607404 0.019306451
-0.086874589 0.087921269 0.018507272
-0.086756207 0.088872209 0.018531561
-0.084719025 0.08785677 0.018531561
-0.084470913 0.088694461 0.01827836
-0.083064482 0.08832173 0.017915756
-0.080934629 0.087160371 0.017838359
-0.081955723 0.089406244 0.017572254
-0.07997743 0.08839611 0.016974449
-0.078039579 0.087404326 0.017087936
-0.077779666 0.088290431 0.01694417
-0.076169506 0.087647103 0.016634822
-0.075593539 0.088192463 0.016524673
-0.074912705 0.088629119 0.016016126
-0.073521443 0.08822573 0.01587227
-0.072882086 0.088726014 0.015577793
-0.071578287 0.088420235 0.015126586
-0.070691496 0.088628151 0.015121192
-0.069853932 0.088905007 0.015144825
-0.069580317 0.08991918 0.015096962
-0.067335792 0.088378228 0.014838636
-0.066947363 0.089263149 0.015027553
-0.065521054 0.088770464 0.014635414
-0.06368462 0.087696858 0.014499307
-0.064065635 0.089691892 0.01453644
-0.062904857 0.089559458 0.014507145
-0.060756478 0.087992139 0.014316469
-0.06028159 0.088836029 0.01424098
-0.05881327 0.088219911 0.014056295
-0.057746101 0.088194042 0.01375711
-0.057129659 0.088868357 0.012997091
-0.056271262 0.089184649 0.013040721
-0.054417044 0.087904453 0.01282534
-0.054483 0.089736708 0.012632847
-0.053125571 0.089250959 0.012400329
-0.052081164 0.089281999 0.012559354
-0.050936166 0.089138299 0.01260227
-0.049490549 0.088451199 0.01176092
-0.04921465 0.089870229 0.01179415
-0.04813103 0.089844584 0.012166798
-0.046217572 0.088233545 0.011969298
-0.046258256 0.09036497 0.012206823
-0.044732619 0.089465238 0.012222499
-0.043524932 0.089173026 0.012675285
-0.042734854 0.089743197 0.012732059
-0.04106462 0.088446878 0.012147188
-0.040296286 0.089076005 0.01234147
-0.039040089 0.088631548 0.012587458
-0.038453277 0.089724317 0.012844712
-0.037586551 0.090207726 0.013855398
-0.035450537 0.087583683 0.014605552
-0.033931866 0.086372025 0.015170336
-0.033288829 0.087383181 0.016192347
-0.032160528 0.087144658 0.017231464
-0.03146619 0.088105328 0.017702401
-0.030550398 0.088490807 0.016922861
-0.029741986 0.089225963 0.015776575
-0.028504411 0.088680387 0.014518946
-0.027765801 0.089704901 0.014214039
-0.026521772 0.089113154 0.013846785
-0.025496075 0.089236259 0.013575435
-0.02458379 0.089784279 0.01361835
-0.023413211 0.089395903 0.014017344
-0.022167875 0.088671498 0.014090866
-0.021297228 0.089448363 0.014623851
-0.02001727 0.0884974 0.014811367
-0.018947581 0.088422045 0.015143454
-0.017912012 0.088506415 0.014847964
-0.016594801 0.087122709 0.014575094
-0.015738862 0.088137627 0.013351947
-0.014600705 0.087604232 0.0112679
-0.014479255 0.093558267 0.010046899
-0.013047228 0.091330603 0.0074256063
-0.011945689 0.091221631 0.004750222
-0.11428571 0.089121878 0.016102731
-0.11063406 0.087073095 0.018918902
-0.11133024 0.088439904 0.020074785
-0.11098592 0.088998146 0.020578682
-0.10900914 0.088245496 0.021003425
-0.10855131 0.088719822 0.021629632
-0.10821944 0.089307308 0.021695137
-0.1058021 0.08816842 0.021603554
-0.10509377 0.088445246 0.021575749
-0.10436136 0.088707149 0.021342993
-0.10304293 0.088471204 0.021236986
-0.10124606 0.087815464 0.021019816
-0.10247491 0.089797601 0.020873338
-0.099110432 0.087754026 0.021062762
-0.099974565 0.089450926 0.021739423
-0.097379796 0.088056199 0.021853328
-0.096486993 0.088187031 0.021219194
-0.096372351 0.089039676 0.021102965
-0.094648689 0.088408113 0.02099362
-0.093688354 0.088483438 0.020777494
-0.093649082 0.089440137 0.020520568
-0.091396786 0.088280991 0.020323187
-0.091509849 0.089406177 0.020022959
-0.090708613 0.089653865 0.019585967
-0.087538607 0.087538607 0.019509971
-0.087335899 0.088375613 0.019385219
-0.088244207 0.090370573 0.018919289
-0.085668676 0.088802896 0.018945843
-0.084971644 0.089167781 0.018539846
-0.083924055 0.089169309 0.018250376
-0.082177393 0.088418715 0.018036515
-0.083024696 0.090475626 0.017838359
-0.080877669 0.089280546 0.017591119
-0.078521155 0.08781971 0.017293572
-0.079514973 0.09011697 0.017293572
-0.077802405 0.089367621 0.016964853
-0.075716436 0.088162974 0.016824633
-0.07604707 0.089777797 0.016527385
-0.074316867 0.0889709 0.016230732
-0.073633485 0.089412086 0.015908778
-0.073795855 0.090907939 0.015901268
-0.071579084 0.089473858 0.015366852
-0.071011625 0.090089373 0.015356898
-0.070456862 0.090739898 0.015334308
-0.068872154 0.090063579 0.015318006
-0.067792848 0.090037376 0.015144527
-0.066962592 0.090346351 0.015187532
-0.06521447 0.08940693 0.014923662
-0.064855017 0.090371743 0.014842063
-0.064143702 0.090870239 0.014827728
-0.06205174 0.089396574 0.014794111
-0.06195597 0.090797544 0.014630824
-0.060675967 0.090481706 0.014473587
-0.059048828 0.089627683 0.014098376
-0.058813069 0.090892926 0.013699591
-0.057059769 0.089816295 0.013367683
-0.056208812 0.090146206 0.012941599
-0.055706803 0.091059193 0.012583047
-0.053571481 0.089285806 0.012495667
-0.05266989 0.089538813 0.012192369
-0.052409235 0.090913981 0.012175143
-0.050942048 0.090209879 0.012519151
-0.050075762 0.090562545 0.011747241
-0.049378213 0.091242351 0.012039036
-0.048261732 0.09116105 0.012166798
-0.046818092 0.090444043 0.011969298
-0.045643389 0.090225302 0.012087375
-0.044361379 0.089778975 0.012456834
-0.043907061 0.091026828 0.01221931
-0.042086612 0.089434057 0.012654424
-0.041069523 0.0895105 0.012199104
-0.040659741 0.090949416 0.012495428
-0.039651297 0.091090821 0.013044059
-0.038322773 0.090484329 0.013855398
-0.036552686 0.088770807 0.014710784
-0.035297338 0.08824335 0.01528123
-0.034116894 0.087876856 0.015420079
-0.033093248 0.087903939 0.016681015
-0.032352701 0.088709012 0.016681015
-0.031928618 0.090464421 0.01573661
-0.031012954 0.090900034 0.015579611
-0.029630389 0.089949399 0.014879972
-0.028772879 0.090581283 0.014392316
-0.027706945 0.090580404 0.01375255
-0.026499486 0.090098247 0.01365006
-0.025641851 0.090814888 0.013224095
-0.024453614 0.090372048 0.013240665
-0.023478718 0.090713233 0.014029294
-0.022324316 0.090360329 0.013990343
-0.021323424 0.090624556 0.014422953
-0.020010568 0.089520968 0.014866084
-0.019168619 0.090518489 0.015050054
-0.017921209 0.089606047 0.014899105
-0.016661759 0.088515595 0.014736265
-0.015737178 0.08917734 0.014481753
-0.014403897 0.087452233 0.012838393
-0.013836463 0.090469182 0.010719538
-0.013489206 0.095548548 0.0084861815
-0.011744214 0.090750754 0.0047330856
-0.11370376 0.089711219 0.015989959
-0.1111726 0.088526323 0.019379139
-0.11073396 0.089001119 0.019953102
-0.10999688 0.089242749 0.020965844
-0.10758666 0.088118598 0.021456718
-0.10875759 0.089934163 0.021735817
-0.10724452 0.089543968 0.021856636
-0.10461251 0.088202707 0.021923035
-0.10556925 0.089890651 0.021823347
-0.1036972 0.089179598 0.021472663
-0.10184023 0.088467263 0.021399289
-0.10239591 0.089857645 0.021270633
-0.10090618 0.089463212 0.02129069
-0.10028818 0.089841492 0.021524847
-0.099854387 0.090394497 0.021813393
