ply
format ascii 1.0
comment PCL generated
element vertex 1320
property float x
property float y
property float z
element camera 0
property float view_px
property float view_py
property float view_pz
property float x_axisx
property float x_axisy
property float x_axisz
property float y_axisx
property float y_axisy
property float y_axisz
property float z_axisx
property float z_axisy
property float z_axisz
property float focal
property float scalex
property float scaley
property float centerx
property float centery
property int viewportx
property int viewporty
property float k1
property float k2
end_header
-0.072589435 0.10309803 0.016088903
-0.070965543 0.10227387 0.016025096
-0.070767589 0.1035108 0.016284376
-0.069626071 0.10338417 0.015851736
-0.06828136 0.10294727 0.015736818
-0.067458086 0.10329519 0.015896261
-0.066376716 0.10325266 0.015834659
-0.066069208 0.10443197 0.015677273
-0.063772276 0.10245381 0.015760839
-0.062485013 0.10205885 0.015231043
-0.062789477 0.10429437 0.015139192
-0.061280124 0.10354227 0.015069872
-0.060103156 0.10333525 0.015000105
-0.060139358 0.10524388 0.014443785
-0.05828049 0.10384523 0.01435864
-0.057058178 0.10355002 0.014102012
-0.056345806 0.10418658 0.014084756
-0.054523449 0.10275573 0.013950706
-0.053640787 0.10307445 0.01368174
-0.053433411 0.10472947 0.013597786
-0.051218498 0.102437 0.013754278
-0.05161614 0.10538295 0.013683826
-0.049846783 0.10393585 0.013213784
-0.048580121 0.10349677 0.012652934
-0.048569862 0.10577436 0.012289256
-0.0466711 0.10394926 0.011797875
-0.045356017 0.10336952 0.011608392
-0.045217901 0.10550843 0.010810673
-0.04367115 0.10438469 0.010688186
-0.042675018 0.1045538 0.010515511
-0.041981064 0.10549087 0.010113001
-0.040492523 0.10442808 0.0096651614
-0.039501052 0.10462441 0.009498179
-0.038356703 0.10441548 0.0093125105
-0.037641849 0.10539717 0.0089701414
-0.036258686 0.10451033 0.008469969
-0.035506967 0.10544493 0.0085171759
-0.033770572 0.10342237 0.0085450709
-0.033475559 0.10582596 0.008556217
-0.032327071 0.10560177 0.0084850788
-0.030713523 0.10379052 0.0083107054
-0.029778514 0.10422479 0.0083845854
-0.02891749 0.10495977 0.0082663298
-0.027454318 0.10348167 0.0081869364
-0.026993489 0.10581447 0.0078080297
-0.025808219 0.10538355 0.007558167
-0.024492847 0.10436082 0.0075871348
-0.023579363 0.10503534 0.0073791444
-0.022389937 0.10448637 0.0070266128
-0.021622092 0.10594825 0.0067560077
-0.020537723 0.10593141 0.0063985288
-0.019152183 0.10427299 0.006424278
-0.018217793 0.10502022 0.006103009
-0.017357083 0.10631213 0.0060307086
-0.015885793 0.10378718 0.0059690475
-0.015198416 0.10638891 0.0056494474
-0.014007743 0.10559683 0.0057814121
-0.012730846 0.10396858 0.0056137741
-0.012014584 0.10703902 0.0054164827
-0.010781521 0.1056589 0.0050615072
-0.0096863266 0.10547334 0.0040885806
-0.11688083 0.10814208 0.005135566
-0.10948862 0.10225824 0.018687129
-0.10955484 0.10329457 0.020203292
-0.10776847 0.1025873 0.021220624
-0.10722521 0.10306113 0.022256315
-0.10695369 0.10380799 0.022400767
-0.10386875 0.10181195 0.022936076
-0.10263897 0.10161259 0.022846997
-0.102797 0.102797 0.022831142
-0.10206843 0.10310996 0.022818625
-0.10092539 0.10300633 0.022910237
-0.099058844 0.10215443 0.022624254
-0.097690292 0.10180357 0.022437513
-0.097873934 0.10308 0.021937996
-0.096663296 0.10289964 0.021628588
-0.094918825 0.10214091 0.021531254
-0.095381707 0.10376691 0.021281749
-0.094084881 0.10349336 0.021169752
-0.092731036 0.10315026 0.021088332
-0.092666984 0.10425036 0.020685047
-0.09037938 0.1028455 0.020438075
-0.08964324 0.10319397 0.020367265
-0.088909745 0.1035537 0.020472378
-0.087486744 0.10310938 0.020391703
-0.086423472 0.10308342 0.019931138
-0.087416649 0.10553961 0.019982755
-0.084767491 0.10360472 0.019737422
-0.084084608 0.1040547 0.019919336
-0.083567008 0.10472322 0.019802094
-0.081480004 0.10341693 0.019630462
-0.080443971 0.10342797 0.019174516
-0.079194948 0.10316184 0.018715382
-0.078483529 0.10359826 0.018625766
-0.077301852 0.10341734 0.017990947
-0.077220991 0.10472436 0.017472923
-0.074817747 0.10287441 0.017445058
-0.075316258 0.10501845 0.017108947
-0.073762588 0.10432138 0.016545355
-0.073132515 0.10492927 0.016253382
-0.072509959 0.10556598 0.016191065
-0.070300922 0.10387748 0.016117901
-0.069513388 0.10427009 0.015868604
-0.069219388 0.10542645 0.01580444
-0.066978164 0.10360685 0.015732706
-0.067264289 0.10570103 0.015789062
-0.065146267 0.10402388 0.015642136
-0.063157454 0.10250145 0.015777946
-0.063893892 0.10542493 0.015242904
-0.0625429 0.10494487 0.015238464
-0.060616348 0.10346584 0.015224755
-0.060677174 0.10538668 0.015128762
-0.058387339 0.10322048 0.014628291
-0.05768903 0.10384025 0.014665484
-0.057668962 0.10572643 0.014177859
-0.056070946 0.10473631 0.014050782
-0.054266337 0.10331476 0.013737023
-0.054338116 0.10547987 0.013536185
-0.052433338 0.10381801 0.013392806
-0.051422473 0.10389439 0.013595402
-0.051101204 0.10539623 0.013213784
-0.049707673 0.1047034 0.012582839
-0.04929911 0.10610026 0.012205154
-0.048023041 0.10565069 0.011710137
-0.046605483 0.10486235 0.011489898
-0.045808416 0.10546589 0.011001885
-0.04462311 0.10518305 0.010475725
-0.043341786 0.10465456 0.010475725
-0.043044027 0.10653397 0.010334283
-0.041704122 0.10586432 0.0097600818
-0.040556576 0.10566055 0.0096013546
-0.039794598 0.10647744 0.009373188
-0.038345225 0.10544939 0.0091715455
-0.036936909 0.10447869 0.0088354349
-0.036522586 0.10634518 0.0084563494
-0.034884863 0.1046546 0.0084832311
-0.03438748 0.10638627 0.0083867013
-0.033436116 0.10677986 0.008613348
-0.0317045 0.10462485 0.0086552203
-0.0312557 0.10670049 0.0085447431
-0.030010993 0.1061103 0.008282572
-0.028699853 0.10523279 0.0083262026
-0.028226355 0.10747728 0.0080346167
-0.026908467 0.10655753 0.0077677071
-0.025848605 0.1066255 0.007558167
-0.02473422 0.10646468 0.0075635612
-0.023746464 0.1068591 0.0073769689
-0.022599185 0.10653901 0.0069692433
-0.021660417 0.10721907 0.0066759586
-0.020255091 0.10553969 0.0063409209
-0.019295428 0.10612486 0.006293565
-0.018358046 0.10690863 0.0059067607
-0.016989317 0.1051214 0.0058787465
-0.016362803 0.10799451 0.0057062209
-0.015146543 0.1071077 0.0054904819
-0.013882722 0.10572227 0.0057254732
-0.013003905 0.10728223 0.0053318441
-0.011862476 0.1067623 0.005030036
-0.010652781 0.10546254 0.0047278106
-0.0098314285 0.10814572 0.0040179789
-0.11608764 0.10849312 0.0045399964
-0.11060058 0.10434017 0.017830968
-0.10907929 0.10388504 0.020290524
-0.10677259 0.10266596 0.021253735
-0.10788139 0.10473921 0.021456122
-0.1054538 0.10338607 0.022324562
-0.103852 0.10282376 0.022753924
-0.10370325 0.10370325 0.022831142
-0.10206815 0.10309914 0.022798032
-0.1022826 0.10437001 0.022753984
-0.10162345 0.10476645 0.022739083
-0.099341221 0.10348044 0.022778213
-0.099941477 0.10520156 0.022241563
-0.098795325 0.10510141 0.021910965
-0.096094243 0.10332715 0.021654099
-0.09688963 0.10531481 0.021570742
-0.095081404 0.10448506 0.021477133
-0.092461452 0.10273495 0.021218449
-0.093240105 0.10476417 0.020935088
-0.091444165 0.10391383 0.020766199
-0.091079019 0.10468853 0.020492494
-0.090155706 0.10483222 0.020400554
-0.088618502 0.10425707 0.02024287
-0.087797865 0.10452127 0.020186841
-0.086827293 0.1046112 0.019713253
-0.085416831 0.10416686 0.019965321
-0.084423497 0.10422654 0.019965321
-0.084185831 0.10523229 0.019785285
-0.083239838 0.10536689 0.019648582
-0.082345217 0.10557079 0.019495606
-0.081486501 0.10582663 0.019401193
-0.078159742 0.10284176 0.018847167
-0.078893006 0.10519067 0.018608749
-0.078567833 0.10617275 0.018260568
-0.076547839 0.10486005 0.017899424
-0.076050729 0.10562602 0.017777324
-0.075078905 0.10574494 0.017339081
-0.073083751 0.10440536 0.016662776
-0.072784916 0.10548539 0.016470701
-0.071377181 0.10496644 0.016251981
-0.070092611 0.10461584 0.016358525
-0.070275582 0.10647816 0.015897602
-0.068180926 0.10489374 0.015806437
-0.067931272 0.10614261 0.015768379
-0.066864774 0.10613456 0.015861601
-0.064713649 0.10437685 0.016037911
-0.064688325 0.10604644 0.016128153
-0.063491978 0.10581997 0.015577972
-0.061377246 0.10402923 0.015570313
-0.061651774 0.10629616 0.015241474
-0.060221467 0.1056517 0.015087634
-0.058668897 0.10476588 0.014971137
-0.058362115 0.10611293 0.014650673
-0.05747107 0.10642791 0.014447063
-0.055634398 0.10497057 0.014106691
-0.055059068 0.10588283 0.013749003
-0.054007374 0.10589681 0.013637394
-0.053204674 0.10640935 0.013595402
-0.052472163 0.10708605 0.013514519
-0.050389148 0.1049774 0.013249785
-0.050328106 0.10708108 0.01282686
-0.048713505 0.10589892 0.012316853
-0.047209319 0.10490959 0.011889815
-0.046493094 0.10566612 0.011509031
-0.045969103 0.10690489 0.011082798
-0.044038646 0.10485392 0.010457128
-0.044006906 0.10733392 0.01044786
-0.042107619 0.10526906 0.0098134577
-0.041608725 0.10668904 0.0095144808
-0.040584512 0.10680135 0.009321779
-0.039531689 0.1068424 0.0092872381
-0.038123529 0.1058987 0.0088725686
-0.037695255 0.10770074 0.0086508393
-0.035922058 0.10565311 0.0083724856
-0.03530629 0.10698876 0.0084218979
-0.034401439 0.10750449 0.0079235137
-0.032774799 0.10572515 0.0084781945
-0.032401104 0.10800368 0.008556217
-0.031213533 0.10763288 0.0082895756
-0.02991914 0.10685407 0.008173883
-0.02922022 0.10822304 0.0080463588
-0.027663443 0.10639786 0.0079987645
-0.026479444 0.10591777 0.0077677071
-0.025830688 0.10762787 0.0069692433
-0.024683105 0.10731785 0.0075543523
-0.02358315 0.10719614 0.0073525012
-0.022727421 0.10822581 0.0068260729
-0.021462237 0.10731119 0.0066759586
-0.020172523 0.10617118 0.0063711405
-0.019254368 0.10696872 0.0063711405
-0.018354349 0.10796676 0.0059369802
-0.017513743 0.1094609 0.0059180856
-0.016108498 0.10738999 0.0056400001
-0.015071468 0.10765335 0.0055491924
-0.014087513 0.10836549 0.0058995187
-0.012997718 0.10831432 0.0053970516
-0.011775528 0.10705026 0.0050543249
-0.010889605 0.10889605 0.0047397912
-0.11038149 0.10517482 0.017733037
-0.10794796 0.10383566 0.020192355
-0.10890135 0.10575997 0.020917565
-0.1050151 0.10297597 0.021955669
-0.1048858 0.10385751 0.022081107
-0.10646206 0.10646206 0.022939622
-0.1025882 0.10361408 0.023106426
-0.10205098 0.10411261 0.022897393
-0.10292439 0.10607515 0.022990614
-0.10027704 0.10441218 0.023008823
-0.10108211 0.10634681 0.023048878
-0.099031597 0.10528623 0.02288568
-0.096399091 0.10357775 0.022071898
-0.09722022 0.10558325 0.021879405
-0.096118443 0.10552134 0.02173689
-0.093977116 0.10430427 0.021633565
-0.09431199 0.10583901 0.021281034
-0.092914887 0.10544274 0.020935088
-0.091728322 0.1052791 0.020802587
-0.091344573 0.1060437 0.020492494
-0.089442693 0.10504317 0.020385116
-0.089065395 0.10583065 0.020284623
-0.088263907 0.10612684 0.02027902
-0.086826116 0.10565587 0.019709498
-0.085858047 0.10575198 0.019786417
-0.085573733 0.10670306 0.019692957
-0.082916759 0.10468242 0.019667923
-0.08346305 0.10670593 0.019630462
-0.081582345 0.10563868 0.019467145
-0.07996773 0.10489274 0.019245118
-0.080373079 0.10681159 0.018923938
-0.078525074 0.1057471 0.018698663
-0.076976962 0.10506315 0.018514782
-0.077115953 0.10669467 0.018222302
-0.075675867 0.10615643 0.0179649
-0.074704893 0.10627035 0.017771512
-0.074824795 0.10796149 0.016863555
-0.072598249 0.10626701 0.016704977
-0.070998967 0.10545436 0.016357243
-0.071041457 0.10709235 0.016358525
-0.069483787 0.10633125 0.016043752
-0.068544008 0.10650684 0.015868604
-0.067888349 0.1071363 0.015834123
-0.066145033 0.10604203 0.016124249
-0.066238523 0.10790469 0.016100258
-0.064404778 0.10663743 0.016184717
-0.062265273 0.10481322 0.015727639
-0.062236033 0.10653965 0.015733302
-0.061286695 0.10672338 0.015364707
-0.060073067 0.10644526 0.015256822
-0.059530485 0.10736749 0.015011162
-0.057899572 0.10632467 0.015042305
-0.056924887 0.10647061 0.014685571
-0.056724001 0.10809669 0.014443785
-0.054349933 0.1055643 0.013945282
-0.053643797 0.10623576 0.013497114
-0.053455424 0.10797995 0.013584793
-0.051897909 0.10697325 0.013476223
-0.050985545 0.10728209 0.01307252
-0.049583718 0.10655224 0.01245749
-0.048404001 0.10627835 0.012213111
-0.048657518 0.10920909 0.011912256
-0.047216062 0.10838232 0.011610776
-0.045211513 0.10619449 0.011382878
-0.045114644 0.10848998 0.01053068
-0.043817151 0.1079398 0.010302067
-0.042617284 0.10760865 0.010377228
-0.041898839 0.10850726 0.0097208321
-0.040390726 0.1073543 0.0094516277
-0.038907204 0.10620615 0.0093939602
-0.038830549 0.10894127 0.0090891421
-0.037605107 0.1085176 0.0087950826
-0.036191463 0.10750993 0.0083125234
-0.035287511 0.10800117 0.0082522333
-0.033968169 0.10721204 0.0078320801
-0.033190511 0.10813683 0.0082876384
-0.032313079 0.10878737 0.0082429647
-0.03050424 0.1062389 0.0079278946
-0.030142676 0.10872894 0.0079880357
-0.028871724 0.10800163 0.0079987645
-0.027481487 0.10675501 0.0077892542
-0.026971363 0.1089643 0.0076096058
-0.025629923 0.10785926 0.0070923865
-0.024714731 0.1085299 0.0075521767
-0.023761483 0.10908681 0.0073525012
-0.022595 0.10867118 0.0069692433
-0.021320861 0.10767035 0.0068003237
-0.02095283 0.11138084 0.0064436197
-0.019247269 0.10799857 0.0064951479
-0.018225033 0.10827814 0.005885452
-0.017182041 0.10846164 0.0058665574
-0.016081272 0.10828056 0.0056400001
-0.015300811 0.11038443 0.0053295493
-0.013901752 0.10800593 0.0055489838
-0.012825526 0.10794818 0.0053086877
-0.01207347 0.11085641 0.0048392713
-0.010786247 0.10894111 0.0045706034
-0.10866372 0.10456321 0.017733037
-0.11038873 0.10723477 0.019801438
-0.1077499 0.10567779 0.020861596
-0.10645599 0.10542244 0.021130055
-0.10635394 0.10635394 0.021978348
-0.10372419 0.10475116 0.022728562
-0.10254768 0.10459864 0.022762209
-0.10249973 0.10560578 0.022673428
-0.10202128 0.10618541 0.023086727
-0.10013673 0.10529841 0.023112595
-0.10031781 0.10658767 0.0230636
-0.098401211 0.10565183 0.023213089
-0.098808475 0.10721771 0.022298098
-0.096446775 0.10578033 0.021950603
-0.094817065 0.10512327 0.021893203
-0.096029237 0.10763717 0.021811098
-0.093219236 0.10564846 0.021539241
-0.091289014 0.10462337 0.021165341
-0.092220165 0.10689156 0.020833075
-0.090236187 0.10579415 0.020476371
-0.088938937 0.10548571 0.020385116
-0.089368656 0.10724239 0.02020213
-0.087128855 0.10579932 0.02008459
-0.085992709 0.10567779 0.019709498
-0.086816281 0.10799098 0.019776613
-0.084749743 0.10672191 0.019692957
-0.084381938 0.10758698 0.019846827
-0.082502767 0.10652257 0.019787669
-0.080638766 0.1054507 0.019675821
-0.080762491 0.10698407 0.019466102
-0.079222709 0.10632521 0.019451469
-0.077642664 0.10559402 0.019400716
-0.07804288 0.10757262 0.018778712
-0.076464042 0.10684016 0.018647879
-0.075401612 0.10681895 0.018457979
-0.075376898 0.10828795 0.017969072
-0.073390946 0.1069411 0.017250389
-0.072037458 0.10649016 0.016817898
-0.072222412 0.10833362 0.016760081
-0.070230424 0.10691795 0.016671479
-0.069193125 0.10693484 0.016390085
-0.069482945 0.10903478 0.016214609
-0.066746496 0.10637723 0.016103029
-0.067074291 0.10859647 0.016224772
-0.06622529 0.10895129 0.016124249
-0.063771792 0.1066348 0.016038984
-0.0639164 0.10865787 0.015766382
-0.062827766 0.10861749 0.015577972
-0.061013337 0.10729931 0.015565187
-0.060314849 0.10793184 0.015266567
-0.05904647 0.10754893 0.015000343
-0.058062166 0.10767893 0.014953882
-0.057540081 0.10868682 0.014597148
-0.055991899 0.107758 0.014275193
-0.05439122 0.10669047 0.013768017
-0.054685943 0.10937189 0.013322443
-0.05281987 0.10775253 0.013453335
-0.051418923 0.10703532 0.01333338
-0.051020369 0.10841829 0.013054341
-0.049720105 0.10790321 0.012528807
-0.048923854 0.10848333 0.012154162
-0.047738124 0.10820641 0.011893481
-0.046314482 0.10736539 0.011469871
-0.045925271 0.10893901 0.011356056
-0.044949785 0.10916376 0.010751218
-0.043157306 0.10736695 0.010604769
-0.042834423 0.10922778 0.010531008
-0.041463453 0.10844289 0.010025263
-0.040234949 0.10799908 0.0097869337
-0.039822672 0.10978141 0.0098041296
-0.038091365 0.10792554 0.00995332
-0.036880206 0.10747946 0.0096183419
-0.036568463 0.10970539 0.0087364614
-0.035155833 0.10866349 0.0089761019
-0.034526762 0.11005406 0.0084218979
-0.033258516 0.10943124 0.0087485015
-0.031935047 0.10857916 0.0084401071
-0.031185238 0.109686 0.008297503
-0.030080233 0.109578 0.0081925988
-0.028623773 0.10813425 0.0081468225
-0.027863801 0.10931184 0.0078915656
-0.026543988 0.10829947 0.0079163015
-0.025737861 0.10938592 0.0074027181
-0.02471769 0.10961758 0.0076595247
-0.023540981 0.10914455 0.0075779259
-0.022391979 0.10876104 0.0073437393
-0.021893622 0.11165748 0.0071277618
-0.020532174 0.11022535 0.0068003237
-0.019242199 0.10903914 0.0067746043
-0.01855742 0.11134452 0.0061610639
-0.01710853 0.10906687 0.0060272217
-0.016185956 0.1100645 0.0058735311
-0.015174313 0.11055571 0.0053552985
-0.013919579 0.10921516 0.0056271851
-0.013010663 0.11059064 0.0052786767
-0.011863573 0.11000769 0.0046145618
-0.010694767 0.10908663 0.0043746233
-0.11157322 0.10841548 0.017140925
-0.10933493 0.10725236 0.019822866
-0.10802846 0.10698973 0.020867676
-0.10757603 0.10757603 0.021218836
-0.10595455 0.10699332 0.02198121
-0.10469658 0.10676978 0.022464395
-0.10429157 0.1074203 0.022719979
-0.10216291 0.10629071 0.022605538
-0.10124815 0.10641388 0.022871733
-0.10242165 0.10875701 0.022990614
-0.09839984 0.10557483 0.023110628
-0.099821121 0.10822711 0.022666365
-0.098432697 0.1078571 0.022300452
-0.095346913 0.10559927 0.021950603
-0.095871016 0.10733385 0.021893203
-0.09509784 0.10763821 0.021771252
-0.093004778 0.1064388 0.021477133
-0.093250476 0.1079191 0.021165341
-0.091374315 0.10694949 0.020888567
-0.090370268 0.10699008 0.020510495
-0.089643396 0.1073636 0.020380944
-0.087940603 0.10656332 0.020187825
-0.087482005 0.1072696 0.020078421
-0.087067425 0.10804753 0.019773722
-0.085293777 0.1071373 0.019814223
-0.084508263 0.10746112 0.019803852
-0.083637394 0.10768314 0.019891709
-0.082991011 0.10820348 0.019957066
-0.082230337 0.10858621 0.019619137
-0.080076404 0.10711519 0.019495606
-0.078611702 0.10653955 0.019523501
-0.078512564 0.10782392 0.019294918
-0.077433981 0.10777972 0.018778712
-0.075757287 0.10689041 0.018689096
-0.075914696 0.10860019 0.018413037
-0.075188287 0.10907597 0.017958581
-0.073148385 0.10763262 0.016921312
-0.073438063 0.10962493 0.016812474
-0.071748294 0.10867756 0.016799212
-0.070896156 0.10898961 0.016654551
-0.069899172 0.10908508 0.016601682
-0.068043113 0.10782216 0.016390622
-0.067734338 0.10900995 0.016363204
-0.066137575 0.10812968 0.016386837
-0.064984366 0.10795789 0.016243339
-0.064400636 0.10874206 0.016243339
-0.063128464 0.10837053 0.016108662
-0.062011313 0.10825704 0.015946001
-0.061754052 0.10966668 0.015577108
-0.060442656 0.10922094 0.015405655
-0.058942817 0.10841268 0.015184045
-0.058787636 0.11009321 0.014730841
-0.057240501 0.10918095 0.014697582
-0.05626611 0.10934735 0.014282554
-0.054700248 0.10834857 0.013823926
-0.054100636 0.10926207 0.013524145
-0.05268307 0.10852712 0.013469845
-0.051925756 0.10915006 0.013180792
-0.050075099 0.10745282 0.01295653
-0.050192475 0.10999627 0.012528807
-0.049016293 0.10975387 0.012154162
-0.047376927 0.10844052 0.012014747
-0.047080111 0.11021026 0.011619985
-0.045978781 0.11013521 0.011347026
-0.044449318 0.10900666 0.010701805
-0.044037472 0.11063071 0.010561764
-0.042557366 0.10958523 0.010424912
-0.041202608 0.10881715 0.010334253
-0.040863428 0.1107614 0.0098041296
-0.039442047 0.10979813 0.010113984
-0.038496431 0.11014257 0.010113984
-0.037875514 0.11146224 0.009727329
-0.035974376 0.1089812 0.0094981492
-0.035352394 0.11034232 0.0092872381
-0.034440201 0.11085439 0.0085141361
-0.032939274 0.1094434 0.0089742839
-0.032518443 0.11164666 0.0087497234
-0.031173423 0.11071939 0.0081908405
-0.029547565 0.10869283 0.0081925988
-0.028676646 0.10939609 0.0081788898
-0.02777051 0.11001395 0.008071363
-0.02643526 0.10891327 0.007984966
-0.026114346 0.11207407 0.007558167
-0.024395062 0.10924745 0.0076595247
-0.023570979 0.11035504 0.0078382194
-0.02265225 0.11110389 0.0076096058
-0.021453477 0.1104854 0.007304877
-0.020585986 0.11159771 0.0069887936
-0.019507807 0.11162801 0.0070345402
-0.018363742 0.11126267 0.0064750016
-0.017187005 0.11064135 0.0062865019
-0.016196601 0.11121666 0.0059028268
-0.01486942 0.10939644 0.0053866208
-0.013977206 0.11074248 0.0056585073
-0.013072972 0.11220968 0.0052839816
-0.011738924 0.10991902 0.0048400462
-0.010825889 0.11150666 0.0043160915
-0.11055845 0.10847244 0.017183036
-0.10889432 0.10785723 0.019824386
-0.10874658 0.10874658 0.020889103
-0.10628787 0.10731979 0.021508366
-0.10581805 0.10789291 0.022322804
-0.10558048 0.10871653 0.022969186
-0.10300437 0.10712454 0.023082495
-0.10254753 0.10772669 0.023061067
-0.10170214 0.10792881 0.023082495
-0.10086371 0.10814253 0.023199081
-0.099380709 0.10766244 0.02345261
-0.099277385 0.1086826 0.023085535
-0.097283326 0.10763261 0.022566497
-0.097342633 0.10885628 0.022088587
-0.095709659 0.10819352 0.02203238
-0.093301646 0.10663045 0.021844804
-0.094409242 0.10909512 0.021654397
-0.092760034 0.10839375 0.021457016
-0.091834351 0.1085315 0.020834446
-0.090945832 0.10871685 0.020438075
-0.088826127 0.10741764 0.020116836
-0.088759124 0.10859939 0.020107359
-0.088830143 0.10998017 0.019773722
-0.086771786 0.10872609 0.019560635
-0.085562065 0.10851774 0.019720763
-0.085364275 0.10960352 0.019667149
-0.082388058 0.10710447 0.019666433
-0.083230972 0.10956989 0.019940257
-0.081589676 0.10878623 0.019699365
-0.080900602 0.10926834 0.019642055
-0.080338866 0.10993739 0.019554973
-0.079441987 0.11015955 0.019346744
-0.076967239 0.10817017 0.019128352
-0.076489106 0.10897077 0.018545628
-0.075200289 0.10862265 0.018410474
-0.074528731 0.10916885 0.018092692
-0.073716231 0.10952125 0.017017841
-0.072410755 0.10914084 0.016902268
-0.07140898 0.10921373 0.016673058
-0.070865996 0.11000095 0.016662598
-0.069361709 0.10929724 0.016558021
-0.068737999 0.10998079 0.016512364
-0.067526281 0.10973021 0.016378611
-0.065819062 0.10865369 0.016408056
-0.065897472 0.11053769 0.016210377
-0.065056875 0.11091664 0.01616177
-0.062954336 0.10912085 0.016200662
-0.062594913 0.11033679 0.015949279
-0.06129704 0.10991193 0.015738189
-0.05999684 0.10946792 0.015525788
-0.060230765 0.11185714 0.015122622
-0.058041584 0.10975136 0.014660239
-0.056792445 0.10937804 0.014660239
-0.056502461 0.11087275 0.014277756
-0.055282645 0.11056529 0.013823926
-0.054495487 0.11112805 0.013584882
-0.053463019 0.11120307 0.013469845
-0.05228525 0.11097278 0.013289362
-0.051513925 0.1116135 0.012865752
-0.050286457 0.11127216 0.012098759
-0.047926649 0.10835589 0.012202471
-0.048462633 0.11200252 0.012094826
-0.046594877 0.11013335 0.011660516
-0.04528236 0.10952013 0.011353016
-0.044792529 0.11091483 0.010859638
-0.043702852 0.11085601 0.010472596
-0.042271011 0.10990463 0.01053068
-0.041535307 0.11076082 0.0099874139
-0.040063985 0.10964879 0.0095658898
-0.039664082 0.11148823 0.0095398128
-0.038604494 0.1115241 0.0095398128
-0.037222944 0.11060531 0.0091531575
-0.035996709 0.11010758 0.0090361834
-0.035808656 0.11285152 0.0087022483
-0.033596665 0.10918916 0.0083197057
-0.033391915 0.11202449 0.0088763535
-0.03203091 0.11104049 0.008659482
-0.03040004 0.10902083 0.0076485872
-0.030594734 0.11363759 0.0078954101
-0.028592557 0.11013429 0.0079868138
-0.027563859 0.11025544 0.0078385472
-0.026986266 0.11226286 0.0076362491
-0.025561271 0.11076552 0.0072707832
-0.024465701 0.11062751 0.0073769689
-0.023910666 0.11303224 0.0073992908
-0.022558106 0.11171633 0.0074149072
-0.021375667 0.11115347 0.0073210597
-0.02051417 0.11228809 0.0069887936
-0.019203104 0.11095127 0.0070596039
-0.018205279 0.11137348 0.0065000653
-0.017223781 0.11195457 0.0064203441
-0.015804639 0.10957883 0.0062969029
-0.015185749 0.11280842 0.0056701601
-0.01400785 0.1120628 0.0058995187
-0.012653785 0.10966614 0.0052786767
-0.011880416 0.11232394 0.0048400462
-0.010881278 0.11316529 0.0043160915
-0.11136103 0.11031046 0.016543716
-0.10931197 0.10931197 0.019816339
-0.10747059 0.10850395 0.020867676
-0.10748815 0.10957529 0.02139625
-0.10624769 0.10937262 0.022169739
-0.10309497 0.10717794 0.022891968
-0.10237738 0.10749624 0.023024797
-0.1026586 0.10888033 0.022871733
-0.10126648 0.1084998 0.023117095
-0.10106148 0.10939645 0.023130774
-0.099962845 0.10933436 0.023115486
-0.098138541 0.10846891 0.023316145
-0.098783717 0.11034351 0.022538453
-0.096370928 0.10880588 0.021938831
-0.094917722 0.10833 0.021905959
-0.094405644 0.10892959 0.021768361
-0.093913294 0.1095655 0.021572173
-0.091617972 0.10808862 0.021296948
-0.092212141 0.11002585 0.020503998
-0.089687526 0.10824356 0.020344496
-0.09005031 0.10994514 0.020107359
-0.088633418 0.10948833 0.020012379
-0.087054484 0.10881811 0.019742429
-0.087003961 0.11006525 0.019379437
-0.086199604 0.11037754 0.019405395
-0.083640374 0.1084227 0.019626826
-0.084387004 0.11075795 0.019643188
-0.082737975 0.1099682 0.01979509
-0.081234127 0.10935363 0.019671559
-0.081120685 0.11061911 0.019762844
-0.079590425 0.10996045 0.019579738
-0.078463577 0.10984901 0.019484431
-0.07790976 0.11054762 0.019127935
-0.076982222 0.11072785 0.018519819
-0.075034358 0.10942511 0.018410474
-0.075540997 0.11171556 0.018050641
-0.073379345 0.11006902 0.017501235
-0.072371706 0.11013085 0.017204732
-0.072015479 0.11120037 0.016943932
-0.069731608 0.10928088 0.016711503
-0.06954331 0.11063709 0.016571879
-0.068981022 0.11143088 0.016444981
-0.067083128 0.11005826 0.016463786
-0.066385821 0.11064304 0.016386837
-0.064939566 0.1099783 0.016106427
-0.064238511 0.11057449 0.016156852
-0.063483961 0.11109693 0.016075492
-0.06289845 0.11193792 0.015758991
-0.060498096 0.10952241 0.015632629
-0.060173985 0.11084681 0.015364707
-0.058741465 0.11014025 0.015170336
-0.058009941 0.11074624 0.014846861
-0.058245722 0.11325557 0.014575094
-0.055984814 0.11091331 0.014140517
-0.055106364 0.11127247 0.013805747
-0.054414913 0.1120307 0.013584882
-0.052710634 0.11069232 0.013408631
-0.05182039 0.1110437 0.013206244
-0.050945759 0.11144385 0.013107002
-0.049749337 0.11114214 0.012587875
-0.049402267 0.11276604 0.012197256
-0.047338415 0.1104563 0.012117833
-0.046842828 0.11178403 0.011881828
-0.046049546 0.11244657 0.011501908
-0.044809788 0.11202447 0.010916978
-0.043483902 0.11136121 0.010499448
-0.042560063 0.11172017 0.010444134
-0.041773487 0.11246708 0.0096816421
-0.040573094 0.11210986 0.0094825029
-0.039629165 0.11246113 0.0094575882
-0.038390711 0.11197291 0.0094825029
-0.037399869 0.11219961 0.0091560185
-0.036770258 0.11355521 0.0091563761
-0.03503415 0.1114723 0.008730799
-0.034759816 0.11405564 0.0085884035
-0.033223942 0.1125327 0.0086860657
-0.031647909 0.11076768 0.009039104
-0.031256806 0.11317119 0.0085950494
-0.030071957 0.11276983 0.008746773
-0.02874518 0.11178681 0.0083253086
-0.028322991 0.11438131 0.0079964697
-0.02672405 0.11224101 0.0081705451
-0.02573788 0.11260322 0.007358104
-0.024727089 0.11288453 0.0074864924
-0.023749683 0.11335076 0.0076573491
-0.022361288 0.11180643 0.0076111853
-0.021491051 0.11282802 0.0075384378
-0.020487107 0.11321822 0.0070617795
-0.019292146 0.11253752 0.0070109367
-0.018476672 0.11412062 0.0068264306
-0.01687004 0.11070964 0.0065795779
-0.016229961 0.11360972 0.0062153339
-0.015224341 0.11418255 0.0058432221
-0.013691999 0.11058922 0.0058646202
-0.012965817 0.1134509 0.0052938759
-0.011834897 0.11296947 0.0048400462
-0.010596338 0.11126155 0.0043266416
-0.11316679 0.11316679 0.011169523
-0.10876878 0.10980467 0.019684881
-0.10784822 0.10992222 0.02096504
-0.1080031 0.11114882 0.021607012
-0.10451067 0.10860913 0.022030532
-0.10447504 0.10964707 0.022582114
-0.10349797 0.10970785 0.023135066
-0.10194045 0.10914835 0.023130774
-0.1016458 0.10994343 0.023139924
-0.10106367 0.11044071 0.023312032
-0.098168112 0.10839396 0.023468882
-0.098926984 0.11038169 0.023288816
-0.098147713 0.11067721 0.0227184
-0.095201984 0.10850979 0.022223294
-0.097392194 0.11221274 0.022036105
-0.095429271 0.11115936 0.021905959
-0.093329303 0.10992117 0.021720469
-0.093774378 0.11168634 0.021581113
-0.091132946 0.10977377 0.020639062
-0.090281934 0.10999867 0.020520568
-0.090418957 0.11144662 0.020107359
-0.087957747 0.10968848 0.019926161
-0.087633736 0.11058542 0.019614726
-0.086981207 0.11108442 0.019417822
-0.085072279 0.10997147 0.0195961
-0.084644929 0.11076991 0.019571573
-0.08459612 0.11208986 0.019493848
-0.082414351 0.11058128 0.019830555
-0.082504988 0.11212216 0.019592166
-0.080702022 0.11109629 0.019671559
-0.078163944 0.10901813 0.019692302
-0.078986578 0.11163436 0.019569576
-0.078829266 0.11291759 0.019442052
-0.075097233 0.10904529 0.018828273
-0.076097421 0.11203231 0.018519819
-0.073825337 0.11021811 0.018104792
-0.073343523 0.11106305 0.017450333
-0.072761558 0.11177862 0.01707375
-0.071090311 0.11081725 0.016766816
-0.069989905 0.11073029 0.01688841
-0.069966346 0.11237019 0.016622335
-0.068390749 0.11152952 0.016519845
-0.067825608 0.11233617 0.016520411
-0.066602811 0.11206187 0.016452581
-0.065370247 0.11176203 0.016280383
-0.065049879 0.11303749 0.016386837
-0.063085161 0.11145045 0.016108662
-0.06180355 0.11103687 0.015983403
-0.061450098 0.11230534 0.015748799
-0.060606871 0.11270751 0.015525788
-0.058748435 0.1112024 0.015310913
-0.058701061 0.11313295 0.015122622
-0.056272604 0.11046103 0.014730841
-0.05589509 0.11179018 0.014446616
-0.055790614 0.11372702 0.014097929
-0.054214809 0.11268176 0.013923258
-0.053161375 0.11270211 0.013843983
-0.053185653 0.11505468 0.013392121
-0.050212193 0.11088526 0.013325602
-0.049804397 0.1123248 0.012758106
-0.04919704 0.11336709 0.012661904
-0.047011625 0.11073849 0.012470007
-0.047232058 0.11378632 0.011952519
-0.045736611 0.11274606 0.011652023
-0.044619907 0.11261214 0.011199117
-0.043488625 0.11243399 0.01078707
-0.042196151 0.1118198 0.010582924
-0.041322302 0.11231189 0.010178685
-0.040242732 0.11225604 0.0096466243
-0.039428994 0.11295873 0.0095241964
-0.038088195 0.11214858 0.0094891489
-0.037537321 0.11368446 0.0093555748
-0.036130592 0.11264243 0.0091560185
-0.035497423 0.11402202 0.0089499354
-0.03406154 0.11282884 0.008921653
-0.032731663 0.11192117 0.009002924
-0.032318082 0.11419055 0.0092379451
-0.031021092 0.11338744 0.0090683997
-0.029450856 0.11149252 0.0091593564
-0.028992744 0.11382335 0.0091878176
-0.028141951 0.11473256 0.0090114772
-0.02637817 0.11184344 0.0089314878
-0.025820928 0.11404243 0.0079735816
-0.024694299 0.11380851 0.0079363286
-0.023509776 0.11327438 0.0079738498
-0.022685017 0.11450532 0.0078190565
-0.021191718 0.11231611 0.0076328218
-0.020114284 0.11221653 0.007134676
-0.019585541 0.11533707 0.0070570409
-0.018243046 0.11375076 0.0070399642
-0.017512711 0.1160217 0.0068131089
-0.016365755 0.11565133 0.0062153339
-0.014814162 0.11216436 0.0056765079
-0.014189034 0.1156952 0.0059741437
-0.01312115 0.11590348 0.0054182112
-0.011728446 0.11301957 0.0048400462
-0.010796634 0.11444432 0.0042592883
-0.11562316 0.11671395 0.0095251203
-0.10850145 0.11056815 0.019684881
-0.10924085 0.11239204 0.020654947
-0.1061618 0.11028459 0.021451324
-0.10465363 0.10978372 0.021728456
-0.10564489 0.11192083 0.022322804
-0.1023493 0.10951375 0.022867501
-0.10323607 0.11157838 0.022867501
-0.1020073 0.11137533 0.023025393
-0.10036438 0.11071123 0.023278207
-0.099806912 0.11124312 0.023435175
-0.09850315 0.11094566 0.023356557
-0.09727978 0.11073337 0.022965908
-0.097850226 0.11258037 0.022437155
-0.095657527 0.11125387 0.022333503
-0.093880624 0.11038711 0.022312164
-0.09475036 0.11264765 0.021768361
-0.092857614 0.11163782 0.021611124
-0.091702424 0.11150181 0.021444559
-0.091757841 0.1128516 0.02085647
-0.087766089 0.10919735 0.020380944
-0.088940181 0.11195999 0.020273507
-0.087692961 0.11170413 0.019966811
-0.086195804 0.1111199 0.019678563
-0.086153828 0.11242024 0.019766122
-0.085675925 0.11317685 0.019746661
-0.08252354 0.11037524 0.019602537
-0.083407134 0.11296916 0.019830555
-0.081660815 0.11202189 0.019330919
-0.080658019 0.11208323 0.019670665
-0.07962285 0.11210059 0.019692302
-0.078217432 0.11159021 0.019557059
-0.075966947 0.1098441 0.019442052
-0.077719852 0.11391814 0.018689096
-0.075805001 0.11265466 0.018465012
-0.07428778 0.11195483 0.018069655
-0.073921256 0.11299393 0.017406255
-0.072120205 0.11183859 0.017302155
-0.071276546 0.11215574 0.016720533
-0.071163051 0.11364846 0.016702235
-0.069063954 0.11196733 0.016467214
-0.068371966 0.11255079 0.016446859
-0.067236781 0.1124115 0.016344935
-0.065766238 0.11169822 0.016340554
-0.065478608 0.1130034 0.016106427
-0.064203382 0.11261905 0.01607734
-0.062382203 0.11124826 0.016075492
-0.062261358 0.11291467 0.015829682
-0.061466787 0.11339562 0.015449017
-0.059272703 0.11126631 0.015310287
-0.059569038 0.11381941 0.014943451
-0.057868756 0.11258104 0.014630407
-0.057430487 0.11379745 0.014609009
-0.056659862 0.11438879 0.014226586
-0.054166999 0.11145902 0.014074951
-0.054444004 0.11422566 0.013781965
-0.053257465 0.11397098 0.013469845
-0.051625311 0.11273283 0.013272166
-0.050790876 0.11322134 0.013143241
-0.05002417 0.11388482 0.012871087
-0.048014224 0.11168526 0.012775868
-0.047915608 0.11393267 0.012706608
-0.046819024 0.11385536 0.012125343
-0.044919938 0.11177753 0.011755109
-0.045033049 0.11472705 0.011210978
-0.043637309 0.11388273 0.011060596
-0.042303856 0.11316282 0.011026531
-0.041722253 0.11446875 0.010700375
-0.040625844 0.11439383 0.0098813176
-0.039441589 0.11406081 0.0096516013
-0.038833685 0.11542235 0.0096466243
-0.037224505 0.11380063 0.0094825029
-0.036257993 0.11410604 0.0099942982
-0.035574328 0.11534707 0.0092653632
-0.033777393 0.11294316 0.0094764233
-0.033283215 0.11488078 0.0096247196
-0.032042537 0.11428505 0.0096063316
-0.030604862 0.11292139 0.0088556111
-0.030156689 0.11524163 0.0090683997
-0.029014479 0.11498331 0.0092711449
-0.027614012 0.11364228 0.0092839599
-0.027035069 0.11571009 0.009126097
-0.025632754 0.11427937 0.0079733133
-0.024595134 0.11442085 0.0075534582
-0.023654381 0.11504631 0.0079385042
-0.02250294 0.11465784 0.0080008507
-0.021184465 0.11333689 0.0078915656
-0.020732369 0.11675598 0.0072686076
-0.019227007 0.11429389 0.0072402656
-0.01822773 0.11472747 0.007103622
-0.017239092 0.11528643 0.0065894127
-0.016055381 0.1145284 0.0062153339
-0.01521047 0.11625146 0.0055503249
-0.014093737 0.11600231 0.0056444108
-0.012821195 0.11432233 0.0049383938
-0.011948513 0.11622645 0.00458619
-0.11360256 0.11574601 0.0075344741
-0.11046876 0.11362501 0.018338859
-0.10825016 0.11241363 0.020633459
-0.10665818 0.11183576 0.021530896
-0.10597363 0.11220738 0.021609902
-0.10477372 0.11203527 0.022218347
-0.10403407 0.1123568 0.022548854
-0.1036397 0.11306149 0.022527069
-0.10045904 0.11070997 0.022935867
-0.10204501 0.11361713 0.022701889
-0.10105786 0.1136901 0.022706747
-0.097283483 0.11059596 0.022791028
-0.09777765 0.11234029 0.022860676
-0.097503409 0.11322977 0.022451162
-0.094056606 0.11041427 0.022289336
-0.095420361 0.11324614 0.022224247
-0.094781704 0.11373805 0.021790624
-0.0918134 0.11141402 0.021611124
-0.091748804 0.11260081 0.021424532
-0.09003374 0.11176603 0.020733356
-0.089616865 0.11254211 0.020397455
-0.089587651 0.11382902 0.020309955
-0.087775901 0.11285473 0.019999802
-0.086321153 0.1123215 0.019740939
-0.085865133 0.11309066 0.019680738
-0.084079944 0.1121066 0.019812196
-0.084790327 0.11446695 0.019657344
-0.082511596 0.11280067 0.019742817
-0.081259444 0.11251308 0.019622177
-0.080796354 0.11332475 0.01977846
-0.080261081 0.11405522 0.019672722
-0.077079535 0.11099453 0.019647181
-0.078549586 0.11463994 0.019362777
-0.076250635 0.11280915 0.018592715
-0.075779781 0.11366969 0.018368185
-0.07502529 0.11412299 0.017889231
-0.0731408 0.11284581 0.017479956
-0.072056219 0.11278365 0.017450333
-0.072536625 0.11520523 0.017099053
-0.070017733 0.1128644 0.016902268
-0.069213614 0.11325864 0.016674966
-0.068806469 0.1143246 0.01649949
-0.06692756 0.11294025 0.016444981
-0.067342907 0.11544498 0.01650992
-0.065182202 0.11354319 0.0164738
-0.064203091 0.11367106 0.016363204
-0.063675754 0.11461636 0.016138315
-0.062529162 0.11446016 0.015847266
-0.061243046 0.11403878 0.015449017
-0.060602482 0.11482576 0.015192598
-0.059088089 0.11395561 0.01479128
-0.057579577 0.11306535 0.014549524
-0.057867944 0.11573589 0.014377534
-0.056046218 0.11420739 0.013819516
-0.054756243 0.11372451 0.013687491
-0.054809701 0.1160676 0.013253212
-0.052488197 0.11337451 0.013326198
-0.051533263 0.11358353 0.013206244
-0.050849304 0.11441094 0.013143241
-0.049292203 0.11326719 0.013132453
-0.049470153 0.11614732 0.012820572
-0.047999185 0.11519805 0.012776315
-0.046215642 0.1134384 0.012528807
-0.046047762 0.11565485 0.011755109
-0.044852618 0.1153353 0.011588752
-0.043093838 0.11351547 0.011096805
-0.043154188 0.11651631 0.011072516
-0.041570634 0.11511868 0.010859638
-0.040562738 0.11528358 0.010444134
-0.03916759 0.11432701 0.010213494
-0.037810907 0.11343274 0.010308027
-0.037326586 0.11517918 0.010138929
-0.036710195 0.11660886 0.010081172
-0.035273328 0.11543999 0.0098124444
-0.034610927 0.11681189 0.010150075
-0.03300225 0.11497558 0.0099256933
-0.031768925 0.11436813 0.0099138618
-0.031292528 0.11653769 0.0097724199
-0.030151043 0.11629688 0.009534359
-0.028496772 0.11398709 0.0096533597
-0.028032133 0.11644118 0.0095952451
-0.026802249 0.11578572 0.0095259547
-0.025721123 0.11574506 0.0090653598
-0.025015078 0.11746211 0.0085876882
-0.02330853 0.11442371 0.0081705451
-0.022181459 0.11407608 0.0080526173
-0.021705121 0.11720766 0.0079427063
-0.020394273 0.11592534 0.0075521767
-0.019526221 0.11715733 0.0071777105
-0.018416312 0.11699775 0.00699386
-0.016927132 0.11425814 0.0069887936
-0.016272124 0.1171593 0.0062617958
-0.015075754 0.11629868 0.0058406889
-0.013924289 0.11567871 0.0058325231
-0.01308573 0.11777158 0.0048269331
-0.011759138 0.11545336 0.0043016374
-0.11667691 0.11997909 0.0066812038
-0.10956486 0.11373877 0.018510133
-0.10667255 0.11180104 0.020955235
-0.10811786 0.114416 0.021556437
-0.10546186 0.11269943 0.021944225
-0.10527702 0.1136158 0.022351921
-0.10372035 0.11305518 0.023107737
-0.1026374 0.11300481 0.022954702
-0.10081416 0.11213005 0.02315411
-0.10105042 0.1135515 0.022969693
-0.099379674 0.11283734 0.023020536
-0.098652415 0.11319067 0.023486882
-0.097416915 0.11296217 0.022931367
-0.095939323 0.11244501 0.022661
-0.096013151 0.11375471 0.022508562
-0.095017761 0.11381248 0.022450209
-0.092535846 0.11207119 0.022096813
-0.093227208 0.11417715 0.021609187
-0.092544161 0.11462857 0.021416485
-0.091411896 0.11452755 0.020537168
-0.091529325 0.1160081 0.020309955
-0.088440955 0.11341252 0.020272106
-0.087572508 0.11363576 0.019922137
-0.087427422 0.11481433 0.019614726
-0.085448556 0.11358406 0.019680738
-0.084655501 0.11391913 0.019792736
-0.083865315 0.11426649 0.01953873
-0.08258459 0.11394583 0.019703031
-0.082562789 0.1153762 0.019473761
-0.080943003 0.11458165 0.019583017
-0.079367667 0.11382995 0.019605726
-0.079746038 0.11589757 0.019364864
-0.077635795 0.11435543 0.019295067
-0.075759828 0.11312083 0.018519819
-0.076037988 0.11511308 0.018344641
-0.074188799 0.11389548 0.017998278
-0.073246144 0.11405472 0.017520368
-0.07251247 0.11454869 0.017502576
-0.071587987 0.11475134 0.017264068
-0.069589429 0.11321265 0.01723811
-0.070344351 0.11617476 0.016591102
-0.06862428 0.11507764 0.016526759
-0.068162613 0.11608945 0.016444981
-0.066344976 0.11478733 0.016889423
-0.064932719 0.1141559 0.01657775
-0.063584693 0.11361855 0.016476035
-0.063706234 0.11573299 0.016200662
-0.062012803 0.11456602 0.016016692
-0.061384216 0.11535999 0.015439302
-0.060535029 0.11575998 0.015075147
-0.058470305 0.11380827 0.014921099
-0.058759518 0.11645068 0.014647692
-0.056578211 0.11420417 0.014586657
-0.056435119 0.11606468 0.013908654
-0.054952893 0.11518972 0.013678223
-0.053584442 0.11452361 0.013433635
-0.053054202 0.11565816 0.01324442
-0.052067995 0.11582473 0.013092458
-0.050340749 0.11431545 0.013068348
-0.050154384 0.11631549 0.012563795
-0.048522104 0.11497629 0.01257351
-0.047382314 0.11477049 0.012563795
-0.046706747 0.11570536 0.012423396
-0.045722082 0.11590017 0.011773407
-0.043836344 0.11376575 0.011349082
-0.043626174 0.11598177 0.011183679
-0.042700879 0.1163599 0.011081368
-0.04137101 0.11562667 0.010969669
-0.040831201 0.11712108 0.010519654
-0.039279643 0.1157157 0.010237396
-0.038420197 0.11632783 0.010334253
-0.037553497 0.11695232 0.010075659
-0.03619476 0.11603615 0.010150075
-0.035404082 0.11694076 0.0098614991
-0.034309529 0.11686683 0.010150075
-0.033054274 0.11622309 0.010162503
-0.032586876 0.11839899 0.0099416971
-0.030787816 0.11571972 0.009625107
-0.029514128 0.11489429 0.009483397
-0.029035211 0.11721622 0.0095458031
-0.028051142 0.11759903 0.0095753968
-0.026616557 0.11604818 0.0094385743
-0.025812065 0.1172298 0.0090114772
-0.024577809 0.11647744 0.0085876882
-0.023638939 0.1171202 0.0082032084
-0.022756036 0.11811467 0.0080623329
-0.021610355 0.11777644 0.0079835653
-0.020303259 0.11647659 0.007635057
-0.019374264 0.11732195 0.007204473
-0.018044962 0.11570004 0.0070570409
-0.017311506 0.11793463 0.0071983039
-0.016033458 0.11650979 0.0061503947
-0.01484564 0.11558391 0.0059562922
-0.014339758 0.12023336 0.0061468482
-0.012889766 0.11708205 0.0050576925
-0.011665032 0.11558987 0.0042431056
-0.11742838 0.12185965 0.0044091642
-0.10763216 0.1127575 0.018544644
-0.10853623 0.11479793 0.020955235
-0.10570803 0.11289208 0.021388769
-0.10606244 0.11438106 0.022165507
-0.10524838 0.11462695 0.02258113
-0.10306354 0.11336989 0.023441702
-0.10178865 0.11309849 0.02326864
-0.10232907 0.11485916 0.02315411
-0.10014537 0.11356692 0.023327172
-0.10065035 0.11532853 0.023519725
-0.099458419 0.11516238 0.023486882
-0.096867457 0.11335553 0.023035258
-0.097956628 0.11586268 0.022910506
-0.096277036 0.11511385 0.022623062
-0.09427546 0.11395935 0.022539079
-0.094304986 0.11526164 0.022245944
-0.093011878 0.11495851 0.021798521
-0.091227569 0.11403447 0.021595538
-0.091170944 0.11527361 0.020892471
-0.089399025 0.11434759 0.020446092
-0.089473784 0.1157896 0.020361602
-0.088462844 0.1158442 0.019996643
-0.087211236 0.11558115 0.019749135
-0.085150279 0.11422598 0.019697487
-0.085515022 0.11613152 0.01964736
-0.08188799 0.112596 0.01957202
-0.083063133 0.11565753 0.019272029
-0.08139883 0.11479323 0.019114166
-0.080087565 0.1144108 0.019642055
-0.080580197 0.11662923 0.019602925
-0.078707568 0.11543776 0.019442052
-0.076868355 0.11426377 0.019374341
-0.076473907 0.11523465 0.01870057
-0.075694889 0.11564498 0.018475503
-0.073715024 0.11420637 0.01832059
-0.074077375 0.11640731 0.017717123
-0.072471566 0.11553438 0.017502576
-0.070513897 0.1140666 0.017099053
-0.071179532 0.11686192 0.017076999
-0.068806149 0.11467692 0.016760081
-0.068253182 0.11550538 0.016570747
-0.067369044 0.11579055 0.016357183
-0.065292992 0.11400364 0.016747683
-0.065699846 0.11656424 0.016476035
-0.065141782 0.11746879 0.016251445
-0.062915899 0.11534581 0.015637815
-0.062633485 0.1167743 0.015475154
-0.061484355 0.11660826 0.015111119
-0.059375051 0.11458343 0.015111119
-0.058861185 0.11562019 0.014776736
-0.058097683 0.11619537 0.014566481
-0.057109494 0.11633416 0.013968915
-0.056470864 0.11720368 0.013959229
-0.054675777 0.11566029 0.013835073
-0.053431805 0.11524507 0.013578475
-0.053295262 0.11724958 0.013538361
-0.051949486 0.1166213 0.013332635
-0.050881017 0.11660233 0.013353497
-0.049760435 0.11646059 0.0130983
-0.048440523 0.11583604 0.012800962
-0.048743915 0.11915179 0.012872308
-0.046695363 0.11673841 0.012790173
-0.045308556 0.11590561 0.012269229
-0.044850387 0.1174653 0.011763871
-0.043713819 0.11728097 0.011260837
-0.042336866 0.11642639 0.011212468
-0.041609723 0.11736076 0.011040777
-0.040803201 0.11811453 0.010773599
-0.039267842 0.11674223 0.010669768
-0.038598355 0.11793943 0.010461122
-0.036984339 0.1162365 0.010304421
-0.03631134 0.11747787 0.010296881
-0.035292726 0.11764243 0.010186285
-0.033972688 0.11678112 0.010298043
-0.033122413 0.11753114 0.010449141
-0.031998023 0.11732609 0.010297775
-0.030821042 0.1169074 0.0099674761
-0.029932324 0.11759128 0.0098851025
-0.028482981 0.11604177 0.0099599957
-0.027304109 0.11551739 0.010263294
-0.027058898 0.11905915 0.0098137259
-0.025615381 0.11740383 0.0093567967
-0.024370492 0.11655453 0.0089117885
-0.02365106 0.1182553 0.0083043277
-0.022354407 0.11709451 0.0081372559
-0.021413412 0.11777376 0.0080575347
-0.020888483 0.12093332 0.0076764822
-0.019210767 0.11739914 0.007522732
-0.018267179 0.11819939 0.0073733032
-0.017141646 0.11784881 0.007425189
-0.015967742 0.11709677 0.0066133142
-0.015231888 0.11967912 0.0063183904
-0.014090001 0.11922309 0.0057934225
-0.012655898 0.11601241 0.005237788
-0.011925909 0.11925909 0.0048935711
-0.01077363 0.11850993 0.0040774941
-0.11537234 0.12081444 0.0040117204
-0.11080296 0.11713456 0.016788572
-0.10596344 0.1130956 0.020372927
-0.10565591 0.11386219 0.021198988
-0.10615542 0.11552207 0.022188216
-0.10325878 0.11348242 0.02258113
-0.1040121 0.11545344 0.023217976
-0.10336205 0.11589078 0.023278147
-0.10168968 0.11517914 0.02327311
-0.10111116 0.11570452 0.023242503
-0.099907637 0.1155182 0.023168951
-0.097879738 0.11436474 0.023201078
-0.098219655 0.11598278 0.022833824
-0.096521124 0.11520263 0.022661
-0.093690276 0.11303935 0.022454411
-0.096019603 0.11712281 0.022314131
-0.094433255 0.11646768 0.022101492
-0.092448652 0.11530113 0.021823764
-0.092557475 0.11674864 0.02126193
-0.090699673 0.11572028 0.021036059
-0.089106545 0.11500961 0.020517081
-0.089790538 0.11725588 0.020217687
-0.08667171 0.11453047 0.019818604
-0.085579365 0.11444952 0.019678563
-0.086213194 0.11670322 0.019718736
-0.084626056 0.11596904 0.019699574
-0.0833143 0.1155986 0.019897014
-0.083572574 0.11742476 0.019959271
-0.080267414 0.11422671 0.019557327
-0.08060728 0.1162001 0.019810557
-0.079348624 0.11589076 0.019810557
-0.077708997 0.11500931 0.019550472
-0.078507051 0.11776057 0.019478142
-0.076814972 0.11680084 0.018806398
-0.07506004 0.11571757 0.018502057
-0.074791633 0.11692777 0.018225521
-0.073653996 0.1167942 0.017717123
-0.071938425 0.11572703 0.017462164
-0.071747318 0.11711694 0.017099053
-0.070509337 0.11681397 0.017017841
-0.069452457 0.11680641 0.016454905
-0.069368802 0.11846057 0.016481072
-0.066446044 0.11524236 0.016357183
-0.067202665 0.11840469 0.016958207
-0.065932438 0.11804032 0.016150594
-0.063196681 0.11499724 0.015927792
-0.062900789 0.11636646 0.015782714
-0.062274925 0.1171613 0.015602052
-0.06061542 0.11600537 0.015292853
-0.060701337 0.11820786 0.015306115
-0.058996927 0.11694034 0.015026957
-0.058208425 0.11747518 0.014866412
-0.057394389 0.11797736 0.014333367
-0.055474561 0.11618257 0.013964117
-0.055011101 0.11742754 0.014007002
-0.053859036 0.11722261 0.013771802
-0.052867811 0.11736654 0.013619363
-0.05157638 0.11683629 0.013385564
-0.05039775 0.1165448 0.013383359
-0.049229518 0.11626546 0.01320377
-0.048930973 0.11807256 0.012930691
-0.047630031 0.11748741 0.012739211
-0.046089873 0.11627218 0.012835503
-0.045812562 0.11826033 0.012613893
-0.044654958 0.11801668 0.011935383
-0.043338437 0.11733089 0.011455745
-0.042658526 0.11837742 0.011671573
-0.041546762 0.11824848 0.011285096
-0.040663853 0.11878126 0.011158496
-0.039394427 0.11818328 0.011040777
-0.03859907 0.11901381 0.010883898
-0.037227176 0.11806333 0.01046598
-0.036270283 0.11841181 0.010558605
-0.034858536 0.11725144 0.010439903
-0.034014761 0.1179887 0.010532141
-0.033221163 0.1189532 0.010600835
-0.031610169 0.11695763 0.010566711
-0.030964548 0.11851947 0.010360122
-0.029747428 0.11792731 0.01001665
-0.028657921 0.1178159 0.01005128
-0.028120648 0.12005354 0.010317326
-0.026719034 0.11863251 0.010050654
-0.025669394 0.11872095 0.0097979605
-0.024762396 0.11950547 0.0093904734
-0.023354536 0.11783426 0.0086262822
-0.022321617 0.1179857 0.0085683167
-0.021484219 0.11923742 0.0082123578
-0.020267339 0.11840393 0.0080965161
-0.019212203 0.11847526 0.0076110959
-0.018554881 0.12115246 0.0071743429
-0.017297875 0.12000401 0.0073783696
-0.016247282 0.12022988 0.0066280961
-0.01516458 0.12023346 0.0064243972
-0.013780175 0.11766149 0.0062491298
-0.013055848 0.1207666 0.0052348375
