ply
format ascii 1.0
comment PCL generated
element vertex 1259
property float x
property float y
property float z
element camera 0
property float view_px
property float view_py
property float view_pz
property float x_axisx
property float x_axisy
property float x_axisz
property float y_axisx
property float y_axisy
property float y_axisz
property float z_axisx
property float z_axisy
property float z_axisz
property float focal
property float scalex
property float scaley
property float centerx
property float centery
property int viewportx
property int viewporty
property float k1
property float k2
end_header
-0.080528304 -0.056906667 0.018607497
-0.078046657 -0.055898275 0.018229246
-0.07668259 -0.055673655 0.018218696
-0.076491684 -0.056306381 0.017725587
-0.074759774 -0.055806592 0.017455339
-0.074250594 -0.056218304 0.017092586
-0.072994098 -0.056067929 0.017198831
-0.071977802 -0.056100346 0.0171341
-0.071071759 -0.056220945 0.016955078
-0.07163734 -0.057526954 0.016630918
-0.068372399 -0.0557498 0.016508371
-0.068129808 -0.056419995 0.016741097
-0.06714724 -0.056488946 0.016955614
-0.066009887 -0.056427803 0.016955614
-0.065727524 -0.057107519 0.016696483
-0.063805372 -0.056361411 0.016459346
-0.061836313 -0.055547871 0.016123652
-0.061954822 -0.056613885 0.0159612
-0.060170803 -0.055948291 0.015960246
-0.059678469 -0.056481406 0.016232997
-0.058806989 -0.05666855 0.015763342
-0.057284396 -0.056223571 0.015565455
-0.056044791 -0.056044791 0.015443921
-0.056058493 -0.057136539 0.015229046
-0.053575363 -0.055676356 0.014825493
-0.053137798 -0.056326065 0.014906645
-0.052937452 -0.057258878 0.015001208
-0.05108289 -0.056404024 0.014958292
-0.050794981 -0.057279445 0.0147053
-0.049537633 -0.057075962 0.014673829
-0.047895581 -0.05641035 0.014283061
-0.047459938 -0.057167649 0.013982207
-0.046928566 -0.057842184 0.013698876
-0.045207653 -0.057047747 0.013556033
-0.044576369 -0.057623107 0.012446344
-0.042756364 -0.056652185 0.011969149
-0.041368961 -0.056219358 0.011906266
-0.041319318 -0.057629574 0.011447966
-0.039448272 -0.05650698 0.011690348
-0.039071228 -0.057521533 0.011887401
-0.038046829 -0.057613771 0.012552202
-0.036959365 -0.057613127 0.013525009
-0.035499923 -0.057015032 0.014157623
-0.033864088 -0.056087393 0.015138865
-0.032582335 -0.055705279 0.016327888
-0.031844601 -0.05625879 0.017031789
-0.030356791 -0.055479649 0.017387211
-0.02952617 -0.05588882 0.017637938
-0.02864744 -0.056233857 0.017646283
-0.028671503 -0.058445755 0.017490804
-0.026494628 -0.056168605 0.016470999
-0.025415484 -0.056125861 0.016382813
-0.024562662 -0.056600917 0.015970707
-0.023389071 -0.056346398 0.015687674
-0.02254945 -0.056910515 0.016022444
-0.021484401 -0.056933664 0.016036689
-0.020149907 -0.056207631 0.016027898
-0.019938299 -0.058707215 0.016188979
-0.018515388 -0.057724442 0.016247869
-0.016898423 -0.055976026 0.016188979
-0.015949789 -0.056355923 0.015762597
-0.014590936 -0.055237111 0.015595943
-0.01381296 -0.056314375 0.01455465
-0.012715875 -0.05616178 0.013696223
-0.011669671 -0.056226596 0.012125582
-0.010976882 -0.058177471 0.0097177625
-0.0098503996 -0.058007911 0.0079119205
-0.0086161578 -0.057082046 0.0057946742
-0.11527633 -0.055503417 0.012340635
-0.11202811 -0.054443564 0.016485304
-0.11107384 -0.054489054 0.018573314
-0.10843997 -0.053703602 0.020397693
-0.11105853 -0.055529263 0.021332562
-0.10706323 -0.054051343 0.021472454
-0.10654696 -0.054318056 0.021987438
-0.10561169 -0.054374333 0.022003442
-0.10418082 -0.054174025 0.021625668
-0.10275665 -0.053973187 0.022148371
-0.10291696 -0.054608997 0.021915287
-0.10125726 -0.054282241 0.02147305
-0.10137078 -0.054909173 0.02133134
-0.10023642 -0.054866247 0.021249205
-0.097741321 -0.054069664 0.020844877
-0.099521503 -0.055646427 0.020814687
-0.096606284 -0.054603547 0.020396024
-0.095194034 -0.054396588 0.020431966
-0.09424562 -0.054453023 0.020153314
-0.094702989 -0.055332083 0.020299911
-0.092704937 -0.054780193 0.019919157
-0.091564864 -0.054728426 0.019819617
-0.089709073 -0.054242697 0.019329458
-0.090098619 -0.055119153 0.019333094
-0.089102834 -0.055158895 0.018957347
-0.087662674 -0.054921191 0.019278616
-0.087328896 -0.055379298 0.019037306
-0.086631961 -0.055615582 0.019174427
-0.083088346 -0.054007426 0.019311666
-0.08374314 -0.055122066 0.019354105
-0.082934558 -0.055289704 0.019563794
-0.080308236 -0.054234132 0.019334614
-0.080529615 -0.055099208 0.019371003
-0.079117753 -0.05485497 0.01861164
-0.076790303 -0.053960748 0.018412977
-0.077931412 -0.055512782 0.018293142
-0.076232731 -0.055056974 0.017862767
-0.074964978 -0.054903928 0.017607808
-0.074557424 -0.055385515 0.017114311
-0.072548151 -0.05467397 0.017199397
-0.072012544 -0.055068415 0.0171341
-0.071197987 -0.05525814 0.01672855
-0.069308601 -0.054606777 0.016573489
-0.069247559 -0.055398047 0.016398191
-0.068307951 -0.055500209 0.016630918
-0.066840939 -0.055170298 0.016815126
-0.066212252 -0.055532854 0.016508371
-0.065664373 -0.055976186 0.016642183
-0.063301586 -0.054861374 0.016190767
-0.063264303 -0.055758364 0.0160864
-0.061679337 -0.055298716 0.015950888
-0.060848486 -0.055510897 0.015977442
-0.060002569 -0.055716671 0.015990376
-0.058038063 -0.054872349 0.015822351
-0.057228118 -0.055108558 0.015523553
-0.056351714 -0.055288475 0.015464664
-0.055327851 -0.055327851 0.015318632
-0.054207329 -0.055270217 0.014863551
-0.054627873 -0.056812983 0.014944613
-0.052677803 -0.055902973 0.015046507
-0.052067518 -0.056406479 0.01490584
-0.050633315 -0.056019835 0.014648795
-0.048986878 -0.055376466 0.014706969
-0.048297547 -0.055810496 0.014401823
-0.047017507 -0.055566143 0.014144242
-0.045847315 -0.055443268 0.013720006
-0.044805299 -0.055473227 0.013338298
-0.044901367 -0.056948073 0.012134761
-0.043212883 -0.056176752 0.011596739
-0.042206071 -0.056274761 0.0114218
-0.041542992 -0.056848306 0.011303902
-0.039449755 -0.055442896 0.01134938
-0.038877755 -0.056156758 0.011591703
-0.037751183 -0.056087472 0.012211949
-0.036457002 -0.055757768 0.013396829
-0.035835467 -0.05646801 0.01378122
-0.034038901 -0.055313211 0.014141649
-0.032949761 -0.055270564 0.015322715
-0.031825874 -0.055164848 0.016444296
-0.030688357 -0.055027395 0.016926289
-0.029457955 -0.054707631 0.017059147
-0.028467678 -0.054826636 0.01748246
-0.027274998 -0.054549996 0.017395556
-0.027507989 -0.057216614 0.016680598
-0.026940383 -0.058370832 0.016464651
-0.025486959 -0.05762269 0.016227543
-0.024471188 -0.057840988 0.01592803
-0.022711411 -0.056237776 0.015999079
-0.022439478 -0.058342647 0.016247869
-0.021655153 -0.059266731 0.015956253
-0.018926986 -0.05467796 0.01625666
-0.017925676 -0.054831479 0.016212821
-0.01698797 -0.055210903 0.016062886
-0.015683018 -0.054367792 0.015964806
-0.01491205 -0.055387616 0.015358925
-0.0137797 -0.055118799 0.014010042
-0.012558961 -0.054422166 0.011955589
-0.011916782 -0.056333877 0.011085957
-0.011072907 -0.057579115 0.0085714757
-0.0096272444 -0.055624079 0.0068800151
-0.0088094901 -0.057261687 0.00540784
-0.11677433 -0.055143431 0.01300478
-0.11324355 -0.053975895 0.016321927
-0.10875043 -0.052323319 0.018537909
-0.11015615 -0.053504415 0.02046594
-0.10816772 -0.053043786 0.020941883
-0.10606286 -0.052516565 0.021372378
-0.10776893 -0.053884465 0.021925658
-0.10572612 -0.053386457 0.022039115
-0.10360134 -0.052836683 0.021816939
-0.10568341 -0.054442964 0.021888047
-0.10279221 -0.053493906 0.021422893
-0.10014098 -0.052651446 0.021309257
-0.10149154 -0.053917382 0.021219492
-0.098308921 -0.05277637 0.02114287
-0.099786222 -0.054139335 0.020786196
-0.098614119 -0.054078709 0.020756006
-0.096977159 -0.053759076 0.020308912
-0.09582407 -0.053703599 0.020141512
-0.094948798 -0.053804319 0.01997751
-0.093580358 -0.053624701 0.020360529
-0.092628963 -0.053682696 0.020233482
-0.092106968 -0.053993739 0.019998252
-0.091201417 -0.054084562 0.019422501
-0.090905704 -0.054543424 0.01958847
-0.087622739 -0.053199518 0.019239515
-0.088333458 -0.054277185 0.019517154
-0.08591678 -0.053436045 0.019201726
-0.085721664 -0.053972904 0.019807637
-0.08435721 -0.053777725 0.019709796
-0.084401734 -0.054487195 0.01991871
-0.080305718 -0.052507587 0.019713312
-0.081814997 -0.054189153 0.019458503
-0.079985045 -0.053674176 0.019661278
-0.077995762 -0.053037118 0.018875152
-0.078667246 -0.054216612 0.018593103
-0.077338345 -0.054030895 0.018572748
-0.075724512 -0.053638201 0.018254489
-0.075364426 -0.054135013 0.018072158
-0.074718013 -0.05443741 0.017607242
-0.072459407 -0.053556953 0.017248333
-0.073178448 -0.054883838 0.017384559
-0.071579725 -0.054486059 0.0171341
-0.07008639 -0.054157663 0.017200917
-0.070421733 -0.055253979 0.016977042
-0.068420805 -0.054522831 0.017248929
-0.067735069 -0.054833151 0.017217666
-0.065954745 -0.054253094 0.016785979
-0.064269222 -0.053733286 0.01688081
-0.063744776 -0.054183058 0.016366184
-0.062500015 -0.054025438 0.016459346
-0.060802586 -0.053464342 0.016365737
-0.06023242 -0.053892165 0.016228497
-0.059893724 -0.054546069 0.016150922
-0.058656015 -0.054390125 0.01599279
-0.05826892 -0.055031758 0.015839905
-0.056658488 -0.054520436 0.015634567
-0.054814778 -0.053760648 0.015600055
-0.05511786 -0.05511786 0.015673608
-0.053753514 -0.054828584 0.01548785
-0.052202903 -0.054333635 0.01521647
-0.051933859 -0.055179726 0.014706045
-0.050022271 -0.054279484 0.014690101
-0.049532961 -0.054916978 0.014706969
-0.048639968 -0.055125296 0.01421687
-0.046677701 -0.054103699 0.014024824
-0.045890119 -0.054427814 0.013439119
-0.044938091 -0.054567683 0.012960434
-0.043627564 -0.054268431 0.012134761
-0.044001691 -0.056102157 0.011303902
-0.041946948 -0.0548537 0.011256188
-0.040782578 -0.054734513 0.011256188
-0.040068328 -0.055229317 0.011325032
-0.038894311 -0.055100277 0.011395574
-0.037786249 -0.055059966 0.011431128
-0.037275873 -0.05591381 0.011834085
-0.035399128 -0.054707743 0.012476653
-0.035207301 -0.056111638 0.013699472
-0.032644179 -0.05370494 0.01372382
-0.031492077 -0.053536531 0.015192598
-0.030556312 -0.053736962 0.016446382
-0.029446965 -0.053635545 0.016200095
-0.028351186 -0.05355224 0.017059147
-0.027387178 -0.053721003 0.016926289
-0.026244367 -0.053538509 0.016275823
-0.025143307 -0.053429529 0.016188979
-0.024594985 -0.054536704 0.015903533
-0.023313632 -0.054045238 0.015872955
-0.02217821 -0.053861365 0.015914887
-0.021402653 -0.054576766 0.016163677
-0.019930871 -0.053498656 0.016029924
-0.019086327 -0.054077931 0.016188979
-0.018207699 -0.054623097 0.016038716
-0.016792204 -0.05352515 0.01575315
-0.015826697 -0.053810768 0.015161246
-0.01486853 -0.054163929 0.014268458
-0.013865794 -0.054396577 0.012422234
-0.012787118 -0.05434525 0.011265337
-0.012063549 -0.055931002 0.0088645518
-0.01080975 -0.055129725 0.0075379014
-0.0098245852 -0.055672653 0.0063847601
-0.0087518049 -0.055792756 0.0047986805
-0.1153817 -0.053417452 0.013124973
-0.11126155 -0.051991381 0.016611308
-0.11073586 -0.052233901 0.019153804
-0.11148541 -0.053088292 0.020879537
-0.10826626 -0.05205109 0.021449029
-0.11024191 -0.053515494 0.022043139
-0.10621493 -0.05206614 0.022472024
-0.1056207 -0.052287474 0.022471726
-0.10655028 -0.053275142 0.022712797
-0.10261968 -0.05182812 0.022544235
-0.10304131 -0.052572101 0.022217155
-0.10161974 -0.052381311 0.021718889
-0.10013703 -0.052154705 0.021273047
-0.1003072 -0.052793264 0.021225423
-0.098995879 -0.052657384 0.021042794
-0.095589221 -0.051392056 0.020862728
-0.097000375 -0.052717593 0.020578861
-0.095986664 -0.052739926 0.020527929
-0.094285995 -0.052381109 0.020354271
-0.094007716 -0.052813325 0.020414889
-0.091959372 -0.052249648 0.020414889
-0.091995381 -0.052870911 0.020588487
-0.092241205 -0.053628612 0.020111322
-0.089951456 -0.052912623 0.020110846
-0.087658785 -0.05217785 0.01958847
-0.086795643 -0.052286532 0.019580066
-0.086190373 -0.052555107 0.019606709
-0.085915439 -0.053034224 0.019873887
-0.086542673 -0.054089174 0.020073235
-0.082728975 -0.05236011 0.020059824
-0.082285069 -0.052746844 0.019978464
-0.081519186 -0.052934539 0.019823402
-0.079936743 -0.052589964 0.019690424
-0.080794111 -0.053862739 0.019212395
-0.078149229 -0.052803535 0.019142121
-0.077031307 -0.052761167 0.018820018
-0.076973826 -0.053454049 0.018524587
-0.075518288 -0.053181898 0.018035233
-0.074319087 -0.053085066 0.017867953
-0.073711663 -0.053414252 0.017606974
-0.071910426 -0.052875314 0.017552167
-0.069821835 -0.052105848 0.017258346
-0.071400195 -0.054091059 0.017193526
-0.067616485 -0.052012686 0.01725474
-0.068609819 -0.053601421 0.017441988
-0.066866823 -0.053068906 0.017291695
-0.06522581 -0.05260146 0.016906172
-0.065255798 -0.053488359 0.016954839
-0.06434226 -0.053618554 0.016501695
-0.062130492 -0.052652959 0.016481161
-0.061745044 -0.053228486 0.016323835
-0.060510293 -0.053079206 0.016365737
-0.059750888 -0.053349007 0.016191155
-0.059158597 -0.053780545 0.01600945
-0.057613131 -0.05334549 0.015707344
-0.057003275 -0.053776678 0.015672833
-0.055411927 -0.0532807 0.015571922
-0.0543602 -0.053294316 0.015659571
-0.052968368 -0.052968368 0.01548785
-0.052654456 -0.053729042 0.015117168
-0.050784696 -0.052900728 0.01490584
-0.050503656 -0.053727295 0.014861763
-0.049042109 -0.053306639 0.014673829
-0.047542773 -0.052825302 0.014426112
-0.047398645 -0.053862099 0.01385206
-0.046020634 -0.053512365 0.013350368
-0.044658713 -0.053165138 0.012826115
-0.044778712 -0.054608185 0.012095422
-0.042449791 -0.053062245 0.011318415
-0.041877653 -0.053689305 0.011143327
-0.04147727 -0.054575354 0.010968715
-0.03989118 -0.053907 0.011033475
-0.038359575 -0.053277191 0.011101276
-0.037987784 -0.054268263 0.01105094
-0.036887646 -0.054246537 0.011387527
-0.035545375 -0.05385663 0.011594623
-0.034693193 -0.054208115 0.012196898
-0.033069432 -0.05333779 0.013071984
-0.03220595 -0.053676587 0.013268322
-0.030749517 -0.053016409 0.014633477
-0.029626768 -0.052904945 0.015219659
-0.028540883 -0.052853487 0.016200095
-0.02742077 -0.052732252 0.015901506
-0.026071323 -0.052142646 0.016259551
-0.025340984 -0.052793715 0.016107798
-0.024059366 -0.052302971 0.015901506
-0.023374019 -0.053122774 0.015779108
-0.022119101 -0.05266453 0.016036689
-0.021304138 -0.053260345 0.015686095
-0.019899158 -0.052366205 0.015597403
-0.018823512 -0.052287534 0.015718758
-0.017871134 -0.052562159 0.015631914
-0.017121462 -0.053504571 0.014837116
-0.016008461 -0.053361539 0.014255971
-0.014675896 -0.052413914 0.01262632
-0.013928273 -0.053570282 0.011289299
-0.013262817 -0.055261739 0.0092976391
-0.011976813 -0.054440062 0.0088067055
-0.011058075 -0.055290382 0.0071507096
-0.0098820766 -0.05490043 0.0059527159
-0.008685803 -0.054286271 0.0047554672
-0.11458109 -0.051985864 0.01225701
-0.11359032 -0.052017994 0.016388923
-0.10934661 -0.050547022 0.019139469
-0.11055172 -0.051590804 0.02084446
-0.11033283 -0.05198374 0.021647185
-0.10532691 -0.050106972 0.022078812
-0.10630519 -0.051068176 0.022511721
-0.10780337 -0.052300647 0.022471786
-0.10454842 -0.051228721 0.022967845
-0.10502324 -0.051981196 0.022846252
-0.10325538 -0.051627692 0.022354096
-0.099936694 -0.050483484 0.021924734
-0.10156197 -0.05183892 0.021279186
-0.099692576 -0.051420379 0.02110672
-0.098780714 -0.051492073 0.021042794
-0.098891132 -0.052103929 0.020862728
-0.096909039 -0.051614594 0.020527929
-0.094816469 -0.051055018 0.020382762
-0.09569025 -0.052098021 0.020254821
-0.094229653 -0.051879246 0.020355493
-0.091190003 -0.050776251 0.020334154
-0.093401551 -0.052605469 0.02030769
-0.089061163 -0.05074415 0.019686043
-0.089655548 -0.051683787 0.019816786
-0.089953884 -0.052473098 0.019544691
-0.086092837 -0.05082589 0.019413859
-0.084892802 -0.050728619 0.019493103
-0.086469293 -0.052308585 0.019808352
-0.082687967 -0.05064638 0.020059824
-0.083851181 -0.05200896 0.020046413
-0.082202643 -0.051640119 0.019965053
-0.080165341 -0.051014304 0.019790918
-0.081085779 -0.052278984 0.019664109
-0.080045871 -0.052296635 0.019093037
-0.076630503 -0.050741818 0.019312561
-0.077006213 -0.051689096 0.018700659
-0.076593317 -0.052126009 0.018538564
-0.075028546 -0.051780265 0.018301696
-0.075096592 -0.052567612 0.017607808
-0.074095711 -0.052618694 0.017567188
-0.072199576 -0.052026164 0.017215818
-0.070886582 -0.051842421 0.016846865
-0.069604114 -0.051675782 0.016804546
-0.067931734 -0.051210079 0.017056108
-0.067803897 -0.051912352 0.017202586
-0.06594868 -0.051293414 0.01742807
-0.066246606 -0.052356184 0.016931742
-0.064348057 -0.051689424 0.016970187
-0.063021705 -0.051467724 0.016651958
-0.062134895 -0.051603556 0.016518295
-0.062135261 -0.052493576 0.01634565
-0.060603522 -0.052097764 0.016536087
-0.060503945 -0.05294095 0.016282648
-0.058576029 -0.052185915 0.016161978
-0.057348564 -0.052038509 0.015918553
-0.056902684 -0.05260814 0.015802443
-0.055812456 -0.052592508 0.015644699
-0.055298246 -0.053129684 0.015464544
-0.053945269 -0.052866358 0.015117168
-0.052408263 -0.052408263 0.014921784
-0.05198846 -0.053071551 0.014640361
-0.049939629 -0.052064721 0.014640361
-0.048688974 -0.051864337 0.014587522
-0.04901059 -0.053367082 0.01421687
-0.04696288 -0.05229957 0.013668865
-0.045123596 -0.05141991 0.013350368
-0.044962928 -0.052456744 0.013073087
-0.04375289 -0.052290037 0.012350142
-0.042886604 -0.052536089 0.011900276
-0.042416569 -0.05329261 0.011401474
-0.040706713 -0.052490231 0.01124379
-0.039637867 -0.05249339 0.011308551
-0.039011378 -0.053098824 0.0112409
-0.038197644 -0.053476702 0.011225879
-0.03681884 -0.053062443 0.011439681
-0.035747234 -0.053079225 0.011869252
-0.034431472 -0.052723192 0.011885941
-0.034037244 -0.053800799 0.012115508
-0.031868059 -0.05205116 0.012758374
-0.030891892 -0.052196641 0.013349473
-0.029914698 -0.052350719 0.01473251
-0.028484322 -0.051693767 0.015843093
-0.027463641 -0.051758397 0.016294211
-0.026618371 -0.052172005 0.015464634
-0.025228329 -0.051507838 0.016020536
-0.02423206 -0.05162482 0.016172707
-0.023378462 -0.052070212 0.015537024
-0.021870701 -0.05103163 0.015320331
-0.021050684 -0.051574178 0.015320331
-0.020232579 -0.052178752 0.01510942
-0.019063227 -0.051894341 0.015207589
-0.017949557 -0.051736958 0.014603198
-0.017026043 -0.052142255 0.013000667
-0.015874527 -0.05185679 0.012040049
-0.015035178 -0.052623119 0.01158905
-0.014134617 -0.053276628 0.010012865
-0.013006235 -0.053108793 0.008905828
-0.012094926 -0.053877398 0.0076896846
-0.010893846 -0.053379845 0.0065309703
-0.0098714726 -0.053744685 0.0057466626
-0.0087020034 -0.05329977 0.0040806532
-0.11439199 -0.050840881 0.012963623
-0.11250133 -0.050467886 0.016340435
-0.11001019 -0.049815934 0.018913686
-0.11064417 -0.050580192 0.020750552
-0.10891279 -0.050267439 0.021526992
-0.1062989 -0.049537353 0.022043139
-0.10682592 -0.050271019 0.022624761
-0.10569255 -0.050230119 0.022511721
-0.10398439 -0.049912501 0.022546798
-0.10488986 -0.050855685 0.022544235
-0.10129561 -0.04961418 0.022353768
-0.1000734 -0.049520858 0.021924734
-0.10169245 -0.050846223 0.021117508
-0.10008466 -0.050569095 0.020999163
-0.099906027 -0.051015843 0.020862728
-0.098167598 -0.050667148 0.020547599
-0.096371837 -0.050280958 0.020407885
-0.095601141 -0.050426971 0.020360529
-0.094159417 -0.050218355 0.020286471
-0.092951685 -0.050131246 0.020515561
-0.093443707 -0.050969295 0.020355493
-0.091034196 -0.050225765 0.020349205
-0.089147717 -0.049756862 0.019955784
-0.08975672 -0.050686143 0.019857317
-0.087570101 -0.050040055 0.019705832
-0.088115662 -0.050958455 0.019411743
-0.087334879 -0.051122852 0.019584954
-0.085402787 -0.050609063 0.019863486
-0.085557312 -0.051334385 0.020121902
-0.083335571 -0.050634272 0.020073235
-0.081016295 -0.049856178 0.02006042
-0.081204943 -0.05062126 0.019761443
-0.079757266 -0.05037301 0.019741207
-0.079060152 -0.050598495 0.018991739
-0.078560598 -0.05095822 0.018991739
-0.076337047 -0.050194219 0.018799633
-0.076911576 -0.051274389 0.018711627
-0.077027179 -0.052074715 0.018365532
-0.07420814 -0.050885584 0.018072158
-0.071910299 -0.050024554 0.017616093
-0.073633224 -0.05197639 0.017308593
-0.071835496 -0.05146423 0.01666379
-0.070184298 -0.051043127 0.016749263
-0.069882341 -0.051605418 0.017030507
-0.066698618 -0.050023962 0.017202586
-0.067633502 -0.051530287 0.017049909
-0.066087864 -0.051164795 0.016609013
-0.064184286 -0.050505664 0.016559869
-0.063877262 -0.051101808 0.01634565
-0.062520631 -0.050864238 0.016324699
-0.06115596 -0.050611828 0.016272098
-0.061304633 -0.051624954 0.016365737
-0.060041487 -0.051464129 0.016047835
-0.058975913 -0.051469885 0.01600945
-0.05884295 -0.052304842 0.015600055
-0.057307508 -0.051901139 0.015357047
-0.05436765 -0.050185524 0.014795959
-0.055470727 -0.052207742 0.014541388
-0.053573627 -0.05143068 0.014312357
-0.051958408 -0.050898034 0.014025211
-0.051464174 -0.051464174 0.013880223
-0.050039131 -0.051103793 0.014072418
-0.04922628 -0.051366549 0.013908893
-0.048713684 -0.051961262 0.013775021
-0.046751663 -0.051001813 0.01340574
-0.046488155 -0.051893752 0.013253093
-0.0446348 -0.051011197 0.013185382
-0.04414859 -0.051686153 0.013003469
-0.043590907 -0.052309088 0.012077153
-0.041843943 -0.051500238 0.011767387
-0.041465439 -0.052377395 0.011470109
-0.040097974 -0.052018993 0.011377394
-0.038599629 -0.051466171 0.011212885
-0.037624225 -0.05159894 0.011108071
-0.03664311 -0.051731449 0.011227667
-0.035580624 -0.051753636 0.011546612
-0.034198362 -0.051297542 0.011211663
-0.033727366 -0.052223019 0.011487007
-0.032630999 -0.052209597 0.011995107
-0.031095451 -0.051468328 0.012925178
-0.029928666 -0.051306281 0.013463289
-0.028649366 -0.050932202 0.014990568
-0.027696434 -0.051131882 0.014993042
-0.026437467 -0.050759934 0.014677167
-0.025565086 -0.051130172 0.01486367
-0.024251787 -0.050612424 0.015005767
-0.023249775 -0.050726783 0.014639646
-0.022200976 -0.050745085 0.014619708
-0.021330269 -0.051192649 0.014322013
-0.02010073 -0.050780788 0.014305502
-0.018987263 -0.050632704 0.012902707
-0.018154398 -0.051259473 0.012304515
-0.016910134 -0.0507304 0.01145798
-0.016158773 -0.051708069 0.010382503
-0.015046441 -0.051587798 0.0089041293
-0.014086131 -0.052010331 0.0088067055
-0.01322797 -0.052911881 0.0075905621
-0.011922792 -0.052026726 0.006981343
-0.01075487 -0.051623378 0.0060612857
-0.0098951198 -0.052773975 0.0054911673
-0.0086392313 -0.051835388 0.0040230155
-0.11512444 -0.050100449 0.013085872
-0.11167413 -0.049053121 0.016182214
-0.11034451 -0.048926339 0.018753111
-0.11050837 -0.049465653 0.020646423
-0.10847923 -0.049024269 0.021407872
-0.1086245 -0.049566519 0.021706283
-0.10650801 -0.04907722 0.022472024
-0.10390624 -0.048352409 0.022471726
-0.10495932 -0.049330883 0.022546798
-0.1020078 -0.048427943 0.022426844
-0.10150237 -0.048679713 0.022204101
-0.10159165 -0.04922482 0.02222845
-0.10036337 -0.049136233 0.021474063
-0.10084035 -0.049889434 0.021321118
-0.098331675 -0.049165837 0.020998806
-0.098271713 -0.049664199 0.02074644
-0.096067332 -0.049077876 0.020756394
-0.096616849 -0.049901009 0.02030769
-0.094222903 -0.049205292 0.020089358
-0.094077557 -0.049681406 0.020089358
-0.091605939 -0.048925899 0.020110846
-0.091044225 -0.04918481 0.020354003
-0.090013057 -0.049193181 0.020106643
-0.090557508 -0.050072975 0.019686043
-0.089058734 -0.049830481 0.019529969
-0.089267761 -0.050549213 0.019351691
-0.085247584 -0.048861418 0.019651473
-0.085547052 -0.049638417 0.019841015
-0.08461678 -0.049712364 0.019968688
-0.082955323 -0.049353167 0.019965053
-0.083752044 -0.050465979 0.019790918
-0.08043094 -0.049094211 0.019690424
-0.079721026 -0.049301162 0.01950717
-0.078886054 -0.049435262 0.018820018
-0.078080378 -0.04959159 0.018939555
-0.077498369 -0.049896207 0.018799633
-0.077323988 -0.050475381 0.018693119
-0.074512661 -0.049325284 0.018386811
-0.074776359 -0.050206985 0.018330336
-0.074212432 -0.050550498 0.018200457
-0.071640149 -0.049515985 0.017756373
-0.072680458 -0.0509848 0.017053366
-0.069746777 -0.049668163 0.016841471
-0.068744235 -0.049707368 0.017182648
-0.068421014 -0.050246682 0.017348528
-0.067226894 -0.050153397 0.017249078
-0.065045439 -0.049308639 0.016893506
-0.065451786 -0.050430067 0.016679615
-0.063679926 -0.049882609 0.016481161
-0.062870868 -0.050083574 0.016314
-0.061875764 -0.050140705 0.015950888
-0.060997538 -0.050296217 0.015950888
-0.058815908 -0.049363349 0.015716404
-0.059649587 -0.050973281 0.015527099
-0.056769311 -0.049410325 0.014626533
-0.056194317 -0.049832698 0.014478683
-0.055916775 -0.05054016 0.014415205
-0.054702319 -0.050411943 0.013982654
-0.053589072 -0.050373726 0.01382187
-0.052774627 -0.05062056 0.013629675
-0.050809383 -0.049750853 0.013596833
-0.050234526 -0.050234526 0.013725847
-0.049677808 -0.050757758 0.013618529
-0.048310697 -0.050457839 0.013467371
-0.047459181 -0.050695039 0.013155192
-0.046517152 -0.05084433 0.013174117
-0.044925999 -0.050274331 0.013088137
-0.044655416 -0.05119035 0.012780607
-0.043480609 -0.051089719 0.011979908
-0.041635111 -0.050175644 0.011645496
-0.041328553 -0.051116895 0.011315048
-0.039335359 -0.049966533 0.011048883
-0.039370857 -0.051400844 0.010898411
-0.038171507 -0.051258881 0.01061365
-0.035872061 -0.04958785 0.010839641
-0.03536192 -0.05036395 0.011028886
-0.035178073 -0.051667798 0.010492891
-0.033233672 -0.050386537 0.01089406
-0.032519113 -0.050946612 0.011230588
-0.031251647 -0.050649222 0.0113931
-0.029837584 -0.050084516 0.011668593
-0.029196089 -0.050822821 0.012151986
-0.027651088 -0.049984664 0.011901796
-0.026499577 -0.049819201 0.011913568
-0.025653791 -0.050238676 0.012169629
-0.024478577 -0.05002144 0.01211217
-0.023316424 -0.049812362 0.012025326
-0.022428444 -0.05019699 0.01173231
-0.021208271 -0.049839441 0.011602879
-0.020091658 -0.04970042 0.011523724
-0.019144177 -0.049987581 0.011503249
-0.018101074 -0.050044145 0.011250347
-0.017236512 -0.050632253 0.010282665
-0.016135355 -0.050557449 0.0092555583
-0.014965262 -0.050240524 0.0085718632
-0.014183886 -0.051280208 0.0079108775
-0.013117071 -0.051375195 0.0076093674
-0.011977554 -0.051176824 0.0070486367
-0.011092201 -0.052133344 0.006041348
-0.0099345231 -0.051880293 0.0055194497
-0.0087948227 -0.051669583 0.0041025281
-0.11534481 -0.049128346 0.013236851
-0.11214881 -0.048213508 0.016182214
-0.11024991 -0.047844302 0.018753111
-0.10839622 -0.04748787 0.020602584
-0.10955755 -0.048458148 0.021657079
-0.10658644 -0.047601711 0.022043139
-0.10698593 -0.048248559 0.022920817
-0.10590448 -0.048233725 0.022664458
-0.10380011 -0.047748052 0.022557169
-0.10406782 -0.048354745 0.022262245
-0.10356598 -0.048612606 0.022078782
-0.10093939 -0.04786817 0.021855235
-0.10122781 -0.048504993 0.021086574
-0.10019003 -0.04851307 0.020967871
-0.096755899 -0.047348633 0.020765096
-0.099017538 -0.048976418 0.020503104
-0.096913897 -0.048456948 0.020641923
-0.094234377 -0.047634959 0.020301163
-0.095898017 -0.049014542 0.020114303
-0.093276799 -0.048210483 0.020111322
-0.09191224 -0.048045035 0.020114303
-0.091913976 -0.048598196 0.020659328
-0.091754638 -0.049078066 0.020335197
-0.088179268 -0.047720548 0.019916147
-0.089606233 -0.049070079 0.0195041
-0.086795703 -0.048103642 0.019348115
-0.086147174 -0.048326466 0.019587606
-0.085527338 -0.048571084 0.019594669
-0.083394781 -0.047952004 0.019728988
-0.084607743 -0.049265269 0.019721925
-0.082443886 -0.048620753 0.019670129
-0.080874681 -0.048314746 0.0193896
-0.080724791 -0.048859745 0.019338518
-0.079609148 -0.048826944 0.018818676
-0.077396631 -0.04811142 0.019114465
-0.077785306 -0.049015395 0.018801779
-0.075812735 -0.048435915 0.018785
-0.075003527 -0.048593838 0.018761933
-0.075632714 -0.049701501 0.018396795
-0.072787091 -0.048524726 0.017962158
-0.071063064 -0.048072074 0.01799047
-0.070875116 -0.048660528 0.017404735
-0.069316477 -0.048311487 0.017227113
-0.068736248 -0.048644114 0.017406285
-0.068761773 -0.049422525 0.017794132
-0.066012777 -0.048199806 0.017490685
-0.066630118 -0.049435247 0.016959429
-0.06453485 -0.048665624 0.016679615
-0.062673248 -0.048049491 0.01646021
-0.064150959 -0.050016001 0.016228497
-0.062487803 -0.049559291 0.015820771
-0.060081366 -0.048486721 0.015948474
-0.060109224 -0.049375433 0.015508384
-0.058237027 -0.048707332 0.014989674
-0.057320252 -0.048828363 0.014626533
-0.057047315 -0.049512766 0.014478683
-0.055763848 -0.049329557 0.014425457
-0.054334648 -0.049007721 0.014020979
-0.05272954 -0.048511177 0.014068723
-0.0523181 -0.049114954 0.013951421
-0.052377079 -0.050194703 0.013734847
-0.049570046 -0.048515365 0.014018297
-0.049088337 -0.049088337 0.013951421
-0.048982684 -0.050071184 0.013734847
-0.047308359 -0.049458738 0.013500631
-0.045833614 -0.04903131 0.013336658
-0.045153838 -0.049454205 0.012940317
-0.043991078 -0.049355842 0.01221031
-0.042588759 -0.048977077 0.011767387
-0.042342972 -0.049942996 0.011530608
-0.04091404 -0.049527526 0.011179954
-0.039953623 -0.049672071 0.011032224
-0.039327752 -0.050252132 0.010856301
-0.037726138 -0.049582925 0.01042062
-0.036352251 -0.04918246 0.010221481
-0.035848163 -0.049970169 0.010685027
-0.034480862 -0.049566239 0.010135978
-0.033894721 -0.05029539 0.010376573
-0.032644372 -0.050054707 0.01089406
-0.031742413 -0.050350033 0.011200607
-0.030810567 -0.050617363 0.011431843
-0.029393725 -0.050078198 0.011920482
-0.028062915 -0.049649775 0.011688501
-0.027258361 -0.050155383 0.011660337
-0.026376594 -0.05055514 0.011917621
-0.025003023 -0.050006047 0.011919141
-0.024395632 -0.051009052 0.011466265
-0.022817241 -0.049980622 0.011503249
-0.02192221 -0.050421089 0.011503249
-0.020934371 -0.050683212 0.011307806
-0.01976946 -0.050521959 0.01061818
-0.018487971 -0.050026275 0.010147452
-0.017655948 -0.05076085 0.009133786
-0.016356992 -0.05016144 0.0086591542
-0.015360273 -0.050469473 0.0077157915
-0.014334348 -0.050721541 0.0074381232
-0.013059068 -0.050059766 0.0071794391
-0.012016956 -0.050252724 0.0066109002
-0.011019682 -0.050690539 0.0059041083
-0.0096266922 -0.049203098 0.0054361522
-0.0088060657 -0.050634876 0.0041025281
-0.11558359 -0.04815983 0.013306499
-0.10991624 -0.046226457 0.016374588
-0.10986892 -0.046642471 0.019139469
-0.10894801 -0.046692006 0.020616561
-0.10705432 -0.046321586 0.021558493
-0.10638477 -0.046478786 0.02206108
-0.1065828 -0.047021825 0.022761405
-0.1053448 -0.046935804 0.022354543
-0.10306897 -0.046381038 0.022099346
-0.10581379 -0.048097182 0.021375507
-0.1018164 -0.046752434 0.021102309
-0.10211469 -0.047372796 0.021102309
-0.10021358 -0.046975117 0.020894408
-0.099286668 -0.047030527 0.020809531
-0.099382989 -0.047576964 0.020690829
-0.09844546 -0.0476349 0.020301849
-0.09554854 -0.0467357 0.021086574
-0.096228004 -0.047585275 0.020490497
-0.094300456 -0.047150228 0.020496637
-0.092938431 -0.046991345 0.020678997
-0.092129603 -0.047111731 0.020645171
-0.090279475 -0.046696283 0.021119207
-0.090724416 -0.047472078 0.021015108
-0.089125164 -0.047183912 0.020804375
-0.088633835 -0.047482412 0.020017624
-0.086055607 -0.046656657 0.019589365
-0.085664064 -0.047010764 0.019661754
-0.084342703 -0.046857059 0.019661754
-0.085057609 -0.047844905 0.019843638
-0.083418727 -0.047516998 0.019673944
-0.081603169 -0.047078755 0.019670129
-0.082262196 -0.048075311 0.01929754
-0.080226295 -0.04750241 0.019369394
-0.07887125 -0.047322754 0.018839121
-0.078652456 -0.047829196 0.018853873
-0.07821992 -0.048217759 0.018820196
-0.076709449 -0.047943413 0.018820703
-0.076553404 -0.048519768 0.018641382
-0.074257597 -0.047737032 0.018502861
-0.072938807 -0.047568791 0.018369466
-0.072654761 -0.048080359 0.01836744
-0.070674233 -0.047467768 0.017655462
-0.070006333 -0.047731593 0.017830729
-0.069657117 -0.048224159 0.0176965
-0.067382708 -0.047378466 0.017959565
-0.067324489 -0.048088923 0.017834097
-0.066009752 -0.047910307 0.016892463
-0.064282134 -0.047421247 0.016725451
-0.064499184 -0.048374392 0.01634565
-0.063687533 -0.048575237 0.016181439
-0.061263178 -0.047531776 0.015747786
-0.060949408 -0.048117958 0.015546471
-0.058603317 -0.047091953 0.015428036
-0.058362044 -0.047750767 0.014972091
-0.058383547 -0.048652954 0.014405251
-0.056801975 -0.048228096 0.014184862
-0.054969899 -0.047570109 0.014183044
-0.054597985 -0.048174694 0.014008343
-0.053020727 -0.047718655 0.013982654
-0.051837426 -0.047605801 0.013789028
-0.051175721 -0.047977243 0.013648778
-0.049694095 -0.047579456 0.013964087
-0.049475793 -0.048400234 0.013734847
-0.047408313 -0.047408313 0.013534278
-0.047454003 -0.048532508 0.013078183
-0.045931835 -0.048068203 0.012822539
-0.044553835 -0.04773625 0.012615085
-0.043659762 -0.047919251 0.012160808
-0.043041974 -0.048422225 0.011556298
-0.042164225 -0.048651032 0.011402786
-0.04067098 -0.048163004 0.011088789
-0.03966336 -0.04823922 0.011032224
-0.038845509 -0.04855689 0.010856301
-0.037742987 -0.048526701 0.010464013
-0.036857128 -0.048781496 0.010460138
-0.035397805 -0.048269738 0.010670632
-0.034583259 -0.048632711 0.010221481
-0.033100732 -0.048049446 0.0104509
-0.033041421 -0.049562134 0.010555059
-0.031984385 -0.04963094 0.010745943
-0.030935962 -0.04971851 0.010793358
-0.029294204 -0.048823677 0.010542899
-0.028668182 -0.049618009 0.010076851
-0.02749126 -0.049484272 0.010410905
-0.026655434 -0.049978942 0.01014033
-0.02557631 -0.05004061 0.010010749
-0.024093654 -0.049282476 0.0098078251
-0.022921475 -0.049117446 0.010184705
-0.022059072 -0.049632914 0.010147452
-0.020939086 -0.049592569 0.010147452
-0.019686744 -0.049216863 0.0094206333
-0.018923348 -0.050091214 0.0089464784
-0.017357685 -0.048818491 0.0087983012
-0.016430607 -0.049291827 0.0078835189
-0.015306931 -0.049200851 0.0074924827
-0.014095091 -0.048790704 0.0072742999
-0.013109974 -0.049162406 0.007094264
-0.012123601 -0.049596552 0.0065765977
-0.010815003 -0.048667517 0.0058908761
-0.0099079926 -0.049539968 0.0054312348
-0.0086539332 -0.04867838 0.0040230155
-0.11684604 -0.047603939 0.013864458
-0.1109535 -0.045625739 0.017051488
-0.11036932 -0.04581368 0.019304633
-0.11199955 -0.046933144 0.021016181
-0.10807666 -0.045724742 0.021657079
-0.10915793 -0.046630573 0.022044778
-0.10545372 -0.04548984 0.022735685
-0.10428549 -0.045431297 0.022281379
-0.10637198 -0.046803672 0.022132695
-0.10326584 -0.045895923 0.021447778
-0.10322787 -0.046347208 0.020831048
-0.10146678 -0.04602617 0.020612895
-0.099922679 -0.045797892 0.021133929
-0.10005222 -0.046339974 0.02074644
-0.099858269 -0.046742167 0.020533621
-0.095911883 -0.045377661 0.019824058
-0.09778589 -0.046767164 0.02074644
-0.096871816 -0.046839118 0.020477742
-0.093590505 -0.045755353 0.020765513
-0.094305873 -0.046623129 0.020734578
-0.091851555 -0.045925777 0.020425171
-0.092277154 -0.046668906 0.020977706
-0.091640286 -0.046885725 0.020774513
-0.090761609 -0.046982478 0.020611674
-0.088283382 -0.046243675 0.01973024
-0.088162377 -0.04673668 0.01934877
-0.085165583 -0.045698602 0.019594669
-0.085385308 -0.046382144 0.019583404
-0.084832795 -0.046658039 0.01962325
-0.081115037 -0.045177996 0.019511461
-0.083987139 -0.047377363 0.019522965
-0.08158268 -0.046618674 0.019193232
-0.07943283 -0.045987427 0.019175321
-0.08000046 -0.046933603 0.018803924
-0.078174889 -0.046482366 0.019097686
-0.076381795 -0.046038337 0.018785
-0.076115586 -0.046515081 0.018801779
-0.075874567 -0.04702086 0.0184398
-0.074778996 -0.04700394 0.018502861
-0.072393574 -0.046164017 0.018369466
-0.072580703 -0.046963982 0.018542707
-0.070028171 -0.045988645 0.017655462
-0.07089746 -0.047264975 0.017830729
-0.068295084 -0.046230521 0.017922461
-0.06750036 -0.046406496 0.018005431
-0.067123741 -0.04688007 0.017661214
-0.064333886 -0.045656305 0.017206103
-0.064632043 -0.046619833 0.016834676
-0.063516594 -0.046578836 0.016481161
-0.061143029 -0.04559819 0.016181439
-0.061526705 -0.046675429 0.015831143
-0.06080848 -0.04693988 0.015809774
-0.058948562 -0.046316728 0.015426785
-0.058879811 -0.047103848 0.014478892
-0.057137437 -0.046556428 0.014010578
-0.056521133 -0.046923205 0.013974577
-0.056510117 -0.047816254 0.013906032
-0.054839682 -0.047312666 0.013819188
-0.053407986 -0.046999026 0.013853371
-0.052668087 -0.047293793 0.013533831
-0.050285392 -0.046094943 0.01341027
-0.050929882 -0.047679037 0.013458848
-0.049311932 -0.047167931 0.013443947
-0.048741221 -0.047658078 0.013357818
-0.047366146 -0.047366146 0.012898743
-0.046019468 -0.047089685 0.012776315
-0.045097638 -0.047245141 0.012546539
-0.044611074 -0.047875296 0.012118459
-0.043468632 -0.047815498 0.011586726
-0.041512229 -0.046834305 0.011507422
-0.040961798 -0.047429446 0.0110704
-0.039685328 -0.047193363 0.011273026
-0.038499679 -0.047055166 0.011011273
-0.038302757 -0.048152041 0.010531843
-0.036717281 -0.04751648 0.010531843
-0.035403479 -0.047204636 0.010685027
-0.034372292 -0.047261897 0.010221481
-0.032817524 -0.046579707 0.01036343
-0.032515533 -0.047689449 0.010235429
-0.031218238 -0.047365602 0.0099205971
-0.030135173 -0.047355272 0.010083586
-0.029392023 -0.04789811 0.0096136034
-0.028287599 -0.047871321 0.0091776252
-0.027084405 -0.04766855 0.0091508031
-0.026245991 -0.048117649 0.0092158914
-0.024923621 -0.047679968 0.0089875162
-0.023767397 -0.047534794 0.0088288486
-0.023035798 -0.04826548 0.0090572238
-0.021555411 -0.047421902 0.0090334415
-0.020676803 -0.047883123 0.0090334415
-0.01981966 -0.04844806 0.0088130236
-0.018312924 -0.047398154 0.0081263483
-0.017411867 -0.047882631 0.0080443025
-0.016431481 -0.048199009 0.0078236163
-0.015121174 -0.047523689 0.0073321462
-0.014241501 -0.048202004 0.007240653
-0.01332731 -0.048866801 0.0068203807
-0.011847681 -0.047390725 0.0068080723
-0.010995504 -0.048380222 0.0060574114
-0.009842 -0.048116446 0.0055633187
-0.0088541014 -0.048697557 0.0042984486
-0.11532601 -0.045916837 0.013784975
-0.11320688 -0.045494352 0.017422646
-0.10954569 -0.044438351 0.019865245
-0.10795019 -0.044208173 0.020979196
-0.10981925 -0.045406036 0.021753669
-0.10885879 -0.045445904 0.022064835
-0.10645741 -0.044879105 0.022517532
-0.10688341 -0.045504816 0.022281379
-0.10306878 -0.044319574 0.022119969
-0.10290152 -0.044694595 0.021350801
-0.10348497 -0.045406669 0.020760238
-0.10074935 -0.044662084 0.021028608
-0.10178798 -0.045592532 0.021015704
-0.098827697 -0.044732537 0.020463377
-0.097042419 -0.044391744 0.020673811
-0.097848043 -0.045241568 0.020074397
-0.097142078 -0.045403361 0.020401776
-0.095777325 -0.045257416 0.020561785
-0.094945647 -0.04536292 0.020611674
-0.092802204 -0.044837024 0.020611674
-0.093381345 -0.045629524 0.020496637
-0.092728734 -0.045831442 0.020977706
-0.089063518 -0.044531759 0.020779848
-0.088304333 -0.044671603 0.02065745
-0.08781758 -0.044954237 0.019879222
-0.087490223 -0.045326259 0.019364983
-0.085611351 -0.044893757 0.01941213
-0.086355738 -0.045843173 0.019351691
-0.084264852 -0.045292359 0.019587606
-0.083326094 -0.045354709 0.019547582
-0.083567873 -0.046069469 0.019522965
-0.081915617 -0.045745082 0.019253165
-0.080431387 -0.04550723 0.018990666
-0.079073608 -0.045335535 0.018880546
-0.077881947 -0.045255724 0.019117028
-0.078038998 -0.045968175 0.018641382
-0.076350249 -0.045598067 0.018641382
-0.074614175 -0.045188867 0.018591195
-0.074693978 -0.045883443 0.018483102
-0.07312987 -0.045573689 0.018350989
-0.071949273 -0.045497332 0.017986417
-0.072538696 -0.046554685 0.017597139
-0.069928885 -0.045559727 0.0176965
-0.069188274 -0.045770708 0.017667592
-0.068150319 -0.045788493 0.017289251
-0.067337558 -0.045960557 0.017032713
-0.06619712 -0.045910902 0.016741186
-0.064206593 -0.045260388 0.01634565
-0.063040398 -0.045178954 0.016424477
-0.063151628 -0.04602576 0.01611653
-0.061758686 -0.045786612 0.015809774
-0.060434446 -0.0455909 0.015877903
-0.060019974 -0.046086766 0.015464664
-0.058135495 -0.045451388 0.01497972
-0.057814445 -0.046037428 0.014744222
-0.05801421 -0.047068134 0.014522612
-0.055030562 -0.045506041 0.014512658
-0.054660939 -0.046086673 0.013904274
-0.053909443 -0.046362121 0.01390335
-0.051918272 -0.045560934 0.013698578
-0.051434312 -0.04607657 0.013543606
-0.05092074 -0.046587061 0.013638824
-0.049355488 -0.046136651 0.013545662
-0.048206478 -0.046063963 0.013378739
-0.047163934 -0.046092026 0.012818426
-0.046130192 -0.046130192 0.01262781
-0.044757601 -0.045823254 0.012007296
-0.044153094 -0.046306901 0.011664808
-0.04297344 -0.04619645 0.011486769
-0.042245768 -0.046578668 0.011312723
-0.040614907 -0.04595897 0.011049688
-0.04024094 -0.046766497 0.011179954
-0.039122973 -0.04673022 0.01087904
-0.037363816 -0.045904115 0.010396093
-0.036342986 -0.045963187 0.010469347
-0.036260366 -0.047248356 0.010489821
-0.034153271 -0.045893457 0.010154754
-0.033152346 -0.045985509 0.010235429
-0.032531478 -0.046628453 0.010106653
-0.031074021 -0.04607527 0.0097319186
-0.030461598 -0.046780311 0.0097289383
-0.029328024 -0.046707593 0.0095070601
-0.027812254 -0.045997191 0.0094856322
-0.026922232 -0.046306234 0.0089067221
-0.025908789 -0.046419915 0.0088574588
-0.025080649 -0.046889909 0.0086865127
-0.024013486 -0.04693545 0.0084951222
-0.022674531 -0.0464288 0.0084951222
-0.021840937 -0.046958018 0.0084433258
-0.020659333 -0.046755332 0.0082654953
-0.019456493 -0.046479404 0.0081807077
-0.018477445 -0.046737067 0.0074981451
-0.017240131 -0.046332855 0.007734865
-0.016134182 -0.046251319 0.0075772703
-0.015085365 -0.046333622 0.0073336065
-0.014264231 -0.047181685 0.0071497262
-0.013069826 -0.046833545 0.006864965
-0.012014857 -0.046967171 0.006701082
-0.010922699 -0.046967607 0.0062124729
-0.0098402798 -0.047014672 0.0058496296
-0.0088472674 -0.047554061 0.0046122372
-0.11493048 -0.044695187 0.01404959
-0.11196171 -0.043947589 0.017997146
-0.1092183 -0.043275177 0.020064354
-0.10951696 -0.043806788 0.020986676
-0.10747107 -0.043401781 0.022191882
-0.10825029 -0.044140898 0.022410959
-0.10813849 -0.044527613 0.022572696
-0.10638113 -0.044237696 0.022354543
-0.10568371 -0.044387158 0.021902889
-0.10348664 -0.043903422 0.021350801
-0.10196897 -0.043700989 0.020760238
-0.10114606 -0.043795202 0.020966232
-0.10104316 -0.044206381 0.020581007
-0.098157056 -0.043395754 0.020166337
-0.097616121 -0.043615714 0.020263314
-0.098180145 -0.044339422 0.020271659
-0.094436146 -0.043112151 0.020315349
-0.095467545 -0.044061944 0.021238804
-0.09362191 -0.043690223 0.021086514
-0.092419684 -0.043613788 0.020848155
-0.092377752 -0.044089384 0.020678997
-0.090514034 -0.04369643 0.021255702
-0.090666875 -0.044279173 0.021053076
-0.09095908 -0.044944488 0.020848155
-0.089156091 -0.044578046 0.02058655
-0.087985493 -0.044522781 0.019920945
-0.08603248 -0.044065416 0.019616187
-0.084995545 -0.044071767 0.019661754
-0.085299641 -0.044782314 0.019663274
-0.08307451 -0.0441662 0.019311666
-0.081977703 -0.044141844 0.019482583
-0.082156502 -0.044812638 0.019253165
-0.081407331 -0.044988263 0.018990666
-0.080126502 -0.044870842 0.018726468
-0.078321002 -0.044452459 0.018888533
-0.077453397 -0.044562228 0.018384665
-0.076055937 -0.044365965 0.018579096
-0.076011196 -0.044964369 0.018843353
-0.073830597 -0.044298358 0.018575281
-0.07226599 -0.043987997 0.01810655
-0.071987979 -0.044463161 0.018240511
-0.070336908 -0.044091795 0.017855257
-0.068939634 -0.043870676 0.018027782
-0.068248741 -0.044099189 0.018005431
-0.067270882 -0.044146519 0.01799801
-0.067630365 -0.045086909 0.017462999
-0.066407338 -0.044985615 0.017074347
-0.06489604 -0.044682521 0.016635716
-0.063758351 -0.044630844 0.016581923
-0.063645765 -0.045307156 0.016179711
-0.062202767 -0.045043383 0.015950888
-0.061435658 -0.045268383 0.015548229
-0.059958082 -0.04496856 0.015428036
-0.058051348 -0.04433012 0.014945954
-0.057816382 -0.044968296 0.014639229
-0.056926664 -0.045111697 0.014407665
-0.055954844 -0.045194298 0.014405906
-0.054957341 -0.045258988 0.013876021
-0.052743882 -0.044304859 0.013833463
-0.052999482 -0.045428131 0.013554603
-0.051901419 -0.04541374 0.013409585
-0.049742121 -0.044450406 0.01341027
-0.049285144 -0.04499948 0.013474733
-0.047793202 -0.044606987 0.013052255
-0.047690753 -0.045522992 0.012729108
-0.045820665 -0.044755068 0.012640774
-0.045204941 -0.045204941 0.01242882
-0.044035953 -0.045109998 0.012000918
-0.043399788 -0.045569781 0.011664808
-0.042157896 -0.045400813 0.011450768
-0.041157734 -0.045490127 0.011830837
-0.040025756 -0.045434639 0.011360765
-0.038835272 -0.045307819 0.011315048
-0.037574437 -0.045089323 0.01078102
-0.037022237 -0.045733351 0.01078102
-0.035611644 -0.045323912 0.0107871
-0.034920484 -0.045833137 0.010468632
-0.033597726 -0.045519497 0.010194898
-0.032391213 -0.045347698 0.010194898
-0.03153469 -0.04567093 0.010101765
-0.030335745 -0.04550362 0.0098060369
-0.029041633 -0.045175873 0.0095775723
-0.028274247 -0.045673788 0.009408325
-0.026914142 -0.045215759 0.0088547468
-0.026405172 -0.046209052 0.0085589886
-0.024874162 -0.045422383 0.0081368983
-0.024075726 -0.045962751 0.0081909001
-0.022587635 -0.045175269 0.0082130432
-0.021708567 -0.04558799 0.0081148744
-0.020579582 -0.045491707 0.007894665
-0.019646974 -0.045842942 0.0076999366
-0.018624429 -0.046013296 0.0070251226
-0.017289253 -0.045384292 0.0074974597
-0.01642384 -0.045986753 0.0071739554
-0.015412591 -0.046237774 0.0071534216
-0.014174209 -0.0457936 0.006998837
-0.013155451 -0.046044081 0.00656721
-0.011843972 -0.045222443 0.0066522956
-0.010870399 -0.045655679 0.0061004758
-0.0099492632 -0.046429899 0.005892694
-0.0086473273 -0.04539847 0.0047796667
-0.0076028388 -0.045617037 0.0040814579
-0.11505289 -0.043677486 0.01404959
-0.11010064 -0.042188097 0.017948598
-0.11045067 -0.042721488 0.020050377
-0.10959875 -0.042795703 0.021030158
-0.10827257 -0.04268438 0.022191882
-0.1097955 -0.043705005 0.022266358
-0.10617352 -0.042677592 0.022668481
-0.10474309 -0.042519473 0.022562921
-0.10557386 -0.043285284 0.021962941
-0.1036283 -0.042916771 0.021204084
-0.10202833 -0.042685322 0.020362377
-0.10270348 -0.043410752 0.02031818
-0.09852457 -0.042078204 0.02034837
-0.10037929 -0.043321591 0.020009458
-0.099011257 -0.043185763 0.020009458
-0.097577512 -0.043018043 0.019687384
-0.097712263 -0.043545682 0.020071477
-0.09576004 -0.043144632 0.020305276
-0.092877634 -0.042310923 0.020611674
-0.093723141 -0.043175831 0.020506591
-0.091367915 -0.042569146 0.020658106
-0.091495596 -0.043118618 0.020977706
-0.091908313 -0.043816756 0.020774513
-0.088842586 -0.042853486 0.020611674
-0.088240348 -0.043069698 0.020263374
-0.087543674 -0.043244466 0.01973024
-0.0854396 -0.0427198 0.019543737
-0.084481865 -0.042762432 0.019351691
-0.084697224 -0.043407328 0.019351691
-0.083010398 -0.043081351 0.019162863
-0.083488941 -0.043885216 0.019210309
-0.081172228 -0.043221578 0.018729836
-0.079094663 -0.04266949 0.018843353
-0.079225101 -0.043309722 0.018388391
-0.078728929 -0.043620083 0.018384665
-0.077259161 -0.043392133 0.018260747
-0.076147929 -0.043362018 0.018289
-0.074927427 -0.04326795 0.018432528
-0.073669113 -0.043149054 0.018432528
-0.073030651 -0.043395024 0.017923862
-0.071709052 -0.043236341 0.01804328
-0.070121974 -0.04291046 0.017658025
-0.069652155 -0.043268763 0.017992795
-0.06835144 -0.043113988 0.018314213
-0.06831903 -0.043766882 0.017983377
-0.067530267 -0.043948267 0.017491579
-0.065494768 -0.043311056 0.017138869
-0.064967193 -0.043666475 0.016795576
-0.064454682 -0.044044036 0.016777843
-0.062705711 -0.043575156 0.016389221
-0.062148765 -0.043932747 0.016108543
-0.060882855 -0.043792933 0.015548229
-0.060343258 -0.044179887 0.015379488
-0.059011322 -0.043990258 0.014908075
-0.057116758 -0.043366428 0.014637947
-0.056332253 -0.043577783 0.01463747
-0.055659276 -0.043885201 0.014405906
-0.05441267 -0.043743521 0.013911426
-0.053241778 -0.043658257 0.013904274
-0.051812071 -0.043352962 0.013554603
-0.050853532 -0.043437395 0.013428658
-0.050352186 -0.04392425 0.013503581
-0.049103573 -0.04376623 0.013503343
-0.048662521 -0.044336963 0.013198972
-0.048055708 -0.044779185 0.012915522
-0.046392489 -0.044234701 0.012546539
-0.044696983 -0.043632768 0.0124093
-0.04478443 -0.04478443 0.012014478
-0.042816877 -0.043887306 0.011865824
-0.042222768 -0.044388041 0.011813313
-0.041601915 -0.04488628 0.011674911
-0.039626952 -0.04391095 0.011093527
-0.038845159 -0.044240322 0.011033744
-0.037945673 -0.044450652 0.010902315
-0.036559012 -0.044085871 0.010807604
-0.035953891 -0.044669986 0.010638565
-0.034586906 -0.044314478 0.010376006
-0.03322383 -0.043941196 0.0098642409
-0.032384962 -0.044259448 0.0097946525
