ply
format ascii 1.0
comment PCL generated
element vertex 1286
property float x
property float y
property float z
element camera 0
property float view_px
property float view_py
property float view_pz
property float x_axisx
property float x_axisy
property float x_axisz
property float y_axisx
property float y_axisy
property float y_axisz
property float z_axisx
property float z_axisy
property float z_axisz
property float focal
property float scalex
property float scaley
property float centerx
property float centery
property int viewportx
property int viewporty
property float k1
property float k2
end_header
-0.078302175 0.067720793 0.017927974
-0.076148547 0.066760369 0.017675221
-0.075939991 0.067502216 0.017512918
-0.074420065 0.067082874 0.016968966
-0.073676601 0.067361459 0.016759157
-0.073686019 0.068346456 0.01631391
-0.07127475 0.067082122 0.016486198
-0.070087545 0.066949293 0.016245008
-0.070406154 0.068272635 0.015636951
-0.067534737 0.066495739 0.01555717
-0.067663103 0.067663103 0.01546368
-0.066927135 0.067989469 0.015360713
-0.064955726 0.067051075 0.015285283
-0.06495928 0.068154007 0.014724016
-0.06359937 0.067839332 0.014734447
-0.061858527 0.067100771 0.014457792
-0.061775055 0.068165578 0.014354765
-0.06062207 0.068066888 0.014313608
-0.058750328 0.067143232 0.01411128
-0.058396351 0.067952119 0.013741791
-0.056876328 0.067408979 0.013522506
-0.055872597 0.0674688 0.013259023
-0.056084029 0.0690265 0.013234019
-0.053947017 0.067698218 0.013005853
-0.053251844 0.068162359 0.01321432
-0.052137882 0.068098463 0.012586564
-0.050695539 0.067594051 0.012406707
-0.05032539 0.06852819 0.012125969
-0.049020737 0.068202764 0.011523187
-0.047329996 0.067313768 0.011267394
-0.047309868 0.06881436 0.011520892
-0.045940392 0.0683764 0.010791779
-0.04447351 0.067769155 0.010679752
-0.04432686 0.069193147 0.010550022
-0.042760156 0.068416253 0.010049105
-0.041172851 0.067565702 0.0098877549
-0.040752906 0.068636477 0.0097198188
-0.039704986 0.068678893 0.0097765923
-0.038113594 0.067757502 0.0097203255
-0.037491143 0.068555228 0.0096199811
-0.036125652 0.068001226 0.0097591579
-0.035222732 0.068310753 0.0094534755
-0.034108318 0.068216637 0.0092307627
-0.033136211 0.06841024 0.0093766749
-0.031871475 0.067992479 0.0093723238
-0.030919101 0.068235256 0.0092230141
-0.0294763 0.067374401 0.008667618
-0.029052816 0.068865933 0.0083818734
-0.027803186 0.068438612 0.0082224309
-0.026688391 0.068322286 0.0077898204
-0.025813635 0.068836361 0.0077566206
-0.025001528 0.069569468 0.0074796379
-0.023458809 0.068243809 0.0068823397
-0.022708578 0.069207095 0.0068929195
-0.021503625 0.068811603 0.0067462623
-0.020278882 0.06830781 0.006818682
-0.019615419 0.069743715 0.0064367354
-0.018196302 0.068503723 0.0061297715
-0.017392367 0.069569468 0.0059637129
-0.016430529 0.070103586 0.0054876208
-0.014932988 0.068265088 0.0055114925
-0.014130346 0.069564782 0.005071789
-0.012956281 0.069100164 0.0050413311
-0.011775464 0.068511792 0.0048927665
-0.010871178 0.069575548 0.0046122968
-0.0097234081 0.069144242 0.0042542815
-0.11114018 0.066889927 0.018713951
-0.11311118 0.068712391 0.020090163
-0.11021487 0.067584589 0.021148711
-0.10735049 0.066455066 0.0216479
-0.10850145 0.067813404 0.022675246
-0.10692094 0.06747438 0.022761077
-0.10533778 0.067127012 0.02296707
-0.10651274 0.0685478 0.022706002
-0.10295375 0.066919938 0.022748798
-0.10227767 0.067152001 0.022475213
-0.10304473 0.068346001 0.02226156
-0.10128403 0.067870744 0.022030801
-0.10062734 0.068133093 0.021727115
-0.098342516 0.067286983 0.021223366
-0.096506231 0.066733032 0.02121383
-0.097287863 0.067996897 0.020737946
-0.096341893 0.06806764 0.020721704
-0.093977198 0.067126565 0.02071923
-0.094870493 0.068517573 0.020162255
-0.093383797 0.068201654 0.019963413
-0.092107736 0.06803412 0.019672334
-0.091604024 0.068439789 0.019428283
-0.089092948 0.067337692 0.018767595
-0.08882688 0.067926437 0.018909305
-0.088701375 0.068637967 0.018909812
-0.085446782 0.066916153 0.018806368
-0.085604459 0.067857191 0.0189403
-0.085461326 0.068580084 0.018733293
-0.082920298 0.067372747 0.01877588
-0.082990684 0.068283476 0.01868993
-0.082079351 0.068399459 0.018478364
-0.080039553 0.067565858 0.018310666
-0.08015956 0.068557516 0.018221498
-0.078691691 0.068199463 0.018152654
-0.078009523 0.068521872 0.017647207
-0.07700599 0.068566971 0.017571479
-0.07573615 0.068372913 0.017353654
-0.074989386 0.068652257 0.016968966
-0.074702993 0.069367066 0.016719431
-0.073530987 0.069268323 0.016214699
-0.071186975 0.068046376 0.016391069
-0.071031488 0.068911143 0.01631391
-0.069148138 0.068100438 0.016164958
-0.068250515 0.068250515 0.015626669
-0.067226261 0.068276666 0.015641987
-0.06606219 0.068159401 0.015442312
-0.066081643 0.069279142 0.01537779
-0.064611219 0.068848021 0.0147596
-0.062971219 0.06821882 0.015243649
-0.063134886 0.069555387 0.014676958
-0.06171672 0.069165289 0.014656574
-0.059936274 0.068348385 0.01460281
-0.060043134 0.069692925 0.014190108
-0.058321346 0.068925224 0.013818145
-0.056934915 0.068532765 0.013658762
-0.056341268 0.069097787 0.01330632
-0.054780308 0.068475381 0.013281316
-0.054352518 0.069272816 0.013038814
-0.053069964 0.068990953 0.01282391
-0.052199677 0.069244467 0.012565047
-0.051568124 0.069831833 0.012246996
-0.049881585 0.068985172 0.012032747
-0.048457053 0.068471923 0.011767864
-0.048641391 0.070259787 0.011308253
-0.047059827 0.069520198 0.011520892
-0.045194231 0.068316862 0.010769397
-0.04513007 0.069844157 0.01061216
-0.043902073 0.069600843 0.010385782
-0.042547066 0.069138989 0.010204017
-0.041885801 0.069809668 0.010079771
-0.040427353 0.06915205 0.0098787248
-0.039700605 0.069744304 0.0096777678
-0.038769934 0.070001274 0.009657532
-0.037457634 0.069564179 0.0095463097
-0.03626246 0.069325291 0.0097127855
-0.035551455 0.070025593 0.0092815757
-0.033881884 0.068822578 0.0093179345
-0.033285119 0.069791377 0.0093267858
-0.032276776 0.069933012 0.0090366006
-0.030826934 0.069094844 0.0088607669
-0.030064967 0.069793671 0.0086974502
-0.028987944 0.069785789 0.008387655
-0.02743938 0.068598449 0.008253932
-0.026985817 0.070163123 0.007768333
-0.025607428 0.069353454 0.0077566206
-0.024516312 0.069285229 0.0075850487
-0.023605634 0.069743916 0.0069358051
-0.022563362 0.069838978 0.0069010258
-0.021596188 0.070187606 0.0067605674
-0.020580493 0.070406951 0.0068894923
-0.019141264 0.069121234 0.0066145957
-0.018362952 0.070211284 0.006287992
-0.017286437 0.070226148 0.0060629547
-0.015917964 0.06897784 0.0056654811
-0.015044182 0.069847986 0.0053647757
-0.014026267 0.070131332 0.0050088763
-0.012802481 0.069346771 0.0049540699
-0.011887319 0.070243247 0.0048927665
-0.010875334 0.070689671 0.0046158731
-0.0096719339 0.069852859 0.00436759
-0.11345328 0.069332555 0.018457204
-0.11018098 0.067962095 0.020034701
-0.10850791 0.06756153 0.020740598
-0.10984822 0.069047458 0.021287858
-0.10802451 0.068554014 0.022599965
-0.10661065 0.068313614 0.022768825
-0.10664919 0.069008298 0.022914201
-0.10413199 0.068046644 0.022697538
-0.10309614 0.068043448 0.022640765
-0.10321703 0.06881135 0.022576928
-0.10128095 0.068209618 0.022269398
-0.10043992 0.068340562 0.021952927
-0.099847503 0.068645157 0.021727115
-0.097387202 0.067658477 0.02141276
-0.097714767 0.068608239 0.021222651
-0.097054698 0.068877526 0.020852238
-0.094923563 0.068097338 0.020693988
-0.09638276 0.069903977 0.020576686
-0.094411589 0.069235161 0.020229608
-0.092103578 0.068301529 0.020062506
-0.092321016 0.069240764 0.01971066
-0.090433009 0.06860435 0.019484609
-0.089833342 0.068941869 0.019223362
-0.08938355 0.069403701 0.019200176
-0.087836124 0.069014095 0.019258082
-0.086152785 0.068507031 0.019008398
-0.086359836 0.069509134 0.019130498
-0.084095322 0.068522111 0.01907447
-0.084092572 0.069376372 0.019145101
-0.083537288 0.069790646 0.018825501
-0.080388874 0.06802135 0.018945992
-0.081492431 0.069850653 0.018449366
-0.08078482 0.070155233 0.01845035
-0.078315288 0.068917446 0.018221498
-0.078259729 0.069799215 0.017626703
-0.07701949 0.06963405 0.017441034
-0.074981838 0.068733357 0.017353654
-0.075486317 0.07017038 0.016759157
-0.073113695 0.068935767 0.01667276
-0.072573543 0.06941817 0.016190678
-0.072470635 0.070339143 0.01631391
-0.070630103 0.069575921 0.016240984
-0.070104979 0.070104979 0.016164958
-0.068980798 0.070042036 0.015587091
-0.066351987 0.068425484 0.015565962
-0.06692037 0.07010705 0.015442312
-0.065690875 0.069928989 0.015608102
-0.064107001 0.069361672 0.015171319
-0.063610829 0.069971912 0.015608102
-0.062825732 0.070279628 0.0147596
-0.060884319 0.069282152 0.014984339
-0.060588621 0.070155241 0.014840573
-0.059191972 0.069761962 0.014173687
-0.057823077 0.069387689 0.013975292
-0.05763397 0.070441514 0.013489038
-0.056161102 0.069936469 0.013161659
-0.054873638 0.069647305 0.013131082
-0.054215506 0.070161238 0.012776613
-0.052622199 0.069461301 0.012827843
-0.052258186 0.070388578 0.01242286
-0.051086143 0.070243448 0.012370884
-0.049468733 0.069466732 0.012231767
-0.049628649 0.071206316 0.012130618
-0.047909185 0.070266798 0.011924714
-0.046407048 0.069610573 0.011583686
-0.04591731 0.070477724 0.010943383
-0.04498912 0.070697181 0.010540426
-0.043170597 0.069494128 0.010383785
-0.04283921 0.070684694 0.0099989474
-0.041850574 0.070824042 0.0098968148
-0.039926551 0.069346115 0.0098050535
-0.039718162 0.070848607 0.0096371174
-0.038187224 0.07000991 0.0095838606
-0.037570782 0.070847757 0.0095166266
-0.036661893 0.071167208 0.0095531046
-0.035432503 0.070865005 0.0092815757
-0.03442312 0.070997678 0.0090785921
-0.033208702 0.070702396 0.0090697408
-0.031846393 0.070062064 0.0089819729
-0.030969588 0.070482507 0.0088036656
-0.03021773 0.071227506 0.0086101592
-0.028781947 0.070355862 0.008387655
-0.027956109 0.070965506 0.0082224309
-0.026975101 0.071214266 0.0076787174
-0.025440147 0.0699604 0.0077988207
-0.024864381 0.071349956 0.0075278878
-0.023626648 0.070879944 0.0070304573
-0.022467334 0.070611618 0.0068758428
-0.02149266 0.07092578 0.0066879988
-0.020469543 0.07110472 0.0067100227
-0.019289436 0.070727929 0.0067100227
-0.018494617 0.071802631 0.0062521994
-0.017107386 0.070567966 0.0061016381
-0.016272353 0.071598351 0.0059373081
-0.015204019 0.07167609 0.005358845
-0.013784607 0.069983386 0.0051098168
-0.01305789 0.071818396 0.0049767792
-0.011891185 0.07134711 0.0048902631
-0.010638245 0.070212416 0.0045471489
-0.0097579416 0.071558237 0.0044173598
-0.11329118 0.070282489 0.018336654
-0.10986557 0.068794325 0.019723058
-0.11097699 0.070145838 0.020662606
-0.11010002 0.070254296 0.021202356
-0.10769878 0.069382869 0.022696942
-0.10799301 0.070247889 0.022770971
-0.10474069 0.068800263 0.023121536
-0.10478783 0.069512717 0.022758394
-0.10486691 0.070260823 0.022701174
-0.10206138 0.069071837 0.02228561
-0.10099593 0.069048241 0.022208363
-0.10207514 0.070505515 0.021853715
-0.098910384 0.069031209 0.021602601
-0.099246688 0.069995031 0.021324217
-0.098442748 0.07016664 0.021166623
-0.096019812 0.069175564 0.02053225
-0.096505739 0.070281349 0.020544618
-0.094578192 0.06963449 0.02053386
-0.092531122 0.068884283 0.020299822
-0.09317635 0.070143998 0.019850433
-0.092150889 0.070160337 0.01971066
-0.090229243 0.069486886 0.019484609
-0.091038123 0.070925049 0.019137383
-0.088323303 0.069619551 0.019200176
-0.087757543 0.069997087 0.019260615
-0.088104725 0.071120679 0.019008398
-0.085910611 0.07019525 0.019233048
-0.084482975 0.069880985 0.019114494
-0.083729438 0.070123412 0.018796742
-0.081797987 0.069372982 0.018775553
-0.082421169 0.070797674 0.018805027
-0.081137612 0.070600264 0.018448502
-0.079315737 0.069923088 0.018294394
-0.0794378 0.070964433 0.018069237
-0.07823348 0.07083302 0.017625839
-0.076215923 0.069951601 0.017484874
-0.076559693 0.071243055 0.017176211
-0.074241221 0.070058621 0.01673162
-0.073727973 0.070568204 0.016563356
-0.07386633 0.071725279 0.016148657
-0.071619384 0.070566162 0.01631093
-0.070594348 0.070594348 0.016190678
-0.070061691 0.071123235 0.015827417
-0.06820482 0.070303425 0.015826225
-0.068663895 0.071882516 0.015459418
-0.066309914 0.070520073 0.015449494
-0.06514892 0.070402861 0.015719533
-0.065108262 0.071512356 0.015312761
-0.063453592 0.070856512 0.015568346
-0.062333863 0.07078591 0.015069783
-0.061827 0.071420841 0.014656574
-0.060530644 0.071150057 0.01460281
-0.058908269 0.070479535 0.014268875
-0.058858778 0.071700692 0.014068514
-0.056938291 0.07064566 0.013641596
-0.056047119 0.070852026 0.013273299
-0.055531096 0.071549684 0.013242722
-0.053993087 0.070932098 0.013087451
-0.053233914 0.071333446 0.012992501
-0.052430443 0.071690612 0.012542278
-0.050615717 0.070651107 0.012473583
-0.050383955 0.07182394 0.012328535
-0.048616551 0.070811063 0.012269408
-0.047822807 0.071202844 0.012072176
-0.047277652 0.071990974 0.011674196
-0.046112385 0.071849532 0.011063218
-0.044159628 0.07044512 0.010670722
-0.044051174 0.071986064 0.010420471
-0.042750232 0.071606643 0.0099989474
-0.040934984 0.070324205 0.0099989474
-0.040970825 0.072238036 0.0098968148
-0.039250191 0.071074672 0.0098394454
-0.038475968 0.071608052 0.0097402036
-0.03764588 0.072064973 0.0095501244
-0.036722559 0.072365046 0.0096949935
-0.035226401 0.071520269 0.0096726716
-0.034324873 0.071867712 0.0091271996
-0.032812428 0.070917182 0.0090980232
-0.032483105 0.072545603 0.009113431
-0.031191971 0.072064206 0.0088177323
-0.029926715 0.071610354 0.0085231066
-0.0290231 0.072020285 0.0084180236
-0.028077483 0.072353519 0.0081264973
-0.026664117 0.07145983 0.007768333
-0.025957225 0.072463922 0.0077139139
-0.024528453 0.071452454 0.0073980987
-0.023644866 0.07200937 0.0069867373
-0.022516288 0.071837686 0.0068758428
-0.021528438 0.072120272 0.0066992342
-0.020319754 0.071653873 0.0067100227
-0.019471982 0.072479047 0.0066322684
-0.018100023 0.07133539 0.0065475404
-0.017242774 0.07220412 0.0061594248
-0.016206287 0.072388083 0.0060939193
-0.014848686 0.071061574 0.005697906
-0.014081436 0.072573557 0.0052216351
-0.012974709 0.072442129 0.0052051246
-0.011820253 0.071996085 0.0049195588
-0.01082212 0.072508208 0.004532367
-0.0098265056 0.073152877 0.0042982996
-0.11090142 0.069826819 0.018336654
-0.11224283 0.071331888 0.01955834
-0.10958423 0.07029932 0.020560622
-0.10813897 0.070032857 0.021146804
-0.10916528 0.0713773 0.022354007
-0.10654709 0.070341773 0.022701174
-0.10597879 0.07065253 0.022763193
-0.10572537 0.071181431 0.02228561
-0.10357147 0.070428602 0.022161365
-0.10191201 0.070000172 0.022151142
-0.10253728 0.071148321 0.02218473
-0.1004136 0.070393041 0.021859139
-0.099967062 0.070810005 0.021881372
-0.099953189 0.071545444 0.021676779
-0.096769504 0.070003472 0.02162385
-0.097688012 0.071427792 0.021132499
-0.096834853 0.071573585 0.020909399
-0.09413559 0.070343077 0.020742327
-0.093926333 0.070966557 0.020445675
-0.093197376 0.071206987 0.019964546
-0.091608167 0.07078813 0.01988554
-0.09171772 0.071687415 0.019649267
-0.089338526 0.070639767 0.019441038
-0.088743702 0.070994966 0.019527376
-0.087812044 0.071085937 0.019510716
-0.086716019 0.071044445 0.019322455
-0.085321128 0.070754103 0.019366354
-0.08621639 0.072379194 0.019257873
-0.083361395 0.07085719 0.019128472
-0.082539462 0.071046628 0.018909335
-0.081780769 0.071296059 0.01898846
-0.07987766 0.070541315 0.018654138
-0.080420405 0.0719551 0.018517435
-0.077996485 0.070716813 0.018429846
-0.077012114 0.070767887 0.017878592
-0.077312879 0.072017476 0.017102391
-0.075651377 0.071448527 0.016731054
-0.074224286 0.071088053 0.016559333
-0.073781542 0.071673505 0.016361237
-0.072552904 0.071501411 0.015893549
-0.07174401 0.07174401 0.016095787
-0.070943668 0.07200253 0.016141772
-0.069371894 0.071474075 0.015806556
-0.068551786 0.07171572 0.01564458
-0.068115793 0.072373025 0.015397042
-0.066085018 0.071329862 0.01539129
-0.06520018 0.071509868 0.015437931
-0.064991497 0.072449543 0.015544653
-0.062393408 0.070712529 0.015640527
-0.062428162 0.071951099 0.01524058
-0.061750378 0.072396994 0.014989048
-0.059837855 0.071385518 0.014809459
-0.059654884 0.072438076 0.014333248
-0.057606481 0.071222559 0.014093131
-0.057011876 0.071792729 0.013692319
-0.056962796 0.073084347 0.013242722
-0.05546838 0.072535574 0.013242722
-0.05378269 0.071710251 0.013056874
-0.053048335 0.072145738 0.012962133
-0.051765904 0.071838401 0.012569487
-0.051420491 0.072845697 0.012473583
-0.050515119 0.073085703 0.012328535
-0.048289131 0.071383931 0.012332052
-0.048099179 0.0726832 0.011956185
-0.046866689 0.072430335 0.011673778
-0.0453174 0.071664728 0.011238366
-0.044802193 0.072536886 0.010662794
-0.043645851 0.072388239 0.010444373
-0.042699371 0.072588935 0.010040909
-0.042008165 0.073245004 0.0099892616
-0.040624391 0.072696276 0.0098690391
-0.03955983 0.072704554 0.0097501576
-0.038783647 0.073258005 0.00971663
-0.037194546 0.072263688 0.0095501244
-0.036143437 0.072286874 0.0096356273
-0.035605513 0.073368937 0.0095246732
-0.034207329 0.072690576 0.0093267858
-0.033380631 0.073222034 0.0093267858
-0.032316979 0.073251821 0.0089913309
-0.030909723 0.072477974 0.0088765323
-0.03027888 0.073534422 0.0084183514
-0.02901125 0.073065363 0.0082119107
-0.027797738 0.072701782 0.0077272356
-0.027026717 0.073512666 0.0075132549
-0.025773792 0.073025748 0.0074136555
-0.02459435 0.072713725 0.0071541071
-0.023802908 0.073572628 0.0069612563
-0.022278894 0.072141178 0.0068538189
-0.021538842 0.073232062 0.0066721439
-0.020395866 0.07299573 0.0066183507
-0.019127827 0.072260685 0.0063366294
-0.018347872 0.07339149 0.0061632097
-0.017302029 0.073533617 0.0059546828
-0.016035652 0.07269495 0.0061561763
-0.01504867 0.073093541 0.0056939423
-0.014043643 0.073459059 0.0054084063
-0.012817253 0.072631106 0.0052711964
-0.011965456 0.073968284 0.00508219
-0.010803262 0.073462181 0.0047257543
-0.0095882742 0.072444744 0.0044912994
-0.0086935591 0.073895253 0.0040470064
-0.11348603 0.07250496 0.017874002
-0.1109309 0.071534872 0.018857002
-0.10800707 0.070306487 0.020304173
-0.10921463 0.07176961 0.021952391
-0.10862628 0.072069362 0.022367567
-0.10624152 0.071171507 0.022282213
-0.10654959 0.072077669 0.022545367
-0.10447076 0.071371116 0.022108674
-0.10461023 0.072181061 0.022119433
-0.10297586 0.071771048 0.022342831
-0.10201044 0.071823679 0.022342831
-0.10038543 0.071408197 0.022010088
-0.10021398 0.072028801 0.022045076
-0.097484857 0.07080479 0.021916687
-0.09886083 0.072568059 0.021714449
-0.096396595 0.071520053 0.021083713
-0.095189929 0.071392447 0.020776093
-0.096397959 0.073092952 0.020762295
-0.09453322 0.072475463 0.020460904
-0.092439525 0.071666598 0.020008832
-0.092905052 0.072846003 0.019773602
-0.091435902 0.072518125 0.019608289
-0.089105807 0.071491867 0.019464582
-0.089158267 0.072375536 0.019608289
-0.087683111 0.072025411 0.019441038
-0.086412668 0.07183703 0.019364119
-0.086818039 0.073054202 0.01936993
-0.084244058 0.071763456 0.019315183
-0.084323175 0.072728738 0.019115776
-0.08337307 0.072819524 0.018625021
-0.080620326 0.071317978 0.018808246
-0.081722975 0.073232278 0.01837647
-0.080002069 0.072633453 0.01843515
-0.078784965 0.072482169 0.018314898
-0.078682765 0.073366359 0.017574281
-0.076357879 0.072173879 0.017012984
-0.075876467 0.072714947 0.01677078
-0.075223945 0.073104963 0.016558766
-0.07343673 0.072387636 0.01631093
-0.072445922 0.072445922 0.015914708
-0.07205753 0.073117197 0.015970707
-0.070684567 0.072794557 0.016095787
-0.069778293 0.072950035 0.015990019
-0.069168046 0.07342454 0.015666306
-0.06710428 0.072346799 0.015359432
-0.067214087 0.073615424 0.015396893
-0.065950744 0.073396787 0.015260965
-0.064421363 0.072870068 0.015366614
-0.063405879 0.072916754 0.015312761
-0.06233608 0.072901517 0.015215427
-0.061028298 0.07260263 0.014963895
-0.061282076 0.074183568 0.014760941
-0.058667198 0.072286367 0.01430279
-0.058175717 0.072984077 0.014026433
-0.057898831 0.073981836 0.013656229
-0.055730037 0.072554201 0.013262659
-0.055495277 0.073637962 0.013262659
-0.053906623 0.072932489 0.01305452
-0.053062391 0.073226094 0.012979686
-0.051750533 0.072873197 0.012639612
-0.051204633 0.073606662 0.012339115
-0.04965277 0.072894491 0.012328535
-0.048988882 0.073483318 0.012114257
-0.048125107 0.073791824 0.0114595
-0.046303328 0.07261204 0.011351675
-0.045966811 0.073760696 0.010895669
-0.045022238 0.073965102 0.010624766
-0.043169521 0.07265114 0.010420471
-0.042798989 0.073828258 0.0099892616
-0.041253727 0.072987363 0.0098795593
-0.040309824 0.073194154 0.0098968148
-0.039725069 0.074081883 0.0098580718
-0.038272064 0.073354796 0.0097439885
-0.037522823 0.073973566 0.0097402036
-0.03657233 0.074220315 0.0096974075
-0.035175763 0.073549323 0.0098660886
-0.034599569 0.074605316 0.0093753934
-0.033316683 0.074156485 0.0093267858
-0.031708568 0.072929703 0.0092340708
-0.031140273 0.074092373 0.0090170801
-0.030234458 0.074506342 0.0086223781
-0.028610727 0.073116302 0.0082812011
-0.027817411 0.073823132 0.0076400936
-0.026966043 0.074426278 0.0074163377
-0.025839411 0.074288301 0.0074149072
-0.024733175 0.07419952 0.0070648193
-0.023741558 0.07446216 0.0068741739
-0.022449858 0.073763818 0.0069683492
-0.02157552 0.074435547 0.006791532
-0.020615488 0.074866772 0.0067166388
-0.019404069 0.074382268 0.0064394474
-0.01831474 0.074336298 0.0061571002
-0.017064285 0.073589727 0.0060157776
-0.016294703 0.074955627 0.0060184896
-0.01513658 0.074601717 0.0055737197
-0.013867606 0.073604986 0.0051916242
-0.012977699 0.074621774 0.0050678849
-0.011872606 0.074473619 0.0048756301
-0.010691848 0.073773749 0.0045729578
-0.0098027168 0.075154163 0.0043548346
-0.11311538 0.073315516 0.017940551
-0.11077531 0.072469831 0.018923551
-0.11075503 0.073140115 0.020211935
-0.10926306 0.072842039 0.021974504
-0.10760301 0.072425105 0.022119433
-0.10747671 0.073042423 0.022353411
-0.1058062 0.072612099 0.022399515
-0.1038406 0.071968727 0.022085428
-0.10490108 0.073430754 0.021950513
-0.10259983 0.072545327 0.022219837
-0.10242755 0.073162533 0.022108674
-0.1011104 0.07296627 0.02168864
-0.099697009 0.072695732 0.021938533
-0.10032388 0.073922858 0.021898478
-0.097578175 0.072664596 0.021709174
-0.095873386 0.072162762 0.020921379
-0.096251152 0.073234566 0.020714134
-0.095468573 0.073437363 0.020708442
-0.092642806 0.072055511 0.020344496
-0.093598105 0.07361649 0.019890666
-0.090646431 0.072105117 0.019793391
-0.090090998 0.072487012 0.019542098
-0.090752609 0.073868401 0.019433975
-0.088402681 0.072802208 0.019433975
-0.088161498 0.073467918 0.019279689
-0.088468149 0.074611694 0.019202769
-0.085551813 0.073032029 0.019279689
-0.08520706 0.073635735 0.019161344
-0.083270639 0.072861806 0.019100577
-0.082510144 0.07311026 0.018875688
-0.08188957 0.073490642 0.018792331
-0.081285328 0.073895752 0.018364578
-0.078309342 0.072127022 0.018288016
-0.079142675 0.073866494 0.018172115
-0.078086592 0.073865697 0.017487615
-0.076154068 0.073024444 0.016993105
-0.076611921 0.074483812 0.016620845
-0.073903546 0.072862655 0.016558766
-0.073684268 0.073684268 0.016387612
-0.073445857 0.074510284 0.016263604
-0.070936345 0.073022708 0.016361237
-0.070524529 0.073682338 0.016314685
-0.070074394 0.07432133 0.015992671
-0.068553656 0.073827013 0.015926123
-0.068306953 0.074710727 0.015571445
-0.06684988 0.074277647 0.015474856
-0.064255975 0.072547063 0.01562497
-0.06519191 0.074810393 0.015719533
-0.063721977 0.074342303 0.015726447
-0.062208645 0.073806867 0.015499085
-0.062137693 0.074993767 0.014913827
-0.060398988 0.074174196 0.014809459
-0.058909491 0.07363686 0.014398426
-0.058577199 0.074552797 0.013897002
-0.05744081 0.074460305 0.013587356
-0.055801641 0.073700279 0.013363272
-0.055785157 0.0750954 0.013338268
-0.054185145 0.074371763 0.013195544
-0.052810844 0.073935181 0.012849361
-0.052643582 0.075205117 0.012593687
-0.050828323 0.074124642 0.012445033
-0.050260264 0.074855715 0.011980116
-0.04933637 0.075077087 0.011908084
-0.047140654 0.073329896 0.011190712
-0.046982918 0.074745551 0.011082888
-0.045613769 0.074254975 0.010697693
-0.04423061 0.073717684 0.010496646
-0.043800786 0.074781828 0.010229111
-0.042714175 0.074749805 0.0098968148
-0.041007988 0.073604077 0.01002878
-0.040488414 0.074583918 0.010002166
-0.039223779 0.074207149 0.0097107887
-0.03850805 0.07487677 0.0095964074
-0.037469424 0.074938849 0.0095501244
-0.036123566 0.074372046 0.0096356273
-0.035016816 0.074278094 0.0095396936
-0.034295749 0.075021945 0.0090494156
-0.032760613 0.07397557 0.0088519454
-0.032261323 0.07527642 0.0089426041
-0.031174121 0.075247876 0.0085284114
-0.029681528 0.074203819 0.0080889165
-0.0291327 0.075529218 0.0079797506
-0.027977159 0.07532312 0.0075915754
-0.026714921 0.074801773 0.0075156689
-0.025883235 0.075492769 0.0072946548
-0.024577962 0.074802488 0.0070258975
-0.023428107 0.074543975 0.0070181489
-0.022665894 0.075552978 0.0070570707
-0.021520853 0.075322986 0.0069428384
-0.020464323 0.075394876 0.0068403184
-0.019308418 0.075088292 0.0066710711
-0.018258065 0.075180262 0.0063366294
-0.017173296 0.075133167 0.0064775646
-0.01601324 0.074728459 0.0062170625
-0.014994907 0.074974537 0.0058153272
-0.014038921 0.075594194 0.0055830479
-0.012969352 0.075654551 0.0053072572
-0.011875531 0.075571559 0.0050225854
-0.010800227 0.075601585 0.004530102
-0.0097331936 0.075702615 0.0041065216
-0.11322062 0.074432075 0.018185526
-0.10991105 0.072931625 0.019136816
-0.11132035 0.07456363 0.020211935
-0.10832211 0.073246375 0.021882594
-0.10911441 0.074491568 0.022074312
-0.10604292 0.073097542 0.022406071
-0.10476585 0.072925255 0.022461027
-0.10557008 0.074212626 0.022406071
-0.10356463 0.073530883 0.022386104
-0.10290492 0.073800497 0.022386104
-0.10208306 0.073958136 0.022304028
-0.10004994 0.073232427 0.022235215
-0.10080092 0.074550681 0.022270799
-0.099328004 0.074234612 0.022045076
-0.097021773 0.073282398 0.021917313
-0.097167909 0.074181952 0.021779269
-0.095711045 0.073863953 0.021382511
-0.093851678 0.073224932 0.020881027
-0.093892284 0.074070573 0.020557284
-0.093262427 0.074400365 0.020117313
-0.092065543 0.074280158 0.019943804
-0.091320843 0.074526206 0.019728661
-0.088765711 0.073283315 0.019424826
-0.088900968 0.074258454 0.019367337
-0.087977216 0.074361689 0.019421011
-0.086576618 0.074059516 0.019323766
-0.085309193 0.073865272 0.019259661
-0.084814362 0.074343458 0.018969923
-0.082751006 0.073441513 0.019028097
-0.084184825 0.075659782 0.018925369
-0.081478715 0.074166521 0.019048393
-0.079984583 0.073752016 0.018808246
-0.079353422 0.0741328 0.01846084
-0.079304799 0.075075209 0.018220872
-0.076865435 0.073749267 0.017925799
-0.077118993 0.075006142 0.017092377
-0.0759928 0.074937351 0.016650558
-0.07484708 0.07484708 0.016641527
-0.074573122 0.075638451 0.0162929
-0.072043106 0.07413131 0.016003609
-0.071305484 0.074451312 0.016095877
-0.071066715 0.0753095 0.016048461
-0.069086984 0.074320845 0.015991479
-0.068297744 0.074602149 0.015812725
-0.067671187 0.075072721 0.015488356
-0.065734334 0.074081548 0.015404791
-0.065590635 0.075111851 0.015610278
-0.065324023 0.076032877 0.015646458
-0.062825814 0.074343875 0.015680403
-0.06290473 0.075698905 0.015499562
-0.061315369 0.07505846 0.015247822
-0.060038175 0.074784391 0.015013635
-0.060050495 0.076135449 0.014403254
-0.057891641 0.07473284 0.014099717
-0.057390984 0.075458512 0.014030069
-0.056683745 0.075934827 0.013750672
-0.055513971 0.075797923 0.013455361
-0.054153241 0.075389802 0.013132334
-0.053488772 0.075954057 0.012880862
-0.051847439 0.075125881 0.012724012
-0.051113121 0.075604826 0.012526304
-0.050149377 0.075757571 0.012180179
-0.04825905 0.074486785 0.012180179
-0.048221707 0.076083131 0.011593252
-0.047188941 0.076145791 0.011535496
-0.045684349 0.075432293 0.011197805
-0.045072224 0.076193519 0.010887742
-0.043858182 0.075949527 0.010641456
-0.042906411 0.076158881 0.010248214
-0.042025473 0.076507911 0.010137022
-0.040225938 0.075158991 0.010112852
-0.03913416 0.075095274 0.01002878
-0.038420681 0.075774126 0.0097192228
-0.037062038 0.075182989 0.0097192228
-0.035931267 0.075032935 0.0097339749
-0.035537101 0.076458611 0.0096852779
-0.034007303 0.075453706 0.0091906786
-0.033320121 0.076313823 0.0091179609
-0.032378737 0.076629676 0.0088235736
-0.030763173 0.075316735 0.0086223781
-0.030264264 0.076741524 0.0082981884
-0.029007087 0.076277889 0.0078245401
-0.027691087 0.075617969 0.0074693263
-0.026799427 0.07611037 0.0073007345
-0.025534198 0.075538665 0.0071225464
-0.024450308 0.075477034 0.006965816
-0.023598814 0.076159805 0.0069564879
-0.02234146 0.075535409 0.0070570707
-0.021371365 0.075868346 0.0068852901
-0.020662982 0.077214293 0.0066631734
-0.019084262 0.075276814 0.0066599548
-0.018228862 0.076132305 0.0063255131
-0.017268671 0.076629721 0.0062441826
-0.015940713 0.075452708 0.0062547922
-0.015248914 0.077333778 0.005946964
-0.013968183 0.076287769 0.0056831539
-0.012821228 0.075858936 0.0054236054
-0.011865179 0.076584339 0.0050225854
-0.010627562 0.075455688 0.004477948
-0.0096209971 0.075898975 0.0042587817
-0.11565532 0.07710354 0.013064146
-0.11030122 0.07422138 0.018868804
-0.10865922 0.073806264 0.020200461
-0.10987046 0.075339749 0.020674735
-0.10732873 0.074304499 0.021950066
-0.10668284 0.074574403 0.022450477
-0.10765014 0.07598833 0.022547036
-0.10420354 0.074283704 0.022525489
-0.10356314 0.074565455 0.022223473
-0.10358441 0.075334109 0.022309482
-0.1017783 0.07477589 0.022384852
-0.1006148 0.074683152 0.021774262
-0.1002718 0.075203851 0.021906376
-0.098010398 0.074281558 0.021914572
-0.09881755 0.075690039 0.021815479
-0.096796073 0.074938893 0.021513075
-0.095063142 0.074397236 0.021023095
-0.096328311 0.076215804 0.020714134
-0.094053917 0.07524313 0.02051276
-0.092003033 0.074429423 0.020280749
-0.093508787 0.076507188 0.019900978
-0.090869509 0.075202353 0.019724071
-0.08997608 0.075328805 0.019494712
-0.089752831 0.076025926 0.019437224
-0.087012611 0.074582234 0.019421011
-0.086921297 0.075401597 0.019393653
-0.086002082 0.075514019 0.019259661
-0.084793352 0.075371861 0.019259661
-0.084624276 0.076161847 0.019353688
-0.083023489 0.075666972 0.018966675
-0.080709182 0.074500777 0.019231915
-0.081158817 0.07588876 0.019260496
-0.079822339 0.075621158 0.019009829
-0.07835982 0.07522542 0.01884836
-0.078187615 0.076074429 0.017721742
-0.076495931 0.075448036 0.017608941
-0.075224869 0.075224869 0.016722649
-0.075218566 0.076277979 0.016525626
-0.07330396 0.075398356 0.016219109
-0.072706789 0.075867943 0.016112804
-0.071400225 0.075600237 0.016138971
-0.070719384 0.075996943 0.016003609
-0.068811551 0.07506714 0.015820622
-0.069023862 0.076457202 0.015593708
-0.066811718 0.075163178 0.015480489
-0.067301847 0.076916389 0.015521467
-0.065467253 0.076026484 0.015788376
-0.063341491 0.07476373 0.015836418
-0.063736014 0.07648322 0.015798032
-0.062681839 0.076493092 0.015601397
-0.060631219 0.075266331 0.015449107
-0.061096679 0.077174753 0.015197575
-0.059349157 0.076306053 0.014579594
-0.057690404 0.075521976 0.013939798
-0.05791267 0.077216886 0.013669401
-0.056296919 0.076478831 0.013426661
-0.054735061 0.075787008 0.013314217
-0.054084606 0.076354735 0.013051838
-0.053120498 0.076493509 0.012849361
-0.052152283 0.076631926 0.012770772
-0.051314436 0.07697165 0.012558788
-0.049758106 0.076225176 0.012180179
-0.048814449 0.07640522 0.012099952
-0.047669634 0.076271407 0.011882842
-0.047008611 0.076923177 0.011585742
-0.045957327 0.076951802 0.011256099
-0.044844825 0.076876834 0.011196703
-0.043193106 0.075851299 0.011092693
-0.043031346 0.077456422 0.010523677
-0.041727874 0.077036068 0.010445297
-0.040583313 0.076894693 0.010234863
-0.039559606 0.076980852 0.010262221
-0.038283665 0.076567329 0.010259688
-0.037516955 0.077177733 0.01031667
-0.036562398 0.077426255 0.010239094
-0.035211921 0.076826006 0.0098580718
-0.034308553 0.077194236 0.0096356273
-0.033339169 0.077432901 0.0093588829
-0.031894386 0.07654652 0.0092252791
-0.031161334 0.077366069 0.0087793171
-0.029793581 0.076612063 0.0086427629
-0.02885716 0.07695242 0.0082761943
-0.028076207 0.077749498 0.0077706873
-0.026626144 0.07668329 0.0073444247
-0.025836613 0.077509835 0.0071775615
-0.024862818 0.077831425 0.0070020556
-0.02353853 0.077035189 0.0068458915
-0.022393486 0.076777659 0.0069789886
-0.021802083 0.078487493 0.0069487989
-0.020451318 0.077499732 0.0066631734
-0.019223858 0.076895431 0.00664258
-0.018514542 0.078414522 0.0062672794
-0.017006958 0.076531306 0.0062441826
-0.016169505 0.077613622 0.006277293
-0.015156675 0.077948608 0.005790323
-0.013783579 0.076339819 0.0056583881
-0.013040987 0.078245915 0.0054438114
-0.01189502 0.077858314 0.0048756301
-0.010708753 0.077103019 0.0045185983
-0.11506947 0.077778436 0.012246162
-0.110287 0.075242542 0.018876791
-0.11004819 0.075787909 0.020200461
-0.10886785 0.075689085 0.021734238
-0.10739332 0.07538186 0.02191332
-0.10798046 0.076529846 0.022309482
-0.10510133 0.075219586 0.02253598
-0.10506596 0.075938769 0.022459358
-0.10485422 0.076543577 0.022212416
-0.10169514 0.07498733 0.022170097
-0.10122748 0.075404152 0.022108674
-0.10211249 0.076847553 0.02177611
-0.099927492 0.075986534 0.021686226
-0.09886305 0.075968452 0.021801412
-0.097463414 0.075689681 0.021728992
-0.095907375 0.075282134 0.021685272
-0.096557513 0.076616287 0.021381736
-0.095265321 0.076421633 0.021309018
-0.093292452 0.075670548 0.020762652
-0.093513429 0.076702036 0.020265043
-0.091127321 0.075594261 0.019944072
-0.090882428 0.076257676 0.019836217
-0.090251215 0.076608591 0.019611388
-0.088866673 0.076320797 0.019502491
-0.087928362 0.076413937 0.019406617
-0.087128602 0.076631181 0.01933673
-0.084987022 0.075659186 0.019364119
-0.084376365 0.076042898 0.019202769
-0.083246611 0.075962536 0.01907596
-0.082481347 0.076216951 0.018910766
-0.081731886 0.076492667 0.019095719
-0.080888465 0.076686472 0.018942028
-0.078677163 0.075571485 0.018833458
-0.079618454 0.077495299 0.018692106
-0.077608533 0.076559767 0.017691016
-0.076161735 0.076161735 0.017634124
-0.07613273 0.077190138 0.016640872
-0.074460737 0.076558225 0.016485959
-0.072978921 0.0761066 0.016396642
-0.073218517 0.077463068 0.016192943
-0.071574934 0.0768378 0.016138405
-0.070566252 0.076885626 0.015853524
-0.070360914 0.077823438 0.015572309
-0.068690181 0.077144362 0.015464962
-0.067871526 0.077415965 0.015312046
-0.066563472 0.077129111 0.015232354
-0.064946525 0.076469302 0.015553623
-0.064595304 0.077302583 0.015790194
-0.063502148 0.077260949 0.015609413
-0.062399235 0.077205837 0.015499562
-0.061951857 0.077973887 0.015159011
-0.060135856 0.0770161 0.014939815
-0.058591507 0.076378219 0.014009833
-0.058554824 0.077718228 0.013721019
-0.057110652 0.077205144 0.013721019
-0.056436568 0.07773339 0.013516366
-0.055605605 0.078061715 0.013368577
-0.053961083 0.077238418 0.012898624
-0.052853446 0.077166036 0.012848407
-0.052328169 0.077958301 0.012806654
-0.050417252 0.076676242 0.012842655
-0.050372314 0.078237854 0.01245901
-0.048853628 0.077528588 0.012111455
-0.047796536 0.077536605 0.01189509
-0.046935748 0.077870682 0.011830032
-0.045960478 0.078025937 0.01150775
-0.044040974 0.076547414 0.011133909
-0.044228993 0.078749187 0.010845482
-0.042637762 0.077813923 0.010541916
-0.041383717 0.077461839 0.010558784
-0.040874321 0.078521729 0.010430634
-0.039652914 0.078234129 0.010271639
-0.038350899 0.077767104 0.010169834
-0.03766587 0.078560248 0.01018104
-0.036131866 0.077577241 0.010262221
-0.035234064 0.077942021 0.010166347
-0.034240019 0.078110047 0.0096852779
-0.032925989 0.077535398 0.0096259117
-0.032262739 0.078506 0.0094538629
-0.031010659 0.078061312 0.0092614889
-0.029691769 0.07741069 0.0091025233
-0.029132212 0.078764871 0.0086837113
-0.027906746 0.078353561 0.008273989
-0.026559129 0.077552661 0.0076805353
-0.025787955 0.078438371 0.0074163377
-0.024762414 0.078593753 0.0070570707
-0.023720626 0.078709356 0.0070570707
-0.022660449 0.078772038 0.0071787536
-0.021543309 0.078633085 0.0071210563
-0.020308029 0.078025587 0.0067817271
-0.019435491 0.078821726 0.0066532195
-0.018063234 0.077565663 0.0066184998
-0.017287213 0.078872912 0.0064831376
-0.016136346 0.078530222 0.0062843859
-0.015058552 0.078519598 0.0060568452
-0.014013699 0.078692317 0.0056583881
-0.012916553 0.078575701 0.0054833293
-0.011791527 0.078252867 0.0050910711
-0.010925337 0.079754964 0.0045729578
-0.0097065307 0.078730755 0.0040121973
-0.11480266 0.078661084 0.010187566
-0.11108499 0.076825134 0.018925816
-0.10925208 0.07627032 0.020382136
-0.10858477 0.076526411 0.020947963
-0.10774124 0.076662034 0.022222072
-0.10618125 0.076285563 0.022276998
-0.10488537 0.076093309 0.022624016
-0.10569202 0.077437721 0.02245602
-0.1022484 0.07566382 0.022172332
-0.10301939 0.077004388 0.022057384
-0.10315007 0.077888831 0.022108674
-0.10058734 0.076736741 0.021942437
-0.10018796 0.077228218 0.021774262
-0.097956099 0.076302648 0.021756887
-0.097048901 0.076400198 0.021778613
-0.097073644 0.077241398 0.021707743
-0.095833406 0.077083394 0.021309018
-0.094325162 0.076703973 0.021295279
-0.094501659 0.07770136 0.020762652
-0.092942066 0.077277683 0.020265043
-0.091774523 0.077174038 0.02005741
-0.091027461 0.077425659 0.019840002
-0.089582235 0.077082388 0.019519985
-0.088429749 0.076985903 0.019431889
-0.088324964 0.077810086 0.019245237
-0.086257629 0.076904394 0.019110024
-0.085172452 0.076862946 0.018927842
-0.085931182 0.078505039 0.018883288
-0.0830651 0.076835223 0.018951476
-0.083417848 0.078138247 0.018700123
-0.082923219 0.078670748 0.018688142
-0.079774149 0.076666065 0.018342137
-0.080040932 0.077934593 0.017917961
-0.07977441 0.07871075 0.017681986
-0.077409282 0.077409282 0.017613053
-0.077486016 0.078547463 0.01737377
-0.074956439 0.077038571 0.016485959
-0.073787004 0.076904774 0.016365021
-0.074432366 0.078685649 0.016190618
-0.071873501 0.077081725 0.016121149
-0.07116197 0.077440977 0.016068786
-0.070749775 0.078141548 0.015772611
-0.06868206 0.07700716 0.015663236
-0.068314061 0.077772938 0.015262991
-0.067061208 0.077539526 0.015276998
-0.066075444 0.07761243 0.015063912
-0.066079617 0.078869224 0.015728295
-0.06442979 0.078160733 0.015717924
-0.062705792 0.077337153 0.015600294
-0.063131779 0.079182237 0.015449107
-0.061587494 0.078577146 0.015143424
-0.060102884 0.078028314 0.014957994
-0.059294421 0.078353345 0.014257431
-0.057659999 0.07757891 0.013828158
-0.056954123 0.078048244 0.013828158
-0.0563678 0.078702219 0.013779104
-0.054962769 0.078216255 0.013669401
-0.05414683 0.078565992 0.013084769
-0.053336155 0.078937508 0.012906492
-0.051651876 0.078004882 0.012898415
-0.051378369 0.079208322 0.012942433
-0.050159868 0.078975119 0.012508065
-0.049026784 0.078869171 0.012183487
-0.048169781 0.079212524 0.011922836
-0.047054149 0.079136528 0.011892408
-0.045473654 0.078256987 0.011555195
-0.044965971 0.079225756 0.011392087
-0.043881793 0.079201281 0.010958403
-0.042287234 0.078231387 0.010695428
-0.041281704 0.078329392 0.010704041
-0.040060066 0.078011706 0.010505646
-0.039142761 0.078285523 0.010298461
-0.038622104 0.079389885 0.010308653
-0.037254095 0.07876581 0.010393977
-0.036184996 0.078755587 0.010419458
-0.035488695 0.079580717 0.010262221
-0.033999193 0.078623138 0.0098456442
-0.033189442 0.079226412 0.0096259117
-0.032026041 0.078997575 0.0093465447
-0.031081937 0.079312526 0.0093465447
-0.030253118 0.079954669 0.0091179609
-0.0292324 0.080118425 0.0086427629
-0.027489904 0.078240506 0.0085356236
-0.027142832 0.080342785 0.0076411963
-0.025645815 0.079074599 0.0072317421
-0.024700506 0.079471193 0.0069381595
-0.023840517 0.08019083 0.0069381595
-0.02235868 0.078787729 0.0069958568
-0.02146549 0.079422317 0.0069487989
-0.020410545 0.079493709 0.0067706108
-0.019150857 0.078731306 0.0066705942
-0.01818558 0.079160757 0.0063366294
-0.017050441 0.078858294 0.0064430833
-0.015955726 0.078714915 0.006277293
-0.015134922 0.079998881 0.0060284138
-0.014125896 0.080408946 0.0057530403
-0.012651194 0.0780157 0.0055968165
-0.011997928 0.080713339 0.0053366423
-0.010793413 0.07987126 0.004530102
-0.0096498895 0.079343542 0.0042587817
-0.11802006 0.081958368 0.0069955587
-0.11133593 0.078039207 0.018850684
-0.10840072 0.076698631 0.020191133
-0.11005618 0.07861156 0.020869225
-0.10715224 0.07727325 0.022431016
-0.10663305 0.077645428 0.02245602
-0.10660205 0.078383863 0.022663891
-0.10353816 0.076884776 0.022691995
-0.10368911 0.077766836 0.022604048
-0.10364438 0.078518465 0.022096723
-0.10092497 0.0772385 0.021879405
-0.1013136 0.078335255 0.02188921
-0.099366896 0.077630386 0.021617085
-0.098862402 0.078049265 0.021687061
-0.098785892 0.078818537 0.021572858
-0.097162537 0.078356884 0.021543592
-0.095001832 0.077447146 0.021264315
-0.094997928 0.078295 0.021254927
-0.094071388 0.078392826 0.021040708
-0.091172196 0.076830506 0.020317286
-0.093095951 0.07934314 0.020067334
-0.089682996 0.077312931 0.019875824
-0.089195698 0.077786952 0.019618899
-0.08961831 0.079074979 0.019530803
-0.087818466 0.078409344 0.019461751
-0.087019697 0.078632258 0.019381672
-0.086108766 0.078758024 0.0193443
-0.084860854 0.078574874 0.019175202
-0.084214643 0.078951232 0.019131869
-0.082861125 0.078665629 0.01886946
-0.080568738 0.077469945 0.018726587
-0.081326492 0.079214118 0.018681914
-0.079979271 0.078926913 0.018311441
-0.078546189 0.078546189 0.018201649
-0.078466393 0.079526752 0.017637879
-0.076870896 0.078976944 0.017360419
-0.076321676 0.079501756 0.016751736
-0.075418934 0.079667896 0.016404569
-0.074048407 0.079337582 0.016306669
-0.071923606 0.07817784 0.016144007
-0.07240504 0.079858504 0.0160487
-0.070540495 0.078963242 0.016119033
-0.069428928 0.078896515 0.015940875
-0.069018818 0.079637103 0.015734613
-0.067073457 0.078601703 0.015458465
-0.067083694 0.079861544 0.015301377
-0.066190153 0.080068737 0.015446544
-0.064184509 0.07891538 0.015610278
-0.063695602 0.079619497 0.015492648
-0.062747024 0.079763167 0.015269101
-0.060717233 0.07851366 0.014905512
-0.060539842 0.079657689 0.014684469
-0.059012223 0.079034232 0.014051467
-0.058317225 0.079523489 0.013826579
-0.057679653 0.080110632 0.013669401
-0.05616647 0.079480857 0.013629973
-0.055031177 0.079371892 0.013266951
-0.0545808 0.080265887 0.01292479
-0.053238157 0.079857238 0.012849361
-0.051462784 0.078769572 0.012808025
-0.050824188 0.079412796 0.012889296
-0.049877372 0.079591557 0.012183487
-0.049284421 0.080355033 0.012000948
-0.048169814 0.080283023 0.011922359
-0.046401396 0.079093292 0.011657834
-0.046145372 0.080486119 0.011600077
-0.044908397 0.080193572 0.011524945
-0.043001678 0.078661606 0.011392087
-0.043153502 0.080912821 0.011160761
-0.041475024 0.079759665 0.010953605
-0.0405728 0.080077894 0.01073727
-0.039964467 0.081009053 0.010406226
-0.038368456 0.079934292 0.010406226
-0.037158042 0.079624377 0.010504007
-0.036544491 0.080612846 0.01029861
-0.035159402 0.079907738 0.010277718
-0.034616828 0.081133194 0.0099898875
-0.033445064 0.080915481 0.0097039044
-0.031923849 0.079809621 0.009341538
-0.031031616 0.080254182 0.0093439817
-0.030191023 0.08086881 0.009129554
-0.028780134 0.079944819 0.0090933442
-0.028079389 0.080998242 0.0086723566
-0.026773252 0.080319755 0.0080364048
-0.025777902 0.080555946 0.0072867274
-0.024905495 0.081213571 0.0072600543
-0.023636287 0.08057826 0.0071646273
-0.022302143 0.079650514 0.0072600543
-0.021880856 0.082053214 0.0072706938
-0.020446882 0.080711372 0.0069683492
-0.019345945 0.080608107 0.0068297982
-0.01859884 0.082053706 0.0066532195
-0.017057154 0.079955414 0.0064831376
-0.01635821 0.081791051 0.0065291822
-0.015152439 0.081173785 0.0061159432
-0.013702161 0.079050928 0.005697906
-0.013037288 0.081483051 0.0054568648
-0.011905545 0.08117418 0.0051164329
-0.010653156 0.07989867 0.0047953129
-0.009798158 0.081651323 0.0042587817
-0.11794481 0.082998201 0.0046865046
-0.11088555 0.078759827 0.01880759
-0.11126105 0.079772078 0.019704998
-0.10796881 0.078148857 0.020826191
-0.10769192 0.07869795 0.022167593
-0.10751456 0.07933113 0.02231586
-0.10579178 0.078825243 0.022499323
-0.10402223 0.078274161 0.022588462
-0.10543054 0.080127217 0.02238673
-0.10239542 0.078606583 0.021996379
-0.10165204 0.078832194 0.021668702
-0.10045596 0.078707762 0.021180868
-0.098484419 0.077966839 0.021531701
-0.098997034 0.07919763 0.021668226
-0.097141065 0.078539588 0.021595806
-0.09612114 0.078550614 0.021551341
-0.096627101 0.079822391 0.021242708
-0.094015069 0.078518078 0.021242708
-0.093088232 0.078607835 0.021071672
-0.093408659 0.079764701 0.020491332
-0.091334485 0.078879781 0.02033487
-0.090877302 0.079387069 0.019953996
-0.091132686 0.080535859 0.01970759
-0.088582322 0.079203017 0.019563854
-0.086912744 0.078635335 0.019461751
-0.08765395 0.080261447 0.019505382
-0.085618421 0.079353653 0.019704193
-0.085194871 0.079935931 0.019325703
-0.083632231 0.079450622 0.019329071
-0.082467027 0.079335377 0.019147187
-0.082772799 0.080650419 0.019048393
-0.080597289 0.079550572 0.01862821
-0.079013176 0.079013176 0.018332124
-0.079320163 0.080377758 0.018120497
-0.077289104 0.079377994 0.017725766
-0.075984702 0.079107359 0.01744619
-0.076270975 0.080508262 0.01701957
-0.074405149 0.079644948 0.016508222
-0.07319738 0.079471447 0.016507566
-0.072649755 0.080020025 0.016344905
-0.071416713 0.079818681 0.0160487
-0.070200302 0.079630196 0.016119033
-0.070131823 0.080757856 0.015940875
-0.068669021 0.080289938 0.015817672
-0.067850344 0.080572277 0.015458405
-0.066334039 0.080022015 0.015359402
-0.064346857 0.078876786 0.01547578
-0.064481162 0.080337189 0.015662283
-0.062970258 0.079762325 0.015501767
-0.062022969 0.079893991 0.015392631
-0.062096965 0.081368439 0.01508683
-0.060424875 0.080566503 0.014652997
-0.058616951 0.079551578 0.014371037
-0.058793958 0.081242561 0.013785601
-0.056874599 0.08004573 0.013695568
-0.056446709 0.080942452 0.013702065
-0.055602863 0.081265725 0.013536811
-0.053704489 0.080030218 0.012898624
-0.052548345 0.07987348 0.012775064
-0.052069157 0.08076033 0.012832105
-0.050867032 0.080539465 0.012942433
-0.050019968 0.080883354 0.012111455
-0.049095225 0.081113853 0.011942655
-0.047328249 0.079932153 0.011877209
-0.046899367 0.081008002 0.011857778
-0.045614816 0.080621541 0.011585742
-0.044632882 0.080764264 0.01150775
-0.044020858 0.081599638 0.011273682
-0.042552173 0.080849133 0.011089116
-0.041149322 0.080188423 0.010759711
-0.040506877 0.081013754 0.010195583
-0.039606482 0.081353851 0.010276169
-0.038381185 0.081026956 0.010276169
-0.037951745 0.082409509 0.010298461
-0.03608752 0.080666222 0.010203481
-0.034983888 0.080568962 0.010135293
-0.034257174 0.081360787 0.009893328
-0.032763317 0.080322973 0.0098481476
-0.032002583 0.081073217 0.0092402697
-0.03113885 0.081605263 0.0092402697
-0.029531417 0.080156706 0.0090116858
-0.029107608 0.081932522 0.0089673698
-0.028209649 0.08245898 0.0083456635
-0.026663942 0.081058383 0.0080364048
-0.025860922 0.081892923 0.0074187517
-0.024564043 0.081168137 0.0072396994
-0.023520272 0.081251852 0.0072353184
-0.022618651 0.081857979 0.0072650015
-0.021496363 0.081686184 0.0072706938
-0.020475106 0.081900425 0.0069381595
-0.019511659 0.082382567 0.0068297982
-0.018245457 0.081567921 0.0067902505
-0.017140381 0.081416808 0.0064933896
-0.01609575 0.081551798 0.0064497292
-0.014993839 0.081395127 0.0064497292
-0.014178504 0.082889721 0.0058144033
-0.012948721 0.08200857 0.005699873
-0.011794074 0.081486337 0.0053411424
-0.010839341 0.082378998 0.0048000813
-0.0096702641 0.081660017 0.004147917
-0.11649384 0.083055794 0.0041430891
-0.11187873 0.080510862 0.018801659
-0.11015652 0.080019362 0.019456148
-0.10786124 0.079098247 0.020756781
-0.10988377 0.081356257 0.022172332
-0.106027 0.079262905 0.022296667
-0.10537854 0.079550467 0.022496074
-0.10536818 0.0803302 0.022588462
-0.10378557 0.07991489 0.022551298
-0.10266764 0.079852603 0.0222615
-0.10310816 0.08101356 0.021745324
-0.10109577 0.080251284 0.021823168
-0.0999576 0.080174327 0.021617085
-0.099391356 0.080559313 0.021549106
-0.097279519 0.079686411 0.021642685
-0.097436212 0.080672994 0.021676779
-0.095751844 0.080140129 0.021374375
-0.094542772 0.079997726 0.021241188
-0.094494343 0.080845162 0.021050185
-0.092956252 0.080422826 0.020622343
