ply
format ascii 1.0
comment PCL generated
element vertex 1285
property float x
property float y
property float z
element camera 0
property float view_px
property float view_py
property float view_pz
property float x_axisx
property float x_axisy
property float x_axisz
property float y_axisx
property float y_axisy
property float y_axisz
property float z_axisx
property float z_axisy
property float z_axisz
property float focal
property float scalex
property float scaley
property float centerx
property float centery
property int viewportx
property int viewporty
property float k1
property float k2
end_header
-0.015106278 0.086321585 0.0054885447
-0.013985666 0.086065643 0.0043402612
-0.11642396 0.086516887 0.0073314607
-0.11424677 0.085685074 0.011702925
-0.11269438 0.08531069 0.014142126
-0.1099299 0.084003039 0.015228003
-0.11215409 0.086518861 0.015246242
-0.10986851 0.085570663 0.015747935
-0.10767598 0.084677227 0.015882134
-0.10837188 0.086060025 0.01583156
-0.10624603 0.085207209 0.015781343
-0.10514366 0.085166357 0.015747935
-0.10522614 0.086094111 0.015366435
-0.10332738 0.085403241 0.015503138
-0.10277522 0.085822605 0.015360504
-0.10220712 0.086237252 0.015560359
-0.10031825 0.085534506 0.015396446
-0.099605873 0.085830592 0.015547395
-0.09874513 0.086003818 0.015527815
-0.095745087 0.084297299 0.015070379
-0.097238086 0.086552575 0.015078425
-0.095604829 0.086044334 0.014991641
-0.093520492 0.085114151 0.015174985
-0.09427999 0.086780444 0.015012622
-0.091541775 0.085228547 0.014985889
-0.09112297 0.085825115 0.014585674
-0.091107287 0.086819887 0.014512837
-0.087674849 0.084543593 0.01451391
-0.087149151 0.085049167 0.014404505
-0.087610327 0.086541899 0.014009923
-0.085490547 0.085490547 0.014345348
-0.085581653 0.086651422 0.014387935
-0.084017701 0.08614473 0.013970137
-0.081980027 0.085133106 0.013479143
-0.082335502 0.086612672 0.013104141
-0.080739662 0.086051479 0.012593925
-0.079227306 0.085565485 0.012730449
-0.079053327 0.086531341 0.012519747
-0.078026965 0.086577855 0.012479514
-0.07644818 0.086004205 0.012338698
-0.076935276 0.087771229 0.01162377
-0.074258335 0.085927494 0.011521935
-0.073113345 0.085828707 0.011316925
-0.072908327 0.086846679 0.01121524
-0.071011029 0.085849151 0.011372566
-0.070406683 0.086408198 0.011278003
-0.06992659 0.087139294 0.011095256
-0.067603424 0.085560575 0.010920376
-0.0680454 0.087486938 0.011035085
-0.066341475 0.086671919 0.011030406
-0.064429708 0.085554197 0.010834336
-0.064648323 0.087275229 0.011059701
-0.063219689 0.086793132 0.011030406
-0.061507236 0.085898027 0.011222541
-0.061637904 0.087590709 0.010632426
-0.059485856 0.086042039 0.010766923
-0.058494847 0.086146951 0.0099162459
-0.058144018 0.08721602 0.0095861256
-0.056532476 0.086398691 0.0099048615
-0.055282649 0.086113356 0.010122716
-0.054940704 0.087258756 0.0098156333
-0.05320625 0.08619412 0.0095701814
-0.052442331 0.086690381 0.0098248124
-0.051070597 0.086181626 0.009973675
-0.050129525 0.086393438 0.0098905563
-0.049751215 0.087605394 0.0098349452
-0.048225693 0.086806245 0.0098200738
-0.04680568 0.086164996 0.0095840693
-0.046474416 0.087544829 0.0095093548
-0.045719679 0.088173665 0.0093048513
-0.043632798 0.08620137 0.0089342296
-0.043161709 0.087402463 0.0086850822
-0.041927826 0.087080866 0.0083738863
-0.040905073 0.087192394 0.007694453
-0.039921205 0.087395057 0.0075227618
-0.038674954 0.087018646 0.0071793795
-0.03751066 0.08681038 0.0071975291
-0.03648692 0.086924717 0.0075809658
-0.0356705 0.087554857 0.0073202848
-0.03448189 0.087282278 0.0075173974
-0.033453103 0.087409712 0.0074882805
-0.031880997 0.086078689 0.0074179471
-0.031354457 0.087576233 0.0074413121
-0.030074753 0.087001957 0.0069747865
-0.028889496 0.086668484 0.0071028769
-0.028275171 0.088088028 0.007206589
-0.02697707 0.087405704 0.0065384209
-0.025558144 0.086258732 0.0062412322
-0.025105994 0.088416763 0.0061681867
-0.023605421 0.086910866 0.0060031712
-0.022659432 0.08740066 0.0058202744
-0.021628425 0.08759512 0.0060314536
-0.020421233 0.087058939 0.0057420433
-0.019295914 0.086831614 0.0056904852
-0.018529342 0.088286862 0.0051572621
-0.017036943 0.086249523 0.0052178204
-0.016246848 0.087732978 0.0053935647
-0.015069718 0.087189071 0.0053066909
-0.013871751 0.086431675 0.0043809116
-0.01295404 0.087439768 0.0041937232
-0.11897515 0.089504242 0.0066550374
-0.11378294 0.086390749 0.011353254
-0.11338475 0.086892985 0.013701648
-0.11149136 0.08624804 0.014227629
-0.11123402 0.08686848 0.015186876
-0.10914984 0.086060457 0.015551746
-0.10991133 0.087502234 0.015774876
-0.10625901 0.085423917 0.015793562
-0.10647819 0.086447641 0.015977293
-0.10760158 0.088233292 0.01583156
-0.1043902 0.086464606 0.015559912
-0.10289254 0.086093761 0.01573208
-0.1030828 0.087142162 0.015585274
-0.10116056 0.086407982 0.015811205
-0.099757701 0.086106651 0.015738815
-0.099521317 0.086816475 0.016032934
-0.096678883 0.085243747 0.01539582
-0.098257758 0.087577574 0.014905483
-0.097012408 0.087417774 0.015046716
-0.094961748 0.086520702 0.014905483
-0.094936445 0.087469541 0.014891744
-0.092226766 0.085938588 0.014601409
-0.091773435 0.086499102 0.014570534
-0.092075609 0.08779303 0.014424145
-0.089757279 0.086589381 0.01431641
-0.088783748 0.086669847 0.014152199
-0.088862151 0.087791525 0.01408717
-0.086301357 0.086301357 0.013973087
-0.085625932 0.08668305 0.014094323
-0.084659725 0.086776227 0.013906837
-0.083273888 0.08643619 0.013372064
-0.083360046 0.087634929 0.013211221
-0.081835605 0.087149613 0.012929678
-0.079264395 0.085522115 0.012544394
-0.080287002 0.087780453 0.012460619
-0.078685351 0.087191872 0.012470216
-0.076655038 0.08610566 0.012377709
-0.076530524 0.087159768 0.01214844
-0.075302623 0.086969234 0.011569172
-0.074169487 0.086884268 0.011521935
-0.074110836 0.088073753 0.011316925
-0.070994511 0.08561103 0.01121524
-0.070590183 0.08639396 0.011208713
-0.070847943 0.088023208 0.011179715
-0.068731435 0.086707346 0.011225909
-0.068428501 0.087674014 0.011035085
-0.066670276 0.08677718 0.011149257
-0.065138087 0.086150371 0.011050135
-0.064921439 0.087271444 0.010915697
-0.064181231 0.087714352 0.011235386
-0.062561564 0.086949974 0.010916382
-0.062074598 0.087760642 0.011075437
-0.06119021 0.088028021 0.010831237
-0.059560042 0.087212928 0.010821104
-0.059030034 0.088008419 0.009665966
-0.057764325 0.087716199 0.0098156333
-0.055871103 0.086442091 0.010122716
-0.055915434 0.088174343 0.010077178
-0.054536387 0.087685958 0.0099151731
-0.053509679 0.087755874 0.0095196366
-0.052765787 0.088301934 0.0096075833
-0.050735578 0.08667329 0.0098172426
-0.050702196 0.088459149 0.0097479224
-0.049334005 0.087943226 0.0096390247
-0.047777578 0.087061368 0.0096437335
-0.047530413 0.088579409 0.0092587173
-0.046477489 0.088631496 0.0091608465
-0.044696808 0.087265201 0.0089173913
-0.044228189 0.088456377 0.008661896
-0.042674728 0.087483197 0.0078712702
-0.0420768 0.08846917 0.007938385
-0.041188098 0.088879585 0.0073256493
-0.039496835 0.087533526 0.0071974993
-0.038384143 0.087430559 0.0068287253
-0.037709087 0.08834701 0.0070719421
-0.036299191 0.087545112 0.0071975291
-0.03543115 0.088041045 0.0072250664
-0.034463227 0.088312022 0.0073121786
-0.032945689 0.087146662 0.0074320734
-0.032483857 0.088789217 0.0076082349
-0.03091759 0.087422155 0.0076360703
-0.02953784 0.086503677 0.0072713792
-0.029100733 0.088380001 0.0074179471
-0.028235054 0.089049019 0.0073394179
-0.026594272 0.087229215 0.0072067678
-0.026221182 0.089589044 0.0065384209
-0.024582118 0.087640591 0.0062170625
-0.023599161 0.087960519 0.0060521066
-0.022680951 0.088563718 0.0059089065
-0.021480652 0.088070676 0.0058172941
-0.020447547 0.088247314 0.005739063
-0.019509923 0.08887855 0.005618751
-0.018237228 0.087967806 0.0051511228
-0.017303664 0.088681288 0.0053935647
-0.016367851 0.089477591 0.0054245591
-0.014933649 0.08746852 0.0052436888
-0.013929396 0.08786235 0.0042397678
-0.012942696 0.088441767 0.0040087998
-0.11807138 0.089907572 0.0046289265
-0.11225294 0.086268455 0.011261314
-0.11347442 0.08802221 0.013438225
-0.11200941 0.087705493 0.01411137
-0.10949453 0.086552821 0.015158743
-0.11024846 0.08798676 0.015385121
-0.10773745 0.086817563 0.01575461
-0.10702491 0.087088898 0.01580143
-0.10844816 0.089120761 0.015952319
-0.10547527 0.087544471 0.015873909
-0.10445634 0.087574504 0.015606195
-0.10436923 0.088394359 0.01567933
-0.10204285 0.08731503 0.015773356
-0.10179386 0.088009275 0.015711635
-0.10017496 0.087521285 0.015836716
-0.097844757 0.086394839 0.016329825
-0.098625764 0.088020846 0.016184509
-0.097359508 0.087835215 0.0157426
-0.095057599 0.086700886 0.015564889
-0.094728053 0.087360315 0.015241534
-0.093671545 0.087356612 0.015241534
-0.092953607 0.087672159 0.015224755
-0.092502229 0.088249251 0.015020609
-0.090414152 0.087260172 0.014619559
-0.089148343 0.087050736 0.014415324
-0.089625858 0.088558882 0.014309794
-0.08779043 0.08779043 0.014080167
-0.08650513 0.087560073 0.013990968
-0.08676637 0.088908754 0.013884366
-0.08402881 0.087179899 0.013372064
-0.084012173 0.088265955 0.013425559
-0.083420917 0.088768415 0.013042033
-0.080852345 0.087152526 0.012880147
-0.081787102 0.089320123 0.012462944
-0.080041595 0.088579364 0.012424469
-0.078704193 0.088276327 0.012585819
-0.07767804 0.088318869 0.012245893
-0.076328717 0.08799006 0.01214844
-0.075191304 0.0878997 0.011549234
-0.074759983 0.088643983 0.011521935
-0.073608078 0.088543057 0.011396497
-0.072458133 0.088441543 0.01121524
-0.071779899 0.088921368 0.011094153
-0.069207229 0.087033339 0.011179715
-0.069284655 0.088471182 0.011225909
-0.068387926 0.088690594 0.010932595
-0.066597186 0.087739147 0.011149257
-0.06639117 0.088878497 0.010853767
-0.064763963 0.088121459 0.010397345
-0.063246392 0.087490849 0.010645986
-0.063232012 0.088953517 0.010474086
-0.061831944 0.088483639 0.010868013
-0.060004458 0.087374918 0.010632426
-0.06024662 0.089294098 0.010477901
-0.05826588 0.087928511 0.0099048615
-0.057496537 0.088374309 0.009825021
-0.057516493 0.090073004 0.010157019
-0.05562029 0.088778548 0.010077178
-0.05420769 0.088220365 0.0099516213
-0.053785849 0.089284509 0.0095163584
-0.052173655 0.088375792 0.0096773505
-0.051299997 0.088706248 0.0098975897
-0.050446071 0.089085616 0.0098078251
-0.048815943 0.088080943 0.009811461
-0.048723638 0.089868046 0.009811461
-0.046715781 0.088122956 0.0096382797
-0.045686256 0.088185102 0.0095271766
-0.045478139 0.08987347 0.0089662671
-0.044062838 0.089200377 0.0088838041
-0.042534985 0.088260099 0.0083738863
-0.042225387 0.089864291 0.0081188977
-0.040332083 0.088093758 0.0075401962
-0.039457664 0.088513143 0.0075833797
-0.038821355 0.089504801 0.0070492327
-0.037519854 0.088975653 0.0071974993
-0.036461409 0.089008734 0.0074026585
-0.036179636 0.090997271 0.0073172748
-0.033899646 0.087927207 0.0072924793
-0.03327645 0.089095004 0.0071413219
-0.032453589 0.089788266 0.0074444115
-0.030980099 0.088667177 0.0075780451
-0.030185416 0.089478202 0.0073447526
-0.029088015 0.089418709 0.0072402358
-0.027643308 0.088245951 0.0067225993
-0.027314158 0.090683006 0.0068768561
-0.025737651 0.089009382 0.0065550506
-0.024620727 0.08884871 0.0062974989
-0.023851154 0.08998391 0.0059233308
-0.022425601 0.088634521 0.0057197511
-0.021492718 0.089194782 0.0057767034
-0.020412531 0.08917053 0.0055753589
-0.019384343 0.089383364 0.005739063
-0.018215042 0.088932268 0.0054748356
-0.017329486 0.089896709 0.0052479506
-0.016057273 0.088850252 0.0054546893
-0.015100028 0.089521602 0.0054245591
-0.014090855 0.089964688 0.0043187141
-0.012886888 0.089134313 0.0040969253
-0.11836194 0.091214702 0.0041104853
-0.11425046 0.088861465 0.010535985
-0.11250096 0.088318512 0.012815148
-0.11086094 0.087852076 0.013754576
-0.11056589 0.088452719 0.014880627
-0.10810968 0.087319359 0.015226275
-0.10815765 0.088206239 0.015596211
-0.10875213 0.089560583 0.01575461
-0.1059396 0.088108182 0.015797794
-0.10456765 0.087836824 0.015632242
-0.10569888 0.089683898 0.015560687
-0.10311995 0.08838854 0.015803427
-0.10135252 0.087769195 0.015624136
-0.10200775 0.089256778 0.015836716
-0.099017553 0.087552369 0.016261101
-0.10017081 0.089514345 0.016260177
-0.098389477 0.088867918 0.016117066
-0.095824219 0.087491676 0.015789598
-0.096549474 0.089122593 0.015621722
-0.095212631 0.088865124 0.015430361
-0.093730621 0.088464864 0.015432566
-0.093176134 0.088940859 0.014989555
-0.091924801 0.088754982 0.014939785
-0.090672188 0.088563532 0.014870852
-0.090704679 0.08963757 0.014680505
-0.087496109 0.087496109 0.014345348
-0.088136598 0.089198485 0.013999134
-0.087662973 0.089801088 0.013884366
-0.085785843 0.088963099 0.013332814
-0.085576579 0.08985541 0.013202608
-0.083772659 0.089074723 0.013104141
-0.081789605 0.088081114 0.012965828
-0.0830575 0.09060818 0.012883097
-0.080797859 0.08930289 0.012398511
-0.078770317 0.08822275 0.012500316
-0.078153357 0.088714622 0.01234898
-0.07731878 0.088969551 0.012277544
-0.076503277 0.089253835 0.012277544
-0.076077349 0.090007007 0.011780411
-0.07427489 0.089129873 0.011649162
-0.073612899 0.089615703 0.011649162
-0.072867192 0.090012416 0.011593461
-0.071212307 0.089281097 0.011808068
-0.070845403 0.090166874 0.011685967
-0.070177898 0.09069144 0.01158914
-0.06754332 0.088650607 0.011253655
-0.067348644 0.089798197 0.01142928
-0.065744191 0.089072771 0.011076182
-0.064127453 0.088306658 0.011021346
-0.064469479 0.090257272 0.011262357
-0.063406646 0.090273865 0.011030406
-0.061472673 0.089029387 0.011205286
-0.061174326 0.090151638 0.011029959
-0.058945704 0.088418558 0.010970354
-0.05849098 0.089331679 0.010618836
-0.057528984 0.089489534 0.010221422
-0.056610003 0.089721516 0.010349602
-0.055032685 0.088898957 0.010294676
-0.054966193 0.090532549 0.010135412
-0.053377304 0.089673869 0.0096316636
-0.052127615 0.08936163 0.01003015
-0.051371425 0.089899994 0.010015935
-0.049992085 0.089347556 0.0099374652
-0.049389228 0.090189025 0.0097084343
-0.04833122 0.090218276 0.0097084343
-0.046507347 0.088786758 0.0093613267
-0.046510894 0.090858497 0.0091615915
-0.044849802 0.089699604 0.0088700056
-0.044306379 0.090774044 0.0087626874
-0.04294866 0.090192191 0.008661896
-0.041252278 0.088851064 0.0079823434
-0.040831406 0.090258896 0.0076889992
-0.03935454 0.08934544 0.0076232851
-0.038667277 0.090223648 0.0071974993
-0.037632335 0.090317607 0.0072832406
-0.036985181 0.091375157 0.0073330104
-0.035313714 0.089889452 0.0073869228
-0.034707118 0.091106191 0.0074081123
-0.033632517 0.091133267 0.0073943436
-0.032101795 0.089885034 0.0071975291
-0.031111414 0.090115815 0.0075540245
-0.030057041 0.090171129 0.0072655678
-0.028824342 0.089675732 0.0068792403
-0.028002707 0.090470284 0.0066829622
-0.026871702 0.090288915 0.0066829622
-0.025729116 0.090051912 0.0064044893
-0.024809895 0.09061005 0.0059297979
-0.023645246 0.090281852 0.0056598783
-0.022331821 0.089327283 0.0053836107
-0.021583321 0.090649948 0.0053505003
-0.020500882 0.090635478 0.0051718652
-0.019341404 0.090259895 0.005368948
-0.018532325 0.091571487 0.004834801
-0.017117621 0.089867517 0.004814297
-0.016435683 0.092039831 0.005091399
-0.015122547 0.090735279 0.0049439371
-0.013915562 0.089915939 0.0042538047
-0.11337437 0.08922983 0.010618001
-0.11291697 0.089700393 0.012698263
-0.113183 0.090759955 0.013526857
-0.11028902 0.089281596 0.014605612
-0.10941096 0.089422427 0.015103757
-0.11029851 0.09102305 0.015663564
-0.10709482 0.089245684 0.015766531
-0.10655584 0.08967571 0.015841007
-0.10631961 0.090371668 0.015669435
-0.10373735 0.089067422 0.0155873
-0.10319572 0.089506492 0.015609652
-0.10373023 0.090897627 0.015502483
-0.10063221 0.089101434 0.015531272
-0.10096803 0.09033981 0.01637435
-0.098325066 0.088910967 0.016519517
-0.097958177 0.089531668 0.01632154
-0.09790343 0.090454251 0.016124994
-0.096253976 0.089907557 0.015972465
-0.094768301 0.089503393 0.01590544
-0.094821319 0.090559691 0.015583068
-0.092925876 0.089757949 0.015468329
-0.092184879 0.090065688 0.015468329
-0.09207394 0.091003314 0.014955312
-0.08914683 0.08914683 0.014812797
-0.088229083 0.089279428 0.014451265
-0.088515893 0.0906488 0.014151394
-0.086618148 0.089787103 0.014164895
-0.08634124 0.090605006 0.013884366
-0.084935531 0.090244003 0.013302505
-0.083204433 0.089523762 0.013425559
-0.084491611 0.092074193 0.013017178
-0.081270322 0.089713991 0.012937844
-0.079015836 0.088372976 0.012753785
-0.080518149 0.091253899 0.012892097
-0.078975044 0.090714574 0.012424469
-0.076316506 0.088861682 0.012413859
-0.076837949 0.090711474 0.012280256
-0.074788332 0.089535333 0.012016505
-0.074156113 0.090046711 0.01167345
-0.074530371 0.091812775 0.01167345
-0.071839146 0.089798927 0.011763841
-0.071551889 0.090774789 0.011999547
-0.071074769 0.091535687 0.011699259
-0.069327772 0.090659402 0.011736512
-0.068765841 0.091329634 0.011446327
-0.067408241 0.090947621 0.011489332
-0.065342434 0.089582369 0.011233062
-0.065495543 0.091264285 0.011314452
-0.064894333 0.091933638 0.011489332
-0.062584624 0.090164289 0.011444539
-0.062134072 0.091058552 0.011435151
-0.06100931 0.090978801 0.01130569
-0.059849646 0.090843216 0.011093587
-0.059151188 0.091415472 0.010847449
-0.057561073 0.090605393 0.010733306
-0.056415711 0.090478033 0.010510027
-0.056177538 0.091828674 0.010390878
-0.053867288 0.089778811 0.010326892
-0.053244159 0.09051507 0.0099516213
-0.053137582 0.092177443 0.0098582804
-0.050882336 0.09010414 0.010110617
-0.050668951 0.091635339 0.009932816
-0.049419109 0.091317914 0.0098641515
-0.048304416 0.091241673 0.0098641515
-0.047021616 0.090837218 0.0097463429
-0.046143308 0.091213517 0.0094062388
-0.04449594 0.090051308 0.0093834996
-0.043919224 0.091052048 0.008924067
-0.042414282 0.090130351 0.0087810159
-0.041470122 0.090383604 0.0079904497
-0.040959887 0.091620795 0.0076390207
-0.03967987 0.09115646 0.0075644255
-0.038534522 0.0909843 0.0072832406
-0.037388816 0.09080141 0.007243365
-0.03613602 0.090340048 0.0073384643
-0.035578489 0.091641568 0.0073384643
-0.034573615 0.091836162 0.0075002015
-0.033147324 0.090887815 0.0073943436
-0.032703102 0.092658781 0.0071975291
-0.031214816 0.091491699 0.0075540245
-0.029871978 0.09068279 0.0073212087
-0.029258158 0.09210901 0.0071898997
-0.028036589 0.091658078 0.0070641637
-0.026843287 0.091267176 0.007168144
-0.026027678 0.092181362 0.0066829622
-0.024756305 0.091490693 0.0065815747
-0.023877041 0.092252202 0.0061555505
-0.022680813 0.09180329 0.0057197511
-0.021452101 0.091171429 0.0055039525
-0.02046111 0.091536544 0.0055619776
-0.019575115 0.09243805 0.0054299533
-0.018341634 0.091708168 0.004892081
-0.01723581 0.091565236 0.004814297
-0.016285233 0.092282988 0.0049060285
-0.014943834 0.090730421 0.0047690272
-0.014228602 0.093033165 0.0041169226
-0.1130899 0.090053074 0.01081273
-0.11242483 0.090360142 0.012802511
-0.11157508 0.090523176 0.013911068
-0.10967837 0.089831814 0.014725477
-0.11006749 0.091017343 0.015226275
-0.10792927 0.090115704 0.015743911
-0.10655361 0.089839317 0.015841007
-0.10735797 0.091413721 0.015851706
-0.10516229 0.090439573 0.015743911
-0.10350946 0.089917302 0.015697539
-0.1032538 0.090610489 0.015852392
-0.10151384 0.090001963 0.01583156
-0.10250009 0.091822997 0.015998095
-0.1010294 0.091458201 0.016459078
-0.09761107 0.089303747 0.016589403
-0.098618791 0.091195866 0.016544521
-0.097711347 0.091338865 0.016276509
-0.095492236 0.090245403 0.016156524
-0.095827743 0.091568723 0.01590544
-0.094298102 0.09111952 0.015846431
-0.09278819 0.09067937 0.015691042
-0.093463853 0.092389554 0.015518308
-0.090764567 0.090764567 0.015126169
-0.090770133 0.091838017 0.014811903
-0.08979965 0.091937736 0.014680505
-0.087279573 0.090434253 0.014345348
-0.086479753 0.090698272 0.013990968
-0.086530894 0.091872312 0.013837516
-0.083302386 0.08955007 0.013332814
-0.084314846 0.091785781 0.013603538
-0.083545581 0.092114352 0.013017178
-0.081758007 0.091314137 0.012937844
-0.081319839 0.092019811 0.012895256
-0.079189822 0.090804331 0.012960911
-0.078362972 0.091070481 0.012470216
-0.078056626 0.091957122 0.012230724
-0.076719552 0.091637254 0.012233466
-0.07477209 0.090569012 0.012016505
-0.075094126 0.092258506 0.011649162
-0.073556393 0.091678984 0.0115695
-0.072239302 0.091361471 0.011524945
-0.072150886 0.092611581 0.011763841
-0.069474012 0.090526745 0.011639178
-0.068788081 0.091011919 0.011631101
-0.068105824 0.091517195 0.011272669
-0.066175655 0.090335019 0.01158914
-0.066705748 0.09252733 0.01111564
-0.065092355 0.091769546 0.011180997
-0.063591391 0.091147661 0.011386275
-0.062650777 0.091321476 0.011386275
-0.0620653 0.092027858 0.011339128
-0.060113814 0.090698034 0.011317015
-0.059627794 0.091571257 0.011051804
-0.058491096 0.091458805 0.010822386
-0.057126854 0.0909798 0.010672808
-0.057155035 0.092742138 0.010743082
-0.055285174 0.091433175 0.01037848
-0.053921647 0.090926699 0.010296345
-0.053584233 0.092164874 0.010121077
-0.052420538 0.092003398 0.010503531
-0.051791698 0.092793457 0.01031661
-0.05005886 0.091597065 0.010049492
-0.048920013 0.091459155 0.009919852
-0.048749343 0.093165405 0.009919852
-0.046870079 0.091609702 0.0099895895
-0.045388333 0.090776667 0.0097987056
-0.045036338 0.092217259 0.0093340278
-0.043804597 0.091882803 0.0088167489
-0.042297889 0.090940461 0.0086803734
-0.041969877 0.092548959 0.0078310072
-0.040548917 0.0917686 0.0075960755
-0.039273135 0.0912835 0.0075803399
-0.039006684 0.093182638 0.0074666739
-0.037548639 0.092262372 0.0075175166
-0.036329772 0.09189295 0.0075308681
-0.035883974 0.093515813 0.0075308681
-0.034202322 0.091918737 0.0079651773
-0.033567213 0.093121946 0.0078890324
-0.031748299 0.091011792 0.0079774261
-0.031116176 0.092275552 0.0079774261
-0.030126562 0.092531584 0.0077258348
-0.028804818 0.091748677 0.0076068044
-0.027675832 0.091543138 0.0076370537
-0.026924828 0.092621401 0.0074246228
-0.025531672 0.091488488 0.007042408
-0.024520559 0.091685563 0.0067225993
-0.023794157 0.093013532 0.0062070191
-0.022723019 0.093056172 0.0057197511
-0.021580497 0.092796139 0.0055956542
-0.020717697 0.09377484 0.0055649579
-0.018984109 0.090701856 0.0054299533
-0.01844771 0.093323708 0.004892081
-0.017322324 0.093107492 0.0047474802
-0.016028503 0.09189675 0.0049164891
-0.015143898 0.093026802 0.0047251582
-0.11462815 0.092339337 0.010859698
-0.11430728 0.092941426 0.0127258
-0.10938115 0.0897751 0.013911068
-0.11146748 0.092358768 0.014725477
-0.10969579 0.091764748 0.015265137
-0.10776974 0.091028802 0.015758246
-0.10846554 0.092514724 0.01591289
-0.10547113 0.090851367 0.015923589
-0.10511106 0.091446616 0.01578337
-0.10442218 0.091764942 0.015797794
-0.10288538 0.091337025 0.015940279
-0.10204909 0.091528565 0.015880525
-0.10058437 0.091154583 0.016274869
-0.10005359 0.091628022 0.016650707
-0.099828541 0.092394501 0.016882062
-0.097700417 0.091397159 0.016795725
-0.095978633 0.090762399 0.016353518
-0.096863732 0.092605978 0.016281635
-0.095916718 0.092719488 0.015850425
-0.093044251 0.090953372 0.015975624
-0.093634352 0.092570327 0.015655279
-0.091693744 0.091693744 0.015189171
-0.091130883 0.092190549 0.014987826
-0.090551652 0.092682272 0.014642745
-0.088691249 0.091858789 0.014533311
-0.087696724 0.091923073 0.014304072
-0.087342247 0.092667982 0.014112592
-0.085351638 0.091673985 0.013932914
-0.085506439 0.09298826 0.013450027
-0.084439248 0.092990056 0.013332814
-0.081486091 0.090888329 0.013174623
-0.082470208 0.093180619 0.012984633
-0.081087805 0.092824198 0.012960911
-0.078961253 0.091595046 0.013132036
-0.078640521 0.092455745 0.012470216
-0.077700704 0.092602201 0.012230724
-0.076182574 0.092053942 0.0122495
-0.075709954 0.092771351 0.011995018
-0.073835455 0.091766924 0.011697412
-0.073381625 0.092524663 0.01161775
-0.073458016 0.093983047 0.011649162
-0.072114609 0.093641356 0.011888057
-0.070064105 0.092357233 0.011639178
-0.069522247 0.093052857 0.011433661
-0.066820681 0.090834357 0.011433661
-0.067451917 0.093147881 0.011631101
-0.06599272 0.092602685 0.011290252
-0.064002588 0.091282383 0.011581212
-0.064949349 0.094176561 0.011581212
-0.063843846 0.094142616 0.011526912
-0.061650664 0.092475988 0.011581212
-0.060994942 0.093097545 0.011364877
-0.059164513 0.091916293 0.01120317
-0.058458183 0.092470214 0.011088073
-0.058204729 0.093774281 0.010822326
-0.056208413 0.092266642 0.010791957
-0.055469163 0.092804179 0.01060605
-0.055227038 0.094210826 0.010578275
-0.052894566 0.092036538 0.010161281
-0.052208327 0.092696421 0.010503531
-0.051350605 0.093072973 0.010463119
-0.050408933 0.093310155 0.010236621
-0.049878314 0.094335072 0.010055274
-0.048604537 0.093968764 0.010055274
-0.046736676 0.09241116 0.010221124
-0.046458259 0.093996942 0.010280937
-0.04502577 0.093267664 0.010244966
-0.043142922 0.091547176 0.009801209
-0.043360263 0.09430857 0.0091176331
-0.041758712 0.09315405 0.0088752806
-0.040861823 0.09355206 0.0078753829
-0.039927077 0.093882576 0.0078082681
-0.038497388 0.093035355 0.007694453
-0.037199017 0.092466131 0.0076490641
-0.036492839 0.093378738 0.0080503523
-0.035338361 0.093164764 0.0079119503
-0.034380551 0.093472131 0.0080424845
-0.033369485 0.093649834 0.0079902112
-0.031792607 0.092198558 0.0079788566
-0.031620707 0.094862118 0.0079788566
-0.029828126 0.092680246 0.0077390969
-0.029038822 0.093569539 0.0075536966
-0.028184159 0.094308533 0.0076311529
-0.026741482 0.093060352 0.0074985027
-0.025704114 0.093177415 0.0072883964
-0.024813056 0.093858078 0.0068067014
-0.023601277 0.09333232 0.0066479146
-0.022475142 0.093111299 0.0064708292
-0.021784814 0.094763942 0.0063779652
-0.020417525 0.093490772 0.0059370995
-0.019514337 0.094319306 0.0056566596
-0.018342057 0.093868181 0.0054200888
-0.017104777 0.093007214 0.005038023
-0.016306043 0.094575047 0.0051032603
-0.015148594 0.094137691 0.0049361289
-0.013859428 0.092751555 0.0040383637
-0.11435457 0.093177788 0.010019392
-0.11076201 0.09109398 0.012708187
-0.11108766 0.092223719 0.013911068
-0.11049224 0.09260302 0.014706224
-0.10806929 0.091443241 0.015103757
-0.1096323 0.093666427 0.015794069
-0.10663221 0.091996416 0.015906662
-0.10633026 0.092644185 0.015992045
-0.10621055 0.093465284 0.015715003
-0.10418733 0.092610955 0.015869677
-0.10268137 0.092203677 0.015969306
-0.10289802 0.093350783 0.015794307
-0.099772073 0.091457732 0.016360253
-0.099926896 0.09256386 0.016768485
-0.098562375 0.092271157 0.016920537
-0.097392701 0.092156529 0.016853929
-0.097101629 0.092879817 0.01632154
-0.096201904 0.093030408 0.016032845
-0.094706863 0.09260226 0.015655279
-0.09462934 0.09356609 0.015817434
-0.092906214 0.092906214 0.015296966
-0.091774665 0.09282954 0.01504308
-0.091511384 0.093639553 0.014642745
-0.088999644 0.092140809 0.014479876
-0.088690944 0.092914321 0.014024943
-0.08890745 0.094263315 0.01390934
-0.086058289 0.092355229 0.014112592
-0.085871898 0.093292922 0.013898402
-0.085023955 0.093526348 0.013388515
-0.083375886 0.092874408 0.013435364
-0.083758503 0.094496772 0.01326707
-0.081860818 0.093555219 0.013155758
-0.080094621 0.092741132 0.012960911
-0.080560088 0.094523832 0.013132036
-0.078210488 0.093007058 0.012555897
-0.07686536 0.092659608 0.012413859
-0.077144854 0.094288155 0.012146562
-0.075042538 0.09301047 0.012050718
-0.074328095 0.093441032 0.011888057
-0.074187204 0.094615564 0.011758983
-0.071219571 0.092166498 0.011591107
-0.071026616 0.09328869 0.011738926
-0.070975274 0.094633698 0.011294246
-0.068718441 0.0930342 0.01156038
-0.068744756 0.094524033 0.011350304
-0.067536198 0.094336264 0.011489332
-0.065911606 0.093551949 0.011250973
-0.065651447 0.094710283 0.011519253
-0.063625775 0.093317799 0.011489332
-0.062437542 0.093127176 0.011485636
-0.062337305 0.094580732 0.011366904
-0.061030965 0.094223246 0.011515588
-0.059970155 0.094238818 0.011261702
-0.058817767 0.094108425 0.011139035
-0.057412904 0.093561761 0.010900944
-0.056364246 0.093585916 0.010819733
-0.05596599 0.094711676 0.010807097
-0.053978048 0.09313859 0.010662228
-0.05292353 0.093145408 0.010268122
-0.052900016 0.095004112 0.010544032
-0.050850056 0.093225099 0.010632575
-0.049818497 0.093277186 0.010681123
-0.049299993 0.094313025 0.010292321
-0.047804315 0.093483992 0.010341585
-0.047030415 0.094060831 0.010627598
-0.045782328 0.093694061 0.010635167
-0.044651698 0.093555935 0.010474265
-0.04424062 0.094955474 0.0098682642
-0.042669293 0.093872443 0.0092848837
-0.041688565 0.094066508 0.0088752806
-0.041029956 0.095016733 0.0078712702
-0.039693549 0.094406269 0.0078631639
-0.038342912 0.093727119 0.0077419877
-0.038006287 0.095558666 0.0077161789
-0.036352862 0.094089761 0.0078995526
-0.035384681 0.094359152 0.007846266
-0.034241132 0.094163112 0.0080832839
-0.032984007 0.093632013 0.0079916418
-0.032353401 0.094903313 0.0080741644
-0.030908329 0.093790784 0.0079788566
-0.030023906 0.094360851 0.0076517165
-0.029137651 0.094967149 0.0076424778
-0.028164875 0.095327273 0.0075536966
-0.026526971 0.09337493 0.0075413883
-0.025864815 0.094837658 0.0072884858
-0.024496559 0.093725957 0.0068672895
-0.023562834 0.094251335 0.006796658
-0.022629555 0.094828613 0.006659627
-0.021611685 0.095091417 0.0066479146
-0.020310823 0.09407118 0.0062786639
-0.019579137 0.095720232 0.0060077608
-0.018119076 0.093792863 0.0059385598
-0.017472895 0.096100919 0.0054057837
-0.016236845 0.095256157 0.0052479506
-0.014987384 0.094206408 0.005099535
-0.014236772 0.096371993 0.0042397678
-0.012911892 0.094687209 0.0042088032
-0.11393768 0.093893081 0.0092355609
-0.11367745 0.094554134 0.012110114
-0.11277968 0.094692372 0.013975561
-0.10848213 0.091951519 0.014845639
-0.11147168 0.095394038 0.015265137
-0.10859095 0.093831018 0.015794069
-0.10628472 0.092738621 0.016002744
-0.10798178 0.095152251 0.016045928
-0.10543492 0.093837075 0.015955061
-0.10371158 0.093235657 0.016235977
-0.10382716 0.094292015 0.016492724
-0.10112749 0.09278708 0.016530663
-0.10127436 0.093889773 0.0168854
-0.10041672 0.094074607 0.016860753
-0.098076761 0.092859909 0.016956687
-0.0992494 0.094980605 0.016938657
-0.097464301 0.094286114 0.016381353
-0.095418602 0.093321487 0.016202033
-0.095878318 0.094812997 0.015655279
-0.093380734 0.093380734 0.016023576
-0.092628948 0.093681552 0.015655279
-0.092771828 0.094904505 0.015137255
-0.090488307 0.093644872 0.014737546
-0.089940466 0.094172955 0.014479876
-0.089566872 0.094898231 0.014031202
-0.088194251 0.094569735 0.013990372
-0.08675167 0.094157293 0.013993412
-0.086745873 0.09531337 0.013951719
-0.084578864 0.094093986 0.013872325
-0.084423132 0.095109604 0.013902396
-0.083314553 0.095064044 0.012981087
-0.080139063 0.09262827 0.012820095
-0.080720954 0.094528474 0.012681067
-0.080101848 0.095054187 0.012678355
-0.077329688 0.093004622 0.012597352
-0.077655941 0.09467642 0.012317479
-0.076370984 0.094403021 0.012227535
-0.075024948 0.094045356 0.01201728
-0.07412985 0.094250806 0.011900961
-0.073201507 0.09441933 0.01179114
-0.072297014 0.094624028 0.011758983
-0.071690686 0.095230907 0.012068808
-0.069961458 0.094341971 0.01179865
-0.069099598 0.094613291 0.011832327
-0.067971706 0.094523154 0.011736512
-0.066778697 0.094338156 0.011519253
-0.066895634 0.09602759 0.011127323
-0.065840237 0.09606199 0.011519253
-0.063568197 0.094292819 0.01140362
-0.063409813 0.095652089 0.011339128
-0.061727427 0.094719663 0.011366904
-0.060159326 0.093932979 0.011526912
-0.059780605 0.095008463 0.011051804
-0.058852203 0.09523356 0.011272103
-0.057615772 0.094959319 0.010904282
-0.056491442 0.09486299 0.010964602
-0.05500662 0.094145946 0.010851145
-0.054148838 0.094495028 0.010835916
-0.054290373 0.096636862 0.010551274
-0.052032724 0.094508417 0.010641664
-0.051899049 0.096229486 0.010690004
-0.049937095 0.094561733 0.010572553
-0.049195424 0.095182449 0.010236621
-0.048761841 0.096440077 0.01031661
-0.047227237 0.09552782 0.010649323
-0.045903541 0.095009647 0.010635167
-0.045155615 0.09568689 0.010243326
-0.043974709 0.095457286 0.0094180405
-0.042533275 0.094636537 0.0092990696
-0.042616542 0.097253129 0.0088752806
-0.040792309 0.095539883 0.0079956353
-0.039400823 0.094774947 0.0078712702
-0.039095543 0.096652873 0.007759124
-0.03732634 0.094915554 0.0077083707
-0.036493152 0.095526181 0.0078338683
-0.035695065 0.096268512 0.0077073574
-0.033769365 0.093921043 0.00807634
-0.033592269 0.096442319 0.0080960691
-0.032429039 0.096206143 0.0080741644
-0.03102125 0.095203139 0.0079452097
-0.029916707 0.095092386 0.0078579783
-0.028976431 0.095514901 0.0077706277
-0.027867459 0.095392451 0.0076380074
-0.027121987 0.096554264 0.0076162815
-0.025739998 0.095452487 0.0072883964
-0.024681874 0.095508114 0.0069298744
-0.023808036 0.096314326 0.0066696703
-0.02283361 0.096771009 0.0065791905
-0.021413649 0.095290735 0.0064982176
-0.020633388 0.096651137 0.0060254037
-0.019307677 0.095465735 0.005833745
-0.018193454 0.095248073 0.0056070387
-0.017302878 0.096247256 0.0053073168
-0.016056994 0.095271491 0.005228281
-0.015111074 0.096063249 0.0047955513
-0.014104761 0.096563362 0.0042088032
-0.012847976 0.095289148 0.0042088032
-0.11511107 0.095925897 0.0089625716
-0.11298024 0.095030107 0.012116134
-0.10962203 0.093075313 0.014089406
-0.11177412 0.095806397 0.014772207
-0.10872331 0.094087489 0.015176594
-0.10794229 0.094318509 0.015797704
-0.10924035 0.096388541 0.015851706
-0.10547148 0.093984485 0.015966773
-0.1055842 0.095025785 0.01578337
-0.10475855 0.09523505 0.016024828
-0.10172227 0.093418419 0.016538888
-0.10194126 0.094584681 0.016459525
-0.10113984 0.0948186 0.016754001
-0.098461047 0.093278892 0.016742557
-0.099591434 0.095353499 0.016920537
-0.097974382 0.094813921 0.016861856
-0.095460393 0.093385175 0.016329467
-0.097658508 0.096585341 0.016152829
-0.09480986 0.09480986 0.015424997
-0.093607455 0.094659232 0.016023576
-0.094465367 0.096612312 0.015603364
-0.091706932 0.094869249 0.015137255
-0.090016544 0.094203368 0.015087575
-0.091067977 0.096424922 0.014653087
-0.089011982 0.09536998 0.014619559
-0.086982846 0.094318748 0.014204413
-0.087783493 0.096347742 0.014196873
-0.085878886 0.095420986 0.014127076
-0.086268403 0.097051956 0.013956457
-0.083987534 0.095682003 0.014238864
-0.081986278 0.09459956 0.013332814
-0.082371302 0.096278146 0.013285965
-0.080230407 0.095009692 0.013195515
-0.079634853 0.095561832 0.012765765
-0.079065986 0.096161336 0.012313694
-0.077667169 0.095754042 0.012317479
-0.075829513 0.094786905 0.012455463
-0.076163925 0.09654583 0.012227535
-0.074062757 0.095223553 0.012080699
-0.073483363 0.095847867 0.011951625
-0.072957911 0.096561946 0.011807233
-0.070886455 0.095220618 0.012074292
-0.069777839 0.095151611 0.011918336
-0.069819868 0.096673667 0.011726916
-0.067236692 0.094551601 0.011832327
-0.067325532 0.096179329 0.011661172
-0.066288248 0.096224874 0.011250973
-0.064686075 0.09543848 0.011519253
-0.06391295 0.095869422 0.011190385
-0.062820882 0.095828466 0.010961324
-0.061315987 0.095145501 0.011371344
-0.060880207 0.096126653 0.011371344
-0.059178326 0.095108032 0.010999709
-0.058208518 0.095250309 0.011139035
-0.057888173 0.096480295 0.010783434
-0.056349285 0.095687471 0.010718763
-0.05458805 0.094479322 0.010663271
-0.055041716 0.097132444 0.010590076
-0.053222585 0.095800661 0.010496676
-0.051880948 0.09529154 0.011002362
-0.051613703 0.096775696 0.01082617
-0.050019179 0.095781408 0.01043278
-0.049117882 0.096100204 0.010213226
-0.048108187 0.096216373 0.01031661
-0.046648029 0.095416434 0.010649323
-0.04619991 0.096697487 0.010688812
-0.045400251 0.097286254 0.010454565
-0.043854445 0.096265852 0.009932965
-0.043079227 0.096928269 0.0094355941
-0.041591674 0.095980793 0.0093116164
-0.040372357 0.095618747 0.0084357858
-0.039726369 0.096631713 0.0080899596
-0.038714342 0.096785858 0.0079956353
-0.037329428 0.095989965 0.0078423321
-0.036471833 0.096543096 0.0080210567
-0.034973688 0.095382795 0.0078823864
-0.034455594 0.096906364 0.0080481172
-0.033464149 0.097153984 0.0080325603
-0.032036304 0.096108921 0.0080960691
-0.031687994 0.098342046 0.0079452097
-0.030136824 0.096868366 0.0076410472
-0.028813615 0.096045382 0.0076503158
-0.027939118 0.096712336 0.0075231194
-0.02695618 0.097042255 0.0074755847
-0.025680725 0.096302725 0.0072884858
-0.025093621 0.098192431 0.0069536567
-0.023607204 0.096574932 0.006659627
-0.022493357 0.096400104 0.0066586137
-0.021768287 0.097957298 0.0061406195
-0.020353707 0.096412301 0.0060480535
-0.019256761 0.096283816 0.0057615042
-0.018482868 0.097850487 0.0056212246
-0.017055904 0.095939472 0.0056419373
-0.016260685 0.097564124 0.0054520071
-0.015227888 0.097893573 0.005097568
-0.013919476 0.096365608 0.0042725205
-0.012995981 0.097469859 0.0041752458
-0.01194912 0.097765535 0.0044568777
-0.1155872 0.097392917 0.0090941191
-0.1104302 0.09391728 0.012325108
-0.11201364 0.096162654 0.014089406
-0.11055648 0.095815621 0.014814079
-0.1085245 0.094958946 0.015596598
-0.10934883 0.09660916 0.016104937
-0.1065366 0.095047362 0.01635316
-0.1063801 0.095847413 0.01635316
-0.10605626 0.096511193 0.016202122
-0.10377835 0.09539222 0.01658991
-0.10314399 0.095776565 0.016719311
-0.10306234 0.096687354 0.016499102
-0.1006214 0.095380709 0.016841352
-0.1018885 0.097598463 0.016783684
-0.099894628 0.096706502 0.016902894
-0.097228609 0.095137671 0.01669088
-0.097605184 0.096544258 0.01634559
-0.095838934 0.095838934 0.016117066
-0.09431693 0.095364891 0.015424997
-0.0945988 0.096724622 0.015623838
-0.092344888 0.095493019 0.015356839
-0.091467448 0.095672846 0.015102953
-0.091851838 0.097192064 0.01502952
-0.089397848 0.095708281 0.014550298
-0.088300601 0.095658988 0.014459848
-0.088824265 0.097385645 0.013996631
-0.086944468 0.096487157 0.01390934
-0.085536756 0.096096858 0.013965398
-0.085140593 0.09684743 0.013872325
-0.083224453 0.095866144 0.013941556
-0.083287731 0.097169027 0.01328364
-0.081730053 0.096590072 0.013139307
-0.079797685 0.095547229 0.012811631
-0.080755837 0.097983748 0.012320548
-0.079020463 0.097173817 0.011992693
-0.076652385 0.095552973 0.012030661
-0.077092819 0.097436763 0.012098461
-0.075013548 0.096144125 0.012077868
-0.074618921 0.0970046 0.012235284
-0.074100323 0.097726516 0.012101829
-0.071607463 0.095827639 0.011987925
-0.070802137 0.0961641 0.012316734
-0.070616841 0.097365655 0.012068808
-0.068775535 0.096285746 0.012041479
-0.068581201 0.097513899 0.012161463
-0.067556717 0.09758193 0.012096971
-0.065039627 0.095461391 0.011937499
-0.065319292 0.097443536 0.012123942
-0.064013414 0.097087018 0.011485636
-0.062096804 0.095776431 0.011366338
-0.062236302 0.097646609 0.011366904
-0.060968921 0.097336352 0.011366904
-0.059582539 0.096821629 0.011100113
-0.059146851 0.097861156 0.011139035
-0.057300508 0.096561968 0.010783434
-0.055991326 0.096136056 0.010590076
-0.056166355 0.098291129 0.010584563
-0.054332506 0.096946239 0.010560483
-0.053663585 0.097667724 0.010441869
-0.052614238 0.097712159 0.010854512
-0.051025063 0.096735023 0.010776162
-0.050181411 0.097159758 0.010395437
-0.049238555 0.097406708 0.010080099
-0.047678359 0.096416235 0.0099371076
-0.047772937 0.098803125 0.010266513
-0.046345688 0.098080412 0.010133743
-0.0443675 0.096129581 0.0097528398
-0.044432644 0.098618791 0.0095313787
-0.042592335 0.096897565 0.0094209909
-0.041585661 0.09703321 0.0090585649
-0.041068483 0.098348208 0.0082579255
-0.039692026 0.097620927 0.0079177618
-0.038265094 0.096725665 0.0081570148
-0.038049713 0.098929256 0.0078028738
-0.03647048 0.097612172 0.0078572929
-0.034704663 0.095700741 0.0077115893
-0.034477007 0.098043986 0.007894069
-0.032995965 0.09685912 0.0079148114
-0.032826804 0.09957464 0.0079397559
-0.031512797 0.098884985 0.007976681
-0.029318467 0.095285021 0.0077706277
-0.029241897 0.098556027 0.0077651739
-0.027925692 0.097739927 0.0076162815
-0.026621265 0.096901402 0.007486999
-0.025847871 0.098006517 0.007276088
-0.024587274 0.097280078 0.0069298744
-0.023789158 0.098400615 0.0067833662
-0.022528674 0.097624257 0.0067531466
-0.021384846 0.097301058 0.0066577792
-0.020456754 0.097977087 0.0061416328
-0.019536171 0.098766208 0.0060490668
-0.018107364 0.096927658 0.0060490668
-0.017408913 0.099013202 0.0054923296
-0.016140545 0.0979193 0.0053279996
-0.014947672 0.09715987 0.0051567256
-0.014161528 0.099130705 0.0043413341
-0.012941212 0.098137535 0.0041752458
-0.011686414 0.096678518 0.0041331947
-0.11297758 0.096240163 0.0088394284
-0.1132289 0.097355686 0.012152314
-0.11209076 0.097286329 0.013419867
-0.1097445 0.096157089 0.014747679
-0.11076357 0.097983167 0.015434414
-0.10818279 0.096629284 0.016029
-0.10745855 0.096923403 0.016602516
-0.10747371 0.097896844 0.0164693
-0.10515316 0.096740901 0.016532272
-0.10261559 0.095359944 0.016847849
-0.10451838 0.098119304 0.016856372
-0.10133764 0.096114062 0.016856372
-0.1011306 0.096916832 0.016904384
-0.10045549 0.097283214 0.016797245
-0.09801358 0.095928185 0.016920924
-0.098337173 0.097279787 0.016910821
-0.09760803 0.09760803 0.016389847
-0.094743982 0.095785126 0.016115546
-0.094915815 0.097025052 0.01551345
-0.094735786 0.097929128 0.015744984
-0.092675298 0.096887812 0.015388429
-0.092674144 0.098000251 0.015034467
-0.090453535 0.096764252 0.014550298
-0.090033837 0.097448394 0.014409512
-0.088479511 0.096906133 0.014256865
-0.087849714 0.097375587 0.013996631
-0.086593233 0.097153381 0.013936579
-0.086512037 0.098260596 0.013863951
-0.083794184 0.096363313 0.013932914
-0.084379427 0.09826465 0.013990968
-0.082656644 0.097492456 0.01344654
-0.081354372 0.097202629 0.013263106
-0.081474341 0.098626837 0.013263106
-0.079963684 0.098088786 0.012783229
-0.07806576 0.097054727 0.012548298
-0.078042783 0.098355278 0.012432605
-0.076175623 0.097335532 0.01244843
-0.074936561 0.097100899 0.012534559
-0.074595928 0.098040365 0.012534559
-0.072957285 0.09727639 0.012557864
-0.072590142 0.098210193 0.012397915
-0.072112456 0.099020086 0.012504697
-0.069688834 0.097142018 0.012108743
-0.068163015 0.096476883 0.012118846
-0.068961933 0.099132776 0.012303889
-0.06641075 0.096980773 0.012116462
-0.066564277 0.098772801 0.011979133
-0.065159075 0.098272711 0.012099355
-0.063062102 0.096695222 0.011155009
-0.06246978 0.097410508 0.011086881
-0.062356722 0.09891066 0.011114001
-0.060641188 0.097877011 0.011256605
-0.059554059 0.097838812 0.010820031
-0.058357269 0.097615801 0.011059642
-0.057098106 0.09727826 0.010783434
-0.057329517 0.099515393 0.010585338
-0.054922365 0.097170345 0.010560483
-0.054459825 0.098241255 0.010492504
-0.053210143 0.097906657 0.010413438
-0.052210189 0.098027304 0.010952145
-0.051629487 0.098956525 0.010699481
-0.050326534 0.098511517 0.010318011
-0.048454233 0.096908465 0.010080099
-0.048218954 0.098580971 0.010159194
-0.046754163 0.09775871 0.010213226
-0.045672741 0.097718425 0.010080099
-0.045522995 0.099717043 0.0094792843
-0.043797813 0.098278016 0.0091188252
-0.042588338 0.097953178 0.0088752806
-0.041657865 0.098269843 0.0083197057
-0.040223408 0.097382993 0.0079091787
-0.039449465 0.098090559 0.0077818036
-0.038730353 0.098977573 0.0077818036
-0.037728701 0.099172592 0.0076542199
-0.03589708 0.097133279 0.0076003969
-0.035671089 0.099446684 0.0076523721
-0.033764519 0.097072989 0.0078053772
-0.033514518 0.099462442 0.0075836182
-0.032348566 0.099202275 0.0077365935
-0.030954273 0.098199762 0.0077365935
-0.030192379 0.099203534 0.0075368285
-0.029054774 0.099001452 0.0075413883
-0.027503509 0.097320117 0.0075196624
-0.02684411 0.098786324 0.007378161
-0.025784047 0.098838851 0.0071663857
-0.024709055 0.098836221 0.00709638
-0.023596121 0.098674692 0.006796658
-0.022288397 0.097644411 0.0066686571
-0.021424301 0.098551787 0.0065478086
-0.020641912 0.099950314 0.0061766803
-0.019286212 0.098573975 0.006131351
-0.018290328 0.098982953 0.0061048269
-0.017127752 0.098484576 0.0056202114
-0.016068542 0.098553725 0.0057008564
-0.01516156 0.099633113 0.0052666664
-0.01396776 0.098848768 0.0046536326
-0.012770961 0.09791071 0.0041977167
-0.011955163 0.099988639 0.0040673018
-0.11600266 0.099891186 0.0084446967
-0.11313999 0.098336622 0.01227811
-0.11045432 0.09690804 0.014017493
-0.11256386 0.099699415 0.01500687
-0.10882034 0.097310498 0.015480161
-0.10891018 0.098336376 0.016157895
-0.10800271 0.098473057 0.016672939
-0.10628225 0.097863853 0.016602516
-0.10501791 0.097666658 0.016492724
-0.10476877 0.098419145 0.016701698
-0.10303746 0.097780451 0.016777098
-0.10180081 0.097602837 0.01674208
-0.10174979 0.098570108 0.016856641
-0.098242849 0.096174583 0.016813636
-0.10008489 0.099020161 0.016910821
-0.098339722 0.098339722 0.01648578
-0.095712215 0.096752569 0.016126364
-0.097438283 0.099579789 0.015926093
-0.095106311 0.098276518 0.01551646
-0.093281023 0.097473428 0.015855789
-0.094021842 0.099363998 0.01551345
-0.0921655 0.098521739 0.015228719
-0.091115884 0.098532297 0.015218735
-0.091014713 0.099580802 0.01502952
-0.088120103 0.097561546 0.014736295
-0.087426536 0.097959846 0.014416575
-0.086843655 0.098493405 0.014303029
-0.085649826 0.098338701 0.014314234
-0.085703969 0.099630862 0.014115989
-0.084132053 0.099041536 0.014049649
-0.081557006 0.097241044 0.013540208
-0.081738263 0.098722838 0.013582855
-0.080831945 0.098912776 0.013582855
-0.078764401 0.097667858 0.012829393
-0.078387603 0.098514147 0.012454718
-0.078150682 0.099561825 0.012494504
-0.076033995 0.098210581 0.012595952
-0.076093324 0.099671535 0.012534559
-0.073203728 0.097256385 0.012730539
-0.07327804 0.098766059 0.012817413
-0.072670922 0.099388167 0.012397915
-0.071571223 0.099345125 0.012504697
-0.069624469 0.098107211 0.012202471
-0.070932887 0.1014886 0.012060493
-0.067144781 0.097569764 0.012227923
-0.067148112 0.099123403 0.012011051
-0.065108575 0.097662859 0.011736512
-0.065324783 0.09959352 0.011702836
-0.064396337 0.099814318 0.010917813
-0.063504502 0.10010031 0.011014819
-0.061061163 0.097908415 0.011091709
-0.061081346 0.099659041 0.01110068
-0.059531864 0.098865412 0.010874838
-0.058966868 0.099707611 0.011110604
-0.057970367 0.099837855 0.010783434
-0.056777228 0.099627972 0.010585338
-0.054788537 0.09798719 0.010661453
-0.055037584 0.10036265 0.010584563
-0.053019244 0.098615795 0.010705888
-0.052843686 0.10029517 0.011118531
-0.051236283 0.099270299 0.010740161
-0.049838915 0.098617427 0.010597169
-0.049266923 0.099604867 0.010247678
-0.047921829 0.099038437 0.010203719
-0.046380624 0.098031774 0.010292321
-0.04611785 0.099743262 0.010159194
-0.045056574 0.099768132 0.0097524822
-0.043546259 0.098775655 0.0095337629
-0.042645581 0.099150985 0.0091221929
-0.041934978 0.099998802 0.0084270239
-0.040453225 0.099003941 0.008010745
-0.040130541 0.10086865 0.0078827143
-0.038453672 0.099338666 0.0079091787
-0.037569385 0.099827223 0.0077340603
-0.036567785 0.10002365 0.0076961517
-0.035587177 0.10029113 0.007668972
-0.034314539 0.099726632 0.0078452826
-0.033637598 0.10091279 0.0078452826
-0.031844012 0.098716438 0.0077583194
-0.031289581 0.10034245 0.0077365935
-0.030355075 0.10082222 0.0075482428
-0.028784484 0.099146552 0.0076380074
-0.028148068 0.10068347 0.0076087117
-0.026780531 0.099623576 0.0073007941
-0.02559777 0.09919136 0.007252574
-0.024842838 0.10045148 0.0069553554
-0.023472309 0.099223852 0.0067833662
-0.022588845 0.10003632 0.0067531466
-0.02148732 0.099916041 0.0064649582
-0.020417565 0.099938609 0.006216228
-0.019338664 0.099916436 0.0061193109
-0.018515358 0.1012899 0.0060320199
-0.017050952 0.099108659 0.0058114231
-0.016250258 0.1007516 0.0057461262
-0.015083448 0.10019719 0.0054707229
-0.013842806 0.099029303 0.0051106215
-0.013089524 0.10144381 0.0046024621
-0.011899629 0.10060596 0.0043917298
-0.11602937 0.10098852 0.0087066591
-0.11120049 0.09769015 0.012539953
-0.11340058 0.10056278 0.013394952
-0.10906333 0.097637646 0.01495561
-0.10857219 0.098132558 0.01542598
-0.10935158 0.099796586 0.016006112
-0.10772894 0.099279612 0.016701698
-0.1063548 0.098983675 0.016609788
-0.10702199 0.10060067 0.016601533
-0.10366844 0.098432653 0.016727328
-0.10323809 0.099024296 0.016739726
-0.10380396 0.10059353 0.016739726
-0.099953957 0.097871587 0.016886324
-0.10025149 0.099196211 0.016847104
-0.098400444 0.098400444 0.016979963
-0.096909568 0.097951606 0.01660946
-0.096738204 0.098841205 0.016261369
-0.096616842 0.09980201 0.015918791
-0.094064519 0.098245159 0.015516102
