ply
format ascii 1.0
comment PCL generated
element vertex 1295
property float x
property float y
property float z
element camera 0
property float view_px
property float view_py
property float view_pz
property float x_axisx
property float x_axisy
property float x_axisz
property float y_axisx
property float y_axisy
property float y_axisz
property float z_axisx
property float z_axisy
property float z_axisz
property float focal
property float scalex
property float scaley
property float centerx
property float centery
property int viewportx
property int viewporty
property float k1
property float k2
end_header
-0.027293636 0.037119344 0.013794214
-0.027015148 0.038271461 0.013620228
-0.025509626 0.037709881 0.013372868
-0.023990167 0.037075717 0.013013214
-0.023185611 0.03753861 0.012822717
-0.021731172 0.036942992 0.012633741
-0.020436091 0.036569849 0.012229204
-0.019420629 0.03668341 0.011731178
-0.018206447 0.036412895 0.011021823
-0.018385394 0.039068963 0.010211825
-0.016309034 0.036967147 0.0094502866
-0.014887354 0.036155004 0.0088232756
-0.0140288 0.036690708 0.0078416765
-0.013000948 0.036836021 0.0068983138
-0.011820847 0.036537167 0.0060049891
-0.010825885 0.036808006 0.0054054558
-0.0097214561 0.036725502 0.0044650137
-0.11749315 0.037384182 0.016177386
-0.11532293 0.037030298 0.019722432
-0.11142244 0.036109123 0.020301402
-0.11184115 0.03658355 0.021379948
-0.11050943 0.036488965 0.021535963
-0.10898475 0.036328249 0.022044778
-0.10846488 0.036502603 0.021991104
-0.10592306 0.035993274 0.021528542
-0.10524556 0.036113672 0.021543354
-0.10548323 0.036553591 0.021459788
-0.10295582 0.036034536 0.021128565
-0.10292558 0.036387831 0.020784378
-0.10361597 0.037005704 0.020830631
-0.10083604 0.036384139 0.020807922
-0.10066967 0.036702484 0.021494865
-0.099704981 0.036733411 0.021079242
-0.096708804 0.036008596 0.021138579
-0.097801946 0.036807183 0.021024346
-0.096345477 0.036653168 0.021119714
-0.093861766 0.036100678 0.020636529
-0.09467233 0.036817014 0.020558119
-0.093363807 0.036716104 0.020274192
-0.091569446 0.036419667 0.02012381
-0.092011631 0.037016172 0.020175129
-0.089907542 0.036590278 0.019832999
-0.089038521 0.036662918 0.019652963
-0.088944159 0.037060063 0.019451261
-0.086985908 0.036680803 0.019069225
-0.086272903 0.036823798 0.019013941
-0.085701078 0.03703133 0.018840164
-0.082629606 0.036150455 0.019043595
-0.084964357 0.037642438 0.019025534
-0.082039885 0.036812767 0.019025534
-0.081402302 0.037001047 0.018707067
-0.079923801 0.036807012 0.018273413
-0.078845158 0.036794405 0.017974347
-0.076104619 0.035995428 0.017734766
-0.077508822 0.03716176 0.017519683
-0.075959459 0.036924738 0.01714164
-0.075276427 0.037108097 0.017032176
-0.074289575 0.037144788 0.016683668
-0.072643466 0.036848132 0.016132802
-0.071469538 0.036785793 0.015887201
-0.071751855 0.03748231 0.015720338
-0.069965579 0.037102956 0.01553908
-0.068457268 0.036861606 0.015742809
-0.068086855 0.037234999 0.015978068
-0.066164099 0.036757831 0.015943766
-0.06589409 0.037198275 0.015607119
-0.064815156 0.037189022 0.015437335
-0.063343458 0.03695035 0.015033752
-0.062430788 0.037035212 0.01495263
-0.061558332 0.037147269 0.014898717
-0.060247313 0.036993966 0.014609337
-0.059561066 0.037225667 0.014432251
-0.058063775 0.036949676 0.013917148
-0.057209041 0.03707993 0.013609797
-0.056755196 0.037479848 0.013509244
-0.054308213 0.036553606 0.013054222
-0.054254778 0.037233669 0.013048589
-0.053264629 0.037285239 0.013141215
-0.05177195 0.036979966 0.013278425
-0.051839232 0.03779944 0.013699174
-0.050127484 0.037328977 0.013374865
-0.048292063 0.036743961 0.013585627
-0.047793258 0.037172534 0.013326019
-0.046874113 0.037286229 0.013223231
-0.045319762 0.036888178 0.013385743
-0.044835586 0.037362989 0.013413519
-0.043920442 0.037493058 0.013568908
-0.042871956 0.037512962 0.013556242
-0.041744277 0.037462812 0.013162613
-0.040175688 0.037003919 0.013042927
-0.039331116 0.037205108 0.013160974
-0.038538061 0.037467562 0.013533652
-0.037122045 0.037122045 0.013452768
-0.035935313 0.036992233 0.013601601
-0.035309125 0.037449073 0.013610065
-0.034242135 0.037452333 0.014006764
-0.033477023 0.037796639 0.01425451
-0.031238362 0.036444753 0.014476329
-0.029842397 0.036016684 0.014678627
-0.029003358 0.036254197 0.014751911
-0.027690815 0.0358955 0.015181243
-0.0266822 0.035918348 0.014801562
-0.026022248 0.036431145 0.014168262
-0.024817787 0.036192603 0.013988167
-0.023875039 0.036331579 0.013875753
-0.022920234 0.036464009 0.013740599
-0.021652017 0.036086693 0.01356867
-0.020879602 0.036539305 0.013338208
-0.019888742 0.036637157 0.012886345
-0.018839752 0.036632854 0.012758017
-0.017811539 0.036670815 0.01205644
-0.016732493 0.036602329 0.010359198
-0.016459428 0.038405333 0.0097356737
-0.01514679 0.037866972 0.0091670752
-0.013940562 0.037532281 0.0079218745
-0.01297121 0.037832696 0.0070148706
-0.011875094 0.03778439 0.0063967109
-0.01075252 0.037633821 0.0055538118
-0.0096936878 0.037697677 0.0044901371
-0.0087521328 0.038290579 0.0040088296
-0.11674748 0.038208261 0.014844507
-0.11243086 0.037133124 0.019448549
-0.11316038 0.037720125 0.02001667
-0.11163606 0.037559792 0.021255076
-0.10865054 0.036900185 0.02165702
-0.11006042 0.037735 0.022044778
-0.10777605 0.037307095 0.022003084
-0.10843997 0.037901346 0.021561861
-0.10637054 0.037542541 0.021324426
-0.10402779 0.037079211 0.021205962
-0.104614 0.037661038 0.021068484
-0.1042702 0.037916433 0.02074033
-0.10095211 0.037084449 0.020721883
-0.10114145 0.037537035 0.020830631
-0.10046159 0.037673097 0.021312654
-0.099201359 0.037592094 0.021334499
-0.099100985 0.037953567 0.021149129
-0.09642794 0.037326943 0.02094844
-0.095372252 0.037319575 0.020917654
-0.096219026 0.038064666 0.020828515
-0.094705828 0.037882328 0.020805031
-0.093138412 0.037673961 0.020589679
-0.093126774 0.038097318 0.020207912
-0.090613559 0.037495263 0.020318717
-0.089817122 0.037597865 0.019942105
-0.088944018 0.037670404 0.019942105
-0.088610813 0.03797606 0.019454807
-0.087076142 0.037767962 0.01919508
-0.085927762 0.037724383 0.019174516
-0.085176624 0.037856277 0.018849373
-0.084213093 0.037895892 0.018825471
-0.082955092 0.03780232 0.018812805
-0.081255227 0.037502408 0.018835753
-0.081954502 0.038316388 0.018603712
-0.07943517 0.037627183 0.018273413
-0.078523919 0.037691481 0.018259972
-0.078616455 0.038245838 0.017734766
-0.077282943 0.03811213 0.017520398
-0.075624771 0.037812386 0.017181307
-0.074937664 0.03799656 0.017007649
-0.074106179 0.03811175 0.016870707
-0.072801396 0.037983336 0.016683668
-0.072069071 0.038154211 0.016103536
-0.070580602 0.037923906 0.016073078
-0.069626257 0.03797796 0.01555112
-0.069132298 0.038288657 0.015668035
-0.067346804 0.037882578 0.015959799
-0.066705517 0.038117435 0.01578635
-0.066013888 0.038330641 0.015513152
-0.064266481 0.037927754 0.015033811
-0.063902818 0.03834169 0.014858067
-0.062392518 0.038070008 0.014813691
-0.06069443 0.037672404 0.014653713
-0.060864933 0.03844101 0.014355659
-0.059423581 0.03820087 0.014274299
-0.05816374 0.038070809 0.013820857
-0.05752819 0.038352124 0.013509661
-0.056210019 0.038180389 0.013372838
-0.055236004 0.03824031 0.012998492
-0.054243028 0.038289197 0.013024211
-0.052671529 0.037923496 0.013141215
-0.052336723 0.03845147 0.013595879
-0.05080913 0.038106848 0.01375252
-0.048920244 0.037470825 0.013920128
-0.049122527 0.038443714 0.013510883
-0.047799163 0.038239326 0.013397753
-0.046558451 0.038093276 0.013262838
-0.046042129 0.038546897 0.013770521
-0.044942517 0.038522154 0.013739824
-0.043237116 0.037964292 0.01375249
-0.042768337 0.038491502 0.013353348
-0.041617308 0.038415976 0.013162613
-0.040511545 0.038379356 0.013086885
-0.039799124 0.038723469 0.013204932
-0.038390286 0.038390286 0.013673991
-0.037080053 0.038139481 0.013777494
-0.036293689 0.038428608 0.013798594
-0.03527144 0.038477935 0.014295369
-0.035032779 0.039411876 0.014408588
-0.03246548 0.037701841 0.014692515
-0.030931745 0.037118092 0.015074253
-0.030171376 0.037454121 0.015714973
-0.029154764 0.037484694 0.015910029
-0.027938332 0.037251107 0.015871495
-0.027193177 0.03765209 0.015321016
-0.02624687 0.037795492 0.014787287
-0.02504804 0.03757206 0.014539987
-0.024224006 0.037915833 0.014276713
-0.023048609 0.037715904 0.013855636
-0.021937644 0.037607387 0.013703257
-0.020900493 0.037620887 0.013703257
-0.019898206 0.03770186 0.013432652
-0.018645599 0.037291199 0.013338208
-0.017857134 0.037815109 0.012709469
-0.016696777 0.037567746 0.011751056
-0.015904156 0.038169973 0.010235012
-0.015916692 0.040928632 0.0094025731
-0.013765476 0.038119778 0.0085024238
-0.012980011 0.038940035 0.0076158345
-0.011817724 0.038676184 0.0066242218
-0.010723443 0.038604394 0.0057301521
-0.0096795335 0.038718134 0.0046643913
-0.0086778319 0.03905024 0.0040262043
-0.11520912 0.038752157 0.014985174
-0.11383149 0.038640048 0.019527584
-0.11231961 0.038479865 0.020474166
-0.11140531 0.038523331 0.021517932
-0.11118519 0.038809929 0.021733165
-0.11033318 0.038879313 0.022098035
-0.10707467 0.038093876 0.022153497
-0.10859868 0.039011177 0.021603435
-0.10637794 0.038588077 0.02135253
-0.10457065 0.038308062 0.021247953
-0.10343692 0.038271662 0.021423757
-0.10326163 0.038592733 0.020872861
-0.10187279 0.038462181 0.020784378
-0.10196713 0.038894679 0.020978957
-0.0989151 0.038123529 0.021393627
-0.099269919 0.038663022 0.021369725
-0.098524012 0.03878073 0.021059632
-0.097193897 0.038668539 0.020795107
-0.09693078 0.038983032 0.020634413
-0.094684109 0.038497936 0.020535827
-0.093874924 0.038593024 0.020451367
-0.09374088 0.038970932 0.020033449
-0.092297681 0.038806982 0.020191044
-0.090717874 0.038581166 0.020267874
-0.090272538 0.038838185 0.019733608
-0.088657148 0.038591936 0.01986444
-0.088217199 0.038857576 0.019454807
-0.087516226 0.039013259 0.019242764
-0.086323746 0.038950957 0.019379854
-0.08574146 0.039165854 0.019046307
-0.083727919 0.038724165 0.018888891
-0.082720533 0.038742527 0.01907751
-0.08297161 0.039358329 0.019018441
-0.081234105 0.039034571 0.018487662
-0.079114042 0.038516048 0.01828295
-0.079760142 0.039348338 0.018259972
-0.077145502 0.038572751 0.018157303
-0.075595796 0.038315676 0.017670929
-0.076645218 0.039387129 0.017432213
-0.074034005 0.038581103 0.017251104
-0.073210627 0.038697049 0.01684913
-0.073702022 0.039521374 0.016785294
-0.071544379 0.038928557 0.016487449
-0.071082696 0.039254624 0.016483366
-0.070298962 0.039410029 0.015733153
-0.06875474 0.039137315 0.015696108
-0.067942098 0.039279029 0.015920252
-0.06711781 0.039418396 0.015721798
-0.065084092 0.038840506 0.015620291
-0.064735614 0.039265867 0.015213311
-0.064065233 0.039506894 0.01496011
-0.061737198 0.038716547 0.015014261
-0.061158486 0.039014895 0.014833838
-0.060676679 0.039386619 0.014769197
-0.059821233 0.039524745 0.014599562
-0.058709968 0.039495796 0.014204472
-0.056683548 0.038838726 0.013623327
-0.05648784 0.03943491 0.01346156
-0.055921957 0.039790627 0.013141215
-0.054129582 0.039270483 0.013100266
-0.052518204 0.038863473 0.013595879
-0.052277803 0.03947508 0.013730735
-0.050546046 0.03896258 0.013921291
-0.050422862 0.039694592 0.014014155
-0.048553821 0.039054163 0.013688296
-0.047392059 0.038966805 0.013413519
-0.046930451 0.039464246 0.01325354
-0.045738492 0.039356377 0.013974845
-0.044460714 0.039167773 0.013562977
-0.044180889 0.039870556 0.013379395
-0.042463921 0.039279129 0.013121545
-0.041369937 0.039248403 0.013040751
-0.040787283 0.039713934 0.013022035
-0.039273441 0.039273441 0.012992382
-0.038200974 0.039262116 0.013601601
-0.037304606 0.039436299 0.013519287
-0.036281422 0.039482724 0.014100701
-0.035355374 0.039640877 0.014142781
-0.034682095 0.040101174 0.014604986
-0.032062206 0.038267795 0.014965445
-0.031446103 0.038783528 0.015697956
-0.030210245 0.038544107 0.015957087
-0.029185513 0.038566571 0.016107053
-0.028221549 0.038673975 0.015846103
-0.027109863 0.038579423 0.01537782
-0.025881905 0.038305219 0.014755666
-0.025193673 0.038840245 0.014475286
-0.024042875 0.03867767 0.013901681
-0.022967387 0.038626969 0.01422736
-0.021852475 0.038501982 0.014074981
-0.020881223 0.038630266 0.014077157
-0.019876428 0.038706727 0.014077157
-0.019061733 0.039182454 0.013705432
-0.01784279 0.038834311 0.013369828
-0.016736688 0.038703591 0.012860477
-0.015691239 0.038705058 0.011721522
-0.015053389 0.039783958 0.010250002
-0.014217561 0.04046537 0.0091881752
-0.012992374 0.04005982 0.0076973736
-0.011774326 0.039604552 0.0066075325
-0.010889757 0.040292103 0.0057738721
-0.0097986264 0.040283248 0.0046769679
-0.0086821821 0.040155094 0.004031986
-0.117039 0.040431656 0.014779359
-0.11324493 0.039479882 0.019191146
-0.1124409 0.039562538 0.020031571
-0.11294398 0.040110942 0.021255076
-0.11029624 0.039540164 0.021535963
-0.10865036 0.039321087 0.022006631
-0.10894596 0.039807178 0.022106707
-0.10632198 0.039225586 0.021657228
-0.10561056 0.039345115 0.02160728
-0.10639106 0.040028319 0.021584839
-0.10366758 0.039393678 0.021457195
-0.10244545 0.039322495 0.021199346
-0.10200651 0.039553545 0.021092355
-0.10006738 0.039201654 0.021201372
-0.10037835 0.039733097 0.021465451
-0.098916963 0.039566785 0.021602511
-0.098218955 0.039705534 0.021256149
-0.097507969 0.039841965 0.020966023
-0.096435785 0.039832171 0.020981252
-0.094070561 0.039282214 0.020855755
-0.09425398 0.039796125 0.020722836
-0.093219027 0.039801385 0.020317823
-0.091666706 0.039583351 0.020284742
-0.091915868 0.040147159 0.020310462
-0.089532711 0.039560966 0.019843876
-0.088894896 0.039741248 0.019752204
-0.089430369 0.040456597 0.019488394
-0.087358572 0.039995492 0.0190036
-0.085699745 0.039714515 0.019174516
-0.086064532 0.040375955 0.018766016
-0.083499648 0.039662335 0.018757641
-0.083073743 0.039959524 0.018633634
-0.082069904 0.039982777 0.018674642
-0.081087366 0.040017143 0.018308192
-0.080107152 0.040053576 0.018064797
-0.079567701 0.040314302 0.017867863
-0.077622958 0.039860435 0.017685324
-0.077641033 0.040415876 0.017569721
-0.075875111 0.040045202 0.017392904
-0.074399292 0.039819341 0.016921967
-0.074106701 0.040229354 0.016724497
-0.072599716 0.039982457 0.016607016
-0.071328796 0.039860208 0.016549498
-0.07141564 0.040504396 0.016281396
-0.068681955 0.039544154 0.015984625
-0.068201669 0.039871745 0.015761584
-0.067424119 0.040033069 0.015818596
-0.06609384 0.039866123 0.01582092
-0.066345118 0.040663138 0.015761882
-0.064911284 0.040436536 0.015152961
-0.063103296 0.039965421 0.015014261
-0.06267634 0.040367816 0.015068203
-0.062193435 0.040747423 0.014795572
-0.0602278 0.040151868 0.014714181
-0.059925441 0.040663693 0.014461547
-0.057962254 0.040046651 0.014225185
-0.057427563 0.040411986 0.013760448
-0.056768384 0.040701862 0.013615638
-0.055035796 0.040218469 0.013680518
-0.054135632 0.040336352 0.013548285
-0.053424813 0.040602859 0.013680518
-0.05156609 0.03999003 0.013784289
-0.051370587 0.04066838 0.014059156
-0.050825026 0.041092575 0.013683438
-0.048767399 0.040286113 0.013429672
-0.048298735 0.040785596 0.013374865
-0.047113501 0.040688932 0.013229102
-0.045629356 0.040323619 0.013242483
-0.044846062 0.040575009 0.012825072
-0.043314055 0.040144734 0.012880147
-0.042461403 0.040338334 0.012893766
-0.041612547 0.04054556 0.01289019
-0.040176224 0.040176224 0.012728095
-0.03935609 0.040419769 0.012950242
-0.038337998 0.040467888 0.013374686
-0.037226159 0.040416975 0.013918132
-0.036501329 0.040795602 0.014203191
-0.035958134 0.041406337 0.014406562
-0.033378672 0.039637174 0.014893293
-0.032446928 0.039773654 0.01519084
-0.031157356 0.039465986 0.01592353
-0.030190976 0.03956059 0.01685527
-0.029100766 0.0394939 0.016716212
-0.028213387 0.039707731 0.016449332
-0.027109887 0.039622143 0.015360326
-0.026462078 0.040222358 0.014475286
-0.025437975 0.040276796 0.013767838
-0.024413655 0.040335603 0.013615459
-0.023318099 0.040276717 0.0136832
-0.022296786 0.040346567 0.013637781
-0.021340787 0.040547498 0.014052123
-0.019974357 0.039948713 0.014009506
-0.018808439 0.039706707 0.014163017
-0.017864428 0.039932251 0.01417771
-0.016798798 0.039897144 0.013480067
-0.015629364 0.039594389 0.013020545
-0.014703373 0.039909158 0.012156963
-0.01470169 0.04297417 0.0097652078
-0.012802964 0.040542718 0.0085714459
-0.011779604 0.040693179 0.006878525
-0.010834434 0.04117085 0.0060612261
-0.0097477408 0.04115713 0.0054093897
-0.0087986337 0.04179351 0.004031986
-0.11676195 0.041397415 0.013771862
-0.11363476 0.040658306 0.01874873
-0.11251717 0.040631197 0.02001667
-0.11231643 0.040937763 0.021498263
-0.10964342 0.040340506 0.021661252
-0.10929196 0.040594157 0.022046328
-0.10849391 0.040685218 0.022011757
-0.10771511 0.040785331 0.021657228
-0.1071289 0.040961049 0.021561861
-0.10567167 0.040803909 0.021533102
-0.10306717 0.040196195 0.02147752
-0.10364752 0.040830836 0.020914882
-0.10248048 0.040783048 0.021128803
-0.099896051 0.040164392 0.021026194
-0.10007805 0.040656708 0.021393627
-0.097929589 0.040202674 0.021553218
-0.097935677 0.040632885 0.021215618
-0.09704601 0.040696714 0.020951211
-0.09563566 0.040541206 0.02077502
-0.095331155 0.040856205 0.020636529
-0.094461769 0.04093343 0.020558119
-0.093482606 0.04096429 0.020342767
-0.09250664 0.040997263 0.020446301
-0.09090931 0.040752448 0.020230532
-0.090364605 0.0409793 0.020016134
-0.08964172 0.041129731 0.020031661
-0.087463856 0.04060822 0.01967454
-0.087116614 0.040934313 0.019396275
-0.086455405 0.041119032 0.019377828
-0.084550984 0.040709734 0.019046307
-0.08413285 0.041014764 0.018835753
-0.083365172 0.041154962 0.018633634
-0.080777794 0.040388897 0.018681824
-0.081568979 0.041314155 0.018273413
-0.08026094 0.041186534 0.01806578
-0.079012446 0.041086469 0.018157303
-0.07864739 0.041449297 0.017568856
-0.076668516 0.040959891 0.017496318
-0.075814568 0.041066226 0.017371118
-0.075667769 0.041563988 0.016981751
-0.07359989 0.041005652 0.016560942
-0.072661325 0.041069444 0.016469091
-0.072085358 0.041343074 0.016488105
-0.070256025 0.040895294 0.016469091
-0.069499977 0.041068166 0.016654342
-0.069708422 0.041825052 0.016361415
-0.066963501 0.04080588 0.016236335
-0.066864125 0.041392073 0.016065061
-0.066158615 0.0416159 0.016025275
-0.064025067 0.040934056 0.01538536
-0.064024933 0.041616205 0.01489976
-0.062838845 0.041537542 0.015008152
-0.061231315 0.04117278 0.014795572
-0.060778834 0.041585516 0.014503002
-0.060002308 0.041787323 0.014356524
-0.058504265 0.04148484 0.014220864
-0.057550535 0.041564271 0.013892233
-0.056101371 0.04128214 0.013560742
-0.05520441 0.041403309 0.013536304
-0.054503672 0.041679278 0.013298929
-0.053132232 0.041443139 0.013596833
-0.052306697 0.041631863 0.013668537
-0.051054802 0.041482028 0.01374495
-0.049484387 0.041061513 0.013807178
-0.049077652 0.041609313 0.013496697
-0.047958966 0.041564435 0.01328221
-0.046356514 0.04108873 0.013261914
-0.045891058 0.041622121 0.013008893
-0.044896331 0.041689452 0.012699038
-0.043447409 0.04132802 0.01287657
-0.042888597 0.041816384 0.012871504
-0.041294113 0.041294113 0.01270923
-0.040155254 0.04121197 0.012545466
-0.039413866 0.041544344 0.012723327
-0.038215779 0.041400429 0.013322026
-0.037477627 0.041760784 0.0139772
-0.036365215 0.04171304 0.014289945
-0.035077374 0.041455079 0.014474511
-0.033393998 0.040698934 0.014876425
-0.032296684 0.040631313 0.016292036
-0.031202624 0.040563412 0.018036515
-0.030090781 0.040466908 0.018099666
-0.029402381 0.040953316 0.018183291
-0.028414326 0.041042913 0.017769039
-0.027607324 0.041410986 0.015586108
-0.02654665 0.041412771 0.014722586
-0.025546791 0.041513536 0.013936847
-0.024655905 0.041807838 0.013703257
-0.023451202 0.041572586 0.014017791
-0.022383122 0.041568652 0.014065385
-0.02138057 0.041692112 0.014066219
-0.020137765 0.041335411 0.014253259
-0.0190375 0.041247919 0.014629006
-0.017866362 0.040987536 0.014597476
-0.016759869 0.040852182 0.014635235
-0.015761187 0.040979087 0.014204204
-0.014678645 0.040890511 0.013459146
-0.013748799 0.041246396 0.012133569
-0.013289082 0.043189518 0.0095169842
-0.011808161 0.0418653 0.0068019629
-0.01064014 0.041496545 0.0065254569
-0.0097678071 0.042327166 0.005227536
-0.0086213052 0.042028863 0.0041704774
-0.11610452 0.042219825 0.012132972
-0.11353867 0.041665565 0.018948406
-0.11272567 0.041750245 0.019966602
-0.11025815 0.041217998 0.021285623
-0.11077505 0.041801903 0.021812677
-0.11033946 0.042034078 0.022047609
-0.10746108 0.041331183 0.022227675
-0.10816864 0.042007238 0.021689177
-0.1062285 0.041658234 0.021616876
-0.10540371 0.041744038 0.021479338
-0.10423867 0.041695468 0.021333903
-0.10245132 0.041394468 0.020897031
-0.10166541 0.041496083 0.020759076
-0.10116594 0.041717913 0.020855457
-0.098162688 0.040901121 0.020842582
-0.10151378 0.042742644 0.0214656
-0.097213253 0.041367341 0.021071434
-0.097573228 0.041966978 0.020999968
-0.096315369 0.041876245 0.020951211
-0.095470548 0.041965071 0.020649821
-0.09319821 0.041421421 0.020789027
-0.093624264 0.042078324 0.020329565
-0.091765292 0.041711498 0.020446301
-0.091904424 0.042254906 0.020455897
-0.091506839 0.042561319 0.020013064
-0.088465288 0.041630723 0.019920379
-0.088376276 0.042083938 0.019733608
-0.087170169 0.042009719 0.019461542
-0.08542116 0.041668855 0.019393116
-0.085672915 0.042307615 0.019060314
-0.083132401 0.041566201 0.018835753
-0.083049245 0.04205025 0.018635631
-0.083388314 0.042763237 0.018693358
-0.081086315 0.042122759 0.018309772
-0.08030089 0.042263627 0.018167883
-0.079423212 0.042359047 0.017908871
-0.077308521 0.041788388 0.017670929
-0.07621894 0.041763801 0.017625034
-0.076093316 0.042274062 0.017371118
-0.074440822 0.041938491 0.017027497
-0.073168196 0.041810401 0.016791195
-0.073832385 0.04280138 0.016713649
-0.071352266 0.041971922 0.016791195
-0.070515983 0.042099092 0.016488105
-0.070119627 0.042496745 0.016449839
-0.068932652 0.042420093 0.016549557
-0.068151653 0.042594783 0.016307712
-0.066247739 0.042062052 0.016142756
-0.064990312 0.04192923 0.016080469
-0.06455864 0.042333536 0.015347421
-0.063869208 0.042579468 0.015073448
-0.062239412 0.04219621 0.014873743
-0.06137687 0.042328872 0.014478773
-0.060866993 0.042713679 0.014437318
-0.05963121 0.042593721 0.014356524
-0.058751419 0.042728301 0.014106393
-0.057354871 0.042485088 0.013705552
-0.055848785 0.042150028 0.013557613
-0.055679251 0.042830192 0.013536304
-0.054248046 0.042547487 0.01305005
-0.053155567 0.042524453 0.013533682
-0.052220315 0.042628828 0.013527483
-0.050712839 0.042260699 0.013662338
-0.050562903 0.043032255 0.013391554
-0.049063034 0.042663507 0.013098538
-0.048042357 0.042704314 0.012848914
-0.047189206 0.042899281 0.012838662
-0.045459714 0.042288106 0.01285696
-0.044325355 0.042214621 0.012682855
-0.043941751 0.042869996 0.012564182
-0.042361405 0.042361405 0.012471676
-0.041107472 0.042161509 0.012382269
-0.040785927 0.042932551 0.012566864
-0.039053351 0.042219833 0.012973636
-0.038182579 0.042425089 0.013787419
-0.037561618 0.042927563 0.014075488
-0.036442723 0.042873789 0.014529407
-0.034408346 0.041707087 0.015750885
-0.033372339 0.041715421 0.016257346
-0.032303836 0.041682366 0.017882973
-0.031287611 0.041716814 0.018248349
-0.030401109 0.041932561 0.018863112
-0.029473187 0.042104553 0.018066078
-0.028788244 0.042649247 0.017739236
-0.027603751 0.042467307 0.015971303
-0.026458433 0.042333491 0.015152067
-0.02568447 0.042807452 0.014310479
-0.024605315 0.042791851 0.014076442
-0.023317536 0.042395521 0.014076442
-0.022314044 0.04250294 0.014109254
-0.021341419 0.042682838 0.014141887
-0.0200534 0.042217679 0.014346153
-0.019064495 0.042365547 0.014859885
-0.01800009 0.042353153 0.014996201
-0.01680137 0.042003423 0.01505959
-0.015795536 0.042121425 0.014759213
-0.014707319 0.042020913 0.014720976
-0.013653206 0.042009864 0.013655275
-0.013232711 0.044109035 0.01100418
-0.011871991 0.043170877 0.0083565116
-0.010778864 0.043115456 0.0066018999
-0.0097746998 0.043443114 0.005227536
-0.0086439475 0.043219738 0.0043147802
-0.1192954 0.044464651 0.011566639
-0.11272726 0.042401999 0.018972307
-0.11144662 0.042308439 0.020130187
-0.11129235 0.042644732 0.021057129
-0.11184957 0.043262571 0.021590382
-0.10851416 0.042372197 0.021892935
-0.10939023 0.043124996 0.02223593
-0.10722325 0.042681102 0.022079527
-0.10614952 0.042667948 0.021624953
-0.10492134 0.042591833 0.021212757
-0.1037726 0.042546768 0.02117303
-0.10233966 0.04238309 0.021128803
-0.10228245 0.042791639 0.020984441
-0.1004785 0.042470299 0.020934582
-0.10120363 0.043222386 0.021348149
-0.10027274 0.043275602 0.021550059
-0.096129701 0.041928913 0.021543443
-0.098050177 0.043226421 0.021253794
-0.096684113 0.043087486 0.021303773
-0.094882503 0.04274926 0.020870984
-0.09456642 0.043080259 0.020887703
-0.093264565 0.042964578 0.020553976
-0.092061438 0.042892266 0.020415455
-0.092315696 0.043505102 0.020432591
-0.089990258 0.042902336 0.020076603
-0.088519745 0.042697761 0.019920379
-0.087781489 0.042845726 0.01967454
-0.086261705 0.042611204 0.019344717
-0.085897721 0.042948861 0.019393116
-0.085560769 0.043308541 0.019377828
-0.082921997 0.042497527 0.019132942
-0.083334841 0.04324973 0.019059777
-0.082067654 0.043138128 0.01900208
-0.080075867 0.042637803 0.018323213
-0.080417365 0.043383054 0.018218964
-0.079037264 0.043207038 0.018095076
-0.077095553 0.042715102 0.017572522
-0.077572845 0.043568309 0.017516732
-0.075683638 0.043097634 0.017241925
-0.074524522 0.043035287 0.016904593
-0.074137621 0.043423466 0.016423553
-0.072655268 0.043171972 0.016458243
-0.071326755 0.043005839 0.016548812
-0.071432844 0.043712638 0.016232699
-0.06942302 0.043126423 0.016263515
-0.067942761 0.042856205 0.016565502
-0.06800849 0.043567941 0.016017914
-0.066393875 0.043208715 0.016107202
-0.065981671 0.043633044 0.016207308
-0.065153763 0.043791879 0.01578635
-0.062968045 0.043028165 0.01489976
-0.062369328 0.043341398 0.014715791
-0.061689127 0.043607831 0.014515072
-0.059746329 0.042975433 0.014446169
-0.059724219 0.04372666 0.014327466
-0.058601454 0.043684721 0.014106393
-0.05681809 0.043139663 0.013615638
-0.056443803 0.043664079 0.013612509
-0.05533082 0.043626226 0.013668537
-0.054397326 0.043731187 0.013545662
-0.053581875 0.043937139 0.013533682
-0.052632287 0.044039264 0.013539791
-0.050963394 0.043531235 0.01371038
-0.049992569 0.043610539 0.013068318
-0.048285782 0.043037329 0.012970746
-0.048299018 0.044005774 0.012730241
-0.046721198 0.043535665 0.012849987
-0.045443267 0.043329626 0.012850851
-0.044990908 0.043919697 0.012562513
-0.04374529 0.04374529 0.012546569
-0.042474035 0.043535888 0.012657464
-0.041855451 0.044001888 0.012382269
-0.040257178 0.043435376 0.012927115
-0.03915986 0.043393359 0.013221145
-0.038838636 0.044232894 0.013971001
-0.037419036 0.043833729 0.014336407
-0.035765771 0.043129314 0.01506415
-0.034272105 0.042580497 0.016152233
-0.033300176 0.042665854 0.017797142
-0.032164551 0.042540215 0.018100113
-0.031303406 0.042781323 0.018248349
-0.030530384 0.043163646 0.018078089
-0.029836893 0.043689739 0.01777336
-0.028906889 0.043895647 0.016292155
-0.027467811 0.043314628 0.015353948
-0.026945241 0.044190194 0.014273405
-0.025452813 0.043481894 0.013558269
-0.024333134 0.043376457 0.013358563
-0.02355689 0.043901481 0.013446361
-0.022388609 0.043711092 0.013693213
-0.021405151 0.043880563 0.013812274
-0.020386843 0.043992661 0.014111996
-0.018962651 0.043192711 0.014652878
-0.018056376 0.043547731 0.014859885
-0.017025059 0.043626718 0.015152901
-0.015700663 0.042915147 0.015011787
-0.014796147 0.043331578 0.014759213
-0.013582009 0.042835571 0.014567584
-0.012471271 0.042610176 0.012785554
-0.0124533 0.046416849 0.010090292
-0.010694909 0.043849129 0.0065744519
-0.0096969344 0.044174928 0.0051437318
-0.0086587649 0.044376168 0.0041704774
-0.11936986 0.045577586 0.0073853731
-0.11127123 0.042875156 0.018724829
-0.11240669 0.043713711 0.020042688
-0.11043796 0.043349478 0.021020561
-0.10931776 0.043314584 0.02156049
-0.10922124 0.043688498 0.021954179
-0.10797177 0.043603983 0.022149026
-0.10733661 0.043768328 0.021740258
-0.10717318 0.044130135 0.021575868
-0.10434356 0.043390393 0.021387666
-0.10358863 0.043507226 0.021333903
-0.10319516 0.043779764 0.020966232
-0.10150128 0.04350055 0.021092445
-0.10098594 0.043725874 0.020978123
-0.099412337 0.043492898 0.021184653
-0.098129027 0.04338336 0.021550059
-0.098637469 0.044072062 0.021498829
-0.097471327 0.044019308 0.02129367
-0.095126845 0.043427471 0.02125752
-0.095419116 0.044039588 0.020952791
-0.095059946 0.044361308 0.020725876
-0.091718823 0.043283042 0.020425528
-0.093050256 0.044410352 0.02032733
-0.09078218 0.04382588 0.020255297
-0.089315385 0.043619145 0.020207226
-0.090807788 0.044869732 0.020120561
-0.088153832 0.044076916 0.019901782
-0.086669333 0.04385677 0.019416839
-0.086695127 0.04440482 0.019190997
-0.084899232 0.04402183 0.019368291
-0.085356742 0.044812292 0.019050598
-0.083765544 0.044533584 0.018888891
-0.081740886 0.044014324 0.019061238
-0.081913441 0.044680059 0.01828295
-0.080017038 0.044219941 0.018125236
-0.079107098 0.044299971 0.018208891
-0.078802072 0.044725496 0.018003136
-0.076482072 0.044003382 0.017743766
-0.076425552 0.044581577 0.017492652
-0.07498087 0.044354882 0.017115682
-0.073362209 0.044017326 0.017010897
-0.072348468 0.044038199 0.01706472
-0.072195344 0.044591244 0.016994566
-0.071010225 0.04451387 0.01666221
-0.069437273 0.04418736 0.016459972
-0.069104813 0.044652343 0.016219884
-0.066979587 0.043955352 0.016106695
-0.067456737 0.044971161 0.016084105
-0.065021291 0.044046681 0.016189039
-0.063952439 0.044032831 0.015913516
-0.063589208 0.044512447 0.015128732
-0.062888205 0.044767875 0.014795572
-0.060709316 0.04396192 0.014515072
-0.061045505 0.044980902 0.01431334
-0.060021985 0.04501649 0.014121473
-0.057790287 0.044130765 0.013947129
-0.05794296 0.045066744 0.013537645
-0.055830508 0.044243045 0.013441116
-0.055091687 0.044497132 0.013519406
-0.054942001 0.045246355 0.013358712
-0.052512191 0.044110242 0.013651639
-0.051928759 0.044510365 0.013515502
-0.051005419 0.044629745 0.013475955
-0.049504325 0.044237908 0.013060391
-0.049506862 0.045201916 0.012883365
-0.048034567 0.044832263 0.012798667
-0.046658952 0.044538092 0.012838662
-0.046429981 0.045350216 0.012714565
-0.044817366 0.044817366 0.012367964
-0.043061387 0.044111665 0.012697935
-0.042890482 0.045035008 0.012699604
-0.041385781 0.044569306 0.012604415
-0.040051933 0.044267926 0.013228059
-0.039893929 0.045285001 0.013820738
-0.038328629 0.044716738 0.014274925
-0.037559632 0.045071561 0.014798462
-0.035713512 0.044116694 0.015743911
-0.034051951 0.04333885 0.017266363
-0.033378735 0.043809593 0.017860293
-0.031929553 0.043259393 0.017698556
-0.031416971 0.043983761 0.017882973
-0.030813767 0.044626836 0.017765164
-0.030171439 0.045257159 0.016292155
-0.028513961 0.04435505 0.015426457
-0.027896628 0.045063786 0.014256954
-0.026721977 0.044892918 0.013365835
-0.025555266 0.044721719 0.013147622
-0.024644401 0.045002818 0.013007462
-0.023395004 0.044663191 0.013184696
-0.022479534 0.044959068 0.01303944
-0.021366965 0.04487063 0.013125181
-0.020249268 0.044761539 0.013631254
-0.019139906 0.044659786 0.014141887
-0.0179848 0.044433039 0.014375269
-0.016792864 0.044081271 0.015036702
-0.01593207 0.044609796 0.01505959
-0.014682901 0.044048704 0.014977455
-0.013578529 0.043869093 0.014614403
-0.012553906 0.04393867 0.013435543
-0.01177729 0.044967838 0.010938168
-0.010902531 0.045790628 0.0072193146
-0.0097173639 0.045347702 0.0050616562
-0.11764889 0.04599002 0.0055805147
-0.11473294 0.045261618 0.018360734
-0.11155074 0.044413719 0.020360202
-0.11111928 0.044655409 0.021173388
-0.11103712 0.045043364 0.021825165
-0.11019222 0.045126338 0.02184239
-0.10728589 0.044358592 0.02209115
-0.10838695 0.045248918 0.021723062
-0.1062536 0.044793185 0.021428168
-0.10570156 0.045001652 0.021130294
-0.10389249 0.044673767 0.021075934
-0.10232453 0.044443987 0.020930499
-0.10106626 0.044345401 0.020832032
-0.10212713 0.045272853 0.020904779
-0.099229127 0.044446379 0.021161318
-0.09997119 0.045250118 0.021780044
-0.098296583 0.044965457 0.021670341
-0.096749365 0.044733576 0.0216088
-0.096500479 0.045103483 0.02129367
-0.09525536 0.045010775 0.021220505
-0.093071334 0.044467412 0.020649821
-0.092965528 0.044915929 0.020431012
-0.091718756 0.04481712 0.020171136
-0.090305731 0.044633869 0.020247787
-0.091067299 0.04553365 0.020171136
-0.089050531 0.045049094 0.020207226
-0.087553367 0.044818986 0.019830227
-0.087771133 0.045471791 0.019344717
-0.08585491 0.045021474 0.019189954
-0.085585475 0.045434266 0.019174516
-0.084716767 0.045535263 0.018999875
-0.082404949 0.044853326 0.018888891
-0.082170509 0.045299128 0.019061238
-0.081159092 0.045322608 0.01828295
-0.079697922 0.045092247 0.018060714
-0.079484843 0.045571309 0.018059552
-0.078071676 0.045365971 0.017713696
-0.076323278 0.044957545 0.017696768
-0.076401807 0.045628861 0.017274648
-0.075152524 0.045514911 0.017014563
-0.07366126 0.04524906 0.017010897
-0.072940215 0.045455497 0.01706472
-0.071059056 0.044934399 0.016937017
-0.070302919 0.045119781 0.016583323
-0.070007853 0.045611177 0.016713649
-0.068289623 0.045176215 0.016599089
-0.068142653 0.045783348 0.016363442
-0.066133827 0.045138959 0.016105622
-0.064737134 0.044898331 0.016355693
-0.064956158 0.045788769 0.015910894
-0.064213283 0.046019517 0.015799969
-0.062249158 0.045368027 0.015042067
-0.062071916 0.046018835 0.014630139
-0.060715012 0.045802556 0.014430434
-0.059024628 0.045322482 0.014430195
-0.059169553 0.046259832 0.014189005
-0.057100609 0.045469001 0.013892233
-0.05607095 0.045491528 0.013760448
-0.055493288 0.045888681 0.013573945
-0.05403519 0.045559082 0.013548285
-0.05335594 0.045886107 0.013651639
-0.05218957 0.045799013 0.013408929
-0.050726369 0.045442373 0.013475955
-0.050609421 0.046302237 0.012938559
-0.049211413 0.046001971 0.012788415
-0.047509681 0.045398138 0.012457907
-0.047195755 0.046123128 0.012714565
-0.045956519 0.045956519 0.012364745
-0.044674028 0.045737691 0.012122542
-0.043895915 0.046037178 0.012230992
-0.042611469 0.045807328 0.012295127
-0.041240871 0.045470707 0.012935817
-0.040676832 0.046029046 0.013197064
-0.039434556 0.045829348 0.013698369
-0.038568638 0.046068098 0.014678538
-0.037105914 0.045587268 0.015247196
-0.034972988 0.044230543 0.016398668
-0.034332197 0.044735894 0.017262608
-0.033360358 0.044827979 0.01760596
-0.032241646 0.044722281 0.017588049
-0.031958334 0.045806944 0.017444313
-0.030837283 0.045724243 0.016266227
-0.029467549 0.045253735 0.015553296
-0.028903384 0.046031311 0.014722586
-0.027898768 0.046140272 0.013755172
-0.026317134 0.04526547 0.013036847
-0.02551808 0.045719896 0.012843251
-0.02459758 0.045986775 0.012641996
-0.023350256 0.045639139 0.012789398
-0.022596974 0.046269991 0.012863338
-0.021237845 0.045661367 0.012918413
-0.020182978 0.045677267 0.013125181
-0.01931477 0.046140838 0.013720095
-0.018024364 0.045591038 0.014143795
-0.016996849 0.045679033 0.014836371
-0.015855191 0.045451548 0.015036702
-0.014699409 0.045148183 0.015039295
-0.013688399 0.045277011 0.014784217
-0.012618241 0.045215361 0.014244974
-0.011542209 0.045119546 0.012664229
-0.011291799 0.048554737 0.0072361827
-0.0097911842 0.046780106 0.0058443248
-0.0085247988 0.045820795 0.0042887926
-0.12076432 0.048305724 0.0055805147
-0.11347988 0.045808394 0.01836738
-0.1111561 0.045285814 0.020366848
-0.11131702 0.04577522 0.021053791
-0.1107048 0.045952935 0.021825165
-0.10763977 0.045106187 0.022047609
-0.1096024 0.046370246 0.022067249
-0.10687789 0.045656573 0.021820724
-0.10537581 0.045456231 0.021671385
-0.10558578 0.045997765 0.021432459
-0.10381915 0.045680422 0.021180928
-0.10328332 0.045903694 0.021121264
-0.10252957 0.046033684 0.021186113
-0.10007221 0.045393579 0.021356821
-0.10004153 0.045852371 0.021409124
-0.099418975 0.046046682 0.021643579
-0.097289547 0.045539789 0.021558851
-0.097647339 0.046198741 0.021497309
-0.09602467 0.045924839 0.021261305
-0.09368705 0.045299232 0.021175891
-0.095794387 0.046832807 0.020587265
-0.093120798 0.046037249 0.020275772
-0.091596238 0.045798119 0.02015546
-0.090890728 0.045967724 0.020188361
-0.089795046 0.045941651 0.019983143
-0.089163728 0.046155337 0.019869387
-0.089315042 0.046784066 0.019387126
-0.086314783 0.04575723 0.019196302
-0.085715882 0.045993887 0.01935789
-0.085784785 0.046599142 0.019100845
-0.083810307 0.046095669 0.019062698
-0.083656922 0.046593729 0.019060314
-0.082056403 0.046288226 0.018999338
-0.080005847 0.045717627 0.018258691
-0.08054179 0.046629455 0.017946899
-0.079173729 0.046448585 0.017956018
-0.077429399 0.046039101 0.017701238
-0.077504992 0.046715334 0.017591774
-0.075372428 0.046060931 0.017048538
-0.074683726 0.046282873 0.016916007
-0.074072585 0.046559911 0.01652211
-0.072752185 0.046392698 0.016440064
-0.071678527 0.046380222 0.016440064
-0.070713148 0.046438482 0.016280621
-0.069042131 0.046028085 0.016268432
-0.068466209 0.046346355 0.016346157
-0.06759613 0.046472341 0.015989602
-0.066297568 0.04630306 0.016017914
-0.066198319 0.04697945 0.01620993
-0.065118216 0.046970516 0.015828878
-0.06291233 0.046135705 0.015456349
-0.062208015 0.046392415 0.015158176
-0.061328374 0.046524972 0.015204847
-0.060524568 0.046720717 0.014978796
-0.059496533 0.046747275 0.014465809
-0.058024377 0.046419498 0.014189005
-0.057513729 0.046863034 0.013705552
-0.056406479 0.04682802 0.01390633
-0.054897238 0.046451509 0.013682187
-0.054149698 0.046717383 0.013561964
-0.053420015 0.04700961 0.013640225
-0.051680464 0.046406951 0.013454288
-0.05137736 0.047095913 0.013563544
-0.050259303 0.047051262 0.013068318
-0.048735764 0.046616815 0.01282084
-0.048177425 0.047106814 0.012728155
-0.04747219 0.04747219 0.012842
-0.045384552 0.046440009 0.012333006
-0.045193847 0.047345933 0.012032658
-0.043555439 0.046742421 0.01183781
-0.042904105 0.047194518 0.012176216
-0.041394588 0.046701588 0.012863219
-0.04088613 0.047341831 0.013401598
-0.039622802 0.047119003 0.013729662
-0.03852576 0.04708704 0.014612585
-0.036307737 0.045644011 0.015368223
-0.035314791 0.045701493 0.01679197
-0.034255255 0.045673676 0.017331839
-0.033216108 0.045672148 0.017507464
-0.032884963 0.046675429 0.01739499
-0.0318138 0.046660237 0.016745836
-0.030639701 0.046487819 0.01588133
-0.029739015 0.046732735 0.015316606
-0.028993621 0.047248863 0.014329433
-0.027303161 0.046205349 0.01369223
-0.026992153 0.047506187 0.012923896
-0.025630318 0.046988916 0.012709975
-0.024229132 0.046351381 0.012577891
-0.023438532 0.046877064 0.012543082
-0.022307469 0.046739455 0.012738079
-0.021435549 0.047158208 0.012819409
-0.020311005 0.047036011 0.012935996
-0.019112321 0.046719007 0.013814569
-0.018004088 0.046598814 0.014446318
-0.016816905 0.046246488 0.014956683
-0.015780982 0.046290878 0.014972299
-0.014769242 0.046417616 0.015057385
-0.013505958 0.045712471 0.014735013
-0.012686826 0.046518359 0.014843434
-0.011575099 0.046300396 0.013200939
-0.010685883 0.047017887 0.008820802
-0.0097263847 0.047551215 0.0058764815
-0.0086403117 0.047521714 0.0044978559
-0.11965971 0.048951704 0.0054313242
-0.11272409 0.04653747 0.018374473
-0.11304274 0.047101144 0.020621598
-0.11116315 0.046750855 0.02137804
-0.1089124 0.0462364 0.022375137
-0.11004999 0.047164284 0.022482038
-0.10789631 0.046685904 0.022825181
-0.10597967 0.046301801 0.022595853
-0.10727178 0.047325786 0.021928698
-0.10466217 0.04663166 0.021428168
-0.10445091 0.047002912 0.021325856
-0.10390315 0.047228705 0.02120766
-0.10166062 0.046680901 0.021193653
-0.10137187 0.047028188 0.021212757
-0.10023621 0.046985727 0.021292567
-0.098608769 0.046709422 0.021348149
-0.099105664 0.047444202 0.021430075
-0.097473629 0.047164664 0.021387696
-0.09533117 0.046629377 0.021261305
-0.095749334 0.04734857 0.02122885
-0.094460115 0.047230057 0.020635009
-0.092590906 0.04681563 0.02048859
-0.092431739 0.047266234 0.020254403
-0.090897791 0.047016099 0.0203453
-0.090163849 0.047178764 0.020184129
-0.090581529 0.047954928 0.020183742
-0.087263651 0.046748385 0.020104945
-0.087080143 0.047212124 0.019566894
-0.087080844 0.047788266 0.019449532
-0.08437638 0.046875771 0.019519746
-0.084082939 0.047296654 0.019378871
-0.082770504 0.047147758 0.019338816
-0.081324764 0.046918135 0.019094825
-0.082023904 0.047936048 0.018723071
-0.079615392 0.047140695 0.018541187
-0.077857107 0.046714265 0.018588305
-0.079194888 0.048159052 0.017910987
-0.076992564 0.047461167 0.017797142
-0.075472623 0.047170393 0.017540067
-0.07580775 0.048047166 0.017032474
-0.073568098 0.047293779 0.016719371
-0.072811067 0.047485482 0.016713649
-0.072581634 0.048031963 0.01661697
-0.071198843 0.047820117 0.016098708
-0.06943804 0.047344122 0.016423702
-0.06931106 0.047984585 0.016219884
-0.066789076 0.046961069 0.015870869
-0.067162313 0.047973085 0.016033798
-0.065905787 0.047834847 0.015701324
-0.063964196 0.047186702 0.015487164
-0.064078473 0.048058856 0.015660018
-0.062838599 0.047927748 0.015236169
-0.06069966 0.047094565 0.015132964
-0.060987029 0.048147656 0.014992386
-0.05925196 0.047613185 0.014836282
-0.058421481 0.047799394 0.014193177
-0.057809535 0.048174616 0.013539225
-0.056152444 0.047676608 0.014066577
-0.054879278 0.047491688 0.01347363
-0.05453667 0.048120592 0.013441116
-0.05317406 0.047856655 0.01371038
-0.052226473 0.04796309 0.013574511
-0.051138178 0.047942046 0.013529152
-0.049979795 0.047852997 0.013182491
-0.049871795 0.048787627 0.01282084
-0.048102029 0.048102029 0.012728155
-0.046256058 0.047307335 0.012842
-0.04638781 0.048545383 0.012209743
-0.045110691 0.048332885 0.01189214
-0.043454621 0.047694094 0.01202175
-0.04290932 0.04827299 0.011885554
-0.041373912 0.04773913 0.012875915
-0.040322538 0.047750376 0.013602465
-0.039761592 0.048358694 0.013910443
-0.037711363 0.047139209 0.015165657
-0.036297835 0.046668649 0.016208589
-0.035660308 0.047197469 0.017167866
-0.034566768 0.0471365 0.017551452
-0.033323016 0.04686049 0.017574519
-0.03250891 0.04719035 0.017488986
-0.031747099 0.04762065 0.017119557
-0.030999387 0.048102498 0.015936494
-0.029587019 0.04755057 0.015258372
-0.028559648 0.047599413 0.01415357
-0.027814504 0.048140489 0.01358521
-0.026487347 0.047677226 0.012923896
-0.025600074 0.048000142 0.012847245
-0.024603738 0.04813775 0.012215942
-0.023212487 0.047480091 0.012555182
-0.022298815 0.047783177 0.01289925
-0.021520454 0.048421025 0.012912303
-0.020364087 0.048230737 0.01321736
-0.019060228 0.047650576 0.014251292
-0.018181317 0.048127014 0.014636785
-0.016790979 0.04722463 0.015137464
-0.015872022 0.047616068 0.015260696
-0.014727039 0.047336914 0.015207142
-0.013575471 0.046992019 0.014636219
-0.012639736 0.047399014 0.014781266
-0.011507293 0.047075294 0.013091028
-0.010431565 0.046942048 0.0098007023
-0.010097179 0.050485898 0.0057223439
-0.0085318014 0.047991384 0.0042842031
-0.11877356 0.049668942 0.0043727458
-0.11448553 0.048314996 0.018491477
-0.11299419 0.048127156 0.020822167
-0.11043241 0.047475614 0.021680892
-0.11069079 0.048035625 0.023026407
-0.10813157 0.047371928 0.02289921
-0.10846569 0.047975212 0.022989154
-0.10855702 0.048481774 0.022563338
-0.10672837 0.048132405 0.021966636
-0.10579766 0.048185077 0.021505624
-0.10497004 0.048286214 0.021454185
-0.1026061 0.047675561 0.021325856
-0.10211819 0.047933035 0.021387726
-0.10219613 0.048464149 0.021340936
-0.099604316 0.047727067 0.021389782
-0.099187456 0.048027612 0.021220982
-0.097737379 0.047828931 0.021407932
-0.096322395 0.047643337 0.021365553
-0.09710405 0.048552025 0.021149814
-0.096336715 0.04869768 0.021137565
-0.092726961 0.04739378 0.020733237
-0.094387546 0.04878458 0.020590395
-0.091594562 0.047878981 0.02048859
-0.091548234 0.048404817 0.02044484
-0.09134198 0.048857339 0.020188361
-0.089297697 0.048325814 0.020183742
-0.087977387 0.048178095 0.020104945
-0.087169953 0.048311058 0.019758105
-0.085616633 0.048028845 0.019651562
-0.08440654 0.047934581 0.019531161
-0.084145792 0.048383832 0.019383639
-0.083297566 0.048502382 0.019439995
-0.082286172 0.048527744 0.019286036
-0.08080139 0.048270959 0.018987358
-0.079462625 0.048095796 0.018647552
-0.079475157 0.04874476 0.018647552
-0.078225486 0.048626654 0.018226594
-0.075944774 0.047855608 0.01794672
-0.076362289 0.04878702 0.017447352
-0.074952699 0.048560906 0.017032474
-0.073314101 0.048177838 0.016713649
-0.073981807 0.049321208 0.01658839
-0.072119102 0.04878645 0.016372293
-0.070546821 0.048435133 0.016005158
-0.07054349 0.049166679 0.015989602
-0.068316437 0.048347015 0.016086459
-0.067651413 0.048624456 0.015870869
-0.067000635 0.048921101 0.016033798
-0.065245546 0.048407983 0.015701324
-0.064355835 0.048530631 0.01561299
-0.06343177 0.048631024 0.015628695
-0.061169907 0.047691792 0.015204847
-0.061138522 0.048489172 0.01457867
-0.060854007 0.049110252 0.014528722
-0.059064284 0.048517093 0.014948964
-0.058507714 0.048933726 0.014196575
-0.057051159 0.048599135 0.013943464
-0.055882309 0.048501626 0.014064163
-0.056119986 0.049644604 0.013911903
-0.054175269 0.04886397 0.013858348
-0.053565133 0.049279924 0.013755769
-0.052527301 0.049311347 0.013662428
-0.050826639 0.048708867 0.013621777
-0.049841523 0.048781063 0.013399661
-0.049107715 0.049107715 0.012975186
-0.047763601 0.048825011 0.01285696
-0.047072545 0.04921221 0.012953013
-0.045812897 0.049009144 0.012363136
-0.044584483 0.048830621 0.01205188
-0.044089913 0.049466729 0.01189214
-0.042521246 0.048899435 0.011885554
-0.041825648 0.049332816 0.012533367
-0.041040085 0.049680103 0.013188362
-0.039672405 0.049322449 0.013698369
-0.037429355 0.047826398 0.015165657
-0.036794651 0.04835869 0.016208589
-0.035473872 0.047994062 0.017237604
-0.034487396 0.04807334 0.017632037
-0.033207443 0.047735699 0.017632037
-0.032475494 0.048189446 0.017663658
-0.032287356 0.049507283 0.017325968
-0.030864574 0.048957597 0.015893936
-0.029433237 0.048354603 0.015258372
-0.02897596 0.049366452 0.01415357
-0.027638555 0.04889898 0.013679564
-0.026487496 0.048736993 0.012946755
-0.025817858 0.049484231 0.01282534
-0.024263017 0.048526034 0.012215942
-0.02341491 0.048958451 0.012577891
-0.022197297 0.048622649 0.012934059
-0.021254271 0.048884828 0.013239443
-0.020107755 0.048681937 0.013748944
-0.019339193 0.049422383 0.014406055
-0.017903566 0.048444945 0.01492694
-0.017000301 0.048875868 0.01526019
-0.015815813 0.048501831 0.015424311
-0.014701722 0.04830566 0.015313178
-0.013644076 0.04827904 0.015207142
-0.012594775 0.048279975 0.015171617
-0.011551358 0.048305683 0.013242155
-0.010651492 0.048996862 0.010093242
-0.0097024553 0.049590327 0.0059271455
-0.0087183677 0.050130617 0.0043770671
-0.11982788 0.051199187 0.0042557418
-0.1135438 0.048959255 0.018374473
-0.11098036 0.04829701 0.020705163
-0.11181816 0.049116388 0.021455228
-0.1109715 0.049204342 0.022062749
-0.10804716 0.048363969 0.022508025
-0.11000375 0.049713235 0.022964656
-0.10623143 0.048474535 0.022565693
-0.10489126 0.048332244 0.021940798
-0.10492074 0.0488245 0.021757156
-0.10413648 0.048944145 0.021612018
-0.10236877 0.048599314 0.021362334
-0.10245385 0.049136031 0.021466851
-0.1012033 0.049036652 0.021624148
-0.10092889 0.049413104 0.021617174
-0.099233307 0.049094371 0.021577179
-0.097816125 0.048908062 0.02159518
-0.097969897 0.049511667 0.02159518
-0.09669739 0.049399752 0.021163911
-0.094095796 0.048598927 0.021163911
-0.095334604 0.049785845 0.021058619
-0.092982896 0.049103327 0.020466089
-0.091231085 0.048725694 0.02033335
-0.091904245 0.049649417 0.020047158
-0.089254171 0.048778441 0.019790679
-0.088547915 0.048961788 0.020063549
-0.087644465 0.049039163 0.019869387
-0.087219819 0.049389534 0.019535363
-0.085636862 0.04908454 0.019454658
-0.085503772 0.049613301 0.019524693
-0.083119944 0.048832968 0.019594908
-0.083490521 0.049671575 0.019533724
-0.081985191 0.049401332 0.019525766
-0.080169871 0.048934858 0.018974483
-0.079549171 0.04919488 0.018645257
-0.078756571 0.049354117 0.018647552
-0.077093072 0.048964519 0.018226594
-0.077746309 0.050055843 0.017814666
-0.076027736 0.049629223 0.017086565
-0.074787892 0.04950748 0.016827047
-0.07455501 0.050058365 0.016535372
-0.072486751 0.049375035 0.01618281
-0.071615793 0.049499147 0.016072571
