ply
format ascii 1.0
comment PCL generated
element vertex 1260
property float x
property float y
property float z
element camera 0
property float view_px
property float view_py
property float view_pz
property float x_axisx
property float x_axisy
property float x_axisz
property float y_axisx
property float y_axisy
property float y_axisz
property float z_axisx
property float z_axisy
property float z_axisz
property float focal
property float scalex
property float scaley
property float centerx
property float centery
property int viewportx
property int viewporty
property float k1
property float k2
end_header
-0.046931464 -0.061864208 0.01663664
-0.045711786 -0.061657757 0.016374141
-0.045282871 -0.062533483 0.015848726
-0.043713674 -0.061838858 0.015325904
-0.042650748 -0.061843589 0.01517117
-0.042020787 -0.062492456 0.014720947
-0.040507704 -0.061827552 0.014463514
-0.039228346 -0.061493084 0.014147609
-0.039379671 -0.063445032 0.01406008
-0.036772724 -0.060937662 0.013696074
-0.036735456 -0.062666364 0.013848513
-0.035787303 -0.062898897 0.014074713
-0.034028251 -0.061676204 0.014264882
-0.033782549 -0.063206062 0.015101492
-0.032317925 -0.062481321 0.015999585
-0.030649312 -0.061298624 0.016520888
-0.029563865 -0.061239436 0.016661584
-0.028660726 -0.061567485 0.016892225
-0.027351594 -0.061015099 0.016908616
-0.026556665 -0.061611462 0.017387271
-0.025754098 -0.062239073 0.016892225
-0.024691477 -0.062265467 0.016749173
-0.023855813 -0.062892601 0.015288055
-0.022311263 -0.061621584 0.015248209
-0.021548014 -0.062489245 0.014351487
-0.020627666 -0.062968664 0.013517857
-0.019127516 -0.061633114 0.013047665
-0.018210303 -0.06212927 0.012844712
-0.017222842 -0.062432803 0.013350397
-0.015944419 -0.061651759 0.013723224
-0.015153804 -0.062780045 0.013878584
-0.014006688 -0.06249138 0.013963193
-0.012981631 -0.06274455 0.014821887
-0.011915926 -0.062829435 0.015127927
-0.010793541 -0.062602542 0.015107006
-0.0095458888 -0.061517958 0.014820248
-0.0085735209 -0.062158026 0.014345884
-0.0073535079 -0.060929067 0.013365
-0.0063955747 -0.06182389 0.012413621
-0.0053605982 -0.062182944 0.010008991
-0.11527295 -0.060838498 0.014149278
-0.10986768 -0.058527637 0.024222612
-0.10834405 -0.058260478 0.026516706
-0.10802488 -0.058642078 0.02733326
-0.10761965 -0.058983844 0.027337998
-0.10581683 -0.058558825 0.027896404
-0.10600352 -0.059237264 0.02838105
-0.10290222 -0.058073524 0.02767244
-0.10340155 -0.05893888 0.027471453
-0.10406906 -0.059918549 0.027374238
-0.10027095 -0.058320858 0.027457386
-0.1012055 -0.059471272 0.027305484
-0.099908076 -0.05932042 0.027468383
-0.097275317 -0.058365189 0.027488947
-0.097641692 -0.059208259 0.027121902
-0.097684018 -0.059870847 0.027120024
-0.093989 -0.058232315 0.027263045
-0.095026605 -0.059522156 0.027170211
-0.094010778 -0.059540153 0.026625723
-0.091388293 -0.058529582 0.026471943
-0.09164875 -0.059363395 0.025991827
-0.089431763 -0.058593225 0.02564308
-0.089088395 -0.059046961 0.025429249
-0.089065731 -0.059726432 0.025434047
-0.087887801 -0.059638146 0.024985284
-0.086177394 -0.059182063 0.024912775
-0.085107662 -0.059160203 0.024542689
-0.084824435 -0.059691269 0.024432421
-0.084764428 -0.060394656 0.024193078
-0.083299495 -0.060102168 0.023821652
-0.081349313 -0.059447572 0.023713648
-0.080991529 -0.059954766 0.023319066
-0.079921752 -0.059941314 0.023603797
-0.077587791 -0.058966722 0.023435265
-0.078023918 -0.060099501 0.022207558
-0.07662148 -0.05982773 0.02218309
-0.07471437 -0.059148878 0.022010922
-0.074467793 -0.059784003 0.022052616
-0.072987571 -0.059432738 0.022090495
-0.073292613 -0.06054607 0.021799237
-0.072312497 -0.060614884 0.021783769
-0.070786968 -0.060221747 0.021681756
-0.070060872 -0.060507115 0.021274567
-0.069994815 -0.06138007 0.020945311
-0.066677921 -0.059385024 0.020710707
-0.068077162 -0.061593622 0.020547003
-0.065908119 -0.060592942 0.020041615
-0.064341009 -0.060121927 0.019934326
-0.06472075 -0.061484713 0.01968959
-0.063618965 -0.061462387 0.019497156
-0.060989212 -0.059937671 0.019497156
-0.061477937 -0.061477937 0.0196459
-0.060336169 -0.061413597 0.019395113
-0.058518577 -0.060646527 0.019072175
-0.057773933 -0.060983595 0.018506587
-0.0554788 -0.059665881 0.018711179
-0.05472945 -0.059991896 0.017821163
-0.054817654 -0.061266791 0.017696232
-0.052794639 -0.060185883 0.01776132
-0.052224029 -0.060750403 0.017765403
-0.050200682 -0.05961331 0.017302305
-0.04993267 -0.060556639 0.016930938
-0.049077146 -0.060812984 0.016748548
-0.047712993 -0.060436454 0.016653389
-0.046538524 -0.060288545 0.016443193
-0.046099387 -0.061108489 0.01614958
-0.045323864 -0.061510954 0.015896767
-0.04341127 -0.060352247 0.015430957
-0.043730099 -0.06231539 0.014949977
-0.041430857 -0.060552791 0.014750838
-0.040316302 -0.060474452 0.014322609
-0.040089473 -0.061759457 0.014061272
-0.038436681 -0.060858078 0.013720304
-0.037739106 -0.06146083 0.013632953
-0.036464021 -0.061130855 0.013497621
-0.035229992 -0.060851809 0.01361689
-0.034664076 -0.061745387 0.014057159
-0.033229023 -0.061098523 0.014469653
-0.032408711 -0.061576545 0.015497953
-0.030995307 -0.060921807 0.015824229
-0.029680457 -0.060420927 0.016235858
-0.028483756 -0.060132373 0.016783834
-0.027663477 -0.060646854 0.016874492
-0.026305396 -0.059976302 0.017289072
-0.025585249 -0.060764965 0.017254412
-0.025140949 -0.062305823 0.016414106
-0.023034062 -0.059679158 0.016132921
-0.022433037 -0.060889669 0.015246779
-0.021439822 -0.061103493 0.014992654
-0.020206429 -0.060619283 0.014116079
-0.019249305 -0.060956132 0.013797343
-0.018426893 -0.06178429 0.013756603
-0.016983764 -0.060504656 0.014113575
-0.016361739 -0.062174611 0.014105201
-0.01531201 -0.062341757 0.014509916
-0.013735525 -0.060224995 0.014804572
-0.012894241 -0.061247647 0.015267015
-0.011794002 -0.061114375 0.015303522
-0.010581899 -0.060316831 0.015314162
-0.0094639743 -0.059938502 0.014864624
-0.0085268077 -0.060753502 0.014404118
-0.0074414415 -0.060594592 0.013417065
-0.0064119506 -0.060913529 0.012200236
-0.0053721434 -0.061242435 0.0077753365
-0.1152724 -0.059770871 0.016051799
-0.10835423 -0.056708757 0.024175972
-0.11079376 -0.058532555 0.026225924
-0.10783287 -0.057510864 0.027148604
-0.1077519 -0.058020253 0.027311355
-0.1071651 -0.05826452 0.02755633
-0.10398367 -0.057089072 0.028267592
-0.10439131 -0.057880327 0.027427286
-0.10308945 -0.05773009 0.027349383
-0.10269209 -0.058088455 0.027374238
-0.099786147 -0.057020657 0.027366698
-0.10058364 -0.058068909 0.027275503
-0.097070061 -0.0566242 0.027534842
-0.098775923 -0.058225807 0.027072251
-0.096700728 -0.057608943 0.026871115
-0.095231511 -0.057343703 0.026965886
-0.095087059 -0.057879075 0.026926696
-0.0969074 -0.059635319 0.026833981
-0.091203764 -0.056749009 0.026501358
-0.092142776 -0.057977479 0.026346445
-0.089726776 -0.057098854 0.025774628
-0.09103293 -0.058595907 0.025538325
-0.08977823 -0.058460243 0.024960458
-0.088929504 -0.058588851 0.025041193
-0.087837517 -0.058558345 0.024866998
-0.086579144 -0.058414843 0.024122745
-0.086096801 -0.058797814 0.024158418
-0.08467523 -0.058540899 0.024098933
-0.082968205 -0.058077741 0.024098933
-0.083313234 -0.059057482 0.023808807
-0.08014629 -0.057540927 0.02367571
-0.081164755 -0.059028909 0.023405284
-0.0799575 -0.058916055 0.02363801
-0.079150006 -0.059098672 0.023508251
-0.077808313 -0.058881961 0.022407919
-0.076369546 -0.058584854 0.022598147
-0.077281974 -0.060108207 0.021943659
-0.074898191 -0.059074633 0.021746993
-0.073749319 -0.058999453 0.021538615
-0.073267989 -0.059463874 0.021594763
-0.070494406 -0.058054216 0.021585822
-0.070567347 -0.058981664 0.021040499
-0.0695889 -0.059045129 0.02106604
-0.068022676 -0.058604155 0.020763278
-0.06773489 -0.059268028 0.020546973
-0.06675449 -0.059337322 0.02045387
-0.06555295 -0.059209112 0.020438403
-0.065280646 -0.059929777 0.020223022
-0.063040338 -0.058837652 0.020121634
-0.062300883 -0.059133038 0.020026982
-0.060489874 -0.058404014 0.01958552
-0.059811711 -0.058762386 0.019693971
-0.059134059 -0.059134059 0.019574881
-0.058512148 -0.059576005 0.019072175
-0.056794863 -0.058898374 0.018506587
-0.055761069 -0.058917355 0.018436134
-0.056074828 -0.060388274 0.017799705
-0.053553045 -0.058803342 0.017708451
-0.052105475 -0.058358133 0.017904371
-0.052714769 -0.060245451 0.017826945
-0.050727285 -0.059181832 0.017216235
-0.050093513 -0.059685886 0.017032951
-0.049449954 -0.060199942 0.016745925
-0.047148664 -0.058673892 0.016330481
-0.047040466 -0.059869684 0.016529649
-0.046388865 -0.060413405 0.016377866
-0.044686023 -0.059581365 0.016134828
-0.043842431 -0.059882343 0.015348852
-0.042247586 -0.05914662 0.01490587
-0.041524772 -0.059625316 0.014663041
-0.040755078 -0.060060114 0.014095306
-0.039618198 -0.059962675 0.013890117
-0.038534332 -0.059942294 0.013688505
-0.037335157 -0.059736252 0.013060331
-0.036292426 -0.059775759 0.013028026
-0.035631396 -0.060465399 0.012930572
-0.034514196 -0.060399838 0.013028026
-0.033218067 -0.060006827 0.013877183
-0.032625824 -0.060901538 0.014498204
-0.031056639 -0.059971437 0.014833182
-0.029872857 -0.059745714 0.015526831
-0.028698552 -0.059522923 0.016201198
-0.027312649 -0.058827247 0.016449571
-0.026204474 -0.058698021 0.017289072
-0.025453744 -0.059392072 0.017160863
-0.024665687 -0.060055584 0.017028928
-0.023979878 -0.06103969 0.016961783
-0.022435719 -0.059828583 0.01637283
-0.021368822 -0.059832703 0.016155541
-0.020588176 -0.060680941 0.015193939
-0.019280931 -0.059985124 0.01496923
-0.017994277 -0.059275266 0.014915228
-0.017146036 -0.060011122 0.01496923
-0.01608951 -0.060067505 0.014937818
-0.014817967 -0.059271868 0.014835417
-0.014212618 -0.061223585 0.015786529
-0.012771947 -0.059602421 0.015450627
-0.011681882 -0.059471402 0.015601426
-0.010682151 -0.059820045 0.015252292
-0.0096052587 -0.059766058 0.014987141
-0.0083964514 -0.058775157 0.014753342
-0.0074769836 -0.059815869 0.013512343
-0.0063569304 -0.05933135 0.011149853
-0.0054093273 -0.060584467 0.0052079558
-0.11221453 -0.057146285 0.016348362
-0.11043177 -0.056763988 0.024771929
-0.10877907 -0.05644197 0.026220828
-0.10741913 -0.056267165 0.027320385
-0.10664254 -0.056397501 0.027433425
-0.1059574 -0.056579195 0.02767238
-0.10456654 -0.056383919 0.028416455
-0.106082 -0.057767425 0.027985185
-0.10250098 -0.056375533 0.027690142
-0.10411905 -0.057843916 0.02763018
-0.10205034 -0.057273153 0.027682871
-0.098599136 -0.055906728 0.027591676
-0.099578083 -0.057049945 0.027794391
-0.098718397 -0.057152756 0.027194709
-0.095603757 -0.055938371 0.027133584
-0.096636407 -0.057150561 0.02705586
-0.09542127 -0.057045326 0.026925385
-0.093855329 -0.056725748 0.026865602
-0.094746195 -0.057900451 0.026515394
-0.092482448 -0.057152078 0.026417464
-0.091179065 -0.056986917 0.025891632
-0.092721954 -0.058617331 0.02531606
-0.088974178 -0.056902092 0.024817497
-0.088239998 -0.057096466 0.02475664
-0.088447399 -0.057911988 0.024373919
-0.086101577 -0.057055257 0.024541467
-0.085081272 -0.057066705 0.024117261
-0.085221052 -0.057866149 0.023942828
-0.083199218 -0.057199467 0.024116486
-0.082357042 -0.05733718 0.023784667
-0.080908164 -0.057050627 0.023366034
-0.07996691 -0.05711922 0.023318827
-0.080705665 -0.058405414 0.023357004
-0.078258455 -0.057389535 0.023386717
-0.076747902 -0.057042357 0.022990674
-0.076720171 -0.057802867 0.02288422
-0.075718939 -0.057840861 0.02171883
-0.073955603 -0.057289552 0.021746993
-0.074656956 -0.058659036 0.021511853
-0.072203457 -0.057553481 0.021594763
-0.070278756 -0.056843113 0.021585822
-0.071505047 -0.058698174 0.021241397
-0.070131339 -0.058442786 0.021177202
-0.067890182 -0.057445541 0.020839036
-0.067108251 -0.057671156 0.020572245
-0.065847911 -0.05748627 0.02068159
-0.065200858 -0.057839472 0.020535886
-0.065047324 -0.058649231 0.020390332
-0.062623955 -0.057405293 0.020289272
-0.062963478 -0.058694769 0.020115852
-0.061401322 -0.058225393 0.019595563
-0.060329448 -0.058212627 0.020056367
-0.059746891 -0.058679983 0.019565016
-0.058274921 -0.058274921 0.019315004
-0.056432337 -0.057477377 0.019234121
-0.056627281 -0.058764163 0.018964976
-0.054972041 -0.058143508 0.018418342
-0.053525139 -0.057723191 0.018165022
-0.053211026 -0.05853213 0.01813224
-0.051751029 -0.058087893 0.018036067
-0.050485175 -0.057847597 0.017348498
-0.050544627 -0.059147965 0.017147779
-0.048044723 -0.057444777 0.017117679
-0.04832891 -0.059068665 0.016698152
-0.047132917 -0.058916148 0.016686767
-0.045040704 -0.057610203 0.016530514
-0.045215864 -0.05921125 0.015936971
-0.044165205 -0.059246007 0.015210897
-0.042870171 -0.058946487 0.015034527
-0.04200777 -0.059241727 0.014756054
-0.040819105 -0.059080284 0.014283985
-0.040092297 -0.059596654 0.013903648
-0.038491029 -0.058805741 0.013877183
-0.037798535 -0.059397697 0.013183832
-0.036689453 -0.059350584 0.01301232
-0.035673246 -0.05945541 0.012771368
-0.033928499 -0.05831461 0.01258269
-0.03394255 -0.060220648 0.012932271
-0.03247964 -0.059546009 0.013413161
-0.031292558 -0.05934795 0.01423648
-0.03048536 -0.059881959 0.01423797
-0.028566698 -0.058191422 0.015165776
-0.0273799 -0.057919022 0.015874058
-0.026398757 -0.058077265 0.016332
-0.025310421 -0.058003049 0.016200066
-0.024201049 -0.057872072 0.016766608
-0.02421095 -0.060527381 0.0165295
-0.023050152 -0.060369447 0.01673609
-0.021096131 -0.058014363 0.016637474
-0.020414028 -0.059093237 0.015937746
-0.019179942 -0.058605384 0.015206039
-0.018304093 -0.059219122 0.014924705
-0.016985752 -0.05838852 0.015011549
-0.01583782 -0.058072008 0.015621841
-0.015146713 -0.059504945 0.015697837
-0.013957653 -0.059051611 0.015772313
-0.012626304 -0.057870563 0.015697837
-0.011546366 -0.05773183 0.0155375
-0.01061513 -0.058383219 0.0148682
-0.009479166 -0.057928238 0.014738709
-0.0085017383 -0.058449455 0.014440268
-0.007465153 -0.058654774 0.012943178
-0.0064087426 -0.058746811 0.0094558895
-0.11475871 -0.057379354 0.017660797
-0.11055377 -0.055793494 0.024476051
-0.10742536 -0.054726131 0.025992274
-0.10901861 -0.056066718 0.027220279
-0.10551972 -0.054789085 0.027439088
-0.10677467 -0.055978958 0.027597487
-0.10661323 -0.056442302 0.027985126
-0.10273471 -0.054927468 0.028010339
-0.10223414 -0.055206437 0.02764079
-0.10231009 -0.055805504 0.027682871
-0.10110427 -0.055710524 0.027755469
-0.10108096 -0.056271881 0.027707577
-0.10163566 -0.057170067 0.02757585
-0.097324766 -0.055321448 0.027399778
-0.098012909 -0.056305289 0.026655972
-0.096727327 -0.056164257 0.026964754
-0.093592443 -0.054934695 0.026865602
-0.095837794 -0.056870777 0.026613533
-0.092923857 -0.055754311 0.026303917
-0.092060283 -0.055856805 0.026453704
-0.091862813 -0.056370366 0.025774628
-0.091004275 -0.056485415 0.025407195
-0.089058556 -0.055920489 0.024805784
-0.089605197 -0.056925654 0.024817497
-0.087640904 -0.056340579 0.024344206
-0.086360104 -0.056186095 0.024541467
-0.085424237 -0.056254987 0.024190158
-0.083875962 -0.055917311 0.024130493
-0.083813988 -0.056574445 0.024384439
-0.081783898 -0.055902921 0.02399826
-0.080008708 -0.055390645 0.02353102
-0.080404066 -0.056387264 0.023476928
-0.079296544 -0.056342285 0.02363801
-0.078167908 -0.056280892 0.023624688
-0.07821098 -0.057072878 0.022559822
-0.07629358 -0.056436345 0.022250414
-0.074574172 -0.055930637 0.021938652
-0.07427115 -0.056487922 0.021788478
-0.074543662 -0.057505112 0.021512419
-0.071840592 -0.056223076 0.021516174
-0.072137147 -0.057285383 0.021426916
-0.07047791 -0.056803092 0.021098465
-0.069036379 -0.056484316 0.02106604
-0.068397045 -0.056822166 0.02069363
-0.067378424 -0.056850545 0.02055639
-0.06706553 -0.057484742 0.020621181
-0.065222166 -0.056806404 0.020454407
-0.064190224 -0.056824137 0.020254105
-0.064433977 -0.057990585 0.020121634
-0.062123336 -0.056858648 0.0197846
-0.061393697 -0.057159651 0.019565016
-0.060543638 -0.057357132 0.019374102
-0.058844745 -0.056743152 0.019072175
-0.057856087 -0.056804158 0.018964976
-0.05786749 -0.05786749 0.018752396
-0.055766314 -0.056818511 0.018699795
-0.054697182 -0.056800924 0.018105417
-0.054781042 -0.058003459 0.017888218
-0.053018659 -0.057260152 0.018104851
-0.051485907 -0.056739576 0.018036067
-0.050798491 -0.057148304 0.017320573
-0.04970089 -0.05710315 0.017119855
-0.049748037 -0.058399871 0.016998917
-0.047393598 -0.056872316 0.016858637
-0.045866568 -0.05629079 0.016740531
-0.046489585 -0.058382273 0.016392678
-0.0454151 -0.058390845 0.016134828
-0.04364742 -0.057486843 0.015376508
-0.043365434 -0.058543343 0.014896303
-0.041869216 -0.057972766 0.014527857
-0.040946946 -0.058187764 0.013995171
-0.040301524 -0.058818441 0.013837278
-0.038482133 -0.057723202 0.014021277
-0.037288532 -0.05753088 0.013259232
-0.037446849 -0.059474409 0.012841254
-0.03534326 -0.057834424 0.012828231
-0.034706976 -0.058568023 0.012491167
-0.033542927 -0.058429614 0.012599945
-0.032206614 -0.057971906 0.012759507
-0.031330936 -0.058340363 0.013311714
-0.030335156 -0.05850352 0.013985187
-0.028820395 -0.057640791 0.014213473
-0.027715135 -0.057562206 0.014711201
-0.026493497 -0.057225954 0.015032291
-0.025342021 -0.05701955 0.015218049
-0.024186915 -0.056786668 0.0161376
-0.02305221 -0.0565827 0.016271919
-0.022561073 -0.058014192 0.016793698
-0.022721848 -0.061348993 0.016960084
-0.020307301 -0.05771549 0.016285062
-0.018890787 -0.056672361 0.016119957
-0.017902739 -0.056867529 0.015900493
-0.016686141 -0.056315728 0.0161376
-0.016161948 -0.058183014 0.016454756
-0.015311568 -0.059058908 0.01636216
-0.014043972 -0.058336504 0.016357094
-0.012688509 -0.057098292 0.015728652
-0.011730956 -0.057588331 0.01553756
-0.010564915 -0.057050541 0.014861524
-0.0094904909 -0.056942951 0.014497966
-0.008434982 -0.05693613 0.013293117
-0.0074168984 -0.057216074 0.011567295
-0.0065348689 -0.058813825 0.0064598024
-0.11471821 -0.056296896 0.0183779
-0.10896225 -0.05397195 0.024577558
-0.10947865 -0.054739323 0.025990307
-0.10784825 -0.054437686 0.02717945
-0.10612446 -0.054082654 0.027588636
-0.10650598 -0.054804046 0.027884394
-0.10328677 -0.053668611 0.02838105
-0.10436554 -0.05476607 0.02819699
-0.10360937 -0.054912962 0.027466983
-0.10123754 -0.05419787 0.02736634
-0.10054848 -0.05437826 0.027386159
-0.10035414 -0.054832671 0.027182788
-0.098082468 -0.054149695 0.027472556
-0.099009596 -0.055236932 0.027031809
-0.097252116 -0.054833639 0.026597291
-0.096039891 -0.054732408 0.026597291
-0.095378399 -0.054946251 0.026407421
-0.095996536 -0.055910069 0.026213646
-0.093579493 -0.055107918 0.025970042
-0.094327122 -0.056172334 0.025856525
-0.091803275 -0.055290606 0.025468349
-0.089757942 -0.054680124 0.025506914
-0.089478031 -0.055143438 0.024726093
-0.088150218 -0.054964256 0.024892151
-0.087057061 -0.054928858 0.024317145
-0.08708515 -0.055608585 0.024050474
-0.086194366 -0.055710986 0.024229378
-0.084200077 -0.055093877 0.024219245
-0.082953461 -0.054956671 0.024247766
-0.082212806 -0.05515543 0.024113446
-0.08288563 -0.056319721 0.023834735
-0.080982752 -0.055741373 0.023342609
-0.079150148 -0.055196811 0.023337513
-0.079766117 -0.056368057 0.023386717
-0.077408694 -0.055441357 0.022984713
-0.07580547 -0.055036843 0.022397369
-0.076033242 -0.055968914 0.021943659
-0.073525533 -0.054885261 0.021641821
-0.073562697 -0.055697471 0.021386147
-0.072574757 -0.055745825 0.021310896
-0.071317121 -0.055585399 0.021185279
-0.070476465 -0.055750038 0.020859271
-0.070755407 -0.056818735 0.020755708
-0.067565553 -0.05509191 0.020480037
-0.067484081 -0.055885252 0.020347297
-0.066744648 -0.056150254 0.020561814
-0.064731918 -0.055335343 0.020524681
-0.065297313 -0.056733727 0.020332783
-0.063507617 -0.056098398 0.019954294
-0.061645754 -0.05537669 0.019848794
-0.061326701 -0.056039914 0.019293219
-0.059604473 -0.055421703 0.019274592
-0.05937 -0.056189463 0.019143194
-0.058385339 -0.056262232 0.018851817
-0.057067629 -0.05601082 0.018570632
-0.055666797 -0.055666797 0.018418342
-0.055397589 -0.056462925 0.017639279
-0.053199172 -0.055285413 0.01747787
-0.052561909 -0.055715624 0.017559022
-0.052505229 -0.056791369 0.017615527
-0.050619029 -0.055891842 0.017412812
-0.050261635 -0.056678016 0.017260492
-0.04930833 -0.056811769 0.017040223
-0.047614433 -0.056079216 0.016587734
-0.047354177 -0.057040256 0.0165205
-0.046579644 -0.057412118 0.01614964
-0.044669796 -0.056369025 0.015859723
-0.044300217 -0.057266127 0.015242755
-0.042212587 -0.055931676 0.014956087
-0.041338455 -0.056177899 0.014547914
-0.041028883 -0.057224493 0.013841659
-0.039328005 -0.056334704 0.013751835
-0.038952015 -0.057346027 0.013604552
-0.037960414 -0.057482909 0.012788534
-0.036871303 -0.05747585 0.012599945
-0.035169896 -0.056484982 0.012121737
-0.034743372 -0.05754371 0.011578321
-0.033318471 -0.056963835 0.011851311
-0.03276509 -0.057884991 0.011993647
-0.031136606 -0.056904826 0.012699544
-0.030237013 -0.057234347 0.013271451
-0.02934441 -0.057601985 0.013279796
-0.027848106 -0.056767292 0.013792187
-0.026271399 -0.055695362 0.014504045
-0.025321353 -0.055917986 0.014991969
-0.024286445 -0.055964414 0.015366375
-0.02291768 -0.055210773 0.01561746
-0.022307323 -0.056299433 0.016488642
-0.021245323 -0.056300107 0.016556591
-0.02082218 -0.058082923 0.016295701
-0.020738307 -0.061062798 0.016050756
-0.019446598 -0.060627632 0.016357094
-0.018625377 -0.061696559 0.016454756
-0.016818725 -0.059426159 0.016385108
-0.014426859 -0.054615967 0.016357094
-0.013699861 -0.055853277 0.01624316
-0.012763727 -0.056373131 0.015728652
-0.011575287 -0.055771839 0.015217334
-0.010604036 -0.056201395 0.014702559
-0.0095382063 -0.056169439 0.013329268
-0.0085276803 -0.056495883 0.012505203
-0.0074751792 -0.056597784 0.0094197392
-0.0065192459 -0.057586674 0.0048538148
-0.11173111 -0.053796459 0.019944459
-0.11098375 -0.053936027 0.024638534
-0.10888559 -0.053415574 0.025870711
-0.10703293 -0.053006787 0.027009785
-0.10933523 -0.054667614 0.027427286
-0.1058322 -0.053429853 0.027831972
-0.10504016 -0.053549882 0.028509974
-0.10396475 -0.053526405 0.028161585
-0.10233795 -0.053215735 0.027553588
-0.10065209 -0.052867763 0.027815133
-0.10165015 -0.053936813 0.027534842
-0.10015093 -0.053689159 0.027523369
-0.10046161 -0.054416705 0.027471364
-0.098385677 -0.053853214 0.02707985
-0.096573316 -0.053423535 0.026622653
-0.097762525 -0.054662917 0.026622653
-0.095841542 -0.054171305 0.026513755
-0.094544552 -0.054025456 0.026494652
-0.092806235 -0.053621374 0.026132733
-0.093562618 -0.0546658 0.025978535
-0.091285668 -0.053941533 0.025574178
-0.090176426 -0.053898551 0.025418907
-0.088244356 -0.053357054 0.024730772
-0.089032419 -0.054466892 0.024905056
-0.088267453 -0.054641753 0.024295986
-0.086541884 -0.054219007 0.02424553
-0.085438788 -0.054180693 0.024315923
-0.085373856 -0.054807909 0.024221361
-0.081944816 -0.05326413 0.024149001
-0.082955584 -0.054603677 0.024149001
-0.082193658 -0.054795772 0.02375415
-0.079667963 -0.053801741 0.023347795
-0.079820603 -0.054614093 0.023603797
-0.078007564 -0.054085243 0.023493528
-0.076499827 -0.053756636 0.023328215
-0.07708443 -0.054909453 0.022866011
-0.075564139 -0.054574102 0.022095561
-0.074432231 -0.054513745 0.021788478
-0.073715016 -0.054759726 0.021404594
-0.07221505 -0.054422934 0.021311462
-0.070828624 -0.054163061 0.021185279
-0.071118057 -0.055196103 0.020801306
-0.06889113 -0.05427786 0.020663261
-0.068603434 -0.054882746 0.020199984
-0.06823533 -0.055441208 0.020199984
-0.065926343 -0.054415394 0.020384192
-0.066015869 -0.055368144 0.020208597
-0.064759918 -0.055205174 0.020295084
-0.062547997 -0.054208264 0.019950718
-0.062586546 -0.055161022 0.019606411
-0.061085735 -0.054766521 0.019271821
-0.060773402 -0.055442404 0.0193322
-0.059147306 -0.054922499 0.019024074
-0.057547081 -0.054408152 0.018812299
-0.05679445 -0.05469095 0.01852873
-0.056370776 -0.05530718 0.018428594
-0.054744698 -0.054744698 0.018105417
-0.053763706 -0.054817896 0.017816097
-0.05439084 -0.056566469 0.017613471
-0.052451327 -0.055662636 0.017670065
-0.051638089 -0.055941265 0.017396033
-0.050105441 -0.055435807 0.017230988
-0.048649721 -0.054995336 0.017109782
-0.048273209 -0.055782374 0.016651511
-0.046715993 -0.055209812 0.016691685
-0.045699947 -0.05526505 0.016002476
-0.044845715 -0.055523261 0.015227944
-0.044691723 -0.056682184 0.01513952
-0.042883143 -0.05574809 0.014590979
-0.042008903 -0.056011867 0.014260978
-0.041481227 -0.056763783 0.013895571
-0.039338361 -0.05528634 0.013802379
-0.038793199 -0.056034621 0.013413161
-0.037519258 -0.055742897 0.012850523
-0.036536898 -0.055879962 0.012681693
-0.035749953 -0.056333259 0.011903882
-0.034046616 -0.05532575 0.01146844
-0.033325423 -0.055900704 0.011652291
-0.032515105 -0.056359518 0.011851311
-0.031590853 -0.056645662 0.012539983
-0.030138623 -0.055971731 0.013044208
-0.029146954 -0.056134872 0.012790561
-0.027995115 -0.05599023 0.013132215
-0.026460899 -0.055038668 0.014113009
-0.025378749 -0.054987289 0.01430887
-0.024273429 -0.054879054 0.014731467
-0.02338597 -0.055275932 0.01485315
-0.022101462 -0.054727428 0.015642732
-0.021215925 -0.055161405 0.016126007
-0.02030558 -0.055573162 0.015642732
-0.018707346 -0.054043449 0.014825523
-0.01800373 -0.055070233 0.015642732
-0.01680623 -0.054620244 0.015727431
-0.015577878 -0.054003309 0.015980929
-0.01516332 -0.056320902 0.015777588
-0.013782843 -0.055131372 0.01538375
-0.012396499 -0.053718161 0.01527366
-0.011761863 -0.055601534 0.014712691
-0.01057844 -0.055007886 0.013239861
-0.0095167998 -0.054985955 0.012515485
-0.008647955 -0.056211706 0.0099258125
-0.0075948169 -0.056418639 0.0058541298
-0.1122437 -0.053003967 0.021182954
-0.1104098 -0.052625228 0.02447471
-0.10678475 -0.051377572 0.025644302
-0.10837994 -0.052641682 0.0270181
-0.1066571 -0.052303001 0.027360767
-0.10467453 -0.051829137 0.027831972
-0.10679399 -0.053396996 0.02820614
-0.10484315 -0.0529406 0.027945429
-0.1018225 -0.051929474 0.02764079
-0.10386901 -0.053508274 0.02750051
-0.10125431 -0.052693568 0.027245969
-0.098058864 -0.051556725 0.027325064
-0.099892937 -0.053068124 0.027359515
-0.097430818 -0.052304968 0.027086794
-0.098235801 -0.053298146 0.026563972
-0.097336978 -0.05337834 0.026597291
-0.095685944 -0.053043295 0.02649188
-0.094041497 -0.052704576 0.026213646
-0.093556784 -0.053015511 0.025978059
-0.09208744 -0.05276921 0.026039153
-0.0917501 -0.053173356 0.025710762
-0.091042176 -0.053369552 0.025433064
-0.090672329 -0.053770799 0.024929047
-0.089733534 -0.053840123 0.025084108
-0.086757258 -0.052674048 0.024513066
-0.08687304 -0.053379815 0.024445981
-0.084755152 -0.052713569 0.024446338
-0.084756181 -0.053365003 0.02453351
-0.083284535 -0.053093892 0.024674535
-0.083501399 -0.053905968 0.024628639
-0.079258874 -0.051823109 0.024182379
-0.081009835 -0.053655867 0.023666471
-0.078688554 -0.052804161 0.023690492
-0.077201895 -0.052497286 0.023547351
-0.07787481 -0.053670473 0.023382038
-0.076360755 -0.053347923 0.023328215
-0.074961394 -0.053097658 0.022583425
-0.074197099 -0.05329651 0.022016078
-0.073725164 -0.053714048 0.021793723
-0.071455657 -0.05281505 0.021436214
-0.072902657 -0.054676991 0.021324307
-0.070940085 -0.053999171 0.021032393
-0.069936685 -0.054041982 0.020859271
-0.069307752 -0.054379929 0.020717323
-0.067556754 -0.053834289 0.020899802
-0.067275748 -0.054461319 0.0208942
-0.065402463 -0.053798798 0.020365924
-0.063714705 -0.053269677 0.020208597
-0.063112997 -0.053646047 0.020019084
-0.061942112 -0.05354318 0.019943446
-0.060069896 -0.052820079 0.019466698
-0.05981594 -0.053519525 0.019462645
-0.059507895 -0.054194689 0.01942122
-0.058303323 -0.054063082 0.019024074
-0.0579549 -0.05473518 0.018906564
-0.056356538 -0.054229878 0.018598497
-0.055017546 -0.053959515 0.018546343
-0.05427625 -0.05427625 0.018460393
-0.053378351 -0.054445919 0.018422335
-0.052141115 -0.054269325 0.018053502
-0.051475465 -0.054692682 0.01730451
-0.049420815 -0.053626843 0.017272294
-0.049159765 -0.054503217 0.0169774
-0.048285604 -0.05472368 0.016478121
-0.046442233 -0.053830773 0.016580999
-0.045742705 -0.054252975 0.015242755
-0.044490859 -0.054024611 0.015065581
-0.043738589 -0.054406535 0.014927059
-0.043780189 -0.055819742 0.014425367
-0.041366991 -0.054095298 0.014388323
-0.040716216 -0.054645449 0.01401341
-0.039947983 -0.055063434 0.013903648
-0.038488731 -0.054525703 0.013403386
-0.037674468 -0.054897085 0.012841254
-0.037021767 -0.055532649 0.012161672
-0.035168361 -0.054351103 0.011885673
-0.035133984 -0.055994786 0.011569828
-0.033306003 -0.054793742 0.011437833
-0.032091048 -0.054554779 0.011437833
-0.031639297 -0.055641524 0.011765391
-0.030256255 -0.055109605 0.011733115
-0.02932398 -0.05538974 0.011851311
-0.028427674 -0.055761974 0.01206103
-0.026768077 -0.054606877 0.012623847
-0.025463557 -0.054110061 0.01330325
-0.024469981 -0.054259524 0.013863832
-0.023292372 -0.053995952 0.01429981
-0.02216172 -0.053821318 0.014473885
-0.02124075 -0.054163914 0.01476565
-0.020076662 -0.05388999 0.014722675
-0.018872058 -0.053470835 0.014785856
-0.017929288 -0.053787865 0.014745027
-0.016876334 -0.053793315 0.015011549
-0.01575779 -0.053576484 0.015019119
-0.014664573 -0.053420946 0.014817029
-0.0137149 -0.05380461 0.014712691
-0.012664506 -0.053824153 0.014856249
-0.011655178 -0.054037645 0.014270782
-0.010512855 -0.053615563 0.011338264
-0.0096194074 -0.054509975 0.0098480582
-0.0085461931 -0.054481983 0.0066380203
-0.0076818895 -0.05596805 0.0042577684
-0.11233936 -0.05200896 0.022690713
-0.10938436 -0.051114183 0.024994224
-0.10909837 -0.051461495 0.026439637
-0.10966564 -0.052221734 0.027427286
-0.10642618 -0.051166434 0.027890146
-0.10902224 -0.052923419 0.028495044
-0.10509612 -0.051517706 0.028611273
-0.10414469 -0.051556781 0.028601348
-0.10487663 -0.052438315 0.028187513
-0.10142136 -0.051222906 0.027983367
-0.10161242 -0.051843077 0.027667016
-0.09982232 -0.051454809 0.027475864
-0.098481454 -0.051292423 0.02741307
-0.098612003 -0.051901057 0.027194709
-0.097483777 -0.051853072 0.02679503
-0.094761305 -0.050946936 0.026624054
-0.095318034 -0.05180328 0.026684731
-0.094413027 -0.05187529 0.026411146
-0.092739455 -0.05152192 0.026194751
-0.092971832 -0.052231368 0.026039153
-0.091080248 -0.051750142 0.025879443
-0.090997159 -0.052297223 0.025761843
-0.090948626 -0.052877109 0.025331229
-0.088824235 -0.052249551 0.02543059
-0.086743288 -0.051632911 0.025180191
-0.086343117 -0.052013922 0.024943441
-0.08460056 -0.051585704 0.02485922
-0.084930442 -0.052426204 0.025007814
-0.085388966 -0.053368106 0.024921924
-0.081378058 -0.051505104 0.024917424
-0.081256457 -0.052087471 0.02468434
-0.08046668 -0.052251093 0.024383605
-0.079349309 -0.052203495 0.023808539
-0.0796654 -0.053110268 0.0237616
-0.077387378 -0.052288771 0.023701906
-0.075675301 -0.0518324 0.023536593
-0.075777337 -0.052623156 0.022998184
-0.07471022 -0.052612834 0.022562593
-0.073142335 -0.052244525 0.02237618
-0.073139682 -0.052999772 0.021822333
-0.071391128 -0.052493479 0.021500528
-0.068630144 -0.051216528 0.021242708
-0.070651434 -0.053523816 0.020992011
-0.067336932 -0.051797643 0.021026641
-0.06752751 -0.05275587 0.02122584
-0.066524103 -0.052796911 0.021048665
-0.06466224 -0.052146968 0.020414621
-0.064748555 -0.053072587 0.020378202
-0.063958056 -0.05329838 0.020245045
-0.061671313 -0.052263826 0.020092845
-0.061158024 -0.052722432 0.019420743
-0.060018558 -0.052647859 0.019374102
-0.059096459 -0.052764695 0.019217283
-0.058954172 -0.053594705 0.018906564
-0.057208341 -0.052970685 0.018657237
-0.056548622 -0.053347759 0.01861912
-0.054856498 -0.052746635 0.01837334
-0.054017328 -0.052958168 0.018368542
-0.052476004 -0.052476004 0.018264294
-0.052101161 -0.053164452 0.017824084
-0.050672222 -0.052783567 0.017396033
-0.05046976 -0.053691238 0.017431736
-0.048372913 -0.052579254 0.017040223
-0.047109827 -0.052344251 0.016526192
-0.047038723 -0.053453099 0.016408235
-0.045834366 -0.053295776 0.015327692
-0.044592999 -0.053086903 0.01516825
-0.044618297 -0.054412555 0.014931262
-0.042334192 -0.052917745 0.014281809
-0.04175552 -0.05353272 0.013951629
-0.041266676 -0.054298259 0.013596654
-0.039563473 -0.053464152 0.013274699
-0.037943024 -0.052698649 0.012697518
-0.037816893 -0.054024134 0.011956424
-0.036826149 -0.054156102 0.011694461
-0.035270754 -0.053440541 0.011560231
-0.034341916 -0.053659245 0.010619581
-0.032927301 -0.053108551 0.010646671
-0.032718219 -0.054530367 0.010532856
-0.031521317 -0.054347098 0.010559112
-0.030162517 -0.05386164 0.011277944
-0.029199392 -0.05407295 0.011368662
-0.028069124 -0.053979084 0.011093169
-0.027063208 -0.054126415 0.01146546
-0.025842525 -0.053838596 0.011651069
-0.024494233 -0.053248335 0.012485087
-0.023354083 -0.053077463 0.013665885
-0.022270098 -0.053024042 0.014144063
-0.021120429 -0.052801076 0.01450482
-0.020051884 -0.052768115 0.014271528
-0.018970391 -0.052695531 0.014427274
-0.018097222 -0.053227123 0.014502198
-0.017107921 -0.053462252 0.0146465
-0.015965834 -0.053219449 0.014589041
-0.014624257 -0.052229486 0.014433295
-0.013887393 -0.053413056 0.014270782
-0.012728674 -0.053036146 0.012752533
-0.01161888 -0.05281309 0.011366487
-0.010626204 -0.053131025 0.0098310411
-0.0096583245 -0.053657364 0.0079317987
-0.0086596701 -0.05412294 0.0057830513
-0.11033197 -0.050058022 0.021326929
-0.11212569 -0.051347274 0.024602681
-0.10711923 -0.049517378 0.025820971
-0.1086392 -0.050698288 0.027217388
-0.10819358 -0.050975822 0.02771768
-0.10429411 -0.049615648 0.028420746
-0.10409087 -0.050004438 0.028601348
-0.10639217 -0.051615998 0.028420806
-0.10319735 -0.050566699 0.028391689
-0.10337652 -0.051166154 0.02818507
-0.10134196 -0.050670981 0.027914643
-0.098538302 -0.049777079 0.02771771
-0.10000765 -0.051045574 0.027435601
-0.098606892 -0.050860398 0.027371407
-0.097196147 -0.050666075 0.027193367
-0.097114153 -0.051167671 0.027022392
-0.09504164 -0.050620001 0.026684731
-0.093537852 -0.050366536 0.026291043
-0.094930045 -0.05168413 0.026039153
-0.093488015 -0.051470932 0.025912344
-0.089613363 -0.049898349 0.02569443
-0.091713354 -0.051654644 0.02543959
-0.088012546 -0.05014668 0.025174975
-0.088487729 -0.051010571 0.025382072
-0.089102827 -0.051976647 0.024793386
-0.085251488 -0.05032919 0.024662554
-0.084080637 -0.050243303 0.024489671
-0.084791914 -0.051293876 0.024695724
-0.081514917 -0.04992789 0.024907619
-0.083161458 -0.051581156 0.024683535
-0.081864305 -0.051427573 0.024431705
-0.079808295 -0.050787095 0.024249971
-0.080416799 -0.05184767 0.023693323
-0.079296157 -0.051806822 0.023482084
-0.07585521 -0.050228447 0.023539007
-0.076423652 -0.051298067 0.023146629
-0.075559489 -0.051422432 0.022843629
-0.074063659 -0.051114354 0.022606492
-0.074303508 -0.052012455 0.022096127
-0.073684089 -0.052326381 0.021463126
-0.071631432 -0.051616766 0.021132708
-0.070422567 -0.051503066 0.020748645
-0.069249332 -0.051412385 0.02045238
-0.067465685 -0.050858743 0.020666093
-0.067907184 -0.051991437 0.020815909
-0.065383598 -0.050853908 0.021018893
-0.065961026 -0.052130487 0.020615995
-0.063972071 -0.051387399 0.020550132
-0.062382363 -0.050945595 0.020384192
-0.061601385 -0.05116047 0.020168722
-0.061548058 -0.051997494 0.0194709
-0.060115058 -0.051677857 0.019640803
-0.060195096 -0.05267071 0.019224852
-0.058355048 -0.051989041 0.018671274
-0.05700196 -0.051723998 0.018483609
-0.057061695 -0.052755151 0.018382579
-0.055469111 -0.052268971 0.018284678
-0.054817468 -0.052667763 0.018022388
-0.054047376 -0.052966427 0.01760006
-0.051837135 -0.051837135 0.017411977
-0.051555749 -0.052629828 0.017214894
-0.049611878 -0.051723018 0.017086655
-0.048404064 -0.051560849 0.016706496
-0.048628941 -0.052951511 0.016439676
-0.046489015 -0.051771857 0.016408235
-0.04481047 -0.051063091 0.015676767
-0.044740435 -0.052197173 0.015472382
-0.043345556 -0.05180322 0.01494962
-0.042455371 -0.052007832 0.014477938
-0.042151082 -0.052959051 0.014204293
-0.040644892 -0.052410517 0.013807893
-0.03942379 -0.05220988 0.013672858
-0.038770489 -0.052770942 0.013069004
-0.037948623 -0.053128071 0.012566119
-0.036496907 -0.052598484 0.011971444
-0.035295367 -0.052408271 0.011760145
-0.034095537 -0.052208792 0.011152536
-0.033664975 -0.053212374 0.010915458
-0.032286327 -0.052734334 0.010724962
-0.03140308 -0.053060371 0.011090159
-0.030935803 -0.054137655 0.011368662
-0.029222924 -0.053034194 0.011500269
-0.02782796 -0.052444998 0.011517823
-0.027420275 -0.053743735 0.011384457
-0.025680726 -0.052431479 0.011355519
-0.024612857 -0.052436087 0.011577636
-0.023794604 -0.052997075 0.012149334
-0.022174055 -0.051739462 0.013030797
-0.02139887 -0.052427229 0.013030797
-0.020339405 -0.052454252 0.012785882
-0.019062139 -0.051891379 0.012930185
-0.018026656 -0.051959183 0.012787551
-0.016989272 -0.052029647 0.012779266
-0.015875435 -0.051859751 0.01252088
-0.014977596 -0.052421581 0.01250872
-0.013857805 -0.052233268 0.011724234
-0.012704964 -0.051878601 0.010965139
-0.011869985 -0.052875385 0.0096174479
-0.010763761 -0.052742429 0.0080403686
-0.0098170154 -0.053448197 0.0058904886
-0.0087228194 -0.053427264 0.0045110881
-0.1103943 -0.04906413 0.022529364
-0.11116151 -0.049866844 0.024925828
-0.10816076 -0.048978459 0.025820971
-0.1091617 -0.049902491 0.027176231
-0.10741916 -0.049578074 0.027890146
-0.10483084 -0.048853207 0.028495044
-0.10476663 -0.049301941 0.028664768
-0.10365817 -0.049263287 0.028650969
-0.10250367 -0.04920176 0.028057188
-0.10370249 -0.050279994 0.027983367
-0.099687196 -0.048826385 0.027986735
-0.098623224 -0.048803244 0.02774781
-0.10011508 -0.050057538 0.02750349
-0.098343715 -0.049689457 0.027519405
-0.098454021 -0.050274394 0.027193129
-0.096340746 -0.049724255 0.027143896
-0.095535614 -0.049844667 0.026759923
-0.094870292 -0.050041471 0.026432663
-0.093165018 -0.049688008 0.026350528
-0.091199666 -0.049186338 0.026348025
-0.092173703 -0.050276566 0.025912344
-0.089489684 -0.049373619 0.025608271
-0.088445045 -0.049364675 0.025357097
-0.08884535 -0.050171491 0.025385588
-0.086823337 -0.049613334 0.024773359
-0.087303609 -0.05048883 0.024541467
-0.086454377 -0.050607435 0.024446338
-0.084465303 -0.050053515 0.024698615
-0.084782973 -0.050869785 0.02469489
-0.082931943 -0.050389029 0.02464205
-0.079889715 -0.049162902 0.024483144
-0.080289178 -0.050050396 0.023808539
-0.079350345 -0.050116003 0.023747265
-0.078662865 -0.050344229 0.023494333
-0.077718988 -0.050412312 0.023424417
-0.075406425 -0.049582303 0.023048043
-0.076190695 -0.050793797 0.022978306
-0.076282144 -0.051571026 0.022641689
-0.07298895 -0.050049562 0.022317916
-0.071057998 -0.049431648 0.021538615
-0.072983719 -0.051517919 0.020994246
-0.070731126 -0.050673045 0.020374238
-0.069995031 -0.050905477 0.020273775
-0.069128655 -0.051048856 0.02056241
-0.066220284 -0.049665213 0.020679891
-0.066702731 -0.050821129 0.020687461
-0.065401532 -0.050633445 0.020117462
-0.063296989 -0.049807467 0.020122945
-0.063435338 -0.05074827 0.020109534
-0.062054113 -0.050484698 0.019818783
-0.060742367 -0.05026954 0.019424796
-0.061154298 -0.051498353 0.019462645
-0.059786275 -0.051245376 0.018906862
-0.058649294 -0.051184837 0.018556327
-0.058693901 -0.052172352 0.018211901
-0.056843042 -0.051480491 0.017894626
-0.054480053 -0.050289277 0.017617822
-0.055489104 -0.052225038 0.017235607
-0.053141046 -0.051015403 0.017054945
-0.051581472 -0.050528791 0.016906738
-0.051357407 -0.051357407 0.01643911
-0.049663238 -0.050719902 0.016475022
-0.048927456 -0.051054735 0.016199619
-0.04841857 -0.051646471 0.015856504
-0.046571597 -0.050805379 0.015643448
-0.0461387 -0.051503662 0.015441358
-0.044457771 -0.050808877 0.015431762
-0.043768302 -0.051240936 0.015074492
-0.043443907 -0.052132688 0.01457122
-0.041183561 -0.050687458 0.014272273
-0.041192882 -0.052033115 0.013926327
-0.039823607 -0.051663052 0.013638675
-0.038297884 -0.051063847 0.013094783
-0.037465904 -0.051381811 0.012439013
-0.036448255 -0.051456358 0.012198567
-0.035365578 -0.051440842 0.011834264
-0.033848807 -0.050773207 0.010780454
-0.033575799 -0.05198833 0.010908574
-0.032397348 -0.051835757 0.010884851
-0.031895731 -0.052792933 0.010944337
-0.030522233 -0.052323826 0.011240333
-0.029658927 -0.05272698 0.011472851
-0.028243076 -0.052141063 0.011443973
-0.026843825 -0.051540144 0.011222541
-0.025885629 -0.051771257 0.011222541
-0.024681354 -0.051508911 0.011257142
-0.02350645 -0.051286798 0.011157691
-0.022278424 -0.050922111 0.011901051
-0.021551577 -0.051723789 0.011901051
-0.020245504 -0.051146537 0.011442363
-0.019249627 -0.051332343 0.011499822
-0.018274708 -0.051599175 0.011157691
-0.017025312 -0.051075935 0.011056542
-0.016232278 -0.051943287 0.010780215
-0.015095571 -0.051756244 0.010254055
-0.013961057 -0.051548518 0.010103971
-0.013130663 -0.052522652 0.0092641115
-0.011856222 -0.051736239 0.0084406435
-0.010809946 -0.051887743 0.0062095523
-0.0099828225 -0.053241722 0.0052948892
-0.11202902 -0.04875337 0.022979945
-0.10923799 -0.047983043 0.024925828
-0.10767513 -0.047742747 0.025675863
-0.10879783 -0.048699982 0.027138263
-0.10689982 -0.048310496 0.027639896
-0.10685991 -0.048761319 0.028332561
-0.10430444 -0.048061848 0.028611273
-0.10322991 -0.048037682 0.028420746
-0.10340768 -0.048601609 0.027970642
-0.10130916 -0.048096266 0.027853042
-0.10032023 -0.048112769 0.02774924
-0.10001542 -0.048461083 0.027678311
-0.099023081 -0.048480049 0.027508289
-0.099574871 -0.049263358 0.027449012
-0.097522318 -0.048761159 0.027275532
-0.096993104 -0.049018022 0.026904464
-0.09520372 -0.048636682 0.026973516
-0.095229998 -0.049184725 0.02641356
-0.093456954 -0.048805296 0.02635622
-0.092556611 -0.048878212 0.025984198
-0.090163782 -0.048155658 0.025753319
-0.089916401 -0.048575528 0.025761455
-0.089086086 -0.048686583 0.02532655
-0.089555234 -0.049518775 0.025174975
-0.087968156 -0.049220279 0.024541467
-0.088411175 -0.050064158 0.02419585
-0.084337644 -0.048339866 0.024499267
-0.084253438 -0.048887797 0.024427414
-0.083785199 -0.049223807 0.024445117
-0.082382567 -0.049012415 0.024431705
-0.082300536 -0.049591348 0.024249971
-0.079624847 -0.048602179 0.023703605
-0.078373276 -0.048467681 0.023570806
-0.078475267 -0.049177829 0.023370296
-0.077520616 -0.049236063 0.023265988
-0.076393485 -0.049184844 0.023048043
-0.07610929 -0.049682457 0.022959799
-0.07361073 -0.048728231 0.022623271
-0.074116468 -0.049763914 0.022340983
-0.073553465 -0.050101634 0.021971405
-0.070909254 -0.049010806 0.021255881
-0.072136126 -0.050602954 0.020699859
-0.069376014 -0.049404133 0.020273775
-0.067757174 -0.048993651 0.020577878
-0.06786982 -0.049841899 0.020679891
-0.066702947 -0.049762513 0.020687461
-0.064871021 -0.049176417 0.02001074
-0.064472929 -0.049675867 0.020109534
-0.063324131 -0.049603902 0.020168722
-0.061972916 -0.049368255 0.019755185
-0.061740175 -0.050030831 0.019291788
-0.060392588 -0.049797397 0.019128948
-0.058523674 -0.049118083 0.018511504
-0.059138067 -0.050536167 0.018097758
-0.056390092 -0.049080264 0.017751038
-0.056076579 -0.049728289 0.017423004
-0.055773109 -0.050410312 0.017333448
-0.054175306 -0.049926262 0.016922176
-0.053486906 -0.050277688 0.016682088
-0.053025004 -0.050860722 0.016586125
-0.050812267 -0.049753681 0.016172737
-0.049697377 -0.049697377 0.016481459
-0.049329072 -0.050401442 0.016083419
-0.04794237 -0.050073139 0.015801132
-0.047112186 -0.05032438 0.015605956
-0.04620643 -0.050504703 0.015399277
-0.044526301 -0.04982705 0.015334517
-0.04439605 -0.050893031 0.014923424
-0.043164834 -0.05071868 0.014339268
-0.041390624 -0.049881011 0.014065087
-0.041225456 -0.050989378 0.013718069
-0.039292965 -0.049912684 0.013413191
-0.038993023 -0.05090756 0.012871444
-0.037958235 -0.050972488 0.012225002
-0.03564227 -0.049270194 0.011899889
-0.035232455 -0.05017956 0.011719495
-0.035019666 -0.051435135 0.010965645
-0.033057727 -0.050119776 0.010944933
-0.032327071 -0.050645743 0.010905385
-0.031572204 -0.051168744 0.010908574
-0.029989826 -0.050340064 0.011125922
-0.029217299 -0.050859742 0.011348158
-0.028270166 -0.051103763 0.010945201
-0.026674859 -0.050148733 0.010969937
-0.026913123 -0.052704867 0.010969937
-0.025312932 -0.051726427 0.011165082
-0.024662703 -0.052688506 0.011078238
-0.02317013 -0.051856957 0.011442363
-0.021749005 -0.051110163 0.011442363
-0.020898497 -0.051696282 0.011222541
-0.020048028 -0.05234763 0.011222541
-0.018785086 -0.051935233 0.010289073
-0.017709952 -0.052022982 0.010444492
-0.016595587 -0.051999509 0.010277122
-0.015310119 -0.051398259 0.0099433362
-0.014432533 -0.052179158 0.0096988678
-0.013245641 -0.051878762 0.0087199807
-0.012130046 -0.051828381 0.0065685809
-0.011150924 -0.052409347 0.0054551363
-0.0099514155 -0.051968504 0.0045110881
-0.111187 -0.047357425 0.023130924
-0.11016931 -0.047362506 0.024925828
-0.10917566 -0.047378119 0.025675863
-0.10733146 -0.047021404 0.027542979
-0.1083498 -0.047923952 0.027889103
-0.10578854 -0.047245368 0.028495044
-0.10600364 -0.047805563 0.028844655
-0.10496686 -0.047806688 0.028650969
-0.10241854 -0.047112528 0.028217554
-0.10302539 -0.047870386 0.027949691
-0.10192785 -0.047843687 0.02774924
-0.10037386 -0.047599975 0.027679741
-0.099779673 -0.047811095 0.027612358
-0.098772988 -0.04782692 0.027508289
-0.095269822 -0.046621401 0.027412683
-0.097420216 -0.048186343 0.026917368
-0.094936289 -0.047468144 0.027027458
-0.092718109 -0.046868492 0.0263533
-0.09466897 -0.048386361 0.026339591
-0.092502952 -0.047810517 0.025951803
-0.090579048 -0.047348138 0.025601745
-0.090548895 -0.047876429 0.02566871
-0.090944596 -0.048644785 0.025260985
-0.087796383 -0.047513336 0.025077373
-0.088555202 -0.048494514 0.024721056
-0.086007819 -0.047666982 0.024354756
-0.085645847 -0.048045229 0.024374753
-0.084521979 -0.048000142 0.024364948
-0.082962245 -0.047703292 0.024233699
-0.083306953 -0.048507847 0.024196625
-0.081247099 -0.047914959 0.023941636
-0.079935506 -0.04775368 0.023452729
-0.079639055 -0.048202585 0.023440152
-0.079108909 -0.048520133 0.02327472
-0.076364972 -0.047470115 0.02333805
-0.077002101 -0.048521869 0.023128211
-0.075387686 -0.048164356 0.022988856
-0.074931525 -0.048547186 0.022762895
-0.074680202 -0.049075563 0.022227615
-0.072136179 -0.048090786 0.021786064
-0.070811234 -0.04790172 0.021399617
-0.070526809 -0.04842139 0.020748645
-0.068768069 -0.047929261 0.02045238
-0.068087094 -0.048184711 0.020581841
-0.067873485 -0.04878407 0.020679891
-0.065556563 -0.047866695 0.020832717
-0.066065893 -0.049016632 0.020069689
-0.064041629 -0.048293691 0.020109534
-0.062169962 -0.04766364 0.020099849
-0.063319944 -0.049368091 0.019466698
-0.062119186 -0.049266938 0.018696338
-0.05927112 -0.047832835 0.018974602
-0.059635472 -0.048986282 0.018247157
-0.057708859 -0.048265595 0.017837435
-0.057073854 -0.048618466 0.017670631
-0.056375686 -0.048929844 0.017541289
-0.054998465 -0.048652489 0.017531753
-0.054058805 -0.048758924 0.017181396
-0.05270249 -0.048486289 0.016867727
-0.051958628 -0.048777487 0.016821802
-0.051793862 -0.049635787 0.016586125
-0.049685989 -0.048628841 0.016500056
-0.048733968 -0.048733968 0.01641652
-0.049169607 -0.050262265 0.015957654
-0.046977162 -0.049112488 0.015650839
-0.045807716 -0.049003601 0.015452772
-0.044946339 -0.049226943 0.014985979
-0.043879889 -0.049231093 0.014612466
-0.042829879 -0.049254362 0.014272273
-0.042244211 -0.04982651 0.014022976
-0.040370904 -0.048870042 0.013643026
-0.039583128 -0.049211454 0.013775647
-0.03910403 -0.049966265 0.013015032
-0.03772191 -0.04957737 0.012444854
-0.036165494 -0.048929784 0.011567384
-0.035539351 -0.049539704 0.011662632
-0.034167819 -0.049116239 0.010968864
-0.033638213 -0.049914766 0.010944337
-0.032475833 -0.04979628 0.01088804
-0.030971454 -0.049127135 0.011109918
-0.030257266 -0.049708366 0.011183441
-0.029181579 -0.049716763 0.011185557
-0.027783152 -0.049154807 0.010452211
-0.027262894 -0.050163724 0.010169357
-0.02637369 -0.050549574 0.009930402
-0.024777682 -0.049555365 0.0099618137
-0.024526041 -0.051281724 0.0095336437
-0.022700364 -0.049724609 0.0097868443
-0.021959722 -0.050507363 0.0097868443
-0.021136712 -0.051173095 0.0095911026
-0.019615872 -0.050129451 0.0096890628
-0.018444758 -0.049909346 0.009201169
-0.017602682 -0.050607715 0.0095938742
-0.016216248 -0.049729832 0.0092285872
-0.015474694 -0.050845426 0.0088621974
-0.014365831 -0.050832946 0.0086792409
-0.013078687 -0.050134968 0.006683588
