ply
format ascii 1.0
comment PCL generated
element vertex 1311
property float x
property float y
property float z
element camera 0
property float view_px
property float view_py
property float view_pz
property float x_axisx
property float x_axisy
property float x_axisz
property float y_axisx
property float y_axisy
property float y_axisz
property float z_axisx
property float z_axisy
property float z_axisz
property float focal
property float scalex
property float scaley
property float centerx
property float centery
property int viewportx
property int viewporty
property float k1
property float k2
end_header
-0.089149885 0.09324874 0.02633819
-0.089184463 0.094369613 0.026345134
-0.086859174 0.092990413 0.025891125
-0.086509831 0.093718983 0.025619239
-0.086371981 0.094696991 0.024929434
-0.083994694 0.093213618 0.024626166
-0.083476767 0.093782544 0.024559855
-0.082988381 0.094399296 0.024669647
-0.081333406 0.093687855 0.024437875
-0.080786504 0.094250925 0.023768038
-0.079790749 0.094298162 0.023534298
-0.077736102 0.093078755 0.023161352
-0.078409046 0.095136315 0.022474766
-0.077110983 0.09482567 0.022302777
-0.074934565 0.093411572 0.02184698
-0.075562261 0.09550231 0.021677971
-0.073724084 0.094491437 0.021424264
-0.073006585 0.094908565 0.021463305
-0.072821893 0.096040472 0.021352768
-0.070027977 0.093713917 0.021168023
-0.069662012 0.094615571 0.021277696
-0.069067121 0.095228918 0.021165341
-0.06748537 0.094479524 0.020261765
-0.066938199 0.095177755 0.020427346
-0.066197962 0.095619276 0.020115316
-0.063319236 0.092936292 0.020115376
-0.06422513 0.09581127 0.019787937
-0.062961526 0.095491648 0.019127429
-0.061100286 0.094239421 0.018838376
-0.060935371 0.095605493 0.018837899
-0.059804123 0.095476769 0.018749267
-0.058672026 0.09534204 0.018148899
-0.058164794 0.096236296 0.017918855
-0.056746632 0.095628582 0.01742053
-0.05513189 0.094660416 0.016797662
-0.055402625 0.096954599 0.016706437
-0.053330466 0.095158286 0.016474605
-0.053132407 0.096700981 0.016510725
-0.052081965 0.096723653 0.016647935
-0.05020871 0.095187351 0.016701847
-0.049676128 0.096181437 0.016323
-0.048428603 0.095804408 0.015925884
-0.046973567 0.094990991 0.015409887
-0.046932761 0.097065486 0.015657425
-0.045443032 0.096170135 0.015524298
-0.043803591 0.094907783 0.015061319
-0.043850493 0.097326703 0.014502794
-0.042192306 0.095987506 0.013953984
-0.041345585 0.096473038 0.013432384
-0.040591545 0.097206071 0.012932092
-0.039378714 0.09685035 0.012677312
-0.037845045 0.095663875 0.012573034
-0.037705522 0.09803436 0.012279272
-0.036039352 0.096458271 0.011868536
-0.034421079 0.094918743 0.011288017
-0.0341204 0.097029887 0.011338651
-0.032856282 0.096449085 0.01073736
-0.032691602 0.099164531 0.010446101
-0.031280607 0.098156385 0.010701001
-0.029012857 0.094291791 0.010249943
-0.029040065 0.097875774 0.010062695
-0.027751362 0.09712977 0.0096820891
-0.026428388 0.096199334 0.0094221532
-0.025870664 0.098092943 0.0092349648
-0.024677385 0.09763661 0.0088047087
-0.023535762 0.097352475 0.008449316
-0.022552365 0.097726919 0.0079426765
-0.021267265 0.096766062 0.007522881
-0.020194951 0.096723191 0.0073190928
-0.01940573 0.098106757 0.0070433617
-0.01823158 0.097592577 0.0070030391
-0.01728534 0.098310366 0.0068255365
-0.016134305 0.097881459 0.0068243146
-0.014856994 0.096570469 0.0067180395
-0.014158438 0.099109069 0.0065631866
-0.012989708 0.098505296 0.0055378675
-0.011719103 0.096948944 0.0052515566
-0.010978929 0.099908255 0.0048389137
-0.0097585488 0.098669775 0.0041032732
-0.0086414143 0.098296098 0.0040400326
-0.11041709 0.094938055 0.023726076
-0.10862052 0.094274417 0.026027709
-0.10613571 0.092995107 0.027206033
-0.10731288 0.094930626 0.028548062
-0.10502451 0.093808301 0.028914481
-0.10428797 0.094063662 0.02941224
-0.10365639 0.094419681 0.02951017
-0.1015678 0.09344238 0.029564202
-0.099836171 0.092777044 0.029706866
-0.10077992 0.09460973 0.029563725
-0.098774053 0.093682609 0.029349238
-0.09778107 0.093706861 0.02899313
-0.097667046 0.094582826 0.028933555
-0.094893657 0.092874646 0.028913409
-0.095814742 0.094784476 0.028508276
-0.094700657 0.094700657 0.028168321
-0.091803364 0.092812188 0.027953237
-0.091588095 0.093623385 0.027475208
-0.091660455 0.094750136 0.027036488
-0.090532899 0.094648033 0.026755452
-0.090332516 0.095524043 0.026269048
-0.088452794 0.094623916 0.026030809
-0.087466814 0.09466996 0.025467277
-0.086313121 0.094533421 0.025294721
-0.085418046 0.094680242 0.024900347
-0.084342636 0.094628319 0.024653077
-0.084391743 0.095852353 0.024491429
-0.081820413 0.094093479 0.024719566
-0.08236029 0.095913254 0.024762213
-0.080475472 0.094919793 0.023942173
-0.079564489 0.095064066 0.023533374
-0.079920083 0.096745364 0.023386687
-0.077640042 0.095238455 0.023057222
-0.076300099 0.094859578 0.022774875
-0.076458268 0.096358359 0.022442669
-0.074721731 0.095477775 0.022225678
-0.072999224 0.094590545 0.021906853
-0.073386289 0.09645056 0.021896243
-0.071287312 0.095049754 0.021727443
-0.071139053 0.096246958 0.021431863
-0.070611425 0.096958973 0.021430999
-0.068321928 0.095236629 0.021330833
-0.066369951 0.093939014 0.020561516
-0.067361139 0.096831642 0.02045995
-0.065267332 0.095311023 0.020201743
-0.06492494 0.096340232 0.020106673
-0.063943602 0.096439533 0.019766331
-0.062028408 0.09511023 0.018810689
-0.061463382 0.095841207 0.018626571
-0.060991641 0.096745364 0.018571675
-0.059299197 0.095710985 0.018671244
-0.05907926 0.097058788 0.018072516
-0.057579819 0.096315332 0.017919511
-0.055962313 0.095343202 0.017543882
-0.056239396 0.09762311 0.016940802
-0.054171305 0.095841542 0.016726285
-0.053735018 0.09693376 0.016489267
-0.052567173 0.096723594 0.016490132
-0.051582787 0.096849322 0.016931206
-0.050918393 0.097593591 0.016719103
-0.049433049 0.096762568 0.016505003
-0.047704477 0.095408954 0.015977383
-0.047860101 0.09784732 0.015925884
-0.04624201 0.096687838 0.015908986
-0.045133982 0.096565731 0.015580386
-0.045239951 0.099097036 0.014929175
-0.043601442 0.097837381 0.014502794
-0.042193256 0.09704449 0.013953984
-0.041111067 0.096979961 0.013378263
-0.039730988 0.096190818 0.012795687
-0.039232671 0.097551502 0.012590975
-0.038436264 0.098226011 0.012258202
-0.037397131 0.098301031 0.012021452
-0.035627268 0.096403196 0.011506587
-0.035504941 0.098983474 0.01133287
-0.033561666 0.096489787 0.011373043
-0.033244491 0.098661073 0.010803014
-0.032231219 0.098842405 0.010426164
-0.030620785 0.097141802 0.010679275
-0.029981557 0.098510839 0.01023376
-0.028696151 0.097779483 0.010040969
-0.027394034 0.096932739 0.0095814168
-0.026722517 0.098338857 0.0093314946
-0.025445195 0.097539917 0.0092114508
-0.024602616 0.098410465 0.0090514123
-0.023537375 0.098429024 0.0085571408
-0.022459136 0.098392412 0.0082571507
-0.021364946 0.098278761 0.0077335835
-0.020569729 0.099600792 0.0073788166
-0.019327886 0.09878698 0.0072665811
-0.018243898 0.098731682 0.0070786178
-0.017330116 0.09964817 0.0069226623
-0.015990153 0.098072946 0.0069943964
-0.015259672 0.10027785 0.006695509
-0.013965443 0.098832369 0.0064544678
-0.012790207 0.098058254 0.0055341721
-0.011920531 0.099698998 0.0052760243
-0.010838116 0.099710666 0.0046381354
-0.009631875 0.098459169 0.0040856004
-0.11024353 0.095819138 0.023843765
-0.10683346 0.093731247 0.025898904
-0.10775462 0.095439807 0.027155906
-0.1057786 0.094590478 0.028593808
-0.10481604 0.094639726 0.029050022
-0.10466915 0.09543363 0.029570729
-0.10322997 0.095053338 0.029722571
-0.10210379 0.094956525 0.029570729
-0.10138489 0.095240347 0.029671252
-0.099991627 0.094890021 0.029587805
-0.099120803 0.095033355 0.029313982
-0.098729551 0.095644251 0.02899313
-0.095626265 0.093613088 0.029003739
-0.096841425 0.095811196 0.028693616
-0.095543869 0.095543869 0.028539926
-0.093419522 0.094434947 0.028168321
-0.094594181 0.096673168 0.028016955
-0.093158767 0.096264057 0.027555317
-0.091240481 0.095341183 0.027252257
-0.09143085 0.096625783 0.027026296
-0.089658283 0.095841609 0.026512176
-0.088931218 0.096169807 0.026475698
-0.088305674 0.096616797 0.026034564
-0.085451424 0.094606936 0.025877446
-0.085348859 0.095631845 0.025454432
-0.084699303 0.096061401 0.025080383
-0.083346575 0.095694222 0.024930745
-0.083521374 0.097093605 0.024836302
-0.081625603 0.096090898 0.024786383
-0.079918586 0.095287547 0.024028182
-0.079859428 0.0964536 0.023768038
-0.079282947 0.097017288 0.023684829
-0.076845139 0.095287971 0.023096144
-0.077349536 0.09720955 0.022481054
-0.076131605 0.096989572 0.022386938
-0.074783042 0.096594773 0.022247583
-0.074655637 0.097788379 0.021906853
-0.072125874 0.095824383 0.021800935
-0.071718074 0.09666349 0.021712571
-0.071109049 0.097252078 0.021371633
-0.070416592 0.097742438 0.021412343
-0.068614356 0.096683867 0.021267444
-0.069708921 0.099737383 0.020360053
-0.065886617 0.095741495 0.020354539
-0.066071883 0.097534679 0.020094305
-0.064416789 0.096625179 0.019914389
-0.063662015 0.097058482 0.019299924
-0.063264467 0.098059922 0.018787205
-0.062252376 0.098126628 0.018562704
-0.059884414 0.096021563 0.018562704
-0.059964739 0.09783721 0.018483043
-0.058563009 0.097256429 0.018120795
-0.057888739 0.097884595 0.017919511
-0.056905143 0.098003298 0.017543882
-0.055725161 0.097781889 0.016783118
-0.054209463 0.096951544 0.016706437
-0.054006569 0.098482564 0.016478866
-0.052683193 0.097990744 0.016518563
-0.051861197 0.09843044 0.016923368
-0.050468944 0.09778358 0.016630262
-0.049223244 0.097399183 0.016505748
-0.048544727 0.09814477 0.01603809
-0.047377203 0.097912878 0.015783399
-0.045816783 0.096840024 0.015713513
-0.045523502 0.098457806 0.015524298
-0.044351827 0.098207615 0.014929175
-0.043122236 0.097813845 0.014493376
-0.04216323 0.098029517 0.013854951
-0.041808154 0.099696375 0.013409138
-0.039940845 0.097749963 0.012921304
-0.039655607 0.099674903 0.01271987
-0.037978701 0.098111644 0.012677461
-0.037370548 0.099298894 0.012133181
-0.036290068 0.099264011 0.011568606
-0.035047974 0.098771572 0.011560172
-0.033956427 0.098685861 0.011493891
-0.033292446 0.099877343 0.011211932
-0.031593453 0.097939707 0.011078864
-0.031045616 0.099560075 0.010944873
-0.030031549 0.099747643 0.010355443
-0.028741281 0.098997742 0.010237634
-0.028030945 0.10026454 0.0096820891
-0.026309241 0.097870372 0.0093739629
-0.025577849 0.099114165 0.0094387233
-0.02480056 0.10028052 0.0089142323
-0.023279207 0.098407567 0.00860852
-0.022363393 0.099037878 0.0084190965
-0.021583419 0.1003629 0.0077819824
-0.020193245 0.098840624 0.0073080361
-0.019215841 0.099281847 0.0070573092
-0.018357987 0.10042898 0.0069594979
-0.01701392 0.098893411 0.0068138242
-0.016125619 0.099978842 0.0068516731
-0.015189815 0.10090377 0.006695509
-0.013762549 0.098455161 0.0067982376
-0.013069577 0.10128923 0.0057543516
-0.011829097 0.10000964 0.0057294667
-0.010605958 0.098635413 0.004919678
-0.0097356103 0.10060132 0.004276365
-0.0086410102 0.10045175 0.0040935278
-0.10987287 0.096523829 0.023632199
-0.10912361 0.096769996 0.026051372
-0.1057119 0.094637319 0.02736488
-0.10613647 0.095931038 0.028656989
-0.10587633 0.096625 0.029188812
-0.10403866 0.095878772 0.029691637
-0.10287911 0.095748879 0.029782593
-0.1027771 0.096610479 0.029779702
-0.10045772 0.095384099 0.029817432
-0.099599719 0.095534429 0.02958858
-0.10002143 0.096927986 0.029288143
-0.097745463 0.0957091 0.029012352
-0.097306639 0.096282355 0.029037207
-0.095169567 0.095169567 0.029032618
-0.093894437 0.09490405 0.028663605
-0.094292171 0.096341997 0.028353333
-0.09321522 0.096288241 0.028095037
-0.091575265 0.095645271 0.027526855
-0.091507152 0.096648008 0.027101845
-0.089870527 0.095998064 0.026789606
-0.088443689 0.09555985 0.026423633
-0.088988967 0.097267009 0.026234925
-0.086613461 0.095784299 0.025835991
-0.08674939 0.097076692 0.025801837
-0.085704267 0.097062655 0.025294721
-0.084477566 0.096840136 0.025084674
-0.083160624 0.096507393 0.02496317
-0.082721688 0.097197987 0.02499193
-0.081407011 0.096864045 0.024854124
-0.081222281 0.097883262 0.024452448
-0.07971786 0.097317904 0.023922652
-0.077528171 0.095890112 0.023768038
-0.077425845 0.097040385 0.023368984
-0.076841146 0.097609021 0.022774875
-0.074111119 0.095430754 0.022452027
-0.075138569 0.098097578 0.022360593
-0.07311628 0.09680184 0.021992266
-0.072353296 0.097160138 0.02189213
-0.072442837 0.098690249 0.021798939
-0.069971614 0.096725464 0.021415442
-0.069675997 0.097754382 0.02154389
-0.068933159 0.098177537 0.021261066
-0.067826763 0.098087937 0.020502031
-0.067164779 0.098648272 0.020740449
-0.065673873 0.097989589 0.020216078
-0.064476505 0.097754695 0.020199716
-0.064318754 0.09911415 0.019830376
-0.062831931 0.098436691 0.018972695
-0.060610086 0.096565224 0.018679917
-0.060946181 0.098774843 0.018457979
-0.059751179 0.098537035 0.018367916
-0.058182038 0.09766271 0.018084377
-0.057789281 0.098767132 0.017892838
-0.056117784 0.097686507 0.017604977
-0.055479508 0.09839762 0.017333895
-0.055184312 0.099756263 0.016706437
-0.053313166 0.09826348 0.016478866
-0.052297954 0.098320149 0.016591668
-0.052066803 0.099883258 0.016931206
-0.049677268 0.097284652 0.016806841
-0.049556661 0.099113323 0.016593486
-0.048919775 0.099966489 0.016059011
-0.046868011 0.097902067 0.015868008
-0.046833061 0.10005245 0.01567775
-0.045336086 0.099106796 0.015505105
-0.044131584 0.098770685 0.014879882
-0.04409631 0.10109886 0.014339089
-0.041773804 0.09816844 0.013762712
-0.041162949 0.099213265 0.013409138
-0.040767912 0.10084693 0.012923628
-0.039231338 0.099668801 0.01271987
-0.038149409 0.099612355 0.012763917
-0.037513528 0.10075063 0.012219638
-0.036288202 0.10032621 0.011560172
-0.034991588 0.099673018 0.011435777
-0.033905536 0.099597514 0.011493891
-0.03245391 0.098408625 0.011211932
-0.032316647 0.10125884 0.011085719
-0.031227689 0.10122079 0.010759085
-0.029106298 0.097713999 0.010448247
-0.029464273 0.10257932 0.010314554
-0.027756719 0.10035121 0.0098206997
-0.026491724 0.099608876 0.0097663105
-0.025614928 0.10032514 0.0095589161
-0.024274332 0.099208139 0.0092426538
-0.023288514 0.099505477 0.008908689
-0.022675956 0.1015019 0.0087533295
-0.021352125 0.10035499 0.0086559355
-0.020233907 0.10010459 0.0076541007
-0.019415502 0.10139207 0.0072633028
-0.01821374 0.10071126 0.0070210397
-0.017319584 0.10175256 0.0068351328
-0.016236819 0.10175073 0.006995827
-0.01484006 0.099640399 0.0067415237
-0.013956236 0.10091432 0.0066591501
-0.012803887 0.10029712 0.0056525469
-0.011813411 0.10095097 0.0055065453
-0.010770395 0.10124172 0.0048848093
-0.0096971048 0.10128088 0.004257232
-0.0086262552 0.1013585 0.0040935278
-0.11356266 0.10082665 0.015385866
-0.10836611 0.097120576 0.026024699
-0.10563829 0.095577501 0.027480483
-0.10755809 0.09825018 0.028848618
-0.10516861 0.097000174 0.029207617
-0.10385465 0.096727371 0.029793769
-0.10378496 0.097619519 0.030001968
-0.10132207 0.096255966 0.02982524
-0.099114157 0.095109537 0.029740602
-0.1010344 0.097941503 0.029563725
-0.098730676 0.096694991 0.029321373
-0.099357434 0.098322459 0.029105812
-0.097644851 0.097644851 0.029012352
-0.095146172 0.096158363 0.028684646
-0.095889367 0.097951502 0.028622359
-0.094252601 0.097326055 0.028235316
-0.093444899 0.097552359 0.027983487
-0.092632137 0.097778365 0.027523845
-0.092381991 0.098609991 0.027337462
-0.090093039 0.097259536 0.026948512
-0.090264656 0.098564856 0.026405662
-0.088067345 0.097283691 0.026133597
-0.086522564 0.096701689 0.025856882
-0.087044589 0.098443285 0.025892764
-0.084615655 0.09684924 0.025601
-0.084646814 0.098066427 0.025360405
-0.084567986 0.099184677 0.02480346
-0.081596307 0.09689562 0.02499944
-0.082090296 0.098716184 0.024814218
-0.082105875 0.10000075 0.024312764
-0.079441309 0.098012 0.023856908
-0.079002544 0.098753184 0.023656279
-0.078303143 0.099183977 0.023640394
-0.075745285 0.09724056 0.02298063
-0.076309569 0.099306971 0.022499323
-0.074433029 0.098210253 0.022242874
-0.073541448 0.098400533 0.022189766
-0.073218711 0.099368252 0.021914929
-0.071604118 0.098585375 0.021508932
-0.070283763 0.098190553 0.021347314
-0.069951877 0.099185497 0.021665692
-0.06852445 0.098633684 0.021091372
-0.06740506 0.098515086 0.020472795
-0.067473255 0.10015561 0.020740449
-0.06529811 0.098465398 0.020261616
-0.064866789 0.099392653 0.020415485
-0.063879058 0.099483773 0.020106673
-0.062121261 0.098358661 0.018972695
-0.062461667 0.10057387 0.018679917
-0.061348878 0.10048523 0.018431991
-0.059035093 0.098391823 0.018368393
-0.058999382 0.10008824 0.017980158
-0.058297623 0.10069589 0.017735064
-0.056741249 0.099822558 0.017545223
-0.0564656 0.10121193 0.016872019
-0.054046024 0.098737925 0.016706437
-0.053641118 0.099919721 0.016478866
-0.052834488 0.10038552 0.016609937
-0.051362649 0.099580653 0.01676026
-0.051196996 0.10132739 0.016993791
-0.049645651 0.10034759 0.016414225
-0.048068292 0.099271476 0.016066968
-0.048598919 0.10259771 0.015535891
-0.046550211 0.10050614 0.01533094
-0.044859394 0.099107966 0.015135914
-0.044622742 0.10093239 0.014885485
-0.043057773 0.099768005 0.014323711
-0.042024639 0.099808514 0.013685435
-0.042061482 0.10245746 0.013332397
-0.040035948 0.10008987 0.013183594
-0.038831361 0.099702135 0.012742221
-0.038798425 0.10238474 0.012806326
-0.037159611 0.1008618 0.012760401
-0.03628011 0.10137089 0.011828065
-0.035461962 0.10208747 0.011559129
-0.033544112 0.09958408 0.011493891
-0.033147406 0.10158076 0.011214614
-0.032147795 0.10180135 0.011273175
-0.030185757 0.098884374 0.011057138
-0.029985026 0.10173491 0.010397583
-0.02887566 0.10159954 0.010320038
-0.027364109 0.099984244 0.0098861456
-0.027005466 0.10262077 0.0097406209
-0.025512524 0.10098708 0.0095144212
-0.024771681 0.10231781 0.0092381835
-0.023902413 0.10321497 0.0088462234
-0.022313686 0.10094287 0.0087627172
-0.021472944 0.10199649 0.0086559355
-0.020580677 0.10290338 0.0076380968
-0.019366259 0.10221081 0.0072633028
-0.018148148 0.10141613 0.0070020258
-0.01717997 0.10200606 0.0068255365
-0.015888043 0.10062427 0.0071246028
-0.015161308 0.10288031 0.0068160594
-0.013896021 0.10154784 0.0066809356
-0.012849391 0.10172435 0.0060597956
-0.011885743 0.1026496 0.0056464672
-0.010721081 0.10185027 0.0053294301
-0.0096681975 0.1020532 0.0046874285
-0.0087258266 0.10361919 0.0041531324
-0.11330614 0.10165784 0.014769793
-0.1071463 0.097038157 0.025935978
-0.10872509 0.099405803 0.027540803
-0.10596462 0.097813487 0.029070556
-0.10472768 0.097610265 0.029520124
-0.10377006 0.097665943 0.029886454
-0.10243862 0.097367398 0.02996859
-0.10197672 0.097897641 0.029917926
-0.10119567 0.098129131 0.029817432
-0.099691667 0.097657144 0.029587805
-0.099226452 0.098203503 0.029321462
-0.0982178 0.0982178 0.029016048
-0.097312614 0.098336957 0.029049516
-0.096784905 0.098844156 0.028731972
-0.095278524 0.098352022 0.028622359
-0.093105316 0.097153373 0.028340757
-0.094042592 0.099209763 0.027983487
-0.091784656 0.097903624 0.027659446
-0.091047913 0.098208986 0.027265042
-0.090860769 0.09912084 0.026791036
-0.088600919 0.097766533 0.026215851
-0.088463925 0.098750427 0.026030809
-0.087832995 0.099199615 0.025707185
-0.086031221 0.098321393 0.025713205
-0.08552973 0.098925948 0.025452763
-0.0850586 0.099580795 0.025137216
-0.08375866 0.099269524 0.024785489
-0.082860291 0.099432349 0.02499944
-0.081935205 0.099566832 0.024797559
-0.0790077 0.097240247 0.024531126
-0.079990335 0.099728212 0.02407819
-0.078751162 0.099475145 0.023818642
-0.076711684 0.098190956 0.023668677
-0.077642776 0.10072576 0.022723466
-0.076084554 0.10005639 0.022452027
-0.075376257 0.10050168 0.022242874
-0.073613137 0.09953326 0.02189213
-0.07145188 0.097991154 0.021820694
-0.071512349 0.099495441 0.021406829
-0.071179941 0.10048933 0.020882279
-0.069999665 0.10029802 0.021149814
-0.067787379 0.098599829 0.020847827
-0.068079799 0.10054862 0.020360053
-0.066288702 0.09943305 0.020321935
-0.06577532 0.10022906 0.020260304
-0.064616516 0.10005137 0.020195931
-0.062824138 0.098870777 0.019628972
-0.062738173 0.10038107 0.019017249
-0.062357865 0.10146364 0.018627048
-0.060463607 0.10007769 0.018626571
-0.060391668 0.10171229 0.018509001
-0.058292229 0.099929534 0.01804176
-0.057525095 0.10040744 0.018171757
-0.057487518 0.10220003 0.017801821
-0.055228077 0.10003576 0.016940564
-0.054728705 0.10103761 0.016696155
-0.053632297 0.10095491 0.016478866
-0.052169416 0.10016528 0.016650826
-0.051582165 0.10105894 0.016905367
-0.050659653 0.10131931 0.01692012
-0.048599102 0.099266253 0.016453594
-0.048504993 0.10122781 0.016083449
-0.047762852 0.10189408 0.01569736
-0.046000231 0.10036414 0.015580386
-0.04588414 0.10243901 0.015135914
-0.044473942 0.10165472 0.014720947
-0.04337962 0.10157179 0.014035225
-0.042352851 0.10164685 0.013422221
-0.040942162 0.10078071 0.013223976
-0.039672524 0.10022531 0.013018548
-0.039757892 0.10315561 0.012739897
-0.037900619 0.10106833 0.01268962
-0.037066411 0.10166787 0.012289196
-0.036185432 0.10217063 0.011787742
-0.034892067 0.10150419 0.011775911
-0.034342472 0.10302741 0.011348307
-0.03310864 0.10252997 0.011415213
-0.031441413 0.10061251 0.011566997
-0.031290546 0.10358249 0.011275858
-0.03006424 0.1030774 0.010858744
-0.028891375 0.10272489 0.010326892
-0.027827203 0.10274659 0.0098253787
-0.026991757 0.10364834 0.009591043
-0.025489647 0.10195859 0.0095354021
-0.02469511 0.10307524 0.0089107156
-0.023838159 0.10402106 0.0087708831
-0.021993974 0.10054388 0.0086794198
-0.021539023 0.10338731 0.008410573
-0.020482432 0.10349018 0.0078346133
-0.01906533 0.10168176 0.0073595643
-0.018305101 0.10336997 0.0070423484
-0.017022405 0.10213443 0.0070688725
-0.016184827 0.10358289 0.0071750581
-0.015059846 0.10326751 0.0070767105
-0.013758754 0.10160311 0.006914705
-0.012977984 0.10382387 0.0064192712
-0.011901204 0.10386506 0.0059837699
-0.010733407 0.10304071 0.0055668652
-0.0097198272 0.10367816 0.0049007535
-0.0085349977 0.10241997 0.0043707192
-0.11314134 0.10256737 0.013903141
-0.10783724 0.098681249 0.025848985
-0.10704513 0.098889306 0.027496129
-0.10531633 0.098227732 0.029037446
-0.10609256 0.099912405 0.029521465
-0.10326262 0.098200724 0.02979213
-0.10366235 0.099556901 0.030073732
-0.10381057 0.10069625 0.030095607
-0.099772237 0.097756624 0.030050933
-0.10008422 0.099062949 0.029761344
-0.10015197 0.10015197 0.029563725
-0.097206287 0.098218858 0.029376149
-0.098038889 0.10010286 0.029395372
-0.096004814 0.099068791 0.029032618
-0.095474139 0.099580556 0.028581232
-0.095576696 0.10077108 0.028296471
-0.093322806 0.099475957 0.027737051
-0.091359608 0.098465346 0.027613968
-0.092276745 0.10057129 0.027149707
-0.090296209 0.099531047 0.026654273
-0.089828737 0.10015387 0.026196718
-0.09038607 0.10194708 0.026000738
-0.087903388 0.10031328 0.025749028
-0.086632825 0.10004028 0.025777727
-0.086553253 0.10115259 0.025452763
-0.084459178 0.099909022 0.025402099
-0.084056512 0.10066027 0.025055736
-0.082456477 0.099978477 0.025028437
-0.080759205 0.099160038 0.024986833
-0.081539162 0.10140126 0.024773777
-0.079318389 0.099920563 0.024435103
-0.077374712 0.098754562 0.024283886
-0.077793084 0.10061239 0.024011523
-0.076447569 0.1002083 0.023461908
-0.07590197 0.10085604 0.02308163
-0.0744562 0.10030905 0.022723466
-0.073265597 0.10009526 0.022372156
-0.072111592 0.099926069 0.02244693
-0.072642155 0.10212012 0.021854699
-0.070540138 0.10062343 0.021244049
-0.069188833 0.1001689 0.021828622
-0.06973464 0.10248879 0.021091372
-0.066584781 0.099364981 0.020590752
-0.066637807 0.10099792 0.020708889
-0.065520979 0.1008815 0.020481259
-0.064075522 0.10024719 0.020469606
-0.063450612 0.10089687 0.020336896
-0.06284038 0.10159195 0.01929605
-0.06143361 0.10100102 0.01889807
-0.060770161 0.10163285 0.018758953
-0.060280953 0.10258337 0.018727601
-0.058207013 0.10082286 0.018380821
-0.058222983 0.10268416 0.01838094
-0.05657329 0.10162239 0.018222779
-0.055493046 0.10156275 0.018072128
-0.05535223 0.1032532 0.01693967
-0.052954368 0.10071713 0.016773373
-0.051937178 0.10075812 0.016712904
-0.051685814 0.10231682 0.016912639
-0.050244119 0.10153499 0.016825706
-0.050248664 0.10370468 0.016293764
-0.04898157 0.10328722 0.016009927
-0.047240257 0.10182899 0.015591562
-0.046205059 0.10186115 0.015316814
-0.046309385 0.10446535 0.015116364
-0.043894242 0.10137479 0.01479131
-0.043258443 0.10234313 0.013972372
-0.042579025 0.10325413 0.0134179
-0.040774092 0.10141248 0.013173282
-0.04123988 0.10527021 0.013097137
-0.039370738 0.10321517 0.012852252
-0.038389232 0.10343765 0.01268962
-0.037301697 0.10337899 0.012289196
-0.035903923 0.10243177 0.011804938
-0.035030205 0.10296758 0.011760533
-0.034033768 0.10316486 0.011280715
-0.032514691 0.10173952 0.011204511
-0.032161176 0.10398781 0.011445612
-0.030859675 0.10322029 0.011214614
-0.029565468 0.10242323 0.011057138
-0.029100098 0.10454479 0.010336339
-0.028022066 0.10454386 0.010008454
-0.026486974 0.10276945 0.0096954405
-0.025979197 0.10499925 0.0094174147
-0.024452465 0.10312561 0.0089507997
-0.023381997 0.10309335 0.0088852346
-0.022837767 0.10548873 0.0088251829
-0.021366972 0.10362981 0.0087337196
-0.020320075 0.10373933 0.0080888867
-0.019447703 0.10480151 0.0077829063
-0.01836112 0.10476638 0.0072428584
-0.017258102 0.10462724 0.0071750581
-0.016209373 0.10482062 0.007212311
-0.014845648 0.10285912 0.0071035326
-0.014103571 0.10523434 0.0072210431
-0.013078636 0.10571897 0.0064623356
-0.011680702 0.10300255 0.0062264204
-0.010746252 0.10423864 0.0056990385
-0.0098731834 0.10641098 0.0053538978
-0.0086258799 0.10458879 0.0047160089
-0.11721427 0.10735512 0.0099556446
-0.10812562 0.0999652 0.025848985
-0.10641489 0.099320561 0.027496129
-0.10585061 0.099743843 0.028993338
-0.10452019 0.099446386 0.029526353
-0.10509477 0.1009734 0.02982524
-0.10356545 0.10048924 0.03015095
-0.10171687 0.099682525 0.030154437
-0.099854812 0.098846175 0.030146509
-0.10037416 0.10037416 0.029825181
-0.098358393 0.099372394 0.029704541
-0.099429004 0.10150044 0.02942884
-0.097316518 0.10038967 0.029355705
-0.094275251 0.098286964 0.029080302
-0.096571632 0.10176364 0.028669029
-0.094535276 0.10070062 0.028477997
-0.092271775 0.0993696 0.028016955
-0.09275189 0.10099649 0.027679354
-0.092123017 0.10143883 0.027291387
-0.089150779 0.099281549 0.027001411
-0.090167463 0.10156794 0.026303142
-0.088117629 0.10041311 0.026055872
-0.086642094 0.099893235 0.025862187
-0.087681748 0.10229537 0.025896817
-0.084722497 0.10003379 0.025608003
-0.083883792 0.10025135 0.025594205
-0.084734857 0.10251871 0.025172949
-0.08219219 0.10068543 0.025066704
-0.082717799 0.10261195 0.024986833
-0.080350123 0.10095271 0.024755657
-0.079516381 0.10120267 0.024226546
-0.079066791 0.10195453 0.024049282
-0.078125589 0.1020841 0.023985475
-0.074847817 0.099122778 0.023466974
-0.076021418 0.10205614 0.022749364
-0.074120626 0.10088641 0.022523463
-0.073092088 0.10088766 0.022277921
-0.073219761 0.10250767 0.022169411
-0.071654409 0.10177003 0.021463454
-0.070536412 0.10165542 0.020882279
-0.070058703 0.10247391 0.021149814
-0.069108896 0.10261624 0.020850748
-0.067570291 0.10187521 0.020462215
-0.067285798 0.10303138 0.020442337
-0.065912001 0.10252976 0.020262331
-0.06530308 0.10322098 0.020231068
-0.063254088 0.10162132 0.020301759
-0.061328143 0.1001693 0.019479841
-0.062564649 0.10392093 0.019352853
-0.060814127 0.1027549 0.0189583
-0.059313994 0.10197844 0.018712074
-0.059938896 0.10489307 0.018559337
-0.057502389 0.1024588 0.018486261
-0.056617413 0.10275012 0.018328279
-0.056053162 0.10364547 0.018280059
-0.054135412 0.10202443 0.017466396
-0.053296071 0.10241205 0.017311245
-0.052842546 0.10357139 0.017150789
-0.051515304 0.10303061 0.017168045
-0.050946936 0.10401666 0.017071933
-0.049628302 0.10348029 0.016542435
-0.048347276 0.10300072 0.016083449
-0.0482281 0.10503007 0.015676439
-0.046689235 0.10398966 0.015227199
-0.044821579 0.1021515 0.015080512
-0.044812072 0.1045615 0.014147401
-0.043352205 0.10362233 0.013967693
-0.042283613 0.10359485 0.013441592
-0.041571762 0.10446237 0.013142228
-0.040109314 0.10343981 0.013087422
-0.03921951 0.1038787 0.012884349
-0.038078465 0.10365804 0.012579918
-0.037224635 0.10422898 0.012096196
-0.036003824 0.10377572 0.011606336
-0.035277087 0.10476226 0.011658967
-0.033844262 0.10364805 0.011250228
-0.033250377 0.10511409 0.011168987
-0.031949628 0.10436879 0.011202246
-0.030420559 0.1028005 0.010989517
-0.029725572 0.1040395 0.01109162
-0.028767502 0.10441537 0.010622561
-0.027329842 0.10301247 0.010235816
-0.027034871 0.10597669 0.0097984374
-0.025612401 0.10458397 0.0094634593
-0.024611169 0.10486498 0.0091838837
-0.023441449 0.104421 0.0088328421
-0.022305476 0.10409221 0.0087337196
-0.021495501 0.10532796 0.0084896684
-0.020464659 0.10555455 0.0079450011
-0.019179873 0.10442375 0.007950604
-0.018059859 0.10410977 0.0071885586
-0.017186645 0.1052682 0.0069950521
-0.015797904 0.10321297 0.0072277486
-0.015156155 0.10609308 0.0071978867
-0.013911551 0.10487169 0.0071999431
-0.012668333 0.10345805 0.0066762567
-0.011931878 0.10630218 0.0062068999
-0.01073238 0.10517732 0.0056367815
-0.0096916556 0.10553136 0.0052760243
-0.0086697126 0.10620397 0.0046240985
-0.11798424 0.10916299 0.0059017241
-0.106572 0.099534236 0.025924921
-0.10768186 0.10152861 0.02760306
-0.10477822 0.099740803 0.029487014
-0.10509004 0.10100888 0.029647529
-0.10464466 0.10156688 0.029914051
-0.1015172 0.099506959 0.030205578
-0.10181069 0.10079258 0.030166805
-0.10104213 0.10104213 0.030027151
-0.1006915 0.10171897 0.029712349
-0.099265561 0.10131228 0.02969268
-0.097276896 0.1003168 0.029248327
-0.0964958 0.10055879 0.029201746
-0.096067585 0.10117757 0.029080302
-0.095487356 0.10164783 0.02868548
-0.093398854 0.10050529 0.028628558
-0.093761764 0.10200456 0.028261125
-0.092736945 0.10201064 0.027906567
-0.091000922 0.10122575 0.027626991
-0.091398627 0.10282346 0.027186096
-0.088666305 0.10089615 0.026492953
-0.088801123 0.10222456 0.026050925
-0.08837758 0.10293389 0.026088268
-0.086337015 0.10175434 0.026172638
-0.085161678 0.10157839 0.02585122
-0.08554589 0.10328101 0.025826871
-0.083375007 0.10190279 0.025197119
-0.082499504 0.10209315 0.025271803
-0.082299523 0.10313485 0.024988919
-0.079978503 0.10151118 0.024741083
-0.080340929 0.10329548 0.024258137
-0.077845685 0.10140425 0.024125338
-0.076998591 0.10163814 0.024018198
-0.076508619 0.10235613 0.023360103
-0.076127559 0.10324149 0.022765607
-0.074284598 0.10214133 0.022578984
-0.074550092 0.10395014 0.022405535
-0.072533071 0.1025825 0.022211701
-0.072318859 0.10376185 0.021845549
-0.071263008 0.10375056 0.021243304
-0.069263637 0.10234477 0.02090919
-0.068780489 0.10317075 0.02082175
-0.068516329 0.10435564 0.020630956
-0.066098496 0.10224611 0.020791173
-0.066482827 0.10447302 0.020442337
-0.064558387 0.10308516 0.020368725
-0.062496699 0.10142908 0.020327628
-0.063408919 0.10462472 0.019583374
-0.061875712 0.10382535 0.019402772
-0.060089428 0.10256644 0.01901257
-0.060252745 0.10464951 0.01878652
-0.058118016 0.10274435 0.018576592
-0.057256635 0.10306194 0.018584013
-0.057266485 0.10498855 0.018399447
-0.055517115 0.10370179 0.018325269
-0.053628124 0.1020997 0.017480016
-0.053885743 0.10460174 0.017311245
-0.052142479 0.10324211 0.017311424
-0.050791752 0.10262008 0.017150789
-0.05083593 0.10484912 0.016817868
-0.049237795 0.10371365 0.01627633
-0.048690278 0.10478995 0.015592337
-0.047276367 0.104008 0.015250266
-0.045888156 0.10324836 0.014810234
-0.045570467 0.10491805 0.014467359
-0.0444673 0.10481578 0.01369074
-0.04306649 0.10398982 0.013519794
-0.042412482 0.1049709 0.013175011
-0.041515678 0.10538595 0.012568027
-0.040384118 0.10521126 0.012735426
-0.039456505 0.10557281 0.012412041
-0.038065024 0.10467882 0.012382209
-0.036808927 0.10411669 0.011768371
-0.036291942 0.1056736 0.011280954
-0.034703791 0.10411138 0.011576474
-0.034064569 0.10538726 0.011141539
-0.03323302 0.10613126 0.011368185
-0.031801905 0.10494629 0.011360377
-0.030954339 0.10567171 0.011191905
-0.029789425 0.1053269 0.010979831
-0.028446294 0.10430308 0.010943115
-0.027862351 0.10609127 0.010083497
-0.026574656 0.10523564 0.0099067986
-0.025712462 0.10606391 0.0095604956
-0.024501789 0.10546422 0.00916031
-0.023533212 0.10589946 0.0088306665
-0.022633942 0.10670287 0.0086271167
-0.021477146 0.10631187 0.0084096193
-0.02030452 0.10579724 0.0079426765
-0.019071905 0.10489548 0.0078547597
-0.018262535 0.10635242 0.0077230036
-0.016885221 0.10447731 0.0069583356
-0.016288275 0.10750262 0.0070688725
-0.015102649 0.10679731 0.0068035424
-0.013828886 0.10531229 0.0070221424
-0.012903089 0.10645048 0.006631583
-0.0118807 0.10692631 0.0057987571
-0.010611953 0.10505834 0.0054756701
-0.0098617859 0.10847965 0.0051671565
-0.0085837273 0.10622363 0.0043466389
-0.11708016 0.10942071 0.0056421757
-0.10815926 0.10203704 0.025609672
-0.1073578 0.10224553 0.02781409
-0.10559147 0.10153027 0.029520124
-0.10659272 0.10348808 0.029613703
-0.10309918 0.10107763 0.029949933
-0.10178611 0.10077833 0.03016147
-0.10192686 0.10192686 0.030234516
-0.10069007 0.10170715 0.029994041
-0.10068082 0.10273553 0.029569775
-0.099679679 0.10276257 0.029573441
-0.097145438 0.10119317 0.029248238
-0.098325983 0.10350104 0.029051274
-0.096924916 0.10311162 0.02914381
-0.094827726 0.1019653 0.028669029
-0.095434241 0.10373287 0.028622359
-0.092889398 0.10207626 0.028212339
-0.090963431 0.10107048 0.027756274
-0.091649905 0.10297743 0.027506113
-0.089789599 0.10203364 0.027198166
-0.08917556 0.10250065 0.026620418
-0.088248305 0.10261431 0.026168048
-0.087131269 0.10250738 0.026023149
-0.086025551 0.10241137 0.026245356
-0.085494004 0.10300483 0.025878251
-0.084484354 0.10302969 0.025914311
-0.084113181 0.10384344 0.025826871
-0.082806043 0.10350756 0.025032371
-0.082069449 0.10388539 0.024949342
-0.081130192 0.10401307 0.024501443
-0.0795746 0.10334364 0.024353862
-0.077257797 0.10165499 0.0242863
-0.07823389 0.10431185 0.023852706
-0.077025346 0.1040883 0.023581117
-0.0755018 0.10342712 0.023107558
-0.07533326 0.10462954 0.022765696
-0.074238665 0.10456151 0.022531688
-0.072369322 0.10338475 0.022171378
-0.072535321 0.10512366 0.022062719
-0.07046432 0.10362401 0.021409482
-0.069756173 0.10411369 0.021149814
-0.069439016 0.10521064 0.020831347
-0.067440286 0.10375429 0.020642579
-0.067242905 0.10506704 0.020726174
-0.065641679 0.10419314 0.020796001
-0.06383232 0.10295536 0.020481259
-0.064002961 0.10492289 0.020368725
-0.063081041 0.10513507 0.019593805
-0.060658615 0.10281121 0.019543707
-0.061206698 0.10552879 0.018851161
-0.059406489 0.10422191 0.01864776
-0.058015671 0.10359941 0.018512845
-0.058187965 0.1057963 0.018347651
-0.056387845 0.10442194 0.018301398
-0.055024911 0.10382059 0.017852217
-0.054961409 0.10569502 0.01748848
-0.053312745 0.1045348 0.017307788
-0.052517593 0.10503519 0.017311424
-0.052149788 0.10642815 0.017128766
-0.049895577 0.10394912 0.016895264
-0.050098829 0.10659325 0.01638481
-0.048305146 0.10501119 0.015676439
-0.046955276 0.10434506 0.015316814
-0.046151459 0.10488969 0.01467818
-0.045652855 0.10616944 0.014056683
-0.043667886 0.10397116 0.01346916
-0.043418024 0.10589762 0.013397604
-0.041968666 0.10492168 0.012815595
-0.041312438 0.10592933 0.012503535
-0.040389773 0.10628887 0.012360632
-0.039047733 0.10553441 0.012329817
-0.037837125 0.10510313 0.011953115
-0.037579726 0.10737066 0.011285782
-0.035916045 0.10563543 0.010973871
-0.034928784 0.1058448 0.010954797
-0.034390114 0.10746911 0.010611981
-0.03250416 0.10485213 0.011251241
-0.032195788 0.1073193 0.011252493
-0.030893527 0.1065294 0.010968387
-0.029641513 0.10586255 0.010880917
-0.02908475 0.10772129 0.010137707
-0.027563669 0.10601412 0.010007083
-0.026494205 0.10597682 0.0097487867
-0.025645018 0.10685425 0.0089219809
-0.02466137 0.10722335 0.0088328421
-0.023462292 0.10664678 0.0087473094
-0.022506585 0.10717422 0.008590728
-0.021495325 0.10747663 0.0085192025
-0.020135472 0.10597617 0.0079904497
-0.019342661 0.10745923 0.0078564584
-0.018305114 0.10767715 0.0077615082
-0.017410655 0.10881659 0.0070322454
-0.016057953 0.10705303 0.0071045458
-0.015042499 0.10744642 0.0069240034
-0.013987591 0.10759686 0.0071978867
-0.013012619 0.10843849 0.0065656602
-0.011759917 0.10690834 0.0058742762
-0.010882507 0.10882508 0.0054036975
-0.0098586762 0.10954085 0.0047156513
-0.0087036155 0.1087952 0.0040144026
-0.11917076 0.11248828 0.0046454966
-0.10851813 0.10339935 0.025511742
-0.10664855 0.10258575 0.027746767
-0.10752413 0.10442248 0.028703809
-0.10373896 0.10172462 0.029415905
-0.10265543 0.10164901 0.029660404
-0.10411312 0.10411312 0.030169606
-0.10081854 0.10182673 0.030238688
-0.10055416 0.10258555 0.029845744
-0.10062454 0.10370488 0.029651016
-0.098814443 0.10288927 0.02969268
-0.099512205 0.10469513 0.029395372
-0.09675476 0.10286559 0.029235214
-0.095104091 0.10218631 0.029244453
-0.095133789 0.10331734 0.028747946
-0.094276346 0.10349903 0.028685182
-0.092070043 0.10218763 0.028480262
-0.093111128 0.10449138 0.027789742
-0.090898693 0.1031547 0.027508676
-0.090614028 0.1040002 0.027291387
-0.089462325 0.10385856 0.026685357
-0.08825808 0.10365194 0.026353866
-0.087593772 0.10408201 0.026014537
-0.087777287 0.10554174 0.026319742
-0.085358888 0.10387045 0.02570501
-0.084883302 0.10455138 0.025902808
-0.084394276 0.10523238 0.025594205
-0.081983499 0.10350417 0.025193781
-0.082008928 0.10484686 0.024989575
-0.080608159 0.10437723 0.024664998
-0.079681329 0.10451707 0.02428779
-0.078994423 0.10497943 0.024335742
-0.077604592 0.10450751 0.024091095
-0.07613726 0.10391707 0.02363655
-0.076104514 0.10529528 0.023288637
-0.074451432 0.10443882 0.023005486
-0.073290139 0.10425781 0.022904247
-0.074233182 0.10710788 0.022284001
-0.071833804 0.10514803 0.021760464
-0.069820873 0.10370454 0.021366358
-0.0700249 0.10555993 0.021149814
-0.067977287 0.10402586 0.020850748
-0.068042934 0.10572825 0.020772338
-0.066893786 0.10556675 0.020726174
-0.065290831 0.10467261 0.021086961
-0.065401211 0.10654069 0.020558059
-0.063905321 0.10581046 0.020745784
-0.061366644 0.10330052 0.019760877
-0.061842397 0.1058658 0.019778103
-0.060770571 0.10582461 0.019076169
-0.059365384 0.1051913 0.018776804
-0.058677521 0.1058291 0.018553019
-0.057487015 0.10556707 0.018474996
-0.056763448 0.10616866 0.018368483
-0.056130409 0.1069655 0.018266559
-0.053892419 0.10467567 0.017674237
-0.053664748 0.10627724 0.01723659
-0.05259854 0.10624905 0.017245561
-0.051627506 0.10641589 0.017170578
-0.050427433 0.10610773 0.016718
-0.049227577 0.10578692 0.016346991
-0.04775263 0.10484817 0.015572697
-0.047948733 0.10761826 0.015303493
-0.046745297 0.1073017 0.014714539
-0.044882815 0.10542243 0.014477253
-0.044731751 0.10756921 0.01369074
-0.043648306 0.10752387 0.013436645
-0.042452522 0.10719263 0.013205409
-0.041855227 0.10839431 0.012518585
-0.040017132 0.10636133 0.012467772
-0.038726371 0.10571253 0.012398988
-0.038643967 0.1084178 0.012204796
-0.037186563 0.1073098 0.011475205
-0.035822857 0.10641496 0.010951161
-0.035128042 0.1075131 0.010973871
-0.033672042 0.10627738 0.010571063
-0.03294744 0.10734489 0.011065602
-0.032081347 0.10800721 0.011052847
-0.030352028 0.10570879 0.010700524
-0.030066704 0.1084549 0.010813326
-0.028725185 0.10745347 0.010376334
-0.02727899 0.10596839 0.010162264
-0.026938906 0.10883318 0.009937495
-0.025678081 0.10806193 0.0093720853
-0.024564032 0.10786813 0.0092047453
-0.023888763 0.10967115 0.0087862015
-0.022637157 0.10887394 0.0086271167
-0.021326765 0.10770017 0.0085216463
-0.020832766 0.1107426 0.0082430542
-0.019270658 0.10812981 0.0078847408
-0.018163778 0.10791421 0.007701695
-0.01714707 0.10824087 0.0067732334
-0.015994422 0.10769578 0.006964922
-0.015092356 0.10888057 0.0068360269
-0.013798815 0.10720619 0.0069675148
-0.012751067 0.10732148 0.0061397851
-0.012042266 0.1105699 0.0057396591
-0.010746058 0.10853519 0.0052697659
-0.0096060289 0.107801 0.0049701929
-0.10573374 0.10174379 0.024730414
-0.1071901 0.10412753 0.027570695
-0.10569417 0.1036616 0.028581947
-0.10493258 0.10391381 0.029143155
-0.10442906 0.10442906 0.029338241
-0.10226345 0.10327596 0.029856652
-0.10072734 0.10274189 0.029867768
-0.10068522 0.10373629 0.029369712
-0.099542439 0.1036054 0.029548347
-0.098362513 0.10343275 0.029554218
-0.09864381 0.10480905 0.029333353
-0.096689075 0.10381354 0.029373467
-0.097091816 0.10535495 0.029074252
-0.09492974 0.10411649 0.028708488
-0.093050286 0.10316445 0.028724551
-0.094469786 0.10588921 0.028438568
-0.092491858 0.1048241 0.028085917
-0.090410002 0.10361596 0.027738929
-0.09166079 0.10624319 0.027265042
-0.088717163 0.10401323 0.026685357
-0.088043526 0.10442372 0.026348293
-0.088143818 0.10577258 0.025932044
-0.085694134 0.10405716 0.026064932
-0.085439816 0.10499832 0.025777727
-0.085704289 0.10660777 0.025902808
-0.083481744 0.10512516 0.025641948
-0.083393522 0.10632674 0.025525242
-0.081021972 0.10461065 0.025162458
-0.079737596 0.10427225 0.024935454
-0.079823285 0.10573994 0.024501443
-0.078485191 0.10533539 0.024590075
-0.076090507 0.10348309 0.024488866
-0.076571025 0.10554384 0.023934245
-0.076260172 0.1065553 0.023521483
-0.074592777 0.10567311 0.023355782
-0.074322648 0.10677339 0.022892833
-0.072526462 0.10568143 0.022263646
-0.071418211 0.10557475 0.021725029
-0.071877517 0.10781627 0.021383584
-0.06894093 0.10495485 0.021285653
-0.068542361 0.10592911 0.02113995
-0.068291701 0.10716543 0.020945072
-0.066051453 0.1052695 0.020913988
-0.066301547 0.10734536 0.021065265
-0.065167487 0.10721102 0.020967305
-0.063294023 0.10583591 0.020752132
-0.063298948 0.10760822 0.019918561
-0.062099617 0.10735866 0.019649088
-0.060371947 0.10617135 0.018894523
-0.059921179 0.10722738 0.01864776
-0.058492366 0.10653967 0.01848197
-0.057524227 0.10668129 0.018350273
-0.056606814 0.10692398 0.018232524
-0.05553532 0.10687929 0.01814428
-0.053815085 0.10556036 0.017395288
-0.054138664 0.10827733 0.017039835
-0.05236822 0.10683117 0.017102718
-0.051004928 0.10617352 0.017027736
-0.050769646 0.10788549 0.01680395
-0.049424876 0.10726249 0.01617685
-0.048678048 0.10793827 0.015749753
-0.047455303 0.10756535 0.015259445
-0.045988761 0.10661031 0.014558166
-0.045558859 0.10806986 0.014478862
-0.044512801 0.10810252 0.013933867
-0.042694468 0.1062155 0.013777584
-0.042479213 0.108322 0.013364881
-0.04094499 0.1070869 0.01277715
-0.040027026 0.10744096 0.012555897
-0.039417673 0.10866493 0.01244548
-0.037864629 0.10728312 0.012358099
-0.036820449 0.10730531 0.011884898
-0.036414299 0.1092429 0.011280954
-0.034858461 0.10774434 0.011575252
-0.03426474 0.10921886 0.010824025
-0.033017419 0.10863796 0.011150628
-0.031581469 0.107377 0.011146456
-0.031014312 0.10908482 0.010897666
-0.029956441 0.10912704 0.010857373
-0.028324498 0.10700366 0.010746181
-0.027891397 0.10942011 0.010144114
-0.026485011 0.10805884 0.010111868
-0.025497202 0.10836311 0.0095904469
-0.024594216 0.10907 0.0092844367
-0.023299547 0.10802518 0.0089676976
-0.022388261 0.10874298 0.0089332461
-0.021781491 0.11108562 0.0087825656
-0.020449188 0.10977986 0.0084607005
-0.019178448 0.10867788 0.008410573
-0.018578496 0.11147097 0.0078517497
-0.017012175 0.10845261 0.0070530176
-0.016114214 0.10957666 0.007214874
-0.015094949 0.10997748 0.00693506
-0.013897316 0.10904048 0.0070770383
-0.012902937 0.10967497 0.0062381625
-0.011856427 0.10994142 0.0055711567
-0.010675865 0.10889383 0.0053255558
-0.0096906871 0.10982779 0.0047982335
-0.10929967 0.10620629 0.024419934
-0.10780863 0.10575513 0.027593702
-0.10632525 0.1053029 0.028789312
-0.10545745 0.10545745 0.0291816
-0.10390797 0.10492667 0.029313058
-0.10284273 0.10487922 0.02955395
-0.1019787 0.10503805 0.029867768
-0.10090656 0.10498358 0.029369712
-0.099609666 0.1046918 0.029452652
-0.10088822 0.10712874 0.029536426
-0.096958719 0.10402863 0.029282242
-0.097913153 0.10615847 0.029373467
-0.096700773 0.10595936 0.029076606
-0.093889676 0.10398534 0.028711379
-0.094068132 0.1053154 0.028769225
-0.093707211 0.1060642 0.028595418
-0.091410644 0.1046144 0.028169096
-0.092115097 0.10660511 0.027738929
-0.089819133 0.10512922 0.027425855
-0.089384973 0.10582359 0.026848584
-0.088465124 0.10595241 0.026409179
-0.0869672 0.10538378 0.026307672
-0.086509876 0.10607759 0.025932044
-0.085260727 0.10580548 0.025754064
-0.084329665 0.10592628 0.025929689
-0.083485052 0.10616001 0.025687665
-0.083428696 0.10741445 0.025291979
-0.081785984 0.10663237 0.025143892
-0.081189394 0.10721163 0.024832487
-0.078874029 0.10550682 0.024463564
-0.077781931 0.10541499 0.024495989
-0.077780508 0.10681856 0.02438575
-0.076595247 0.1066123 0.023751199
-0.07457298 0.1052194 0.02359122
-0.07499744 0.107288 0.023292035
-0.07356032 0.10671427 0.02243644
-0.072056189 0.10602554 0.022188902
-0.072549924 0.10829917 0.021854699
-0.070868723 0.10734527 0.021429241
-0.070185401 0.10789695 0.021382183
-0.069291115 0.10813614 0.021332145
-0.067205183 0.10649437 0.021090537
-0.066946343 0.10774177 0.021162212
-0.065280698 0.10672875 0.021219641
-0.06407924 0.10645422 0.020823598
-0.063598879 0.10738827 0.020805389
-0.062932119 0.10803347 0.020416945
-0.061238758 0.10690834 0.020041943
-0.060804404 0.10798023 0.019585937
-0.060269278 0.10890765 0.019239277
-0.058081023 0.10682759 0.018729836
-0.058423858 0.10941195 0.018467218
-0.056927484 0.1085839 0.018380493
-0.055403151 0.10767028 0.018185675
-0.054477852 0.10790806 0.017566085
-0.053350445 0.10774697 0.017061919
-0.052419275 0.1079837 0.01710844
-0.051477525 0.10820786 0.016875148
-0.049979374 0.10724741 0.016773373
-0.049875356 0.10930131 0.01617685
-0.048427783 0.10843612 0.015749753
-0.046885591 0.10731591 0.015558064
-0.046594404 0.10907327 0.014708281
-0.045670673 0.1093972 0.014572144
-0.044306211 0.10865571 0.013956577
-0.043495405 0.10926894 0.013842076
-0.042287003 0.10888904 0.013696343
-0.040780745 0.10770299 0.013129115
-0.040391963 0.10948347 0.012659609
-0.039128687 0.1089258 0.012907863
-0.037986051 0.10868232 0.012708813
-0.0374307 0.1101532 0.012178272
-0.035498157 0.10753854 0.01171422
-0.03515815 0.10973605 0.011607558
-0.034423243 0.11079982 0.010962903
-0.032931972 0.10941914 0.011279106
-0.032226916 0.11064575 0.011141539
-0.030971851 0.11000347 0.010674149
-0.029468384 0.10840155 0.010729164
-0.028749829 0.10967527 0.010376334
-0.027493173 0.10891527 0.010139108
-0.026298221 0.10834867 0.01013279
-0.025958719 0.11140617 0.0096049607
-0.024422182 0.1093689 0.0093019605
-0.023498332 0.11001492 0.0093393326
-0.022634912 0.11101885 0.0090044141
-0.021537229 0.11091673 0.0088426173
-0.020332694 0.1102246 0.0087073147
-0.019416485 0.11110545 0.0086438358
-0.01830958 0.11093452 0.0081792176
-0.017089766 0.11001537 0.0080369711
-0.016078874 0.11040827 0.0076150894
-0.014770273 0.10866701 0.006981343
-0.013931938 0.11038382 0.0072126389
-0.012974518 0.11136462 0.006821692
-0.011706458 0.10961502 0.0059174299
-0.010742063 0.11064325 0.0054256916
-0.0096577685 0.1105278 0.0048961043
-0.00864226 0.1112691 0.0040555894
-0.10766815 0.10563668 0.024653047
-0.10699053 0.10597157 0.027710825
-0.10645511 0.10645511 0.028805375
-0.10516135 0.10618233 0.02943778
-0.1037551 0.10578951 0.029562414
-0.10367557 0.10675504 0.02982524
-0.1013926 0.1054483 0.03021577
-0.10050214 0.105578 0.02982524
-0.1000646 0.106191 0.029712349
-0.099370174 0.10654122 0.029780537
-0.098293588 0.10648472 0.029624224
-0.097709268 0.10696594 0.029435068
-0.096260995 0.10650153 0.029362589
-0.09570419 0.10702404 0.028823644
-0.094358273 0.10666587 0.028838009
-0.091418833 0.10447866 0.028662384
-0.092976913 0.10743999 0.028321236
-0.09087567 0.1061918 0.028031349
-0.090696581 0.10718687 0.027430147
-0.089986227 0.10756975 0.026739091
-0.08768829 0.10604165 0.026309252
-0.087658539 0.10725281 0.025944263
-0.087843999 0.10875924 0.025754064
-0.085787326 0.10749255 0.025583625
-0.08452256 0.10719934 0.02572006
-0.083774067 0.10756177 0.025568396
-0.081549108 0.10601384 0.025147408
-0.082072444 0.10804474 0.025143892
-0.080739304 0.10765241 0.024958998
-0.079899952 0.10791682 0.024671108
-0.078993492 0.10809635 0.024644971
-0.078814887 0.10928997 0.024567068
-0.075755015 0.10646651 0.024347216
-0.075254589 0.10721201 0.023654789
-0.074103571 0.1070385 0.023588717
-0.074152946 0.10861841 0.02314648
