ply
format ascii 1.0
comment PCL generated
element vertex 1246
property float x
property float y
property float z
element camera 0
property float view_px
property float view_py
property float view_pz
property float x_axisx
property float x_axisy
property float x_axisz
property float y_axisx
property float y_axisy
property float y_axisz
property float z_axisx
property float z_axisy
property float z_axisz
property float focal
property float scalex
property float scaley
property float centerx
property float centery
property int viewportx
property int viewporty
property float k1
property float k2
end_header
-0.069385588 -0.020598847 0.011687845
-0.067023888 -0.020213554 0.011691749
-0.067481562 -0.020679833 0.011596054
-0.064471364 -0.020081244 0.011897177
-0.063347504 -0.020060044 0.012161523
-0.06365817 -0.020500088 0.012057871
-0.062482703 -0.020468472 0.011977881
-0.061031729 -0.020343909 0.011911124
-0.06038031 -0.020486176 0.011745572
-0.058655165 -0.020262694 0.011734873
-0.057555772 -0.020251105 0.011498421
-0.058070123 -0.020817591 0.011571825
-0.055827569 -0.020398535 0.011663854
-0.054509342 -0.020307403 0.011707276
-0.053840883 -0.020459535 0.011554092
-0.052554969 -0.020378459 0.011134923
-0.051605169 -0.020427046 0.011276424
-0.051127661 -0.02066863 0.011325121
-0.049082749 -0.020273309 0.011337161
-0.048552129 -0.020499786 0.011385828
-0.047384977 -0.020461695 0.011354625
-0.046476703 -0.020536218 0.01152131
-0.045448456 -0.020560015 0.011212677
-0.043883361 -0.02033619 0.01114884
-0.042935248 -0.020394243 0.011029661
-0.042354375 -0.020634184 0.010564804
-0.040457919 -0.02022896 0.0099383593
-0.039563935 -0.020316616 0.0095102787
-0.03921308 -0.020695794 0.0091453195
-0.038198035 -0.020736078 0.009052217
-0.037091892 -0.020727823 0.008623004
-0.036042478 -0.020751731 0.0087132156
-0.03462898 -0.020560957 0.0082747042
-0.033961874 -0.020815343 0.008081764
-0.032502659 -0.020585017 0.0080069304
-0.031025084 -0.020326778 0.0078845918
-0.030419882 -0.020642065 0.0078915358
-0.02921869 -0.0205613 0.0076882243
-0.028311813 -0.020689402 0.0069533288
-0.027207453 -0.020677665 0.0068066716
-0.025892584 -0.020498296 0.0062469244
-0.024916653 -0.02058332 0.0061821342
-0.024157755 -0.020863516 0.0061392486
-0.02284945 -0.020673312 0.0060102046
-0.021820119 -0.020729113 0.0057388544
-0.020450739 -0.020450739 0.0053914785
-0.019466421 -0.020547891 0.0054064989
-0.018457303 -0.02062875 0.005124867
-0.017504817 -0.020786971 0.004717052
-0.016236147 -0.020565787 0.0048947632
-0.01525481 -0.020702958 0.0047572851
-0.014180617 -0.020725518 0.0043765306
-0.12117928 -0.019650692 0.0086302757
-0.11634597 -0.019038429 0.011929929
-0.11548328 -0.019070633 0.01311335
-0.11541062 -0.019235101 0.014541954
-0.11276376 -0.018969603 0.01526469
-0.11053085 -0.018769387 0.015869588
-0.11262414 -0.019306995 0.015985787
-0.10901369 -0.018867753 0.015919685
-0.10900912 -0.019050136 0.01607132
-0.10841296 -0.019131698 0.015823007
-0.1060956 -0.018908124 0.015699536
-0.10508347 -0.018915022 0.015693933
-0.10571507 -0.01922092 0.015507996
-0.10303214 -0.01892427 0.015510947
-0.10221737 -0.018968171 0.016020089
-0.10368344 -0.019440643 0.015510947
-0.10085385 -0.01910915 0.015599251
-0.099942736 -0.019137969 0.015473664
-0.099259779 -0.01921157 0.015292734
-0.09678252 -0.018935708 0.015335381
-0.09840405 -0.019464536 0.015283197
-0.094716623 -0.018943323 0.01549235
-0.093735188 -0.018957678 0.015369594
-0.094495133 -0.01932855 0.015075088
-0.09349589 -0.019343978 0.014731228
-0.092484243 -0.019357167 0.014408886
-0.09197209 -0.019476442 0.014126271
-0.08920826 -0.019116055 0.01396957
-0.088645726 -0.019224374 0.013763458
-0.088614307 -0.019451918 0.013300866
-0.086033665 -0.019118592 0.013127983
-0.086016059 -0.019353613 0.013142705
-0.083579205 -0.019043362 0.013058424
-0.082340971 -0.019001761 0.013433933
-0.082327299 -0.019245341 0.013146251
-0.080840707 -0.019146482 0.01308167
-0.079346292 -0.01904311 0.013477981
-0.079316407 -0.01929318 0.013118893
-0.077478722 -0.019104339 0.012665361
-0.077059463 -0.019264866 0.012506217
-0.075962432 -0.01925808 0.012409061
-0.075403318 -0.019389424 0.012427777
-0.074800603 -0.019513201 0.012381256
-0.07451079 -0.019723443 0.011743635
-0.071686067 -0.019258942 0.011743635
-0.071366586 -0.019463614 0.011855513
-0.071516991 -0.019804705 0.011879861
-0.067722663 -0.019046998 0.011637419
-0.069643401 -0.019898113 0.011787623
-0.065888055 -0.019128788 0.011731118
-0.06479454 -0.0191197 0.012161285
-0.06594985 -0.019784953 0.012343079
-0.063565791 -0.019392952 0.012260884
-0.061514232 -0.019090623 0.012260884
-0.061485495 -0.019416472 0.012143582
-0.060029041 -0.019295048 0.011873126
-0.05825356 -0.019064801 0.011829793
-0.058171891 -0.019390628 0.011582106
-0.056294017 -0.019118723 0.011759937
-0.055167977 -0.019096607 0.011840105
-0.055144206 -0.01946266 0.011790782
-0.053822823 -0.019376215 0.01181981
-0.052569833 -0.019311367 0.01112327
-0.051503625 -0.019313859 0.010894865
-0.050288983 -0.019259609 0.010932684
-0.049611676 -0.019413264 0.011190087
-0.048601247 -0.019440496 0.0112032
-0.046591129 -0.019060006 0.01135385
-0.046294495 -0.019379091 0.011432648
-0.045311157 -0.019419067 0.011050284
-0.043679669 -0.019176438 0.011144757
-0.043289278 -0.019480174 0.011044174
-0.041978534 -0.019374708 0.010477275
-0.040865812 -0.019357488 0.0099383593
-0.040151972 -0.01953339 0.009624958
-0.038931455 -0.019465728 0.0092965364
-0.037437808 -0.019253729 0.0090197325
-0.037193131 -0.01969048 0.0089874864
-0.03575211 -0.019501152 0.0086033642
-0.034726217 -0.019533496 0.0084397495
-0.033849042 -0.019654281 0.0081655979
-0.032185659 -0.019311395 0.0078853965
-0.031509642 -0.019557707 0.0078563988
-0.030418271 -0.019554602 0.0078853965
-0.0289956 -0.019330397 0.0075997114
-0.028194955 -0.019519582 0.0070117414
-0.027517598 -0.01981267 0.0067756772
-0.026283741 -0.019712806 0.0065015554
-0.024940496 -0.019518647 0.0060830116
-0.023946438 -0.01959254 0.0060257018
-0.022579987 -0.019354273 0.0059384704
-0.021778828 -0.019600945 0.0057070255
-0.020566387 -0.019483944 0.0055553615
-0.019387607 -0.019387607 0.0055850744
-0.018603239 -0.019697545 0.0051064789
-0.017147483 -0.019290918 0.0050652325
-0.016659856 -0.019991826 0.0050821304
-0.015308558 -0.01968243 0.0049338043
-0.013936107 -0.019296147 0.0046005249
-0.11952989 -0.018306378 0.0086302757
-0.11690703 -0.018067449 0.01212883
-0.11573208 -0.018049957 0.013312787
-0.11519368 -0.018132338 0.014556408
-0.11311533 -0.017971594 0.015130311
-0.11286433 -0.018100884 0.015898496
-0.1126542 -0.018239252 0.016077459
-0.1102942 -0.018028861 0.016017586
-0.11137813 -0.018382799 0.016284347
-0.10707524 -0.017845873 0.016676158
-0.10778892 -0.018142689 0.016676158
-0.10690287 -0.018173488 0.015548378
-0.10454914 -0.017952882 0.016052157
-0.10223089 -0.017733932 0.015365928
-0.10321573 -0.018089356 0.016025037
-0.10059464 -0.017813634 0.016065687
-0.10237341 -0.018319454 0.015549988
-0.099378861 -0.017972773 0.015446007
-0.097763464 -0.017870741 0.015191197
-0.097273238 -0.017974403 0.015342504
-0.096376248 -0.018004354 0.015498668
-0.094849497 -0.017916014 0.015610605
-0.094766431 -0.018101454 0.015579551
-0.094332181 -0.018223261 0.015321344
-0.092076167 -0.017991895 0.015388668
-0.091705054 -0.018127743 0.014738292
-0.089839056 -0.017967811 0.014312118
-0.088761836 -0.017963704 0.014071971
-0.087580606 -0.017938197 0.013669074
-0.086592622 -0.017952127 0.01334554
-0.086797193 -0.018216696 0.013206482
-0.085547172 -0.018178776 0.013136178
-0.084079042 -0.018092958 0.013079584
-0.083566956 -0.018213311 0.013240635
-0.082833461 -0.018287906 0.013079137
-0.080039553 -0.017903585 0.013205022
-0.07964208 -0.018052204 0.013552785
-0.080335513 -0.018455455 0.013362318
-0.077425659 -0.018030632 0.013154835
-0.077913754 -0.018396303 0.01265952
-0.076383583 -0.018289028 0.012562364
-0.074982829 -0.018210115 0.012605429
-0.074506141 -0.018356586 0.012667388
-0.072660431 -0.018165108 0.012402713
-0.072039887 -0.018278776 0.01250264
-0.07039427 -0.018131858 0.012091607
-0.068831533 -0.018002093 0.012070417
-0.068484478 -0.018191189 0.011724293
-0.067546621 -0.018226866 0.011724293
-0.066611737 -0.018264508 0.011676192
-0.065378234 -0.018220164 0.012088597
-0.064113304 -0.018165436 0.012404442
-0.062644497 -0.018050108 0.012327164
-0.062297124 -0.018259501 0.011972725
-0.061388943 -0.018308982 0.012127697
-0.060130067 -0.018253772 0.011879861
-0.058936965 -0.01821688 0.011811852
-0.058530226 -0.018426182 0.011560529
-0.056696963 -0.018185819 0.011770219
-0.055924717 -0.018283082 0.011843532
-0.054660082 -0.018220028 0.011909395
-0.053205963 -0.018090026 0.011998653
-0.052928083 -0.018362805 0.010956228
-0.051297218 -0.018167766 0.010920048
-0.051309612 -0.018558796 0.010932684
-0.04956691 -0.018318206 0.011011899
-0.047952659 -0.01811545 0.011169761
-0.04768325 -0.018423075 0.011190861
-0.046307307 -0.018307541 0.0112032
-0.044669695 -0.01808059 0.011047274
-0.044581387 -0.018484965 0.011141956
-0.042675644 -0.01813715 0.010983437
-0.041732419 -0.018191054 0.010616988
-0.040761922 -0.018235596 0.010162085
-0.040017162 -0.018386263 0.0097867846
-0.039143182 -0.018484281 0.0092720389
-0.038236286 -0.018571911 0.0090992749
-0.03688965 -0.018444825 0.0090604424
-0.035453446 -0.018263897 0.0088398755
-0.034623105 -0.018393524 0.0085456967
-0.033122148 -0.018163759 0.0083208084
-0.032553654 -0.018447071 0.0080956519
-0.031578261 -0.018511394 0.0078853965
-0.030052327 -0.018246057 0.007965982
-0.029389337 -0.018504396 0.0077806413
-0.0286153 -0.018710004 0.0072606504
-0.027090415 -0.018421482 0.0070196986
-0.026169842 -0.018536972 0.0065357089
-0.02530132 -0.018700976 0.0063823462
-0.023932988 -0.018493673 0.0064246953
-0.023041096 -0.018652314 0.0062578917
-0.022002675 -0.018702274 0.00605762
-0.020730495 -0.018548338 0.0057401359
-0.019504743 -0.018421147 0.0055886507
-0.018472821 -0.018472821 0.0053945184
-0.017725933 -0.018833805 0.0053029656
-0.016303711 -0.018477539 0.0053537488
-0.015109069 -0.018346727 0.005251348
-0.014411766 -0.018846156 0.0047689378
-0.013188751 -0.018684065 0.0040612519
-0.11770351 -0.016966272 0.0084584057
-0.11751923 -0.017093707 0.012204796
-0.11662105 -0.017118685 0.013360143
-0.11317178 -0.016766189 0.014754713
-0.11481407 -0.017168459 0.015618801
-0.11227585 -0.016947297 0.016435474
-0.11046213 -0.016832324 0.016706556
-0.1104643 -0.016994508 0.016548783
-0.10898827 -0.016930217 0.016910404
-0.10843455 -0.017009342 0.016864061
-0.10634945 -0.016847437 0.016745657
-0.10456654 -0.016730648 0.015955985
-0.10406157 -0.016818032 0.016456664
-0.10485063 -0.017118471 0.016379207
-0.10245037 -0.016899031 0.016381741
-0.10129834 -0.016883057 0.016408592
-0.10199481 -0.017178074 0.016355067
-0.098401695 -0.016749224 0.015794337
-0.099550195 -0.017126916 0.015772343
-0.098042086 -0.017050797 0.015592635
-0.096396491 -0.016948834 0.015559018
-0.096281864 -0.017116776 0.015555292
-0.094595768 -0.01700598 0.015555292
-0.093027078 -0.016914014 0.015065938
-0.093328357 -0.017163835 0.015038639
-0.090991765 -0.016928701 0.014833272
-0.089194417 -0.016789537 0.014696091
-0.090568744 -0.01725119 0.014563024
-0.088975705 -0.017151942 0.014222503
-0.087638788 -0.01710025 0.013794988
-0.086897686 -0.017164977 0.013853073
-0.085660793 -0.017132159 0.013562113
-0.084347084 -0.017082954 0.013396472
-0.082814924 -0.016987676 0.013435334
-0.081003532 -0.016831903 0.013362914
-0.08071623 -0.016992891 0.013458937
-0.080242857 -0.017118476 0.013537854
-0.078246474 -0.016918156 0.013359874
-0.07874164 -0.017258441 0.013237357
-0.075888 -0.016864002 0.012584001
-0.075909898 -0.017106457 0.012408882
-0.075309612 -0.017213626 0.01231724
-0.074236013 -0.017214147 0.012399346
-0.072144881 -0.016975267 0.011409223
-0.072320879 -0.017270656 0.011409223
-0.071397193 -0.017308412 0.011218846
-0.06911207 -0.017012201 0.01153636
-0.069134369 -0.017283592 0.0114851
-0.067667156 -0.017185308 0.011506528
-0.066368327 -0.017127311 0.011517435
-0.065991044 -0.017309127 0.011805981
-0.063704014 -0.016987735 0.012099922
-0.063006438 -0.017086491 0.011977881
-0.062593676 -0.01726722 0.01188454
-0.060552791 -0.016997274 0.012061417
-0.060109112 -0.017174032 0.011875331
-0.058541231 -0.017030176 0.011875331
-0.058320947 -0.017280281 0.011780053
-0.058479361 -0.017654147 0.011787206
-0.0551355 -0.016964769 0.012094468
-0.054033738 -0.01695176 0.012188226
-0.054683488 -0.017498715 0.011836827
-0.052441545 -0.01712377 0.011218846
-0.052005116 -0.017335039 0.011092871
-0.050649315 -0.01724232 0.011170059
-0.049109753 -0.017081652 0.01115784
-0.049270768 -0.017518494 0.01132828
-0.047091205 -0.017124075 0.011308372
-0.045843139 -0.017057912 0.011389911
-0.045478456 -0.017325126 0.011089921
-0.044516347 -0.017372232 0.011089921
-0.043424472 -0.01736979 0.011047274
-0.041862015 -0.01717416 0.010635853
-0.041277755 -0.017380107 0.010255933
-0.040059403 -0.017322985 0.009963423
-0.038860999 -0.017271556 0.0094628036
-0.037862062 -0.017308371 0.0092158318
-0.036717974 -0.017279046 0.0091223717
-0.03605821 -0.017482769 0.0090814829
-0.034533363 -0.017266681 0.0088151693
-0.033762027 -0.017425561 0.0085218847
-0.032405704 -0.017283043 0.0080473423
-0.031167362 -0.017195785 0.0077536702
-0.030235795 -0.017277597 0.0079089105
-0.029372651 -0.017406015 0.0076218545
-0.028147163 -0.017321331 0.0072606504
-0.026845401 -0.017181056 0.0069170296
-0.026109764 -0.01740651 0.0064488649
-0.02466177 -0.017156014 0.0064488649
-0.02396355 -0.017428037 0.0065207481
-0.023020461 -0.017539399 0.0063823462
-0.021710416 -0.017368333 0.0062502921
-0.020810097 -0.017524293 0.00605762
-0.019627262 -0.017446456 0.0057850778
-0.018292591 -0.017216556 0.0055850744
-0.017468657 -0.017468657 0.0054031312
-0.016299907 -0.017386567 0.0055510998
-0.015254687 -0.017433928 0.0053670108
-0.014159133 -0.017426625 0.005035758
-0.12075129 -0.016317742 0.0087184608
-0.11566198 -0.015772087 0.012509316
-0.11402977 -0.015692169 0.013314486
-0.11369661 -0.015791196 0.015238315
-0.11427645 -0.016020063 0.015784949
-0.11063144 -0.015655391 0.016635299
-0.1138387 -0.016262671 0.016503513
-0.11120418 -0.016039064 0.01635921
-0.1096242 -0.015964689 0.01652211
-0.11003438 -0.016181527 0.016533256
-0.10667539 -0.015842879 0.016546756
-0.10578794 -0.015868191 0.01566115
-0.10623188 -0.016095739 0.015918911
-0.10319557 -0.01579524 0.016112447
-0.10378665 -0.016049482 0.016025037
-0.10245662 -0.016008848 0.015921861
-0.10004415 -0.015796445 0.015571356
-0.09956494 -0.015888022 0.015544266
-0.099526219 -0.016052617 0.015742838
-0.095745549 -0.015610687 0.015544653
-0.097930118 -0.016142327 0.015451252
-0.096938126 -0.016156353 0.015481323
-0.094202153 -0.015876768 0.015467614
-0.094863378 -0.016169894 0.014833272
-0.092824131 -0.016004162 0.014627844
-0.090887465 -0.015852464 0.014441848
-0.091188669 -0.016092118 0.01430133
-0.089875832 -0.016049257 0.014415503
-0.088478848 -0.015990153 0.01430285
-0.087318964 -0.015972981 0.013959318
-0.085633501 -0.015858056 0.013952672
-0.085047357 -0.015946381 0.013576835
-0.083462372 -0.015847286 0.013352066
-0.082645364 -0.01589334 0.013547093
-0.083231822 -0.016213991 0.013455987
-0.081665538 -0.016118199 0.013384461
-0.07943286 -0.015886571 0.013477981
-0.080138192 -0.016244227 0.013118893
-0.07867901 -0.016166918 0.012967288
-0.076439157 -0.015924826 0.012446582
-0.076117225 -0.016081104 0.012176335
-0.074169658 -0.015893498 0.012176335
-0.07436315 -0.016165901 0.012315959
-0.072217017 -0.015930224 0.011262
-0.072029725 -0.016126057 0.011262
-0.070154004 -0.015944092 0.011236638
-0.069853552 -0.01612005 0.011733651
-0.067808516 -0.015892621 0.011475742
-0.067821436 -0.016147962 0.011600018
-0.067393795 -0.016304949 0.011578977
-0.063906506 -0.015714714 0.011960953
-0.065282814 -0.016320704 0.0120942
-0.062973276 -0.016010156 0.011911124
-0.062333785 -0.016120806 0.011945099
-0.062384363 -0.016416937 0.01200518
-0.05962481 -0.015970932 0.011741906
-0.058493663 -0.015952816 0.011575222
-0.058678661 -0.016299628 0.011575222
-0.05665046 -0.01603315 0.011568874
-0.055253867 -0.015938615 0.011741906
-0.054920521 -0.016153095 0.011845291
-0.053603388 -0.016081017 0.011790782
-0.052899972 -0.016193869 0.010998636
-0.051127277 -0.015977275 0.010825843
-0.0497838 -0.015888447 0.010742486
-0.049746539 -0.016221698 0.010970712
-0.048752315 -0.016250771 0.011190087
-0.047154333 -0.016075341 0.011172742
-0.047074541 -0.016421352 0.011057168
-0.044843957 -0.016015699 0.011003137
-0.044140369 -0.016148916 0.01100558
-0.043620221 -0.016357584 0.010509789
-0.042298857 -0.016268792 0.010293067
-0.040929034 -0.016156197 0.010031193
-0.039755691 -0.01611717 0.0097544193
-0.038997997 -0.016249167 0.0094866455
-0.037825331 -0.016210858 0.009206444
-0.036686402 -0.016185177 0.0091223717
-0.035486531 -0.016130241 0.0091727972
-0.035057578 -0.016433239 0.0090019405
-0.033616494 -0.016266044 0.008575201
-0.032600224 -0.016300112 0.0083390772
-0.031422388 -0.016252959 0.008014977
-0.030197859 -0.016177425 0.0079740584
-0.029112848 -0.016173804 0.0079162419
-0.028029725 -0.016170995 0.007648468
-0.027179424 -0.016307654 0.0072606504
-0.026122497 -0.016326562 0.0070613027
-0.024580197 -0.016030563 0.0068544149
-0.02381327 -0.01623632 0.0068936348
-0.02264061 -0.016171865 0.0067608356
-0.021907253 -0.016430439 0.0066082776
-0.020325251 -0.01604625 0.0064921081
-0.01964888 -0.016374066 0.0062716007
-0.018529285 -0.01634937 0.0057717264
-0.017154722 -0.016082551 0.00605762
-0.016412912 -0.016412912 0.0059818625
-0.015187104 -0.016271897 0.0060332417
-0.013999785 -0.016153598 0.0051064789
-0.1188451 -0.014989471 0.0091232061
-0.11543257 -0.014691417 0.012866616
-0.11628889 -0.014936187 0.01369974
-0.11444964 -0.014836065 0.015324831
-0.11366879 -0.014872552 0.015734255
-0.11203323 -0.014796842 0.016322732
-0.11209065 -0.01494542 0.01642108
-0.10918329 -0.01469775 0.016417414
-0.10961527 -0.014899163 0.016354531
-0.10639368 -0.014603054 0.01606378
-0.10716785 -0.014854948 0.016364187
-0.10639407 -0.01489517 0.015528917
-0.10460116 -0.014792083 0.015524268
-0.10475314 -0.014964734 0.015935302
-0.1037036 -0.014967531 0.015278518
-0.10149262 -0.014801008 0.015263319
-0.10120741 -0.014914777 0.015764594
-0.098357819 -0.014649036 0.0156672
-0.097718619 -0.01471033 0.015858203
-0.097955711 -0.014906303 0.01571092
-0.098755054 -0.015193084 0.015563071
-0.094265699 -0.014663553 0.015598446
-0.094977938 -0.01494035 0.015567958
-0.093494117 -0.014874064 0.014995992
-0.092443615 -0.014875984 0.014689505
-0.092427328 -0.01504631 0.014401853
-0.091470174 -0.015065675 0.014238209
-0.090023905 -0.015003984 0.014263362
-0.089402743 -0.01507998 0.014150709
-0.087860137 -0.015000511 0.013959318
-0.08505071 -0.014700123 0.013936609
-0.085136019 -0.014898804 0.013562113
-0.083512142 -0.01479962 0.013411194
-0.082829863 -0.014866898 0.013547093
-0.082045682 -0.014917397 0.013543069
-0.080694422 -0.014864761 0.013475269
-0.08189702 -0.015287444 0.013552785
-0.079293825 -0.015001534 0.013402283
-0.077736236 -0.014908319 0.01310569
-0.078073844 -0.015181025 0.012696117
-0.075927943 -0.014971707 0.012363285
-0.075037561 -0.015007513 0.012519717
-0.074551992 -0.015126491 0.012408882
-0.071610585 -0.014743356 0.012155443
-0.072313912 -0.01511037 0.01182431
-0.07116814 -0.015096273 0.011236638
-0.069355354 -0.014938076 0.011407942
-0.069216318 -0.015141069 0.011415958
-0.067664355 -0.015036522 0.011475742
-0.065906294 -0.014882065 0.011576414
-0.065466605 -0.015025122 0.011805981
-0.064597957 -0.015072856 0.012041837
-0.063270532 -0.015013346 0.011900425
-0.062605157 -0.015111588 0.011648089
-0.061358262 -0.01507045 0.011804044
-0.060829874 -0.015207469 0.011586815
-0.059043404 -0.01502923 0.011262029
-0.057425085 -0.014887985 0.011410773
-0.057446338 -0.015174505 0.011314958
-0.056097794 -0.015103253 0.011428714
-0.055597492 -0.015262056 0.011378199
-0.053792596 -0.015061926 0.011458904
-0.053497456 -0.015284988 0.01078248
-0.05119573 -0.014932088 0.010748625
-0.050359994 -0.015000849 0.010661572
-0.049569972 -0.015086513 0.010714948
-0.048282508 -0.015021225 0.010868788
-0.047678273 -0.015170359 0.010991275
-0.046651475 -0.015188852 0.01096788
-0.044725791 -0.014908596 0.010908484
-0.044164207 -0.01508046 0.010723799
-0.042978965 -0.015042638 0.01043728
-0.041943107 -0.0150565 0.010468751
-0.040849715 -0.015049895 0.010004103
-0.039757013 -0.015043193 0.0096060932
-0.038453076 -0.014953975 0.0096060932
-0.037663002 -0.015065201 0.0093797147
-0.036861051 -0.01517808 0.0092993975
-0.035802372 -0.015188885 0.0092263818
-0.034724448 -0.015191945 0.0091057122
-0.033026233 -0.014915071 0.0089609921
-0.03244273 -0.01513994 0.0086951256
-0.031560939 -0.015236313 0.0083962977
-0.030575041 -0.01528752 0.0084239841
-0.029877175 -0.015491868 0.0083667636
-0.028446488 -0.01531734 0.0082450509
-0.026999416 -0.015119672 0.0077029169
-0.026048942 -0.015195216 0.0072159767
-0.024888856 -0.015149739 0.0070336461
-0.024012199 -0.015280491 0.0073459744
-0.023005592 -0.015337061 0.007139504
-0.021759508 -0.015231657 0.0067608356
-0.020646289 -0.015213055 0.0067608356
-0.019553129 -0.015207989 0.0064586997
-0.018350868 -0.015112478 0.0062582493
-0.017684307 -0.015473768 0.0063514709
-0.016179642 -0.015100998 0.0063139796
-0.015024776 -0.015024776 0.0063139796
-0.013966213 -0.015040537 0.0056382716
-0.01322035 -0.015423742 0.0047631562
-0.11917382 -0.013957294 0.0093306303
-0.11563554 -0.013666018 0.011685401
-0.11559939 -0.013787082 0.01311332
-0.1142108 -0.013747596 0.014754325
-0.11507626 -0.013981227 0.015514642
-0.11303496 -0.013862778 0.016236216
-0.11047781 -0.013678205 0.016425759
-0.11099542 -0.013874427 0.01642108
-0.11025007 -0.013915058 0.016432941
-0.10775743 -0.01373379 0.016273558
-0.10829239 -0.013938624 0.016518235
-0.10614828 -0.013799276 0.016036719
-0.10409406 -0.013668916 0.015843451
-0.10399573 -0.013795353 0.016189039
-0.10133336 -0.013580761 0.016055107
-0.10223462 -0.013844271 0.016376078
-0.10154784 -0.013896021 0.01600036
-0.099057212 -0.013699401 0.015911877
-0.097792678 -0.013669943 0.015887707
-0.096712232 -0.013665859 0.015621334
-0.09582112 -0.013688731 0.015567958
-0.097082675 -0.014023053 0.015144229
-0.094937921 -0.013867336 0.015536904
-0.09370067 -0.013842145 0.014999986
-0.094000198 -0.014046007 0.014716655
-0.090728424 -0.013714762 0.014635593
-0.090393178 -0.013824838 0.014453471
-0.090948015 -0.014075288 0.014453471
-0.087309934 -0.013675049 0.014563024
-0.08776933 -0.013914648 0.014165431
-0.087075181 -0.013975029 0.014274597
-0.084535748 -0.013737059 0.014283121
-0.084992625 -0.013986128 0.014032334
-0.083825737 -0.013970956 0.014128923
-0.082199812 -0.01387789 0.013712734
-0.081529155 -0.013945776 0.013622224
-0.080946781 -0.014030775 0.013462394
-0.079331331 -0.013936585 0.013546884
-0.078941785 -0.014058125 0.013028502
-0.076508246 -0.013813989 0.012663364
-0.076334633 -0.013976764 0.012378246
-0.075178169 -0.01396166 0.012348413
-0.073501386 -0.013848088 0.012407601
-0.072560228 -0.013871808 0.01198414
-0.072219171 -0.014012674 0.011749864
-0.07019373 -0.013826038 0.011397809
-0.068891838 -0.013778367 0.011562347
-0.068817601 -0.013978574 0.011187077
-0.067704059 -0.013970678 0.011366189
-0.067427702 -0.014138066 0.011463255
-0.065438919 -0.013945999 0.011831611
-0.063894503 -0.013843809 0.011945099
-0.063396685 -0.013968761 0.01181826
-0.062159058 -0.013932202 0.011505127
-0.061150104 -0.013946516 0.011694342
-0.059837826 -0.013890924 0.011421174
-0.058683015 -0.013870531 0.011420131
-0.057925571 -0.013945044 0.011575729
-0.056589749 -0.013880504 0.011410773
-0.055574484 -0.013893621 0.011586487
-0.054954637 -0.014008044 0.011428386
-0.054096401 -0.014065064 0.010739326
-0.051969465 -0.013787817 0.010755479
-0.052504089 -0.014219858 0.010794759
-0.051098138 -0.014133528 0.01070413
-0.048716296 -0.013767648 0.010558844
-0.048877914 -0.014120285 0.010675669
-0.047586285 -0.014059584 0.010823488
-0.046439096 -0.014039727 0.010843188
-0.045610312 -0.014117477 0.010738522
-0.044282231 -0.014040707 0.010542363
-0.042999528 -0.013974846 0.010305703
-0.041750267 -0.013916755 0.01026693
-0.041383386 -0.014157474 0.0097106397
-0.039771561 -0.013973791 0.0092969537
-0.038858358 -0.014032185 0.0094188154
-0.037999764 -0.014114197 0.0093444288
-0.036269519 -0.013867757 0.0093053281
-0.03585748 -0.014125674 0.0091870725
-0.034334671 -0.01394846 0.0091662705
-0.033415139 -0.014012799 0.009019196
-0.032392576 -0.014036783 0.0088001192
-0.03101361 -0.013902652 0.0083095729
-0.030516325 -0.014168293 0.0082751811
-0.028938964 -0.013933575 0.0082450509
-0.027882809 -0.013941404 0.0082450509
-0.027474595 -0.014286789 0.0076585412
-0.025845263 -0.013999518 0.0072606504
-0.024832172 -0.014035576 0.0072662234
-0.024030279 -0.01419971 0.0073301792
-0.022428567 -0.013884351 0.0070985556
-0.021649344 -0.014072074 0.0068544149
-0.020889759 -0.014292994 0.0069407225
-0.019349845 -0.013974889 0.0066030622
-0.018441429 -0.01410227 0.0063636899
-0.017375961 -0.014117968 0.0064664483
-0.01624495 -0.014078956 0.0063139498
-0.015344094 -0.014248086 0.0063139498
-0.014148721 -0.014148721 0.0056274235
-0.01296854 -0.014049252 0.0047655106
-0.12055799 -0.013033296 0.0095454156
-0.11623867 -0.012680582 0.012560874
-0.11551164 -0.012716877 0.013314486
-0.11465761 -0.012739734 0.01497218
-0.11374272 -0.012756191 0.015582025
-0.11135703 -0.012606456 0.016236216
-0.11112345 -0.012699823 0.016399473
-0.10962319 -0.01264883 0.016399473
-0.10886594 -0.01268341 0.016354531
-0.1084822 -0.012762611 0.016037673
-0.10660525 -0.01266597 0.016364187
-0.104666 -0.01255992 0.015871704
-0.10574175 -0.012817182 0.015962362
-0.10349286 -0.012672595 0.01627937
-0.10254166 -0.012685566 0.016174018
-0.10151389 -0.012689237 0.016077697
-0.10093003 -0.012749055 0.01600036
-0.099968061 -0.01276188 0.015566945
-0.09980958 -0.012878655 0.015602201
-0.099304199 -0.012952722 0.01556471
-0.096688129 -0.012750083 0.015507877
-0.09495458 -0.01266061 0.015088916
-0.09326116 -0.012574539 0.015524238
-0.093576692 -0.012760458 0.014962256
-0.091960527 -0.01268421 0.014910012
-0.091416761 -0.012755827 0.014587849
-0.091986068 -0.012986268 0.014487326
-0.088895522 -0.01269936 0.014453471
-0.087668143 -0.012674912 0.014655739
-0.088466242 -0.012946279 0.01433894
-0.08701396 -0.012890957 0.014271855
-0.085723065 -0.01285846 0.014271855
-0.084351853 -0.012812939 0.014047056
-0.083160117 -0.012793864 0.014017344
-0.082307383 -0.012827124 0.013767838
-0.080784425 -0.012755435 0.01387614
-0.08004982 -0.01280797 0.013656259
-0.079040177 -0.012817326 0.013582289
-0.078921482 -0.012973393 0.012967288
-0.077092759 -0.012848794 0.012663364
-0.076723874 -0.012967416 0.012378246
-0.074309729 -0.012738811 0.012378246
-0.073859222 -0.012845082 0.012407601
-0.073047869 -0.0128908 0.01198414
-0.072103828 -0.012914117 0.011793852
-0.070056178 -0.012737487 0.011488467
-0.070293084 -0.012977185 0.011488467
-0.068560921 -0.012855172 0.011512786
-0.068244018 -0.01299886 0.011187077
-0.066398449 -0.012851313 0.011323363
-0.065980516 -0.012979774 0.011736155
-0.065418296 -0.013083659 0.011708647
-0.063597195 -0.012935023 0.011505127
-0.061383661 -0.012700067 0.01121676
-0.062303521 -0.013116531 0.011310279
-0.059318483 -0.012711104 0.011166215
-0.058896732 -0.012850196 0.011166215
-0.058145277 -0.012921172 0.011278093
-0.057026397 -0.012911637 0.011092335
-0.055336747 -0.012770019 0.011230707
-0.055933211 -0.013160756 0.011156827
-0.053272009 -0.012785282 0.010656804
-0.052053496 -0.012747795 0.010579169
-0.051052876 -0.012763219 0.010630637
-0.050072178 -0.012784386 0.010635376
-0.050243594 -0.013107024 0.010541975
-0.048429247 -0.012914466 0.010552704
-0.047443341 -0.012939094 0.01061058
-0.046367113 -0.01293966 0.010688782
-0.045371979 -0.012963422 0.010481477
-0.043902826 -0.012849607 0.010270178
-0.042833045 -0.012849913 0.010159373
-0.041594986 -0.012798457 0.0099333525
-0.040399767 -0.012757821 0.0097440183
-0.039992455 -0.012970526 0.009114325
-0.038422115 -0.012807372 0.0093210042
-0.037643563 -0.012906364 0.0091991127
-0.037087925 -0.013089856 0.0093444288
-0.035577629 -0.012937319 0.009309262
-0.034677558 -0.013004084 0.0093797147
-0.033641893 -0.013022669 0.009483099
-0.031984843 -0.012793937 0.0092949867
-0.031634785 -0.013090255 0.0089873672
-0.030156085 -0.012924037 0.0087228119
-0.029154656 -0.012957624 0.0088071227
-0.028557036 -0.01318017 0.0084621012
-0.026901891 -0.012912908 0.007817328
-0.025937801 -0.012968901 0.0074864328
-0.025116805 -0.013104419 0.0072594285
-0.023634514 -0.012891553 0.0073301792
-0.022706395 -0.012975082 0.0070985556
-0.0218166 -0.01308996 0.0068706274
-0.020470342 -0.012928637 0.0070336461
-0.019457661 -0.012971774 0.0067608356
-0.01848531 -0.013048453 0.0065055192
-0.017230183 -0.012922637 0.0066070855
-0.01655866 -0.013246927 0.0063636899
-0.015338467 -0.013147257 0.0064418912
-0.014149825 -0.013061377 0.0060889423
-0.013217377 -0.013217377 0.0050961077
-0.11964025 -0.011856241 0.010068238
-0.11630461 -0.011630461 0.012470126
-0.1154809 -0.011654035 0.013327301
-0.11360392 -0.011570769 0.014901489
-0.11293756 -0.011610403 0.015477926
-0.11180793 -0.01160271 0.016077518
-0.11064186 -0.011591052 0.016286165
-0.11006004 -0.011640966 0.016354531
-0.11063644 -0.011815542 0.01606378
-0.10654961 -0.011490644 0.016037673
-0.10682734 -0.01163466 0.016187161
-0.10669546 -0.0117365 0.015601277
-0.10441336 -0.011601484 0.015575171
-0.10375515 -0.011645987 0.016216427
-0.10246818 -0.011620102 0.016040653
-0.10063884 -0.011531534 0.015819281
-0.10132563 -0.011732441 0.015506566
-0.099941403 -0.01169527 0.015363276
-0.097867325 -0.011575704 0.015463054
-0.098283544 -0.011751293 0.015435755
-0.097149059 -0.011743292 0.015016854
-0.09535712 -0.011654759 0.015009522
-0.096148238 -0.01188349 0.014987379
-0.094798461 -0.011849808 0.014671713
-0.092448734 -0.01168892 0.014566511
-0.091663904 -0.011724452 0.014482647
-0.089270927 -0.011552708 0.01444447
-0.088696189 -0.011614976 0.014425218
-0.088674806 -0.011752083 0.014660954
-0.086122088 -0.011552962 0.014398843
-0.0863038 -0.011720269 0.014369786
-0.084896989 -0.011673336 0.014271855
-0.08398921 -0.0116947 0.014191538
-0.082885876 -0.011689034 0.014174551
-0.083124228 -0.011874889 0.013979524
-0.079761498 -0.011544426 0.013887525
-0.081246063 -0.011916089 0.014059305
-0.079138815 -0.011763876 0.013654441
-0.077250473 -0.011640481 0.013373613
-0.077167235 -0.011789439 0.01276049
-0.076746263 -0.011890266 0.012355596
-0.074256063 -0.01166881 0.012393862
-0.074137919 -0.011819088 0.012519717
-0.072362401 -0.011705683 0.012022108
-0.072382756 -0.011883735 0.011793852
-0.071180403 -0.0118634 0.011397809
-0.069105245 -0.011694734 0.011433303
-0.068762176 -0.011818498 0.011420935
-0.067850515 -0.011846915 0.011235297
-0.066503942 -0.011799086 0.011383235
-0.065694772 -0.011846598 0.011618525
-0.063871317 -0.011709741 0.011844665
-0.063658588 -0.01186855 0.011472046
-0.062581025 -0.011868814 0.011017531
-0.061090298 -0.011789356 0.011369795
-0.059910849 -0.011768202 0.011192918
-0.059369165 -0.011873833 0.010935873
-0.057219744 -0.011655873 0.011098534
-0.056646127 -0.011756743 0.010986656
-0.056890208 -0.012034466 0.011218548
-0.054469354 -0.011748292 0.011218548
-0.053215295 -0.011707365 0.010406315
-0.052703444 -0.011831385 0.010444105
-0.051402174 -0.011779665 0.010727644
-0.05103172 -0.011943594 0.01070413
-0.048904557 -0.011694567 0.010618865
-0.048459943 -0.011845763 0.010675669
-0.04754268 -0.01188567 0.010791838
-0.046154112 -0.011806866 0.010683328
-0.04504931 -0.011798629 0.010531932
-0.044691537 -0.011990411 0.010314941
-0.042867627 -0.011788597 0.010159373
-0.042300634 -0.011930948 0.0099635422
-0.041620117 -0.012047929 0.0096660256
-0.03955964 -0.011760973 0.0091282427
-0.038757049 -0.011842432 0.0091769695
-0.038596224 -0.012130243 0.0090666115
-0.036328606 -0.011753372 0.0091613829
-0.035516016 -0.011838672 0.0092920065
-0.034590594 -0.011890517 0.009309262
-0.033911809 -0.012033222 0.0094107091
-0.03260893 -0.011956607 0.0091972649
-0.03123508 -0.011847788 0.0091753602
-0.030102059 -0.011825808 0.0091094673
-0.029559027 -0.012042566 0.0090246797
-0.028244374 -0.011949543 0.0089865625
-0.027069589 -0.011910618 0.0086139143
-0.026126567 -0.011974677 0.0079978108
-0.025113005 -0.012010567 0.007250756
-0.023701815 -0.011850907 0.0074568689
-0.022785993 -0.01193552 0.0072519481
-0.021720761 -0.011946418 0.0070964098
-0.020764478 -0.01202154 0.0071031749
-0.019681551 -0.012027615 0.0067820549
-0.018239206 -0.011801839 0.0065966547
-0.017380511 -0.011949101 0.0066030622
-0.016490411 -0.012092968 0.0064204335
-0.01501891 -0.011800572 0.0064546168
-0.014254587 -0.012061574 0.0061224699
-0.013179577 -0.012081279 0.0054738522
-0.011874377 -0.011874377 0.0043129623
-0.11717648 -0.01055644 0.010029882
-0.1166673 -0.010606118 0.012835056
-0.11558411 -0.010604046 0.013458312
-0.11372528 -0.010530118 0.014901489
-0.11417945 -0.010670977 0.015780985
-0.11077796 -0.010450751 0.016239822
-0.11019672 -0.010494926 0.016432941
-0.11085216 -0.010658861 0.016354531
-0.10867324 -0.0105508 0.016068459
-0.10809252 -0.010597305 0.016243488
-0.10701299 -0.010595346 0.016331136
-0.10542466 -0.010542466 0.015940636
-0.10577888 -0.010684735 0.015780985
-0.1051193 -0.010726459 0.015940636
-0.10177346 -0.01049211 0.016216427
-0.10244891 -0.010671762 0.015714079
-0.10146715 -0.010680752 0.015630156
-0.098737173 -0.010503954 0.015639931
-0.09806668 -0.010544804 0.01556471
-0.098142095 -0.010667618 0.015449464
-0.096987434 -0.01065796 0.015024632
-0.096781448 -0.010753493 0.015009522
-0.095084503 -0.010683652 0.014987379
-0.093248419 -0.010596411 0.014837503
-0.092884645 -0.010676396 0.014673799
-0.091849037 -0.01068012 0.014637858
-0.090214148 -0.010613428 0.014657944
-0.089884378 -0.010700521 0.014657944
-0.088427737 -0.010653944 0.014725059
-0.086729802 -0.010576804 0.014453471
-0.087335169 -0.01078212 0.01443091
-0.086489923 -0.01081124 0.014415503
-0.084084272 -0.010643579 0.014398843
-0.082975119 -0.010637836 0.014358133
-0.082097054 -0.010661954 0.014388233
-0.083685227 -0.011011214 0.014029026
-0.080536745 -0.010738232 0.013968915
-0.078176871 -0.010564442 0.013696045
-0.078235947 -0.010717252 0.013141125
-0.076493971 -0.010624163 0.012843519
-0.076299436 -0.0107464 0.012622833
-0.075748697 -0.010821242 0.012622833
-0.073160321 -0.010602945 0.012732208
-0.072183117 -0.010615164 0.012363553
-0.0717308 -0.010706089 0.012124598
-0.070605397 -0.010697787 0.011915207
-0.069226995 -0.010650307 0.011855096
-0.069298178 -0.01082784 0.011554152
-0.067206167 -0.010667644 0.011329532
-0.06706468 -0.010816882 0.011553884
-0.06472487 -0.010610634 0.012130648
-0.063408829 -0.010568138 0.012118459
-0.063516803 -0.010765559 0.011844665
-0.062585041 -0.010790524 0.011123717
-0.06013108 -0.010549312 0.01151526
-0.060100634 -0.010732256 0.010975868
-0.058373254 -0.010613319 0.010918677
-0.057791036 -0.010702043 0.01121065
-0.057597782 -0.010867506 0.011204213
-0.055403944 -0.010654605 0.011332572
-0.054990955 -0.01078254 0.011151344
-0.053899199 -0.010779839 0.010402888
-0.05197753 -0.010607659 0.010369629
-0.051980704 -0.010829314 0.01061517
-0.050850071 -0.010819163 0.010637015
-0.048966222 -0.010644831 0.010831207
-0.048926473 -0.010872549 0.010890067
-0.047095206 -0.010703456 0.010987759
-0.046516746 -0.010817848 0.010807604
-0.045518186 -0.010837663 0.010638028
-0.043799404 -0.01068278 0.01032871
-0.043438133 -0.010859533 0.010272056
-0.042608608 -0.010925284 0.010178983
-0.041221581 -0.010847785 0.0099124014
-0.03984968 -0.010770183 0.0098721981
-0.038956277 -0.010821188 0.0099056959
-0.037786849 -0.010796242 0.0094722211
-0.036233917 -0.010657034 0.0095547736
-0.035963386 -0.010897996 0.0095317066
-0.034853403 -0.010891688 0.0094791651
-0.033380847 -0.010768014 0.009483099
-0.032375813 -0.010791937 0.0094669759
-0.031334091 -0.010804858 0.0092664957
-0.030473495 -0.010883391 0.0091797709
-0.029308075 -0.010854842 0.0091557503
-0.027985267 -0.010763564 0.0091797709
-0.027189991 -0.010875996 0.0083975792
-0.025951575 -0.010813157 0.008110255
-0.024945283 -0.010845775 0.007704109
-0.024107749 -0.010958068 0.0078058243
-0.02254588 -0.010736133 0.00762254
-0.021979097 -0.010989549 0.0071516037
-0.020485874 -0.010782039 0.0072037876
-0.01954692 -0.0108594 0.0070568919
-0.018367745 -0.010804555 0.0068997741
-0.017343642 -0.010839776 0.0069249272
-0.016012708 -0.010675139 0.0066030622
-0.015245051 -0.010889322 0.006642282
-0.014247601 -0.010959693 0.0061818361
-0.012884324 -0.010736938 0.0055377483
-0.011828906 -0.010753551 0.0043129623
-0.11889125 -0.0096398313 0.010148615
-0.11753367 -0.0096163899 0.013022453
-0.11532765 -0.009522466 0.013487697
-0.11514901 -0.0095957499 0.014815927
-0.11381401 -0.0095731402 0.015777588
-0.11183348 -0.0094952947 0.016239822
-0.11247501 -0.0096407151 0.016321898
-0.11044721 -0.0095579317 0.016172737
-0.10901371 -0.0095254704 0.016106457
-0.10855044 -0.0095779803 0.01614219
-0.10805172 -0.0096283713 0.016445935
-0.1053241 -0.0094791679 0.01589781
-0.10548016 -0.009589104 0.015581608
-0.10386022 -0.0095381839 0.015795559
-0.10349742 -0.0096028531 0.015593082
-0.10041171 -0.0094135981 0.015714079
-0.10016562 -0.0094893742 0.015737414
-0.10097407 -0.00966773 0.015630096
-0.098756939 -0.0095571224 0.015519261
-0.097212993 -0.0095099658 0.015507877
-0.096657537 -0.0095595364 0.015024632
-0.096604928 -0.0096604917 0.01499173
-0.093728803 -0.0094781937 0.015088916
-0.094144367 -0.0096284011 0.014962256
-0.092039995 -0.0095213782 0.014694244
-0.091813244 -0.0096083628 0.014637858
-0.090766668 -0.0096105877 0.014618099
-0.088646673 -0.0094978567 0.014618099
-0.086901918 -0.0094230985 0.014730096
-0.088487849 -0.0097120805 0.014453471
-0.085781798 -0.0095313108 0.01443091
-0.084510259 -0.0095074046 0.014443874
-0.08447177 -0.0096233664 0.014398158
-0.082489826 -0.0095180571 0.014358133
-0.082788549 -0.0096765831 0.014007956
-0.082615845 -0.0097834552 0.014187992
-0.079476342 -0.0095371604 0.013999969
-0.079254828 -0.0096391002 0.013746023
-0.077859566 -0.0095991241 0.013231516
-0.076839641 -0.0096049551 0.013080627
-0.075690158 -0.0095945271 0.012893081
-0.074988045 -0.0096413204 0.012947142
-0.074573852 -0.0097270235 0.01293391
-0.072963752 -0.0096569667 0.012587667
-0.071428791 -0.0095949117 0.01244998
-0.070986599 -0.0096799908 0.012224436
-0.070216604 -0.009722298 0.012230486
-0.068431534 -0.0096231839 0.01204893
-0.068302654 -0.0097575216 0.011727512
-0.066758566 -0.0096907588 0.011737049
-0.065599859 -0.0096786674 0.01223582
-0.064584464 -0.0096876696 0.012234777
-0.063079283 -0.0096222628 0.011960983
-0.062319256 -0.0096702287 0.011210918
-0.061772022 -0.0097534768 0.011511743
-0.060063567 -0.0096530728 0.010918677
-0.058310222 -0.0095416727 0.010701388
-0.058221761 -0.0097036259 0.011052191
-0.057629965 -0.0097862203 0.011134446
-0.055532921 -0.0096114669 0.011092335
-0.055151451 -0.0097326087 0.010989457
-0.053279307 -0.0095902747 0.010277599
-0.052425306 -0.0096291378 0.010115713
-0.051597349 -0.0096745025 0.010402828
-0.050448976 -0.0096604414 0.010635376
-0.050122418 -0.0098065585 0.010839254
-0.048604943 -0.0097209876 0.010885626
-0.046967324 -0.0096069528 0.011023492
-0.046339642 -0.0096989945 0.010968506
-0.046116699 -0.0098821493 0.010621071
-0.044020772 -0.0096630957 0.01042673
-0.042991821 -0.0096731596 0.010360599
-0.041993525 -0.0096908137 0.01032871
-0.040924214 -0.0096925758 0.010040283
-0.040289987 -0.0098002655 0.009873569
-0.039332327 -0.0098330816 0.010080218
-0.037482999 -0.0096384855 0.0098458529
-0.037165388 -0.0098378966 0.0096490681
-0.035522431 -0.009687935 0.0096060932
-0.034515165 -0.0097073894 0.0094324648
-0.033284839 -0.0096633397 0.0096141994
-0.032129698 -0.0096389093 0.009646982
-0.031318307 -0.0097194742 0.0094597042
-0.030422509 -0.0097786635 0.0093627274
-0.028994506 -0.0096648345 0.009260565
-0.028070744 -0.0097167958 0.0090246797
-0.027156614 -0.0097763799 0.0081701875
-0.026008604 -0.0097532263 0.0077560246
-0.025331698 -0.0099124033 0.0074568689
-0.023560144 -0.0096382406 0.0075613558
-0.022687837 -0.0097233588 0.0074386597
-0.021741731 -0.0097837793 0.0072050691
-0.020416515 -0.0096709803 0.0071449876
-0.019587541 -0.0097937705 0.0070568919
-0.018562453 -0.0098271798 0.0069093108
-0.017343696 -0.0097558284 0.0069853067
-0.016277732 -0.0097666392 0.0065736473
-0.015170044 -0.0097521711 0.0066652596
-0.013789047 -0.0095462631 0.0064418912
-0.012995499 -0.0097466242 0.0055889487
-0.011938868 -0.0097681647 0.0049167573
-0.11922967 -0.008593129 0.010156304
-0.1152311 -0.0083804438 0.013197064
-0.11728239 -0.0086078821 0.013878405
-0.11484323 -0.0085069053 0.015100628
-0.11156997 -0.0083416803 0.015946895
-0.11368801 -0.0085802283 0.016295701
-0.11194813 -0.0085293809 0.016499221
-0.11096201 -0.0085355397 0.016321898
-0.10954211 -0.0085081244 0.01612252
-0.10728446 -0.0084144678 0.016305029
-0.10624224 -0.0084152268 0.016379207
-0.1072338 -0.0085787037 0.015950322
-0.10429027 -0.0084274961 0.01551488
-0.1036217 -0.0084589142 0.015867323
-0.10392214 -0.0085708983 0.015734911
-0.10106552 -0.008422127 0.015881985
-0.10186674 -0.008578252 0.01593551
-0.10012005 -0.0085208556 0.015610784
-0.096878782 -0.0083336588 0.015463054
-0.099223912 -0.0086281663 0.015304834
-0.097506307 -0.0085719833 0.014934093
-0.094714865 -0.0084190993 0.014837503
-0.094935812 -0.008533556 0.014940172
-0.09238866 -0.0083989697 0.014915049
-0.092614755 -0.0085162995 0.014716655
-0.09273541 -0.0086265495 0.014669448
-0.091141298 -0.0085780043 0.014593244
-0.089057118 -0.0084816301 0.014593244
-0.088377818 -0.0085183438 0.014426112
-0.086954631 -0.0084833782 0.014444143
-0.086187884 -0.0085123843 0.014185548
-0.086609274 -0.0086609274 0.014185548
-0.084178418 -0.0085243974 0.014168262
-0.082685396 -0.0084805535 0.014190614
-0.082954116 -0.00861861 0.013688177
-0.080244035 -0.0084467409 0.01402235
-0.079651199 -0.0084961271 0.013892472
-0.07945852 -0.0085901096 0.013746023
-0.077614024 -0.0085056461 0.013328671
-0.077651419 -0.0086279362 0.013128161
-0.076397255 -0.008608141 0.012947142
-0.075092793 -0.0085820332 0.012978196
-0.073885441 -0.008566428 0.013044983
-0.073077872 -0.0085973963 0.012825102
-0.071263291 -0.0085090501 0.012631238
-0.070386842 -0.008531739 0.012319207
-0.069954261 -0.0086097559 0.012457699
-0.068411961 -0.0085514951 0.012455523
-0.068139255 -0.0086526042 0.012364626
-0.06597764 -0.0085132439 0.012036979
-0.065298133 -0.0085636899 0.012566239
-0.064497389 -0.008599652 0.012564242
-0.063103899 -0.008556461 0.012493461
-0.062339991 -0.0085986191 0.011796713
-0.061303928 -0.0086040609 0.011788219
-0.060039647 -0.0085770926 0.011742592
-0.059538987 -0.0086602159 0.01159367
-0.057428759 -0.0085079642 0.01136449
-0.057232589 -0.0086388811 0.01136449
-0.056195989 -0.0086455373 0.011318862
-0.054713294 -0.0085824775 0.011151344
-0.053176228 -0.0085081961 0.010277599
-0.053166341 -0.0086802188 0.010150403
-0.051335659 -0.0085559431 0.010182172
-0.050531298 -0.0086010722 0.01051259
-0.04946477 -0.0086025689 0.010635376
-0.048503902 -0.0086229155 0.010715187
-0.047343072 -0.0086078318 0.010637015
-0.046884213 -0.0087226443 0.010714948
-0.044474103 -0.0084712571 0.010355502
-0.044535305 -0.0086898152 0.010227382
-0.043115404 -0.0086230813 0.010078281
-0.041827723 -0.0085800458 0.010136098
-0.041323036 -0.0086995866 0.0097955763
-0.039943967 -0.0086365324 0.0096766651
-0.03911363 -0.0086919181 0.0098059177
-0.037939854 -0.0086719673 0.0096218586
-0.036591124 -0.0086096758 0.0096291602
-0.035574425 -0.0086241039 0.0096601546
-0.034783397 -0.0086958492 0.009585768
-0.03349198 -0.0086430907 0.0098553598
-0.032596461 -0.0086923894 0.0098319054
-0.031058991 -0.0085679973 0.0095270276
-0.029969463 -0.0085627036 0.0094537735
-0.029360624 -0.0086994441 0.0093480647
-0.028488223 -0.0087656071 0.0092190802
-0.027126107 -0.0086803539 0.0083368719
-0.026179399 -0.0087264664 0.0079978108
-0.024910282 -0.008664446 0.0076077878
-0.023752892 -0.0086374152 0.0075911582
-0.022902543 -0.008724778 0.0074512362
-0.021937724 -0.0087750899 0.007253319
-0.020308837 -0.0085510891 0.007342726
-0.019526094 -0.0086782649 0.0070941448
-0.018414332 -0.0086655682 0.0069457591
-0.017425511 -0.0087127555 0.0069803894
-0.016393738 -0.0087433262 0.0066591799
-0.014972108 -0.0085554905 0.0068136454
-0.014111375 -0.0086839227 0.0066758096
-0.013363268 -0.0089088455 0.0057449341
-0.012025975 -0.0087461639 0.0053391159
-0.11756551 -0.0074140411 0.010793686
-0.116413 -0.0074080997 0.013197064
-0.11544096 -0.0074136392 0.013904899
-0.1148546 -0.0074442793 0.015170723
-0.11283522 -0.0073817433 0.016077518
-0.11316201 -0.0074729631 0.016321898
-0.11131528 -0.0074210186 0.016756803
-0.10989913 -0.0073970566 0.016311467
-0.11079966 -0.0075300741 0.016483933
-0.10722291 -0.0073584346 0.016483933
-0.10849771 -0.0075196433 0.01628527
-0.10584267 -0.0074089868 0.015825659
-0.10322855 -0.0072989878 0.015962362
-0.10540204 -0.0075287172 0.016037673
-0.10184626 -0.0073497295 0.015890926
-0.10214564 -0.0074481196 0.015711725
-0.1021023 -0.0075233276 0.015606821
-0.098422922 -0.0073293666 0.015639931
-0.09942349 -0.0074834884 0.015403122
-0.097774312 -0.0074393493 0.015353531
-0.096352965 -0.0074117663 0.015091062
-0.095677309 -0.0074415677 0.014856547
-0.095061861 -0.0074767759 0.015025496
-0.094169073 -0.0074907215 0.014952868
-0.092712194 -0.0074596014 0.014745116
-0.091565713 -0.007453023 0.014663279
-0.089432068 -0.0073649939 0.014684707
-0.089547269 -0.0074622724 0.014684707
-0.088728622 -0.0074831364 0.014411807
-0.086762652 -0.0074065672 0.014278561
-0.086714484 -0.0074938447 0.014265805
-0.083647951 -0.0073191961 0.014368951
-0.084432647 -0.0074813738 0.014261216
-0.083701976 -0.0075117163 0.014168262
-0.08242774 -0.0074934307 0.014048994
-0.080985099 -0.0074591534 0.014333636
-0.078971684 -0.0073706903 0.01423344
-0.078211099 -0.0073983469 0.014139891
-0.078878477 -0.0075636893 0.013565868
-0.076289773 -0.0074170614 0.013044268
-0.075062454 -0.0074005239 0.013103515
-0.07506258 -0.0075062583 0.013044268
-0.074444294 -0.0075523197 0.013142556
-0.072545782 -0.0074679484 0.012826324
-0.072600015 -0.0075850761 0.012706071
-0.070798978 -0.0075089829 0.012409091
-0.069198623 -0.0074521592 0.012491852
-0.06911245 -0.0075591747 0.012363195
-0.067110382 -0.0074567087 0.01236406
-0.066948108 -0.0075586573 0.012036979
-0.06587097 -0.0075589637 0.012547851
-0.064807832 -0.0075609139 0.012493521
-0.063256256 -0.0075049791 0.012384802
-0.06223087 -0.0075106216 0.011240065
-0.060364094 -0.0074131344 0.011688113
-0.060563106 -0.0075703883 0.011221647
-0.05893049 -0.0075002443 0.011596918
-0.058416706 -0.0075725354 0.011593342
-0.057616405 -0.0076097138 0.011481673
-0.055239715 -0.0074361158 0.01141423
-0.055113696 -0.0075646248 0.011092335
-0.054204084 -0.0075885714 0.010314345
-0.052225869 -0.0074608386 0.010314345
-0.051939473 -0.0075745066 0.010506272
-0.050434031 -0.0075114509 0.010667771
-0.048873622 -0.0074372902 0.010740459
-0.048844203 -0.0075979866 0.01073882
-0.047374591 -0.0075368672 0.010748625
-0.046039253 -0.0074947625 0.010884494
-0.045550823 -0.0075918036 0.010396719
-0.043905772 -0.0074961069 0.010235637
-0.043105267 -0.0075434223 0.010235637
-0.042366851 -0.0076043066 0.010051101
-0.040379357 -0.0074383025 0.0097942054
-0.03928994 -0.0074332315 0.0096214116
-0.039196327 -0.0076215081 0.0094680786
-0.037624888 -0.0075249779 0.0096040368
-0.036650658 -0.0075457236 0.0094791651
-0.03602121 -0.0076408628 0.0096060932
-0.034417469 -0.0075288215 0.0094781518
-0.033700813 -0.0076098605 0.0095818341
-0.032275155 -0.0075308695 0.0095818341
-0.030919371 -0.0074632959 0.0094537735
-0.030745678 -0.0076864194 0.0092305243
-0.029488454 -0.0076451544 0.0092977583
-0.027774582 -0.007477772 0.0092507005
-0.027186701 -0.0076122759 0.0081322491
-0.025856378 -0.0075414432 0.0079978108
-0.024789654 -0.0075446768 0.0079075992
-0.023894623 -0.0076028351 0.0077602863
-0.022833293 -0.0076110978 0.007819891
-0.022015471 -0.0077054151 0.0074512362
-0.020546982 -0.0075699408 0.007656157
