ply
format ascii 1.0
comment PCL generated
element vertex 1289
property float x
property float y
property float z
element camera 0
property float view_px
property float view_py
property float view_pz
property float x_axisx
property float x_axisy
property float x_axisz
property float y_axisx
property float y_axisy
property float y_axisz
property float z_axisx
property float z_axisy
property float z_axisz
property float focal
property float scalex
property float scaley
property float centerx
property float centery
property int viewportx
property int viewporty
property float k1
property float k2
end_header
-0.070950218 0.030100094 0.011196911
-0.069598533 0.029980907 0.011839032
-0.068985142 0.030181 0.011777669
-0.066975653 0.029766956 0.011426717
-0.065348707 0.029512318 0.01149556
-0.064879961 0.029780967 0.011633158
-0.064139426 0.02993173 0.011633158
-0.062887341 0.029844839 0.011466205
-0.061937761 0.029900987 0.010924876
-0.061169241 0.030048048 0.011042088
-0.059509564 0.029754782 0.011114687
-0.059059974 0.030066896 0.010709673
-0.057891529 0.03001783 0.010467261
-0.056844428 0.03003102 0.010640055
-0.055802345 0.030047417 0.010622829
-0.055060368 0.030229222 0.010729969
-0.053611144 0.030022241 0.010662794
-0.05310218 0.030344103 0.010528088
-0.051326573 0.029940501 0.010496438
-0.050646719 0.030172514 0.010497332
-0.050133679 0.030516151 0.01007846
-0.048121795 0.029942449 0.010113418
-0.047770295 0.03039928 0.0098952055
-0.046546254 0.030309189 0.0096920431
-0.044797268 0.029864846 0.0095634758
-0.044411696 0.030329937 0.0089915097
-0.042879291 0.030015504 0.0087477863
-0.04209137 0.030219445 0.0086609125
-0.041231234 0.030380908 0.0082712471
-0.039590739 0.02996056 0.0082455575
-0.038511939 0.029953733 0.0080419481
-0.037842732 0.030274184 0.0080769062
-0.03670134 0.030224632 0.0087113082
-0.03559725 0.030203728 0.0094514787
-0.03482816 0.03047464 0.010797888
-0.032663465 0.029502481 0.01192978
-0.031717669 0.029603157 0.014266908
-0.030356357 0.029309586 0.016473502
-0.029296067 0.029296067 0.016851455
-0.028839573 0.029907705 0.01685831
-0.027787045 0.02992451 0.016220778
-0.026399259 0.029567169 0.01473996
-0.025581751 0.029845377 0.013896227
-0.024561318 0.029900733 0.01331234
-0.02344059 0.029833479 0.012011588
-0.022443151 0.029924201 0.011557549
-0.021460982 0.030045377 0.011501491
-0.02035577 0.029997976 0.011183679
-0.019326003 0.030062674 0.010773778
-0.018209895 0.029992769 0.011423767
-0.017262038 0.030208567 0.012461036
-0.016084423 0.030024258 0.012735575
-0.014907098 0.029814197 0.012965411
-0.013995211 0.030143531 0.013679773
-0.012629281 0.029468322 0.013965547
-0.01165191 0.029659407 0.013766706
-0.010568406 0.029591536 0.013092399
-0.0095082959 0.029581366 0.012373537
-0.0084605357 0.029611874 0.010763735
-0.007500805 0.03000322 0.0077537894
-0.11839586 0.030932251 0.0060222447
-0.11659127 0.0307377 0.013060242
-0.11601398 0.030866105 0.014211714
-0.11316365 0.030386535 0.014915019
-0.11408455 0.030920113 0.015073091
-0.11168597 0.030555597 0.015412956
-0.10961915 0.030275768 0.016042471
-0.11061264 0.03084391 0.016119033
-0.10812872 0.030444009 0.01603511
-0.10728728 0.030503247 0.015826583
-0.10775184 0.030938648 0.015623152
-0.10431065 0.030250089 0.015677869
-0.10447927 0.030605039 0.015458286
-0.10401053 0.030778628 0.015462697
-0.10260104 0.030674538 0.015664816
-0.10178827 0.030748541 0.015970469
-0.10059344 0.030707473 0.015880942
-0.098465681 0.03037771 0.015870929
-0.098204687 0.030622968 0.015249282
-0.098766923 0.031133052 0.015344352
-0.09522038 0.030344957 0.015230119
-0.09583196 0.030879186 0.014974654
-0.094727568 0.03086629 0.014719188
-0.093294181 0.030744676 0.014639646
-0.092602514 0.030867504 0.014603466
-0.090710692 0.030588491 0.014344811
-0.089448668 0.030517781 0.014292389
-0.090635821 0.031290941 0.014193833
-0.088158049 0.030802211 0.014015019
-0.087158315 0.030824283 0.014452606
-0.08729618 0.031254191 0.014312267
-0.084442079 0.030610256 0.014099389
-0.08475554 0.031112794 0.014319986
-0.082553267 0.030692883 0.014140218
-0.080980897 0.0304993 0.013471633
-0.080901377 0.030870263 0.013005108
-0.080092773 0.030969206 0.012886971
-0.078750469 0.030861668 0.012786865
-0.078904301 0.031345543 0.012380511
-0.077012658 0.031018989 0.012380511
-0.075601608 0.030879531 0.012239814
-0.075688213 0.031356547 0.011986852
-0.073364519 0.030834364 0.011669457
-0.073379055 0.031294011 0.011155665
-0.07217674 0.031240679 0.010974258
-0.070565678 0.031006135 0.011208951
-0.069453843 0.030987099 0.011922479
-0.068350561 0.03097135 0.011777669
-0.066816457 0.030756783 0.011426717
-0.067099944 0.031385459 0.01149556
-0.065132789 0.030964769 0.011492908
-0.06343542 0.030660452 0.011419505
-0.06336987 0.031147905 0.011325955
-0.062063154 0.031031577 0.011042088
-0.060997307 0.031033719 0.01107493
-0.059927586 0.031033929 0.01113227
-0.058529429 0.030860972 0.010696709
-0.05796282 0.031128181 0.010612249
-0.0570646 0.031224029 0.010467261
-0.055516638 0.030961202 0.010420501
-0.05514615 0.031357616 0.010605633
-0.053758699 0.031180045 0.010572135
-0.052137479 0.030856876 0.010494471
-0.051943678 0.031382643 0.01037854
-0.050410751 0.031104507 0.010396123
-0.048913129 0.030836537 0.010240316
-0.048730735 0.031404249 0.010240316
-0.047349643 0.03120772 0.010104686
-0.045919258 0.030968804 0.010104686
-0.045587096 0.031476807 0.0099139214
-0.04417818 0.031247983 0.0093079507
-0.042973429 0.031155739 0.0088571906
-0.042166606 0.031354658 0.0085081756
-0.040704038 0.031063609 0.0080379248
-0.039594986 0.031033907 0.0079737902
-0.039093938 0.031492341 0.0078409016
-0.037954822 0.031448282 0.0076586604
-0.036472362 0.031108782 0.0083227158
-0.03564699 0.031326145 0.0090644956
-0.034573719 0.031332433 0.0093818307
-0.033356953 0.03120489 0.010923594
-0.03159564 0.030542452 0.012862802
-0.030498769 0.030498769 0.016280472
-0.02939452 0.030444326 0.01666528
-0.028297115 0.030393198 0.016850829
-0.026860647 0.029959954 0.016613483
-0.028174574 0.032682505 0.016534656
-0.02532809 0.030604776 0.015851587
-0.024411745 0.030780027 0.013897002
-0.023710318 0.031254511 0.012768149
-0.022343533 0.030855354 0.012139142
-0.021267679 0.030838137 0.011898667
-0.020100553 0.030679792 0.011645377
-0.019227443 0.030977549 0.011322707
-0.018223202 0.03108664 0.012345076
-0.017232733 0.031234328 0.012878478
-0.015884671 0.030710367 0.013436586
-0.015105275 0.031289499 0.013657331
-0.01368851 0.030535908 0.013802052
-0.012543886 0.030314391 0.014063179
-0.011718725 0.030894823 0.013676912
-0.010548903 0.030591821 0.012778133
-0.0094398521 0.030417303 0.012289852
-0.0084804399 0.030741597 0.0092703402
-0.007556513 0.031305555 0.0040655732
-0.11970919 0.032353833 0.0067294538
-0.11729384 0.031989228 0.013021797
-0.1138132 0.031324733 0.013896704
-0.11412083 0.031700231 0.014671206
-0.11324781 0.031751722 0.014858425
-0.10982233 0.031081792 0.015393645
-0.1102921 0.031512029 0.015857279
-0.10991417 0.031706009 0.015864074
-0.10843769 0.031583793 0.015867382
-0.10781579 0.031710524 0.015506476
-0.10654218 0.031646188 0.015506476
-0.10519533 0.031558599 0.015468359
-0.10519759 0.031878058 0.015287846
-0.1040041 0.031837992 0.015317351
-0.10190678 0.031517562 0.015524656
-0.10164005 0.031762514 0.015838325
-0.10044108 0.031718235 0.015713632
-0.099745184 0.03183357 0.015596539
-0.098391421 0.031739168 0.015155464
-0.096148886 0.031352896 0.015189171
-0.096099533 0.031681165 0.014918238
-0.095841937 0.031947311 0.0148637
-0.093342677 0.031463824 0.014719188
-0.094061844 0.032066539 0.014724195
-0.092255428 0.031812217 0.014618993
-0.090822615 0.031682305 0.014366329
-0.090449251 0.031923264 0.014496386
-0.089255132 0.031876832 0.01439783
-0.087519839 0.031633675 0.01417011
-0.087655902 0.032069232 0.014452606
-0.085624874 0.031712919 0.014458597
-0.084746808 0.031780057 0.01435557
-0.084316403 0.032018889 0.014324218
-0.082729563 0.031819064 0.014460474
-0.082465529 0.032129426 0.013842821
-0.081704326 0.032251708 0.013032407
-0.079356872 0.031742748 0.012891293
-0.079546258 0.032248482 0.012691498
-0.076999374 0.031643577 0.012405872
-0.077011906 0.032088295 0.012380511
-0.07721632 0.032626618 0.012116343
-0.07479842 0.032056466 0.011665493
-0.073442422 0.031931486 0.011470348
-0.073158063 0.032275617 0.011155665
-0.071448617 0.031991918 0.010974258
-0.070802562 0.032182984 0.010831237
-0.069827676 0.032228157 0.011777669
-0.067834921 0.031797618 0.011804819
-0.068272814 0.032510862 0.011426717
-0.066279463 0.032070708 0.011551529
-0.064384066 0.031664293 0.011360049
-0.063907534 0.031953767 0.011360049
-0.063021317 0.032044739 0.011268884
-0.061591279 0.031857558 0.011166096
-0.062334888 0.032807838 0.010828584
-0.05973807 0.032002538 0.010828584
-0.058257148 0.031776626 0.01079312
-0.058017462 0.032231923 0.010233432
-0.056648571 0.032065228 0.010282248
-0.0554251 0.031976022 0.010202199
-0.055166963 0.032451153 0.010205716
-0.053830449 0.032298267 0.010465413
-0.052894037 0.032384105 0.010365814
-0.051554658 0.03222166 0.010238469
-0.04996736 0.031894058 0.01041016
-0.049451701 0.032251108 0.010240316
-0.048906814 0.032604542 0.010240316
-0.046833105 0.031931665 0.010191202
-0.046519265 0.032455303 0.010192156
-0.045261342 0.03232953 0.010038316
-0.043661751 0.03194762 0.0095448792
-0.042960789 0.032220595 0.0088981092
-0.041800186 0.03215399 0.0086272359
-0.041053183 0.032410406 0.0080177486
-0.04028675 0.032664929 0.0079440176
-0.038875345 0.032396119 0.0076037645
-0.037733786 0.032343246 0.0075757802
-0.036898319 0.032557338 0.007746011
-0.035566505 0.032333184 0.0084304214
-0.03463918 0.032474231 0.0091545582
-0.033551965 0.032469641 0.0099560022
-0.031482551 0.031482551 0.011512846
-0.03060049 0.03165568 0.013666958
-0.029333111 0.031428333 0.016214997
-0.028213328 0.031348139 0.016581327
-0.027425261 0.031644531 0.016613454
-0.026212269 0.031454723 0.016554683
-0.027234668 0.034043334 0.016581327
-0.024863847 0.032431103 0.015818
-0.023024777 0.031397425 0.013454914
-0.022320317 0.031886168 0.012859374
-0.021657314 0.032485973 0.012379736
-0.020193812 0.031884965 0.012317449
-0.01919003 0.031983383 0.012418658
-0.01824362 0.032194622 0.013245642
-0.01718 0.0322125 0.013621509
-0.016428625 0.03285725 0.013972998
-0.014755402 0.031618718 0.014193207
-0.013522462 0.031205682 0.014216006
-0.012756011 0.031890027 0.014118969
-0.011567481 0.031547677 0.013639241
-0.010435123 0.031305373 0.01271078
-0.0095595792 0.031865265 0.01123482
-0.0085139023 0.031927135 0.0069070756
-0.12074822 0.033722475 0.0059199929
-0.11618325 0.032742552 0.012989402
-0.11638296 0.033099741 0.013883233
-0.11449374 0.032863945 0.014756143
-0.11251755 0.03259854 0.014633924
-0.11318592 0.033101544 0.014811009
-0.11074187 0.032695219 0.015419692
-0.10974164 0.032711454 0.015715361
-0.11007416 0.033129118 0.015605628
-0.10845767 0.032962628 0.015416801
-0.10692213 0.032817684 0.015416801
-0.10544201 0.032687023 0.015411705
-0.10465875 0.032771934 0.015241712
-0.10329679 0.032675516 0.015317351
-0.10320113 0.032981806 0.015370846
-0.10095207 0.032599106 0.015902609
-0.1019011 0.033251937 0.015799314
-0.09979403 0.032910798 0.016005129
-0.097729318 0.032576442 0.015357792
-0.09845937 0.033176526 0.01532656
-0.098261856 0.033473819 0.015041769
-0.094762228 0.032640323 0.014938056
-0.094546005 0.032931756 0.014663488
-0.092393547 0.032547727 0.014631391
-0.092497177 0.032958765 0.014551163
-0.091307148 0.032913044 0.014272243
-0.091413558 0.033339061 0.014193833
-0.088774092 0.032761868 0.014098883
-0.088734299 0.033141725 0.014047027
-0.087014794 0.032895837 0.014193833
-0.086820833 0.033227727 0.014462173
-0.085666202 0.033195656 0.014546484
-0.083405703 0.032728821 0.014572144
-0.083063558 0.033012442 0.014420867
-0.081760883 0.032916721 0.0140962
-0.079914413 0.032596666 0.013547122
-0.080328353 0.033202387 0.013055801
-0.078425653 0.032853991 0.0127514
-0.077155538 0.032764681 0.012492418
-0.077790491 0.033493131 0.012203425
-0.075689033 0.033047326 0.011691928
-0.074482821 0.032985251 0.011655062
-0.074367322 0.03341141 0.011589974
-0.072834827 0.033204112 0.011422783
-0.071877368 0.033256695 0.011155665
-0.071086429 0.033389084 0.011270314
-0.069175065 0.032991186 0.011861742
-0.069055729 0.033448871 0.011837691
-0.067499675 0.033214126 0.011827528
-0.065715909 0.032857955 0.012042135
-0.066245593 0.033665795 0.011818111
-0.06441877 0.033283032 0.011741608
-0.062537655 0.03285877 0.011628658
-0.062616296 0.03346733 0.011468738
-0.061314661 0.033346571 0.011037171
-0.05955838 0.032969821 0.011157483
-0.05920035 0.033367474 0.010745853
-0.05747309 0.032993808 0.010450602
-0.056471914 0.033030745 0.0099956691
-0.056117021 0.033454381 0.010053724
-0.054295477 0.033003133 0.010053724
-0.053479556 0.033157326 0.010205716
-0.052561861 0.033253424 0.010455608
-0.050536726 0.032638304 0.010216266
-0.05056816 0.033353467 0.01042816
-0.049245197 0.03318698 0.010127872
-0.04801682 0.033078253 0.010004431
-0.047576819 0.033520035 0.0097879767
-0.046554737 0.03356272 0.009983331
-0.045001451 0.033215359 0.009903729
-0.044325534 0.033514429 0.0094715655
-0.042744633 0.033127092 0.008819133
-0.041752223 0.033187665 0.0086947381
-0.041123666 0.033548255 0.0080470443
-0.039739378 0.033295155 0.0077635348
-0.038671851 0.033300765 0.0075186491
-0.037911102 0.033578407 0.0074935257
-0.036629807 0.033397768 0.0075493455
-0.035785742 0.033616912 0.008356452
-0.034524065 0.033445187 0.0090816021
-0.033549402 0.033549402 0.0095017254
-0.03264242 0.033730499 0.010864824
-0.030438222 0.032537408 0.012229502
-0.029371729 0.032518703 0.014420599
-0.028409442 0.032618247 0.016455233
-0.027208725 0.032441173 0.016491115
-0.02625131 0.032551628 0.016535848
-0.024996808 0.032287546 0.016535848
-0.025296085 0.034094725 0.016332626
-0.024959495 0.035170201 0.01576522
-0.023459699 0.034630984 0.014180362
-0.021024184 0.032587487 0.013909787
-0.020518821 0.033478078 0.013774008
-0.019831376 0.034154039 0.013774008
-0.018925788 0.03451173 0.014022052
-0.01723798 0.033398587 0.014314145
-0.015760293 0.032571275 0.014570892
-0.014598653 0.032325588 0.01434052
-0.013772669 0.032842521 0.01420179
-0.012593173 0.032532368 0.014022052
-0.011650855 0.032834228 0.013335168
-0.010563812 0.03274782 0.012556165
-0.0094997864 0.03272149 0.009244889
-0.0086664306 0.033582419 0.0044098794
-0.12049869 0.034738358 0.0051513016
-0.1175162 0.034186531 0.01260078
-0.11611241 0.034088045 0.013791651
-0.11297689 0.033474635 0.014618427
-0.11355272 0.03395969 0.014354855
-0.11309669 0.034142401 0.014728427
-0.11123405 0.0338999 0.01578021
-0.11078624 0.034088075 0.015715361
-0.10847127 0.033699814 0.015388489
-0.10703772 0.03358046 0.015221745
-0.10670602 0.033807844 0.015389621
-0.10483281 0.0335465 0.015365571
-0.10454598 0.033792637 0.015100598
-0.1039258 0.033934955 0.015034169
-0.10149148 0.033481728 0.015218347
-0.10204566 0.03401522 0.01553455
-0.10036511 0.033807196 0.015783727
-0.097884156 0.033322267 0.016005129
-0.098812521 0.034000006 0.015551031
-0.097787 0.034012869 0.015438676
-0.095034048 0.033418566 0.015148044
-0.095966928 0.034121573 0.014900297
-0.094026662 0.033807341 0.014725953
-0.092977121 0.033809863 0.014800876
-0.093461797 0.034376752 0.014603466
-0.091295175 0.0339703 0.014292389
-0.089940809 0.033860069 0.014203399
-0.089956805 0.034269258 0.014098883
-0.088011198 0.033932026 0.014047027
-0.087437943 0.034122121 0.014098883
-0.086852774 0.034312207 0.014098883
-0.084176563 0.033670627 0.014232695
-0.084902324 0.034390815 0.014321655
-0.083355054 0.034196947 0.014223427
-0.080945693 0.03363977 0.013920635
-0.081764728 0.034427255 0.013241857
-0.080160812 0.034201946 0.012953311
-0.077521749 0.033522915 0.012844801
-0.078345776 0.034343351 0.012124509
-0.076440424 0.033973522 0.012045532
-0.076133624 0.034313746 0.011720628
-0.075709336 0.034609985 0.011601239
-0.073551334 0.034110766 0.011452138
-0.071928538 0.033848725 0.011280984
-0.072570637 0.034660604 0.011151582
-0.0704633 0.034164026 0.011280984
-0.069824867 0.034375317 0.011827528
-0.068831272 0.034415636 0.011572987
-0.067032851 0.034048431 0.011777341
-0.066362537 0.03425163 0.012042135
-0.065052629 0.034125969 0.011744469
-0.063598521 0.033919211 0.011436194
-0.06381359 0.034610759 0.011610866
-0.062510096 0.034488328 0.011283726
-0.060342476 0.033876479 0.010997355
-0.060345899 0.034483373 0.011045218
-0.058331169 0.033938136 0.010712087
-0.057917446 0.03432145 0.010515183
-0.057792816 0.034893777 0.010042876
-0.055422913 0.034106411 0.0097979307
-0.054288097 0.034063119 0.010083199
-0.053617027 0.034314897 0.010176212
-0.05229748 0.034153458 0.010453761
-0.051856633 0.034571089 0.010620892
-0.050345603 0.034277856 0.010760069
-0.049055133 0.034125309 0.010582864
-0.048738718 0.034658641 0.010435402
-0.047567621 0.034594636 0.010306567
-0.045638781 0.033963744 0.010303169
-0.045574162 0.03472317 0.010223597
-0.044178125 0.034480486 0.0098956525
-0.042675868 0.034140695 0.0092416108
-0.042480245 0.034855589 0.0086346269
-0.040747788 0.034313925 0.0081326962
-0.039612979 0.034259874 0.0081321299
-0.038967282 0.034637585 0.0077147782
-0.037729964 0.034495965 0.0075431466
-0.036527969 0.034379266 0.0075913668
-0.035906728 0.034818646 0.0078157485
-0.03409468 0.03409468 0.008461237
-0.033856604 0.034948755 0.0094514787
-0.032987013 0.035186145 0.010166049
-0.030572943 0.033735659 0.011689693
-0.029445805 0.033652347 0.012007445
-0.028518526 0.033799734 0.01477623
-0.027268082 0.033560716 0.016522557
-0.026402403 0.033795074 0.016368866
-0.025213271 0.033617694 0.016511202
-0.023891285 0.033240046 0.016365439
-0.022707509 0.033029106 0.015953779
-0.022022396 0.033557937 0.015221596
-0.021266548 0.034026477 0.014203876
-0.020479055 0.03449104 0.013898373
-0.019308345 0.03432595 0.013921201
-0.017575895 0.033084039 0.01414299
-0.016650602 0.033301204 0.014438659
-0.015697993 0.033489052 0.014352679
-0.014874738 0.033999398 0.014233679
-0.013653096 0.033607621 0.013802052
-0.012618416 0.033649109 0.013439983
-0.011660607 0.033921767 0.012815595
-0.010610964 0.033955086 0.010773778
-0.0095810574 0.03406598 0.0063108802
-0.12132778 0.036070421 0.0058054924
-0.11692037 0.035076108 0.012478232
-0.11490801 0.034788661 0.013748437
-0.1148189 0.035083551 0.014478207
-0.11337426 0.034965891 0.014430314
-0.109924 0.034221623 0.014794588
-0.11195379 0.035185479 0.015857279
-0.10973138 0.034818608 0.015677273
-0.10875388 0.034843478 0.015334189
-0.10828502 0.035033386 0.015327096
-0.1054001 0.034437656 0.015229523
-0.10491904 0.03462328 0.015251219
-0.10611486 0.03537162 0.015139848
-0.10354732 0.034867976 0.015202373
-0.10253785 0.03488401 0.015086442
-0.10177654 0.034985684 0.015472382
-0.099615611 0.034603316 0.015800357
-0.099711947 0.035005257 0.015684783
-0.09881562 0.035063606 0.015283436
-0.096890897 0.034754343 0.015438676
-0.097291715 0.03528161 0.015148044
-0.095121302 0.034877807 0.015041769
-0.094077229 0.034882568 0.014961034
-0.094416618 0.035406232 0.014710814
-0.09201254 0.03490131 0.014630586
-0.09134911 0.035052564 0.014539272
-0.091323204 0.035454892 0.014718473
-0.088540442 0.034783743 0.014390618
-0.087925009 0.034958135 0.014320523
-0.088968664 0.035804462 0.014433742
-0.085451156 0.034813434 0.014528692
-0.085900448 0.035433937 0.014324218
-0.084796332 0.035421252 0.014163077
-0.082087204 0.034729201 0.014215142
-0.082552128 0.035379484 0.014064729
-0.081290476 0.035297178 0.013600379
-0.079356678 0.034916937 0.01331389
-0.079067722 0.035259929 0.012855321
-0.078910954 0.035672072 0.012362838
-0.075895771 0.034785561 0.012337565
-0.07605499 0.035349503 0.011753798
-0.074797727 0.035261784 0.011593938
-0.073119551 0.03497022 0.011464179
-0.073271155 0.03555806 0.011424094
-0.071339555 0.035137389 0.0112499
-0.070413835 0.035206918 0.011340588
-0.069705866 0.035389129 0.011756003
-0.068191692 0.035161339 0.011856288
-0.067344911 0.035275906 0.01173687
-0.066673405 0.035487458 0.011852324
-0.065435588 0.035399582 0.011703998
-0.064689435 0.035579186 0.011436194
-0.063761964 0.035663471 0.011436194
-0.061074477 0.034749269 0.011166513
-0.061438244 0.035569508 0.010845244
-0.059858728 0.035273891 0.010819256
-0.058892481 0.035335489 0.010515183
-0.057850685 0.035353195 0.010151744
-0.056146521 0.034959156 0.0099371076
-0.055368043 0.035137411 0.0097576082
-0.055049013 0.035619948 0.010042876
-0.053289782 0.035171255 0.010356277
-0.052626994 0.035442669 0.010329306
-0.051556695 0.035445228 0.010605633
-0.049955457 0.035075106 0.010783166
-0.049367517 0.035415825 0.010621339
-0.048897501 0.035858165 0.01045537
-0.046875052 0.035156291 0.010306567
-0.046713129 0.035849608 0.010303169
-0.045110684 0.035444107 0.010195941
-0.043948703 0.035373345 0.010169864
-0.043380886 0.035789229 0.0094774663
-0.041542359 0.035151225 0.0092083812
-0.040813208 0.035443049 0.0083195269
-0.039737154 0.035441242 0.008251816
-0.038957305 0.035710864 0.0080053508
-0.037654601 0.035502911 0.0078033209
-0.037171226 0.036077954 0.0077616274
-0.035393875 0.035393875 0.0079613924
-0.034429017 0.035504922 0.0082784593
-0.033530515 0.035693768 0.0088461637
-0.032187745 0.035406519 0.0096390545
-0.031447425 0.035785001 0.010513574
-0.029511184 0.034781035 0.011833161
-0.028313074 0.034604866 0.012963653
-0.027420273 0.034802653 0.01471746
-0.026325831 0.034750093 0.016274393
-0.025147056 0.034577202 0.016338199
-0.024260445 0.034808461 0.016165376
-0.023235574 0.034853362 0.01579845
-0.022044728 0.034641713 0.015220523
-0.021092325 0.034802336 0.014171839
-0.019811774 0.034409922 0.013864726
-0.018830206 0.034522045 0.013896078
-0.018194744 0.035319209 0.013925195
-0.01673663 0.0345193 0.014061898
-0.015921645 0.035027619 0.014022052
-0.014631971 0.034489647 0.013712257
-0.013704825 0.034789171 0.013128251
-0.01281705 0.03524689 0.012755156
-0.011603463 0.034810387 0.010054827
-0.010567514 0.034872796 0.0069783926
-0.0098782163 0.03622013 0.0046482086
-0.12006932 0.036777992 0.0051513016
-0.11497697 0.035538334 0.012448519
-0.11480907 0.035812002 0.013549834
-0.11499941 0.036203519 0.014206082
-0.1118635 0.035545409 0.014350593
-0.11270469 0.036150564 0.014723331
-0.11119758 0.036006834 0.015789807
-0.10902492 0.035642762 0.015632451
-0.11038748 0.036438588 0.015306592
-0.10822183 0.036073942 0.015169442
-0.10617097 0.035740722 0.015223205
-0.10687938 0.036338989 0.015232533
-0.10433041 0.035830647 0.01510635
-0.10313945 0.035783079 0.015054435
-0.10407013 0.036478195 0.015064359
-0.100951 0.035753481 0.015342444
-0.10102827 0.036157485 0.015559494
-0.10023168 0.036254011 0.015655458
-0.097001627 0.035462961 0.015323222
-0.097405694 0.035997756 0.015171647
-0.096652389 0.03611188 0.015106589
-0.094728976 0.035786498 0.015036255
-0.094670966 0.036166437 0.014751911
-0.093781628 0.036233813 0.014798611
-0.092980966 0.036337391 0.014559418
-0.092337452 0.036505502 0.014462173
-0.089592315 0.035836924 0.014458597
-0.089396998 0.036184497 0.014202684
-0.088756882 0.036358241 0.014032036
-0.086646967 0.035926789 0.014363647
-0.086051568 0.036120411 0.014357656
-0.085563898 0.036364656 0.014126956
-0.083328851 0.035863049 0.014064729
-0.083824567 0.036538914 0.014131606
-0.081318028 0.035906661 0.013960302
-0.080026515 0.035801336 0.013565958
-0.080545649 0.036514029 0.01331389
-0.078923598 0.036262192 0.012885869
-0.077249967 0.035979435 0.012447357
-0.077167906 0.036440402 0.012487829
-0.076332763 0.036553718 0.012110114
-0.073823184 0.035856977 0.011731982
-0.07359644 0.036264915 0.011692673
-0.072849013 0.036424506 0.011589974
-0.071477696 0.036272265 0.011328548
-0.070288792 0.036209378 0.011470348
-0.069118679 0.036154386 0.011975378
-0.06923385 0.03678048 0.011909306
-0.067565687 0.036464021 0.011839032
-0.065371789 0.035849046 0.012264162
-0.064978942 0.036217771 0.01161918
-0.064232819 0.036398597 0.011586994
-0.062372938 0.035943728 0.011586994
-0.062575683 0.036682297 0.011259228
-0.061099999 0.036445614 0.010953695
-0.059843153 0.036333341 0.010953695
-0.059165187 0.036574844 0.010388017
-0.057208069 0.036019892 0.0099973679
-0.056441516 0.036207765 0.0099143386
-0.056265343 0.036788877 0.0096887648
-0.054296948 0.036197964 0.0099425316
-0.053369306 0.03629113 0.010052294
-0.052834898 0.036660951 0.0098473132
-0.050900389 0.036054444 0.010351807
-0.050526626 0.036551178 0.010519028
-0.049493443 0.036582109 0.010493398
-0.047925632 0.036210477 0.010217071
-0.047287945 0.036540687 0.010144681
-0.04602553 0.036392279 0.010140836
-0.044860303 0.036315486 0.010079712
-0.044385724 0.036807671 0.010065317
-0.043241367 0.036755163 0.0096562803
-0.041911148 0.036537923 0.0095183551
-0.040733542 0.036445804 0.0082706511
-0.03981626 0.036587913 0.0081898272
-0.038668241 0.036520008 0.0080470443
-0.038256943 0.037163887 0.007822454
-0.036523405 0.036523405 0.0078002512
-0.035420537 0.03649389 0.0076919794
-0.034921922 0.037104543 0.008115381
-0.033240028 0.036456805 0.0084915161
-0.032504629 0.03683858 0.0091041923
-0.031470798 0.036896795 0.0097300112
-0.029959889 0.036379866 0.010400474
-0.028493803 0.035881083 0.011487365
-0.027397254 0.035827179 0.012170732
-0.026270352 0.03572768 0.014500976
-0.025242278 0.035759896 0.016256899
-0.024142416 0.035688788 0.016009539
-0.022959825 0.035483368 0.015700936
-0.021885986 0.035434451 0.014089406
-0.02090105 0.035531789 0.013783902
-0.019853786 0.035527829 0.013758779
-0.018897312 0.035694923 0.013813943
-0.017717309 0.035434619 0.013526976
-0.016863314 0.035834543 0.013606757
-0.015752589 0.035705872 0.013543069
-0.014732641 0.035779271 0.013444781
-0.013780921 0.036042411 0.012536794
-0.012748799 0.036121599 0.0099891722
-0.011552951 0.03570912 0.0071911514
-0.010845928 0.036876153 0.0049782991
-0.12011694 0.03787471 0.0051085353
-0.11740293 0.037355475 0.012264073
-0.1162111 0.037315492 0.013669401
-0.11283518 0.036566954 0.014417917
-0.1135871 0.037154656 0.014482975
-0.11275685 0.037231036 0.014875382
-0.11056441 0.036854804 0.015807688
-0.11037293 0.037144735 0.015712738
-0.10935323 0.037158865 0.015229523
-0.1064766 0.03653609 0.015273333
-0.10779767 0.037355628 0.015273333
-0.10419952 0.036469832 0.015333414
-0.10448453 0.036938973 0.014966965
-0.10462223 0.037365083 0.014919102
-0.10202733 0.036813982 0.01492542
-0.10199682 0.037186339 0.01566267
-0.10123242 0.037296157 0.015583187
-0.097754017 0.03639777 0.015713632
-0.099568553 0.037472036 0.015411675
-0.097494841 0.037090428 0.015470892
-0.095457487 0.036714416 0.015036255
-0.095675223 0.03720703 0.01492998
-0.094836384 0.037295207 0.014714122
-0.093386523 0.03714237 0.014639646
-0.092920639 0.037381865 0.014559418
-0.09081167 0.036958236 0.014462173
-0.090528645 0.037276499 0.014458597
-0.090117827 0.037549093 0.01416415
-0.087721571 0.036991023 0.01385352
-0.087224551 0.037229989 0.014208674
-0.087085299 0.037629452 0.014152586
-0.083363548 0.036471553 0.014126956
-0.085571751 0.037911534 0.014160872
-0.082858473 0.037180085 0.014186949
-0.082137272 0.03733512 0.014153033
-0.080690376 0.037160039 0.013498515
-0.079570636 0.037132964 0.013179243
-0.077196501 0.036511857 0.012488425
-0.078433722 0.037605207 0.012383521
-0.076570749 0.037221894 0.012316287
-0.075735092 0.0373342 0.01205191
-0.075257204 0.037628602 0.011892021
-0.073750503 0.037409678 0.011863589
-0.071848288 0.036980737 0.011423707
-0.072390124 0.037815735 0.011370808
-0.070990175 0.037646305 0.011428833
-0.068909384 0.037105054 0.011639297
-0.069108061 0.037793472 0.011774272
-0.066988267 0.037215702 0.011767179
-0.066381671 0.037473522 0.011927575
-0.065500192 0.037582081 0.011492908
-0.063840896 0.03724052 0.011229694
-0.062998116 0.037371762 0.011229694
-0.062370788 0.037637543 0.01109466
-0.060881495 0.037383374 0.010930777
-0.06027193 0.037669957 0.010775805
-0.058811828 0.037425708 0.010257512
-0.05757964 0.037320137 0.0099653006
-0.057486106 0.037962522 0.0096904039
-0.054718569 0.036829807 0.0097131729
-0.054906305 0.037680797 0.0099425316
-0.053692609 0.037584823 0.010052294
-0.05228899 0.03734928 0.010190368
-0.052073732 0.037970427 0.010703295
-0.050416712 0.037544359 0.010605633
-0.048794527 0.037126269 0.010469854
-0.048048608 0.037371136 0.010268182
-0.047323115 0.037643388 0.010250956
-0.045815814 0.03729194 0.010152102
-0.045254253 0.037711877 0.0099509954
-0.044170681 0.037706677 0.0099318027
-0.043258801 0.037851453 0.0097623169
-0.042310175 0.03797067 0.0094005466
-0.040637583 0.037429351 0.008700341
-0.039481059 0.037346948 0.0082266927
-0.039062966 0.037977885 0.0079375505
-0.037435509 0.037435509 0.0076919794
-0.036427155 0.037498541 0.0076243579
-0.035976388 0.038156778 0.0076465607
-0.034234382 0.037443854 0.0081082284
-0.033683542 0.038029805 0.0083872676
-0.032406848 0.03780799 0.0089634955
-0.031404361 0.037901811 0.0093198121
-0.030316601 0.03789575 0.0093893707
-0.028492641 0.036934901 0.010444313
-0.027355166 0.036824264 0.011087
-0.026304159 0.036825821 0.011936754
-0.025199059 0.036748629 0.013556004
-0.024311617 0.036995936 0.013993442
-0.023233807 0.036962874 0.0142169
-0.022073669 0.036789447 0.013182193
-0.020957258 0.036675204 0.013166159
-0.020052446 0.036938716 0.013166159
-0.018872522 0.036696572 0.013187081
-0.017864157 0.036779143 0.013241529
-0.016894672 0.036957096 0.013289034
-0.015720999 0.03668233 0.01294297
-0.014788985 0.036972463 0.012154132
-0.013690369 0.036858685 0.0095248818
-0.012733688 0.037139922 0.0071084201
-0.011865074 0.037752509 0.0050183833
-0.01087397 0.038058892 0.0044887364
-0.12137888 0.039366122 0.0042940676
-0.11671525 0.038197719 0.012049139
-0.114571 0.03783996 0.013365477
-0.1145665 0.03818883 0.01387462
-0.11353235 0.038197797 0.014506251
-0.11122116 0.037773222 0.014768183
-0.11231838 0.03850916 0.01561439
-0.10953084 0.037914522 0.015782952
-0.11034858 0.038568437 0.015333414
-0.10813568 0.038165532 0.015083283
-0.10542569 0.037577473 0.015019506
-0.1058103 0.038091704 0.015274107
-0.10594558 0.03852566 0.015001386
-0.10210849 0.037509244 0.01485011
-0.10268179 0.038108706 0.015026242
-0.10198124 0.038242966 0.015480459
-0.10030179 0.038009096 0.01578325
-0.10078518 0.038598578 0.015721381
-0.098161168 0.037997868 0.015345514
-0.096308984 0.037686121 0.015307754
-0.097243086 0.038469791 0.015009701
-0.096535191 0.038614072 0.014998823
-0.093813859 0.037947178 0.014961034
-0.093909837 0.03841766 0.014648259
-0.091765076 0.037971754 0.014639646
-0.090991735 0.038089562 0.014531016
-0.090337873 0.038260743 0.014462173
-0.089579515 0.038391218 0.013974249
-0.088838406 0.038532317 0.013955653
-0.087128051 0.038251337 0.014200658
-0.085721515 0.038098451 0.014149159
-0.085156523 0.038320433 0.013895005
-0.083821274 0.038197033 0.013895005
-0.082264282 0.037968129 0.01397109
-0.083382785 0.038984157 0.013919055
-0.080056466 0.037921481 0.013498515
-0.079441778 0.038132053 0.013485074
-0.078987703 0.038426444 0.012520432
-0.077919766 0.038426183 0.012402773
-0.076192893 0.038096447 0.012361705
-0.076050118 0.038560621 0.012107491
-0.074780449 0.038458515 0.011910111
-0.073800825 0.038504776 0.011910111
-0.072834551 0.038559467 0.011801243
-0.071596012 0.038469497 0.011520416
-0.070286766 0.038338237 0.011482477
-0.069619395 0.038558435 0.011662602
-0.067761339 0.038115751 0.011762261
-0.067177989 0.038387418 0.011726707
-0.066274367 0.038481891 0.011868924
-0.064951368 0.038331956 0.011195481
-0.064234376 0.038540624 0.011085063
-0.062725753 0.038273338 0.011085063
-0.061269652 0.038029436 0.010880709
-0.06120766 0.038657468 0.010640025
-0.060033239 0.038592797 0.010454684
-0.058818977 0.038499691 0.010071069
-0.057606198 0.038404129 0.0096864998
-0.056411054 0.038316943 0.0096218288
-0.055605557 0.038496152 0.0096251667
-0.05449805 0.03846921 0.009683162
-0.053087354 0.038222894 0.010024101
-0.052791618 0.038785677 0.01013571
-0.051217251 0.038412936 0.010290653
-0.04933415 0.037787858 0.010465413
-0.049649864 0.038856413 0.010345161
-0.048030011 0.038424004 0.01024729
-0.046901103 0.03837363 0.010187775
-0.046353716 0.038807761 0.010029197
-0.045084581 0.038643923 0.0099431872
-0.044168487 0.038782082 0.0099318027
-0.043109171 0.038798254 0.0095912814
-0.042079356 0.038842481 0.0093680322
-0.04096185 0.038805962 0.0090436339
-0.040132519 0.039047852 0.0087442994
-0.038525295 0.038525295 0.0082331598
-0.037478149 0.03854895 0.0079324841
-0.036789536 0.038953625 0.0078678727
-0.035417248 0.038636997 0.0080778897
-0.034649208 0.038980357 0.0081911087
-0.03345656 0.038852777 0.0083734095
-0.032036386 0.038443662 0.0088877678
-0.031378161 0.038952198 0.00906232
-0.030683154 0.03944977 0.0090698898
-0.028461859 0.037949141 0.0093127191
-0.027743092 0.03841351 0.010127485
-0.026695406 0.038441382 0.010755152
-0.025296833 0.037945248 0.011464804
-0.024395531 0.038184308 0.011689395
-0.023162004 0.037901461 0.012122005
-0.022042079 0.037786417 0.011693299
-0.021137048 0.038046684 0.012171209
-0.019960446 0.037819788 0.012171209
-0.018851995 0.037703991 0.012197703
-0.017962348 0.038037911 0.012171209
-0.016665708 0.037497841 0.011921257
-0.015946031 0.038270473 0.010404885
-0.014777237 0.037998606 0.0076497495
-0.01383018 0.038298961 0.0067996085
-0.013004779 0.039014336 0.0052777529
-0.011931246 0.039047714 0.0048540831
-0.12154175 0.040513918 0.0043112338
-0.11502875 0.038691491 0.012242407
-0.11558796 0.039236281 0.013748437
-0.11328215 0.038809627 0.014590681
-0.11271737 0.038977034 0.01460129
-0.1125169 0.039274771 0.014915854
-0.11252899 0.039653074 0.01561439
-0.10824836 0.038511436 0.015911579
-0.11019795 0.039585672 0.015333414
-0.10822074 0.039256547 0.015114099
-0.10628941 0.038937703 0.015020281
-0.10505717 0.038871154 0.015318155
-0.10477907 0.039159857 0.01505205
-0.10364747 0.039132211 0.015037179
-0.10309494 0.03932488 0.015291512
-0.10047411 0.038724396 0.015623063
-0.10070129 0.039220504 0.015530735
-0.099696584 0.039242275 0.015608132
-0.09881673 0.039314184 0.01522553
-0.097883642 0.039366249 0.015155464
-0.096505471 0.03923849 0.014770299
-0.094674759 0.038921844 0.014770299
-0.094949052 0.039473202 0.014416277
-0.093680792 0.039388515 0.014705509
-0.092029192 0.039138854 0.014705509
-0.091293722 0.039277531 0.014253676
-0.089778051 0.03907986 0.014254004
-0.088386931 0.038932338 0.013801575
-0.088453919 0.039431263 0.013730913
-0.087406695 0.039439604 0.014142394
-0.086498357 0.039511599 0.013979912
-0.084351972 0.03901279 0.013629943
-0.084052451 0.039366342 0.013794035
-0.08413852 0.039911862 0.01387468
-0.081876919 0.039343458 0.013179034
-0.080025382 0.038959727 0.012787908
-0.080883712 0.039902631 0.012764931
-0.078320868 0.039160434 0.012668192
-0.076973841 0.039014138 0.012348443
-0.077510118 0.039831594 0.012281477
-0.075048581 0.039109826 0.012060374
-0.074127592 0.039181732 0.011865944
-0.074180983 0.03977821 0.011864781
-0.071776412 0.039054811 0.011776149
-0.071423762 0.039442975 0.011728823
-0.07123217 0.03993319 0.011739284
-0.069709234 0.039680645 0.011731029
-0.068801694 0.039775979 0.011955172
-0.067582615 0.039691377 0.011810005
-0.065467291 0.039069191 0.011971802
-0.065226287 0.039563484 0.011268884
-0.064094059 0.039524671 0.01118508
-0.062623255 0.039272215 0.01131919
-0.061782371 0.039412893 0.011060834
-0.061238628 0.039751392 0.01102072
-0.060363412 0.039882969 0.010753483
-0.059202939 0.039827432 0.010426491
-0.057307441 0.03926621 0.0098001659
-0.057422604 0.04008748 0.0097348094
-0.056350924 0.040095855 0.0097757578
-0.054556575 0.039580263 0.0097592175
-0.053105656 0.039298188 0.010478765
-0.052387074 0.039557587 0.010270566
-0.05086726 0.039210182 0.010523319
-0.05066378 0.039884254 0.010463417
-0.048947845 0.039371092 0.01022926
-0.048079021 0.039531637 0.010182112
-0.047137592 0.039638434 0.010006309
-0.045933187 0.039523907 0.0099136531
-0.044932462 0.039583359 0.0097663403
-0.044292331 0.039971128 0.0097316206
-0.042819176 0.039607741 0.009359479
-0.04178239 0.039639704 0.0091606379
-0.041136421 0.040053885 0.0089904964
-0.039515041 0.039515041 0.0085033774
-0.038810551 0.039888628 0.0083779097
-0.037975714 0.040145759 0.0081877708
-0.03649329 0.03971329 0.0079535842
-0.035563052 0.03987373 0.0079535842
-0.034778934 0.040213142 0.008115381
-0.033165667 0.039584827 0.0083551705
-0.032890167 0.040564544 0.0087257028
-0.031230602 0.03984594 0.0086099505
-0.02989272 0.039501097 0.0086099505
-0.029696908 0.040695764 0.0088090599
-0.027858144 0.039644282 0.0087105334
-0.026290948 0.038910605 0.0095511973
-0.025637325 0.039524212 0.010005593
-0.024585217 0.039550133 0.01048857
-0.023447542 0.039434504 0.010779917
-0.022452204 0.039558645 0.010999799
-0.021230517 0.039276462 0.011164248
-0.020057343 0.039059039 0.011695474
-0.01917528 0.039415855 0.011695474
-0.01803048 0.039242808 0.010654032
-0.017063811 0.039460063 0.0098246932
-0.015967913 0.03938752 0.0076926947
-0.014915766 0.039420243 0.0069372654
-0.014029015 0.039928734 0.0051602721
-0.013021505 0.04014964 0.0048087537
-0.011979288 0.040293973 0.0043742359
-0.11704545 0.04043388 0.011488676
-0.11487329 0.040047571 0.013764888
-0.1144352 0.040264238 0.014414966
-0.11462606 0.040708318 0.014590234
-0.11151567 0.039977316 0.014875382
-0.10966786 0.039689321 0.015711665
-0.10988715 0.040151078 0.015877903
-0.10861135 0.040070206 0.015415311
-0.10706887 0.039888404 0.015379608
-0.10884079 0.04095 0.015378833
-0.10531694 0.040020436 0.015396625
-0.10438852 0.040068317 0.015327096
-0.10454945 0.040539585 0.014780551
-0.10129225 0.039681502 0.015207738
-0.10165362 0.040237892 0.015290171
-0.10011232 0.04004493 0.015559494
-0.099157915 0.040085115 0.015779048
-0.098536454 0.040262207 0.015318543
-0.097921923 0.040446013 0.015294045
-0.094970271 0.039657917 0.01518777
-0.095517457 0.04032959 0.015001088
-0.094986044 0.040555838 0.01470238
-0.093618281 0.040426075 0.014773041
-0.093211398 0.040713027 0.014756173
-0.090681285 0.040068474 0.014322519
-0.08979848 0.040145203 0.014167756
-0.090393655 0.040892366 0.013884068
-0.089238472 0.040856168 0.013543814
-0.086762942 0.040207215 0.014140368
-0.086792342 0.040717397 0.013782978
-0.083952107 0.039877251 0.013692409
-0.084132463 0.040468782 0.013528168
-0.083520085 0.040689271 0.013565958
-0.08175759 0.040347904 0.013453484
-0.081077218 0.040538609 0.012764931
-0.080386698 0.040729258 0.01242435
-0.078329779 0.040223401 0.012397915
-0.078216538 0.040715456 0.012302548
-0.076942019 0.040608287 0.012276977
-0.075375445 0.040341787 0.012059122
-0.074897878 0.04065885 0.011926204
-0.073280841 0.040357567 0.011841387
-0.071918927 0.040189989 0.011926204
-0.072502799 0.041120991 0.011489749
-0.069559596 0.040049467 0.011850774
-0.069000147 0.04033855 0.011767715
-0.068095513 0.040431712 0.011972308
-0.066547208 0.040139586 0.011855841
-0.067003474 0.041066647 0.012015462
-0.065416485 0.040751252 0.011439472
-0.063697658 0.04034185 0.011279523
-0.063392118 0.04082882 0.011331975
-0.062364183 0.040859293 0.01102072
-0.060662869 0.040441912 0.011025012
-0.060043279 0.040743656 0.010771513
-0.058646966 0.040519722 0.010402024
-0.057996091 0.040812064 0.010233045
-0.057243634 0.041042607 0.01019612
-0.055752665 0.04074233 0.010270566
-0.054633163 0.040707063 0.010138333
-0.054063331 0.04108813 0.010270566
-0.052109353 0.040411338 0.010182381
-0.051709082 0.040936358 0.010439903
-0.051034719 0.041262113 0.010224402
-0.049042042 0.040512994 0.01018697
-0.049191847 0.041539781 0.010020047
-0.047248904 0.040805873 0.0099092722
-0.045712408 0.040397014 0.0097444654
-0.045142736 0.040843427 0.0095013976
-0.043987513 0.040768914 0.0093829036
-0.042715099 0.040579345 0.009236753
-0.042185131 0.04110346 0.0091151893
-0.040598772 0.040598772 0.0088931024
-0.039886147 0.040964149 0.0086639822
-0.038936555 0.041099697 0.0082343221
-0.037605025 0.040828314 0.008212477
-0.036667909 0.040981781 0.0079661012
-0.035840344 0.041270699 0.0078915656
-0.034519177 0.040991522 0.0083373189
-0.033627056 0.041220259 0.0083962381
-0.03258656 0.04127631 0.0084915161
-0.031321712 0.041042242 0.0084220767
-0.029999411 0.040713485 0.0082830191
-0.029163484 0.041044902 0.0082641244
-0.028006043 0.04093191 0.008071512
-0.027461734 0.041741833 0.0080068111
-0.026057491 0.041257694 0.0080858171
-0.025046472 0.041381128 0.0082260072
-0.024055498 0.041550409 0.0080465078
-0.022984212 0.041590478 0.0081605315
-0.021825805 0.041469034 0.0080437064
-0.020793468 0.041586936 0.0072423816
-0.019660939 0.041506428 0.0072849989
-0.018521186 0.041400298 0.0070193708
-0.017523736 0.041618876 0.0066071451
-0.016267205 0.041210253 0.0061331093
-0.01531743 0.041575883 0.0050183535
-0.014244232 0.041636989 0.0047644973
-0.012923828 0.040925458 0.0046221018
-0.11523594 0.04085638 0.011488676
-0.11495632 0.041131157 0.013568074
-0.11396667 0.04115463 0.014414966
-0.1140295 0.041562155 0.014700025
-0.11141618 0.040992744 0.015219837
-0.1105127 0.041047573 0.015688568
-0.11011924 0.041294713 0.015782952
-0.10943477 0.041436464 0.015381634
-0.10924688 0.041770864 0.015333414
-0.107568 0.04153616 0.015293419
-0.10497528 0.040940359 0.015293419
-0.10532762 0.041492697 0.01498583
-0.10332408 0.041118767 0.014713675
-0.10153838 0.040824711 0.01492542
-0.10196503 0.041423295 0.01519385
-0.099349111 0.040785424 0.015506238
-0.099557661 0.041305836 0.015608132
-0.098481163 0.04129855 0.015303731
-0.096424825 0.04087574 0.015036255
-0.09632761 0.041283261 0.014995337
-0.095234603 0.041268326 0.014751911
-0.094648048 0.041474987 0.014714122
-0.093800448 0.041570652 0.01478675
-0.091962017 0.041224353 0.014577001
-0.091089323 0.041307949 0.014322519
-0.090863056 0.041690107 0.014167756
-0.088192388 0.040946465 0.013942629
-0.08838439 0.041530013 0.013791859
-0.087606132 0.041666329 0.014140368
-0.08578942 0.041306019 0.013988793
-0.084861368 0.041369919 0.013789713
-0.084047303 0.041491706 0.013553858
-0.081786178 0.040893089 0.013770521
-0.08264292 0.041858103 0.013682872
-0.0813758 0.04175863 0.013212979
-0.07944198 0.04130983 0.013403207
-0.079323135 0.041805435 0.012486905
-0.077361584 0.041330159 0.012378693
-0.076825321 0.041613717 0.012332916
-0.076316968 0.041920587 0.012011349
-0.074399255 0.041451015 0.011743993
-0.073490866 0.041538317 0.011724979
-0.072943904 0.041835476 0.011732906
-0.070825547 0.041226808 0.011643708
-0.070409037 0.041605342 0.012089849
-0.070350952 0.042210571 0.011861563
-0.067607895 0.041198563 0.012011707
-0.06759312 0.041843358 0.012097776
-0.066642039 0.041919991 0.011956632
-0.064563088 0.041278042 0.011544079
-0.064701989 0.042056292 0.011190295
-0.063334808 0.041865382 0.011329591
-0.06148215 0.041341446 0.011110902
-0.06115558 0.041843291 0.011085063
-0.060550969 0.042169426 0.010883927
-0.059512902 0.042200059 0.010567158
-0.057950031 0.041852798 0.010190189
-0.056898583 0.041868769 0.010141224
-0.055520508 0.041640379 0.010138333
-0.054795358 0.041902333 0.0099009573
-0.053927187 0.042063203 0.010198861
-0.052486759 0.041775174 0.010092944
-0.051844444 0.042123612 0.010141402
-0.049929172 0.041430589 0.010111451
-0.049521416 0.041985549 0.010174304
-0.048298214 0.04185845 0.009927392
-0.046730787 0.041420471 0.009570986
-0.046339951 0.042029258 0.0092475116
-0.045294341 0.042059027 0.0090877116
-0.043727126 0.041594092 0.0091151893
-0.04319296 0.042113137 0.0091101229
-0.041515552 0.041515552 0.0088931024
-0.040768258 0.041841108 0.0084368885
-0.039966159 0.042126492 0.0081509948
-0.038631406 0.04185069 0.0080222785
-0.037602477 0.041899901 0.007904619
-0.036587268 0.041967746 0.0078300834
-0.035568386 0.042035364 0.0078505874
-0.034576822 0.042140502 0.0079284608
-0.033474654 0.042113274 0.0079451501
-0.032159436 0.041807264 0.0080778897
-0.031182628 0.041935258 0.0080132782
-0.030416083 0.042365257 0.0080403388
-0.029027408 0.041928474 0.0078935623
-0.028303294 0.042454939 0.0076459646
-0.026888875 0.041946642 0.0074371994
-0.026128359 0.042458583 0.0073618889
-0.025241191 0.042800277 0.0070368946
-0.023800483 0.042191766 0.0069496632
-0.022859113 0.042452637 0.0067499578
-0.021814557 0.042538386 0.0061464608
-0.020628422 0.042342551 0.0059324801
-0.019510027 0.042271726 0.0060808957
-0.018633256 0.042746879 0.0056594312
-0.01737985 0.042363387 0.0050294995
-0.016418889 0.042689111 0.0048713684
-0.015181321 0.042290822 0.0047872365
-0.014060268 0.042180803 0.0045364201
-0.013076527 0.042498711 0.0042700768
-0.11473981 0.041723564 0.011501223
-0.11567055 0.042447906 0.013791651
-0.11419383 0.042294007 0.014559418
-0.11271112 0.042134997 0.014770955
-0.11256605 0.042477757 0.015449762
-0.11299609 0.043046128 0.015783548
-0.1095442 0.042132385 0.01595208
-0.1096397 0.042578526 0.01516223
-0.10774014 0.042251036 0.015327096
-0.10617039 0.042047676 0.015038937
-0.1063171 0.042526837 0.014996529
-0.10342532 0.041788008 0.014724851
-0.10332334 0.042172793 0.014472574
-0.10241313 0.042232219 0.014882743
-0.099482708 0.04145113 0.014780551
-0.10169889 0.042820584 0.015506238
-0.099284686 0.0422488 0.015606374
-0.098810151 0.042498987 0.015265882
-0.097523317 0.04240144 0.015303731
-0.096057512 0.042223077 0.015009284
-0.09409342 0.041819297 0.015050381
-0.094926506 0.042663597 0.014751911
-0.093549073 0.042522304 0.014902651
-0.092554472 0.042553779 0.014888942
-0.092777334 0.043152247 0.014441639
-0.089640923 0.042183962 0.014426678
-0.08944387 0.042592317 0.014149159
-0.088807538 0.042798813 0.014005482
-0.086634979 0.042260963 0.01435563
-0.086034238 0.042486046 0.014140368
-0.084670037 0.042335019 0.013789713
-0.083999291 0.042531285 0.013692409
-0.084573001 0.043370768 0.013770521
-0.081714928 0.04244931 0.013669431
-0.081288628 0.042783488 0.013388962
-0.080711529 0.043046143 0.013113767
-0.077869311 0.042091515 0.012735665
-0.077212535 0.042308234 0.01267162
-0.077499427 0.043055236 0.012322396
-0.075505592 0.042538363 0.011921912
-0.074105449 0.042345971 0.011740267
-0.074405909 0.043133859 0.011662722
-0.072084509 0.042402651 0.011740267
-0.071518429 0.042697567 0.011489749
-0.071083799 0.04308109 0.011476517
-0.06953609 0.042791441 0.011545569
-0.068443097 0.042776935 0.011752278
-0.066591382 0.042280238 0.012143016
-0.065763608 0.042428128 0.012074649
-0.065008722 0.042628668 0.011619598
-0.064337268 0.04289151 0.011338711
-0.063061103 0.042753287 0.01124388
-0.062585458 0.043162383 0.010964721
-0.061185431 0.042937145 0.010907143
-0.059971094 0.042836495 0.010739237
-0.059306864 0.043132264 0.010404348
-0.057880916 0.04287475 0.010141224
-0.055915736 0.042200554 0.010069519
-0.055970244 0.043054033 0.009960711
-0.054465998 0.042718429 0.0094693005
-0.053465646 0.042772517 0.0099580884
-0.052848905 0.043141965 0.0099239349
-0.050709944 0.042258285 0.010043085
-0.050577063 0.04304431 0.010051936
-0.049376369 0.042935971 0.0097543001
-0.048481919 0.043095034 0.0096016824
-0.047422741 0.043111581 0.0092372596
-0.045817707 0.042621121 0.0090776384
-0.044629492 0.042504273 0.0089159906
-0.044454023 0.043369774 0.0089352429
-0.042523213 0.042523213 0.008710295
-0.041816384 0.042888597 0.0084687769
-0.041189905 0.043357793 0.0082958937
-0.039538443 0.04274426 0.0079078078
-0.038550243 0.042833604 0.0078687072
-0.037794333 0.043193523 0.0077153444
-0.036298834 0.042704508 0.0077891052
-0.035615623 0.043170452 0.0075911582
-0.034442622 0.043053273 0.0077034235
-0.033292118 0.042957567 0.0076774955
-0.032710683 0.043614242 0.0078516603
-0.031466369 0.043401882 0.0075371563
-0.029762987 0.042518552 0.0073334873
-0.029481268 0.043675948 0.0073629916
-0.02802249 0.043111525 0.0072079897
-0.026805118 0.042888187 0.0066017807
-0.026106004 0.043510005 0.0063804984
-0.024904853 0.043312784 0.0059800744
-0.023650739 0.043001346 0.0057631135
-0.022694491 0.043227598 0.0055835247
-0.02167592 0.04335184 0.0050314367
-0.020604968 0.043378878 0.0047789216
-0.019580549 0.043512333 0.0052224696
-0.018429818 0.043364275 0.0046930909
-0.017392101 0.043480247 0.0047387183
-0.016374864 0.043666299 0.0047629178
-0.015094422 0.043126918 0.0046722889
-0.014206618 0.043712672 0.0043808222
-0.01302894 0.043429799 0.0041421056
-0.11702354 0.043617867 0.011501223
-0.11425241 0.042975679 0.014262676
-0.11345854 0.043072224 0.014889181
-0.11304853 0.043317661 0.01519224
-0.1140878 0.044128302 0.015495241
-0.110443 0.043125365 0.015794039
-0.11129574 0.043876208 0.015784651
