ply
format ascii 1.0
comment PCL generated
element vertex 1286
property float x
property float y
property float z
element camera 0
property float view_px
property float view_py
property float view_pz
property float x_axisx
property float x_axisy
property float x_axisz
property float y_axisx
property float y_axisy
property float y_axisz
property float z_axisx
property float z_axisy
property float z_axisz
property float focal
property float scalex
property float scaley
property float centerx
property float centery
property int viewportx
property int viewporty
property float k1
property float k2
end_header
-0.049422018 0.064463496 0.0043950379
-0.048797809 0.065063745 0.0044914782
-0.046979766 0.064063318 0.0045977831
-0.04645269 0.064817712 0.0045850277
-0.045472223 0.064960316 0.0047799349
-0.043497976 0.06365557 0.004901886
-0.04338358 0.065075368 0.0049994588
-0.041932225 0.064511113 0.0046340823
-0.041112963 0.064915203 0.0046340823
-0.039900165 0.064702965 0.0045904219
-0.038646575 0.064410962 0.0045761466
-0.037694696 0.064619482 0.0042052567
-0.036604941 0.064596958 0.004362464
-0.035472088 0.064494707 0.0044410229
-0.034548234 0.064777941 0.0046031773
-0.033145107 0.064151816 0.0048216879
-0.031859953 0.063719906 0.0051285625
-0.031375594 0.064915024 0.0050931573
-0.030009212 0.064305454 0.0051040053
-0.028731111 0.063846909 0.0050253272
-0.027868595 0.064312145 0.0050737262
-0.026984455 0.064762689 0.0049798787
-0.025666237 0.064165592 0.0051771402
-0.02491881 0.065005586 0.0046768188
-0.023547225 0.064219706 0.0046298206
-0.022524105 0.064354584 0.0048610866
-0.021493958 0.064481877 0.0046298206
-0.020309534 0.064135365 0.0045788586
-0.019167962 0.063893206 0.0045788586
-0.018257614 0.064438641 0.0045788586
-0.017137166 0.064264372 0.0044102967
-0.016206812 0.064827248 0.0042029619
-0.015024764 0.064391844 0.00407359
-0.075298361 0.07290794 0.0040596724
-0.071419269 0.070267342 0.0047108829
-0.07275103 0.07275103 0.0040940642
-0.071126327 0.072311759 0.0043770969
-0.068759002 0.072315499 0.0040940642
-0.058552437 0.071433969 0.0040471554
-0.054413259 0.069150187 0.0045651793
-0.055551868 0.072099231 0.0047740936
-0.054200567 0.071874663 0.004856199
-0.0518803 0.070326626 0.005071193
-0.051927552 0.071990468 0.0055342615
-0.050157581 0.071153775 0.0050856471
-0.048137456 0.069913924 0.0054857731
-0.047863707 0.071211852 0.0052931607
-0.046438996 0.070819467 0.005220294
-0.044788077 0.070053145 0.0051365197
-0.044343129 0.071182385 0.0050743818
-0.04231758 0.069766819 0.005071491
-0.04169092 0.070642948 0.0048194826
-0.04079169 0.071094088 0.0047338605
-0.039493587 0.070856139 0.0048905313
-0.038010687 0.070262179 0.0052391589
-0.03687381 0.0702907 0.0055190325
-0.035365015 0.06958922 0.0067068338
-0.03491224 0.070988216 0.0065397322
-0.033044897 0.069508225 0.006038934
-0.031830125 0.0693442 0.0067093372
-0.031120684 0.070309691 0.0066959858
-0.029822748 0.069968753 0.0064838827
-0.028096581 0.068555653 0.0064533949
-0.027755136 0.070544302 0.006616205
-0.026188608 0.069456741 0.0062191188
-0.024958063 0.069201902 0.0060468614
-0.023994859 0.069699354 0.0059424639
-0.022560095 0.068808287 0.0052224696
-0.021432349 0.068809114 0.005450666
-0.020715266 0.07020174 0.005450666
-0.019280856 0.069184251 0.0054462552
-0.018294998 0.069749676 0.0051027238
-0.01691916 0.068804584 0.0052009821
-0.015686346 0.068347648 0.0047493279
-0.014735483 0.069143422 0.004530251
-0.013604468 0.069156043 0.0040912032
-0.1012169 0.069727197 0.0040334463
-0.099274956 0.069157839 0.0040075481
-0.097375892 0.068605743 0.0047415495
-0.099347487 0.070799366 0.004565537
-0.090687916 0.068568915 0.0044533908
-0.090414464 0.069206141 0.004501909
-0.087623812 0.067908458 0.0045573115
-0.088419102 0.069392212 0.0046559572
-0.086984828 0.06914179 0.0047522783
-0.08455056 0.068079673 0.0046559572
-0.084435292 0.068881422 0.0046186745
-0.082659341 0.068331718 0.0047158301
-0.080005266 0.067031436 0.0060583353
-0.082183391 0.069799587 0.0054346621
-0.079447865 0.068413444 0.0048218668
-0.079810292 0.069693498 0.0056512058
-0.079654224 0.070550889 0.0055110455
-0.075642794 0.06796889 0.0052237213
-0.076047674 0.069337584 0.0053441823
-0.076086551 0.070408449 0.0065746009
-0.073014088 0.068588994 0.0068517923
-0.07206732 0.068741135 0.0068885982
-0.072319023 0.070059054 0.0068887472
-0.068515263 0.067427725 0.0069991946
-0.069657452 0.069657452 0.0076504052
-0.067857616 0.068970039 0.006957829
-0.064870305 0.06703265 0.0068738759
-0.066858344 0.070257924 0.0065972209
-0.064516552 0.068965971 0.0067318678
-0.062572353 0.068061158 0.0066098273
-0.063216776 0.069990009 0.0065972209
-0.060735881 0.068465903 0.0065723062
-0.059096333 0.06785135 0.0067982674
-0.059290357 0.069358535 0.0063763261
-0.056720026 0.067627728 0.006593734
-0.055997096 0.068074904 0.0068806112
-0.055666294 0.069026202 0.0069364607
-0.053628303 0.067856222 0.0073907971
-0.053031702 0.068499289 0.0075347424
-0.051809516 0.068344466 0.0074391961
-0.049550917 0.066786021 0.007394135
-0.049810227 0.068627425 0.0074662566
-0.048800744 0.068764694 0.0075314939
-0.046524115 0.067081288 0.007394135
-0.046327304 0.068387926 0.0069761276
-0.04497261 0.068007357 0.0067360699
-0.043080539 0.066774838 0.0066660047
-0.043440443 0.069059171 0.0065494776
-0.041219387 0.067252688 0.0065093637
-0.040043868 0.067100532 0.0066515505
-0.039607607 0.068213105 0.0066991746
-0.037841219 0.067033015 0.0066274107
-0.036798351 0.067102872 0.0072384477
-0.036175165 0.06796547 0.0072135627
-0.034049802 0.065971486 0.0078841746
-0.03358246 0.06716492 0.0086521804
-0.03281704 0.067821883 0.0092071295
-0.030923575 0.066112474 0.0088363886
-0.030247854 0.066977389 0.0088363886
-0.028995506 0.066582277 0.0086425245
-0.027794765 0.066279829 0.0086168051
-0.027006533 0.066976197 0.0082873404
-0.025758345 0.066542394 0.0079889596
-0.024530873 0.066126697 0.0077493191
-0.023719022 0.066844523 0.0072259903
-0.022375949 0.066062324 0.0070235431
-0.02129744 0.066022068 0.0065160692
-0.020443106 0.066709086 0.0065201819
-0.019201387 0.066138111 0.0065923333
-0.01814886 0.06618996 0.0064294934
-0.017063729 0.066121951 0.0057323277
-0.015927402 0.065833271 0.0054520369
-0.014893868 0.06595856 0.0053716004
-0.013789664 0.065766096 0.0047148764
-0.012584616 0.065020517 0.004530251
-0.11259138 0.068204395 0.0052503943
-0.11156284 0.068237469 0.0051396489
-0.11156339 0.068906799 0.0049298406
-0.10886352 0.067904964 0.0049262941
-0.1096373 0.069071494 0.0049262941
-0.10923444 0.069512822 0.0047128797
-0.10586883 0.068058535 0.0049274862
-0.105927 0.068797953 0.0055435598
-0.10438699 0.068503968 0.0055435598
-0.10216447 0.067751177 0.0052911937
-0.10365927 0.069473773 0.0052904785
-0.10266665 0.069548376 0.0054566264
-0.098466799 0.06742835 0.0054566264
-0.10030398 0.069441214 0.0062707067
-0.099481441 0.069637008 0.0062049627
-0.096301571 0.068168528 0.0059148669
-0.097879119 0.070072554 0.0062785149
-0.094515815 0.068442494 0.0062785149
-0.092645593 0.067868285 0.0061708093
-0.093047068 0.068964295 0.0063515902
-0.090883143 0.068162359 0.0064838827
-0.089908749 0.068243988 0.0071025789
-0.090267435 0.069351807 0.0071552694
-0.08854901 0.068871453 0.0072829425
-0.087123677 0.068609901 0.0072186291
-0.086028092 0.068604685 0.0069758892
-0.082542479 0.066668928 0.0073022842
-0.084050149 0.0687683 0.0075454712
-0.082986966 0.068791829 0.0073906183
-0.080665529 0.067759044 0.0088294446
-0.081391983 0.069293179 0.011280805
-0.078803755 0.068008721 0.011161745
-0.076651663 0.067070208 0.0094029009
-0.076752141 0.068104014 0.010736853
-0.074136384 0.066722751 0.010539234
-0.073717855 0.067307606 0.010499954
-0.072998092 0.067630582 0.010711968
-0.071340255 0.067081138 0.01144588
-0.070224762 0.067032732 0.011485606
-0.070065178 0.06790933 0.011446029
-0.066542558 0.06550283 0.011485606
-0.067638613 0.067638613 0.012424737
-0.065999143 0.067063637 0.012972593
-0.06359598 0.065681092 0.012654841
-0.064284839 0.067499079 0.012510657
-0.062233645 0.066452876 0.013121337
-0.060961604 0.066216916 0.012368649
-0.060267709 0.066611685 0.012246609
-0.058822773 0.066175625 0.012272567
-0.058050893 0.066494659 0.012183845
-0.057146218 0.066670589 0.011629581
-0.056064788 0.066643052 0.011616975
-0.055117488 0.066776961 0.011569679
-0.054229688 0.066989616 0.011102796
-0.052444216 0.066079713 0.011168182
-0.051674321 0.066438414 0.011263847
-0.051004879 0.066943906 0.01139459
-0.049067933 0.065771908 0.011355072
-0.048692599 0.066687688 0.011258274
-0.047663286 0.066728599 0.01085338
-0.046071202 0.065965585 0.011182874
-0.045641191 0.066869654 0.01043728
-0.044384863 0.066577293 0.010121316
-0.042908963 0.06593328 0.0098664463
-0.042023689 0.066187315 0.0098255873
-0.040922083 0.066104904 0.0097233355
-0.040246692 0.066724777 0.0093379915
-0.039389543 0.067068681 0.0094001293
-0.037920889 0.066361561 0.009622097
-0.036913253 0.066443861 0.0094547868
-0.03601506 0.066733785 0.0098532736
-0.034836095 0.066505276 0.0096667707
-0.034096465 0.067127421 0.0098817348
-0.032959063 0.066981323 0.0097608268
-0.031494502 0.066138461 0.010210991
-0.030943209 0.067221455 0.009829998
-0.029921748 0.067323931 0.009680599
-0.028599925 0.066733159 0.0093431473
-0.027834225 0.067444474 0.0091769397
-0.026656603 0.067174643 0.0089122355
-0.025560958 0.067097522 0.0088717043
-0.024722103 0.067717068 0.0084550381
-0.023493003 0.06727542 0.0080438852
-0.022506393 0.06751918 0.0079376101
-0.02168519 0.068308353 0.0076461434
-0.020314153 0.067357458 0.007704258
-0.019164836 0.067076929 0.0074641407
-0.018234028 0.06757316 0.0073099732
-0.017076492 0.067238688 0.0068024993
-0.016174145 0.067931406 0.0062380135
-0.015071075 0.067819841 0.0055801272
-0.013776585 0.066763453 0.0052179992
-0.013022703 0.068369195 0.0046883523
-0.011905861 0.068188116 0.0042437315
-0.1077301 0.065044589 0.0051428676
-0.10692491 0.065173283 0.011636049
-0.10600623 0.065234601 0.024688721
-0.10722487 0.066625163 0.023954034
-0.10323867 0.06477721 0.02380833
-0.10166059 0.064418592 0.023753256
-0.10297435 0.065903582 0.023752183
-0.10160339 0.065683 0.023326904
-0.098724306 0.064473018 0.022691995
-0.10019139 0.066105664 0.022691995
-0.097610757 0.06507384 0.022480756
-0.098791249 0.066554107 0.022375941
-0.096487083 0.065693334 0.022218108
-0.094202466 0.064827502 0.022029877
-0.094400853 0.065670155 0.021802217
-0.094001666 0.066111058 0.021320969
-0.091330051 0.064945817 0.020911187
-0.091675945 0.065924279 0.020911187
-0.089325629 0.064964093 0.02072534
-0.08879602 0.065321207 0.020086378
-0.088442653 0.065817788 0.019444972
-0.086621404 0.065220818 0.019347608
-0.086169526 0.065652966 0.019528389
-0.085831493 0.066183321 0.018540114
-0.084828652 0.066207729 0.018650502
-0.083222024 0.065755673 0.019223958
-0.082616158 0.066092923 0.019223958
-0.081406765 0.06594979 0.018724144
-0.080888361 0.066369936 0.019038975
-0.080106348 0.066581905 0.01886487
-0.078485452 0.066093013 0.018638581
-0.079067931 0.067471303 0.018417954
-0.07765349 0.067159772 0.01720199
-0.075257465 0.065979145 0.016988724
-0.075333901 0.066963471 0.01732105
-0.073363177 0.066130191 0.016777098
-0.072696455 0.066465333 0.016366214
-0.072584331 0.067324601 0.01630646
-0.07045912 0.066314466 0.014385641
-0.069641784 0.066523492 0.014033824
-0.069045171 0.066952899 0.013759881
-0.066819862 0.065791868 0.013799608
-0.066981792 0.066981792 0.014002085
-0.06718576 0.068252198 0.01468128
-0.064162374 0.066232122 0.015620798
-0.064537987 0.067711994 0.015059531
-0.063313484 0.06753438 0.015111595
-0.061376933 0.066578366 0.01483494
-0.061249599 0.067585766 0.01483494
-0.059993349 0.067360952 0.014469296
-0.058516532 0.066876039 0.014486581
-0.05791726 0.067394629 0.014265686
-0.056592721 0.067072853 0.014209837
-0.055549853 0.067079075 0.013777435
-0.055462942 0.068262085 0.013378292
-0.053639304 0.067312069 0.012650996
-0.052522819 0.067229204 0.012698829
-0.051672183 0.067490198 0.012475342
-0.050290871 0.067054495 0.0126791
-0.049746327 0.06773968 0.012391001
-0.048657477 0.067697361 0.012431324
-0.047114566 0.067007378 0.012390465
-0.047043864 0.068427436 0.012335956
-0.045657191 0.06795489 0.012044847
-0.044292405 0.067493185 0.011391282
-0.044172131 0.068951614 0.010606974
-0.042355109 0.067768179 0.010604084
-0.041062992 0.067385428 0.010422617
-0.040561561 0.068314202 0.010266811
-0.039505318 0.068333521 0.010284305
-0.037878256 0.06733913 0.010228038
-0.037375666 0.068344079 0.010137022
-0.036082815 0.067920595 0.010561198
-0.034824681 0.067538776 0.01042518
-0.034037255 0.06807451 0.010398269
-0.032743528 0.067599542 0.010374159
-0.031837247 0.067919463 0.010782629
-0.030934775 0.068269849 0.010483891
-0.029264387 0.066890031 0.0099186003
-0.02888412 0.06846606 0.0097636282
-0.027796937 0.068423234 0.0096039772
-0.026437495 0.067679986 0.00945279
-0.025688138 0.068501703 0.0093358159
-0.024593662 0.068434536 0.0089236796
-0.023442937 0.068197638 0.0085927546
-0.022430781 0.068360478 0.0085443854
-0.021409811 0.068511404 0.008190006
-0.020117758 0.067765079 0.0080690682
-0.019735599 0.070171021 0.007940948
-0.018240277 0.068669274 0.0077858865
-0.017274929 0.069099717 0.0075262487
-0.016234681 0.069267966 0.0073230863
-0.014823472 0.067764446 0.0064983368
-0.014170244 0.069761202 0.0055313706
-0.01288695 0.068730399 0.0051527023
-0.011738389 0.068296082 0.0047647357
-0.11097547 0.067414999 0.0052802265
-0.10825215 0.06638103 0.024042279
-0.10560087 0.065371968 0.025616854
-0.10759201 0.067245007 0.027242512
-0.10534081 0.066477209 0.02607885
-0.10417093 0.066383436 0.025680602
-0.10438932 0.067181244 0.025625527
-0.10194869 0.066266648 0.025269538
-0.10102163 0.066327326 0.025103986
-0.10180067 0.067520857 0.0247823
-0.099035673 0.06636411 0.024415255
-0.098940656 0.066991068 0.024512976
-0.097034328 0.066391908 0.023966879
-0.095007189 0.065696456 0.023835778
-0.096289508 0.067299113 0.023142993
-0.095429339 0.067422897 0.023102224
-0.092924461 0.066374607 0.022834569
-0.093379296 0.067440599 0.022459656
-0.092510074 0.067563541 0.022258103
-0.090394564 0.066768713 0.02183497
-0.090293422 0.067460604 0.02183497
-0.088622063 0.066981792 0.021658331
-0.087550126 0.066950098 0.021805227
-0.087344967 0.067588367 0.021751523
-0.084928028 0.066509895 0.02165243
-0.084733754 0.067166999 0.021295279
-0.084572151 0.067866541 0.021105886
-0.082178675 0.066770174 0.021163732
-0.08238399 0.067784294 0.020906478
-0.080461271 0.06705106 0.020352036
-0.078883119 0.066589646 0.019904494
-0.079629064 0.068103798 0.019778013
-0.078101359 0.067687839 0.019833416
-0.076037928 0.066790074 0.019556046
-0.076288208 0.067927852 0.019364923
-0.075275354 0.067956917 0.019314945
-0.074400112 0.068112783 0.018756777
-0.074271232 0.068966143 0.018012732
-0.072364219 0.068169191 0.017694503
-0.070666298 0.06754867 0.017148525
-0.070530206 0.068424821 0.016773999
-0.068807036 0.067764506 0.016661406
-0.067829482 0.067829482 0.016518474
-0.066902854 0.067948207 0.016336471
-0.065620087 0.067703262 0.016383588
-0.065174244 0.068327829 0.016832173
-0.064044863 0.068244524 0.016246796
-0.062496111 0.067704119 0.016632438
-0.062477782 0.068831451 0.015925676
-0.060963407 0.068321057 0.015872747
-0.05957957 0.067941613 0.015447408
-0.059345346 0.068882987 0.015199602
-0.057655469 0.068138279 0.015270412
-0.056680415 0.068226419 0.014998615
-0.055987023 0.068663329 0.014775366
-0.05447609 0.06809511 0.01443246
-0.053856105 0.068640135 0.013744652
-0.053273052 0.069254965 0.013758987
-0.051740009 0.068634711 0.013489008
-0.051172215 0.069295712 0.013333082
-0.049909685 0.069024034 0.013284206
-0.047959141 0.06776835 0.013228834
-0.048385669 0.069890402 0.012968719
-0.046733368 0.069037929 0.013070107
-0.044754151 0.067651622 0.012887537
-0.045114987 0.069820806 0.012608141
-0.043467522 0.068911918 0.012288988
-0.042295508 0.068730205 0.011945039
-0.041481592 0.069135986 0.011824816
-0.040124502 0.068634018 0.011769325
-0.039332472 0.069097579 0.011422783
-0.038705193 0.069884375 0.011546165
-0.03726875 0.069213398 0.011349112
-0.036148265 0.069106981 0.011358142
-0.035161477 0.069257461 0.011136711
-0.033747487 0.068549581 0.011007875
-0.033283256 0.069787472 0.010915875
-0.031949054 0.069222949 0.01096943
-0.030715512 0.068845108 0.010902703
-0.029866586 0.069333144 0.010734975
-0.028914981 0.069610134 0.010589391
-0.027342558 0.068356395 0.010200024
-0.026927248 0.070010841 0.0098358095
-0.025464678 0.068966836 0.0096746385
-0.024148686 0.068246283 0.0094324052
-0.023564646 0.069622822 0.008995235
-0.022483842 0.069592841 0.009133637
-0.021493994 0.069855481 0.0088421404
-0.020511957 0.070172481 0.008896023
-0.01900165 0.068617068 0.0083384216
-0.018246414 0.069765702 0.008102268
-0.017267192 0.070147969 0.0077374578
-0.015964877 0.069181129 0.0076108873
-0.015171339 0.070438363 0.0072647035
-0.013933988 0.06966994 0.0057807267
-0.012894164 0.069843389 0.0052804947
-0.011881363 0.070208058 0.0048428476
-0.010808547 0.070255563 0.0041250587
-0.11092302 0.067786291 0.0052802265
-0.10883033 0.067128979 0.023655653
-0.10699014 0.066616505 0.025966883
-0.10666218 0.067044802 0.027245849
-0.10629117 0.06745401 0.027600586
-0.10537944 0.067524686 0.027421683
-0.10543517 0.068222754 0.027289063
-0.10311195 0.067380086 0.027160615
-0.10146646 0.06696786 0.026905984
-0.10172423 0.067816153 0.026282668
-0.10022075 0.067495607 0.025867105
-0.099338867 0.067591392 0.025868207
-0.098976381 0.068046257 0.025181234
-0.096524678 0.067059249 0.025168061
-0.096541338 0.067784339 0.024832606
-0.095576815 0.067828707 0.02452755
-0.093433812 0.067028597 0.024266303
-0.094790891 0.068749428 0.024258733
-0.093423121 0.068510287 0.023945659
-0.090796106 0.06733194 0.023255259
-0.09198989 0.068992421 0.02296415
-0.08892332 0.067459069 0.022926509
-0.088704668 0.068075672 0.022616178
-0.088547729 0.068754703 0.022715271
-0.087306634 0.068598069 0.022878259
-0.085169494 0.067725137 0.022567719
-0.084657788 0.068139188 0.022625536
-0.083569661 0.068093799 0.02236113
-0.082723215 0.068246655 0.022517085
-0.082329035 0.068781219 0.022113562
-0.079835899 0.067553453 0.021727294
-0.080969043 0.069402039 0.021486074
-0.07966131 0.069179557 0.021016091
-0.077396847 0.068109222 0.020954996
-0.077497676 0.069119543 0.020439416
-0.076427333 0.069098674 0.020166129
-0.074244007 0.068057008 0.019812405
-0.07481312 0.069544591 0.018991679
-0.072781697 0.068622746 0.018951952
-0.071861476 0.06873706 0.018643945
-0.072151899 0.07002978 0.018577099
-0.069846645 0.068804152 0.018347144
-0.06919574 0.06919574 0.017966002
-0.068471111 0.069524512 0.017528415
-0.066317752 0.068390183 0.017416328
-0.0663848 0.069545977 0.01702106
-0.065701932 0.069940761 0.017416745
-0.063794903 0.069023989 0.016975969
-0.063625112 0.069987625 0.017230093
-0.062270746 0.069658801 0.016741961
-0.06054581 0.068896949 0.016741455
-0.060255826 0.069769904 0.016464353
-0.058768123 0.06926243 0.015994996
-0.057780452 0.069336541 0.015957594
-0.057109058 0.06979996 0.015859187
-0.055942945 0.069664799 0.015398443
-0.054454729 0.069115616 0.014931083
-0.054002408 0.069885463 0.014627635
-0.052263942 0.068988398 0.014633596
-0.052287452 0.070427999 0.01446709
-0.050773557 0.069813639 0.01420936
-0.049339529 0.069285296 0.013936877
-0.049147431 0.070515871 0.014019966
-0.047510952 0.069682725 0.013777792
-0.046135984 0.06920398 0.013702035
-0.0456369 0.070047334 0.013258874
-0.044765431 0.070345677 0.013044178
-0.043018445 0.069249198 0.012887537
-0.042805683 0.070629373 0.012531698
-0.041427843 0.070108652 0.012411475
-0.039821848 0.069164261 0.012337804
-0.039543036 0.070536226 0.011874169
-0.037928339 0.069535293 0.011869639
-0.037123933 0.070005134 0.011770874
-0.036808658 0.071452096 0.011589259
-0.03525243 0.070504859 0.011474282
-0.034281097 0.070704758 0.011561364
-0.032916747 0.070080809 0.011543304
-0.031576402 0.069468081 0.011501312
-0.030877355 0.070272602 0.011100531
-0.029836249 0.070328295 0.01087442
-0.028626351 0.069975525 0.010813773
-0.027809376 0.070593029 0.01063329
-0.026701882 0.070492968 0.010375381
-0.02533637 0.069675013 0.010174304
-0.024767675 0.071072452 0.0095411539
-0.023359681 0.070079044 0.0091198683
-0.022279339 0.070020773 0.009116143
-0.021465018 0.070834562 0.0090430677
-0.020396465 0.070850879 0.0089426339
-0.019170431 0.070291586 0.0087985098
-0.01846805 0.071699485 0.008089304
-0.016997736 0.070115656 0.0078455806
-0.016220048 0.07136821 0.0076920688
-0.015081122 0.071096711 0.0071308017
-0.013750211 0.069808766 0.005781889
-0.012971295 0.071342118 0.0053060353
-0.011858108 0.071148649 0.0046896935
-0.010648469 0.070279896 0.0040970445
-0.11205419 0.068877347 0.0045270622
-0.11014682 0.068331823 0.023672432
-0.10842209 0.067890473 0.026280671
-0.10933027 0.069104992 0.02730763
-0.10880407 0.069427364 0.02779296
-0.10603274 0.06830956 0.028677016
-0.106306 0.069150507 0.028296798
-0.1032416 0.067815557 0.028478026
-0.10382712 0.068875417 0.027847916
-0.1041604 0.069787465 0.02756089
-0.10084098 0.068245918 0.0269503
-0.099242963 0.067849785 0.026815832
-0.10040151 0.069349498 0.02675727
-0.09750589 0.068050988 0.026470155
-0.098050736 0.069151573 0.025956273
-0.097010933 0.069146097 0.025811613
-0.095044024 0.068472579 0.024854183
-0.095383458 0.069464035 0.024823785
-0.094268478 0.069406465 0.024700075
-0.091447927 0.0680779 0.024522096
-0.091550484 0.068920031 0.024220169
-0.091173425 0.069416136 0.023902893
-0.088592246 0.068226211 0.023838878
-0.090476535 0.070487536 0.023250222
-0.087567851 0.069024071 0.023881644
-0.085877843 0.068497799 0.023568332
-0.086803958 0.070070669 0.023047805
-0.084368728 0.068935417 0.023201466
-0.083623149 0.069169775 0.023047626
-0.082700461 0.06926164 0.022828132
-0.080953941 0.068657145 0.022593826
-0.082296796 0.07069084 0.022575408
-0.080209546 0.069792725 0.022401035
-0.078628413 0.069317155 0.021779984
-0.078559645 0.070179947 0.021661788
-0.077003285 0.069719188 0.021534383
-0.075602397 0.069388501 0.021393418
-0.076205842 0.070913777 0.020977199
-0.073601931 0.069455348 0.020203203
-0.072943941 0.069817774 0.019890904
-0.073326349 0.071200952 0.019488156
-0.070889398 0.069846906 0.019471645
-0.069922514 0.069922514 0.019219905
-0.069372199 0.070423298 0.018528998
-0.067587264 0.069666877 0.018508434
-0.067884535 0.071066625 0.018182516
-0.065684706 0.069855161 0.017946064
-0.064426512 0.069622204 0.018170595
-0.064745501 0.071113914 0.01785773
-0.063292965 0.070677146 0.017825991
-0.061814211 0.070195802 0.017287701
-0.061257273 0.070762709 0.017120242
-0.059980739 0.070503674 0.016803414
-0.058344472 0.069804996 0.016658157
-0.058809616 0.071640804 0.01682508
-0.056793436 0.07046593 0.016441017
-0.055731077 0.070452496 0.015944272
-0.055357397 0.071325876 0.015606582
-0.053585313 0.070396394 0.015322417
-0.052851923 0.070821576 0.015158653
-0.05230172 0.071514599 0.014943987
-0.050139856 0.069986887 0.0147852
-0.049861725 0.071079478 0.014600962
-0.048583563 0.070763014 0.014726818
-0.047244523 0.070341848 0.01451838
-0.047040895 0.071630456 0.014478385
-0.045806374 0.071372725 0.01413855
-0.043943565 0.070100449 0.013691723
-0.043943234 0.071809679 0.013491482
-0.04244142 0.071089379 0.012927562
-0.040825259 0.070135705 0.012812465
-0.040704615 0.071768671 0.012683332
-0.03871173 0.070099615 0.012646019
-0.038445774 0.071551859 0.012609571
-0.037274703 0.071354434 0.012320608
-0.036323201 0.071578078 0.01228416
-0.034925744 0.070909843 0.012261689
-0.034146458 0.071494147 0.012200654
-0.032459248 0.070153855 0.012131721
-0.032112464 0.071717843 0.011950076
-0.030769261 0.071087599 0.011871099
-0.029772166 0.071240544 0.011384279
-0.028870808 0.071642376 0.011334091
-0.027877755 0.071838833 0.011087716
-0.026629601 0.071367331 0.010665476
-0.025667626 0.07165546 0.010540724
-0.024391739 0.071054198 0.010182261
-0.023411034 0.071297243 0.0097330809
-0.022391429 0.071439318 0.0097038448
-0.021337431 0.071480401 0.0096149743
-0.020371117 0.071834989 0.0094986558
-0.019338967 0.071983941 0.0090271533
-0.01799788 0.07093282 0.0088605285
-0.01733892 0.072606735 0.0082430542
-0.016090902 0.071872689 0.0079957247
-0.01484532 0.071045466 0.0075119138
-0.014043929 0.072380252 0.0068401694
-0.012975432 0.07244616 0.0057323277
-0.01189167 0.07243108 0.005169034
-0.010826929 0.072540432 0.0045614839
-0.11146712 0.069539122 0.011636049
-0.10847346 0.068298109 0.024718553
-0.10996649 0.069885246 0.027296126
-0.10800597 0.069286853 0.02833581
-0.10635468 0.068877317 0.029263616
-0.10775424 0.070454694 0.029168665
-0.10447065 0.068970911 0.029058516
-0.10412349 0.069415659 0.028673977
-0.10427602 0.070205636 0.028382152
-0.10131853 0.068896599 0.028119683
-0.10057648 0.069082826 0.02773419
-0.10119729 0.070218533 0.02758193
-0.099279366 0.069597907 0.027228177
-0.098405868 0.06970416 0.027365029
-0.098201677 0.070291728 0.027137786
-0.095965795 0.069422066 0.026986033
-0.096674457 0.070686698 0.026252508
-0.095524229 0.070604868 0.025920331
-0.093190819 0.06963709 0.025755465
-0.092764325 0.070088603 0.025404334
-0.092068598 0.070344545 0.024981558
-0.090320893 0.069793418 0.024509937
-0.091211468 0.071291722 0.024257034
-0.088418081 0.069911972 0.02422753
-0.086713277 0.06937062 0.024342626
-0.086565994 0.070077233 0.024488151
-0.085997462 0.070455752 0.024063826
-0.084432118 0.070016876 0.024215281
-0.085084721 0.071429156 0.02373153
-0.082181841 0.069854565 0.023428053
-0.081546582 0.070191994 0.02333793
-0.080238253 0.069951303 0.02353406
-0.079222813 0.069963008 0.022824943
-0.079212464 0.070874304 0.022716373
-0.077726044 0.070471615 0.022498965
-0.076605126 0.070393898 0.021962017
-0.076120868 0.070907101 0.021169603
-0.075059019 0.070889078 0.020921528
-0.073757634 0.070641115 0.020402014
-0.073035143 0.070948429 0.020081878
-0.071636945 0.070598729 0.019597948
-0.071276367 0.071276367 0.019566834
-0.070351578 0.071401596 0.019554198
-0.068576947 0.07065504 0.019208103
-0.067976929 0.071114324 0.019270211
-0.06744694 0.071662374 0.018933535
-0.065403923 0.070594706 0.018758684
-0.064817011 0.071089625 0.018327296
-0.064799316 0.072235301 0.018361926
-0.061504979 0.069705643 0.018442988
-0.062073678 0.071542539 0.017842829
-0.061318945 0.071891174 0.017577112
-0.05948158 0.070960484 0.017483592
-0.058817871 0.071421698 0.017247349
-0.057262473 0.070797242 0.017146885
-0.056751244 0.071464524 0.016944617
-0.056469966 0.072452039 0.016306967
-0.055347465 0.072377451 0.01616028
-0.053393334 0.071191117 0.015599877
-0.052615788 0.07155747 0.015576214
-0.051698644 0.07174506 0.015490502
-0.051125355 0.072427586 0.015082926
-0.050158687 0.072570011 0.014999181
-0.047734119 0.07056348 0.015082926
-0.047881398 0.072354116 0.014785767
-0.046603732 0.072023951 0.014749378
-0.04508863 0.07130295 0.014294267
-0.044618867 0.07224007 0.013930798
-0.043187298 0.071627714 0.013864309
-0.042326078 0.071954332 0.013220459
-0.041613776 0.072557352 0.012995034
-0.040219557 0.071971834 0.012807339
-0.039477877 0.072553933 0.012838066
-0.038285706 0.072317444 0.012772352
-0.037125371 0.072129294 0.012533516
-0.035929583 0.071859166 0.012664199
-0.035287183 0.072712988 0.012486845
-0.033898585 0.072034486 0.012464106
-0.03296442 0.072309047 0.012514889
-0.032216266 0.073023535 0.01241678
-0.030589776 0.071727753 0.012251228
-0.030028684 0.072926804 0.011680514
-0.028688975 0.072253712 0.011536062
-0.027548181 0.072049089 0.011162251
-0.02686622 0.073076114 0.01067248
-0.02553184 0.072340213 0.010482758
-0.024297567 0.071836285 0.01026693
-0.02359294 0.072923638 0.0098706186
-0.022043146 0.071377806 0.0096818209
-0.021439176 0.072893202 0.0094997883
-0.020263521 0.072522074 0.0091581941
-0.019147284 0.072334193 0.0086809993
-0.018351957 0.073407829 0.0086552203
-0.017298184 0.073517285 0.0080483854
-0.015911302 0.072131239 0.0080005527
-0.015030165 0.073003665 0.0074854195
-0.014035832 0.0734182 0.0064818263
-0.012744429 0.072218433 0.0056753159
-0.011951575 0.073882468 0.0052179992
-0.010766003 0.073208824 0.0045028925
-0.11004493 0.069661468 0.023744226
-0.11074546 0.070754044 0.0269292
-0.10934555 0.070512548 0.028024286
-0.10646639 0.069303595 0.029091239
-0.10688129 0.070236281 0.029209435
-0.10686468 0.070900604 0.029354453
-0.10493375 0.070295423 0.029039741
-0.10489117 0.070955791 0.028658509
-0.10263329 0.070115812 0.028466016
-0.10336168 0.071319558 0.028435707
-0.10169864 0.070880868 0.028382152
-0.10048208 0.070747592 0.028356552
-0.099143937 0.070525073 0.028145522
-0.099540345 0.071544625 0.027800262
-0.09626206 0.069916658 0.02772516
-0.097540192 0.071598649 0.027646154
-0.095187344 0.070622869 0.027331263
-0.093836695 0.070377521 0.0267528
-0.094834633 0.071907572 0.026185393
-0.093640946 0.071791388 0.026002944
-0.091070905 0.070605531 0.025642693
-0.091861174 0.072027512 0.025182813
-0.089626402 0.071083009 0.024652332
-0.087983511 0.07059142 0.024447083
-0.088353418 0.071722187 0.024536341
-0.087198734 0.071627527 0.024353057
-0.085195996 0.070825584 0.024276137
-0.086359225 0.07266812 0.02429986
-0.083561517 0.071182035 0.024192452
-0.083827965 0.072301619 0.023990363
-0.082473777 0.072034061 0.023474663
-0.07995294 0.070727602 0.023791671
-0.080627456 0.072250582 0.023401946
-0.079068422 0.0717858 0.023248225
-0.077459924 0.071263127 0.022760898
-0.077702895 0.072452694 0.022357136
-0.07540378 0.07127206 0.02178818
-0.075067088 0.071939297 0.021209329
-0.074559957 0.072459683 0.02085495
-0.072790116 0.071750261 0.020698935
-0.07190638 0.07190638 0.01999113
-0.071082309 0.072127633 0.019981652
-0.070239685 0.072336391 0.019816428
-0.069523856 0.072684035 0.019616097
-0.06909477 0.073346756 0.019489467
-0.067279018 0.072535194 0.019270211
-0.066821307 0.073185235 0.019055396
-0.06555669 0.072958246 0.018787205
-0.064000905 0.072394468 0.01853922
-0.06303139 0.072486095 0.018428117
-0.062185224 0.072725087 0.018090069
-0.060683291 0.072192192 0.017874241
-0.060583379 0.073337778 0.017577112
-0.058787197 0.072434224 0.017316878
-0.057979219 0.072737567 0.017104805
-0.057564326 0.073554412 0.017131507
-0.055638462 0.072434977 0.016885877
-0.055479776 0.073617399 0.016276598
-0.053678576 0.072623961 0.015941501
-0.053047482 0.073205523 0.015624106
-0.051344223 0.072301053 0.01551339
-0.050855193 0.073104337 0.01503095
-0.049607888 0.072828598 0.014999181
-0.048887264 0.073330894 0.014807642
-0.047719292 0.073169582 0.014386684
-0.045948483 0.072055578 0.014282346
-0.045501746 0.073014431 0.013994902
-0.044949442 0.073845506 0.013668865
-0.043032259 0.072420135 0.013688475
-0.04245694 0.073238224 0.013068229
-0.041293383 0.073057525 0.012875289
-0.040082484 0.072781347 0.012773931
-0.039700717 0.074036472 0.012830615
-0.037953168 0.072743572 0.012776136
-0.037179194 0.073296122 0.012717783
-0.036069471 0.073199809 0.012680799
-0.035237033 0.073677436 0.012807727
-0.034177858 0.073696002 0.012575537
-0.033190388 0.073875375 0.012586176
-0.031494636 0.072437659 0.012459725
-0.030940389 0.073616788 0.012386113
-0.030108573 0.074196123 0.011948586
-0.028421326 0.072632276 0.011819363
-0.027627202 0.07331834 0.011196554
-0.026798114 0.073962793 0.010758221
-0.025613394 0.073638506 0.010486931
-0.02468488 0.074054636 0.010160059
-0.023480197 0.07364244 0.0097208023
-0.022357866 0.073461562 0.0094911754
-0.021385871 0.073781259 0.0092405081
-0.020329241 0.073827244 0.0088874996
-0.019252794 0.073802382 0.0084520876
-0.018116744 0.073532663 0.0082051754
-0.016969178 0.07317958 0.0078317523
-0.016186617 0.074458443 0.0077017248
-0.01506764 0.074261941 0.0072525144
-0.01382935 0.073401935 0.0061486959
-0.012875353 0.074033283 0.0053052604
-0.011915554 0.074743025 0.0050114393
-0.010603545 0.073164463 0.004370302
-0.11206929 0.071971096 0.02380833
-0.10936032 0.070881687 0.027206093
-0.10937703 0.071555056 0.028214931
-0.10842646 0.071602382 0.029102713
-0.10771219 0.071808122 0.029297531
-0.10601154 0.07135392 0.029051214
-0.10613348 0.072129548 0.028841257
-0.10472479 0.071869954 0.028362691
-0.10309295 0.071450554 0.028221875
-0.103029 0.072120294 0.028192103
-0.10142132 0.071712039 0.028109014
-0.10116301 0.072259299 0.028122395
-0.099172398 0.071567714 0.027936816
-0.098647684 0.071930602 0.027813613
-0.098195948 0.072354913 0.027722985
-0.095730022 0.07128831 0.027459174
-0.094789855 0.071347199 0.027174354
-0.095157146 0.072402172 0.026701093
-0.094124548 0.072403498 0.02608338
-0.091143973 0.070889749 0.025940657
-0.092621654 0.072848491 0.025508165
-0.089757942 0.071398363 0.025140047
-0.089927495 0.072355457 0.024448395
-0.090146214 0.073374823 0.024300903
-0.087528199 0.07208205 0.024300903
-0.087237597 0.07269799 0.02422753
-0.087144524 0.073495381 0.024100482
-0.085098006 0.072644636 0.024068654
-0.084004745 0.072596699 0.023549616
-0.083077349 0.072692677 0.023409784
-0.081769578 0.072454058 0.023140788
-0.081052221 0.072739176 0.023416936
-0.080412902 0.073102638 0.022754908
-0.077640802 0.071511261 0.022789955
-0.078575656 0.073337279 0.022670209
-0.077172711 0.073001213 0.021866798
-0.075627588 0.0725196 0.021349162
-0.075726233 0.073622733 0.020928651
-0.073701911 0.072663859 0.020810425
-0.072689876 0.072689876 0.020511359
-0.07294739 0.074004598 0.02019304
-0.07087189 0.072956361 0.020168304
-0.069686748 0.072807051 0.019875914
-0.069182277 0.073375143 0.019675583
-0.067555211 0.072751768 0.019596308
-0.067915849 0.074282952 0.019399345
-0.065926291 0.073251434 0.019011348
-0.064171307 0.072451472 0.018811494
-0.06473539 0.074286513 0.018770814
-0.063229993 0.073768325 0.018818825
-0.061808862 0.073332548 0.018431008
-0.061482452 0.074202955 0.018049985
-0.059958242 0.073632926 0.01779747
-0.058466338 0.073082916 0.017496228
-0.05831204 0.074215323 0.017104805
-0.056842804 0.07368511 0.01695019
-0.055362877 0.07312078 0.016804606
-0.05536383 0.074528232 0.016141504
-0.053583357 0.073545784 0.015725493
-0.052655853 0.07371819 0.015416831
-0.052640662 0.075200945 0.015246868
-0.050249983 0.073281221 0.014836371
-0.049920954 0.074350357 0.014564723
-0.048765339 0.074208125 0.014541268
-0.047116473 0.073292293 0.014013559
-0.046972409 0.074728832 0.013994902
-0.045516171 0.074096091 0.013671786
-0.043824114 0.073040187 0.013493747
-0.043631729 0.074493192 0.013428152
-0.042259894 0.073954821 0.01303637
-0.040842436 0.073306933 0.012931556
-0.040322524 0.074278332 0.012780726
-0.039206076 0.074173652 0.012683332
-0.037980366 0.073850714 0.012652129
-0.037239037 0.074478075 0.012533516
-0.036093038 0.074309193 0.012744844
-0.035010889 0.074265517 0.012807727
-0.034063902 0.074514784 0.012526929
-0.032779176 0.074017487 0.012586176
-0.03189294 0.074416861 0.01241678
-0.030930886 0.074660756 0.012332261
-0.029495297 0.07373824 0.011741161
-0.028812312 0.074698582 0.0115408
-0.027791705 0.074823819 0.01110369
-0.026674455 0.074688472 0.010858983
-0.025652997 0.074821241 0.01035744
-0.024379352 0.074198022 0.0099692345
-0.023308037 0.074161939 0.0098400414
-0.022566384 0.075221278 0.0094335377
-0.021308489 0.074579708 0.0090912282
-0.020325249 0.0748825 0.0088536441
-0.019327858 0.075163901 0.0084594488
-0.018272348 0.07523907 0.0080924034
-0.01700813 0.074410565 0.008166045
-0.016023146 0.074774675 0.0077558756
-0.014947005 0.074735023 0.007214427
-0.013995218 0.075358868 0.0062625706
-0.013021944 0.075961336 0.0052536428
-0.011865624 0.07550852 0.004982084
-0.010815838 0.07571087 0.0043071508
-0.11201197 0.072961919 0.024064779
-0.10865871 0.071433038 0.027414471
-0.10865619 0.072098963 0.028310061
-0.10993485 0.073635608 0.029057443
-0.10639345 0.07194224 0.029139638
-0.10808006 0.073785424 0.028784811
-0.10499394 0.072374463 0.028765291
-0.10351858 0.072057046 0.028362691
-0.1034987 0.072756507 0.028248072
-0.10235788 0.072674088 0.028149784
-0.10162294 0.072881095 0.027974606
-0.10060169 0.072884895 0.028122395
-0.099058673 0.072506867 0.028193533
-0.10020074 0.074106798 0.027850598
-0.097589694 0.072935455 0.027758867
-0.095955111 0.07247673 0.027601689
-0.095818132 0.073151477 0.027365863
-0.094698288 0.073082373 0.027129024
-0.092881389 0.072467893 0.026340336
-0.09330143 0.073604457 0.025994331
-0.091983639 0.07338021 0.025689155
-0.090929575 0.073363632 0.025356859
-0.090437256 0.073805116 0.02480796
-0.088164613 0.072787061 0.024331123
-0.087602265 0.073173657 0.024235785
-0.087142587 0.073656231 0.024207503
-0.085590407 0.073215887 0.02406013
-0.084088281 0.072808139 0.024048626
-0.084180072 0.073787473 0.023171574
-0.08248239 0.073203117 0.023260683
-0.08309073 0.074676484 0.023026198
-0.080853269 0.0735972 0.023331374
-0.079162478 0.072993971 0.02311784
-0.078537151 0.073370226 0.022871405
-0.078755736 0.074555427 0.022511899
-0.07632345 0.073229253 0.022272825
-0.076251954 0.074162856 0.02115038
-0.075299017 0.074253201 0.020915091
-0.073616773 0.073616773 0.020804644
-0.073603995 0.074655481 0.020407975
-0.071405984 0.073475726 0.01999861
-0.070729695 0.073850125 0.019896865
-0.070491232 0.074699655 0.019582808
-0.068566799 0.073761247 0.019489467
-0.06720338 0.073406763 0.019142538
-0.066976599 0.074302167 0.019261032
-0.06525965 0.073546588 0.018979162
-0.065458164 0.07496015 0.019069433
-0.064574338 0.075160295 0.01866588
-0.062237825 0.073648088 0.018716753
-0.062144056 0.074783519 0.018311769
-0.06114646 0.074851692 0.018049985
-0.059834842 0.074531116 0.017706752
-0.059434336 0.075354248 0.017417341
-0.057394262 0.074090771 0.017104805
-0.056838218 0.07473173 0.017131507
-0.056267254 0.075376891 0.016885877
-0.05507734 0.07520175 0.016519755
-0.053569939 0.074577756 0.016081244
-0.053089533 0.075387135 0.015465885
-0.051485278 0.074601121 0.015244514
-0.051156055 0.075668328 0.014830679
-0.050023239 0.075567022 0.014641047
-0.048168492 0.074347012 0.014663786
-0.047826976 0.075460337 0.01442036
-0.047228333 0.076209351 0.014242828
-0.045430187 0.075012632 0.014092088
-0.044974405 0.076028153 0.013608783
-0.043383058 0.075126752 0.013619512
-0.042481005 0.075403787 0.013156593
-0.04159895 0.075731419 0.012940586
-0.039876133 0.074505404 0.012848198
-0.039023548 0.074883021 0.012773931
-0.038222615 0.075383492 0.012683332
-0.036777318 0.074605413 0.012683332
-0.035723783 0.074599661 0.012955546
-0.03541467 0.076195195 0.012735128
-0.033846423 0.075096749 0.012636632
-0.033032481 0.075655028 0.012636632
-0.032279946 0.076395869 0.01230073
-0.030450577 0.074551404 0.011997074
-0.030014385 0.076107897 0.011560351
-0.028724035 0.075533569 0.011273682
-0.02749325 0.075077713 0.010918468
-0.026621155 0.075604074 0.010429025
-0.025423441 0.075211011 0.010109246
-0.024196638 0.074693963 0.0096863806
-0.023433952 0.075627752 0.0092028081
-0.022153854 0.074901126 0.0091504455
-0.021318596 0.075681016 0.0088635385
-0.020395208 0.076213665 0.008669883
-0.019124208 0.075434372 0.0085121393
-0.018187054 0.075957693 0.0080812871
-0.017117975 0.075961009 0.0079303682
-0.015956013 0.075525127 0.0077312589
-0.015227074 0.077223018 0.007214427
-0.013933859 0.076100305 0.0064560771
-0.012825551 0.075884506 0.0056699514
-0.011783319 0.076055966 0.0051598549
-0.010724192 0.076141767 0.0042511523
-0.11166979 0.073763527 0.023767471
-0.1112268 0.074151196 0.026995748
-0.10912761 0.073431656 0.028090835
-0.10656642 0.072384737 0.028982937
-0.10876621 0.074582539 0.028920829
-0.10622224 0.073538475 0.028971791
-0.10473552 0.073213175 0.029124379
-0.10424229 0.073582783 0.0285725
-0.10241534 0.073008947 0.028295308
-0.10151775 0.073092774 0.027983427
-0.10196816 0.074158661 0.028069437
-0.099925913 0.073414959 0.028381109
-0.09891618 0.07342232 0.028055251
-0.098825246 0.074118935 0.027783632
-0.096528172 0.07315819 0.027739078
-0.097822778 0.074928083 0.02756089
-0.095381558 0.073843777 0.027276069
-0.093038462 0.072812706 0.026717186
-0.095118612 0.07525868 0.026290029
-0.092445575 0.073956452 0.026002049
-0.091022171 0.073635913 0.02589044
-0.091712631 0.075037606 0.025356859
-0.089889288 0.074391134 0.025078088
-0.089173257 0.07465668 0.024401009
-0.088130131 0.074651405 0.024305671
-0.086158581 0.073850207 0.024207503
-0.086281985 0.07484702 0.024172217
-0.085278526 0.0748787 0.024105519
-0.083773173 0.074465044 0.023593932
-0.083903566 0.075513206 0.023614615
-0.082143925 0.074865349 0.023232341
-0.07992769 0.073779404 0.023459613
-0.07992845 0.074738286 0.023286164
-0.079033308 0.074873656 0.023175508
-0.077704757 0.074596561 0.022709489
-0.077230804 0.075143479 0.021945864
-0.075754307 0.074716568 0.02169463
-0.074884504 0.074884504 0.02093935
-0.074391715 0.075439483 0.020702124
-0.073109388 0.075198233 0.020328879
-0.071727015 0.074845582 0.020059615
-0.070864931 0.075033449 0.020011485
-0.069957681 0.0751784 0.019694418
-0.068322852 0.074534021 0.019381851
-0.068230391 0.07557828 0.018984735
-0.066493019 0.074804649 0.019246072
-0.066558369 0.076066703 0.019133359
-0.064864039 0.075325973 0.01914078
-0.063240133 0.074644089 0.018867135
-0.062863313 0.075435966 0.018745989
-0.062278889 0.076001354 0.018416047
-0.059952404 0.074423671 0.018165648
-0.060575008 0.076515794 0.017706752
-0.058600094 0.075342976 0.017395765
-0.057317533 0.075033858 0.017056555
-0.057366565 0.076488748 0.016838551
-0.055580985 0.07550624 0.016755551
-0.054524578 0.075495563 0.016566515
-0.053932767 0.076140374 0.016088188
-0.0526172 0.075768761 0.015618563
-0.05187786 0.076228693 0.015396625
-0.050707977 0.076061964 0.014910996
-0.049892597 0.076431207 0.014674515
-0.048364598 0.075701103 0.014674515
-0.0474388 0.075902075 0.014477611
-0.046423201 0.075965233 0.014421791
-0.045590367 0.07633736 0.014025241
-0.044496335 0.076279432 0.013788909
-0.042701051 0.074987203 0.013861835
-0.042792458 0.077026419 0.0133636
-0.041408699 0.076446831 0.013156593
-0.040272251 0.076305315 0.012888342
-0.039316367 0.076507524 0.012967378
-0.037990998 0.075981997 0.012967378
-0.037184227 0.076493263 0.012995034
-0.036210641 0.076681353 0.01302591
-0.035024401 0.076416872 0.012994438
-0.033914179 0.076306894 0.012744844
-0.032944065 0.076515235 0.012735128
-0.031666365 0.075999275 0.012571067
-0.030973857 0.076900609 0.012334138
-0.029716469 0.076413773 0.012035728
-0.028593631 0.076249681 0.011804312
-0.027760115 0.076874159 0.011116415
-0.026474902 0.076247714 0.010737836
-0.025528932 0.07658679 0.010369837
-0.024629928 0.077102378 0.010004133
-0.023369785 0.076482937 0.0097314417
-0.022072554 0.07567732 0.0095018148
-0.021380115 0.076968409 0.0092612803
-0.020185938 0.076494075 0.0090199113
-0.019120261 0.076481044 0.0087299645
-0.018279085 0.077417292 0.0086391866
-0.016902378 0.076060697 0.0083116293
-0.016091244 0.077237964 0.0082176626
-0.015129806 0.077810429 0.0074723959
-0.013740692 0.076102294 0.0069118738
-0.012912858 0.07747715 0.0061226487
-0.011844869 0.077530049 0.0050220788
-0.11344291 0.07597553 0.023990005
-0.11007299 0.074401185 0.027339697
-0.10946147 0.074679323 0.028097242
-0.10847308 0.074703172 0.028915286
-0.10739205 0.07466305 0.028920829
-0.10610598 0.074478246 0.028829932
-0.10710603 0.075910099 0.028904676
-0.10387287 0.074340396 0.028561443
-0.10309624 0.074515104 0.028253198
-0.10313004 0.075284936 0.02797237
-0.10055269 0.074144915 0.027930051
-0.099913068 0.074425049 0.028122395
-0.10088434 0.075923271 0.028211057
-0.09825176 0.074712276 0.027561307
-0.097176112 0.074672177 0.027620167
-0.096194379 0.074704148 0.027462989
-0.094705544 0.074338764 0.027440429
-0.095577888 0.075838983 0.027126759
-0.094157338 0.075532809 0.026314199
-0.091853455 0.074503355 0.026013374
-0.092340015 0.07573957 0.025619328
-0.089883946 0.074562825 0.025287807
-0.089790352 0.075341336 0.024787933
-0.089711182 0.076150194 0.024203658
-0.08779864 0.075403541 0.024182588
-0.086087793 0.074814394 0.024172217
-0.086104192 0.075730197 0.02406013
-0.084466279 0.075195596 0.023943812
-0.083585344 0.075330012 0.023301303
-0.082667463 0.075434066 0.023269653
-0.081816144 0.075602263 0.023176432
-0.080900192 0.07571429 0.023365885
-0.080026209 0.075869009 0.02311784
-0.077870533 0.074796699 0.022943825
-0.078742459 0.076642662 0.022610009
-0.077525556 0.076477915 0.021969497
-0.075364389 0.075364389 0.021786898
-0.07622204 0.077280685 0.020926207
-0.073374115 0.075440995 0.020617157
-0.0725196 0.075627588 0.020454049
-0.072075941 0.076254256 0.020059615
-0.071172625 0.076405913 0.019822985
-0.070022978 0.076293699 0.019460797
-0.069727845 0.077123225 0.019283295
-0.06801641 0.076387659 0.018923521
-0.067435406 0.076918513 0.01904124
-0.065835245 0.076285288 0.018761098
-0.064012676 0.075369768 0.018918067
-0.064247914 0.076886855 0.0187819
-0.06299299 0.076641478 0.018636644
-0.061702251 0.076343462 0.018335938
-0.061238896 0.077076547 0.018111497
-0.060095225 0.076964065 0.017448992
-0.058561556 0.076339178 0.017023921
-0.058231156 0.077288628 0.016817659
-0.056452397 0.076315284 0.016688973
-0.056124467 0.077303514 0.016446054
-0.055033211 0.077258162 0.016367078
-0.053527016 0.076617107 0.016213864
-0.052716512 0.076966114 0.015854359
-0.051931299 0.077367045 0.01559341
-0.050045528 0.076110914 0.015206933
-0.050008234 0.07767237 0.014788091
-0.048647992 0.077202253 0.014788091
-0.047208976 0.076583445 0.014613301
-0.046893768 0.077801026 0.014479131
-0.045775793 0.077712402 0.014215082
-0.043978322 0.076438516 0.013930798
-0.044025894 0.078387566 0.013676286
-0.04248016 0.077526301 0.013381124
-0.041008793 0.076760054 0.013355672
-0.04065872 0.078107543 0.0131253
-0.039369997 0.077675939 0.013017178
-0.038176663 0.077413797 0.013009757
-0.03733119 0.077862203 0.013017178
-0.03602618 0.077350333 0.013342112
-0.035036761 0.077505566 0.013069123
-0.033981681 0.077520713 0.012934446
-0.032540325 0.076627225 0.012934446
-0.032083273 0.078069299 0.012937933
-0.030739976 0.077379942 0.012705147
-0.029432049 0.076733559 0.012332529
-0.028965762 0.078314841 0.012190819
-0.027593903 0.077475198 0.011643022
-0.026282221 0.076744087 0.011174321
-0.025588192 0.077830754 0.010918468
-0.024617782 0.078134701 0.010556996
-0.023546685 0.078132182 0.010380834
-0.02249565 0.078199171 0.010282874
-0.021401916 0.078116998 0.0099614859
-0.020065535 0.077093899 0.0096682608
-0.019188477 0.077819936 0.0092966259
-0.017982746 0.077220023 0.0092511475
-0.017149113 0.078242838 0.0091038942
-0.01602485 0.077987611 0.0090229213
-0.014930141 0.077850021 0.0080726147
-0.014014479 0.07869669 0.0073371828
-0.012948931 0.078772672 0.0064560771
-0.011815933 0.078414828 0.0055806339
-0.11182402 0.075917229 0.023692101
-0.10921367 0.07483159 0.027111739
-0.10902511 0.075400539 0.028115034
-0.10771453 0.075196944 0.028818399
-0.10613425 0.074799381 0.029045969
-0.10661151 0.075858191 0.028991282
-0.10531317 0.07566189 0.028759927
-0.10340828 0.075021699 0.028644264
-0.10362907 0.075926252 0.028381616
-0.1009267 0.07468576 0.028098822
-0.10153136 0.075892136 0.027901351
-0.10196187 0.076991625 0.028098822
-0.098974995 0.075506702 0.028264284
-0.099353239 0.076584794 0.027707368
-0.097512357 0.075957 0.027498066
-0.095736466 0.075367004 0.027530491
-0.095752738 0.076190352 0.027453154
-0.094396874 0.075927921 0.027171463
-0.093361408 0.075920269 0.026340634
-0.093637571 0.076990895 0.026164263
-0.091972455 0.076471485 0.025673747
-0.090758592 0.076319732 0.025401145
-0.08995115 0.076510176 0.024496615
-0.088835582 0.076439925 0.024205416
-0.087397091 0.076086879 0.02420333
-0.087501243 0.07708443 0.024108559
-0.085487209 0.076217517 0.023586482
-0.084526621 0.076280124 0.02335611
-0.084530838 0.077225707 0.022859752
-0.082599156 0.076404221 0.023026198
-0.082390241 0.077175677 0.022843897
-0.081701465 0.077511653 0.022968113
-0.079234339 0.076147288 0.022477716
-0.079194345 0.077110283 0.022398829
-0.078774959 0.077724628 0.022042334
-0.076514401 0.076514401 0.021903783
-0.076645926 0.077695869 0.021535188
-0.074420825 0.07648807 0.020733267
-0.07353539 0.076642521 0.020496219
-0.073754013 0.07796853 0.020112097
-0.07158798 0.076775521 0.01997149
-0.070635177 0.0768677 0.019625157
-0.06994909 0.077257209 0.01947701
-0.068295345 0.076573573 0.019259781
-0.067694455 0.077067539 0.018899858
-0.067034677 0.077508852 0.019023567
-0.065343805 0.076753043 0.018638283
-0.06552837 0.078211285 0.018759012
-0.063742556 0.077327035 0.01866588
-0.061926376 0.076375872 0.01859194
