ply
format ascii 1.0
comment PCL generated
element vertex 1290
property float x
property float y
property float z
element camera 0
property float view_px
property float view_py
property float view_pz
property float x_axisx
property float x_axisy
property float x_axisz
property float y_axisx
property float y_axisy
property float y_axisz
property float z_axisx
property float z_axisy
property float z_axisz
property float focal
property float scalex
property float scaley
property float centerx
property float centery
property int viewportx
property int viewporty
property float k1
property float k2
end_header
-0.034247383 0.08668869 0.0094952285
-0.033303469 0.087018736 0.0094578564
-0.031623516 0.08538349 0.0096575022
-0.031005247 0.086600855 0.0097005367
-0.030121496 0.087137178 0.0097065866
-0.028820261 0.086460784 0.0096700191
-0.028194534 0.087836817 0.0095518529
-0.02700093 0.087483004 0.0091927052
-0.025583915 0.086345717 0.008977592
-0.025250092 0.088924237 0.0089945793
-0.023776093 0.087539248 0.0088888705
-0.022738392 0.087705217 0.0089785457
-0.02165827 0.087715991 0.0086194277
-0.020497229 0.08738292 0.0080270171
-0.019458191 0.087561861 0.0074342191
-0.018836912 0.089752339 0.006585598
-0.017100004 0.086568765 0.0060442388
-0.016315827 0.088105462 0.0057963729
-0.015141629 0.087605134 0.0048855245
-0.013944744 0.08688648 0.0043258071
-0.11045253 0.083862104 0.024367064
-0.1098977 0.084220663 0.026069075
-0.10821869 0.083716355 0.026698947
-0.10696373 0.083533585 0.027204752
-0.10595921 0.083544768 0.02793029
-0.10610525 0.084472135 0.027978837
-0.10341574 0.083138146 0.027857602
-0.10227904 0.083038427 0.027868301
-0.10351706 0.084883988 0.027331203
-0.10158562 0.08414162 0.026873797
-0.099670745 0.083397977 0.02652815
-0.1005404 0.084992923 0.026496053
-0.098821618 0.084410138 0.026420355
-0.097419761 0.084088638 0.026269972
-0.096719757 0.084372558 0.026512623
-0.094100639 0.082970455 0.026322216
-0.095319897 0.084959038 0.025905758
-0.094226986 0.084907837 0.025873125
-0.09230525 0.084100336 0.025444716
-0.092526279 0.08524894 0.02537626
-0.08979623 0.083673768 0.024964422
-0.088993184 0.083878636 0.024863303
-0.089833662 0.085655354 0.024611324
-0.087207273 0.084129371 0.024305195
-0.086581975 0.084520496 0.024151087
-0.086457193 0.085415535 0.023787647
-0.084308416 0.084308416 0.023398995
-0.083314672 0.084343255 0.023165584
-0.082910538 0.084983312 0.023034543
-0.081230722 0.084315442 0.022714436
-0.080893345 0.085041724 0.02266261
-0.079801701 0.084983632 0.022434026
-0.077849597 0.083995618 0.021685511
-0.079110518 0.08649417 0.021473736
-0.077258743 0.085611038 0.021440595
-0.074770644 0.083988942 0.021029562
-0.074717745 0.085095219 0.020337671
-0.073556066 0.084952079 0.019841701
-0.072640516 0.085093178 0.019380003
-0.072802231 0.086518601 0.019237995
-0.069612198 0.083944127 0.019048005
-0.069519915 0.085084081 0.019218951
-0.069707625 0.08660645 0.01913327
-0.067366391 0.084985293 0.019222796
-0.067087725 0.085956149 0.018996447
-0.065301612 0.084995747 0.019021183
-0.064090893 0.084765375 0.018583119
-0.063804269 0.085769683 0.01807934
-0.06294015 0.086018212 0.01807946
-0.061089613 0.084904209 0.017830998
-0.061234221 0.08657252 0.017403752
-0.060316835 0.086771592 0.016988307
-0.058807753 0.086111359 0.016634315
-0.058343031 0.086984158 0.016296238
-0.056811396 0.086269155 0.015867293
-0.055054825 0.085179165 0.015776724
-0.054957166 0.086663231 0.015594006
-0.053774614 0.086461149 0.015284032
-0.052907884 0.086768933 0.01470387
-0.052053794 0.087110437 0.014487118
-0.050117649 0.085617654 0.014475882
-0.050342403 0.08783143 0.014154971
-0.048899863 0.087169319 0.013873518
-0.047002751 0.085649461 0.013877988
-0.046694204 0.087021023 0.013416678
-0.046010032 0.087740064 0.013440907
-0.044322465 0.086534344 0.012809336
-0.043891907 0.087783813 0.012581468
-0.042553451 0.087234579 0.01159516
-0.041747496 0.087776788 0.01150918
-0.040794842 0.088030979 0.010794371
-0.038964164 0.086353011 0.010561854
-0.038193498 0.086996309 0.010281503
-0.03768409 0.088288441 0.010359257
-0.03600977 0.086847097 0.010027528
-0.035207164 0.087484471 0.0099125206
-0.03441368 0.088185064 0.0094232559
-0.03281644 0.08680477 0.0093934536
-0.032580368 0.089053005 0.0096048117
-0.031012626 0.087690875 0.0096056461
-0.029617932 0.086738236 0.0097157955
-0.029129701 0.088467978 0.0092553496
-0.028365247 0.089459628 0.00933972
-0.026486954 0.086877204 0.0090147555
-0.02626841 0.089750409 0.0084685981
-0.024722029 0.088139407 0.0076199174
-0.023484997 0.087534994 0.0075539052
-0.022761127 0.088876784 0.007483542
-0.021701399 0.088975742 0.0074342191
-0.020379525 0.087953746 0.0069875121
-0.019671047 0.089612558 0.0064342618
-0.018219979 0.087884612 0.0055183172
-0.017337091 0.088852592 0.0054809153
-0.016366955 0.089472689 0.0048855245
-0.015049822 0.088148959 0.0046282411
-0.10963472 0.084256314 0.024275124
-0.11037213 0.085615762 0.025745928
-0.10816244 0.084693238 0.02672857
-0.10654981 0.084225096 0.027150959
-0.10707736 0.085455969 0.027623624
-0.10495875 0.08457841 0.027905226
-0.10433657 0.084901333 0.027852684
-0.10434461 0.085748546 0.027838916
-0.10298163 0.085474752 0.027219057
-0.10165306 0.085224286 0.027006447
-0.10126843 0.085768163 0.026816368
-0.099056512 0.084759705 0.026828766
-0.099361159 0.085906006 0.026626378
-0.09768343 0.085344471 0.026509821
-0.095088258 0.083960906 0.027009666
-0.09630318 0.085948005 0.026718557
-0.094492689 0.085248843 0.026432097
-0.092904553 0.084737115 0.026004702
-0.092550337 0.085351974 0.025611281
-0.09117426 0.085027687 0.025515467
-0.090832382 0.085671455 0.02546075
-0.089956991 0.08582104 0.025257051
-0.088153169 0.085078061 0.024846703
-0.087066576 0.085017949 0.024522543
-0.087302312 0.086263001 0.024334639
-0.085440032 0.085440032 0.024184972
-0.085065141 0.086102515 0.023782074
-0.084641211 0.086731121 0.023497015
-0.081671111 0.084733784 0.023236156
-0.082326554 0.08649499 0.02284494
-0.081303038 0.086514771 0.022546113
-0.079659685 0.085866936 0.022278577
-0.080002718 0.087371387 0.021643192
-0.077980444 0.086298354 0.021473736
-0.077182621 0.086569697 0.021667689
-0.076257914 0.086704202 0.021076351
-0.074885122 0.086325906 0.020541131
-0.074205682 0.086747497 0.019993097
-0.072844543 0.086372815 0.019428492
-0.072300106 0.086969696 0.019354314
-0.070904277 0.086544931 0.019112766
-0.070046976 0.086774617 0.019175649
-0.067783482 0.085242875 0.019139498
-0.06785512 0.086645775 0.019222796
-0.067444175 0.087466665 0.018968701
-0.065452226 0.08623071 0.019021183
-0.065113924 0.087168641 0.018583119
-0.063672557 0.086636432 0.017903775
-0.062013011 0.085784666 0.01807946
-0.061994359 0.087212406 0.017808765
-0.061043397 0.087355211 0.017756909
-0.05922588 0.086241193 0.017055959
-0.059110455 0.08761014 0.01664564
-0.057260282 0.086410977 0.016350001
-0.056914829 0.087480195 0.015992939
-0.056367982 0.088274397 0.015956521
-0.055105977 0.087957621 0.015697658
-0.053691026 0.087379515 0.015435249
-0.053305827 0.088487677 0.014969379
-0.051679865 0.087539367 0.014666259
-0.050682373 0.087638274 0.014528632
-0.049857866 0.088046871 0.014263093
-0.048114561 0.086815402 0.014055252
-0.048066691 0.088656344 0.013933867
-0.046577357 0.087861836 0.013691336
-0.045073498 0.087002337 0.013617486
-0.044891953 0.088715054 0.01316905
-0.04360494 0.088273413 0.013054132
-0.042114299 0.087387174 0.012164831
-0.041896246 0.08916381 0.011668086
-0.040399853 0.088241786 0.011025429
-0.039028656 0.087550774 0.0107086
-0.038635086 0.089075342 0.010399103
-0.037209634 0.08823999 0.010359257
-0.036236864 0.08846058 0.010123402
-0.035725992 0.089856282 0.0098913312
-0.03363299 0.08723557 0.0094365478
-0.033344731 0.089277834 0.0090211332
-0.032355342 0.089516453 0.0093934536
-0.030826388 0.08822725 0.009457022
-0.029891884 0.088608086 0.009170264
-0.029125011 0.089532435 0.0089785755
-0.027672742 0.08833991 0.0084609389
-0.027037054 0.089763023 0.0079827011
-0.025656117 0.088727407 0.0075256526
-0.024520643 0.088487536 0.007355988
-0.023885256 0.090112567 0.0072007477
-0.022465669 0.088792883 0.0069255829
-0.021456936 0.089046292 0.0063768625
-0.020529244 0.089680389 0.0061618686
-0.019446613 0.089670502 0.0054400861
-0.018233296 0.089021392 0.0049933791
-0.017479347 0.090674117 0.0045901835
-0.016247898 0.089905046 0.0046539605
-0.015219485 0.090229809 0.0043329298
-0.11087952 0.086239628 0.023456872
-0.10952984 0.085986041 0.025764018
-0.10713823 0.084902003 0.026572078
-0.10719169 0.085753351 0.026908219
-0.10563172 0.085317932 0.027547508
-0.10454584 0.085260689 0.027878225
-0.10544498 0.086837046 0.027814776
-0.10273907 0.08544635 0.027841777
-0.10217372 0.08582592 0.027472943
-0.10248928 0.086960599 0.02724871
-0.099867076 0.085600354 0.02730307
-0.098423913 0.085233077 0.026916891
-0.098823316 0.086470403 0.026873976
-0.096626602 0.085438259 0.027205527
-0.09784203 0.087433301 0.027080566
-0.09584073 0.086565822 0.026963264
-0.093349747 0.085232377 0.026655406
-0.093904503 0.086681083 0.026144654
-0.09312512 0.086916775 0.025873125
-0.091296799 0.086167775 0.025933564
-0.091168866 0.08702483 0.02546075
-0.089456953 0.086372234 0.025302798
-0.088658363 0.086596549 0.02518326
-0.088574253 0.087532207 0.02477023
-0.085728511 0.085728511 0.024465203
-0.085801885 0.086835638 0.024242312
-0.085177779 0.087255284 0.023753405
-0.083633251 0.086730786 0.023288608
-0.083651029 0.087833591 0.023097843
-0.082134135 0.087332502 0.02255553
-0.080408841 0.086594142 0.022434026
-0.080686875 0.088022046 0.022231728
-0.079072304 0.087395705 0.021490097
-0.07739687 0.086684495 0.021622866
-0.076476097 0.086810701 0.021348566
-0.075496241 0.086872384 0.020976186
-0.074908048 0.087392733 0.020881653
-0.074386738 0.088006854 0.020090818
-0.072693877 0.087232657 0.019626498
-0.071802109 0.08741127 0.019471556
-0.071109958 0.087841712 0.019207656
-0.070154913 0.087955408 0.019190222
-0.069713958 0.088726856 0.019185126
-0.068695433 0.088775635 0.019396454
-0.066369869 0.087110452 0.018998921
-0.066159666 0.088212885 0.019021183
-0.064822391 0.087823883 0.018567234
-0.063076183 0.08685901 0.018040985
-0.063318178 0.088645443 0.017903775
-0.062375188 0.088805348 0.017622083
-0.060427509 0.087515704 0.017478704
-0.060096305 0.08856298 0.016988307
-0.058061723 0.087092586 0.016624749
-0.057404563 0.08767242 0.016361594
-0.056653656 0.088127911 0.016016245
-0.055841569 0.088503622 0.016072214
-0.053989165 0.08721327 0.015773386
-0.054637015 0.089990377 0.015570402
-0.052426625 0.088076733 0.015349537
-0.051355354 0.088037752 0.015032589
-0.050478157 0.088336773 0.014800757
-0.049273215 0.088062771 0.014611632
-0.049004614 0.089486688 0.014355332
-0.047850762 0.08932142 0.014206588
-0.046181023 0.088163778 0.013793945
-0.045964789 0.089791685 0.013652414
-0.044475824 0.088951647 0.01341489
-0.0438268 0.089791492 0.013208985
-0.042989042 0.090276994 0.012642711
-0.040904764 0.088102572 0.011782736
-0.040429503 0.089370482 0.011157721
-0.039053284 0.088661507 0.010812283
-0.038271379 0.089299895 0.01054737
-0.037266083 0.089438602 0.010225087
-0.036787033 0.090885617 0.0099070668
-0.035290159 0.089829504 0.0096178949
-0.034455825 0.090446547 0.0091894567
-0.033413008 0.090538479 0.0088495612
-0.032051805 0.089745052 0.0085719228
-0.031099331 0.09008082 0.008911401
-0.030207068 0.090621211 0.0088532865
-0.028740741 0.08941564 0.0080484748
-0.027883481 0.090085097 0.0077845752
-0.02673173 0.089818612 0.0075391531
-0.025690513 0.089916803 0.0072196722
-0.02503052 0.091415808 0.006708324
-0.02367802 0.090406992 0.0059712529
-0.022316802 0.089267209 0.005422622
-0.02165365 0.090945341 0.0048367977
-0.020485025 0.090565376 0.0048113167
-0.019312432 0.090124689 0.004743576
-0.1103102 0.086818211 0.022532672
-0.10849018 0.086183786 0.025736481
-0.10877048 0.087221615 0.02654326
-0.10671625 0.086389348 0.026865035
-0.10617673 0.086779058 0.027547508
-0.10684331 0.088171668 0.027867526
-0.10388368 0.086569734 0.028181612
-0.10392411 0.087460883 0.027839988
-0.10271595 0.087308556 0.027405024
-0.10105725 0.086766325 0.027276248
-0.09996713 0.086706184 0.027142942
-0.1018388 0.089240186 0.026735455
-0.09784507 0.08663366 0.026556283
-0.098478869 0.088112675 0.027132094
-0.096226886 0.087013677 0.027157307
-0.094967127 0.086797908 0.02698496
-0.095312372 0.088060342 0.026732564
-0.093864582 0.087675706 0.026535928
-0.092466854 0.087329805 0.025996774
-0.092580587 0.088419661 0.025980324
-0.090503961 0.087418601 0.025692493
-0.090129331 0.088057399 0.025608599
-0.089539059 0.088497907 0.025201827
-0.087215975 0.087215975 0.025117189
-0.085765466 0.086786479 0.024680257
-0.086939149 0.089034066 0.024457455
-0.084771946 0.087873362 0.023942083
-0.084137566 0.088292517 0.023288608
-0.083263785 0.088467777 0.023069859
-0.08088202 0.087024964 0.022777051
-0.082234114 0.089614101 0.022434026
-0.079686165 0.08796525 0.02222091
-0.077843748 0.087062083 0.02194199
-0.078894585 0.089413866 0.02194199
-0.077489704 0.089008443 0.021374524
-0.074932054 0.087249652 0.021243244
-0.075260416 0.088849112 0.020948946
-0.073169485 0.087597273 0.02047646
-0.072950356 0.088582575 0.020014763
-0.07318715 0.090158083 0.019746631
-0.070530869 0.088163584 0.01983282
-0.070226856 0.089093775 0.019449532
-0.069858387 0.089969136 0.019267827
-0.068159997 0.089132302 0.019528955
-0.067351602 0.08945135 0.01926896
-0.066762045 0.090075776 0.019187838
-0.064220004 0.088043548 0.018600702
-0.064149722 0.089388952 0.018271536
-0.063548855 0.090027548 0.018255442
-0.061466608 0.088553593 0.017761499
-0.061562091 0.090220302 0.01771161
-0.060369555 0.090024777 0.017355472
-0.058774166 0.089210793 0.016440362
-0.05801329 0.089656904 0.016226023
-0.056829866 0.08945442 0.016108155
-0.055782463 0.089462444 0.016040981
-0.055479128 0.090687037 0.015707076
-0.052943643 0.088239402 0.015473038
-0.052595887 0.089413002 0.01532048
-0.052023295 0.090244494 0.014974415
-0.050398964 0.089248165 0.015046775
-0.050178804 0.090748899 0.014572233
-0.049007419 0.090557188 0.014392734
-0.04794959 0.090571448 0.014355332
-0.046288412 0.089420795 0.014041185
-0.045732658 0.090401769 0.013770163
-0.044229303 0.089511685 0.013785899
-0.043578576 0.09034583 0.013316303
-0.041958392 0.08916159 0.012599945
-0.041261718 0.089929387 0.011631936
-0.040777091 0.091211908 0.011129111
-0.039572176 0.090909049 0.011002958
-0.03820727 0.090211615 0.010700107
-0.037382577 0.090786256 0.010484695
-0.035933927 0.089834817 0.010027528
-0.035131183 0.09048941 0.0098206103
-0.034301516 0.091113403 0.0095511973
-0.032988768 0.090453066 0.0091220737
-0.032408655 0.091824524 0.0089056492
-0.031088868 0.091122538 0.0091183782
-0.029605398 0.08987353 0.0090256035
-0.029147282 0.091759965 0.0084348023
-0.027782779 0.090828322 0.0080848038
-0.026786732 0.091074884 0.0079169869
-0.026086267 0.092388868 0.0074502528
-0.024734391 0.091409706 0.0065539479
-0.023649054 0.09137135 0.0059075952
-0.022745859 0.092066571 0.0054826438
-0.021539077 0.091541082 0.0050801337
-0.02053356 0.091860659 0.0050299168
-0.019646978 0.092777394 0.0041750669
-0.11048163 0.087976106 0.022794902
-0.10897519 0.087587535 0.025562435
-0.10867559 0.088170767 0.02672857
-0.10605881 0.086867213 0.026961297
-0.10768804 0.089049727 0.027547508
-0.10473176 0.087445937 0.028161466
-0.10343252 0.087207809 0.028256088
-0.10444693 0.088935003 0.028172165
-0.10219737 0.087889731 0.027571678
-0.1002513 0.08708699 0.027460724
-0.10025971 0.087983012 0.027385682
-0.098571166 0.087392993 0.027087241
-0.098694704 0.088414006 0.027166009
-0.097967744 0.088686585 0.027273834
-0.095044225 0.086955354 0.027302265
-0.096186034 0.088946223 0.027035177
-0.094907507 0.088717885 0.026941746
-0.093056343 0.087943353 0.026693672
-0.093579814 0.089420706 0.025996774
-0.091737032 0.08864478 0.025998324
-0.090793133 0.08872965 0.025742263
-0.09058243 0.089541249 0.025572836
-0.088762745 0.088762745 0.025143772
-0.087704115 0.088735923 0.025104672
-0.08742062 0.089502066 0.024476111
-0.08553873 0.08863049 0.024450153
-0.084773451 0.088908739 0.023942083
-0.084749877 0.089981355 0.023214042
-0.08122427 0.087316088 0.022971451
-0.0825947 0.089913219 0.022970319
-0.081713982 0.090094902 0.022548378
-0.080170125 0.08954066 0.022345662
-0.079221807 0.089645728 0.022083461
-0.077888094 0.089311682 0.021950692
-0.076478995 0.088880986 0.021452308
-0.076381534 0.089983724 0.021145791
-0.074690498 0.089213654 0.020897597
-0.0736086 0.089159712 0.020648658
-0.073391274 0.090166427 0.019841701
-0.0717474 0.08942429 0.019514263
-0.071055643 0.089864492 0.019355714
-0.070590012 0.090608075 0.019213825
-0.068467982 0.08921586 0.019293308
-0.067923203 0.089867622 0.019423544
-0.066937305 0.089947 0.019095302
-0.06481339 0.088475421 0.019252658
-0.065419436 0.09074308 0.018553376
-0.064268716 0.090608351 0.018228531
-0.062317368 0.089321561 0.018212438
-0.061526358 0.08968249 0.017752111
-0.061428558 0.09108372 0.017627597
-0.059450816 0.089697726 0.017372459
-0.058986139 0.090585858 0.016577184
-0.05757799 0.090031035 0.016238719
-0.056431118 0.089871779 0.016019642
-0.056672502 0.091959156 0.016064167
-0.05494998 0.090878814 0.01571694
-0.053680293 0.090519711 0.015510768
-0.052631542 0.090526253 0.015435249
-0.051976789 0.091224574 0.0155285
-0.051015846 0.091403395 0.015258551
-0.049886283 0.09128128 0.014720649
-0.048459481 0.090598159 0.014667332
-0.047920056 0.091580547 0.014578491
-0.046544086 0.090972535 0.014481843
-0.044960048 0.089920096 0.014304966
-0.044483408 0.091085069 0.013981998
-0.043320633 0.090867668 0.01336199
-0.041811381 0.089894466 0.01281932
-0.041597251 0.091727272 0.011631936
-0.040217347 0.0910182 0.011129111
-0.038873333 0.090354227 0.011002958
-0.03855988 0.092115276 0.010753572
-0.037282541 0.091608532 0.010629117
-0.036461066 0.092225045 0.010318696
-0.035866324 0.093469821 0.0099433661
-0.033979807 0.091320731 0.010034531
-0.033421636 0.09271808 0.0097860098
-0.031751867 0.091022022 0.0096042156
-0.030966148 0.091830641 0.0096033812
-0.030048294 0.092291191 0.0091959536
-0.028682757 0.091359891 0.0085947812
-0.027703673 0.091635227 0.008299768
-0.026719544 0.091915235 0.0079186261
-0.025495965 0.091360547 0.0074705184
-0.024549307 0.09179306 0.0064638257
-0.023851782 0.093238786 0.0059038401
-0.022610497 0.092595369 0.0054826438
-0.021553108 0.092678368 0.0051500499
-0.020624919 0.093354896 0.0051195025
-0.019411838 0.092745453 0.0041781962
-0.11208335 0.090289354 0.021878719
-0.1100883 0.089511037 0.02534306
-0.10587166 0.086894669 0.026657969
-0.10764362 0.089190431 0.026792884
-0.10673494 0.089287885 0.027547508
-0.10480589 0.088525362 0.028172165
-0.1050865 0.089632601 0.028470457
-0.10245049 0.08824943 0.028312147
-0.10319522 0.089779839 0.027983516
-0.10144082 0.08914496 0.027781487
-0.10005743 0.088826492 0.027771443
-0.099411532 0.089162923 0.027519584
-0.098251022 0.089039989 0.027363479
-0.097941794 0.089694068 0.02737543
-0.097459473 0.090201855 0.027460307
-0.095749758 0.089572348 0.027072638
-0.093427554 0.088349961 0.026971191
-0.094206735 0.090065777 0.026731074
-0.093078077 0.089975469 0.025944918
-0.090712443 0.088673964 0.026067734
-0.09189146 0.090847239 0.025915563
-0.089523591 0.089523591 0.025106728
-0.08885926 0.089892507 0.025027752
-0.08813674 0.090210542 0.024879187
-0.087220415 0.090335421 0.024533063
-0.085602939 0.089728378 0.02431801
-0.085239172 0.090436675 0.024025053
-0.083240099 0.089406036 0.023776263
-0.083499536 0.090805747 0.023096979
-0.082096025 0.090409547 0.022710949
-0.079879105 0.08909592 0.022610635
-0.080856062 0.091356851 0.022449076
-0.079605229 0.091127031 0.022174686
-0.07756348 0.089973629 0.022083461
-0.076644681 0.090109281 0.021469802
-0.076090679 0.090683408 0.021156192
-0.074746042 0.090318136 0.020941675
-0.074442841 0.091218688 0.020648658
-0.072244458 0.08978954 0.02006653
-0.072096512 0.090904295 0.019642681
-0.071811318 0.091876239 0.019471556
-0.070692413 0.091794617 0.019286156
-0.068767406 0.090647951 0.019293308
-0.06824854 0.091348045 0.019226104
-0.066225417 0.090025172 0.01916185
-0.066361167 0.091641605 0.019156635
-0.064429462 0.090409085 0.018452615
-0.063405849 0.090431288 0.018277019
-0.063820995 0.092540443 0.018221408
-0.062977463 0.092865072 0.018010825
-0.060668658 0.091002986 0.017828554
-0.060032912 0.091629177 0.017612219
-0.058116563 0.090288229 0.016953647
-0.057678696 0.09123721 0.016458273
-0.05729882 0.092314765 0.016013026
-0.055663493 0.091372147 0.01611793
-0.054467168 0.091127761 0.015827298
-0.054316387 0.092657365 0.015627027
-0.052468739 0.0912956 0.015575647
-0.051915541 0.092176579 0.015817702
-0.050944414 0.092336752 0.01535818
-0.049540918 0.0917034 0.015093684
-0.049004018 0.092681512 0.014667332
-0.048023529 0.092845485 0.014458179
-0.046092842 0.091138124 0.014608055
-0.046111729 0.09329582 0.014623374
-0.044433292 0.09204039 0.014662683
-0.042805053 0.090830229 0.014028072
-0.043023437 0.093575977 0.01307261
-0.041344639 0.09223035 0.012513041
-0.040259883 0.092173941 0.011366606
-0.039441846 0.092741631 0.0111821
-0.038018763 0.091878675 0.011014581
-0.037157465 0.092362836 0.010829926
-0.036200106 0.092629679 0.010853738
-0.035146292 0.092658408 0.010281414
-0.034429975 0.093606494 0.010050505
-0.032949556 0.092471331 0.0099363327
-0.031714167 0.091971084 0.0096575022
-0.031439733 0.094319195 0.0094610453
-0.029761549 0.09247338 0.0091899335
-0.02891201 0.093160912 0.0086134076
-0.028057383 0.093884327 0.0083009303
-0.026833663 0.093381144 0.0078632236
-0.025651295 0.092985943 0.0077611506
-0.024848633 0.093992651 0.0067865551
-0.023411483 0.092581771 0.0064246058
-0.022633839 0.093768761 0.0061528385
-0.021859799 0.095090121 0.0054428577
-0.020386992 0.093350962 0.0052976608
-0.01947148 0.094112158 0.0050615072
-0.018278301 0.09354189 0.0041683316
-0.11254485 0.091703206 0.020503521
-0.10761781 0.088508099 0.025259912
-0.10785489 0.089539908 0.026657969
-0.10765149 0.090222202 0.026846558
-0.10550607 0.089274362 0.027460724
-0.10606315 0.090617053 0.027850688
-0.10343754 0.089240231 0.028170705
-0.10361478 0.090278216 0.028209805
-0.10286092 0.09051761 0.027743459
-0.10093237 0.089717656 0.02764222
-0.099883184 0.089691028 0.027771443
-0.099722162 0.090469591 0.027499884
-0.097451009 0.089330092 0.027522087
-0.097127266 0.089970522 0.027453989
-0.096292689 0.090146348 0.027578652
-0.094897531 0.089795507 0.027122647
-0.095032908 0.09090104 0.026963264
-0.093927123 0.090830617 0.026569992
-0.092482105 0.090426937 0.025933564
-0.09230905 0.09127187 0.025969326
-0.089852549 0.089852549 0.025609165
-0.089869134 0.090902112 0.025005013
-0.088839918 0.090905964 0.024862707
-0.087106355 0.090180695 0.024555683
-0.086049668 0.090147272 0.024155706
-0.086974576 0.092214003 0.02413705
-0.08380305 0.089934975 0.024025053
-0.084296137 0.091580987 0.023230553
-0.083415493 0.091757044 0.02280876
-0.081583552 0.090877883 0.022661835
-0.081705153 0.09218017 0.022467941
-0.079715721 0.09110368 0.022198409
-0.07841254 0.090793461 0.021823287
-0.078789592 0.092446446 0.021791667
-0.077087305 0.091671385 0.021395683
-0.075812526 0.091390438 0.021029562
-0.074915133 0.091562942 0.020538419
-0.073271975 0.090815976 0.020530403
-0.072458491 0.091090672 0.020080596
-0.072740659 0.092770696 0.019703746
-0.070416607 0.091127373 0.019351125
-0.069711454 0.09156131 0.019445807
-0.069718041 0.092957392 0.01930961
-0.067338333 0.091165744 0.019498497
-0.067317598 0.092561692 0.018993139
-0.066471957 0.092849717 0.018865675
-0.06442216 0.091437899 0.018613964
-0.064843021 0.093544029 0.018465936
-0.062890418 0.092239276 0.018375039
-0.061595954 0.091871932 0.018044651
-0.061502859 0.093314677 0.017638832
-0.060022354 0.09266609 0.017566383
-0.059124295 0.092909604 0.016748428
-0.057934806 0.092695683 0.016458273
-0.056670055 0.092351198 0.016019672
-0.055628661 0.092364572 0.016064167
-0.055191845 0.093401581 0.015879989
-0.053067867 0.091568083 0.015683204
-0.052131422 0.0917513 0.015600801
-0.052242316 0.093822934 0.015635043
-0.05023966 0.092106044 0.015790284
-0.04942086 0.092532672 0.01529476
-0.048690207 0.093146481 0.014713466
-0.047351472 0.092598431 0.014667332
-0.047061674 0.094123349 0.014844269
-0.045140553 0.092380665 0.014880121
-0.044218767 0.092648841 0.014719218
-0.043810602 0.094032511 0.01437813
-0.042308934 0.093079656 0.013286203
-0.041253902 0.093085729 0.012513041
-0.040694214 0.094239235 0.011535823
-0.03915371 0.093122333 0.011366606
-0.038061012 0.09303803 0.011052042
-0.03751618 0.094326392 0.01089704
-0.036249954 0.093823411 0.010825068
-0.035323959 0.094197221 0.010564834
-0.03399035 0.093473464 0.010244459
-0.033129431 0.094044834 0.010007769
-0.032258969 0.0946263 0.0099367499
-0.030806692 0.093482375 0.0096056461
-0.029879177 0.093905985 0.0092051923
-0.029059034 0.094710924 0.0087774694
-0.028132426 0.095217437 0.0084644258
-0.026159922 0.092082918 0.0082341135
-0.025864815 0.094837658 0.0078961551
-0.024495192 0.093720727 0.00722754
-0.023598155 0.09439262 0.0066564977
-0.022638299 0.094865248 0.0064246058
-0.02147131 0.094473772 0.0058261454
-0.020240746 0.09374661 0.0055565238
-0.019519167 0.095427044 0.0054706037
-0.018241469 0.094426423 0.0050243735
-0.017437667 0.095907167 0.0042098165
-0.1125453 0.092745662 0.020501822
-0.10992476 0.091432743 0.025282413
-0.10776494 0.090481892 0.026722461
-0.10575176 0.089637205 0.027096361
-0.1059458 0.090665154 0.027452618
-0.1054576 0.091123559 0.027994215
-0.10317411 0.090024471 0.028312147
-0.10492327 0.092457131 0.028309971
-0.10240498 0.091140434 0.028013051
-0.10057279 0.090413921 0.028120905
-0.10110413 0.091819048 0.028320581
-0.098677963 0.090539575 0.028358519
-0.098537222 0.091352217 0.028543741
-0.097111724 0.090978354 0.028293401
-0.095301054 0.090231851 0.027762055
-0.096366823 0.092222005 0.027432889
-0.094648622 0.091562249 0.027037501
-0.093509808 0.09145464 0.026760072
-0.092890784 0.091858655 0.025996774
-0.091517158 0.091517158 0.026070118
-0.090145253 0.091169626 0.025933564
-0.090279676 0.092355065 0.025099188
-0.088479459 0.091565952 0.024965495
-0.087612197 0.091735125 0.024467319
-0.087769367 0.092993729 0.024155706
-0.086068682 0.092290513 0.024110228
-0.084770367 0.092006847 0.023851067
-0.085038483 0.093437344 0.023616552
-0.082120664 0.091359235 0.023066908
-0.083084181 0.093601167 0.022829145
-0.081713758 0.093237489 0.022270858
-0.078954458 0.09125904 0.021996409
-0.078955226 0.092460714 0.021607041
-0.078692317 0.093381546 0.021528542
-0.074694388 0.089835137 0.021241724
-0.076163054 0.092856318 0.020969391
-0.074961245 0.092660427 0.020696402
-0.073238641 0.091806181 0.020347387
-0.073246866 0.093128152 0.020100296
-0.072010837 0.092883542 0.019593924
-0.07080771 0.092674792 0.019222051
-0.070195161 0.093244314 0.019350439
-0.068677723 0.092610873 0.019160539
-0.06818255 0.093357638 0.019362748
-0.066872716 0.092994869 0.01909855
-0.06533698 0.092301443 0.018780887
-0.065717094 0.094335824 0.01854381
-0.064217031 0.093693703 0.018465936
-0.062706016 0.09301392 0.018341422
-0.062200218 0.093827441 0.018156558
-0.060794286 0.093287773 0.017878443
-0.05886225 0.091907725 0.017852068
-0.058981415 0.093738317 0.016750693
-0.057891827 0.093679495 0.016838551
-0.056752224 0.093536064 0.016079605
-0.056050323 0.094122238 0.016148359
-0.054153044 0.092685014 0.015948921
-0.053693984 0.093701266 0.015908808
-0.053271212 0.094822749 0.015657783
-0.051549118 0.093630031 0.015702695
-0.051130068 0.094803669 0.015963584
-0.049545225 0.093819678 0.015181124
-0.048550587 0.093934827 0.014657766
-0.04823735 0.095402747 0.014611632
-0.046386171 0.09382657 0.014865994
-0.045234103 0.09362407 0.014905125
-0.044790052 0.094912246 0.014646232
-0.043396797 0.094202794 0.014000118
-0.04194326 0.093323752 0.013412863
-0.042202901 0.096309185 0.012613147
-0.04033288 0.094463848 0.011744082
-0.038999446 0.093809471 0.011257321
-0.038713466 0.095708288 0.011119008
-0.037245393 0.094709709 0.010905147
-0.03656777 0.095721513 0.010767132
-0.035319164 0.095254712 0.010189503
-0.033663027 0.093625292 0.010146499
-0.033590429 0.096437037 0.010103077
-0.032421917 0.096185014 0.0099367499
-0.031078067 0.095377512 0.0095687211
-0.029966585 0.095250934 0.0092696548
-0.029074248 0.095837332 0.0089264214
-0.027842747 0.095307864 0.0085027516
-0.027246747 0.096998408 0.0082657337
-0.025585985 0.094881363 0.0079651177
-0.024848625 0.096153364 0.0072838962
-0.023711277 0.095922887 0.0067842007
-0.022744983 0.096395396 0.0064289868
-0.021416027 0.095301323 0.006239444
-0.020607406 0.096529424 0.0053496063
-0.019408286 0.095963195 0.0053182244
-0.018227827 0.095428027 0.0052070022
-0.017360926 0.096570149 0.0044901073
-0.016047178 0.095213257 0.0041261911
-0.11484392 0.095703274 0.01235199
-0.10952505 0.092123881 0.024963528
-0.10637415 0.090317681 0.026164085
-0.10819797 0.092741124 0.027109653
-0.10561094 0.091394089 0.027367502
-0.10449556 0.091306798 0.027813643
-0.10531283 0.09292309 0.028172165
-0.10284038 0.091639943 0.028066933
-0.10256734 0.092310615 0.027839988
-0.10125496 0.092049971 0.027852595
-0.099335141 0.091226161 0.028369695
-0.098493427 0.091385655 0.028261662
-0.098682098 0.09251447 0.028199404
-0.095735803 0.09069708 0.02785033
-0.096942492 0.092817284 0.027624816
-0.095114842 0.092046626 0.02727443
-0.093324341 0.091295548 0.026924342
-0.09468843 0.093647905 0.026759863
-0.092786066 0.092786066 0.025826991
-0.091046348 0.092069343 0.026107967
-0.0918345 0.093921654 0.025996774
-0.089322373 0.092402458 0.025135905
-0.08840929 0.092521355 0.025199741
-0.088171512 0.093358077 0.024728894
-0.087166443 0.093392618 0.024692774
-0.084969662 0.09213578 0.024501801
-0.08581277 0.094184749 0.02403757
-0.083326198 0.09258467 0.023884028
-0.083708704 0.094172299 0.023260891
-0.082197025 0.09364219 0.023165613
-0.080244996 0.092590384 0.022646546
-0.080264419 0.093815558 0.022326797
-0.079243526 0.093841024 0.022182763
-0.077848613 0.093418337 0.021479845
-0.077818334 0.094643921 0.021202385
-0.07588432 0.093556009 0.020696402
-0.074525967 0.093157463 0.020614445
-0.074927889 0.094979025 0.020392418
-0.072572716 0.093307786 0.020305425
-0.072402604 0.094438188 0.019703746
-0.071361631 0.094449222 0.019222051
-0.069549046 0.093424097 0.01935181
-0.06850253 0.093412548 0.019239783
-0.068307526 0.094579652 0.019163907
-0.066221029 0.093123324 0.01909855
-0.066162385 0.094517693 0.018591642
-0.064876929 0.094176181 0.01854381
-0.063713379 0.094003357 0.018465936
-0.063051216 0.094576828 0.018261969
-0.061636243 0.094021387 0.017901957
-0.060325257 0.093608156 0.017720997
-0.060141332 0.094960004 0.017481416
-0.058293737 0.093686372 0.016769409
-0.057307016 0.093775123 0.016543567
-0.057318084 0.095530137 0.016010106
-0.055345558 0.093983032 0.016037494
-0.054136932 0.093698546 0.015757978
-0.054313127 0.095846698 0.015694559
-0.052463785 0.094434813 0.015535325
-0.050914235 0.093515955 0.01586771
-0.051020961 0.095664307 0.01537472
-0.049646959 0.095068648 0.01478532
-0.048383642 0.09466365 0.014692098
-0.047732987 0.095465973 0.014585942
-0.046294082 0.094692446 0.014865994
-0.045869183 0.096005276 0.015026063
-0.044928003 0.096274294 0.014746279
-0.04325014 0.094939336 0.014326125
-0.042901605 0.09652862 0.013495594
-0.041169014 0.095005423 0.013112247
-0.040106751 0.094989672 0.012137473
-0.0396058 0.096338436 0.012003303
-0.038230065 0.095575176 0.011249483
-0.037233997 0.095744573 0.011074275
-0.036179557 0.095769428 0.01095432
-0.03480345 0.094918504 0.010611504
-0.034400556 0.096751571 0.010244459
-0.033162571 0.096278429 0.01013428
-0.031952649 0.095857956 0.010033071
-0.031538278 0.097877413 0.0097636878
-0.029880906 0.09604577 0.0095491111
-0.028760726 0.095869087 0.0089806318
-0.027702948 0.095894828 0.0085915923
-0.026844848 0.096641451 0.0081797242
-0.025605187 0.096019454 0.0078350604
-0.024793083 0.097016416 0.007253021
-0.023659479 0.096788779 0.00668782
-0.022472147 0.096309207 0.0064955652
-0.021884745 0.098481365 0.0063379407
-0.020237414 0.095861435 0.0055935979
-0.019234298 0.096171498 0.0053182244
-0.018489942 0.097887933 0.0052070022
-0.017034981 0.095821775 0.0046046972
-0.016274953 0.097649723 0.0045676827
-0.11641929 0.098094031 0.0086004138
-0.1074877 0.091414772 0.024917334
-0.1081694 0.092862412 0.026164085
-0.10815545 0.093734726 0.027195811
-0.10503609 0.091906585 0.027620286
-0.10707394 0.094599307 0.028120875
-0.10405298 0.092831589 0.02857092
-0.1027649 0.092590161 0.028374165
-0.10298895 0.093719944 0.028088719
-0.10116344 0.092988618 0.028320581
-0.10019702 0.093040094 0.028543979
-0.10029538 0.09409155 0.028273195
-0.09759248 0.092509545 0.028268933
-0.098592371 0.094441116 0.027894288
-0.09694197 0.093848079 0.027637452
-0.094478384 0.092446588 0.027405053
-0.095262058 0.094226606 0.027070105
-0.093979627 0.093979627 0.026765674
-0.091766268 0.092785895 0.025826991
-0.092183799 0.094255351 0.025934368
-0.090196267 0.093271144 0.02569896
-0.089261211 0.093365178 0.025096446
-0.089734949 0.094952106 0.025141686
-0.087438174 0.093610279 0.024879187
-0.086216263 0.093400955 0.024593651
-0.086188175 0.094495468 0.024325281
-0.083989903 0.093208313 0.023882359
-0.083831124 0.094180651 0.023616552
-0.083067752 0.094489574 0.023066908
-0.081720836 0.094134137 0.022868305
-0.081000634 0.094500743 0.02259177
-0.080398187 0.09501604 0.022182763
-0.078393675 0.093866117 0.021684527
-0.078913495 0.095748372 0.021143913
-0.077513665 0.095320858 0.020982295
-0.074968748 0.09345419 0.020772517
-0.075296625 0.095166571 0.020519584
-0.074235708 0.095147178 0.02023685
-0.073117353 0.095052563 0.020266265
-0.07277739 0.095981784 0.019989759
-0.070518576 0.094370447 0.019593209
-0.069756366 0.094743721 0.019496381
-0.069512665 0.095843226 0.019354165
-0.067905247 0.095067345 0.019402146
-0.067299135 0.095690958 0.019542634
-0.066283114 0.095742278 0.019396365
-0.064015411 0.093958102 0.019033045
-0.064228721 0.09581662 0.018747151
-0.062908582 0.095411345 0.018432319
-0.061100286 0.094239421 0.018236011
-0.061297312 0.096173368 0.017878443
-0.05972692 0.095353507 0.017632157
-0.058431201 0.094950706 0.016830146
-0.05822638 0.09633819 0.016838551
-0.056406032 0.095054612 0.016019672
-0.055588171 0.095443845 0.015912294
-0.055629596 0.097351797 0.015802473
-0.053131867 0.094803922 0.015667945
-0.05292879 0.096330397 0.015563875
-0.052336529 0.097196415 0.015719861
-0.050279576 0.0953217 0.015435606
-0.049626153 0.096084684 0.01466915
-0.048768349 0.096476518 0.014558971
-0.047218252 0.095485792 0.014127612
-0.047002994 0.097210743 0.014483184
-0.04558542 0.096471474 0.014470994
-0.044061944 0.095467545 0.014090091
-0.043782573 0.097175956 0.013896793
-0.042256217 0.096132897 0.013381541
-0.041091666 0.095880553 0.012856364
-0.040593795 0.097211458 0.012035906
-0.039604384 0.097405382 0.011831105
-0.037990037 0.096030384 0.011062115
-0.037749063 0.098147564 0.010963529
-0.036138069 0.096722484 0.010787159
-0.03463817 0.095517382 0.010440707
-0.034052115 0.096835703 0.0099924505
-0.032981262 0.096815959 0.0098336935
-0.032503035 0.098592542 0.009778887
-0.031304684 0.098231941 0.0097424984
-0.029300196 0.09522564 0.0094617605
-0.029059287 0.097940557 0.0091768503
-0.027964264 0.097874925 0.0085793734
-0.026456578 0.096301943 0.0084483624
-0.025864966 0.098071337 0.0078226626
-0.024708791 0.097760864 0.0072838962
-0.023571029 0.09749835 0.007013917
-0.02250997 0.09754321 0.0067369342
-0.021245886 0.096668787 0.0066485107
-0.020466911 0.098025732 0.0062783659
-0.019522272 0.098695941 0.0054400861
-0.018220471 0.097533114 0.0053814948
-0.017368989 0.098786131 0.0048540831
-0.016248386 0.098573543 0.0045107901
-0.11591327 0.098740935 0.0068520606
-0.10972184 0.094340272 0.024917334
-0.10880348 0.094433218 0.026164085
-0.10678856 0.093567125 0.027190357
-0.10754053 0.095132008 0.027557552
-0.10485235 0.093654528 0.028038621
-0.10420562 0.093989387 0.02869153
-0.10367388 0.09443561 0.028497756
-0.10176987 0.09362828 0.028292179
-0.10012212 0.093042776 0.028543979
-0.10127272 0.095072359 0.028546989
-0.098583333 0.093501717 0.028474927
-0.098280996 0.094185963 0.028312504
-0.09799704 0.094902396 0.027905017
-0.095111445 0.0930878 0.027673751
-0.095534474 0.094507225 0.027490377
-0.095223449 0.095223449 0.02705884
-0.092315458 0.093329914 0.026713878
-0.092293344 0.094344303 0.026484907
-0.092156641 0.095263049 0.026257336
-0.090532899 0.094648033 0.025736809
-0.090529755 0.095732614 0.0249964
-0.088752903 0.094944969 0.024631947
-0.088020772 0.095269546 0.024449825
-0.086181082 0.094388805 0.024388939
-0.085534066 0.094808847 0.024181157
-0.084610216 0.094928533 0.023593903
-0.084198132 0.095632449 0.023378253
-0.081825078 0.094098844 0.023066908
-0.082434051 0.095999151 0.022938639
-0.080407172 0.09483923 0.022649795
-0.079245187 0.094682559 0.022031158
-0.080071069 0.096928135 0.022019923
-0.077995166 0.095674075 0.021379679
-0.076109685 0.09462285 0.021156907
-0.076539412 0.096460626 0.020950675
-0.074692234 0.095440082 0.02071631
-0.073518895 0.095263928 0.020737857
-0.073373988 0.096434385 0.020494461
-0.0713237 0.095098272 0.020286918
-0.071115136 0.0962146 0.020052761
-0.071251914 0.097838446 0.01983723
-0.068062484 0.094874986 0.019427061
-0.066823944 0.094581582 0.019162029
-0.068022504 0.097782351 0.019362748
-0.065607764 0.095808163 0.018971115
-0.06503059 0.096497007 0.018642604
-0.064481422 0.09725067 0.018551916
-0.062374149 0.095640361 0.018024683
-0.061761834 0.096306585 0.017774463
-0.061199818 0.097075574 0.017612219
-0.059510563 0.09605214 0.01756373
-0.058719862 0.096468352 0.016860634
-0.058017131 0.097046837 0.017030954
-0.056410905 0.096107468 0.016245276
-0.056536134 0.098138198 0.016087741
-0.054428812 0.09629713 0.015882701
-0.053951558 0.097324379 0.015716165
-0.05259667 0.096777871 0.015560597
-0.051663741 0.097001314 0.015945524
-0.051048711 0.097843371 0.015530169
-0.049438599 0.096773431 0.014591724
-0.047745224 0.095490448 0.014534205
-0.047692638 0.097504944 0.014325052
-0.046410996 0.097041175 0.014458179
-0.045088239 0.09646786 0.014350057
-0.045423683 0.099499494 0.013944149
-0.043766297 0.098207295 0.013623685
-0.042339932 0.097381853 0.01311934
-0.041265648 0.097344607 0.012128264
-0.040057022 0.096980155 0.011910945
-0.038912959 0.096756548 0.011425048
-0.038596097 0.098634474 0.011062115
-0.037390914 0.098284699 0.010850996
-0.03582862 0.096948035 0.010660648
-0.03540916 0.098716453 0.01042527
-0.033607163 0.096620597 0.0099525452
-0.033457574 0.099293441 0.0097331405
-0.03242502 0.099436723 0.0097503066
-0.030895827 0.098014347 0.0097186267
-0.030258778 0.099421702 0.0093668103
-0.028857851 0.09833046 0.0089380145
-0.027363194 0.09682361 0.0085356832
-0.026768485 0.098508023 0.0080671906
-0.025791164 0.098866135 0.0076603889
-0.024528926 0.098115705 0.0073957443
-0.023744943 0.099297039 0.0070420802
-0.022553854 0.098807365 0.0067831874
-0.021545382 0.099108763 0.0067136586
-0.020684769 0.10015783 0.0064702034
-0.019351397 0.098907143 0.0062251091
-0.018412458 0.099643886 0.0056189299
-0.017341517 0.09971372 0.0052059889
-0.015950961 0.097832561 0.0051147044
-0.015192323 0.099835269 0.0043654144
-0.013983975 0.098963514 0.0041945875
-0.10948713 0.095161706 0.024842381
-0.10714434 0.094003998 0.026667237
-0.10693294 0.094712034 0.027344316
-0.10505409 0.093942598 0.027842045
-0.10555179 0.09530405 0.028182149
-0.10513361 0.095857114 0.028958708
-0.10357946 0.09537515 0.02869153
-0.10235192 0.095187284 0.028380096
-0.10195078 0.095771939 0.028501153
-0.10018978 0.095078059 0.028550744
-0.098991849 0.094909713 0.028499693
-0.099012695 0.095918551 0.02832371
-0.096252926 0.094226554 0.028000981
-0.097472705 0.096435763 0.027645379
-0.095490001 0.095490001 0.027518213
-0.093622126 0.094639763 0.02705884
-0.094942436 0.097029082 0.026785225
-0.093163982 0.096269451 0.026587307
-0.091374792 0.09548153 0.026628166
-0.091609716 0.096814819 0.026168197
-0.089481361 0.095652491 0.025539249
-0.088846229 0.096077904 0.025236338
-0.088300735 0.096611395 0.024800241
-0.085422099 0.094574466 0.024665385
-0.085479312 0.095778026 0.02454865
-0.085114799 0.096532635 0.024010777
-0.083653368 0.096046463 0.023895234
-0.083815187 0.097435161 0.023319572
-0.082703739 0.097360104 0.023030132
-0.07987307 0.095233276 0.022720516
-0.080304421 0.096991055 0.022216946
-0.079815552 0.097669028 0.022199214
-0.077235125 0.095771551 0.021593124
-0.077505238 0.097405232 0.021199733
-0.076127335 0.096984133 0.021090955
-0.074711442 0.096502289 0.020972461
-0.074701346 0.097848244 0.020822614
-0.072150469 0.095857054 0.020672888
-0.071495801 0.096363902 0.020404696
-0.071471624 0.097747959 0.020101368
-0.07018096 0.097415358 0.019850791
-0.06876529 0.096896544 0.019458592
-0.069308557 0.099164553 0.019056827
-0.066198342 0.096194468 0.019335806
-0.066045992 0.097496457 0.018865705
-0.06423109 0.096346639 0.018582016
-0.064149372 0.097801507 0.018288136
-0.063102268 0.097808518 0.017909437
-0.062380709 0.098328918 0.017664045
-0.059881005 0.096016094 0.017398834
-0.060159221 0.098154522 0.017365932
-0.058539938 0.097218119 0.016838551
-0.058086235 0.098218538 0.016855508
-0.05710547 0.098348305 0.016245276
-0.055800088 0.09791337 0.016087741
-0.054295253 0.097104974 0.015980512
-0.053883329 0.098257832 0.015882701
-0.053089991 0.09874738 0.01587835
-0.051901653 0.098507226 0.016001672
-0.050596356 0.098030448 0.015964329
-0.049478386 0.097904041 0.015358925
-0.049044289 0.099154763 0.014670879
-0.047427677 0.098017201 0.014350057
-0.045816783 0.096840024 0.014483184
-0.045673359 0.098781914 0.014350057
-0.04461487 0.098790064 0.013944149
-0.043161001 0.097901784 0.013607025
-0.042335834 0.09843082 0.012813598
-0.041653659 0.099327959 0.012115091
-0.040066693 0.098057963 0.011762261
-0.039677497 0.099729925 0.011525959
-0.038146965 0.098546326 0.011163026
-0.037252489 0.098985188 0.010779113
-0.036352452 0.099434651 0.010513484
-0.035161287 0.099090904 0.010150999
-0.034100432 0.099104375 0.0098849237
-0.033305299 0.099915892 0.0097331405
-0.031838682 0.098699912 0.0097720325
-0.031078259 0.099664755 0.0095664263
-0.030061413 0.099846832 0.0093668103
-0.028720479 0.09892609 0.0091189444
-0.028203547 0.10088192 0.008576721
-0.026577491 0.098868266 0.0083104074
-0.025634767 0.099334724 0.0079690218
-0.024934217 0.10082097 0.0072755218
-0.023336615 0.098650239 0.0070356131
-0.022524074 0.099749468 0.0068889856
-0.021565624 0.10028015 0.0066540837
-0.020291314 0.099320643 0.006627202
-0.019321576 0.099828146 0.0062560439
-0.018450795 0.1009367 0.0057238042
-0.017045254 0.099075541 0.0051846802
-0.016258271 0.10080128 0.004971981
-0.015222224 0.10111906 0.0044950545
-0.013839719 0.099007219 0.0041746497
-0.10763559 0.094558366 0.025153905
-0.10903832 0.096694358 0.02659595
-0.10627349 0.095140077 0.027399331
-0.10648358 0.096244775 0.028006285
-0.1062796 0.096993037 0.028331757
-0.10460279 0.096398652 0.028970927
-0.10300138 0.095862672 0.028839469
-0.10448429 0.09821523 0.02858907
-0.10044629 0.095373243 0.028626949
-0.099899612 0.095822081 0.028571844
-0.10121503 0.098084673 0.028499782
-0.097212762 0.095187493 0.028342932
-0.097531892 0.096505247 0.028034449
-0.095865786 0.095865786 0.027714521
-0.094750516 0.095769338 0.027556568
-0.093913801 0.095955402 0.02705884
-0.093441993 0.096522495 0.026785046
-0.09218584 0.096282981 0.026587307
-0.092328101 0.097515076 0.026551247
-0.090314902 0.096472733 0.026331574
-0.089529909 0.096733466 0.025539249
-0.08954858 0.09787868 0.02513051
-0.087290362 0.096532866 0.024607509
-0.086573526 0.096879892 0.024570286
-0.086109914 0.097522072 0.024302572
-0.084883302 0.097305238 0.024193615
-0.083891794 0.097355917 0.0239003
-0.082358114 0.096770793 0.023302883
-0.081402406 0.096858554 0.02309671
-0.082127474 0.098974138 0.022797585
-0.079915524 0.097559214 0.022444278
-0.077630199 0.096016303 0.022241026
-0.077763066 0.097463042 0.021896899
-0.077161044 0.098015383 0.021518737
-0.074418299 0.095826298 0.021295458
-0.075475343 0.098537259 0.02112028
-0.073004156 0.096653387 0.020908028
-0.071972363 0.096648604 0.02059418
-0.072063155 0.098172992 0.020400167
-0.070282221 0.097154841 0.02001664
-0.070092067 0.09833812 0.019762576
-0.069420539 0.098871686 0.019443542
-0.067963958 0.098286338 0.019073308
-0.067097217 0.098549031 0.019257337
-0.065681271 0.098000623 0.018820167
-0.064603873 0.097947806 0.018678308
-0.064716317 0.099726781 0.018336207
-0.06293413 0.098596804 0.017979443
-0.06110581 0.097355016 0.017890036
-0.060973454 0.098819047 0.017293632
-0.060595717 0.09992978 0.017183959
-0.058709018 0.09854728 0.016783446
-0.058148466 0.099381015 0.016827077
-0.056035154 0.097542673 0.016239405
-0.055398382 0.098253742 0.016202807
-0.055172063 0.09973412 0.015980512
-0.053721745 0.099016547 0.015882701
-0.052153587 0.098048739 0.015750915
-0.051965725 0.09968935 0.016058654
-0.049974412 0.097866565 0.01610443
-0.050016776 0.10003355 0.015446663
-0.04899304 0.10011621 0.014715523
-0.04705919 0.098301411 0.014413536
-0.047183644 0.10080143 0.014442205
-0.045516323 0.099500805 0.014303595
-0.044297755 0.099142589 0.013693899
-0.044118106 0.10114883 0.013233393
-0.041899052 0.098462775 0.012678444
-0.041218262 0.099346578 0.011965483
-0.040664591 0.10059136 0.011762261
-0.039456643 0.1002412 0.011525959
-0.038055744 0.099367782 0.011249483
-0.03760875 0.10100636 0.010957628
-0.036370669 0.1005542 0.010522693
-0.035245419 0.10039604 0.010165393
-0.033899855 0.099580824 0.0098849237
-0.032841071 0.099582605 0.0098010302
-0.032414332 0.10156491 0.0097472072
-0.031385664 0.10173284 0.0094494522
-0.029311914 0.098404281 0.0092526376
-0.029632192 0.10316392 0.008975178
-0.02770281 0.10015631 0.0085984468
-0.026497649 0.099631153 0.0085030198
-0.025567995 0.10014132 0.0082568526
-0.024443358 0.099898942 0.0075055361
-0.023349805 0.09976735 0.0072917938
-0.022898795 0.10249937 0.0070860386
-0.021401927 0.10058907 0.0069582164
-0.020396138 0.10090721 0.006824851
-0.019448591 0.10156488 0.0063591301
-0.018225839 0.10077817 0.0060287714
-0.017377473 0.10209266 0.0052467585
-0.016315119 0.10224142 0.0054472685
-0.014977929 0.1005661 0.0046535134
-0.11116682 0.098699503 0.025151908
-0.10966314 0.098283008 0.026793033
-0.1064229 0.096287385 0.027675539
-0.10712145 0.097851321 0.028225154
-0.10496708 0.096814297 0.028661996
-0.10366672 0.096552327 0.029292434
-0.10345329 0.097307555 0.029259324
-0.10208298 0.096978828 0.028918594
-0.1003361 0.09628211 0.028638035
-0.10064982 0.097568706 0.028590679
-0.099576391 0.097523272 0.028615445
-0.09927424 0.09824013 0.028477609
-0.098457552 0.098457552 0.028152257
-0.095347308 0.096361645 0.02775082
-0.096971013 0.099056415 0.027521521
-0.094886422 0.097980544 0.027023286
-0.093603022 0.097717434 0.026751757
-0.093070261 0.098240823 0.026542723
-0.092216857 0.098433726 0.026510268
-0.090475909 0.097672865 0.026331574
-0.08951734 0.097748816 0.025532752
-0.08825212 0.097487807 0.025099188
-0.086868241 0.097088031 0.024710923
-0.08686883 0.098244503 0.024641216
-0.085117623 0.097423784 0.024302572
-0.084732689 0.098165914 0.024103343
-0.084200233 0.09875337 0.023696989
-0.082113415 0.097509682 0.02360028
-0.082278997 0.098943099 0.023327053
-0.081678525 0.099480256 0.02291429
-0.079845406 0.098510571 0.022533149
-0.079547882 0.099434853 0.022322476
-0.078149937 0.098989919 0.022172511
-0.075870588 0.097401425 0.02201435
-0.076394856 0.099417962 0.021379292
-0.074883223 0.098804258 0.021125287
-0.073769733 0.098705985 0.021146476
-0.073325157 0.099512711 0.020912558
-0.07168889 0.098702103 0.020448744
-0.071107633 0.099341549 0.020217448
-0.070591338 0.10009219 0.020204186
-0.068315692 0.098333187 0.019699216
-0.067725003 0.098982692 0.019073308
-0.067585811 0.10032268 0.0192644
-0.065988958 0.099507153 0.018993139
-0.065485083 0.10034005 0.018797785
-0.064169012 0.099935345 0.018564433
-0.062142391 0.098392121 0.017979443
-0.062731914 0.10100901 0.017890036
-0.061491977 0.10071962 0.017686576
-0.059205916 0.098676525 0.017204046
-0.059424032 0.10080863 0.01669839
-0.05787719 0.099969693 0.016700149
-0.056572907 0.099526405 0.016413987
-0.056393877 0.10108336 0.016216457
