ply
format ascii 1.0
comment PCL generated
element vertex 1289
property float x
property float y
property float z
element camera 0
property float view_px
property float view_py
property float view_pz
property float x_axisx
property float x_axisy
property float x_axisz
property float y_axisx
property float y_axisy
property float y_axisz
property float z_axisx
property float z_axisy
property float z_axisz
property float focal
property float scalex
property float scaley
property float centerx
property float centery
property int viewportx
property int viewporty
property float k1
property float k2
end_header
-0.050919987 0.063920841 0.010031104
-0.048687093 0.06244649 0.010031104
-0.04879107 0.063970506 0.0099447072
-0.046986111 0.063004106 0.010053605
-0.045891635 0.062967598 0.010023504
-0.045241635 0.063553728 0.0099447072
-0.044141103 0.063520119 0.0097487569
-0.042698059 0.062979639 0.0098475218
-0.042371195 0.064100012 0.0092532039
-0.040646244 0.063108645 0.0092796683
-0.03933667 0.062726043 0.0093926489
-0.039209947 0.064260751 0.0094269216
-0.037401211 0.063047759 0.0090494156
-0.036158323 0.062745325 0.0093343556
-0.035435304 0.06335403 0.0091810524
-0.034006525 0.062699534 0.0093822777
-0.033198114 0.063183509 0.0095661879
-0.03211873 0.063166834 0.009765178
-0.031360779 0.063802965 0.010836691
-0.030672178 0.064630657 0.011600405
-0.028393747 0.062045597 0.012230992
-0.027033506 0.061345264 0.012888998
-0.026330445 0.06213985 0.013196707
-0.025028091 0.061527394 0.013665557
-0.024048254 0.061688997 0.013349742
-0.022971379 0.061605062 0.012869149
-0.021942751 0.061648682 0.011823654
-0.021254739 0.062701479 0.011683643
-0.020190971 0.062698282 0.011035591
-0.019029567 0.062374692 0.010748178
-0.018106461 0.062840067 0.010884225
-0.017142426 0.0632127 0.010601908
-0.015830215 0.062265512 0.0116404
-0.014720473 0.062036276 0.012018174
-0.013594108 0.061696339 0.011811256
-0.012594228 0.061921623 0.011344314
-0.011597921 0.062207032 0.01090005
-0.01047067 0.061776955 0.010409147
-0.0094035249 0.061645333 0.008895576
-0.0088203829 0.065050319 0.0048859715
-0.11511105 0.06336388 0.010953724
-0.11461636 0.063675754 0.012952328
-0.11286382 0.063288115 0.014629841
-0.11054153 0.062570676 0.015383333
-0.11113371 0.063504979 0.015911669
-0.11014123 0.063543022 0.016218841
-0.10971876 0.063913845 0.01673606
-0.10756051 0.063270882 0.016549051
-0.10571137 0.062798835 0.016523451
-0.10591363 0.063548177 0.016524106
-0.10497843 0.063623294 0.015958577
-0.10275954 0.062914006 0.015826076
-0.10196166 0.063069068 0.015885025
-0.10241438 0.064008988 0.015826076
-0.099574402 0.062889099 0.015835881
-0.099115789 0.063265398 0.015515834
-0.098223887 0.06337025 0.01529935
-0.096462607 0.062910393 0.015224814
-0.096235797 0.063452177 0.014978528
-0.09671703 0.064478017 0.014947116
-0.09402027 0.063384458 0.014867872
-0.093286678 0.063604556 0.014496505
-0.09179163 0.063304573 0.014251292
-0.091025919 0.063506454 0.014174223
-0.090233207 0.06369403 0.014234751
-0.088764474 0.063403189 0.014398992
-0.087691866 0.063391708 0.014371604
-0.087738581 0.064198956 0.014532626
-0.086542472 0.064105533 0.01444459
-0.085438788 0.064079091 0.014274895
-0.084316783 0.064038061 0.014179677
-0.081777766 0.062905975 0.014342695
-0.083005816 0.064679854 0.014035463
-0.080748715 0.063748986 0.013920933
-0.079392716 0.063514173 0.013810188
-0.079224601 0.064236157 0.013491243
-0.077603176 0.06378343 0.0133515
-0.076038674 0.063365564 0.013356239
-0.076561965 0.064700253 0.01290974
-0.07354372 0.063037477 0.012703508
-0.073306404 0.063744694 0.012261242
-0.073130675 0.064527065 0.012244254
-0.071087688 0.063660614 0.012050182
-0.069893353 0.063539416 0.01201877
-0.069960274 0.064578719 0.011757493
-0.067469582 0.063252732 0.01139459
-0.067303888 0.064098939 0.011352777
-0.066256598 0.064119287 0.011175632
-0.064160727 0.063108914 0.010865152
-0.06431637 0.06431637 0.010756195
-0.062809281 0.063873842 0.010610282
-0.061832123 0.063964263 0.010731041
-0.061127342 0.06434457 0.010711789
-0.05932267 0.063560002 0.01049152
-0.058578506 0.063903823 0.010494143
-0.058390807 0.064878672 0.010064274
-0.056516685 0.063981153 0.010047942
-0.055368315 0.063886516 0.010047942
-0.054536998 0.064161174 0.0098821521
-0.053079948 0.06369593 0.0097303092
-0.052643981 0.064462021 0.0098455548
-0.051636424 0.064545535 0.0099495649
-0.049485665 0.06317319 0.0099563301
-0.049248382 0.064237021 0.0099853873
-0.048096616 0.064128816 0.0099447072
-0.046937563 0.06400577 0.010051012
-0.046187114 0.064447135 0.010023504
-0.045190085 0.064557262 0.0099099576
-0.04325692 0.063302808 0.0096545815
-0.043172348 0.064758524 0.0097487569
-0.041684091 0.064129375 0.0090991557
-0.040791284 0.064407289 0.0091485381
-0.040011257 0.064883113 0.0091048777
-0.038302768 0.063837953 0.0092875063
-0.037488636 0.064266235 0.0090029538
-0.036596771 0.064582534 0.009160161
-0.035216235 0.064029522 0.0092481971
-0.034627102 0.06492582 0.0093918741
-0.032889757 0.063657589 0.0096344054
-0.031798616 0.063597232 0.010700673
-0.031794213 0.065781131 0.01172629
-0.029930046 0.064135812 0.01303032
-0.027866872 0.06192638 0.013329208
-0.027228676 0.062835403 0.013586462
-0.026174953 0.062819883 0.014262795
-0.025071027 0.06267757 0.014888883
-0.024262467 0.06329339 0.013959736
-0.023273021 0.063471876 0.013588488
-0.022147248 0.063277848 0.012814462
-0.021536117 0.06460835 0.012268543
-0.020299233 0.064102843 0.011687428
-0.019137599 0.063791998 0.011391073
-0.018343648 0.064742289 0.011013567
-0.017051365 0.063942619 0.011450022
-0.016148059 0.064592235 0.011981517
-0.014920144 0.063943475 0.012470484
-0.013880634 0.064064465 0.012842178
-0.012627983 0.063139923 0.012470484
-0.011529388 0.062887572 0.012597054
-0.010490976 0.062945858 0.01172182
-0.0094288625 0.062859081 0.010359019
-0.0084139612 0.063104704 0.0072592795
-0.11655593 0.065228544 0.010852247
-0.11373395 0.064238615 0.012498915
-0.11222621 0.063979425 0.014607996
-0.11266664 0.064836457 0.015379667
-0.11076441 0.064348847 0.015992045
-0.10965981 0.0643197 0.016190141
-0.10981305 0.065034911 0.016581684
-0.10755294 0.064320877 0.016416401
-0.10607627 0.064065866 0.016377687
-0.10670184 0.065088123 0.016379654
-0.10455345 0.064421818 0.015980422
-0.10291313 0.06405817 0.015830159
-0.10335888 0.06499888 0.015891284
-0.099664666 0.063328594 0.015891284
-0.10181965 0.065378934 0.015764892
-0.099483937 0.06455873 0.01541549
-0.097244233 0.063783854 0.015512943
-0.098440349 0.06527023 0.015290618
-0.096239403 0.064512126 0.014969707
-0.093960986 0.063684665 0.015055031
-0.094422005 0.064716205 0.01458621
-0.092134155 0.063865721 0.014477283
-0.092030935 0.064527437 0.014388293
-0.092372961 0.065520354 0.014176637
-0.089760005 0.064416006 0.014000386
-0.089075103 0.064685486 0.014162421
-0.088479243 0.065026909 0.013828486
-0.08728113 0.064928643 0.014471322
-0.085822299 0.064631611 0.014374614
-0.084689327 0.064575613 0.014142692
-0.083221145 0.064259365 0.013906509
-0.083678432 0.065440819 0.013895303
-0.081489772 0.06455683 0.013778776
-0.079846419 0.064087257 0.013689101
-0.079497702 0.064658128 0.013682455
-0.079139218 0.065236382 0.013390869
-0.077345885 0.064631484 0.013042122
-0.076571181 0.064872809 0.01331687
-0.075354204 0.064740933 0.012840152
-0.073766798 0.064282492 0.012799293
-0.073813081 0.065255046 0.012401044
-0.072639532 0.065161929 0.012327284
-0.071046181 0.064683832 0.012244254
-0.071160004 0.065769099 0.012189239
-0.068751305 0.064520456 0.012020886
-0.068371199 0.065166302 0.011588901
-0.067485973 0.065343559 0.011481702
-0.065885417 0.064822741 0.011743009
-0.065475568 0.065475568 0.011091799
-0.063824438 0.064888179 0.010964066
-0.062955469 0.065089554 0.010718435
-0.062432673 0.065661944 0.010816187
-0.061040543 0.06532409 0.010718435
-0.059521843 0.064836293 0.010668933
-0.059181422 0.065637574 0.01045087
-0.057843693 0.065341949 0.010064274
-0.056835096 0.065413982 0.010025352
-0.056383453 0.066142127 0.010025352
-0.05458121 0.065283403 0.0098869503
-0.053530235 0.065306887 0.0098469257
-0.052454736 0.065300792 0.0097380877
-0.050968256 0.064772159 0.0100528
-0.050264031 0.065236293 0.0099446177
-0.049415007 0.065528594 0.0098958313
-0.048092533 0.065192096 0.0094640553
-0.047289561 0.065560527 0.009919405
-0.046489839 0.065950699 0.0093652904
-0.04491923 0.065239832 0.0093178451
-0.043968912 0.065417156 0.0088375509
-0.043187741 0.065861307 0.0088467598
-0.041500345 0.064910792 0.0086809099
-0.040847037 0.065570243 0.008618772
-0.039274752 0.064750262 0.0088044107
-0.038813967 0.065768115 0.0086582899
-0.037458066 0.065284058 0.0087726414
-0.036321927 0.06516581 0.0090272427
-0.035457078 0.065541878 0.0092481971
-0.034245186 0.065279886 0.0095661879
-0.032903753 0.064746097 0.01004687
-0.0325137 0.066111192 0.011387676
-0.031459954 0.066174388 0.012297422
-0.029107457 0.063412674 0.013546586
-0.028163537 0.063628726 0.014438182
-0.027195193 0.063804105 0.01491937
-0.026051005 0.06356445 0.01499328
-0.025301524 0.06430804 0.01515609
-0.024281215 0.064398006 0.014654607
-0.0234154 0.064924516 0.013909757
-0.022767367 0.066133782 0.013559431
-0.021309031 0.064992547 0.012727618
-0.020185351 0.064805597 0.01225403
-0.019362504 0.065617375 0.011687756
-0.018152591 0.06513577 0.011502534
-0.017206974 0.065601587 0.011838108
-0.016068911 0.065346904 0.012565851
-0.014901143 0.064926408 0.013557732
-0.013863761 0.065053031 0.014185578
-0.012800463 0.06506902 0.014029562
-0.01153242 0.063952513 0.013652593
-0.010588338 0.06458886 0.01299715
-0.0094882939 0.064309552 0.011991858
-0.0083655324 0.063787185 0.01059708
-0.007615075 0.066359937 0.0047971904
-0.11654049 0.06628909 0.010438591
-0.11346773 0.065138884 0.012263089
-0.11242993 0.065146312 0.014114887
-0.11194121 0.065475054 0.015357792
-0.10977007 0.064816616 0.015755922
-0.11113856 0.066255681 0.016165346
-0.10847516 0.065295726 0.016581684
-0.1071097 0.0651059 0.016561896
-0.10677687 0.0655462 0.016386718
-0.10523676 0.065246791 0.016591579
-0.10471923 0.065581739 0.016308993
-0.10415649 0.065894924 0.01589191
-0.10134986 0.064780325 0.016041547
-0.10258418 0.066252284 0.016223729
-0.10017844 0.065379612 0.015904963
-0.098957457 0.065269813 0.015899748
-0.098465711 0.06564381 0.015890926
-0.098043025 0.066072479 0.015524656
-0.094765916 0.064565793 0.015430689
-0.095399044 0.065719344 0.01529935
-0.094922438 0.066125751 0.014920563
-0.093173698 0.065645106 0.014969707
-0.093125463 0.066365272 0.014686823
-0.090388253 0.065163627 0.014484346
-0.089692645 0.06542287 0.014301777
-0.091114618 0.067251265 0.01398319
-0.088780515 0.066317976 0.013861448
-0.08725933 0.065976568 0.014422804
-0.086571418 0.066264547 0.014325857
-0.08443173 0.065434597 0.014119118
-0.084373079 0.066216849 0.013906181
-0.083052792 0.066016324 0.013906509
-0.081619777 0.065719821 0.013810188
-0.081658296 0.066615976 0.013765156
-0.07930889 0.065562017 0.013738185
-0.077513866 0.064944051 0.013448447
-0.078222491 0.066435538 0.013042122
-0.075936779 0.065390013 0.013271183
-0.07603468 0.06639649 0.012939453
-0.074704148 0.066166535 0.01276958
-0.07320416 0.065777652 0.012289107
-0.072495818 0.06609913 0.012355149
-0.072031893 0.066656381 0.012050182
-0.070117392 0.065867856 0.012020886
-0.068803489 0.06562794 0.011785626
-0.068666115 0.066520303 0.011381984
-0.066831075 0.065770268 0.011481702
-0.066636734 0.066636734 0.011843145
-0.065069892 0.066136613 0.011191934
-0.063740194 0.065864868 0.011106074
-0.063277088 0.066494569 0.010772467
-0.061953049 0.066225678 0.010847062
-0.060657561 0.065978408 0.010785073
-0.06013833 0.066581726 0.010712415
-0.058709707 0.066181853 0.010690123
-0.057448231 0.065959081 0.01033777
-0.057323933 0.067058191 0.010111064
-0.055517316 0.066193722 0.010100722
-0.054204307 0.065895438 0.0099791586
-0.053941015 0.066886857 0.009913981
-0.052414805 0.066320777 0.0099595785
-0.051699016 0.0667779 0.0099495649
-0.050588612 0.066733919 0.0099563301
-0.048878931 0.065880299 0.0098743439
-0.04862985 0.067001127 0.0096891224
-0.047385354 0.06677027 0.0097273886
-0.045910902 0.06619712 0.0095776916
-0.045078751 0.066544823 0.0090776086
-0.043805096 0.066241853 0.008648634
-0.042404145 0.065726429 0.008648634
-0.042266183 0.067192398 0.0082497001
-0.040624384 0.066281892 0.008491993
-0.039524335 0.066229969 0.0087623298
-0.038818955 0.066854872 0.00887236
-0.037336949 0.066139743 0.0087365806
-0.036439043 0.066447668 0.0092081428
-0.035348725 0.066412754 0.0093230307
-0.033744171 0.065379336 0.0096673965
-0.033366412 0.066732824 0.010646522
-0.032649387 0.067475401 0.011998802
-0.030418117 0.065031834 0.013019472
-0.029248063 0.064763568 0.013664156
-0.028170865 0.064688653 0.014267802
-0.02710529 0.064635694 0.01491937
-0.02599014 0.064455546 0.014775425
-0.025344027 0.065472074 0.014211595
-0.024546092 0.066167727 0.013965487
-0.023752116 0.066937782 0.012932599
-0.022429023 0.066219024 0.012249917
-0.021226425 0.065801919 0.011467934
-0.020400794 0.066571012 0.011042982
-0.019344414 0.066630766 0.01106599
-0.018195938 0.066361658 0.010997295
-0.017084923 0.066204078 0.011189342
-0.015917467 0.065792195 0.012018174
-0.014933493 0.066134043 0.013072759
-0.013914932 0.066363521 0.013559669
-0.012591843 0.065057859 0.01360935
-0.011775234 0.066369504 0.013975292
-0.010553644 0.065432593 0.013650656
-0.0094202161 0.064894825 0.012766957
-0.0083985394 0.065088682 0.011566848
-0.0072938111 0.06460233 0.0086047947
-0.11553542 0.066777356 0.010207057
-0.11428217 0.066664599 0.012132764
-0.11327469 0.066694438 0.014086187
-0.11044977 0.065644674 0.015323907
-0.11134094 0.066804565 0.015721858
-0.10994603 0.066601925 0.016213775
-0.10893536 0.066630363 0.016496509
-0.10859051 0.067070611 0.016284168
-0.10506808 0.06553752 0.016220391
-0.10583049 0.066673204 0.016220391
-0.10518549 0.066936225 0.01585722
-0.10276499 0.06606321 0.01573059
-0.10180197 0.066118807 0.015761822
-0.10114617 0.066377178 0.015613347
-0.098994635 0.065649077 0.015845418
-0.099191919 0.06647969 0.015554845
-0.099210754 0.067207284 0.015515834
-0.095592014 0.065459751 0.015224814
-0.095458843 0.066086888 0.01522404
-0.094983369 0.066488355 0.01513803
-0.092934966 0.06578543 0.014949232
-0.094196416 0.067436077 0.014665455
-0.091877289 0.06653183 0.014549196
-0.090517431 0.066309281 0.014363378
-0.090376414 0.06698487 0.014343888
-0.089089759 0.066817313 0.014130563
-0.088312156 0.067032114 0.014132142
-0.087653376 0.067343451 0.014389545
-0.085721597 0.066672362 0.014499277
-0.085332036 0.067198977 0.014490843
-0.084748417 0.067584179 0.014225006
-0.081781268 0.066054098 0.014433116
-0.082578458 0.067564197 0.014384031
-0.080669902 0.066871099 0.014321327
-0.079199694 0.066527739 0.014361739
-0.079427667 0.067620851 0.013828814
-0.077470958 0.0668585 0.013691127
-0.076147825 0.06662935 0.013810188
-0.075585335 0.067068681 0.013266236
-0.074107304 0.066696577 0.013019323
-0.073361412 0.066982158 0.012597293
-0.073030405 0.067660518 0.012778312
-0.070989884 0.066751681 0.012598783
-0.069899105 0.066721871 0.012290269
-0.069717266 0.067572124 0.011785775
-0.067292668 0.06624122 0.011417389
-0.067938574 0.067938574 0.011519939
-0.065810874 0.066872336 0.011795878
-0.064035602 0.066135131 0.011281878
-0.063723572 0.066909745 0.011233807
-0.063235879 0.067523055 0.010886103
-0.061245181 0.066524938 0.010865688
-0.060947664 0.06736321 0.010785073
-0.059765004 0.067235626 0.010702431
-0.0585039 0.067013562 0.010747552
-0.057916764 0.067569554 0.01014179
-0.056675702 0.06736923 0.01010251
-0.055564839 0.067318939 0.010053426
-0.055031262 0.067979798 0.0097589493
-0.053239278 0.067081489 0.0099302232
-0.052726209 0.067790844 0.0098705888
-0.051722649 0.06788598 0.0098938942
-0.050052162 0.067091197 0.0098310411
-0.049548786 0.067860298 0.0097433925
-0.048215535 0.067501746 0.0092236698
-0.046914324 0.067172781 0.0096621513
-0.046241291 0.067748867 0.0091122389
-0.045021486 0.067532226 0.0089196265
-0.043655887 0.067080997 0.0087618828
-0.042776551 0.067373075 0.0086966753
-0.041525356 0.067079417 0.0084298551
-0.04102378 0.068013109 0.0085944235
-0.040064234 0.068217479 0.0087177157
-0.038501892 0.06737832 0.0088571906
-0.037581161 0.067646094 0.00873667
-0.036702789 0.06800811 0.0089828074
-0.035133261 0.067072593 0.0092807114
-0.034480758 0.067883998 0.010154992
-0.03357159 0.068226129 0.011149704
-0.031878341 0.066944517 0.012722403
-0.030188791 0.065582551 0.013598055
-0.0293009 0.065927029 0.01450628
-0.027986547 0.06530194 0.015074074
-0.027157513 0.065804742 0.015030563
-0.026631055 0.067110255 0.014775425
-0.025667746 0.067377836 0.014173985
-0.024805091 0.067944378 0.013429254
-0.023426846 0.067085966 0.012745976
-0.022476077 0.067428231 0.011663049
-0.021563668 0.067925557 0.010939181
-0.020243278 0.067122445 0.010997295
-0.019067355 0.066735744 0.01087445
-0.018258581 0.067664154 0.010780722
-0.017052418 0.067143895 0.010884225
-0.016080245 0.067537032 0.011349589
-0.01495056 0.067277521 0.01226458
-0.013669366 0.06624385 0.01299715
-0.012901327 0.067731969 0.013245702
-0.011685971 0.066928744 0.013652593
-0.010435817 0.065745652 0.013650656
-0.0094762417 0.066333696 0.012761593
-0.0083958199 0.066117086 0.012021452
-0.0073159044 0.065843143 0.010740399
-0.11723652 0.068836123 0.0093426704
-0.11456131 0.067888185 0.012121975
-0.10995734 0.065768875 0.014232844
-0.11184838 0.067531101 0.015322447
-0.11191867 0.068217091 0.015634805
-0.10987578 0.067615867 0.016078293
-0.11057264 0.068705335 0.016345501
-0.10678221 0.067000598 0.016219705
-0.10523043 0.066680662 0.016096711
-0.10652257 0.068174444 0.016017139
-0.10539028 0.068131089 0.015982419
-0.10252669 0.066956207 0.015663385
-0.10346296 0.068264224 0.015708745
-0.10051855 0.067012362 0.015900463
-0.10231632 0.06892889 0.015711695
-0.099348456 0.067641504 0.015525371
-0.096996725 0.06675043 0.015429974
-0.097571678 0.067875952 0.015224814
-0.097604781 0.06864512 0.015215218
-0.094689138 0.067334495 0.015043348
-0.094392307 0.06787762 0.014837414
-0.092271738 0.067106724 0.014566362
-0.091592342 0.067378275 0.014506429
-0.091051206 0.067759037 0.014264286
-0.089125782 0.06710647 0.014185965
-0.088705085 0.067584828 0.014169484
-0.088622048 0.068335071 0.013866097
-0.087974042 0.068662666 0.014014721
-0.085546233 0.067592092 0.014288545
-0.084638678 0.067710944 0.01413551
-0.083932489 0.067995943 0.014161348
-0.082917489 0.068034865 0.014370739
-0.082319885 0.068421721 0.014139116
-0.080446348 0.067744292 0.014126211
-0.080901764 0.069036171 0.014139116
-0.079875663 0.069081649 0.013709754
-0.077294841 0.06776534 0.013691127
-0.07736557 0.068769403 0.013760895
-0.075249575 0.0678306 0.013216943
-0.074449085 0.068067729 0.012928188
-0.074214339 0.068836488 0.012454361
-0.071928866 0.067697756 0.012626648
-0.071229801 0.068040408 0.012352198
-0.070598342 0.068458997 0.012189239
-0.068674676 0.067618147 0.011918366
-0.069200814 0.069200814 0.011485845
-0.068373919 0.069459222 0.011181742
-0.065605178 0.067721471 0.011615276
-0.065754659 0.068988495 0.011110693
-0.063996039 0.068262443 0.011162758
-0.062508851 0.067806214 0.010829419
-0.062376555 0.068829305 0.010712415
-0.061091058 0.068593472 0.010743648
-0.059184529 0.067639463 0.010715038
-0.059000134 0.068654701 0.010392159
-0.057478994 0.068123251 0.010055214
-0.056226984 0.067896739 0.010016978
-0.056860387 0.069982015 0.0099791586
-0.054434478 0.068309933 0.0095382929
-0.053311605 0.068238847 0.0098469257
-0.052424915 0.068473361 0.0096042752
-0.051088732 0.068118311 0.0097680986
-0.050651465 0.068972208 0.0098348558
-0.049485818 0.068849832 0.009232074
-0.047432322 0.0674593 0.0090087056
-0.04773917 0.069438793 0.0092056394
-0.046305981 0.06892053 0.0088875592
-0.044800505 0.068267435 0.0089145303
-0.044678077 0.069741383 0.0088122785
-0.042848837 0.068558142 0.0086158812
-0.041507095 0.068114206 0.0082656145
-0.041064989 0.069162086 0.0080795288
-0.039862502 0.068951353 0.0084038675
-0.038491424 0.068429202 0.008777678
-0.037636008 0.068820134 0.0087483525
-0.036248051 0.068231627 0.0089503527
-0.035218772 0.068303078 0.0094758868
-0.034386825 0.06877365 0.010232002
-0.033551227 0.069267049 0.011739641
-0.03146797 0.067131668 0.013069868
-0.030232901 0.066720881 0.014114141
-0.028880922 0.066013537 0.015196919
-0.028254759 0.066974245 0.015135735
-0.027554791 0.06782718 0.015037835
-0.026182087 0.067026146 0.014211595
-0.025852583 0.068940222 0.013360053
-0.024495497 0.068161383 0.012868613
-0.023440292 0.068189941 0.011509031
-0.02244846 0.068414353 0.010885984
-0.021343661 0.068299718 0.010689408
-0.020102903 0.067715041 0.010721207
-0.019435689 0.069104679 0.010480195
-0.018127782 0.068245769 0.010487586
-0.017158454 0.068633817 0.010694146
-0.016034318 0.068413094 0.011021644
-0.014844532 0.067860723 0.011857182
-0.013959017 0.068721317 0.01268217
-0.01281834 0.068364486 0.013072759
-0.011545728 0.067175142 0.013685822
-0.010612355 0.067919075 0.01338312
-0.0095294602 0.067765057 0.012956381
-0.0083718644 0.066974916 0.01254037
-0.0073417285 0.067124374 0.011843562
-0.0062881028 0.067073099 0.0071126521
-0.1169465 0.069738738 0.0082783699
-0.11276066 0.067865208 0.012121975
-0.11453082 0.069574796 0.014378011
-0.11178875 0.068549708 0.015360057
-0.10883093 0.067371532 0.015721858
-0.11042339 0.069014616 0.016154557
-0.10872339 0.068611845 0.016326934
-0.10725474 0.068348609 0.016288042
-0.10838252 0.069751129 0.016123235
-0.10482946 0.068139143 0.016147971
-0.10374788 0.068117291 0.015985072
-0.10420853 0.069117904 0.015708745
-0.10273184 0.068840921 0.015810341
-0.10229715 0.069263697 0.015900463
-0.099082895 0.067793563 0.015525371
-0.097906068 0.067701004 0.015546024
-0.098793581 0.069049276 0.0153853
-0.098032005 0.069261737 0.01509428
-0.095500201 0.068214424 0.015084684
-0.096076131 0.069388315 0.014842451
-0.094723158 0.069179833 0.014811873
-0.092801288 0.068546407 0.014566362
-0.09330371 0.069709674 0.014204472
-0.0900499 0.068060972 0.014122576
-0.089733124 0.068619445 0.014086872
-0.089602351 0.069335148 0.013988703
-0.086552791 0.067782305 0.013849378
-0.086692832 0.068719923 0.013785005
-0.086326607 0.06927444 0.013745755
-0.083940625 0.068201765 0.013977349
-0.08396139 0.069082156 0.014137566
-0.082757011 0.068964176 0.014000505
-0.081041187 0.068411388 0.013787121
-0.081449851 0.069661051 0.014000505
-0.079628229 0.069011129 0.013842523
-0.077628352 0.068187058 0.013663113
-0.077663243 0.069152199 0.0136334
-0.076696128 0.069239564 0.01361382
-0.075561829 0.069176324 0.013085246
-0.075516693 0.070122644 0.012799293
-0.073616959 0.069349304 0.012355149
-0.07204669 0.06886816 0.012508363
-0.071930625 0.069783434 0.012379408
-0.070002832 0.068942182 0.012321681
-0.069138944 0.069138944 0.012565613
-0.067614339 0.068670817 0.011813492
-0.066294491 0.068399079 0.011653006
-0.066343531 0.069553703 0.012105316
-0.065166675 0.069439903 0.011519939
-0.063714236 0.069023758 0.011927873
-0.063387893 0.069834121 0.011187911
-0.06194479 0.069420882 0.011074275
-0.060571544 0.069072813 0.011033475
-0.060727566 0.07048735 0.010744274
-0.058327902 0.068932973 0.010392159
-0.057321507 0.068998106 0.010072827
-0.056939065 0.069830932 0.0099895298
-0.05522421 0.069030263 0.0099895298
-0.054931156 0.070010297 0.009637922
-0.053667292 0.069767475 0.0097175241
-0.052659336 0.069854222 0.0096042752
-0.051809106 0.070158169 0.0096155703
-0.050255302 0.069502011 0.0097395778
-0.048627608 0.06871292 0.0094522834
-0.048934802 0.070683599 0.0089553893
-0.047299404 0.069874115 0.0090541244
-0.045896813 0.069378905 0.0086809099
-0.04530859 0.070120439 0.0085361898
-0.044127945 0.069958933 0.0083098114
-0.042726755 0.069430977 0.008376807
-0.041932531 0.069887556 0.0080380738
-0.040693775 0.069607772 0.0080704987
-0.039707255 0.069755986 0.0080704987
-0.038897268 0.070231184 0.0083007813
-0.03768849 0.069992915 0.0084871054
-0.036221676 0.06924732 0.00887236
-0.035897885 0.070707962 0.0092766285
-0.034287002 0.069645472 0.010249823
-0.03289631 0.068976127 0.011962444
-0.031435866 0.068111047 0.013264954
-0.030107921 0.067483269 0.013813555
-0.029400891 0.068252072 0.015183568
-0.028104264 0.067658417 0.015078813
-0.027322259 0.068305649 0.01494509
-0.026817616 0.069725804 0.014199764
-0.025443047 0.068908252 0.013269037
-0.024326971 0.068750136 0.012561768
-0.023542171 0.069556415 0.010846376
-0.022360146 0.069209971 0.010725379
-0.021389399 0.069515549 0.010348827
-0.020500533 0.070133403 0.010406941
-0.018994074 0.06858971 0.010224253
-0.018075695 0.069112949 0.010191619
-0.017215231 0.069936879 0.010382742
-0.015903529 0.068915293 0.01086545
-0.014954918 0.069433548 0.011455327
-0.013824507 0.069122531 0.012146831
-0.012785876 0.069256835 0.012625456
-0.011655026 0.068870611 0.013685822
-0.010613002 0.068984516 0.01338312
-0.0094813118 0.06847614 0.013117224
-0.0084600421 0.068737842 0.012566268
-0.0073312633 0.068076015 0.012071013
-0.0062444704 0.067648426 0.011405945
-0.1176503 0.071237795 0.0067301989
-0.11529289 0.070456766 0.011982828
-0.11143205 0.068733782 0.014203012
-0.10959379 0.06823764 0.015360057
-0.11055759 0.069493346 0.015964746
-0.10892148 0.069123246 0.016270816
-0.10897697 0.069829896 0.016350806
-0.10788701 0.069809243 0.016232967
-0.10656709 0.069637902 0.016123235
-0.10405409 0.068675697 0.016147971
-0.10519007 0.070126712 0.016084135
-0.10305178 0.069402218 0.015671223
-0.10184745 0.069298267 0.015888274
-0.10171339 0.069927953 0.015555561
-0.098405533 0.068365946 0.01531896
-0.098805569 0.069374122 0.015233636
-0.098434411 0.069856681 0.015215218
-0.096445709 0.06918931 0.0150069
-0.097034454 0.070376635 0.0150069
-0.095585056 0.070095703 0.014910966
-0.092992656 0.068960845 0.014870346
-0.094054237 0.070540674 0.014506429
-0.091241591 0.069217756 0.014400601
-0.091093615 0.069909051 0.014344275
-0.09081497 0.070515156 0.014233261
-0.08908315 0.069993906 0.014473647
-0.087351322 0.069460079 0.013988703
-0.087264061 0.070236921 0.013845146
-0.08545246 0.069627933 0.013808101
-0.085041672 0.070159383 0.014060974
-0.084852837 0.070889711 0.013952583
-0.0815363 0.06899225 0.014136702
-0.082161441 0.070424095 0.014057428
-0.081535324 0.070806995 0.014125615
-0.079002999 0.069522642 0.014000505
-0.079538591 0.070939817 0.013634264
-0.077347986 0.069931053 0.013492435
-0.076359414 0.069996133 0.01361382
-0.076559223 0.07116773 0.012809306
-0.074375279 0.070125259 0.01276958
-0.073142372 0.069962271 0.012376189
-0.072950765 0.070805147 0.012454361
-0.0710954 0.070034266 0.012379408
-0.070351876 0.070351876 0.012321681
-0.069722153 0.070794798 0.012526035
-0.067219131 0.069319725 0.011964828
-0.067489654 0.070703439 0.011696398
-0.06643568 0.07072185 0.012085646
-0.064789258 0.070099853 0.011627376
-0.064207159 0.070627876 0.011956722
-0.063405298 0.070927963 0.011187911
-0.061530262 0.070017189 0.011361241
-0.06143418 0.071134314 0.011201322
-0.059739303 0.070407033 0.010747701
-0.058836251 0.070603497 0.01052323
-0.058249053 0.071193278 0.010306329
-0.056660648 0.070558548 0.0099864006
-0.055174626 0.070029333 0.0099623799
-0.05442556 0.070433073 0.0097996294
-0.052795358 0.06968987 0.0098688602
-0.052407444 0.070589617 0.0098348558
-0.051433142 0.070720568 0.0097729266
-0.050128806 0.070393637 0.0097341835
-0.04976064 0.071395695 0.0096244216
-0.048051797 0.070475966 0.0094159544
-0.04670706 0.070060588 0.0091201961
-0.046344351 0.071133189 0.0086371303
-0.045265589 0.071131639 0.008572191
-0.043418467 0.069893137 0.00841555
-0.043085877 0.071091697 0.0081582963
-0.042065445 0.071187675 0.0079539418
-0.040240668 0.069891684 0.0079644024
-0.040108316 0.071544558 0.0078802705
-0.03829509 0.07020767 0.0079644024
-0.037713438 0.071116768 0.0083789527
-0.036827002 0.07148771 0.0087009668
-0.035970736 0.071941473 0.009303987
-0.034645751 0.071456857 0.010304987
-0.032325394 0.068821803 0.012038887
-0.031241613 0.068731546 0.013264954
-0.030376162 0.069131956 0.014643848
-0.029352253 0.069187455 0.015196383
-0.027939137 0.068295665 0.015135735
-0.027478442 0.069752969 0.014976293
-0.026757428 0.070639603 0.014100492
-0.025385376 0.06980978 0.013269037
-0.024733137 0.070973344 0.012562603
-0.023312103 0.069936305 0.010756433
-0.022257889 0.06995336 0.010534376
-0.021453001 0.070794903 0.010209054
-0.020281142 0.070450276 0.010157824
-0.019023299 0.069752105 0.010111302
-0.018310683 0.07108853 0.010100424
-0.016861154 0.069552258 0.010359019
-0.01611183 0.070892051 0.010868967
-0.015081963 0.071100682 0.011405945
-0.013668133 0.069392055 0.012465745
-0.012963356 0.071298458 0.013011813
-0.011612676 0.069676057 0.013957947
-0.010487284 0.069216073 0.013819516
-0.0095744319 0.070212506 0.013503969
-0.0084109567 0.069390394 0.012962252
-0.007333816 0.069147408 0.012044251
-0.0063737226 0.070110947 0.01143682
-0.11904293 0.07317318 0.0049802661
-0.11346064 0.070387617 0.011982828
-0.11159524 0.069877394 0.014190435
-0.11261752 0.07118278 0.015301198
-0.11201335 0.071475193 0.015879244
-0.10951022 0.070549853 0.016241074
-0.10963801 0.071317926 0.016293198
-0.10640041 0.069890469 0.016108274
-0.10639097 0.070576191 0.016084135
-0.10580114 0.070886761 0.016059428
-0.1039122 0.070324413 0.015668571
-0.10209582 0.069800213 0.015534103
-0.10289778 0.071073726 0.015565336
-0.10015196 0.069897726 0.01557076
-0.10109344 0.071297482 0.015302151
-0.10003977 0.071304947 0.015286833
-0.097595252 0.070310555 0.0149073
-0.098858222 0.071994573 0.015174598
-0.095950507 0.070644878 0.014998078
-0.093725279 0.069773264 0.015069366
-0.093767099 0.070588723 0.014870346
-0.093061127 0.07085336 0.014263362
-0.090612911 0.069782354 0.01412034
-0.092515454 0.072076 0.014123172
-0.089649104 0.070664592 0.014163107
-0.088103808 0.07027328 0.014261544
-0.089028947 0.071866736 0.013819635
-0.08578977 0.070096515 0.013797343
-0.085572094 0.070781857 0.013796061
-0.084871694 0.071080051 0.013752967
-0.082558095 0.070017628 0.013902962
-0.083720155 0.071913466 0.013995737
-0.08179272 0.071170293 0.014056563
-0.080025516 0.07054881 0.014057428
-0.080684073 0.072077774 0.01368174
-0.078990862 0.071518756 0.0136334
-0.07716646 0.070824012 0.013492435
-0.076896489 0.071556464 0.013519555
-0.074708067 0.070499167 0.0129067
-0.074648894 0.07144966 0.012888461
-0.074496299 0.072336987 0.012403637
-0.072139651 0.071078777 0.012515992
-0.071194626 0.071194626 0.012329102
-0.070939228 0.072014064 0.012207031
-0.069057815 0.071182668 0.012426496
-0.069097303 0.072336234 0.012180448
-0.066991284 0.071244702 0.012011856
-0.065801293 0.071107849 0.012289435
-0.065710448 0.072173767 0.011696398
-0.064417332 0.071932696 0.011980772
-0.062814891 0.071332164 0.011602223
-0.062479589 0.072174698 0.011357009
-0.060727526 0.07138148 0.011074275
-0.059008352 0.07059928 0.01098597
-0.059304528 0.072243698 0.010878295
-0.057450119 0.071280703 0.010513157
-0.056666564 0.071635097 0.010271102
-0.056052193 0.0722211 0.010232866
-0.054309566 0.071347862 0.0099722743
-0.053517424 0.071713343 0.010074019
-0.052644003 0.071982622 0.009806931
-0.051134571 0.07137534 0.009883523
-0.050504688 0.071996048 0.0096631348
-0.049248755 0.07173188 0.009558171
-0.047868535 0.071270928 0.0094579458
-0.047648571 0.07255578 0.009495616
-0.046310391 0.072158054 0.00928092
-0.04448121 0.070958123 0.0090121329
-0.044279318 0.072358884 0.0087968111
-0.043123681 0.072232164 0.008300364
-0.041261829 0.07088571 0.0081582963
-0.041412227 0.073016293 0.0080380738
-0.039420817 0.07138364 0.007845372
-0.038818844 0.072246186 0.0078427792
-0.037857678 0.072470419 0.0080380738
-0.036594193 0.072112091 0.0087080598
-0.035349037 0.07176926 0.0090705454
-0.033676438 0.070510045 0.010307282
-0.03208562 0.069346339 0.012096345
-0.031443156 0.070223048 0.013743281
-0.030212602 0.069801524 0.015013278
-0.029204374 0.069881894 0.01524049
-0.02818387 0.069937751 0.015196383
-0.027568799 0.071042679 0.015241206
-0.026637105 0.071387447 0.014423966
-0.025611436 0.071498595 0.013369471
-0.024231549 0.070587561 0.012783557
-0.023330448 0.071051821 0.010822415
-0.022393951 0.071447372 0.010595411
-0.021286977 0.071311377 0.010361731
-0.020294644 0.071565323 0.010231078
-0.019373573 0.072112747 0.010068834
-0.017996859 0.070928797 0.010209054
-0.017198548 0.072018921 0.010625839
-0.016055744 0.07171566 0.010891825
-0.014769591 0.070683047 0.011641562
-0.013940785 0.071848668 0.012842178
-0.012866509 0.071838014 0.013718307
-0.011562356 0.070425265 0.014246911
-0.010569618 0.070816442 0.013983756
-0.0095224036 0.070889011 0.013837188
-0.0083368486 0.069821112 0.013666719
-0.007366207 0.070505127 0.012390494
-0.0062560546 0.069859281 0.011848539
-0.11877592 0.074098736 0.0045318902
-0.11282747 0.071039513 0.011982828
-0.11410244 0.0725137 0.014190435
-0.11113782 0.071295962 0.015236855
-0.10997214 0.071220055 0.015454233
-0.11126065 0.07274735 0.016025841
-0.10773536 0.071126252 0.016225934
-0.10758435 0.071722902 0.015865058
-0.10748108 0.072363496 0.015716583
-0.10547423 0.071722478 0.015668571
-0.10335163 0.070988998 0.015536755
-0.10402042 0.07217744 0.015513122
-0.10234179 0.071744762 0.015618771
-0.10181466 0.072118722 0.015890926
-0.10081505 0.072162353 0.015686721
-0.098734729 0.071425118 0.015844703
-0.098434553 0.071973652 0.01562956
-0.097908162 0.072366901 0.015281975
-0.095192455 0.071132824 0.015272379
-0.095637634 0.072259545 0.015215218
-0.093824476 0.071686119 0.014984459
-0.093009166 0.071870722 0.014760494
-0.093262024 0.072894461 0.014430106
-0.090511836 0.071567498 0.014569521
-0.089268811 0.071415052 0.014443368
-0.088647686 0.071762413 0.014496505
-0.087503009 0.071689211 0.013988703
-0.086514533 0.071743757 0.013945669
-0.086612709 0.072711907 0.014130175
-0.084238984 0.071603134 0.013843954
-0.083826005 0.07215403 0.01399067
-0.082282662 0.071733601 0.01413551
-0.081514776 0.071987078 0.014030725
-0.081215225 0.07266625 0.014136702
-0.079211228 0.07181818 0.013951987
-0.078281209 0.071934082 0.013660371
-0.077921852 0.072584733 0.013020545
-0.076601706 0.072346061 0.0129067
-0.074812874 0.071651764 0.012675613
-0.074192069 0.072072297 0.012566298
-0.07323169 0.072170362 0.012006134
-0.072655126 0.072655126 0.012242913
-0.07171458 0.072784945 0.012185574
-0.07009244 0.072216451 0.01218617
-0.06908422 0.072272718 0.012372285
-0.068343803 0.072615296 0.01192978
-0.066414341 0.071685322 0.011805445
-0.066135973 0.072536223 0.011696398
-0.065535419 0.073055878 0.011849284
-0.062839404 0.071217991 0.012024164
-0.063242428 0.072889574 0.011653006
-0.062116239 0.072825931 0.011443824
-0.060065199 0.071656726 0.011284113
-0.059908327 0.072745822 0.011050344
-0.058527108 0.072360791 0.01094988
-0.057526715 0.072441041 0.01056388
-0.057243962 0.073445089 0.010271102
-0.05611949 0.073387027 0.010241359
-0.054202463 0.072269946 0.0099722743
-0.053886581 0.073285751 0.0099851489
-0.052102197 0.072305091 0.009806931
-0.05154084 0.073016196 0.0097292364
-0.050801385 0.073499873 0.0096887052
-0.048462231 0.071639821 0.0096244216
-0.048687983 0.073572949 0.0094579458
-0.047113866 0.072812341 0.0094951987
-0.045630999 0.072160654 0.0091676116
-0.045060862 0.072955683 0.0087388456
-0.04366792 0.072424844 0.0084965229
-0.042763982 0.072698772 0.0081243217
-0.042099178 0.073403694 0.0077429116
-0.040710814 0.072850928 0.007622689
-0.039568692 0.072720833 0.0077058077
-0.038475398 0.072675757 0.0077058077
-0.037490107 0.072837926 0.0077225566
-0.036442835 0.07288567 0.0085796714
-0.035927799 0.074033044 0.0088570416
-0.034145962 0.072560169 0.0098662674
-0.03260209 0.071514264 0.011411399
-0.031633556 0.071702726 0.013153911
-0.030229835 0.070883751 0.013813555
-0.029236112 0.071001992 0.015135735
-0.028227424 0.071091287 0.015130997
-0.027275225 0.071335211 0.015397489
-0.026824221 0.072961874 0.014310509
-0.025451187 0.072111703 0.013228387
-0.024424562 0.07221175 0.012745976
-0.02376461 0.073454253 0.010817856
-0.022159129 0.071753368 0.010573387
-0.021364726 0.072640076 0.010353982
-0.020281775 0.072587408 0.010224432
-0.019022973 0.071864568 0.010044903
-0.018158982 0.072635926 0.010157466
-0.017043503 0.072434887 0.010534376
-0.015866248 0.071926989 0.011003703
-0.014904844 0.07239496 0.011992663
-0.013876494 0.072584741 0.013454258
-0.012783365 0.072439067 0.013938338
-0.01168453 0.072231643 0.01478973
-0.010474542 0.071226895 0.014499724
-0.009407619 0.071079791 0.01423198
-0.0083916094 0.071328677 0.013893694
-0.0073219552 0.071127564 0.012491643
-0.006281619 0.071191683 0.011940271
-0.1145647 0.073194116 0.011475056
-0.11183859 0.072120205 0.013878912
-0.11025644 0.071770705 0.015073776
-0.11119368 0.073070131 0.015965879
-0.10987332 0.072896726 0.016223401
-0.10872509 0.072835252 0.016229957
-0.10791676 0.07300251 0.016044259
-0.10634946 0.072654575 0.015550613
-0.1059463 0.073102951 0.015583754
-0.104727 0.072991543 0.015749931
-0.10388797 0.073145613 0.01578477
-0.10176298 0.072388105 0.016026795
-0.10130301 0.072811544 0.016132146
-0.099074498 0.071959376 0.015761584
-0.099620193 0.073125467 0.015692383
-0.09807428 0.072764792 0.015456289
-0.096543163 0.072407365 0.015232712
-0.098174706 0.074440159 0.015226007
-0.095351577 0.073102869 0.015268743
-0.093656659 0.072610222 0.014949203
-0.093995437 0.073700972 0.014661551
-0.092601337 0.073442444 0.014583588
-0.090126984 0.072311185 0.014583588
-0.090662986 0.073597014 0.014549494
-0.088760614 0.072910503 0.014443785
-0.087595128 0.072820045 0.014323682
-0.088310406 0.074309975 0.013945937
-0.085671194 0.072979167 0.01411733
-0.085573003 0.073806718 0.014116347
-0.084146552 0.07349509 0.013745755
-0.081950493 0.072494671 0.014023364
-0.082373016 0.07381478 0.01405853
-0.080783106 0.073342554 0.014169842
-0.07948073 0.07312227 0.013759106
-0.079487659 0.074116871 0.013492435
-0.077130646 0.072904304 0.013020545
-0.077077746 0.073866174 0.012946427
-0.07646367 0.074309766 0.012597293
-0.073992163 0.072935134 0.012518585
-0.073283851 0.073283851 0.012122363
-0.072444394 0.073509753 0.012148529
-0.071776912 0.073919505 0.012113959
-0.070686437 0.073899463 0.01218617
-0.06985452 0.074153259 0.011795551
-0.068038762 0.073354289 0.011757344
-0.067468457 0.073894024 0.011727482
-0.06679409 0.074335352 0.011515051
-0.064885326 0.07339488 0.011746109
-0.06441164 0.074073382 0.011771262
-0.063027225 0.073709801 0.011671245
-0.061569959 0.073247015 0.011477292
-0.061756924 0.074758381 0.011167437
-0.059580542 0.07341174 0.01109153
-0.058486834 0.073374391 0.010853022
-0.058387727 0.074606538 0.010704011
-0.056162667 0.073117435 0.010316104
-0.056003556 0.074312411 0.010210991
-0.054608997 0.073882759 0.0099393427
-0.053560361 0.073913299 0.010026246
-0.05180607 0.072951406 0.009806931
-0.051660053 0.07426133 0.0095947683
-0.049955755 0.073339298 0.0097042322
-0.049807332 0.074710995 0.0094899535
-0.048213791 0.073927812 0.0093158484
-0.046547778 0.07299538 0.0088774264
-0.045766398 0.073439099 0.0086371303
-0.045408826 0.074600212 0.0085911751
-0.043456305 0.073133782 0.0083868802
-0.043150604 0.074434794 0.0080741644
-0.041885886 0.074105799 0.0076978803
-0.040573541 0.07367301 0.007622689
-0.039844632 0.074304849 0.0076959431
-0.038562953 0.07391233 0.0077095926
-0.037675783 0.074275114 0.0078090727
-0.036645621 0.074369058 0.0081892908
-0.035628356 0.074495658 0.0088900328
-0.034854513 0.075155042 0.0091691613
-0.032731626 0.072854258 0.010926515
-0.031176435 0.071705803 0.013153911
-0.030412 0.072359584 0.014643848
-0.029155195 0.071846731 0.015793294
-0.027866077 0.071213305 0.015790939
-0.027189095 0.072155677 0.015672863
-0.027205942 0.075088397 0.015306741
-0.025475191 0.073241174 0.013912588
-0.024541378 0.073624134 0.01354152
-0.023464357 0.07359276 0.012216598
-0.022378029 0.073527806 0.010830313
-0.021319855 0.073553503 0.010390759
-0.02021862 0.073425509 0.010430038
-0.019206332 0.073624276 0.010261625
-0.018171856 0.073756352 0.010222346
-0.016909618 0.072922722 0.010717183
-0.016040703 0.073787235 0.011641562
-0.014971796 0.073789567 0.012786478
-0.013750494 0.072983392 0.013628513
-0.012754268 0.073337041 0.013997793
-0.011568011 0.072562978 0.014697522
-0.010462981 0.072194569 0.01458317
-0.0095394151 0.073135518 0.014039665
-0.0083756251 0.072239764 0.013700813
-0.0073100803 0.07205651 0.012298763
-0.0063345227 0.072847016 0.011122376
-0.11300253 0.073242381 0.011708021
-0.11249054 0.07359194 0.01394546
-0.11214109 0.074055433 0.01508525
-0.11053917 0.073692776 0.016135693
-0.10926106 0.073541097 0.015927702
-0.10835221 0.073637426 0.016168743
-0.10774324 0.073941439 0.015832722
-0.10596579 0.07344164 0.015468031
-0.10628911 0.074402377 0.015457809
-0.10410763 0.073611453 0.015549898
-0.10318857 0.07370612 0.015630901
-0.10285006 0.0742217 0.015820473
-0.10114474 0.073751375 0.016026795
-0.10102949 0.074442782 0.016068041
-0.098584764 0.073414184 0.015723705
-0.097011365 0.073019303 0.015526831
-0.097485282 0.074173585 0.015199035
-0.096556596 0.074274302 0.015175819
-0.093350008 0.072605558 0.015252084
-0.094793856 0.074556969 0.014811099
-0.092407912 0.073506288 0.014714777
-0.091961086 0.073991679 0.014632046
-0.09169253 0.074633449 0.014583588
-0.089127257 0.07339891 0.014549494
-0.089085408 0.074237838 0.014400601
-0.089044489 0.075097762 0.014312536
-0.086864956 0.074153006 0.013945937
-0.085960895 0.074287198 0.014077097
-0.08486411 0.074256092 0.014116347
-0.083204135 0.073725179 0.013808101
-0.08315479 0.074626088 0.014030069
-0.081671558 0.074246868 0.013971865
-0.07921569 0.072961815 0.013995737
-0.079944469 0.07461483 0.0136334
-0.078768723 0.074510954 0.013291925
-0.076961055 0.073798262 0.0129067
-0.077527419 0.075373881 0.012749314
-0.075293995 0.074233517 0.012297839
-0.074309908 0.074309908 0.01237154
-0.073981091 0.075053282 0.012247533
-0.071758091 0.073868625 0.012379408
-0.07104864 0.074229918 0.012223095
-0.070481323 0.074752919 0.012149394
-0.068939164 0.074242175 0.012055367
-0.068766408 0.075213253 0.011918366
-0.067074239 0.074526928 0.011725068
-0.065025352 0.073415712 0.011805892
-0.065554231 0.075226165 0.011980772
-0.063779011 0.074408844 0.012088418
-0.06287846 0.074601561 0.011955142
-0.062599815 0.075551495 0.011425763
-0.061127909 0.07506936 0.011284113
-0.05971916 0.074648947 0.011086553
-0.058953658 0.075031929 0.010735452
-0.057804119 0.074931256 0.010522693
-0.056294061 0.074350648 0.010338128
-0.056135226 0.075566649 0.010157675
-0.054373585 0.074630409 0.0099419653
-0.053466585 0.074853219 0.0098959208
-0.053303927 0.076148473 0.009563297
-0.050831188 0.074128814 0.0095544755
-0.050565928 0.075310953 0.0093183517
-0.049572472 0.075436361 0.0092463195
-0.047675245 0.074161485 0.0090470612
-0.047474239 0.075527199 0.0086086392
-0.046088912 0.075028457 0.0084391534
-0.044524193 0.074206986 0.0084391534
-0.04407765 0.075254522 0.0081630945
-0.042953268 0.075168222 0.0077397525
-0.041297123 0.07412304 0.007622689
-0.040747475 0.075061135 0.0075350404
-0.03968633 0.075082242 0.0073209107
-0.038626511 0.075107105 0.00754866
-0.037825476 0.075650953 0.0075616539
-0.036632318 0.075419471 0.0081368983
-0.035364512 0.075015634 0.0086191595
-0.034391552 0.075231515 0.0089612603
-0.033063225 0.074658893 0.010113448
-0.031538934 0.073590845 0.011539757
-0.030268935 0.073062949 0.013812155
-0.02893324 0.072333097 0.015853941
-0.028226549 0.073179938 0.016061038
-0.02748625 0.074001439 0.016400695
-0.026783863 0.07499481 0.01572302
-0.025583925 0.074619785 0.015304357
-0.024246946 0.07379505 0.014020473
-0.023273731 0.074052781 0.012896329
-0.022523556 0.075078517 0.012551308
-0.021393673 0.074877858 0.011383057
-0.02034007 0.074937098 0.011383057
-0.019342979 0.075222701 0.011211544
-0.018145844 0.074718177 0.011094451
-0.016991805 0.074339144 0.012139618
-0.015946617 0.074417546 0.012989163
-0.014806662 0.074033312 0.013860494
-0.01405531 0.075682439 0.014151931
-0.012676133 0.073944107 0.014896363
-0.01147728 0.073037237 0.01550281
-0.010633904 0.07443732 0.014697522
-0.0094219046 0.073281482 0.014114946
-0.0083288588 0.072877511 0.013650626
-0.0073460941 0.073460944 0.011642307
-0.006325007 0.07379175 0.0094068646
-0.11345875 0.074588612 0.01178658
-0.11216605 0.074427933 0.014164686
-0.11255806 0.075392663 0.015172839
-0.10992728 0.074331783 0.016002208
-0.11081412 0.075651944 0.01584366
-0.10782919 0.074328855 0.016126424
-0.10650018 0.074132472 0.015969992
-0.10693531 0.075172342 0.015875965
-0.1046781 0.074321449 0.015641779
-0.10513394 0.075399086 0.015641779
-0.10369598 0.075126678 0.015705466
-0.10123946 0.07410311 0.016013473
-0.10263509 0.075907201 0.016255349
-0.10064423 0.07521832 0.016283154
-0.097912483 0.073955171 0.016357064
-0.098593891 0.075270601 0.016152054
-0.097170934 0.074990608 0.015660614
-0.095754944 0.0747099 0.015215129
-0.095300823 0.075181752 0.015268743
-0.094906576 0.075711988 0.015098572
-0.09305694 0.07508003 0.01480794
-0.092781566 0.075718291 0.014632046
-0.090331607 0.074576087 0.014486343
-0.08950536 0.074763298 0.014452249
-0.089374863 0.075543031 0.014380574
-0.087821588 0.075124487 0.014272183
-0.086433582 0.074838832 0.013885677
-0.086202182 0.075559944 0.013885677
-0.083980955 0.074533097 0.014004171
-0.085237019 0.076605424 0.013826668
-0.083065338 0.075610757 0.014166355
-0.080761261 0.074468173 0.014010042
-0.080349103 0.075062968 0.013971865
-0.080788173 0.076479465 0.013923407
-0.077136427 0.074009269 0.013463974
-0.077809177 0.075677417 0.01291132
-0.076754689 0.075688653 0.01286298
-0.075342558 0.075342558 0.012684107
-0.07531032 0.076386184 0.012470722
-0.073080458 0.075198732 0.012181431
-0.071526945 0.074682541 0.012213171
-0.071991466 0.07628946 0.011821985
-0.069767527 0.075052947 0.011901319
-0.068937413 0.075300865 0.011799991
-0.068157025 0.075611696 0.011733443
-0.066691175 0.075159892 0.011338592
-0.066385448 0.076022036 0.011713833
-0.065465271 0.076197281 0.011835903
-0.063531399 0.075178817 0.011916012
-0.062848642 0.075631417 0.011835903
-0.061991021 0.075885557 0.011635005
-0.060458399 0.075307831 0.011375964
-0.060360238 0.076528162 0.011182725
-0.058552623 0.07558611 0.010853022
-0.057705931 0.075872608 0.010852128
-0.056882523 0.076201111 0.010419399
-0.056603998 0.077286221 0.01027146
-0.054150205 0.075385578 0.0099974275
-0.05412934 0.076863654 0.0097230077
-0.05230014 0.075781837 0.0096936226
-0.051588196 0.076307543 0.0094814599
-0.050639912 0.07649859 0.0093476474
-0.048393514 0.074694328 0.0094302297
-0.048500974 0.076523751 0.0091719925
-0.04768268 0.076942503 0.0087335706
-0.045835815 0.075682394 0.0087343156
-0.045413338 0.076770157 0.0086953044
-0.044034515 0.076254889 0.0084529817
-0.042990062 0.076307356 0.0081622303
-0.042230576 0.076881304 0.0076978803
-0.040548496 0.075761661 0.0075899065
-0.039229285 0.075277813 0.0073271692
-0.038754381 0.07643225 0.00754866
-0.037652418 0.076380618 0.00754866
-0.036315721 0.075835764 0.0081271827
-0.035754319 0.076925963 0.0082741678
-0.034359712 0.076235607 0.0087080598
-0.033693131 0.077168129 0.009218365
-0.031843465 0.075362861 0.010715395
-0.030167501 0.073858358 0.013117373
-0.02930834 0.074317575 0.015578359
-0.028022068 0.073687658 0.015927315
-0.026745515 0.073035829 0.016299933
-0.025791209 0.07324703 0.016242027
-0.026392912 0.07807903 0.015505165
-0.024067044 0.074293911 0.015081465
-0.02333108 0.075295754 0.014007509
-0.022127414 0.074811734 0.013594002
-0.021313798 0.075663984 0.012391001
-0.020380395 0.076158315 0.012379885
-0.01884459 0.07433144 0.012610078
-0.018112613 0.075646788 0.012610078
-0.017133333 0.076029159 0.013771772
-0.015806623 0.074818008 0.014291197
-0.015300996 0.077597901 0.014449805
-0.013741178 0.075047977 0.01537475
-0.012639755 0.074785218 0.015559494
-0.011521893 0.074368581 0.015671492
-0.010478115 0.074394614 0.015217572
-0.0093454942 0.073725566 0.014543653
-0.0084285447 0.074803337 0.013946474
-0.007313543 0.074180223 0.011290938
-0.0063896594 0.075610965 0.0055474937
-0.11475959 0.076506391 0.011708021
-0.11263604 0.075792469 0.01394546
-0.11088744 0.075319767 0.015073776
-0.11174954 0.076628253 0.015783131
-0.10922728 0.075618878 0.01584366
-0.10869606 0.075981706 0.016258627
-0.10822009 0.076390646 0.016015381
-0.10529763 0.075063646 0.015781164
-0.10550364 0.075962611 0.015468866
