ply
format ascii 1.0
comment PCL generated
element vertex 1289
property float x
property float y
property float z
element camera 0
property float view_px
property float view_py
property float view_pz
property float x_axisx
property float x_axisy
property float x_axisz
property float y_axisx
property float y_axisy
property float y_axisz
property float z_axisx
property float z_axisy
property float z_axisz
property float focal
property float scalex
property float scaley
property float centerx
property float centery
property int viewportx
property int viewporty
property float k1
property float k2
end_header
-0.079917528 0.04918002 0.024420798
-0.08078827 0.050361518 0.023491859
-0.079178534 0.050007492 0.023015767
-0.077631705 0.04968429 0.023116678
-0.077674925 0.050383732 0.02238965
-0.076702341 0.050434411 0.021900117
-0.0748519 0.049901269 0.021780729
-0.074618496 0.050446305 0.020964265
-0.072425283 0.049663048 0.020590097
-0.072070874 0.050136261 0.020263493
-0.071595408 0.050537936 0.020243883
-0.070074916 0.050202921 0.019951224
-0.068693787 0.049959116 0.019771397
-0.068141885 0.05032016 0.019486517
-0.066618256 0.04996369 0.019096375
-0.066695198 0.050815385 0.019124061
-0.065958016 0.051064268 0.019262612
-0.063056 0.049617838 0.018442303
-0.063266471 0.050613176 0.018622488
-0.0621248 0.050542209 0.017815918
-0.060161952 0.049789198 0.017474532
-0.060276169 0.05075888 0.017243028
-0.058053534 0.049760174 0.017243028
-0.057596859 0.050266348 0.017100155
-0.057446405 0.051063471 0.016883552
-0.055443283 0.050212786 0.016884267
-0.055220023 0.050972331 0.016823262
-0.054211769 0.051022839 0.01673156
-0.053011876 0.050891399 0.016732782
-0.050930664 0.049891263 0.016345501
-0.050448451 0.050448451 0.016255677
-0.04941453 0.0504659 0.015698731
-0.049240112 0.051380988 0.015487671
-0.047335561 0.050491262 0.015159637
-0.046568945 0.050802488 0.014987677
-0.045698639 0.051012434 0.014616728
-0.044824477 0.051227976 0.013916105
-0.043449741 0.050867986 0.013695478
-0.042484809 0.050981771 0.013380647
-0.041289318 0.05081762 0.012888581
-0.040473696 0.051124666 0.012250155
-0.039819147 0.051657267 0.012124658
-0.038200196 0.050933596 0.012038559
-0.037588343 0.051549725 0.012155533
-0.036099564 0.050964091 0.012110412
-0.035198316 0.051197551 0.01203388
-0.034356721 0.051535081 0.011906743
-0.033139799 0.051313233 0.011719346
-0.032266945 0.051627107 0.011407524
-0.03110946 0.051491518 0.011439234
-0.029920209 0.051291786 0.011188507
-0.028789628 0.051181559 0.011121452
-0.02795562 0.051610373 0.010996699
-0.026608167 0.051087677 0.010339618
-0.025670966 0.051341932 0.0098365247
-0.024987197 0.052147191 0.0087096989
-0.023429314 0.051118504 0.0079078078
-0.022197168 0.050736383 0.0077272952
-0.021702744 0.052086588 0.0074001849
-0.020363851 0.051445518 0.0073804259
-0.019400952 0.051735874 0.0072718561
-0.018373422 0.051877901 0.0067907572
-0.017230507 0.051691521 0.0068863928
-0.016357513 0.052344039 0.0069368482
-0.015231102 0.052220918 0.0065814257
-0.013978364 0.051612418 0.0062595308
-0.012898288 0.051593151 0.0062971711
-0.011990028 0.052320126 0.0058838427
-0.010645324 0.051097557 0.0051417351
-0.0098629808 0.052602563 0.0049116313
-0.0086484319 0.051890589 0.0046654046
-0.10973848 0.049788751 0.025663346
-0.10867692 0.04976793 0.027565569
-0.10873238 0.050263081 0.028417259
-0.10749536 0.050164502 0.028614998
-0.10595682 0.04992196 0.028878301
-0.10651673 0.050673008 0.028925091
-0.10355225 0.049745686 0.028717637
-0.10221783 0.049590826 0.028506607
-0.10366142 0.050794091 0.028326511
-0.10103155 0.05000551 0.027830005
-0.10009132 0.050045662 0.027810246
-0.10083281 0.050936162 0.027617455
-0.097735524 0.049885839 0.027724206
-0.09891469 0.051019154 0.02730757
-0.098104782 0.051139724 0.02724582
-0.094558381 0.049821079 0.027153105
-0.094504222 0.050333768 0.026637733
-0.094741262 0.05101452 0.026324153
-0.092442095 0.050329581 0.02642411
-0.092609629 0.050987322 0.026013523
-0.089800686 0.050002653 0.025653809
-0.089742072 0.050544385 0.025202334
-0.088954262 0.050683241 0.024817169
-0.087652124 0.050528873 0.024787962
-0.087156832 0.05084148 0.024964094
-0.0861568 0.05086365 0.024573177
-0.084323801 0.050388608 0.024956405
-0.083869107 0.050735634 0.024444282
-0.082673714 0.050637651 0.024157345
-0.082298122 0.051045667 0.024227977
-0.081623293 0.051276173 0.024350137
-0.079597734 0.0506531 0.023842186
-0.077736393 0.050119512 0.023132622
-0.078903444 0.051550247 0.023051679
-0.077018149 0.050998501 0.022554398
-0.075454175 0.050647318 0.021949649
-0.075426511 0.051331934 0.021775991
-0.07389015 0.050994609 0.021044463
-0.073109709 0.051176798 0.020734906
-0.07256037 0.051528379 0.020406038
-0.070848197 0.051052373 0.020297378
-0.069702536 0.050976478 0.019846559
-0.069410957 0.051532377 0.019821048
-0.068013296 0.051271562 0.019904852
-0.068171144 0.05219353 0.019301325
-0.065997653 0.051331505 0.019357562
-0.06486693 0.051265795 0.019368857
-0.06474594 0.052009031 0.019206405
-0.062949866 0.051409058 0.01902765
-0.061004274 0.050664563 0.018025875
-0.061461195 0.051924109 0.017393947
-0.06030976 0.051845234 0.017178148
-0.058449436 0.051143255 0.017315209
-0.05818684 0.051839184 0.017090708
-0.056169458 0.05096858 0.016687006
-0.055398379 0.05121737 0.016755998
-0.055472232 0.05227191 0.016697943
-0.053552758 0.051452648 0.016465515
-0.052728999 0.051674414 0.016838044
-0.051881295 0.051881295 0.016698569
-0.050214354 0.051260486 0.016662478
-0.050001789 0.052129526 0.015893012
-0.048990481 0.052185509 0.015509605
-0.047278289 0.051480796 0.015154481
-0.046727274 0.052037191 0.014921159
-0.045374613 0.051705953 0.014846385
-0.044153877 0.051512856 0.014211327
-0.043817077 0.052366748 0.01368472
-0.042351782 0.051880933 0.013344049
-0.041319389 0.0519141 0.012913615
-0.040370122 0.052056208 0.012239665
-0.039443862 0.05223646 0.011971444
-0.03832994 0.052171305 0.011800855
-0.037606742 0.052649442 0.01170525
-0.036353376 0.052391626 0.012134135
-0.035138108 0.052174769 0.011922747
-0.034340732 0.052584242 0.01182279
-0.033227235 0.052520461 0.011696547
-0.032201227 0.052595336 0.011564523
-0.030930404 0.052261714 0.011419475
-0.030021204 0.052537106 0.011312187
-0.028991397 0.052614015 0.011306763
-0.027950445 0.05267584 0.011305988
-0.026630452 0.052195683 0.010875106
-0.025872124 0.052822251 0.010572702
-0.024450254 0.052089669 0.0092892647
-0.023379792 0.052073169 0.0085496008
-0.022724915 0.053024802 0.0083849728
-0.021629784 0.05299297 0.0077996254
-0.020369271 0.052531272 0.0074726939
-0.019527946 0.053159405 0.0074819326
-0.018287763 0.052711785 0.0071446896
-0.017236013 0.052785289 0.0070787966
-0.016280055 0.05318151 0.0069597363
-0.014997073 0.05248975 0.0067407489
-0.014117315 0.053211421 0.0063520372
-0.013019303 0.05316215 0.0063507259
-0.011865992 0.0528576 0.0058217943
-0.01082487 0.053041864 0.0051250756
-0.0097385971 0.053021252 0.0049116313
-0.0086211599 0.052804604 0.0047822297
-0.10956843 0.050726123 0.02510798
-0.10903395 0.050950442 0.027412355
-0.10808733 0.050984595 0.028493047
-0.10594003 0.050447635 0.028890014
-0.10646883 0.051186938 0.028868318
-0.10484997 0.050898049 0.028988898
-0.10346278 0.050717048 0.028902173
-0.10495086 0.051955875 0.028753579
-0.10171136 0.050855681 0.028517753
-0.10195652 0.051493194 0.028145522
-0.10206183 0.052072365 0.027959377
-0.0996169 0.051348921 0.027918071
-0.098826125 0.051471941 0.02754119
-0.099445611 0.0523398 0.027146101
-0.095035605 0.050550852 0.027452111
-0.096307486 0.05177822 0.027294844
-0.09476991 0.051505387 0.026841909
-0.092989773 0.05109328 0.026510656
-0.093058333 0.051699072 0.026442081
-0.092051633 0.051714405 0.026179105
-0.090419613 0.051374782 0.025859088
-0.090858236 0.052217379 0.025128156
-0.088144653 0.051246893 0.02479291
-0.087837912 0.051669363 0.02470845
-0.087335378 0.051985346 0.024687946
-0.085551202 0.051536869 0.024445444
-0.085028395 0.051846582 0.024915546
-0.084435545 0.052120708 0.024593592
-0.08221744 0.051385902 0.024335951
-0.082264595 0.052066203 0.024300516
-0.080867246 0.051837977 0.024456441
-0.079482816 0.051612221 0.023795813
-0.079918668 0.052578073 0.023115516
-0.07789427 0.051929511 0.023087084
-0.076770857 0.051872201 0.022639841
-0.075836115 0.051942542 0.021958977
-0.075134069 0.052176438 0.021805376
-0.073237933 0.051576011 0.021103412
-0.072783463 0.051988192 0.020787477
-0.071744703 0.051988915 0.020471722
-0.070685215 0.051974423 0.020363063
-0.071033522 0.053010091 0.019850522
-0.069157854 0.052392319 0.019987017
-0.067896038 0.052227724 0.020199358
-0.067623116 0.052830562 0.01909253
-0.066301912 0.052620564 0.019053668
-0.065540962 0.052855615 0.019097865
-0.064044245 0.052495286 0.018427491
-0.062600762 0.052167304 0.018246412
-0.062003333 0.052545197 0.017530143
-0.061164968 0.052728422 0.017037719
-0.060001485 0.052632883 0.016909003
-0.059025984 0.052701775 0.016774774
-0.05765507 0.052413698 0.016687006
-0.05726663 0.053024657 0.016609848
-0.056046281 0.05287385 0.016943783
-0.054881461 0.052770637 0.016905159
-0.053132605 0.05209079 0.016616046
-0.053109471 0.053109471 0.016838044
-0.051606726 0.052659929 0.016785264
-0.051234577 0.053369351 0.016289443
-0.049995229 0.053186417 0.01592499
-0.048784941 0.053027108 0.015551269
-0.047594186 0.052882425 0.0151788
-0.046392981 0.052719299 0.014938772
-0.04485647 0.052158687 0.014861345
-0.044959489 0.053523201 0.014417201
-0.043687873 0.053277895 0.014036089
-0.042182464 0.052728087 0.013757259
-0.041865911 0.053674247 0.013161033
-0.040465515 0.053244103 0.012883723
-0.039278124 0.053078543 0.01207298
-0.038311843 0.053210899 0.012002885
-0.037029963 0.052899949 0.012170434
-0.036221433 0.053266816 0.012252659
-0.035123494 0.053217415 0.012081355
-0.033907648 0.052980699 0.011753112
-0.033198468 0.053545918 0.011557877
-0.032001406 0.053335678 0.01129961
-0.030754765 0.053025458 0.011342704
-0.030412646 0.054308299 0.01120308
-0.029114634 0.053915989 0.011196375
-0.027569907 0.053019054 0.011181295
-0.026956018 0.053912036 0.010494471
-0.025333734 0.052778613 0.010359108
-0.024559531 0.053390287 0.0094033182
-0.023804655 0.054101493 0.0090205669
-0.022370338 0.053262711 0.0084796846
-0.021602664 0.054006666 0.0081525743
-0.020564031 0.054115873 0.0075543225
-0.019397976 0.053883269 0.0075499415
-0.018291449 0.053798385 0.0071446896
-0.017286874 0.054021481 0.0068863928
-0.015895093 0.052983642 0.006767869
-0.015237163 0.054418441 0.0066312551
-0.014102799 0.054241538 0.0063847899
-0.012886886 0.053695358 0.0062752962
-0.011943548 0.054288857 0.005898416
-0.010933475 0.054667376 0.0051575005
-0.0095989844 0.053327695 0.0050333142
-0.008711936 0.054449603 0.0046505332
-0.11169472 0.052744728 0.024570137
-0.10969667 0.052285325 0.027343959
-0.10693357 0.051449172 0.02846688
-0.10841681 0.052659594 0.028625757
-0.10620026 0.052078974 0.028729171
-0.10520571 0.052092154 0.02897343
-0.10502356 0.052511781 0.028844386
-0.10247274 0.05174366 0.028680295
-0.10165225 0.051842645 0.028408378
-0.10182197 0.052453741 0.028076977
-0.099773988 0.0519232 0.027873814
-0.099730268 0.052435502 0.027862519
-0.098734938 0.052452937 0.027754128
-0.096983373 0.052064758 0.027313888
-0.096807197 0.052523054 0.027303725
-0.095917314 0.052599818 0.02721101
-0.093499541 0.051831268 0.026547402
-0.094460294 0.052939285 0.026324153
-0.092951104 0.052672289 0.026260912
-0.09118329 0.052251101 0.025866151
-0.090928435 0.052697163 0.025128156
-0.089586444 0.052516192 0.024963498
-0.089476794 0.053061821 0.02470845
-0.088485911 0.053091548 0.024690658
-0.086916424 0.052770685 0.024573177
-0.085860081 0.052757401 0.024382055
-0.085153706 0.05296145 0.024444461
-0.083848335 0.052793398 0.024257213
-0.083664238 0.053335954 0.024424344
-0.082404114 0.053197592 0.024355412
-0.080041692 0.052334953 0.024631739
-0.08021383 0.053128641 0.024182618
-0.079113185 0.053089112 0.023491323
-0.077750467 0.052870315 0.023469299
-0.078037694 0.053782735 0.022910535
-0.07592193 0.053041343 0.0222224
-0.074682735 0.05290027 0.021879196
-0.074078679 0.053211447 0.021277249
-0.072657228 0.05293598 0.020653486
-0.072150879 0.053328909 0.020495027
-0.071762979 0.053822234 0.020243883
-0.070384406 0.053576186 0.019765794
-0.068983287 0.053305268 0.019850522
-0.068752699 0.053944424 0.019772798
-0.067101792 0.05347174 0.0191755
-0.065732121 0.053211715 0.018873543
-0.065406173 0.053801849 0.018692702
-0.063776731 0.053321529 0.01816681
-0.063059151 0.053600281 0.018224746
-0.062319934 0.053869773 0.01753056
-0.060576871 0.05326587 0.017393529
-0.060031004 0.053711955 0.016762465
-0.058685917 0.053446107 0.016762465
-0.057492457 0.053311188 0.016652763
-0.057232972 0.054053362 0.016505659
-0.055374406 0.053284809 0.016932845
-0.054711837 0.053659689 0.01676321
-0.054294612 0.054294612 0.01642552
-0.052165821 0.053209133 0.016806185
-0.051605642 0.053711995 0.016759902
-0.050648052 0.053813554 0.016731113
-0.049443405 0.053651355 0.016205341
-0.048684284 0.053976052 0.015716642
-0.047349647 0.05366293 0.015396714
-0.045775522 0.053057995 0.01522398
-0.045822874 0.054348063 0.014916062
-0.044586875 0.054141205 0.014484346
-0.043375906 0.053955395 0.014270246
-0.042453591 0.05412833 0.013879567
-0.041176803 0.053846594 0.013344049
-0.040157866 0.053896081 0.013040811
-0.039682776 0.054697882 0.012475222
-0.038133036 0.054021806 0.012184948
-0.037288509 0.054334685 0.012235016
-0.036284037 0.054426055 0.012178868
-0.034832153 0.05383151 0.011968851
-0.034367979 0.054773964 0.011777043
-0.033031177 0.054341611 0.011562824
-0.031725511 0.053933371 0.011318028
-0.031229896 0.054921541 0.011411607
-0.029938621 0.05453106 0.01126641
-0.028693374 0.054198597 0.011187434
-0.028014928 0.054952361 0.011181295
-0.026703181 0.054474484 0.010559797
-0.025489641 0.054165486 0.010727555
-0.024740821 0.054860082 0.0094716847
-0.023478393 0.054427184 0.0093029439
-0.022567635 0.054807112 0.0091139376
-0.021697462 0.055328533 0.0084448755
-0.020515183 0.05506707 0.0077864528
-0.019333227 0.054777481 0.0076336861
-0.018541588 0.055624764 0.0072529018
-0.017099714 0.054505341 0.0069567561
-0.016229253 0.055179462 0.006939441
-0.015158808 0.055221371 0.0068852603
-0.013996255 0.054908384 0.0065216422
-0.013130284 0.055803709 0.0061624646
-0.011854042 0.054959651 0.0057531595
-0.01066221 0.054377273 0.0051548481
-0.0098855393 0.056018058 0.0049479008
-0.0087005235 0.055465836 0.0046675205
-0.11184466 0.053851131 0.024051219
-0.10798199 0.052477226 0.027310699
-0.10832148 0.053138841 0.028281271
-0.10820649 0.053587977 0.028744936
-0.10622354 0.053111769 0.02874732
-0.10593479 0.053481642 0.029356599
-0.10440634 0.053226762 0.029211193
-0.1031472 0.053105488 0.028582156
-0.10222644 0.053157743 0.028380752
-0.10115789 0.053133436 0.028359503
-0.10052153 0.053337958 0.027875841
-0.099854387 0.05353019 0.027681321
-0.098129362 0.053153403 0.027775407
-0.098424815 0.053874634 0.027313888
-0.096994013 0.053656261 0.027118862
-0.094606251 0.052898116 0.027024508
-0.095293753 0.053861685 0.026475936
-0.093895078 0.053654328 0.026358694
-0.09148369 0.052857239 0.026266932
-0.09310542 0.054398675 0.025973827
-0.090719 0.053606682 0.025329471
-0.09049011 0.054086044 0.025094926
-0.088427447 0.053467758 0.024831116
-0.087518625 0.053540803 0.024705261
-0.086169042 0.053342737 0.024859905
-0.086374745 0.054114293 0.024421185
-0.084277511 0.053444274 0.024671048
-0.084072523 0.053972486 0.024536341
-0.083206967 0.054084528 0.024237424
-0.081235155 0.053471245 0.024350435
-0.081341624 0.054227751 0.024329424
-0.080166459 0.054138388 0.023881227
-0.078714177 0.053857066 0.023162156
-0.078591637 0.054490197 0.023087084
-0.077419654 0.054402996 0.022195727
-0.075455606 0.053749196 0.021998942
-0.076202735 0.055035308 0.021658927
-0.073489353 0.053823188 0.020935714
-0.072634898 0.053957351 0.020587385
-0.07275378 0.054828934 0.020449579
-0.070212327 0.053691778 0.020109385
-0.069943085 0.054284181 0.019704521
-0.06945432 0.054721586 0.019566685
-0.067862295 0.054289836 0.019585311
-0.06744799 0.05480149 0.019026846
-0.065820962 0.054328408 0.018863112
-0.064333603 0.053957213 0.018942803
-0.0642858 0.05480101 0.018637449
-0.062996566 0.054597024 0.018252969
-0.061273392 0.054003667 0.017543793
-0.061120447 0.054797642 0.017241389
-0.060442373 0.05514041 0.017062008
-0.059304941 0.055068877 0.017198622
-0.058011703 0.054847427 0.016925782
-0.056509651 0.054416701 0.016567618
-0.055547826 0.054499757 0.016932845
-0.055315375 0.055315375 0.016755998
-0.053433292 0.054481 0.01662311
-0.052083552 0.054166891 0.016583711
-0.051933669 0.055113282 0.016792536
-0.050614953 0.054832868 0.016829103
-0.049532406 0.054801811 0.016278893
-0.048950952 0.055335857 0.015838474
-0.047337547 0.054701164 0.015507966
-0.047004282 0.055550516 0.015236348
-0.045177691 0.054633487 0.014861822
-0.044039935 0.054525632 0.014492631
-0.043673087 0.055390254 0.01422748
-0.042396959 0.055116046 0.0139983
-0.041069996 0.054759998 0.013525486
-0.040538732 0.055474054 0.012992352
-0.038890548 0.054656982 0.012634009
-0.038242478 0.055239137 0.011531323
-0.037375886 0.055529889 0.011326939
-0.036354572 0.055601109 0.011855572
-0.035314415 0.055646956 0.011683255
-0.034316659 0.055764567 0.011903524
-0.032746043 0.054928847 0.011826605
-0.032211192 0.055832732 0.011476964
-0.030760067 0.055155978 0.011318028
-0.029544095 0.054867603 0.011317581
-0.029332656 0.056492522 0.011172324
-0.028002959 0.056005917 0.011008203
-0.026492583 0.055104569 0.010559797
-0.026179846 0.056723002 0.010445178
-0.024244269 0.054813132 0.0093709826
-0.023351435 0.0551943 0.009187609
-0.022776084 0.056397922 0.0089834332
-0.021519095 0.055949651 0.0084415376
-0.020209182 0.055309337 0.0079671144
-0.019517399 0.056383602 0.0076303482
-0.018276919 0.055905867 0.0072495639
-0.017277982 0.056153443 0.0069065392
-0.016354643 0.056696091 0.0068655908
-0.015016112 0.05577413 0.0067733824
-0.013960402 0.05584161 0.0066864491
-0.012935382 0.056053322 0.006554395
-0.011826357 0.055906415 0.0057970285
-0.010845621 0.056397229 0.0050931871
-0.0097697899 0.056447677 0.004696101
-0.1099128 0.053938683 0.024051219
-0.10971246 0.054343551 0.02731216
-0.10875358 0.054376788 0.02856794
-0.10669962 0.053857904 0.02895236
-0.10676974 0.054411501 0.028780133
-0.10551663 0.054294962 0.02937007
-0.10351989 0.053789746 0.029295713
-0.1047505 0.054968081 0.028798968
-0.10228924 0.054213297 0.028437525
-0.10156301 0.054372109 0.028380752
-0.10156163 0.054926187 0.028130293
-0.099476181 0.054352965 0.028019518
-0.09935832 0.054854069 0.027957767
-0.097936384 0.054638192 0.027641147
-0.095254384 0.053707257 0.027381837
-0.096669868 0.055091426 0.027086139
-0.09617544 0.055405412 0.02674067
-0.093791142 0.054625608 0.026436299
-0.093924627 0.055311162 0.026266932
-0.092052348 0.054817688 0.026040763
-0.091226384 0.054943163 0.025653809
-0.089927584 0.054783471 0.024996728
-0.087800227 0.054109443 0.024763703
-0.0876927 0.054678977 0.024682909
-0.08731059 0.055088822 0.02485925
-0.085030995 0.0542969 0.024573177
-0.08444085 0.054577615 0.024671048
-0.084848143 0.055517919 0.024349093
-0.082512319 0.054664411 0.024237424
-0.082976684 0.055667903 0.024339706
-0.080895081 0.054967169 0.024324656
-0.079387151 0.054643098 0.023776978
-0.079448111 0.055404603 0.023113251
-0.078277417 0.055316038 0.022726208
-0.076000787 0.054432992 0.022195727
-0.076630481 0.055635825 0.021908969
-0.075154908 0.055322364 0.021592438
-0.073174708 0.054623377 0.021296114
-0.073358417 0.055542801 0.020676583
-0.071505852 0.054924782 0.020238936
-0.070757769 0.055149436 0.020165265
-0.070840038 0.056037638 0.019629359
-0.068774991 0.055228401 0.019542575
-0.067387111 0.054946415 0.019519627
-0.067090534 0.055559345 0.018850386
-0.065800235 0.05535575 0.018863112
-0.065191247 0.055727996 0.018942803
-0.064509809 0.056049503 0.018637449
-0.062765032 0.055442445 0.018252969
-0.061829254 0.05554153 0.017551482
-0.06194441 0.05660437 0.01762259
-0.059256487 0.055098139 0.017141432
-0.059138652 0.055970509 0.017103285
-0.058243688 0.056125734 0.016968697
-0.05680557 0.055753611 0.016905308
-0.055797033 0.055797033 0.017028183
-0.054739796 0.055792484 0.016941875
-0.053976025 0.056092732 0.016602606
-0.052537914 0.055690188 0.016471684
-0.051458474 0.055659167 0.016654074
-0.050904259 0.056206785 0.016792446
-0.049781904 0.05613704 0.016029775
-0.048471235 0.055847291 0.015629649
-0.047944244 0.05646766 0.01551196
-0.046635006 0.056173988 0.015365779
-0.044977192 0.055437002 0.015085965
-0.044763226 0.056486923 0.014754862
-0.043777499 0.056590419 0.014178067
-0.04234492 0.056107022 0.013952613
-0.041723285 0.05670087 0.013295919
-0.039832845 0.055556338 0.012692362
-0.039448272 0.05650698 0.012072384
-0.03820423 0.056245118 0.011802554
-0.03706041 0.056120049 0.011424094
-0.036177047 0.056393631 0.011367083
-0.035384614 0.056829832 0.011053175
-0.033945072 0.056221526 0.011386186
-0.033314735 0.056957442 0.011405885
-0.032202668 0.056891382 0.011004627
-0.030680258 0.056070812 0.011092603
-0.030182982 0.057132073 0.011241287
-0.028834708 0.056601461 0.011043727
-0.027612848 0.056287728 0.011043727
-0.02688829 0.057003174 0.010428667
-0.025380729 0.056049109 0.010445178
-0.024762541 0.057061505 0.0091960132
-0.023666596 0.057014983 0.0088259578
-0.022350425 0.056408212 0.0082757473
-0.021311734 0.056476094 0.0081870258
-0.020554876 0.057337284 0.0078094602
-0.019330682 0.056918118 0.0076069236
-0.018294647 0.057036255 0.0072546601
-0.017157419 0.056833949 0.0068425238
-0.016172687 0.057143491 0.0068349242
-0.015178734 0.05746235 0.0066885352
-0.014070574 0.057364646 0.0065588951
-0.012902937 0.056987971 0.0060626864
-0.011911612 0.057392314 0.0057613254
-0.010734562 0.056893181 0.004970789
-0.0097486917 0.057408966 0.0047458112
-0.11198477 0.055992387 0.024051219
-0.10899755 0.055008113 0.026880115
-0.10712799 0.054574642 0.028426349
-0.10753261 0.05530249 0.029049903
-0.10533715 0.054694291 0.028878301
-0.10542379 0.055270724 0.029346675
-0.1048982 0.05553434 0.029346675
-0.10295969 0.055047754 0.029008836
-0.1023925 0.055291954 0.02874732
-0.10328619 0.056337923 0.028687209
-0.099913053 0.055054132 0.028188795
-0.099091947 0.055164594 0.028367907
-0.098796934 0.055573281 0.027924865
-0.09682744 0.055038758 0.027709782
-0.097669914 0.056108247 0.027458251
-0.095719703 0.055579182 0.027089477
-0.094064005 0.055211484 0.026756942
-0.093643814 0.055568855 0.02649644
-0.092807077 0.055684246 0.026379287
-0.090962641 0.055190817 0.026074409
-0.091956332 0.056427751 0.025665253
-0.089616708 0.055624165 0.025094926
-0.088753596 0.055729002 0.024938792
-0.089037254 0.056564845 0.025029212
-0.086125225 0.055366214 0.024951786
-0.085834444 0.055844098 0.024702191
-0.085084327 0.056031138 0.024542987
-0.083592825 0.055728551 0.024349093
-0.083107434 0.056097522 0.024195939
-0.082828626 0.05661704 0.024032474
-0.079578333 0.055092692 0.024260283
-0.080367498 0.056361623 0.023937047
-0.079093449 0.056197979 0.023306757
-0.07770896 0.055950448 0.023284733
-0.077208161 0.056341093 0.0222027
-0.075633779 0.055948276 0.021952033
-0.074402846 0.05580214 0.021727383
-0.074275382 0.056491137 0.021320611
-0.072268091 0.05574967 0.020721585
-0.072387204 0.056650858 0.020416409
-0.07114847 0.056500256 0.019939691
-0.069511361 0.056024082 0.019490749
-0.069083616 0.056522962 0.019395918
-0.068249688 0.056699742 0.0191755
-0.066389136 0.056015834 0.018838853
-0.0663772 0.056894742 0.018631458
-0.0655073 0.057054747 0.018533498
-0.062710486 0.055514202 0.018072605
-0.063386798 0.05704812 0.018031776
-0.0619152 0.056668151 0.01759851
-0.060838632 0.056642864 0.017628133
-0.060216229 0.057046957 0.016971827
-0.058650341 0.056555688 0.016959518
-0.058076717 0.05702078 0.016896456
-0.056897208 0.056897208 0.016739756
-0.055721857 0.056773216 0.016891569
-0.05460057 0.056700595 0.016805261
-0.054111451 0.057294481 0.016558021
-0.052643854 0.056855362 0.016407967
-0.051068518 0.056279596 0.016556203
-0.050631434 0.056960367 0.016617417
-0.048984352 0.056279894 0.016023129
-0.048891883 0.057394821 0.015716642
-0.047688168 0.057225801 0.01551196
-0.046432201 0.056984976 0.015325159
-0.045616273 0.057285555 0.015085965
-0.044635084 0.057387967 0.014624536
-0.04292522 0.056535657 0.014325023
-0.043031096 0.058091983 0.014320463
-0.041034132 0.056816492 0.013362169
-0.040203951 0.057131931 0.013055801
-0.039502218 0.057651889 0.012624294
-0.038111612 0.057167422 0.012019604
-0.036959827 0.057023738 0.011875123
-0.036132492 0.057386901 0.01145646
-0.034886137 0.057086408 0.011255413
-0.034117121 0.05757264 0.011391163
-0.032947116 0.057391748 0.011513472
-0.032089103 0.057760388 0.011004627
-0.030869493 0.057481125 0.011092603
-0.029830471 0.057530195 0.011172324
-0.028797604 0.057595208 0.011036932
-0.027964426 0.058079965 0.01066801
-0.026694035 0.057659116 0.010185659
-0.025557727 0.057504889 0.010456562
-0.024646204 0.057865001 0.0090500414
-0.023269909 0.057117052 0.0085296035
-0.02237732 0.057541683 0.0082757473
-0.021601688 0.058324561 0.0081870258
-0.020372672 0.057901278 0.0078094602
-0.01915592 0.057467766 0.0075267553
-0.018495975 0.058751918 0.0072349012
-0.016946984 0.057196073 0.0069461167
-0.016275171 0.058590617 0.0067733824
-0.01527014 0.058899116 0.0066841543
-0.013875165 0.057635304 0.0064291358
-0.013037141 0.058667138 0.00596717
-0.011831289 0.058080878 0.0057045221
-0.010743725 0.058016118 0.0050683022
-0.009841728 0.059050374 0.0046464801
-0.11258637 0.057335652 0.023780018
-0.10787012 0.055447258 0.026880115
-0.10858707 0.056342348 0.028317094
-0.10727181 0.056189995 0.028801769
-0.1059064 0.056008197 0.028744936
-0.10557155 0.05637316 0.029018462
-0.10426188 0.056219637 0.029224664
-0.1030516 0.056117203 0.028458744
-0.10333947 0.056836706 0.028303742
-0.10068056 0.055933643 0.028169125
-0.099357992 0.055762138 0.027778089
-0.10133388 0.057457358 0.027880013
-0.09666127 0.055378854 0.027977794
-0.098081574 0.056784071 0.027550638
-0.096892335 0.056692325 0.027381837
-0.095393687 0.056415621 0.027013063
-0.09514492 0.056880113 0.026750416
-0.094032295 0.056832705 0.026420027
-0.091631331 0.055996921 0.026188612
-0.093112469 0.057541419 0.026040763
-0.090135083 0.056334428 0.025653541
-0.089464769 0.056558188 0.025094926
-0.089329846 0.057129554 0.024860114
-0.088079214 0.05699243 0.024640143
-0.087111056 0.057037 0.024875432
-0.086568132 0.057364423 0.024530232
-0.084930792 0.056965776 0.024457157
-0.0838442 0.05693125 0.024361402
-0.08278206 0.056912668 0.024127096
-0.081279866 0.056587253 0.024009138
-0.080584325 0.056822285 0.024049342
-0.080231912 0.05730851 0.023780644
-0.078621246 0.056896955 0.023282468
-0.078565806 0.057614926 0.023284733
-0.07734587 0.057486795 0.022238791
-0.075769849 0.05708687 0.022163332
-0.075658999 0.05779507 0.021803737
-0.073845781 0.057204481 0.021310389
-0.072994582 0.057352886 0.020724803
-0.072339036 0.057661556 0.020459741
-0.0708661 0.05731817 0.020109385
-0.069668412 0.057190489 0.019638211
-0.069981821 0.058318187 0.019353151
-0.067804895 0.057373375 0.019292355
-0.067833751 0.058294628 0.018749058
-0.066490896 0.058047611 0.018969238
-0.064830676 0.05751108 0.018991172
-0.064038076 0.05773925 0.018533498
-0.063348137 0.058069129 0.018457264
-0.061157871 0.057011575 0.017969161
-0.061061461 0.057903107 0.017769784
-0.06019989 0.058087617 0.017227978
-0.05928449 0.05822584 0.016971827
-0.05832101 0.05832101 0.016797334
-0.056884985 0.057938412 0.016687006
-0.05543055 0.057522271 0.016730547
-0.055458054 0.05865756 0.016558409
-0.053295903 0.057475977 0.016306758
-0.052653499 0.057918847 0.016218692
-0.05232108 0.058727745 0.016262889
-0.050519727 0.057887189 0.016373515
-0.050217494 0.058765154 0.015811324
-0.048773594 0.058316253 0.015512794
-0.047626492 0.058210157 0.014960557
-0.046749786 0.058437232 0.01506415
-0.045438472 0.058118977 0.014833599
-0.044398256 0.058140572 0.014671087
-0.04388677 0.058872495 0.014222562
-0.042427737 0.058338139 0.013954669
-0.041301936 0.058246318 0.013203293
-0.040560856 0.058706503 0.012964576
-0.039012812 0.057992019 0.012867063
-0.038124964 0.058246475 0.012055486
-0.037248775 0.058533791 0.011896998
-0.035924025 0.05811239 0.011774242
-0.034948058 0.058246765 0.011443347
-0.034410249 0.059142616 0.011754364
-0.03285588 0.058292687 0.011784375
-0.031800121 0.058300223 0.011243403
-0.031033956 0.058857501 0.01111272
-0.029152354 0.057263553 0.011172324
-0.02899144 0.05905664 0.011095494
-0.02805699 0.059351329 0.010420442
-0.026688159 0.058713946 0.010289997
-0.025657754 0.058799021 0.010321021
-0.024331436 0.058183867 0.009480983
-0.023519589 0.058798976 0.0089208186
-0.022461072 0.058826614 0.0085813403
-0.021734457 0.059769757 0.0080933273
-0.02024091 0.058592107 0.0078938901
-0.019511249 0.059617709 0.0074431002
-0.018218933 0.058943607 0.0072005987
-0.017489877 0.060121451 0.0067985058
-0.016227178 0.059499659 0.0067512989
-0.014989506 0.058887348 0.0067192018
-0.014018089 0.0593073 0.0062076151
-0.012996558 0.05956756 0.0060923398
-0.011804088 0.059020445 0.0057230294
-0.010801127 0.059406202 0.0050305128
-0.0097248424 0.059429593 0.0047363341
-0.0085949888 0.059090547 0.0041123033
-0.11169376 0.057915282 0.021775603
-0.10925365 0.057179477 0.026190072
-0.10797052 0.05704103 0.028133065
-0.10665464 0.056882475 0.028702497
-0.10676055 0.057486456 0.028630853
-0.10517018 0.057179905 0.028762668
-0.10440172 0.057318587 0.029225945
-0.10375229 0.057526018 0.028868973
-0.10076822 0.056430202 0.028738797
-0.10172243 0.057539959 0.028546929
-0.10110889 0.057776507 0.028208792
-0.098715499 0.056990393 0.028156728
-0.098982014 0.057739511 0.028237045
-0.097698137 0.057590481 0.027765721
-0.095451266 0.056864586 0.027524918
-0.096440986 0.05807199 0.027129829
-0.095330819 0.05802745 0.026556402
-0.093481839 0.057527285 0.026417524
-0.093898557 0.058425769 0.026236176
-0.092058793 0.057924636 0.025698066
-0.090967715 0.057888549 0.025340915
-0.090616919 0.058328133 0.02485612
-0.089290611 0.058142722 0.024749458
-0.087307133 0.057519991 0.024388075
-0.087688528 0.058459017 0.024530232
-0.085405774 0.05762317 0.024357796
-0.084932148 0.058002442 0.024279118
-0.08529868 0.05897193 0.024357885
-0.081859306 0.057301518 0.024230599
-0.082568817 0.058529798 0.023881614
-0.080317408 0.057663776 0.024016351
-0.079716846 0.057975888 0.0235174
-0.078762285 0.058035366 0.022975236
-0.078263879 0.058437031 0.022862971
-0.076375388 0.057797592 0.022159636
-0.076382555 0.058594834 0.021569729
-0.074465498 0.057917614 0.021475792
-0.073981866 0.058351897 0.021096319
-0.073628537 0.058902826 0.020678818
-0.071892075 0.058347195 0.020238936
-0.07025145 0.057854131 0.019906521
-0.070451602 0.058884919 0.019464403
-0.068424627 0.05805726 0.019459546
-0.067061611 0.057776157 0.019480944
-0.066986732 0.05861339 0.018928349
-0.06588994 0.058568835 0.018899888
-0.065042265 0.058747847 0.01898706
-0.064158827 0.058899909 0.018691272
-0.062492009 0.058325876 0.018541425
-0.062445424 0.059270233 0.018212944
-0.061086174 0.058979753 0.017893165
-0.06000258 0.058949903 0.017580867
-0.059080467 0.059080467 0.017098784
-0.057686131 0.058734972 0.016925186
-0.057211809 0.059330761 0.016897112
-0.056417942 0.05961141 0.016902
-0.054910041 0.059133891 0.016777277
-0.053592764 0.058846958 0.016377032
-0.052908529 0.059257552 0.016377956
-0.051363561 0.058701213 0.016407967
-0.050252359 0.058627754 0.01630789
-0.049467657 0.058940187 0.015644312
-0.048541933 0.059094526 0.015512794
-0.047775224 0.05945361 0.014959544
-0.04656766 0.059267931 0.014993966
-0.04520629 0.058873311 0.014702857
-0.044764228 0.059685636 0.014377743
-0.0431084 0.058879763 0.013958842
-0.042548049 0.059567273 0.013714552
-0.041423976 0.059480581 0.013119519
-0.040334709 0.05944062 0.012529552
-0.039041925 0.059090476 0.012372583
-0.038822323 0.060390282 0.012065679
-0.036958247 0.059133198 0.011960626
-0.035973266 0.059250083 0.011679441
-0.035387099 0.060050838 0.011124194
-0.033944 0.059401996 0.010896474
-0.033094876 0.059784289 0.010956138
-0.032116354 0.059950531 0.01028192
-0.030822579 0.059519459 0.010412544
-0.030351901 0.060703803 0.010863543
-0.028721329 0.05957016 0.010420442
-0.027378455 0.05896898 0.01026094
-0.026722807 0.059859086 0.0099225342
-0.025731517 0.060040206 0.010084867
-0.024517315 0.059694331 0.0094253421
-0.023757018 0.060472414 0.0088881552
-0.022476245 0.05993665 0.0084651411
-0.021296445 0.059630048 0.0080215335
-0.020498782 0.060417466 0.0076845884
-0.019166915 0.059630401 0.0073419809
-0.018078381 0.059552316 0.0071254373
-0.017298572 0.060545001 0.0068586469
-0.015942872 0.059520051 0.0068525672
-0.01509763 0.060390521 0.0067427158
-0.014011756 0.060358331 0.0061938167
-0.012756736 0.059531435 0.0060923398
-0.011930885 0.060739048 0.0056393743
-0.010819186 0.060587447 0.0050532818
-0.0096883904 0.060283318 0.0047760904
-0.0087374486 0.061162136 0.0041688979
-0.11447936 0.060419656 0.017905265
-0.10980523 0.058494374 0.026072741
-0.10749611 0.05780451 0.028183162
-0.10893281 0.059134953 0.028759807
-0.1059112 0.058047488 0.028856039
-0.10504562 0.058132045 0.029017031
-0.10582443 0.059137177 0.029444844
-0.10284898 0.058043484 0.029157966
-0.10198934 0.058133923 0.028902173
-0.10161375 0.058504883 0.028705359
-0.099799521 0.058046661 0.028472126
-0.099178545 0.058280174 0.028459668
-0.098233543 0.05832617 0.028130621
-0.097146921 0.05828815 0.027795255
-0.097044796 0.05884631 0.027550638
-0.095741823 0.058680471 0.026896417
-0.093674928 0.058037724 0.026154935
-0.093992308 0.058874302 0.02613163
-0.093331993 0.059110258 0.026080817
-0.091314837 0.058482539 0.025590688
-0.090973981 0.058926329 0.025163323
-0.090253226 0.059131425 0.024792552
-0.088382602 0.058579165 0.024758011
-0.08873935 0.059507564 0.024422199
-0.086150199 0.058459058 0.024724096
-0.085362688 0.058622565 0.024389356
-0.085665539 0.059547994 0.024387181
-0.083482042 0.058746625 0.024409145
-0.083712742 0.059645332 0.024299532
-0.081872016 0.059072211 0.02383709
-0.080017835 0.058474571 0.024020582
-0.080612548 0.059674222 0.023693413
-0.079957828 0.059968367 0.022864908
-0.077783659 0.059115577 0.022610039
-0.076991327 0.059304129 0.022017807
-0.076517403 0.059746463 0.021603346
-0.075120866 0.059470691 0.021499276
-0.074497342 0.059807729 0.021302879
-0.071959168 0.058595322 0.020820111
-0.071884319 0.059382699 0.02033332
-0.071349084 0.059807319 0.019821376
-0.070128612 0.059661653 0.019335747
-0.069152579 0.059722681 0.019426376
-0.068576947 0.060136706 0.019308776
-0.065830804 0.05863056 0.019011796
-0.066713139 0.060359504 0.018883705
-0.065079458 0.059831113 0.018827856
-0.063041158 0.058907308 0.01827082
-0.063230366 0.060068846 0.018255621
-0.062152892 0.060046013 0.01792714
-0.060562931 0.05951874 0.017683357
-0.06028204 0.06028204 0.017296344
-0.05857487 0.05962085 0.016801953
-0.058252107 0.060370363 0.016724318
-0.057176195 0.060352646 0.016663164
-0.055627894 0.059826225 0.016510218
-0.054794826 0.06006356 0.016435951
-0.05428924 0.06067621 0.016236693
-0.052537028 0.059892211 0.015943646
-0.051134624 0.059483133 0.016118854
-0.050922889 0.060470931 0.015801489
-0.049160484 0.059620161 0.015460998
-0.048870221 0.060556576 0.015048504
-0.048196252 0.061048582 0.014881462
-0.046057958 0.059665989 0.014773875
-0.046166498 0.061197449 0.014640957
-0.044380721 0.060230974 0.014573187
-0.043354634 0.060273513 0.014032722
-0.042658411 0.060788237 0.013641477
-0.041508187 0.060665812 0.013159633
-0.040055949 0.060083918 0.012965471
-0.039482262 0.060824022 0.01288107
-0.038107663 0.060337134 0.012182087
-0.036987647 0.060237028 0.011788905
-0.036701266 0.061528586 0.011875123
-0.035019536 0.060488291 0.011224717
-0.033965059 0.06050026 0.01113525
-0.032990195 0.060659382 0.010848552
-0.031758547 0.060341239 0.010302037
-0.030894032 0.06072275 0.010435909
-0.030024441 0.061121181 0.010398209
-0.028752087 0.060698848 0.010414034
-0.027964201 0.06130613 0.010029227
-0.026912421 0.061360314 0.0099136531
-0.025598265 0.060795877 0.0099878609
-0.024726484 0.061278675 0.0092009008
-0.023453103 0.060764857 0.0085615218
-0.022244407 0.060377672 0.0083590746
-0.021609847 0.06158806 0.0081196129
-0.020324433 0.060973298 0.0078847408
-0.019268844 0.061018009 0.0074420869
-0.018380754 0.061629586 0.0072351992
-0.016986659 0.060514972 0.0069516897
-0.016225105 0.061655402 0.0069695711
-0.015077208 0.061385773 0.0065331161
-0.01381396 0.060568903 0.0060562789
-0.013036159 0.061921757 0.0057718158
-0.011922112 0.061778214 0.0053836107
-0.010628367 0.060581695 0.0048683882
-0.0097866086 0.061981861 0.0042691827
-0.11481322 0.061658952 0.014845014
-0.10895143 0.059057787 0.026234925
-0.10885903 0.059564378 0.028299928
-0.1076581 0.059468288 0.028846592
-0.10585192 0.059032805 0.028870612
-0.10629982 0.059858151 0.029128134
-0.10363494 0.058929674 0.029548466
-0.1031756 0.059249353 0.02919662
-0.10398818 0.060313143 0.028993279
-0.10164963 0.059552308 0.028704166
-0.09918011 0.058698438 0.027983338
-0.099430121 0.059453066 0.028208792
-0.097259551 0.058760982 0.027833343
-0.098615706 0.060207486 0.027655691
-0.09626653 0.059398498 0.027267367
-0.094430044 0.058891855 0.026767373
-0.095965862 0.060500216 0.026474029
-0.092830442 0.059166655 0.026185453
-0.092235155 0.05944043 0.025947541
-0.092705585 0.060414877 0.025452286
-0.090549067 0.059680071 0.025036335
-0.090428159 0.060285442 0.024726659
-0.090032987 0.060719922 0.024698168
-0.087474637 0.059688576 0.024495959
-0.08623527 0.059543405 0.024725556
-0.086472094 0.06042628 0.024530232
-0.084904306 0.060054265 0.024536341
-0.084680714 0.060635574 0.02447173
-0.08266148 0.059929576 0.024085194
-0.081469953 0.059813388 0.024009138
-0.081372544 0.060507789 0.024032623
-0.08082708 0.060882736 0.023693413
-0.078961596 0.060260165 0.022862971
-0.078171022 0.060452256 0.022507459
-0.077329688 0.06060975 0.022055268
-0.075112782 0.059678648 0.021659493
-0.076044828 0.061258338 0.021544248
-0.0735351 0.060070928 0.02136302
-0.072871067 0.060378887 0.021187782
-0.072220922 0.060707446 0.020620316
-0.070300885 0.059962519 0.020443678
-0.070168406 0.060742799 0.01965487
-0.069321461 0.060918864 0.019466639
-0.067581385 0.06030339 0.019497514
-0.067578137 0.061242688 0.019199789
-0.066453561 0.06117947 0.019169509
-0.065086655 0.060887516 0.019328326
-0.064366177 0.061200634 0.018827856
-0.062717929 0.060627334 0.018587887
-0.061578359 0.06053466 0.017984509
-0.06161603 0.06161603 0.017683357
-0.059876364 0.060926829 0.01732859
-0.058163006 0.060240258 0.017118603
-0.058021501 0.06118631 0.016759187
-0.056432918 0.060613133 0.016654611
-0.05546594 0.06069858 0.016485333
-0.055423204 0.061818194 0.016418844
-0.054105546 0.061531797 0.016191125
-0.052306209 0.060675204 0.015831679
-0.05241432 0.062041447 0.015639246
-0.050217766 0.060679805 0.015667528
-0.04975193 0.061395999 0.015033931
-0.048629832 0.061315876 0.014959544
-0.047753081 0.061548412 0.014519542
-0.046857558 0.061766785 0.014717937
-0.045701463 0.061643835 0.014639556
-0.044450976 0.061384678 0.014614284
-0.043940134 0.062159214 0.013806075
-0.041793216 0.060600165 0.013373226
-0.041072052 0.061081514 0.013203025
-0.040774819 0.062235247 0.012965471
-0.038825899 0.060862221 0.012457818
-0.038263131 0.06164616 0.012231231
-0.037538648 0.062206905 0.011812389
-0.03628771 0.061902568 0.011875123
-0.035084695 0.061664011 0.011224717
-0.034394 0.062339127 0.010896474
-0.032780938 0.061332073 0.010848552
-0.032169886 0.062195111 0.010529935
-0.030939067 0.061878134 0.010473251
-0.029688599 0.061497815 0.010398209
-0.029049262 0.062402122 0.010311544
-0.027915254 0.062272493 0.0098236203
-0.026761442 0.062086549 0.0094651282
-0.025793131 0.062333405 0.0095787048
-0.024461456 0.061685409 0.0087881386
-0.023309659 0.061452743 0.0085615218
-0.022887079 0.063211933 0.0083590746
-0.021526316 0.062426321 0.0081196129
-0.020381428 0.062216993 0.0074941218
-0.019355392 0.062367383 0.0069713891
-0.018260526 0.062300619 0.0068289638
-0.017282655 0.06264963 0.0064608753
-0.016240206 0.062795468 0.0066976845
-0.01489291 0.0616992 0.0064128935
-0.013969837 0.062326968 0.0056995451
-0.013138699 0.06350372 0.0055434406
-0.01169762 0.061678365 0.005249083
-0.010927465 0.063379295 0.0044912696
-0.11361673 0.062068399 0.013527989
-0.11035637 0.060850706 0.025786251
-0.1083092 0.060285311 0.028211862
-0.10668402 0.059946265 0.028862715
-0.10735965 0.060905952 0.028895974
-0.10509603 0.060200639 0.029254854
-0.10347478 0.059853058 0.029738903
-0.10334772 0.06037144 0.029384106
-0.10199139 0.06017492 0.029069901
-0.10158051 0.060537878 0.028817385
-0.10154812 0.061136119 0.028194487
-0.098867305 0.060135785 0.028202742
-0.099812776 0.061343268 0.027749032
-0.097561345 0.060590733 0.027563244
-0.095968731 0.060235694 0.027373135
-0.09613654 0.060989849 0.027084529
-0.094223201 0.060425747 0.026550829
-0.093098715 0.060360704 0.026474029
-0.09323708 0.061122086 0.026331037
-0.091415562 0.060601328 0.025999784
-0.089869753 0.060253583 0.02532053
-0.090222783 0.061185565 0.024638325
-0.088363178 0.060621254 0.024662644
-0.087434627 0.060689919 0.024424314
-0.087778389 0.061653867 0.024416745
-0.085520342 0.060791571 0.024389356
-0.084346712 0.060688484 0.024457157
-0.084646776 0.061656296 0.024361402
-0.082898118 0.061137363 0.024299532
-0.082021825 0.061256811 0.024009138
-0.081390664 0.061564732 0.024020582
-0.079220414 0.060701355 0.023583084
-0.07895682 0.061295427 0.023241192
-0.077521205 0.060983349 0.022576213
-0.076183215 0.060740668 0.022055268
-0.076521136 0.06184585 0.021603346
-0.074650139 0.061171647 0.021499276
-0.073939845 0.061442971 0.02136302
-0.073390797 0.061857957 0.020891219
-0.07240916 0.061915081 0.020413816
-0.071574904 0.062101755 0.019750595
-0.070383199 0.061979234 0.019335747
-0.069073327 0.061747372 0.019396842
-0.067584902 0.061346296 0.019308776
-0.067089334 0.061847981 0.018972337
-0.066302672 0.062092979 0.018899888
-0.064579621 0.061454799 0.018691272
-0.063907035 0.061811727 0.018167436
-0.06236301 0.061323628 0.018120974
-0.062289312 0.062289312 0.017674863
-0.061275803 0.06233228 0.01754871
-0.05983492 0.061934393 0.017467618
-0.058858655 0.062011801 0.017118603
-0.057577025 0.061764445 0.016644716
-0.056732725 0.061985753 0.016706198
-0.055871211 0.062196255 0.016443729
-0.05497124 0.062371217 0.016307533
-0.053582862 0.061988015 0.01611957
-0.052736774 0.062229391 0.015906215
-0.051289581 0.061756846 0.015792638
-0.050930373 0.062601916 0.015691519
-0.050069492 0.062853195 0.015139401
-0.048359003 0.062025677 0.01504913
-0.048184045 0.063174635 0.014869094
-0.046490047 0.06233893 0.014843911
-0.045522787 0.062461503 0.01480186
-0.044732597 0.062838644 0.014717937
-0.043752324 0.062960654 0.013959736
-0.042361896 0.062483799 0.013899684
-0.041729562 0.063129343 0.013119936
-0.040059716 0.062197976 0.012964576
-0.038894359 0.062020734 0.012823671
-0.038671341 0.063378036 0.01224789
-0.037070971 0.062491067 0.01178059
-0.035857886 0.062223982 0.011639923
-0.035379749 0.063254707 0.01087147
-0.033889145 0.06248311 0.010714233
-0.033168282 0.063126735 0.010412693
-0.032116923 0.063163288 0.010208011
-0.031027505 0.063124925 0.010029227
-0.030136345 0.063501582 0.0097476542
-0.028835775 0.063011512 0.009683311
-0.027557837 0.062535092 0.009547621
-0.026836192 0.063333414 0.0089951754
-0.025516571 0.062728241 0.0090041459
-0.024452729 0.062726565 0.0084967613
-0.023761164 0.063723125 0.0081082582
-0.022504447 0.063226782 0.0076957047
-0.021563215 0.063611485 0.007343322
-0.020453148 0.063512407 0.0066626668
-0.019390784 0.063558683 0.0062108934
-0.018350311 0.063686371 0.0061585009
-0.017334346 0.063920401 0.0056746006
-0.016062599 0.06317956 0.0057654381
-0.015185524 0.063996136 0.0057303905
-0.014076141 0.063884027 0.005138576
-0.012887992 0.063365959 0.0049022436
-0.011883806 0.063740417 0.0048973858
-0.010807169 0.0637623 0.0043664873
-0.11578038 0.064322434 0.0098917484
-0.10892162 0.061077543 0.024944663
-0.10717174 0.060663253 0.028007746
-0.1073218 0.061326742 0.028640449
-0.10652736 0.061458092 0.028792322
-0.10568007 0.061561208 0.029258758
-0.10451887 0.061481688 0.029548466
-0.10257962 0.060938392 0.02919662
-0.10275255 0.061651528 0.029046148
-0.10187617 0.061743129 0.028346002
-0.099577732 0.060965963 0.027839035
-0.099180274 0.061348625 0.027753115
-0.099130668 0.06195667 0.027315199
-0.097510979 0.061585881 0.027448177
-0.096051551 0.061309498 0.027240396
-0.095381893 0.061536703 0.02685079
-0.094758607 0.06179909 0.026411176
-0.093339518 0.061542537 0.026200205
-0.093877554 0.062585033 0.026021391
-0.092091434 0.062084116 0.025605083
-0.090922236 0.061992437 0.024707556
-0.089847773 0.061963983 0.024332613
-0.088986777 0.062083799 0.02422747
-0.088056251 0.062157355 0.02408579
-0.086453363 0.061752401 0.024280906
-0.085279673 0.061647955 0.024260163
-0.085751675 0.062745124 0.024278939
-0.084607594 0.062672295 0.024297655
-0.083910219 0.06293267 0.024080992
-0.082268938 0.062482741 0.023693413
-0.080156714 0.061659012 0.023755074
-0.081085525 0.063183524 0.023109525
-0.079541631 0.062796026 0.022767156
-0.077725179 0.062180139 0.022475183
-0.077877052 0.063143551 0.021915138
-0.076424874 0.062814966 0.021780252
-0.074098058 0.061748382 0.021749377
-0.074343875 0.062825814 0.021050394
-0.071954899 0.061675627 0.020751327
-0.071460724 0.062139761 0.019903928
-0.071513183 0.063099869 0.01921609
-0.069700614 0.062418461 0.01908356
-0.068569645 0.062336046 0.019308776
-0.068354264 0.063096248 0.018880516
-0.066409886 0.062259272 0.018741399
-0.066226572 0.063072927 0.018542051
-0.065458365 0.063346803 0.018414855
-0.063447833 0.062407706 0.017856985
-0.062920593 0.062920593 0.017498285
-0.061844662 0.062892877 0.017159075
-0.060717348 0.062811047 0.017143518
-0.060586184 0.063774936 0.016803741
-0.058352634 0.062520675 0.016472131
-0.05772078 0.062968127 0.016315311
-0.057403158 0.063781284 0.01616174
-0.055363219 0.062675342 0.016116261
-0.054460179 0.062838666 0.015814573
-0.053716231 0.063195564 0.015433401
-0.052269038 0.062722847 0.014938116
-0.051866651 0.063510187 0.014814168
-0.051038574 0.063798219 0.014849067
-0.048936699 0.062472381 0.014896035
-0.048482195 0.063237645 0.014834553
-0.047465537 0.063287377 0.014659733
-0.046410024 0.063286401 0.014315814
-0.045622442 0.063659221 0.014063388
-0.044373896 0.063391283 0.013991237
-0.042915016 0.062802464 0.013661236
-0.042526662 0.063789994 0.013568461
-0.041187823 0.063365884 0.012551606
-0.040789004 0.06440369 0.012476057
-0.039384693 0.063867062 0.012373924
-0.038220603 0.063701011 0.011911392
-0.037118565 0.063631825 0.011482716
-0.036337305 0.064124659 0.010432512
-0.03523805 0.064069189 0.010061443
-0.034477063 0.064644486 0.010111034
-0.03297922 0.063830748 0.0099337399
-0.031585734 0.063171469 0.010029972
-0.031293616 0.064745404 0.0096969008
-0.029909832 0.064092502 0.0094118118
-0.028679127 0.063731387 0.0091017783
-0.027784107 0.064117171 0.0089601874
-0.026867094 0.06448102 0.0085985363
-0.025520325 0.063800812 0.0086281598
-0.024744339 0.064550452 0.007930398
-0.023357799 0.06370309 0.0072688758
-0.02244317 0.06412334 0.0068487823
-0.021568639 0.064705923 0.0062080026
-0.020283211 0.064052247 0.0059671998
-0.019116998 0.063723326 0.0057941377
-0.018357988 0.064792901 0.0054346919
-0.017146805 0.064300522 0.0053996444
-0.016260142 0.065040566 0.0051642656
-0.015083823 0.064644955 0.004983604
-0.014030283 0.064755157 0.0046494901
-0.012978782 0.064893909 0.0043878257
-0.011911977 0.06497442 0.0043892562
-0.11628136 0.065677434 0.0075348318
-0.10869069 0.061963849 0.022013575
-0.1097245 0.063143343 0.025776386
-0.10751131 0.062458955 0.027802408
-0.10642363 0.062421553 0.028183162
-0.10596228 0.062754363 0.028548121
-0.10373732 0.062038984 0.028774142
-0.10292789 0.062164366 0.028463006
-0.10338387 0.063064158 0.02830568
-0.10145226 0.06251099 0.027848512
-0.099755399 0.062092647 0.027453333
-0.10017475 0.062996499 0.027180105
-0.097930484 0.062226664 0.027045786
-0.098653115 0.063345686 0.027069032
-0.096475966 0.062606744 0.02685079
-0.094944119 0.062275171 0.026074558
-0.095887952 0.063577875 0.025497139
