ply
format ascii 1.0
comment PCL generated
element vertex 1270
property float x
property float y
property float z
element camera 0
property float view_px
property float view_py
property float view_pz
property float x_axisx
property float x_axisy
property float x_axisz
property float y_axisx
property float y_axisy
property float y_axisz
property float z_axisx
property float z_axisy
property float z_axisz
property float focal
property float scalex
property float scaley
property float centerx
property float centery
property int viewportx
property int viewporty
property float k1
property float k2
end_header
-0.023613183 0 0.0060693026
-0.021735128 0 0.0061401427
-0.020698808 0 0.0056463778
-0.019749854 0 0.0050362349
-0.018234199 0 0.0050362349
-0.01727353 0 0.0050362349
-0.015935728 0 0.0050362349
-0.014692547 0 0.0043479502
-0.013583888 0 0.0040498078
-0.10902525 0.0010189275 0.004075855
-0.10852955 0.0010238637 0.0052013099
-0.10692795 0.0010183614 0.02076602
-0.10620759 0.0010212268 0.024447888
-0.10515892 0.0010209604 0.024611264
-0.10383296 0.0010179701 0.02458474
-0.10350325 0.0010247846 0.024508059
-0.10167537 0.0010167536 0.023632348
-0.10046561 0.0010148041 0.02258724
-0.099038422 0.0010105962 0.022602379
-0.10035469 0.0010345845 0.022662222
-0.096132286 0.0010013781 0.021965116
-0.098960698 0.0010416915 0.023053974
-0.095753081 0.0010186498 0.022749573
-0.094057851 0.0010113748 0.02268225
-0.095426492 0.0010372445 0.022994518
-0.093639806 0.0010290088 0.022073895
-0.091509543 0.0010167727 0.020806313
-0.091319688 0.0010260639 0.020304501
-0.089240737 0.0010140993 0.019710183
-0.089470118 0.0010283922 0.0198071
-0.090051077 0.0010471055 0.019210428
-0.087736413 0.0010321931 0.018775791
-0.086031251 0.0010241816 0.018665731
-0.086085282 0.001037172 0.018455029
-0.084188931 0.0010266942 0.018352807
-0.083667628 0.0010329337 0.018187612
-0.082315914 0.0010289489 0.018161982
-0.081269115 0.001028723 0.018161982
-0.080124266 0.0010272341 0.018171698
-0.080152869 0.0010409463 0.018256903
-0.078114972 0.0010278285 0.01829797
-0.07702788 0.0010270384 0.01872775
-0.076629594 0.001035535 0.018911421
-0.07575465 0.0010377349 0.018241495
-0.075942233 0.0010547532 0.018241495
-0.073167972 0.0010305349 0.018247366
-0.072689615 0.0010384232 0.018164933
-0.072469175 0.0010502778 0.016547114
-0.070831366 0.0010416377 0.016543835
-0.070064142 0.0010457335 0.015517056
-0.068919264 0.0010442314 0.015665472
-0.067941219 0.0010452495 0.015369266
-0.066552334 0.0010398802 0.015171409
-0.066698991 0.0010587141 0.015243322
-0.064634211 0.0010424872 0.014643043
-0.063670762 0.0010437829 0.014613003
-0.062700786 0.0010450131 0.014285862
-0.061542965 0.0010431011 0.012899429
-0.060416523 0.0010416642 0.012687474
-0.059932534 0.0010514481 0.012576371
-0.058390852 0.0010426937 0.012565583
-0.057141755 0.001038941 0.012338191
-0.055987794 0.0010368109 0.012322247
-0.055321444 0.0010438008 0.012505263
-0.054417778 0.0010464957 0.012338191
-0.052857604 0.0010364236 0.012322247
-0.052297119 0.0010459424 0.012338191
-0.05178874 0.0010569131 0.012583822
-0.051037584 0.0010632831 0.013503283
-0.049206212 0.0010469407 0.013549119
-0.048025399 0.0010440304 0.012728512
-0.046964567 0.0010436571 0.012204617
-0.046704236 0.00106146 0.012141049
-0.045201439 0.0010511962 0.012107313
-0.044006482 0.0010477733 0.011376172
-0.043792915 0.0010681199 0.010077566
-0.041357014 0.0010339255 0.010122627
-0.040766075 0.001045284 0.010013998
-0.04057451 0.0010677502 0.010035545
-0.038525231 0.0010412225 0.010041565
-0.038082786 0.0010578552 0.010575831
-0.037398756 0.001068536 0.010944217
-0.036207858 0.001064937 0.010601759
-0.034592733 0.0010482647 0.010620266
-0.033874109 0.0010585659 0.010433406
-0.033089574 0.0010674056 0.010256052
-0.032362055 0.0010787352 0.010280281
-0.030587124 0.0010547284 0.010248989
-0.029425221 0.0010509008 0.0102112
-0.028347965 0.0010499246 0.010203153
-0.028058747 0.0010791826 0.0096975565
-0.026064916 0.0010425965 0.0092341602
-0.025760908 0.0010733712 0.0090551078
-0.024317319 0.0010572746 0.0091851354
-0.023287414 0.0010585189 0.0082200468
-0.022745922 0.0010831391 0.0083618462
-0.021591252 0.0010795626 0.0075381696
-0.020448221 0.0010762222 0.0074748695
-0.019358885 0.0010754936 0.0071500838
-0.018131075 0.0010665338 0.0068002641
-0.017079948 0.0010674967 0.0069492757
-0.016265344 0.0010843563 0.0067186356
-0.014760915 0.0010543511 0.0059489906
-0.014190207 0.0010915544 0.0051614046
-0.012913906 0.0010761588 0.0048803985
-0.011819824 0.0010745295 0.0041916668
-0.11072447 0.0020504531 0.0044462383
-0.1092701 0.0020424318 0.019005477
-0.10866605 0.0020503029 0.024085909
-0.10628919 0.002024556 0.025690645
-0.1070045 0.0020577789 0.026754528
-0.10437342 0.0020266683 0.027046055
-0.10515186 0.0020618013 0.026368827
-0.10354414 0.0020503791 0.026036054
-0.10330714 0.0020661426 0.025430799
-0.10185347 0.0020576459 0.024706483
-0.1010573 0.0020623941 0.025199354
-0.09963531 0.0020543362 0.025415987
-0.098066702 0.0020430563 0.025827229
-0.098244078 0.0020682963 0.025601923
-0.095439769 0.0020306334 0.025474042
-0.096122742 0.0020671557 0.02436918
-0.094780542 0.0020604467 0.024602801
-0.094125912 0.0020687014 0.024196029
-0.093768075 0.0020837348 0.023471355
-0.093093447 0.0020919875 0.023014367
-0.09059722 0.0020590278 0.023034662
-0.090350538 0.002077024 0.022573054
-0.089219742 0.0020748777 0.02207908
-0.087801531 0.0020659184 0.021744758
-0.088626988 0.0021101665 0.021615088
-0.085802048 0.0020675194 0.02138871
-0.084800422 0.0020683031 0.021247596
-0.084780239 0.0020933393 0.02095744
-0.082654774 0.0020663694 0.020877093
-0.082686104 0.0020933191 0.021131814
-0.081267223 0.0020837749 0.020915687
-0.079645 0.0020687012 0.020349443
-0.079675823 0.0020967321 0.020264387
-0.077656455 0.0020708388 0.020521641
-0.075901255 0.0020513851 0.020518631
-0.076787367 0.0021037634 0.019865185
-0.075716861 0.0021032463 0.019107789
-0.073563725 0.0020722179 0.019117147
-0.073782086 0.0021080596 0.019036233
-0.071788557 0.0020808277 0.018791378
-0.072343148 0.0021277396 0.018232554
-0.070708171 0.0021106915 0.018046826
-0.068660542 0.0020806226 0.017601818
-0.067838885 0.0020873502 0.017305613
-0.067175969 0.002099249 0.016279221
-0.066520028 0.0021117469 0.016507328
-0.066094331 0.0021320751 0.016442567
-0.06511154 0.0021348046 0.016200125
-0.062255193 0.002075173 0.016172945
-0.062887706 0.0021317864 0.015552968
-0.061311949 0.0021142052 0.014312834
-0.060152199 0.0021106035 0.014257967
-0.059333786 0.0021190639 0.014271885
-0.058314022 0.00212051 0.014086545
-0.057223976 0.0021194064 0.014252514
-0.05678181 0.0021427099 0.014419079
-0.055275653 0.0021259866 0.014344841
-0.053714674 0.0021064579 0.014546305
-0.053065035 0.0021226013 0.014621854
-0.051675569 0.002109207 0.014198303
-0.050653528 0.0021105637 0.01456213
-0.049874622 0.0021223244 0.014824122
-0.048495866 0.0021085159 0.014486909
-0.047904834 0.0021291038 0.014400929
-0.046906482 0.0021321129 0.014434665
-0.045839712 0.0021320798 0.013727039
-0.044510365 0.0021195412 0.013462663
-0.043563712 0.002125059 0.012664944
-0.04196335 0.0020981675 0.012664944
-0.042136073 0.0021608244 0.011852384
-0.040325012 0.0021223691 0.011889756
-0.039825588 0.0021527344 0.011524707
-0.038327288 0.002129294 0.011849016
-0.036934942 0.0021105681 0.011622161
-0.03590386 0.0021119919 0.011572987
-0.035406586 0.0021458536 0.011415571
-0.034383379 0.0021489612 0.011496723
-0.033204228 0.0021422082 0.011468887
-0.031898428 0.0021265619 0.011776537
-0.031332858 0.0021608868 0.011261046
-0.030169213 0.0021549438 0.011615872
-0.028981738 0.0021467954 0.011285305
-0.027621854 0.002124758 0.010807902
-0.026641283 0.0021313026 0.0099280775
-0.025433455 0.0021194546 0.0098122954
-0.02453411 0.0021334006 0.01026997
-0.02385913 0.0021690119 0.0095281005
-0.022470785 0.0021400747 0.009542346
-0.021420535 0.0021420536 0.0092918873
-0.020405214 0.0021479174 0.0088943541
-0.019173404 0.0021303785 0.0083803535
-0.018257255 0.0021479123 0.0075381696
-0.017223084 0.0021528855 0.0075789392
-0.016226806 0.0021635741 0.0073757768
-0.015359671 0.0021942386 0.0069559216
-0.014067275 0.0021641962 0.0060459971
-0.012845036 0.0021408394 0.0050217807
-0.011836474 0.0021520862 0.004983604
-0.010828798 0.0021657597 0.0040000379
-0.11221688 0.0031171355 0.019714475
-0.11103324 0.0031130812 0.024739653
-0.10706507 0.0030301437 0.02581951
-0.10838068 0.0030965907 0.026907295
-0.10616827 0.0030625463 0.027252764
-0.10566733 0.0030776893 0.027423829
-0.10550588 0.0031031142 0.026826918
-0.10350679 0.0030744588 0.026718229
-0.10250112 0.0030750337 0.026519805
-0.10243207 0.003104002 0.025889784
-0.099900849 0.0030581893 0.025704533
-0.10003044 0.0030937251 0.025825262
-0.10045584 0.0031392449 0.025603086
-0.097352162 0.0030742788 0.026459306
-0.096241817 0.0030715473 0.026375145
-0.095839627 0.003091601 0.025920659
-0.093270287 0.0030414222 0.02594763
-0.09602356 0.0031656115 0.025748312
-0.093873754 0.0031291249 0.025207698
-0.091396965 0.0030807967 0.02514866
-0.091837846 0.0031308357 0.025019258
-0.090862364 0.003133185 0.024259865
-0.088716008 0.0030947444 0.023396552
-0.089782424 0.0031687915 0.023483187
-0.086801127 0.0031000399 0.022944212
-0.085533179 0.0030915604 0.022849143
-0.085577942 0.0031309002 0.022849143
-0.084483683 0.0031290252 0.022104561
-0.083299264 0.0031237225 0.022104561
-0.082235917 0.0031228829 0.022104561
-0.079977624 0.0030760623 0.021832466
-0.080413736 0.0031330027 0.021374613
-0.079114646 0.0031229465 0.021763653
-0.077160858 0.0030864342 0.02195403
-0.077390872 0.0031374677 0.021418124
-0.075638965 0.0031084504 0.020681739
-0.07587558 0.0031614825 0.020002872
-0.074564315 0.0031506049 0.019998908
-0.073692679 0.0031582576 0.019884378
-0.072314009 0.0031440873 0.019538194
-0.071827009 0.0031688386 0.019128084
-0.0702236 0.0031443401 0.018957108
-0.068707138 0.003123052 0.018652916
-0.069054484 0.00318713 0.018791378
-0.06663163 0.0031233577 0.018252313
-0.066651829 0.0031738963 0.018198848
-0.065895326 0.0031884832 0.017969668
-0.064007476 0.0031479087 0.017198443
-0.063191295 0.0031595647 0.017028004
-0.062306635 0.0031681338 0.016687751
-0.061573509 0.0031848366 0.016355842
-0.060763735 0.0031980914 0.015571713
-0.058879744 0.003154272 0.015229464
-0.05774501 0.0031497278 0.015672445
-0.057794116 0.0032107842 0.015121341
-0.056524646 0.0031995082 0.015121788
-0.055293668 0.0031900194 0.0149405
-0.054741055 0.003220062 0.0149405
-0.053052124 0.0031831271 0.014895052
-0.051787466 0.0031706612 0.014862597
-0.051140942 0.0031963089 0.015006393
-0.049005765 0.0031280275 0.015317619
-0.049757376 0.0032450461 0.014852047
-0.04773777 0.0031825178 0.014848441
-0.045983057 0.0031352085 0.014852047
-0.045831185 0.0031975245 0.014587164
-0.044644665 0.0031889044 0.014373779
-0.043461073 0.0031800785 0.014052898
-0.043122739 0.0032342055 0.013780653
-0.041439593 0.0031876608 0.013213545
-0.040451255 0.00319352 0.013061136
-0.039723881 0.003220855 0.012534469
-0.038136497 0.0031780414 0.0125781
-0.03750838 0.003215004 0.012898117
-0.036582913 0.003227904 0.012661725
-0.035604559 0.0032367783 0.012661725
-0.034244753 0.0032104454 0.012505352
-0.033224441 0.0032152685 0.012536824
-0.031606074 0.0031606075 0.012572855
-0.031069594 0.0032140957 0.012175709
-0.030015467 0.0032159428 0.012428522
-0.028432675 0.0031591859 0.012409031
-0.028073868 0.0032392924 0.012091905
-0.026636304 0.0031963564 0.011532724
-0.025577674 0.0031972092 0.011185318
-0.024753539 0.0032287224 0.011079788
-0.023857418 0.0032532844 0.010620594
-0.022545878 0.0032208397 0.010290653
-0.021717381 0.0032576071 0.0096000135
-0.020360922 0.0032148825 0.0096316636
-0.019222444 0.0032037408 0.0092663467
-0.018586297 0.0032799346 0.0088484883
-0.017167252 0.0032188597 0.008538574
-0.016286874 0.003257375 0.0082700253
-0.015195634 0.0032562073 0.0075381696
-0.013921282 0.0032126035 0.006696552
-0.013092766 0.0032731914 0.0057144761
-0.012048155 0.0032858604 0.0051832795
-0.010726225 0.0032178676 0.0046798289
-0.11236776 0.0041235876 0.019005477
-0.11107662 0.0041139489 0.024942458
-0.10922216 0.0040830709 0.02636686
-0.1084061 0.0040907962 0.027223498
-0.10828558 0.0041251648 0.027537882
-0.10704371 0.0041170656 0.028245509
-0.10600575 0.004116728 0.028261334
-0.104654 0.0041040783 0.027735412
-0.10492571 0.0041554738 0.027618557
-0.10434456 0.0041737827 0.026938915
-0.10167995 0.0041082804 0.026694119
-0.10104792 0.0041244049 0.026707768
-0.10100549 0.0041651754 0.026721209
-0.098586872 0.0041077863 0.02663666
-0.097947523 0.0041241064 0.026839107
-0.097556569 0.0041513434 0.026767522
-0.095500737 0.0041075586 0.026750594
-0.094864637 0.0041245497 0.026532739
-0.095053129 0.0041781594 0.026449651
-0.092956319 0.0041313916 0.026211351
-0.092973582 0.0041785878 0.026097953
-0.091285698 0.0041493499 0.025921911
-0.090082951 0.0041417447 0.025493741
-0.090646833 0.0042161318 0.024748236
-0.089243181 0.004199679 0.024293929
-0.086628884 0.0041251848 0.024038315
-0.088023849 0.0042421129 0.02366811
-0.084376164 0.0041159103 0.023663521
-0.084259242 0.0041609504 0.023106724
-0.083938442 0.0041969223 0.02308327
-0.081832513 0.0041434183 0.023082167
-0.081184939 0.00416333 0.022820204
-0.079918735 0.0041516228 0.022461206
-0.078644074 0.0041391617 0.022606939
-0.078732349 0.0041990583 0.022590816
-0.078019246 0.0042172563 0.022070646
-0.076548137 0.0041944184 0.021603972
-0.075433277 0.0041907374 0.020948768
-0.073484331 0.0041399626 0.020745605
-0.072627455 0.0041501406 0.020754546
-0.073419422 0.0042561982 0.020550847
-0.071809135 0.0042240666 0.020094842
-0.069980368 0.0041779322 0.019817024
-0.070194624 0.0042542196 0.019900858
-0.067769907 0.004170456 0.019471437
-0.068240859 0.0042650537 0.019059688
-0.066532776 0.0042243032 0.018652916
-0.064011127 0.0041297497 0.018548101
-0.06460543 0.0042364215 0.018242419
-0.062223967 0.0041482644 0.018046826
-0.060906664 0.0041292654 0.017719954
-0.061488193 0.004240565 0.016918838
-0.05985409 0.0042002872 0.01659891
-0.059263967 0.0042331405 0.016579211
-0.058929816 0.0042858045 0.016260833
-0.056415923 0.0041789571 0.016051918
-0.056616332 0.0042729308 0.016104132
-0.055594314 0.0042764856 0.015900344
-0.054110613 0.0042439699 0.015852451
-0.052727293 0.0042181835 0.015565038
-0.052041382 0.0042482764 0.015334308
-0.050805666 0.0042338055 0.015349329
-0.05005493 0.0042599943 0.015473545
-0.048767142 0.0042406209 0.015473545
-0.04737683 0.0042112735 0.015349329
-0.046784744 0.0042531588 0.01535365
-0.045590367 0.0042409645 0.015214801
-0.044330437 0.004221946 0.014943451
-0.043987345 0.0042914483 0.014510959
-0.042481132 0.0042481134 0.014454842
-0.041495498 0.0042559486 0.014300644
-0.040212799 0.0042329263 0.014062613
-0.039240044 0.0042421664 0.01353544
-0.038341168 0.0042601298 0.013939738
-0.03719718 0.0042511066 0.013939738
-0.036003742 0.0042357342 0.014057487
-0.034994185 0.0042417194 0.013633251
-0.034103975 0.0042629968 0.013391912
-0.032827973 0.0042358674 0.013148397
-0.032163553 0.0042884736 0.012887567
-0.0313458 0.0043235584 0.01260677
-0.029628217 0.0042326022 0.012643397
-0.029049641 0.0043036505 0.012934268
-0.028002072 0.0043080109 0.012464821
-0.026615946 0.0042585512 0.011987358
-0.025997801 0.0043329671 0.011956602
-0.024717998 0.004298782 0.011742622
-0.023735017 0.0043154578 0.011238694
-0.022622107 0.0043089725 0.010919482
-0.021425823 0.0042851646 0.010737181
-0.020510912 0.0043180864 0.0098305047
-0.019325087 0.0042944639 0.0096645951
-0.018342525 0.004315888 0.0093082488
-0.017294575 0.0043236436 0.0093292892
-0.016125664 0.0043001771 0.0088890493
-0.01519445 0.0043412712 0.0082614422
-0.014367 0.0044206157 0.0073801875
-0.013085166 0.0043617222 0.0065070391
-0.011927881 0.0043374114 0.0055977106
-0.010957613 0.0043830452 0.0049822032
-0.0097823394 0.0043477067 0.0043129027
-0.11546402 0.0052483645 0.005032897
-0.11183263 0.0051299366 0.024555802
-0.1090394 0.0050481199 0.026381761
-0.10955331 0.0051193135 0.027457207
-0.10850945 0.0051183705 0.027877092
-0.10653034 0.0050728731 0.028544277
-0.10675245 0.0051323292 0.029225469
-0.10480487 0.005087615 0.029065222
-0.10389192 0.0050927415 0.028860003
-0.10418855 0.0051578488 0.02841264
-0.10071586 0.0050357929 0.027650565
-0.10126711 0.0051144999 0.02747491
-0.10157336 0.0051823147 0.027307242
-0.099048629 0.0051055993 0.027002722
-0.099500604 0.005182323 0.026872307
-0.09827178 0.0051721986 0.0273619
-0.098217905 0.0052243564 0.027468115
-0.096022867 0.0051625194 0.027227223
-0.094523177 0.0051371292 0.026854843
-0.093530335 0.0051390291 0.026699811
-0.09367656 0.0052042529 0.026504785
-0.092229515 0.0051814336 0.026491731
-0.091115572 0.005177021 0.026404321
-0.090168647 0.005182106 0.026160955
-0.089085996 0.0051794183 0.025398433
-0.087897405 0.0051704352 0.024984181
-0.088155285 0.0052473382 0.024714023
-0.085464664 0.0051484737 0.024178028
-0.086181164 0.005254949 0.024110258
-0.085607439 0.00528441 0.023508221
-0.08259695 0.0051623094 0.023511052
-0.082600549 0.0052278824 0.023487002
-0.081364781 0.0052156909 0.02389136
-0.080230065 0.005209744 0.023431093
-0.079543307 0.0052331118 0.023465604
-0.078694247 0.005246283 0.023374468
-0.076575242 0.0051740021 0.022671223
-0.07709337 0.0052803671 0.022002459
-0.07508558 0.0052142763 0.021647364
-0.073716752 0.0051913206 0.021475732
-0.072999641 0.00521426 0.021356255
-0.072202705 0.0052320799 0.02116251
-0.071014218 0.0052216337 0.020572454
-0.070602939 0.0052688755 0.020609975
-0.0690929 0.0052343104 0.020453751
-0.068444796 0.005264984 0.020273805
-0.067614786 0.0052824048 0.019656926
-0.066011116 0.0052389768 0.01935029
-0.06580992 0.0053072511 0.018938601
-0.064463943 0.0052839299 0.018724442
-0.062113725 0.0051761437 0.018347651
-0.063118547 0.0053490293 0.018133253
-0.061252024 0.0052803466 0.017719954
-0.059965979 0.0052601737 0.017022073
-0.059887901 0.0053471336 0.016838044
-0.057483051 0.0052257315 0.016649008
-0.056900527 0.0052685672 0.016277641
-0.056682039 0.0053473623 0.016367823
-0.054819345 0.0052710907 0.016104132
-0.053757478 0.0052703409 0.016029835
-0.053348981 0.0053348979 0.015998453
-0.05131045 0.0052357605 0.015797228
-0.051045436 0.0053172326 0.015997589
-0.04999093 0.0053181839 0.015917242
-0.048314404 0.0052515655 0.015841901
-0.04806532 0.0053405906 0.015834928
-0.046714108 0.0053084213 0.015657723
-0.04527108 0.0052640787 0.015595376
-0.044988818 0.0053558112 0.015475273
-0.043943845 0.0053590052 0.015112638
-0.042814836 0.0053518545 0.014997751
-0.041274242 0.0052915695 0.014758855
-0.040267035 0.0052982937 0.014598191
-0.039137866 0.0052889003 0.014458507
-0.038753275 0.0053823991 0.01475966
-0.036824118 0.0052605881 0.01487878
-0.035823036 0.0052680932 0.014734834
-0.035777252 0.0054207956 0.014294505
-0.034042731 0.0053191762 0.014147192
-0.033126682 0.005343013 0.01424557
-0.032237437 0.0053729056 0.013783425
-0.03075414 0.0053024376 0.013283372
-0.02994415 0.0053471695 0.013344109
-0.029290274 0.0054241242 0.012904793
-0.027686486 0.0053243241 0.012728721
-0.026835788 0.0053671575 0.012429863
-0.025500443 0.0053125923 0.012348235
-0.024651505 0.0053590229 0.012278885
-0.023703545 0.0053871693 0.01167053
-0.02236958 0.0053260904 0.011533469
-0.021456884 0.0053642211 0.011137933
-0.020531164 0.0054029375 0.010620594
-0.019230256 0.005341738 0.010279864
-0.018343046 0.0053950134 0.0096918046
-0.017007511 0.005314847 0.009606868
-0.016133437 0.0053778118 0.0093706548
-0.015255444 0.0054483726 0.0089184344
-0.014079028 0.0054150103 0.0076411068
-0.012945116 0.005393798 0.006696552
-0.011857152 0.0053896145 0.0058748722
-0.010710451 0.0053552254 0.0050553679
-0.0097590238 0.0054216799 0.00432989
-0.11524694 0.0062861969 0.020737648
-0.11165592 0.0061461972 0.025991619
-0.11124815 0.0061804526 0.027440727
-0.11016741 0.0061776112 0.028048486
-0.10704414 0.0060591022 0.028633237
-0.10747429 0.0061413883 0.029238343
-0.10686561 0.0061653238 0.030084074
-0.10677796 0.0062200748 0.029558063
-0.10679312 0.0062819482 0.029245436
-0.10297914 0.0061175725 0.028840959
-0.10207894 0.0061247363 0.028385133
-0.10258213 0.0062170988 0.028353125
-0.10014245 0.0061311703 0.028348088
-0.10013167 0.0061937114 0.02828607
-0.098848537 0.0061780335 0.027472109
-0.096775226 0.0061121192 0.027751386
-0.09716583 0.0062020742 0.0277448
-0.096268266 0.0062108557 0.027703851
-0.094235837 0.0061458154 0.027136743
-0.09566962 0.0063078869 0.026872963
-0.093073912 0.0062049269 0.026712865
-0.092104673 0.0062093041 0.02683714
-0.09226013 0.0062904633 0.026504755
-0.090409294 0.0062351236 0.026276022
-0.090323605 0.0063016466 0.025620341
-0.089501448 0.0063177492 0.025317043
-0.086508423 0.006179173 0.025164604
-0.0862794 0.006237065 0.024626195
-0.086002007 0.0062928293 0.02466169
-0.084200941 0.0062371069 0.024083674
-0.084339947 0.0063254959 0.02403751
-0.081879579 0.0062187021 0.024083674
-0.079551034 0.0061193099 0.023983032
-0.081287697 0.006334106 0.023789525
-0.07959529 0.0062838383 0.023818225
-0.076736607 0.0061389278 0.023712069
-0.077136122 0.00625428 0.023362547
-0.075899877 0.0062383455 0.022637635
-0.075087406 0.0062572835 0.022002459
-0.075278513 0.0063615651 0.021714479
-0.073610976 0.0063095125 0.021621525
-0.072283208 0.0062854961 0.021515906
-0.071404219 0.0063003721 0.021092832
-0.070661008 0.0063278517 0.020799965
-0.068634011 0.0062394557 0.02095446
-0.068043508 0.0062809391 0.020609975
-0.066402674 0.0062252507 0.020089716
-0.066376947 0.0063216141 0.020008296
-0.065852538 0.0063728262 0.01935029
-0.064101465 0.0063050622 0.019052505
-0.063160755 0.0063160756 0.018590987
-0.062205408 0.0063259732 0.018376678
-0.060487043 0.0062572802 0.018133253
-0.061474327 0.0064709815 0.017935246
-0.058641568 0.0062830248 0.017712414
-0.057524301 0.0062753782 0.017505974
-0.057890475 0.0064322748 0.017172337
-0.055536531 0.0062871543 0.016574264
-0.055172756 0.0063660871 0.016169637
-0.054313939 0.006389875 0.016063869
-0.052333839 0.0062800604 0.015662551
-0.051406566 0.0062946817 0.015641659
-0.051238384 0.006404798 0.015890181
-0.04969041 0.0063434569 0.016137719
-0.048750203 0.0063587218 0.015985608
-0.04785648 0.0063808635 0.015561342
-0.046048556 0.0062793484 0.015716434
-0.045764804 0.0063857865 0.015753835
-0.044933807 0.0064191152 0.015600443
-0.043258511 0.0063305134 0.015502304
-0.042871621 0.0064307428 0.015301824
-0.040889453 0.0062906849 0.015114576
-0.039725959 0.0062725195 0.015262067
-0.039882287 0.0064673973 0.015112638
-0.038771626 0.0064619379 0.014804393
-0.037118345 0.0063631451 0.014712542
-0.03699914 0.00652926 0.015042394
-0.034819569 0.006330831 0.014627099
-0.034379963 0.0064462428 0.014720052
-0.033440243 0.0064723049 0.014324903
-0.031714685 0.0063429368 0.014281273
-0.031373829 0.0064911363 0.014128685
-0.029839242 0.0063941232 0.014182806
-0.028517334 0.0063371849 0.013525844
-0.027878527 0.006433506 0.013172984
-0.02688507 0.0064524165 0.012578577
-0.025411932 0.0063529829 0.012536287
-0.024972655 0.0065146051 0.012245178
-0.023551391 0.0064231069 0.011618555
-0.022293378 0.0063695363 0.011594415
-0.021596204 0.0064788614 0.011358678
-0.020248126 0.0063941451 0.010769576
-0.019246042 0.0064153476 0.0105398
-0.018459432 0.0065150936 0.010196298
-0.016897757 0.0063366587 0.0099074543
-0.016422587 0.0065690349 0.009606868
-0.015028863 0.0064409412 0.0094830692
-0.01376722 0.0063541015 0.008541137
-0.013073379 0.0065366896 0.0075232387
-0.011827918 0.0064515914 0.006696552
-0.01076189 0.0064571337 0.0057144761
-0.0097899567 0.0065266378 0.0049538612
-0.1133997 0.0072163441 0.022100866
-0.11279938 0.0072439965 0.026007622
-0.11030949 0.0071496889 0.027552485
-0.10923685 0.0071463357 0.028119087
-0.10857681 0.0071701668 0.02839449
-0.10816368 0.0072109122 0.029039174
-0.10787407 0.0072607547 0.029808223
-0.10732729 0.0072940872 0.029118091
-0.10345077 0.0070995623 0.028860003
-0.10321403 0.0071534473 0.028585613
-0.10382578 0.0072678039 0.028264314
-0.10114276 0.0071515082 0.028213054
-0.099999338 0.0071428097 0.0281699
-0.10083474 0.0072767339 0.028189689
-0.098930113 0.0072136545 0.02745375
-0.098862126 0.0072845775 0.027249545
-0.096983567 0.0072221803 0.027577996
-0.096203811 0.0072411471 0.027478278
-0.094937339 0.007223493 0.026907742
-0.095152006 0.0073193847 0.026815087
-0.091860496 0.0071447049 0.026556164
-0.093054481 0.0073188921 0.026519686
-0.090537913 0.0072018798 0.026433885
-0.090074077 0.0072473399 0.026023626
-0.088900194 0.0072360621 0.025069177
-0.087875888 0.0072368379 0.024799019
-0.086800762 0.0072333966 0.024746686
-0.086845838 0.0073243477 0.024107069
-0.085391365 0.007289507 0.02458185
-0.083965331 0.0072562634 0.023719519
-0.083270125 0.0072861365 0.023657352
-0.081195965 0.0071945791 0.023569137
-0.081517592 0.0073156818 0.023597181
-0.079684913 0.0072440826 0.023364037
-0.077734955 0.0071597984 0.023285359
-0.079137973 0.0073862104 0.02342096
-0.078064702 0.0073844986 0.022734642
-0.075691111 0.0072580515 0.022288829
-0.076574907 0.0074447831 0.02163592
-0.074086457 0.0073042987 0.021503747
-0.072258659 0.0072258664 0.021577686
-0.07267832 0.0073731635 0.021361589
-0.071389139 0.007348882 0.020785004
-0.070513181 0.0073670489 0.020766407
-0.070171699 0.0074424529 0.020563155
-0.067645751 0.0072849267 0.020191699
-0.067921922 0.0074289599 0.019888729
-0.066969998 0.0074411104 0.019577384
-0.064370744 0.0072676642 0.019355893
-0.064893037 0.0074467417 0.018755376
-0.064019218 0.0074689086 0.018487781
-0.062053476 0.0073622768 0.018211603
-0.061964907 0.0074785231 0.017862588
-0.060106069 0.0073814471 0.017715514
-0.059389848 0.007423731 0.017127663
-0.059113193 0.0075234976 0.017260969
-0.056938753 0.0073809493 0.016470492
-0.056194175 0.0074218721 0.016200602
-0.054871891 0.0073866006 0.016063869
-0.054348785 0.0074596372 0.0157727
-0.052340813 0.007327714 0.015548497
-0.052086506 0.0074409293 0.015481979
-0.050669752 0.0073893392 0.015426427
-0.050214898 0.0074788146 0.015675396
-0.048923772 0.0074449219 0.01540491
-0.047216609 0.0073448056 0.015316486
-0.047027957 0.0074817208 0.015292168
-0.046070535 0.0074998545 0.015475273
-0.044142559 0.0073570935 0.015378058
-0.044268813 0.0075580897 0.015126348
-0.042122517 0.007371441 0.015088052
-0.041349273 0.0074216644 0.015037924
-0.04089367 0.0075330446 0.015112638
-0.039058585 0.0073894616 0.014586002
-0.038295716 0.0074463892 0.014624536
-0.037335794 0.0074671591 0.014722466
-0.035781123 0.0073667015 0.014896452
-0.035219178 0.0074707349 0.014470339
-0.034149103 0.007470116 0.014252454
-0.032675751 0.0073783952 0.014060408
-0.032495845 0.0075823637 0.014126331
-0.030787114 0.0074313721 0.013752013
-0.029836336 0.007459084 0.013573647
-0.028931696 0.0075008101 0.013452202
-0.027749274 0.0074709584 0.013172984
-0.026744034 0.0074883294 0.012702554
-0.025898732 0.0075537972 0.012630939
-0.024463473 0.0074454048 0.01229012
-0.023393748 0.0074434653 0.012033224
-0.022463799 0.0074879327 0.0116539
-0.021575844 0.0075515457 0.011379629
-0.020227637 0.0074522868 0.011129826
-0.019484252 0.0075772093 0.010610223
-0.018244337 0.0075123738 0.010266632
-0.017478958 0.007647044 0.010385901
-0.015971391 0.0074533159 0.0099074543
-0.015068346 0.0075341729 0.0092531443
-0.014154019 0.0076213949 0.0084341466
-0.013032629 0.0076023671 0.0076717734
-0.011858274 0.0075461748 0.0068013668
-0.011069846 0.007748893 0.0058006048
-0.0098136961 0.0076328749 0.0050180852
-0.11380211 0.0082765166 0.023509324
-0.1124803 0.0082554352 0.026323438
-0.10919228 0.0080883168 0.027297288
-0.11096502 0.0082964497 0.028111637
-0.10870323 0.0082040178 0.028469503
-0.10700732 0.0081529394 0.02915445
-0.10745821 0.0082660159 0.029844224
-0.1065442 0.0082752779 0.029194683
-0.10442837 0.0081904596 0.028846413
-0.10475571 0.0082974816 0.028698027
-0.10231303 0.0081850421 0.028436512
-0.10119689 0.0081775263 0.028242975
-0.10104523 0.0082485899 0.02745375
-0.098985508 0.0081637539 0.027472109
-0.098180212 0.0081816847 0.027733594
-0.098497108 0.008294493 0.027643889
-0.096945792 0.0082507059 0.027689427
-0.096934006 0.0083384085 0.027224392
-0.095960721 0.00834441 0.026844025
-0.092800044 0.0081582451 0.026725978
-0.093563989 0.0083167991 0.026493609
-0.09237241 0.0083031384 0.026479512
-0.090046592 0.0081860544 0.026281804
-0.090505391 0.0083223348 0.025844187
-0.08907561 0.0082861036 0.024714023
-0.088343345 0.0083146682 0.024319142
-0.086992308 0.0082849823 0.024245411
-0.085732125 0.0082633374 0.023812085
-0.085745022 0.0083653675 0.02379173
-0.085471585 0.0084416391 0.023551226
-0.083381154 0.0083381152 0.023630172
-0.082548335 0.0083593251 0.023569137
-0.081224538 0.0083307223 0.023387879
-0.080017813 0.0083135394 0.023054928
-0.079961821 0.0084170336 0.023181289
-0.077934496 0.0083130132 0.022981048
-0.076175839 0.0082352255 0.022477478
-0.076668367 0.0084020123 0.021987021
-0.075819753 0.0084244171 0.021695286
-0.074935451 0.008443431 0.021283686
-0.073146537 0.0083596045 0.021229833
-0.07274963 0.0084347399 0.021252602
-0.071095727 0.0083642034 0.020703107
-0.071722537 0.0085638845 0.020696282
-0.069342747 0.0084051825 0.02034393
-0.067607462 0.0083209183 0.020101905
-0.067271568 0.008408946 0.019812137
-0.065821156 0.008358242 0.019698173
-0.065107353 0.0084009487 0.019411266
-0.064967267 0.0085202977 0.018876463
-0.061929069 0.0082572093 0.018517166
-0.062790766 0.008514002 0.018344074
-0.061027754 0.0084176213 0.018242419
-0.05915726 0.0083027733 0.018131971
-0.060496084 0.0086422972 0.017721534
-0.058027592 0.0084403772 0.017557055
-0.05680237 0.0084151654 0.016634285
-0.056761738 0.0085678101 0.01632008
-0.055315766 0.0085101184 0.016122073
-0.053908326 0.0084562078 0.015800178
-0.053551283 0.0085682049 0.015537649
-0.052181944 0.0085195014 0.015484989
-0.050519239 0.0084198732 0.015533924
-0.050323561 0.0085657127 0.015505075
-0.047926918 0.0083351163 0.015195549
-0.048599318 0.0086398786 0.015145421
-0.046913795 0.0085297804 0.015145421
-0.045820795 0.0085247988 0.015279114
-0.04491464 0.0085551692 0.01521194
-0.043553144 0.0084981741 0.015126348
-0.042275853 0.0084551712 0.015176475
-0.042014662 0.0086183921 0.015024215
-0.040847953 0.0085995691 0.014732569
-0.039535183 0.008548147 0.014573991
-0.038291749 0.0085092774 0.014559835
-0.036919568 0.0084387586 0.014510036
-0.036419705 0.0085693421 0.014827311
-0.035574425 0.0086241039 0.014288485
-0.033476613 0.0083691534 0.01434648
-0.033561695 0.008661082 0.014321685
-0.031821355 0.0084856944 0.014105976
-0.030454176 0.0084011517 0.01400283
-0.029935408 0.0085529741 0.013464272
-0.02896155 0.0085811997 0.013279051
-0.027366787 0.0084205503 0.012733966
-0.026660644 0.0085314056 0.01221928
-0.025787987 0.0085959956 0.012403667
-0.024542123 0.00853639 0.01204282
-0.023720752 0.0086257281 0.011519939
-0.022510052 0.0085752578 0.011388808
-0.021513948 0.0086055798 0.011186004
-0.020362059 0.0085734986 0.010662138
-0.019446069 0.0086426977 0.0099920332
-0.018345991 0.0086334078 0.0095043778
-0.017426485 0.0087132426 0.0095766485
-0.01631058 0.0086989766 0.0095252991
-0.015134173 0.0086480984 0.0092217028
-0.014082858 0.0086663747 0.0079238415
-0.01276 0.0085066669 0.0074179471
-0.012080274 0.0087856539 0.0064325929
-0.010849928 0.0086799432 0.0054798126
-0.0095230639 0.0084649455 0.0046776831
-0.11490859 0.0094016111 0.023509324
-0.11071172 0.0091413343 0.026486814
-0.11105561 0.0092546325 0.027658224
-0.11059405 0.0093023023 0.028247565
-0.10707381 0.0090911724 0.028501898
-0.10853742 0.0093032075 0.029046953
-0.1081401 0.0093582775 0.029432386
-0.10566937 0.0092332456 0.029361635
-0.10409781 0.0091851 0.028976202
-0.10372369 0.0092427041 0.028667718
-0.10339019 0.0093051167 0.02842474
-0.10172494 0.0092477212 0.027526706
-0.099537313 0.0091411816 0.027388692
-0.099549465 0.0092365481 0.02745375
-0.098590709 0.0092428783 0.027549028
-0.097184941 0.0092069935 0.027552903
-0.096288241 0.0092190867 0.027368724
-0.09583576 0.0092744278 0.027142793
-0.094250582 0.0092201652 0.026600838
-0.094093561 0.0093059558 0.026507944
-0.092713535 0.0092713526 0.026317447
-0.092251219 0.0093287751 0.026227295
-0.091734305 0.0093819173 0.026055694
-0.090329789 0.0093444604 0.02575919
-0.088251024 0.0092355711 0.024995416
-0.089230917 0.0094479788 0.024377584
-0.085800193 0.0091928774 0.024318248
-0.085935846 0.0093183443 0.024079889
-0.086122625 0.0094524827 0.024079651
-0.08402019 0.0093355766 0.023908317
-0.084022485 0.0094525293 0.023908317
-0.082577191 0.0094075277 0.02394551
-0.080254316 0.0092601134 0.02350229
-0.081705347 0.0095499754 0.023139745
-0.079042852 0.0093603376 0.022981048
-0.077764235 0.0093317069 0.02290675
-0.077728912 0.0094535155 0.022318333
-0.076664418 0.0094517767 0.021831632
-0.075098775 0.0093873469 0.02163592
-0.07433071 0.0094222026 0.021279395
-0.073327713 0.0094278492 0.021192729
-0.071676455 0.0093491022 0.021274358
-0.071492545 0.0094622485 0.021092832
-0.07009545 0.0094158053 0.021065772
-0.069140673 0.0094282739 0.020640135
-0.069152772 0.0095749982 0.020369112
-0.066366605 0.009332804 0.019949496
-0.067213848 0.0096019777 0.019825369
-0.06542892 0.0094977459 0.019478649
-0.063721374 0.0094015142 0.019232184
-0.064038277 0.0096057411 0.018776
-0.062232431 0.0094930818 0.018602908
-0.061440974 0.0095339436 0.018470317
-0.060076103 0.0094857002 0.018131971
-0.058772095 0.0094455145 0.017683059
-0.058237147 0.0095297145 0.017451972
-0.057376832 0.0095628044 0.016732097
-0.056486525 0.0095920507 0.016328096
-0.055051964 0.0095282244 0.016130567
-0.054047372 0.0095377713 0.015846312
-0.052737925 0.0094928257 0.015440136
-0.052004289 0.0095518082 0.015485197
-0.050873939 0.0095388629 0.015472919
-0.049865633 0.0095487377 0.015580416
-0.048846513 0.0095569259 0.015195549
-0.047789864 0.0095579717 0.015319228
-0.046212796 0.0094526177 0.015319228
-0.046063378 0.0096411724 0.015426457
-0.044828251 0.0096060531 0.015262067
-0.043100826 0.0094611561 0.015195549
-0.042877782 0.0096475007 0.015206665
-0.040978413 0.0094565563 0.015202999
-0.040458381 0.0095822476 0.015206665
-0.039281555 0.0095549719 0.015022516
-0.0379728 0.0094932001 0.015022516
-0.03713442 0.0095488513 0.015022516
-0.036752347 0.0097285621 0.015225291
-0.034924977 0.0095249936 0.014644176
-0.034355715 0.0096625434 0.014697969
-0.033007875 0.0095829312 0.014387995
-0.031588066 0.0094764186 0.014298022
-0.031171961 0.0096740555 0.014008582
-0.029814638 0.0095832767 0.013893992
-0.028523197 0.0095077315 0.013256639
-0.028067579 0.0097157005 0.012930661
-0.026806775 0.009650439 0.012113363
-0.025716521 0.0096436953 0.012160271
-0.024882371 0.0097365789 0.011913061
-0.023633795 0.0096683707 0.011414021
-0.022659713 0.0097113047 0.011354417
-0.021848889 0.0098319994 0.011174619
-0.020220991 0.009578364 0.010817498
-0.019163322 0.0095816609 0.010511816
-0.018438205 0.0097614024 0.010083139
-0.01697238 0.0095469635 0.009947747
-0.01612605 0.0096756294 0.0097061992
-0.015152134 0.0097406572 0.0095332265
-0.013895976 0.0096202912 0.0087953508
-0.013007198 0.0097553991 0.0077955425
-0.012005229 0.009822459 0.0066462457
-0.010777442 0.0096996976 0.0057428181
-0.0098324623 0.0098324623 0.0049822032
-0.008776512 0.0098735755 0.0042447448
-0.11327299 0.010297544 0.022219568
-0.11230827 0.01030351 0.026126325
-0.11035032 0.010217621 0.02696386
-0.10729882 0.010027926 0.028248906
-0.10824211 0.01021152 0.029045194
-0.10789374 0.010275594 0.029367149
-0.10593139 0.010185711 0.029752851
-0.1061864 0.010309359 0.029875368
-0.10365821 0.01016257 0.029567122
-0.10315081 0.010212951 0.028833032
-0.10295271 0.010295271 0.028321534
-0.101936 0.010296565 0.028137892
-0.10011195 0.010215506 0.027692884
-0.10067017 0.010378367 0.027778715
-0.097725928 0.010179784 0.027365327
-0.098717637 0.010391329 0.02736032
-0.097242258 0.010344921 0.026913166
-0.094930306 0.01020756 0.026868552
-0.095966868 0.010431181 0.026434958
-0.09287665 0.010206224 0.026110858
-0.093291707 0.010365744 0.025995463
-0.092992701 0.010448618 0.025815248
-0.090848975 0.010323747 0.025616378
-0.089676902 0.01030769 0.025228441
-0.089599065 0.010418496 0.024683774
-0.087887846 0.010339746 0.024457216
-0.086987957 0.010355709 0.024119496
-0.086961374 0.010477274 0.024004191
-0.085290179 0.010401241 0.024079889
-0.084184773 0.010393182 0.023698986
-0.082707457 0.010338432 0.023732007
-0.081788234 0.01035294 0.023782641
-0.081789762 0.010485867 0.023407578
-0.080617532 0.010469809 0.023123503
-0.079161212 0.010415948 0.023100585
-0.078015901 0.01040212 0.022948802
-0.077582501 0.010484121 0.02230528
-0.075837038 0.010388635 0.022265136
-0.07559552 0.010499378 0.021825463
-0.074641772 0.010512926 0.021250188
-0.073121741 0.010445964 0.021215141
-0.072712675 0.010538069 0.021063298
-0.071324967 0.010488965 0.02107662
-0.070248492 0.010484849 0.020817012
-0.069478057 0.010526978 0.020398587
-0.067459263 0.010378348 0.020191699
-0.067838177 0.010599715 0.020050824
-0.066849567 0.010611042 0.019832164
-0.064872384 0.010463287 0.019478649
-0.065096132 0.010671496 0.019316971
-0.062844589 0.010474097 0.019128114
-0.062356904 0.010568966 0.018884778
-0.061909754 0.010674095 0.018752605
-0.06017236 0.010556554 0.01840657
-0.058934323 0.010523986 0.01787886
-0.058290217 0.010598221 0.017674267
-0.057494186 0.010647071 0.01725471
-0.056243028 0.010611893 0.01645261
-0.055325367 0.010639493 0.016083837
-0.054657903 0.010717236 0.015834272
-0.052535236 0.010507047 0.015393049
-0.052276969 0.010668769 0.015338749
-0.051298007 0.010687085 0.015533924
-0.05034928 0.010712612 0.015363723
-0.048902154 0.010630902 0.015546769
-0.047776159 0.010616924 0.015410155
-0.046964567 0.010673765 0.015448481
-0.045218896 0.010516022 0.015403032
-0.044260371 0.010538183 0.015574098
-0.043583106 0.010630025 0.015431613
-0.041899946 0.010474986 0.015314221
-0.041295424 0.01058857 0.015380472
-0.040647395 0.010696682 0.015051335
-0.038890719 0.010511004 0.014853418
-0.03786784 0.010518845 0.015116304
-0.037880361 0.01082296 0.014908016
-0.036572587 0.010756643 0.015391409
-0.035133418 0.010646489 0.014644176
-0.034151472 0.010672335 0.014713317
-0.032938104 0.010625195 0.014403671
-0.032177042 0.01072568 0.014310688
-0.030905655 0.010657121 0.014176756
-0.029870765 0.010668131 0.014038205
-0.029232539 0.010826866 0.013901561
-0.027977359 0.010760522 0.01333946
-0.026389973 0.010555989 0.013039917
-0.025516398 0.010631832 0.012981683
-0.024469389 0.010638865 0.012486577
-0.023507869 0.010685395 0.011847913
-0.022644309 0.010783004 0.011772215
-0.021265579 0.01063279 0.011839926
-0.02046505 0.010771079 0.011469811
-0.019404426 0.010780237 0.011244982
-0.018378099 0.010810646 0.011369616
-0.01728517 0.010803231 0.010987461
-0.016038291 0.010692194 0.010720074
-0.015308163 0.010934401 0.0101026
-0.01411771 0.010859777 0.0092217028
-0.012885788 0.010738156 0.0082821548
-0.011918722 0.010835201 0.0071176291
-0.010799349 0.010799349 0.0064209998
-0.0097874524 0.010874948 0.0050805509
-0.0086755548 0.010844443 0.0041547418
-0.11547063 0.011547063 0.023353547
-0.11109627 0.01121155 0.026232064
-0.10944109 0.011146777 0.027095497
-0.11019052 0.011327996 0.028253883
-0.10951582 0.011364848 0.028719336
-0.10806664 0.011321267 0.028863698
-0.10847101 0.011472895 0.029275745
-0.1045626 0.011166879 0.029158205
-0.10388678 0.011203475 0.028633565
-0.10629012 0.011576151 0.02841264
-0.10204161 0.011224576 0.028189689
-0.10195899 0.011328775 0.028126121
-0.10033204 0.011261759 0.027364671
-0.099388324 0.011270841 0.027692348
-0.098368533 0.011271394 0.027307242
-0.098339662 0.011386698 0.027129889
-0.096427448 0.011284063 0.027148902
-0.096271627 0.011386966 0.026926577
-0.094250336 0.011269061 0.026622295
-0.093373872 0.011286951 0.02644676
-0.093708694 0.011453284 0.026197791
-0.092526197 0.011435823 0.026084334
-0.091503352 0.011437919 0.02573812
-0.091013379 0.011507438 0.025210917
-0.090187937 0.011535666 0.024574876
-0.088607036 0.011466792 0.024211824
-0.087699041 0.011484398 0.024156958
-0.085549079 0.011337829 0.024054587
-0.085162401 0.011424224 0.024079651
-0.084992431 0.011542181 0.02374956
-0.082329281 0.011320276 0.023782581
-0.082964085 0.011551961 0.023782641
-0.08165393 0.011515298 0.023407578
-0.079464845 0.011352121 0.023035735
-0.079638615 0.011526641 0.02290675
-0.077817753 0.011413271 0.022738606
-0.075825654 0.01127138 0.022264332
-0.076948442 0.011594969 0.021610826
-0.075020581 0.011461479 0.021300524
-0.073179737 0.011337706 0.021121234
-0.073234774 0.011508321 0.021003783
-0.07252568 0.011562064 0.020982832
-0.07125096 0.011525891 0.020867079
-0.071267061 0.011700562 0.020621479
-0.069040976 0.011506829 0.020383626
-0.068737641 0.011632524 0.020103306
-0.067348488 0.011575521 0.020019889
-0.066511489 0.011613117 0.020136535
-0.066040866 0.011716927 0.019419551
-0.065205909 0.011758443 0.019360036
-0.063404761 0.011624206 0.019176811
-0.062580593 0.011667568 0.018889099
-0.061269019 0.011619985 0.01879558
-0.059766062 0.011533801 0.018559396
-0.059285481 0.011645362 0.017781794
-0.05781154 0.011562307 0.017334759
-0.056058519 0.011419327 0.017202973
-0.056543645 0.011735474 0.016499341
-0.054014266 0.011426094 0.016130567
-0.053849541 0.011614607 0.015881002
-0.053481419 0.011765911 0.015473872
-0.052258767 0.011731559 0.015762478
-0.051500943 0.011802299 0.015675396
-0.050072882 0.011719185 0.015422553
-0.048511807 0.011600649 0.015526444
-0.047944784 0.011719836 0.015529841
-0.046910878 0.01172772 0.015574098
-0.045275904 0.011582208 0.015403032
-0.044639401 0.011691271 0.015574098
-0.043997932 0.011804323 0.015315294
-0.042377569 0.011653832 0.015160471
-0.041403938 0.011678034 0.015054435
-0.040711626 0.011784944 0.015007257
-0.039184615 0.011649479 0.014853418
-0.038492605 0.011761629 0.014892966
-0.037057564 0.011646662 0.014848262
-0.036237746 0.011723977 0.014853418
-0.035323571 0.011774524 0.01448679
-0.033752616 0.011602461 0.014569253
-0.033197816 0.01177987 0.014259607
-0.032074653 0.011760706 0.014080346
-0.030432915 0.011543519 0.014118582
-0.029855195 0.011728826 0.01405108
-0.029022098 0.011823817 0.013851821
-0.027562778 0.011661176 0.013767034
-0.026733482 0.011762732 0.013205588
-0.025777571 0.01181472 0.013575226
-0.024789697 0.011855941 0.012707561
-0.023924079 0.011962039 0.012356937
-0.022612153 0.01184446 0.012326628
-0.021641621 0.011902892 0.01265955
-0.020299446 0.01175231 0.012379408
-0.019428365 0.01187289 0.012409568
-0.018235065 0.011799159 0.012462229
-0.017311325 0.011901536 0.011686295
-0.015785988 0.011576392 0.011315703
-0.015148538 0.011902423 0.010735869
-0.014032837 0.011873939 0.0091533065
-0.012804522 0.011737479 0.0084160864
-0.012066731 0.012066731 0.0072252154
-0.010823015 0.011905317 0.0062679052
-0.0096206358 0.011758556 0.00529024
-0.0088236798 0.01213256 0.004166007
-0.11406659 0.012443627 0.023328096
-0.11028762 0.012141756 0.026206613
-0.10936387 0.01215154 0.027093828
-0.11114706 0.01246509 0.0280343
-0.10635467 0.012040151 0.028494895
-0.10934691 0.01249679 0.028749883
-0.10582574 0.012210662 0.02962333
-0.10491425 0.012223019 0.029219538
-0.10554243 0.012416757 0.02860114
-0.10259435 0.012189426 0.028353125
-0.1023481 0.012281773 0.028137892
-0.10238552 0.012410366 0.02812919
-0.10067913 0.012328057 0.027692348
-0.10014574 0.012389164 0.027250081
-0.098560989 0.012320124 0.027200013
-0.096580952 0.012199699 0.027043283
-0.098038308 0.012515528 0.027113259
-0.095558368 0.012330112 0.026734293
-0.094353199 0.012306938 0.026363045
-0.093648717 0.012349281 0.026227623
-0.09363807 0.012485076 0.025947273
-0.090661302 0.012223996 0.02592051
-0.091811389 0.012519735 0.025583625
-0.089965656 0.012409057 0.025379032
-0.08827541 0.012317499 0.024752289
-0.088453986 0.012487622 0.024499178
-0.087181948 0.012454563 0.024246752
-0.086127676 0.012452194 0.024013549
-0.086537212 0.012663982 0.024118245
-0.084604301 0.012533971 0.023837149
-0.082744345 0.012411651 0.023985803
-0.082589895 0.012545301 0.024231255
-0.08075238 0.012423444 0.023782641
-0.081238218 0.012660502 0.023231596
-0.07869564 0.012425628 0.02290675
-0.077785403 0.012445663 0.022700042
-0.077527851 0.012572084 0.022167027
-0.076951839 0.012649616 0.022205591
-0.074842609 0.012473768 0.021638453
-0.07408645 0.012521654 0.021092683
-0.072094984 0.01235914 0.02103287
-0.072698824 0.012643274 0.020891249
-0.072459497 0.01278697 0.02075398
-0.07023105 0.012578695 0.020935625
-0.069758505 0.012683365 0.020495027
-0.068021148 0.01255775 0.020176739
-0.06633462 0.01243774 0.020121455
-0.066681296 0.012701199 0.020117372
-0.065210961 0.012621476 0.019219637
-0.064286157 0.012646458 0.019184262
-0.062937401 0.012587479 0.018962383
-0.062924832 0.012798271 0.018778741
-0.060911369 0.012602352 0.018686086
-0.060907152 0.012822558 0.018552363
-0.058324717 0.012498154 0.017663777
-0.057810787 0.012613262 0.017181307
-0.057528831 0.012784184 0.01686576
-0.055790313 0.012631769 0.016499341
-0.054620169 0.012604655 0.016130567
-0.054221913 0.012758097 0.015866965
-0.05214712 0.012515308 0.015426785
-0.051232379 0.012546705 0.015516162
-0.051325917 0.012831479 0.015443027
-0.049395066 0.012611507 0.01533702
-0.049341168 0.012871608 0.015392631
-0.048023149 0.012806172 0.015354872
-0.046574339 0.012702093 0.015399128
-0.046129987 0.012873485 0.015238464
-0.044801712 0.012800489 0.015262067
-0.043432996 0.012712096 0.015262067
-0.042828191 0.012848457 0.015131712
-0.041493259 0.012767157 0.014891267
-0.039917883 0.012605648 0.014657408
-0.039599493 0.012843078 0.014558315
-0.038072467 0.012690823 0.014821202
-0.037095297 0.012718387 0.014489233
-0.036317755 0.012818031 0.014445156
-0.034954235 0.012710631 0.014137924
-0.034197357 0.012824008 0.014475822
-0.032858256 0.012719324 0.014177144
-0.031683993 0.012673597 0.014008403
-0.031149995 0.012889653 0.014195025
-0.030210562 0.012947383 0.014142603
-0.028509403 0.012670845 0.014089823
-0.027464343 0.012675851 0.013837963
-0.026987053 0.012953785 0.013565391
-0.025466179 0.01273309 0.013714254
-0.024695557 0.012884637 0.013383508
-0.023319887 0.012719939 0.012823939
-0.022187464 0.012678551 0.013040632
-0.02134545 0.01280727 0.013404012
-0.020207768 0.012762801 0.013207316
-0.019323952 0.012882635 0.013102382
-0.018153014 0.012813892 0.013207316
-0.016681598 0.012511199 0.013050944
-0.015741916 0.012593534 0.0119977
-0.014958993 0.012821994 0.011612296
-0.013712691 0.012657869 0.010134846
-0.012908874 0.012908874 0.0087488294
-0.011797124 0.01286959 0.007727921
-0.010729626 0.012875551 0.0065823793
-0.0098771425 0.013169524 0.0052981079
-0.008753824 0.013130736 0.0040407181
-0.11373509 0.01344142 0.022299856
-0.11063853 0.013195421 0.026323438
-0.1115673 0.013429397 0.027462721
-0.10854978 0.01318829 0.02817747
-0.11024983 0.013521207 0.0283871
-0.107154 0.013266686 0.029109001
-0.10637009 0.013296261 0.029550016
-0.10742331 0.013558282 0.028992623
-0.10522749 0.013411347 0.028214365
-0.10429969 0.013424712 0.02815631
-0.10303827 0.013394974 0.028024137
-0.1019446 0.013386663 0.027877748
-0.099789955 0.013237444 0.027473569
-0.10056926 0.013478355 0.027427793
-0.097711712 0.013231794 0.027132362
-0.09877073 0.013515995 0.027078897
-0.097255863 0.013450279 0.026979476
-0.095308393 0.013322678 0.026537925
-0.095264196 0.013461245 0.026184529
-0.094117649 0.013445378 0.026319653
-0.093042471 0.013439468 0.02592051
-0.093381301 0.013639966 0.025842398
-0.091595039 0.013531086 0.025535554
-0.089389041 0.013356983 0.025365949
-0.089903429 0.013590054 0.024752289
-0.087859593 0.013437348 0.024452955
-0.087751582 0.013580602 0.024119496
-0.086358964 0.013526103 0.023919076
-0.084758498 0.013437322 0.024023771
-0.084177025 0.013509893 0.023827046
-0.08409591 0.013665585 0.023860067
-0.08233808 0.013549305 0.024048507
-0.081982739 0.01366379 0.023580283
-0.079923391 0.013493559 0.023139745
-0.077870652 0.013319979 0.022818983
-0.078826301 0.013663225 0.022657037
-0.076874539 0.013504986 0.022117078
-0.075064071 0.013367573 0.022019833
-0.074599423 0.013469341 0.021521002
-0.074438728 0.013629626 0.021396011
-0.07361073 0.013670565 0.0213027
-0.07324861 0.013800462 0.021057636
-0.070501082 0.013478148 0.020891249
-0.070757307 0.013729029 0.020982832
-0.070336595 0.013854179 0.02057609
