ply
format ascii 1.0
comment PCL generated
element vertex 1274
property float x
property float y
property float z
element camera 0
property float view_px
property float view_py
property float view_pz
property float x_axisx
property float x_axisy
property float x_axisz
property float y_axisx
property float y_axisy
property float y_axisz
property float z_axisx
property float z_axisy
property float z_axisz
property float focal
property float scalex
property float scaley
property float centerx
property float centery
property int viewportx
property int viewporty
property float k1
property float k2
end_header
0.088234067 -0.1027536 0.0063835382
0.090077616 -0.10358926 0.006438911
0.091957331 -0.10444536 0.0064687729
0.09215863 -0.10339749 0.0061862469
0.093197815 -0.1033036 0.0064360499
0.094125092 -0.10308938 0.006547451
0.094846211 -0.10265707 0.006254822
0.096254542 -0.10296998 0.0063883364
0.098291077 -0.10393999 0.0063883364
0.099343807 -0.10385944 0.0059314072
0.098912366 -0.10224649 0.0057761073
0.099960692 -0.10218204 0.0054109693
0.10111447 -0.10222562 0.0053518116
0.10240418 -0.10240418 0.0054282844
0.10359836 -0.1024844 0.0052354336
0.10526967 -0.10302989 0.005187273
0.10602908 -0.10268079 0.0051680803
0.07025066 -0.10310984 0.0051316023
0.071676962 -0.10353339 0.0052735507
0.071865551 -0.10218383 0.0055845678
0.073697709 -0.10317679 0.0054020286
0.074605167 -0.10286471 0.0054371357
0.07469397 -0.10145003 0.0057192147
0.076025605 -0.10174015 0.0058031976
0.078058206 -0.10294633 0.0060960352
0.078393213 -0.10191118 0.0061132908
0.079995669 -0.10252966 0.0062665045
0.081915215 -0.10353173 0.0065577924
0.081956923 -0.10216548 0.0065696239
0.082867175 -0.10190423 0.0067115128
0.084333368 -0.10232448 0.0065683126
0.085690521 -0.10260312 0.0065696239
0.087323003 -0.10319991 0.0064820349
0.087425165 -0.10199603 0.006682843
0.088007763 -0.10137603 0.0065956414
0.090907201 -0.10340694 0.0068019032
0.089511566 -0.10056237 0.0068455338
0.091744371 -0.10181388 0.0065422058
0.093796521 -0.10283715 0.0064716339
0.094213344 -0.10206446 0.0062302351
0.095317677 -0.10204598 0.006131947
0.096588954 -0.10220459 0.0061445236
0.095903181 -0.10031252 0.0061445236
0.098775797 -0.10214315 0.0061434805
0.099951521 -0.10219762 0.0061434805
0.099645495 -0.10075267 0.0061171353
0.10288993 -0.10288993 0.0058777034
0.10367198 -0.1025451 0.0054930449
0.10297723 -0.10076267 0.0054284334
0.10550617 -0.10213895 0.005253613
0.10637969 -0.10190054 0.0053268075
0.10788031 -0.10226154 0.0050505996
0.10857781 -0.10186166 0.0050804317
0.071563125 -0.10223304 0.005128175
0.07244952 -0.10188213 0.0056240559
0.073638491 -0.10196099 0.0056797266
0.074548937 -0.10165764 0.0058962703
0.074872524 -0.10057503 0.0058377087
0.076149993 -0.10078676 0.0059268773
0.077250548 -0.10076158 0.0061154068
0.079293169 -0.10194836 0.0060548186
0.079351321 -0.10058618 0.006134212
0.082167171 -0.10270897 0.0064995289
0.082468346 -0.10167331 0.0066504478
0.083742015 -0.10184839 0.0066339076
0.085366935 -0.10244033 0.0065574944
0.086796209 -0.10278498 0.0066339076
0.085921429 -0.10042765 0.0065016747
0.087372579 -0.10081451 0.0066850483
0.08925835 -0.10168673 0.0066092014
0.089918353 -0.10115815 0.006824553
0.091575548 -0.10175061 0.0069326162
0.092272505 -0.1012747 0.0069338977
0.092924356 -0.10076135 0.0066635907
0.094704129 -0.1014687 0.0064716339
0.095954932 -0.10159934 0.0063892901
0.096587114 -0.10107954 0.0062596798
0.098046422 -0.10142733 0.0064232349
0.097863548 -0.10008772 0.0064232349
0.098466754 -0.09957312 0.0063083172
0.10132251 -0.10132251 0.0063478649
0.1021577 -0.10103508 0.0062295198
0.10446235 -0.10219143 0.0060876608
0.10530496 -0.10190802 0.0061628819
0.10541541 -0.10092966 0.0061431825
0.10606973 -0.10048711 0.0062283278
0.10800809 -0.10125758 0.0061053932
0.10891783 -0.10105778 0.0056472719
0.10926966 -0.10034969 0.0053145587
0.1113977 -0.10127064 0.0050853193
0.069491804 -0.099754363 0.0050722957
0.071414888 -0.1008877 0.0051169991
0.072015814 -0.10014699 0.0054878891
0.072646685 -0.099470079 0.0053229332
0.073865436 -0.099606417 0.0056065321
0.075566746 -0.10037971 0.0056179464
0.076541863 -0.10017978 0.0059192181
0.077240489 -0.099629037 0.005900383
0.079817526 -0.10148228 0.0061127245
0.079941861 -0.10020881 0.0063637495
0.081196219 -0.10036755 0.0064921975
0.081727527 -0.099640414 0.0065228939
0.083453946 -0.10037029 0.0066306591
0.084994912 -0.10086063 0.0066511035
0.085985549 -0.1006936 0.0067186952
0.086669937 -0.10017694 0.0064874589
0.088116638 -0.10054334 0.0069325864
0.088773116 -0.10001022 0.0066375434
0.090481371 -0.10066053 0.0067073703
0.091501445 -0.10053863 0.0066203773
0.091049664 -0.098822199 0.006734252
0.093714155 -0.10048867 0.0066882968
0.095134921 -0.10079771 0.0065361261
0.094135553 -0.098565459 0.0064702034
0.096141867 -0.099495649 0.0061522126
0.09892422 -0.10119835 0.0062431097
0.098360322 -0.099478051 0.0062472224
0.10038891 -0.10038891 0.0058176517
0.10127749 -0.10015219 0.006203413
0.10174142 -0.099505343 0.0064700544
0.10422118 -0.10082266 0.0063301921
0.10525864 -0.1007314 0.0061739683
0.10602209 -0.10038261 0.0061739683
0.10696778 -0.10021192 0.0060785711
0.10751361 -0.099674068 0.005964011
0.10781908 -0.098926783 0.0059113204
0.11003879 -0.099933192 0.0058726668
0.11071401 -0.099530779 0.0056080818
0.11224945 -0.099902011 0.0053482354
0.11386327 -0.10033496 0.0052396953
0.069183044 -0.09980505 0.0050275326
0.07013905 -0.099552207 0.0051480532
0.071070194 -0.099272653 0.0051912069
0.070927076 -0.097524725 0.0053133667
0.073176771 -0.099070087 0.0055567622
0.075412929 -0.10055058 0.005694598
0.076833121 -0.10091515 0.0058181286
0.077574886 -0.10039103 0.0059579015
0.078284025 -0.099840499 0.0060839057
0.07898055 -0.099289834 0.006190002
0.079778761 -0.098880716 0.0062753558
0.081593044 -0.099724829 0.0064555407
0.082407825 -0.099340938 0.0064705312
0.083323844 -0.099087812 0.0065073371
0.083269611 -0.09770301 0.0066268444
0.086118862 -0.099716574 0.0066695809
0.086479716 -0.098833956 0.006552726
0.087993659 -0.099274896 0.0068038106
0.088798657 -0.098914966 0.0068546236
0.089500271 -0.098450296 0.0065639615
0.090181589 -0.097975053 0.0066973865
0.091917366 -0.098643027 0.0068492591
0.092973247 -0.098574042 0.0066973865
0.092862144 -0.097284153 0.0066329837
0.095934853 -0.099320792 0.0066373944
0.097528867 -0.099796981 0.0064198673
0.096944578 -0.098058879 0.00627774
0.099580295 -0.099580295 0.006190747
0.10015444 -0.099029101 0.0061789453
0.10104576 -0.098800294 0.0063199103
0.10294184 -0.099548154 0.0064359307
0.10381638 -0.099302627 0.0061126351
0.10565608 -0.099975646 0.005926162
0.10840195 -0.10148267 0.006136626
0.10608 -0.098263584 0.0059516728
0.10752138 -0.098561265 0.0058806539
0.1106471 -0.10038088 0.0056704879
0.10951065 -0.098336093 0.0055544972
0.11147276 -0.099086888 0.0053934455
0.11444922 -0.10071531 0.0052444041
0.11443502 -0.099705756 0.0051590502
0.070418879 -0.098813593 0.0051599741
0.071071662 -0.09814658 0.0051920116
0.072443977 -0.098478533 0.0055848062
0.073442474 -0.098299928 0.005717814
0.074937455 -0.098781198 0.0057254732
0.074149363 -0.096283495 0.0058647692
0.077645697 -0.099340811 0.0061345398
0.077078953 -0.097186513 0.0062764883
0.079186767 -0.098417833 0.0062447786
0.080936238 -0.099175394 0.006198585
0.081401579 -0.09836024 0.0064445436
0.082405083 -0.0982088 0.0067674518
0.08317554 -0.097787462 0.0067672133
0.085994601 -0.099753737 0.0068698525
0.086505026 -0.099025495 0.0069755912
0.086403377 -0.097624592 0.0071558356
0.088357016 -0.098552063 0.0072166026
0.088640608 -0.097616866 0.0072999597
0.0900672 -0.097948074 0.0071738362
0.09105815 -0.097803198 0.0070423484
0.093227834 -0.098912455 0.0072672665
0.093063354 -0.097548336 0.0070423484
0.094745658 -0.098129429 0.0066286623
0.095201224 -0.097441256 0.0067478418
0.097016282 -0.098144375 0.0065723956
0.098161317 -0.098161317 0.0064240992
0.099889271 -0.09875416 0.0065841973
0.10098759 -0.098718211 0.0064407289
0.10181861 -0.098424658 0.0064091384
0.1011429 -0.096697055 0.006532371
0.10373663 -0.098098777 0.0061212778
0.10524643 -0.098456338 0.0058748722
0.10626451 -0.098351195 0.0061223805
0.10673096 -0.097743087 0.0057162046
0.10951353 -0.099246636 0.0055983067
0.10782225 -0.096706562 0.0053063929
0.11053852 -0.098131135 0.005274117
0.11267958 -0.09902145 0.0051310956
0.065798417 -0.097563162 0.0050157011
0.067071892 -0.097765811 0.0050146282
0.068665922 -0.098421156 0.0050721169
0.069065154 -0.097370543 0.0050967634
0.069922648 -0.096989475 0.0051764846
0.07094828 -0.096850038 0.0055575371
0.072931357 -0.09800151 0.0053108633
0.072759435 -0.096266329 0.0054497719
0.074445479 -0.097004719 0.0055510402
0.075106882 -0.096405849 0.0056610703
0.076838762 -0.097178437 0.0058790147
0.077359974 -0.096419677 0.0061390996
0.07976862 -0.098001443 0.0062616765
0.079400055 -0.096174717 0.0064582825
0.081557296 -0.097415663 0.0067024231
0.082571551 -0.097276077 0.0066765249
0.08356455 -0.097115561 0.0069476068
0.085366338 -0.097886734 0.0069598854
0.084674172 -0.095815517 0.0072373152
0.086317338 -0.096406378 0.0072680116
0.088891707 -0.098008804 0.0074095428
0.089134686 -0.097032696 0.0075876117
0.090187103 -0.096951135 0.0073899627
0.091607571 -0.09726236 0.0074111521
0.091569401 -0.096036203 0.0072999597
0.09360601 -0.096989363 0.0072783232
0.095484011 -0.097757436 0.0070570409
0.095217288 -0.09633749 0.0070441365
0.097042888 -0.097042888 0.0067055821
0.097889438 -0.096764274 0.0068904757
0.098343857 -0.096108772 0.0067810416
0.10113102 -0.097722113 0.0065865815
0.10212842 -0.097589374 0.006428957
0.10118125 -0.095621832 0.0062767565
0.10432994 -0.097525813 0.005964607
0.10511041 -0.097198874 0.0057850182
0.10719172 -0.09806902 0.0057689846
0.10785215 -0.097634576 0.0056600571
0.10785188 -0.096617311 0.0055950284
0.10971946 -0.097277053 0.0054718256
0.11174514 -0.098062061 0.005284965
0.06400758 -0.097154364 0.005066216
0.064940207 -0.096840665 0.0050332844
0.066369601 -0.097265787 0.0052486956
0.067079723 -0.096640274 0.005037576
0.068832219 -0.097512312 0.0053457916
0.069296062 -0.096560091 0.0053851604
0.070253715 -0.096315578 0.0053213239
0.071748421 -0.096803427 0.0053883195
0.07210876 -0.09576945 0.0056693554
0.073413119 -0.096001767 0.0059423745
0.076604821 -0.098657727 0.005516082
0.075179473 -0.095376939 0.0059725046
0.077326961 -0.096658699 0.0058450401
0.078806885 -0.097080946 0.0062584281
0.07885012 -0.095746577 0.0063562989
0.080167346 -0.095974989 0.0065874457
0.08120586 -0.095868036 0.0065818429
0.082385086 -0.095927842 0.006560415
0.082961023 -0.095293067 0.0066122711
0.08475063 -0.096050717 0.0066648424
0.085575007 -0.095708892 0.0069063604
0.087692581 -0.096803494 0.00716573
0.088697679 -0.096657731 0.0075105131
0.088651478 -0.095384508 0.0075317025
0.092327207 -0.09809766 0.0075795054
0.090766206 -0.095248483 0.007581979
0.093103372 -0.096509598 0.0074759722
0.094015419 -0.09628085 0.0075218976
0.094438456 -0.095562726 0.0072553456
0.095469654 -0.095469654 0.00720945
0.097726345 -0.09658999 0.0071441233
0.098456718 -0.096193343 0.0068572462
0.099359952 -0.09597268 0.0066143274
0.10073157 -0.096204311 0.0063846111
0.1011605 -0.095540471 0.0064275265
0.10358547 -0.096755654 0.0063565969
0.10531425 -0.097301215 0.0060282946
0.10544591 -0.096375287 0.005844593
0.10593346 -0.095790893 0.0057984293
0.10788643 -0.096529968 0.0056606829
0.10773908 -0.095393971 0.0054483116
0.1095143 -0.095966145 0.0054069161
0.11096702 -0.096246906 0.0053347349
0.065618508 -0.095033705 0.0054745078
0.067762934 -0.096476041 0.0054788291
0.068624109 -0.096073754 0.0052872002
0.068821192 -0.094770171 0.005521208
0.071063653 -0.096279792 0.0052994788
0.071364008 -0.095152013 0.0059161186
0.072446048 -0.095085435 0.0058068335
0.073549449 -0.095048524 0.0063017309
0.074738406 -0.095121607 0.0061887205
0.075752355 -0.094973102 0.0062914193
0.078225411 -0.096631385 0.0065335333
0.07792934 -0.0948705 0.0064432025
0.079330944 -0.095197134 0.0065335333
0.08089219 -0.095703438 0.0066429079
0.08151529 -0.09510117 0.00676018
0.082263343 -0.094659187 0.006816715
0.084332891 -0.095729232 0.0066363811
0.084862515 -0.095046014 0.0068440735
0.086149931 -0.095218346 0.0070062578
0.086886153 -0.094784893 0.0071626902
0.087653697 -0.094396286 0.0074396133
0.089976422 -0.095671132 0.0075741708
0.089464881 -0.093938127 0.0077331662
0.091651686 -0.095046192 0.0080296099
0.092752948 -0.095015213 0.0079768002
0.093084365 -0.094205864 0.0079460442
0.094827145 -0.094827145 0.0075595379
0.096714593 -0.095576771 0.0076737404
0.096839592 -0.094587505 0.0072038174
0.09829703 -0.094907477 0.0068697631
0.09948501 -0.094962962 0.0066336989
0.1004156 -0.094774276 0.0066055357
0.10318325 -0.096304365 0.0064344704
0.10266034 -0.094763398 0.0066914856
0.10487426 -0.095754765 0.006632328
0.10524274 -0.095057964 0.0066742599
0.10534523 -0.094138294 0.0065893829
0.10871587 -0.096127719 0.0061509311
0.1090858 -0.095450073 0.0059413612
0.11042865 -0.095628932 0.0056337714
0.11079381 -0.094966121 0.0055200756
0.065795884 -0.094156176 0.0055580437
0.067147262 -0.094461404 0.0061534345
0.068325549 -0.094517007 0.0058342218
0.069003813 -0.093890429 0.0058000982
0.070305876 -0.094119161 0.0059432387
0.071861945 -0.094675265 0.0062325001
0.073438339 -0.095240347 0.006373018
0.072743975 -0.092888467 0.0066210628
0.075085692 -0.094425946 0.0066080987
0.07653746 -0.09481506 0.0062231123
0.07727433 -0.094320141 0.0067079067
0.078489795 -0.094415262 0.0066742897
0.08000806 -0.0948667 0.0068313181
0.080294386 -0.093865268 0.0070911646
0.081287302 -0.093706198 0.0072101653
0.082659237 -0.093982421 0.0072291493
0.08463721 -0.094930924 0.0074405372
0.084947139 -0.094008163 0.0074702799
0.085950427 -0.093866915 0.007668674
0.086399741 -0.09313219 0.0076717734
0.08904127 -0.094749041 0.0078478158
0.090573065 -0.095159046 0.0077050924
0.090591617 -0.093988806 0.0078486502
0.091242075 -0.093494967 0.0079777837
0.091666251 -0.092784129 0.0081395507
0.094483331 -0.094483331 0.0080406964
0.095564432 -0.094426759 0.0075424612
0.095423527 -0.093178265 0.0075404346
0.098378785 -0.094946966 0.0073426962
0.098141827 -0.093629554 0.0069604516
0.0993229 -0.093679555 0.0068068206
0.10088915 -0.094087631 0.006696254
0.10133002 -0.093448795 0.0071766675
0.10349375 -0.094395399 0.0074545741
0.10452044 -0.094295613 0.0069788992
0.10520367 -0.093891449 0.006544739
0.10615454 -0.093732201 0.0062283874
0.10769534 -0.094091721 0.0061543286
0.10821907 -0.093564406 0.0056388378
0.10967347 -0.093844309 0.0055873692
0.11182057 -0.094705179 0.0053274333
0.063916944 -0.093592666 0.0052796304
0.065282449 -0.093915105 0.0057081282
0.066268854 -0.093690448 0.0055510104
0.066945046 -0.093042269 0.0059520006
0.06894049 -0.094218671 0.0070100427
0.069767632 -0.093785994 0.0067791045
0.069848277 -0.09237998 0.0064643323
0.071687877 -0.093308032 0.0067795217
0.072023652 -0.092280306 0.0066862702
0.074019477 -0.093378417 0.0068530142
0.075385317 -0.093660548 0.0068959594
0.075026035 -0.091822915 0.0069651902
0.077977151 -0.094031274 0.0067183971
0.078270629 -0.093017265 0.0070087612
0.078865841 -0.092385694 0.0070133209
0.080352999 -0.092802055 0.0069133043
0.081484213 -0.092801459 0.0073381662
0.082292601 -0.092438258 0.0073276162
0.084318876 -0.093434431 0.0075556338
0.084414281 -0.09229295 0.0077554286
0.086307347 -0.093121089 0.0079155862
0.087549828 -0.093234882 0.0082023144
0.087879695 -0.092386343 0.0082003474
0.089749813 -0.093158029 0.0081922412
0.090243377 -0.092499457 0.0082864463
0.092536367 -0.093678787 0.0082998872
0.092249691 -0.092249691 0.0081371069
0.09452685 -0.093387976 0.0085110962
0.093843259 -0.091608897 0.0079626441
0.095724903 -0.092346378 0.0078237653
0.097919002 -0.093364634 0.0078811646
0.097650789 -0.092038676 0.0075342953
0.10045299 -0.093603924 0.0075448155
0.1003084 -0.092418976 0.0075819194
0.10253244 -0.093418442 0.0075144768
0.10463376 -0.094285369 0.0071664155
0.10399178 -0.09268833 0.0070266128
0.10570795 -0.093204856 0.0067272782
0.10825698 -0.094436936 0.006275177
0.10740817 -0.092710204 0.0060529411
0.10929921 -0.093359739 0.0057822466
0.11110169 -0.093921021 0.0057643354
0.11131709 -0.093142875 0.005690515
0.1149762 -0.094280489 0.005127579
0.064410783 -0.093165591 0.0051367283
0.065449499 -0.093007185 0.0052572489
0.066644169 -0.093072034 0.0061966181
0.067195572 -0.092251547 0.0063812435
0.068597838 -0.092607081 0.0064519346
0.070015602 -0.092971534 0.0065762997
0.071203858 -0.093024395 0.0071179271
0.071603902 -0.09206216 0.0074642301
0.07282763 -0.092172466 0.0070964098
0.074493378 -0.092830211 0.0073710084
0.074772067 -0.091765724 0.0072079003
0.075497776 -0.091273427 0.0071313977
0.077232018 -0.09199696 0.0077041388
0.078269519 -0.09188161 0.0072331131
0.078283109 -0.09058474 0.0075720251
0.080737725 -0.092109241 0.0077616274
0.081672125 -0.091881141 0.007882297
0.083214901 -0.092334345 0.007938236
0.083554022 -0.091457784 0.0080418885
0.085146293 -0.091958001 0.0081474781
0.086034298 -0.091694452 0.0083630383
0.086897179 -0.091411315 0.0082841218
0.088003613 -0.091388367 0.0083307028
0.089386418 -0.091649361 0.0082195401
0.090817742 -0.091952965 0.007974416
0.091470651 -0.091470651 0.0082829297
0.093144804 -0.092008889 0.0081941187
0.093031488 -0.090789765 0.0080547631
0.094764113 -0.09137968 0.0085275471
0.096994393 -0.092429951 0.0081418157
0.097152345 -0.091503955 0.0080256462
0.099665679 -0.092792183 0.0075589716
0.10018037 -0.092211477 0.0075110197
0.10058068 -0.091539718 0.007319212
0.10231243 -0.092081189 0.0071928799
0.10230663 -0.09106414 0.0069087446
0.10464819 -0.092135906 0.0067789853
0.10502471 -0.091473132 0.0064453781
0.1064178 -0.091700442 0.0061627328
0.10883629 -0.092797264 0.0059185326
0.11028862 -0.093056023 0.0055100918
0.10924685 -0.091226757 0.0054564178
0.11258577 -0.093055584 0.0052895248
0.064628519 -0.092326462 0.005297929
0.065431334 -0.09183345 0.0057228208
0.066730194 -0.092041641 0.0057427883
0.068437502 -0.092796616 0.0064005852
0.06833382 -0.091111757 0.0066545904
0.069824181 -0.091572694 0.0067102313
0.070890404 -0.091471493 0.0070557892
0.071515679 -0.090813562 0.0071507394
0.072879933 -0.091099918 0.0073487461
0.072607815 -0.089363463 0.0079468191
0.075383052 -0.091373391 0.0078177154
0.076642923 -0.091513939 0.007692039
0.077714585 -0.091428921 0.0074374378
0.078049257 -0.090491891 0.0078683496
0.080712214 -0.092242531 0.0075446367
0.080532514 -0.09074086 0.0079645813
0.081816658 -0.090907402 0.0079707801
0.082951829 -0.090906113 0.0083914399
0.083905444 -0.090708591 0.0083727837
0.085752919 -0.09146978 0.0083727837
0.086177453 -0.090713106 0.0087587833
0.08715678 -0.090552501 0.0088841021
0.089785643 -0.092087835 0.0085288286
0.088975295 -0.090101562 0.0084615052
0.091406129 -0.091406129 0.0084237158
0.092947625 -0.091800123 0.0082892478
0.094108053 -0.091812737 0.0078372359
0.09455312 -0.091135539 0.0074849129
0.095654905 -0.09109991 0.0073106587
0.094252639 -0.088708371 0.0072801411
0.096961319 -0.09019658 0.0071050227
0.098802157 -0.090852559 0.0068560541
0.098545723 -0.089587025 0.0067932904
0.10164333 -0.091364793 0.0067774951
0.10189457 -0.090572953 0.0067774951
0.10273489 -0.090316392 0.0066940784
0.10429766 -0.090693623 0.0064343512
0.1063031 -0.091443524 0.0060412288
0.10623761 -0.090414986 0.0063250065
0.11027009 -0.092859022 0.0062764585
0.1097369 -0.09144742 0.0053060651
0.11081169 -0.091391087 0.0051900446
0.064468987 -0.090947323 0.0050136149
0.065858006 -0.091276892 0.005364418
0.066909917 -0.091135919 0.0058237016
0.067968547 -0.09100873 0.0060714185
0.069322526 -0.091274664 0.0064982474
0.070854701 -0.091762647 0.0065977871
0.070502006 -0.0898332 0.0070303679
0.071929358 -0.090197124 0.0072394311
0.072406352 -0.089376584 0.007157892
0.074692875 -0.090780579 0.0076546967
0.075736947 -0.090654835 0.008230567
0.075578265 -0.089114666 0.0083219707
0.077379048 -0.089896247 0.0084247589
0.078492887 -0.089868665 0.0082691908
0.078739248 -0.088862866 0.0085146725
0.080538891 -0.089613698 0.008574903
0.081220992 -0.089117475 0.0088928342
0.082709931 -0.089508012 0.0087635815
0.083814874 -0.089478038 0.0089368224
0.085929781 -0.090512708 0.0089191198
0.086238585 -0.089642733 0.0088598132
0.088076875 -0.090364583 0.0090125203
0.088928536 -0.090068638 0.0088604093
0.08937259 -0.08937259 0.0087890029
0.090841956 -0.089706428 0.0087249875
0.090998568 -0.088751689 0.0087187886
0.093749821 -0.090319946 0.0084328055
0.094407573 -0.089857809 0.0084328055
0.095602468 -0.089911841 0.0080303848
0.095713057 -0.08895684 0.0082196891
0.097861819 -0.089896321 0.0077655017
0.098144077 -0.089119337 0.0071491301
0.10076506 -0.090459533 0.006934613
0.10006389 -0.088820755 0.0069140196
0.10344797 -0.090804338 0.0069397688
0.10376062 -0.090077907 0.0067560077
0.10596553 -0.090992145 0.0066113174
0.10551946 -0.089634806 0.0063173175
0.10953953 -0.092059821 0.0063251257
0.10796718 -0.089783236 0.0064349771
0.10960929 -0.090199314 0.0055468678
0.10987593 -0.089486584 0.0053072274
0.11173123 -0.090069056 0.0052084327
0.063353933 -0.089847401 0.0050160885
0.067061447 -0.090186082 0.0055832565
0.068012759 -0.089915171 0.0061450601
0.069147781 -0.089892119 0.0064679384
0.069088362 -0.088342495 0.0067240298
0.071184218 -0.08955434 0.0074736476
0.072554365 -0.089829214 0.0076957643
0.072768472 -0.088686578 0.0077583194
0.074554436 -0.08946532 0.0079299212
0.075299896 -0.088990785 0.0082167685
0.075844519 -0.0882966 0.0088795722
0.077714443 -0.089143038 0.0089871287
0.077185959 -0.087253697 0.0090572536
0.080243543 -0.089414231 0.0091302097
0.080519311 -0.088457838 0.00938043
0.081953898 -0.088783391 0.0091125369
0.08248923 -0.088139176 0.0094203651
0.083697252 -0.088221431 0.0093165636
0.085904829 -0.08934103 0.0095058978
0.086924784 -0.089212276 0.0094929039
0.08800073 -0.089143597 0.0094207227
0.089065157 -0.089065157 0.0091706514
0.090376526 -0.089232519 0.00894171
0.090843737 -0.088572644 0.0088388026
0.092826888 -0.089388855 0.0088594258
0.094137058 -0.089545004 0.0085290968
0.093111753 -0.087502614 0.0085144341
0.096607558 -0.089707017 0.0086713731
0.096572861 -0.088619806 0.0081473589
0.096909113 -0.087894313 0.0081322789
0.0988684 -0.088640638 0.0080030262
0.099525198 -0.088215515 0.0074332356
0.10024488 -0.087855063 0.007755667
0.10314094 -0.08938881 0.0073730648
0.10399966 -0.089142561 0.0072205961
0.10530907 -0.089283772 0.0068769157
0.10618683 -0.089059919 0.0064235032
0.10644738 -0.088328682 0.0061286092
0.10775024 -0.088468619 0.0060784817
0.1112437 -0.090385504 0.0055858195
0.11080503 -0.089100957 0.0051701069
0.11162923 -0.088847756 0.0050992966
0.064697452 -0.088959001 0.005313158
0.065672539 -0.088715531 0.0055191219
0.067160361 -0.089161165 0.0056991875
0.06802468 -0.088777974 0.005967617
0.069026582 -0.088584118 0.0066748261
0.070081733 -0.088463821 0.0068502128
0.0704377 -0.087479077 0.0072657466
0.071217962 -0.087044172 0.0080004036
0.073398963 -0.088308126 0.0082076192
0.074127182 -0.0878122 0.0087331533
0.075475104 -0.088054292 0.0088202953
0.076543801 -0.087968253 0.0090610981
0.077101022 -0.087305568 0.0093904436
0.079523861 -0.088744022 0.0094344318
0.079796866 -0.087776549 0.0094610453
0.079658724 -0.086390451 0.0094533861
0.082742587 -0.088488601 0.0095765889
0.082250491 -0.086757369 0.009555608
0.083671875 -0.087063976 0.0097743273
0.08597336 -0.088265978 0.0097173154
0.086481817 -0.087619737 0.0095589459
0.08656951 -0.08656951 0.0093723238
0.089745268 -0.08859469 0.0092444718
0.090232022 -0.087947667 0.0089769363
0.091235615 -0.087814279 0.0088154972
0.093758784 -0.089128718 0.0089380145
0.092001908 -0.086392038 0.0086720288
0.094075128 -0.087274514 0.0086814761
0.096599109 -0.088549182 0.0084227324
0.095463336 -0.086478554 0.0082885027
0.097323798 -0.08713875 0.0081103742
0.10031522 -0.088784739 0.0081254244
0.10016835 -0.087647311 0.008033514
0.10139611 -0.087724723 0.0078599453
0.10352103 -0.088567987 0.0076311231
0.10366161 -0.087713674 0.0071614981
0.10417799 -0.087192446 0.0069651306
0.10714544 -0.088711813 0.0067482293
0.10725442 -0.087857336 0.0063545704
0.10738664 -0.087039702 0.0056117475
0.11024204 -0.088423304 0.00547719
0.1116423 -0.08862327 0.0051570535
0.063703462 -0.088026598 0.0052886307
0.064886965 -0.088060886 0.0052442551
0.065282688 -0.087043583 0.0054852664
0.067133404 -0.08796791 0.0059672594
0.068036206 -0.087639861 0.0058888197
0.069456302 -0.087977983 0.0065514743
0.069800563 -0.086964637 0.0071896315
0.070829101 -0.086822771 0.0074872971
0.072106823 -0.086986005 0.0078228712
0.072697394 -0.086328156 0.0084272325
0.074088976 -0.086627111 0.0089395642
0.075918891 -0.087421753 0.0090565085
0.075384706 -0.085511014 0.0093774199
0.077643231 -0.086777724 0.009893328
0.079376154 -0.087428801 0.010399044
0.078897223 -0.085659839 0.010340482
0.080215447 -0.085864417 0.010086626
0.082175389 -0.086740687 0.010078043
0.082586922 -0.085980907 0.010155499
0.085188441 -0.087490834 0.010101587
0.086901061 -0.088059738 0.010003895
0.085784175 -0.085784175 0.0098563433
0.08812692 -0.086982414 0.0096167326
0.088723227 -0.086448267 0.009508431
0.089710318 -0.086303599 0.0090211332
0.092275135 -0.087661378 0.0088400841
0.09084253 -0.08523497 0.0086818337
0.093134351 -0.086319648 0.0085097551
0.092999689 -0.085156344 0.0085759759
0.095002219 -0.08595439 0.0085130632
0.097115226 -0.086832441 0.0083034933
0.098545015 -0.08708629 0.0082404613
0.099118263 -0.086586073 0.0082131028
0.099735811 -0.086135469 0.0079385042
0.10133882 -0.086536519 0.0075202584
0.10208196 -0.08620254 0.0071985126
0.1047511 -0.087484434 0.0071333349
0.10463063 -0.086433999 0.0071082413
0.1051601 -0.085937284 0.0066789389
0.10807226 -0.087377571 0.0061140358
0.10845955 -0.086767644 0.0055030882
0.11054915 -0.087518074 0.0055324733
0.11146576 -0.087333992 0.0053317547
0.062634863 -0.085411176 0.005094111
0.065126702 -0.087223262 0.005702883
0.065972097 -0.086805388 0.0058273077
0.066827089 -0.086414345 0.0059091151
0.067533188 -0.085847266 0.0062741637
0.069215335 -0.086519167 0.0067462325
0.069943808 -0.085996479 0.007257551
0.071164429 -0.086085998 0.0080039203
0.072197914 -0.085949905 0.008471638
0.072559439 -0.085030593 0.008435756
0.074537508 -0.086004816 0.0089803636
0.074305296 -0.08443784 0.0092778802
0.076492757 -0.085626222 0.0094110072
0.078152627 -0.086197749 0.0096046925
0.078215852 -0.085017234 0.0098698139
0.079253383 -0.084914334 0.0098969936
0.081646785 -0.08624661 0.0098040998
0.082218744 -0.085644521 0.010208666
0.083040796 -0.085315883 0.0097796023
0.084110282 -0.085246906 0.010086983
0.085329749 -0.085329749 0.0095552802
0.086246938 -0.08511211 0.0093047321
0.08783327 -0.085551888 0.0091372728
0.089058325 -0.085633002 0.0089707673
0.089023061 -0.084515564 0.0095337331
0.089973725 -0.08435037 0.0092767477
0.093191303 -0.086288244 0.0085030794
0.093715265 -0.085715182 0.0087002814
0.094303034 -0.085213587 0.0086740553
0.095851324 -0.085581541 0.0082038045
0.097691327 -0.086198226 0.0082620084
0.097636081 -0.085147746 0.0082146823
0.098286904 -0.084730089 0.0080539584
0.10111435 -0.086176999 0.007904619
0.10162926 -0.085642643 0.0078282058
0.10242876 -0.085357308 0.0076121092
0.10490242 -0.086458035 0.0075809956
0.10573652 -0.086198255 0.0070228577
0.10635982 -0.085774049 0.0067011714
0.10921785 -0.087141901 0.0063211024
0.10890895 -0.085980751 0.0059067309
0.11239273 -0.087806821 0.0054129958
0.11076157 -0.085640386 0.0052254796
0.11137112 -0.085233003 0.0051894784
0.064243771 -0.086437076 0.0053428411
0.06499885 -0.085891336 0.0056693554
0.066229381 -0.085982002 0.0062100291
0.067423545 -0.086023137 0.0065968931
0.067635998 -0.084831588 0.0067825913
0.068872891 -0.084943235 0.0069893897
0.070749879 -0.085827723 0.0074726641
0.071276091 -0.085071467 0.0081778467
0.072099559 -0.084688373 0.0086511075
0.073907033 -0.085455008 0.0086471438
0.073983885 -0.084227808 0.0089093745
0.075721502 -0.084899865 0.0096059144
0.077159129 -0.085220531 0.0094900429
0.077867463 -0.08473812 0.0096393824
0.077971824 -0.083621956 0.009848088
0.079894118 -0.084459499 0.010095477
0.080763206 -0.084175736 0.010143399
0.082464002 -0.084754668 0.0099867582
0.082948916 -0.084085204 0.010040402
0.083221287 -0.083221287 0.009881258
0.084868118 -0.083736539 0.0096234381
0.086382724 -0.084109493 0.009444654
0.087860599 -0.08443746 0.0094161332
0.089830317 -0.08522363 0.0090810657
0.089130878 -0.083489686 0.0097703338
0.091136277 -0.084301062 0.0093766749
0.093495086 -0.085415266 0.0089672208
0.093026742 -0.083950967 0.0090118349
0.094608814 -0.084350027 0.0090034306
0.096225657 -0.084770218 0.00874421
0.095533803 -0.0831706 0.0085965395
0.098335579 -0.084614336 0.0084476173
0.09954682 -0.084672004 0.0084180832
0.10031506 -0.084355846 0.0076767206
0.1020565 -0.084855966 0.0075885952
0.10239629 -0.084192507 0.0070185959
0.10369439 -0.084322907 0.0073712766
0.10628651 -0.085491322 0.0068875253
0.10600161 -0.084345371 0.0065919161
0.10812232 -0.085117571 0.0064374804
0.10939721 -0.085214667 0.0059404373
0.10889843 -0.08394254 0.0055575371
0.11214736 -0.085555717 0.0056647956
0.11317518 -0.085458808 0.0052452087
0.1134407 -0.084794059 0.005143702
0.063521758 -0.084310696 0.0055252314
0.064671688 -0.084304169 0.0057809353
0.066067971 -0.084613368 0.0059844553
0.067025647 -0.084359862 0.0065144002
0.068334386 -0.084549323 0.0069195628
0.069611728 -0.084694266 0.0071504712
0.070423432 -0.08427722 0.0076062083
0.071100675 -0.083715312 0.0081091821
0.07276094 -0.084310301 0.0087839961
0.0729196 -0.083173923 0.0088451505
0.074182138 -0.083312243 0.0089400113
0.076112799 -0.084185369 0.0093794167
0.075917751 -0.082716353 0.0099915266
0.0776143 -0.083321236 0.01018247
0.079128131 -0.083715267 0.010341972
0.07960014 -0.083011575 0.010712802
0.081123628 -0.083408795 0.010687709
0.082881138 -0.08403226 0.010334074
0.082655728 -0.082655728 0.010398567
0.084365733 -0.083225653 0.010111392
0.085803598 -0.083515503 0.010008365
0.0861414 -0.082741082 0.00986588
0.08815854 -0.083578877 0.0099795759
0.089597054 -0.083853655 0.009655714
0.089327723 -0.082543336 0.010370374
0.091807686 -0.083774514 0.0098850429
0.091173634 -0.082168832 0.0092051029
0.093767881 -0.08347629 0.0090386868
0.095215462 -0.083743721 0.0088762641
0.095450401 -0.082950942 0.0089547932
0.09707386 -0.083369315 0.0085226595
0.099172749 -0.084181525 0.0082570314
0.097954504 -0.082191713 0.0081828833
0.10055435 -0.083414406 0.0078987181
0.10198168 -0.083647899 0.007519871
0.10324909 -0.083746485 0.0073877871
0.10529508 -0.084467486 0.0072334707
0.10582252 -0.083967865 0.0068776608
0.10616568 -0.083334349 0.0066647828
0.10839948 -0.084182575 0.006225884
0.1094637 -0.084114209 0.0059011579
0.11091135 -0.084338836 0.0055641234
0.11160789 -0.083993569 0.0054767728
0.11220808 -0.083583571 0.0052733123
0.062692672 -0.083590224 0.0050680637
0.063355491 -0.082938097 0.0056174994
0.065574467 -0.084310025 0.0061614811
0.06587524 -0.083210833 0.0062325895
0.067286618 -0.083528221 0.0065875053
0.067755371 -0.082684524 0.0065586269
0.069070026 -0.082884029 0.0072542429
0.070155077 -0.082805991 0.0078451633
0.071595117 -0.08314272 0.0083103776
0.072260804 -0.08258377 0.0090311766
0.073029988 -0.082158737 0.0092367232
0.074142121 -0.082126655 0.0092976093
0.07511045 -0.081938669 0.0092345178
0.076772161 -0.082501426 0.0095608234
0.078220405 -0.082821608 0.010175556
0.078308724 -0.081713445 0.010400057
0.079360053 -0.081627481 0.010790944
0.081704691 -0.082855456 0.010689557
0.081768773 -0.081768773 0.010655642
0.083488204 -0.082344532 0.010770947
0.084793553 -0.082501836 0.01085332
0.085618682 -0.082193933 0.010588109
0.087224789 -0.082634009 0.010468811
0.087665506 -0.081972942 0.010426015
0.089000173 -0.082154006 0.010467887
0.090442814 -0.082428895 0.010706842
0.09046644 -0.081419796 0.01039508
0.092909351 -0.082586087 0.0099776983
0.094552703 -0.083021887 0.0092862844
0.094784327 -0.082222544 0.0095126629
0.096888088 -0.083046935 0.0094455779
0.09740597 -0.082508586 0.0090028346
0.09805721 -0.082094409 0.0087233186
0.099818334 -0.082608275 0.0086644292
0.10220901 -0.083625555 0.0081853867
0.10175836 -0.082321368 0.0079277158
0.1031515 -0.0825212 0.0075143278
0.10334643 -0.081768602 0.0072574317
0.10679664 -0.083579972 0.0069849491
0.10754066 -0.083257288 0.0065295696
0.10898763 -0.083479889 0.006338954
0.10849006 -0.082224049 0.0060168803
0.11262363 -0.084467724 0.005797565
0.1095661 -0.081327416 0.0055218339
0.062886909 -0.082684644 0.0053644776
0.063755244 -0.082302228 0.0056166053
0.065516241 -0.083065242 0.0061516464
0.065740354 -0.081887104 0.0063005388
0.067453064 -0.082571857 0.0068766773
0.06834323 -0.082243547 0.0070747435
0.069732584 -0.082516894 0.0073835254
0.069933847 -0.081398413 0.0080593824
0.071623705 -0.082020693 0.0082395375
0.072319999 -0.081503496 0.008972764
0.074177377 -0.082290523 0.0091746747
0.074058741 -0.08089494 0.0095623732
0.074910969 -0.080586039 0.0098646283
0.077425554 -0.082047977 0.010161638
0.076731309 -0.08011651 0.010128498
0.077831656 -0.080087647 0.010630518
0.080154873 -0.081299938 0.010739803
0.080190092 -0.080190092 0.010672837
0.08244776 -0.08130265 0.010710537
0.083019376 -0.08074487 0.010686696
0.084645905 -0.081214316 0.010683626
0.085343555 -0.080791898 0.010610878
0.087332055 -0.081586525 0.010634869
0.087438405 -0.08062502 0.010579556
0.090152711 -0.082062081 0.010593772
0.090926357 -0.081718624 0.010680854
0.091485076 -0.081193 0.010505021
0.093327448 -0.081805542 0.010166705
0.093168728 -0.080670483 0.0099246502
0.095424697 -0.081628352 0.0095168352
0.097111188 -0.082082078 0.0097294748
0.096509218 -0.080613583 0.0094875693
0.098218694 -0.08108753 0.0093831122
0.09992487 -0.081547879 0.0089527071
0.10223333 -0.082483709 0.0086528063
0.10217878 -0.081513412 0.008377105
0.10439327 -0.082354695 0.0074092448
0.10333329 -0.08062268 0.0071785748
0.1070182 -0.082590133 0.0068291426
0.10721915 -0.081855483 0.0065256655
0.10852936 -0.081974298 0.0063311756
0.1100669 -0.082260527 0.0055921972
0.10947164 -0.080963403 0.0053362548
0.11329484 -0.082927153 0.0050634742
0.063230537 -0.081965514 0.0052370429
0.064108372 -0.08159247 0.0056265295
0.065336198 -0.081670247 0.0060283542
0.066037372 -0.081098534 0.0063413978
0.067563318 -0.081541933 0.0067258477
0.067876756 -0.080531739 0.0070021749
0.069514595 -0.08110036 0.007558316
0.070405178 -0.080792822 0.0079491735
0.071022227 -0.080186382 0.0084287822
0.073078893 -0.081198767 0.0089393854
0.073007464 -0.07985191 0.0092175901
0.074696653 -0.080442548 0.009247154
0.076247394 -0.080868445 0.0097213686
0.076523669 -0.079950102 0.0099778175
0.077683054 -0.079967849 0.010211527
0.078631595 -0.079771183 0.010489464
0.079775475 -0.079775475 0.010594219
0.080914751 -0.07977511 0.010594219
0.082911044 -0.080607958 0.010590494
0.083038971 -0.079626411 0.010650128
0.085152589 -0.080549747 0.010711491
0.08534573 -0.079656012 0.010782421
0.087016582 -0.080146857 0.01051867
0.088686652 -0.08062423 0.010480702
0.089549981 -0.080365367 0.010365695
0.090829834 -0.080482133 0.010635316
0.092608489 -0.081032425 0.010184497
0.092919603 -0.08030089 0.010392934
0.093791425 -0.080065854 0.010169119
0.095664434 -0.080680847 0.0098024309
0.097073831 -0.080894858 0.0099405646
0.098569408 -0.081174806 0.0097717941
0.09901879 -0.080596685 0.0094591081
0.099699967 -0.080218367 0.0087820292
0.10226227 -0.081344984 0.0086553097
0.10216026 -0.080350764 0.0074218214
0.1039529 -0.080852255 0.0073204339
0.10518121 -0.080908619 0.0069755018
0.10602331 -0.08066991 0.0063202679
0.10700157 -0.080538817 0.0061181784
0.11007919 -0.081973866 0.0061535537
0.10825984 -0.079770416 0.0057661533
0.11171095 -0.081455901 0.0055483282
0.11335525 -0.081802756 0.0052337646
0.061161187 -0.079624943 0.0052700043
0.063290752 -0.080871515 0.0055562556
0.063569814 -0.079751216 0.0058113039
0.065057881 -0.080160603 0.0063497424
0.066028655 -0.079929419 0.0066793561
0.06750913 -0.08031258 0.0070780814
0.069010712 -0.080707446 0.0072371662
0.069718331 -0.080176078 0.0075475872
0.070619509 -0.079881087 0.0078626573
0.071724311 -0.07982222 0.0080405176
0.072705902 -0.079630278 0.0084745586
0.073116615 -0.078828849 0.0086740553
0.075775281 -0.080438375 0.0090071559
0.075635225 -0.079073191 0.0096576214
0.076766409 -0.079057939 0.010103256
0.078716233 -0.079873823 0.010284007
0.078256868 -0.078256868 0.010676533
0.079676442 -0.078538209 0.010634094
0.081588171 -0.079289913 0.010577381
0.082305156 -0.078875773 0.010905236
0.082857154 -0.078317039 0.010676533
0.084331244 -0.078633182 0.010692835
0.085513294 -0.07867223 0.010635316
0.086972952 -0.078962281 0.010823131
0.087998718 -0.078855999 0.010804594
0.090054721 -0.079663791 0.01082164
0.090610176 -0.079140529 0.010938615
0.090401411 -0.077971213 0.010699481
0.093104981 -0.079311654 0.010662347
0.094814412 -0.079782858 0.010370702
0.094317004 -0.078408115 0.010265857
0.096405871 -0.079190537 0.010400832
0.097995043 -0.079548918 0.010313272
0.098248608 -0.078827374 0.01009056
0.099950112 -0.07927078 0.0088497102
0.10164241 -0.079696886 0.0084168315
0.10291789 -0.079790272 0.0078481734
0.10375208 -0.079543263 0.0075036585
0.10415791 -0.078976877 0.0070315003
0.10624357 -0.079682671 0.0068901479
0.10666206 -0.079136372 0.006269604
0.10976995 -0.080575816 0.0059073865
0.10947049 -0.079510145 0.0057410598
0.11266719 -0.080979541 0.005413264
0.062751636 -0.079020575 0.0050056577
0.064349823 -0.079559781 0.0054889619
0.064940996 -0.078856923 0.0061967671
0.06628041 -0.079071365 0.0067147315
0.067548782 -0.079195127 0.0072138608
0.068593077 -0.079056427 0.0071444809
0.069701537 -0.078995079 0.0077432394
0.070804156 -0.078929223 0.0079223514
0.071516842 -0.07843782 0.0084383786
0.072892614 -0.078677744 0.0084142089
0.07337144 -0.077957153 0.0084588826
0.074391164 -0.0778246 0.0085906088
0.075790882 -0.078087576 0.0092292428
0.076976605 -0.078125514 0.0097709596
0.078101777 -0.078101777 0.010066867
0.078535058 -0.077396862 0.010502934
0.080944285 -0.078631595 0.010326952
0.080670886 -0.07726226 0.010492623
0.083487459 -0.078849263 0.010635376
0.08390671 -0.078159675 0.010644794
0.08475735 -0.077885129 0.010442764
0.0857656 -0.077760808 0.010442764
0.087187678 -0.078010023 0.011134356
0.088326536 -0.078002654 0.010656446
0.089697532 -0.078197852 0.010886312
0.090785936 -0.078144856 0.011219174
0.091757774 -0.077994108 0.010851085
0.09285038 -0.077948466 0.010817856
0.093862981 -0.077837594 0.010656446
0.094773024 -0.077645369 0.010615408
0.097487435 -0.078918397 0.010554373
0.097288385 -0.077830702 0.010310084
0.099196151 -0.078434162 0.0096613169
0.10078415 -0.078773819 0.0091548264
0.10168573 -0.078575343 0.0086324513
0.1030357 -0.0787239 0.0082368851
0.1040794 -0.078637771 0.0077466071
0.10522269 -0.078627937 0.0074506104
0.10719414 -0.07923045 0.0072568953
0.10849851 -0.07933224 0.0069500506
0.10987189 -0.079481795 0.0067031682
0.11037728 -0.079006895 0.0059762597
0.11190238 -0.079264186 0.0053553581
0.062644966 -0.077726163 0.0055122674
0.064625829 -0.078726009 0.0057944357
0.065204948 -0.078013062 0.0063342452
0.065937899 -0.077505954 0.0068161786
0.068042025 -0.078600265 0.0073577166
0.06821394 -0.077463284 0.0073829293
0.070196949 -0.07838659 0.0078245401
0.070702255 -0.077656575 0.0079002082
0.072158746 -0.077978007 0.0079976022
0.072545096 -0.077151127 0.008212924
0.073737413 -0.077193856 0.0086629987
0.074829042 -0.077131473 0.0089870691
0.076817758 -0.077981666 0.0090634525
0.076004438 -0.076004438 0.0092670918
0.078514479 -0.077359855 0.0090470016
0.080533832 -0.078199521 0.010012895
0.080043182 -0.076612763 0.010053515
0.082602486 -0.077948824 0.010345519
0.083096035 -0.077325478 0.010509789
0.083719626 -0.07683856 0.010580391
0.085643522 -0.077542111 0.010840416
0.086407676 -0.077190854 0.011070073
0.087147571 -0.076827459 0.011343569
0.088663138 -0.077148445 0.011120558
0.089670397 -0.077024572 0.010986626
0.090286903 -0.076572433 0.011161804
0.092021063 -0.077067636 0.011146426
0.093256891 -0.077138416 0.011161804
0.09353628 -0.076425985 0.010877341
0.094818242 -0.076540031 0.010628402
0.096027903 -0.076593682 0.010385185
0.097623006 -0.076949894 0.010451138
0.098168783 -0.076480329 0.009986639
0.099900611 -0.076934956 0.0092621446
0.10157683 -0.077336907 0.0086767375
0.10207461 -0.076842681 0.0089655519
0.10423525 -0.077597357 0.0081142187
0.10526679 -0.077504128 0.0076797009
0.10639328 -0.07748206 0.0071761906
0.10840037 -0.078094892 0.006875962
0.11077497 -0.078956626 0.0064657331
0.11011397 -0.077659324 0.005969137
0.061706774 -0.076842397 0.0051421523
0.063960902 -0.078174435 0.0054972768
0.063625045 -0.076350056 0.0057942569
0.065046757 -0.076662257 0.006563127
0.066370912 -0.076850533 0.0071888268
0.067403361 -0.076700374 0.0074265301
0.068604976 -0.076744549 0.007519424
0.06978222 -0.076760441 0.0082136095
0.070728324 -0.076525733 0.0081021786
0.071942955 -0.076584436 0.0079874098
0.072924092 -0.076396666 0.0080313385
0.074003071 -0.076315664 0.008084178
0.075551607 -0.076713935 0.0085558891
0.076283269 -0.076283269 0.0091504455
0.077146523 -0.075995088 0.0096246898
0.078551538 -0.076241195 0.0095164776
0.079189599 -0.075746574 0.0088533163
0.0799511 -0.075382464 0.00880602
0.081424594 -0.075690471 0.008764267
0.083575003 -0.076610416 0.0092790127
0.083938375 -0.075889491 0.010061234
0.084846884 -0.075674243 0.010119438
0.086434901 -0.076062717 0.010846138
0.088051952 -0.076466173 0.011268765
0.088424176 -0.075792156 0.011175692
0.090676948 -0.076726653 0.011202246
0.091187879 -0.076182276 0.01144892
0.092221834 -0.076083012 0.011173725
0.093252346 -0.07598339 0.011237472
0.095120199 -0.076560162 0.011190623
0.094857961 -0.075429223 0.010779113
0.096533321 -0.075847611 0.010676295
0.097506866 -0.075711213 0.010176659
0.099330343 -0.076230258 0.0095996559
0.10015432 -0.075979136 0.0092747808
0.10181247 -0.076359354 0.0090549886
0.10164128 -0.075374432 0.0090157092
0.1040753 -0.076321885 0.0086454749
0.10513751 -0.076253586 0.0080263019
0.10675368 -0.07658416 0.0074022114
0.10771175 -0.076440595 0.0068525672
0.10873748 -0.076347589 0.0070270002
0.10937183 -0.075984634 0.0056843162
0.062726833 -0.076929137 0.0052069426
0.062902629 -0.07571613 0.0056731105
0.064238481 -0.075918205 0.0064683855
0.065681301 -0.076237224 0.0070298314
0.066329725 -0.075639158 0.0076079965
0.067707278 -0.075878851 0.0080530941
0.068786152 -0.075781353 0.0081008077
0.06990499 -0.075730413 0.0082612336
0.071003541 -0.075659513 0.008474499
0.072129361 -0.075619489 0.0084823668
0.07323081 -0.0755556 0.0084823668
0.074291445 -0.075452246 0.0077375472
0.074977592 -0.074977592 0.0077852607
0.07701239 -0.07584554 0.0083203018
0.076913118 -0.074617207 0.0083203018
0.078914531 -0.075433008 0.0080313385
0.079768747 -0.07514447 0.0077853799
0.081558064 -0.075732492 0.0073522031
0.081194609 -0.074333094 0.0076745152
0.083656855 -0.075523548 0.0082896352
0.084292188 -0.07505469 0.0085295141
0.085023761 -0.074683033 0.0089717805
0.086780146 -0.075209461 0.0098745823
0.087342925 -0.07470119 0.010091156
0.08875984 -0.074927136 0.010122865
0.090537049 -0.075447544 0.010736972
0.091414079 -0.07521411 0.011206269
0.091772787 -0.074565396 0.011712909
0.093696594 -0.075188622 0.011547565
0.094450235 -0.074869089 0.011547565
0.096099056 -0.075258292 0.010736972
0.096973278 -0.07503885 0.009827137
0.09788096 -0.074850142 0.010108531
0.098414086 -0.074382737 0.0095573962
0.10145266 -0.07579796 0.0092258453
0.10271714 -0.075870611 0.0091485679
0.10301554 -0.075236075 0.0092709959
0.10435288 -0.075365968 0.0086787939
0.10484555 -0.074889682 0.0081316233
0.10690074 -0.075527698 0.0075157285
0.1078603 -0.075386234 0.0070922673
0.10848095 -0.075013421 0.0069962442
0.11112656 -0.076033957 0.0065549314
0.11025029 -0.074648634 0.0057149529
0.1151968 -0.07719373 0.005535394
0.11539079 -0.076534711 0.0050503016
0.061514582 -0.07428176 0.0055260062
0.062895767 -0.074543133 0.0059527457
0.065047391 -0.075691506 0.0061118305
0.065275922 -0.074601054 0.0069486499
0.066841125 -0.075049683 0.0071957409
0.067724384 -0.074730352 0.007494837
0.069059327 -0.07491181 0.007460922
0.07037051 -0.075061873 0.0075727701
0.071260065 -0.074764654 0.0074951053
0.071785823 -0.074101493 0.0073387623
0.072840184 -0.07399638 0.0072977543
0.074352503 -0.074352503 0.0067375004
0.076269664 -0.075096287 0.0066271126
0.089991778 -0.075782552 0.0081856251
0.089661188 -0.074523583 0.0085288882
0.089655623 -0.073563591 0.0092838407
0.090361319 -0.073204108 0.010201454
0.09298002 -0.074384019 0.010506213
0.092618205 -0.073179811 0.011265039
0.094302714 -0.073602118 0.011265039
0.096335724 -0.074282967 0.010634452
0.095266074 -0.072583675 0.010562629
0.097788967 -0.073629342 0.010505199
0.099948466 -0.074380256 0.010403723
0.099930525 -0.073512107 0.010061145
0.10241295 -0.07448215 0.0098299682
0.10280313 -0.073925845 0.009422183
0.10426114 -0.074141257 0.0088163614
0.10434764 -0.073387347 0.008221209
0.10662698 -0.074175291 0.0077595413
0.10723077 -0.073793218 0.0073933601
0.11003958 -0.074920572 0.0070515871
0.11126076 -0.074954621 0.0067946017
0.11149359 -0.074329056 0.0063714683
0.11364686 -0.074983492 0.0062363148
0.11400522 -0.074452393 0.0054082572
0.11641232 -0.075256445 0.0051552355
0.063807219 -0.074441761 0.0054202378
0.06413129 -0.073459476 0.0062201917
0.065639794 -0.073844768 0.0067693591
0.066507183 -0.073507942 0.0069206655
0.067849405 -0.073698491 0.007068783
0.069175817 -0.073865704 0.006971091
0.070557579 -0.074085459 0.0069361925
0.070877448 -0.073201299 0.0067197382
0.073116452 -0.074295752 0.006249845
0.093238056 -0.074354395 0.0074259937
0.091832608 -0.072318181 0.0090447664
0.093926497 -0.073053941 0.0097189844
0.095636368 -0.073476724 0.0098759234
0.094721496 -0.071897037 0.0097636282
0.096710779 -0.072533086 0.010112107
0.098167107 -0.072759151 0.010154277
0.099015497 -0.072534606 0.010057569
0.10071047 -0.072928272 0.0099566579
0.1026627 -0.073497169 0.0097317696
0.10251071 -0.07256376 0.0092037022
0.10438257 -0.073067807 0.0084973872
0.10483754 -0.072579838 0.0081600845
0.10761341 -0.073691793 0.0079687238
0.10868502 -0.073625341 0.007699579
0.10936405 -0.07329718 0.006824702
0.11143374 -0.073898166 0.0067489445
0.11179318 -0.07336428 0.0059188306
0.11156207 -0.072457835 0.0057383776
0.11413687 -0.073373705 0.0053705871
0.064355746 -0.072546475 0.0052906871
0.066114798 -0.07319852 0.0060247183
0.066774003 -0.072631374 0.0060881078
0.067802809 -0.072478868 0.0056073368
0.0937564 -0.070888981 0.0091533959
0.096099935 -0.071785495 0.0095450282
0.097920045 -0.07227432 0.0099259019
0.097668976 -0.071240902 0.010485142
0.099525355 -0.071750835 0.010421425
0.10140721 -0.072267212 0.01013267
0.10324161 -0.072738402 0.0095397234
0.10418536 -0.072578564 0.0094633996
0.10432702 -0.071869723 0.0087506473
0.10651557 -0.072571054 0.0085602701
0.10780244 -0.072649471 0.007951349
0.10894768 -0.072631784 0.0073423088
0.11085508 -0.073117182 0.0064569414
0.11184248 -0.07299193 0.0061032772
0.11160906 -0.072080858 0.0059968531
0.11382112 -0.072751641 0.0054594278
0.096746191 -0.070256166 0.0080558062
0.099443436 -0.071365289 0.0096559227
0.1012021 -0.071782887 0.0097668767
0.1009698 -0.070794918 0.0095657408
0.10252209 -0.071066447 0.0095861554
0.10436796 -0.071533091 0.0089348853
0.10473064 -0.070984103 0.00776124
0.10713974 -0.071818948 0.0081495941
0.10752132 -0.071291313 0.0076144934
0.10939731 -0.071755223 0.0070417821
0.11079115 -0.071896382 0.0064646006
0.11119249 -0.071397282 0.0059553683
0.11376062 -0.072285399 0.0053164363
0.098615035 -0.069610611 0.006089747
0.099335194 -0.069303624 0.0078918934
0.10108051 -0.069710694 0.008428514
0.10272302 -0.070038423 0.008428514
0.10334893 -0.069673434 0.0085436702
0.10522468 -0.070149779 0.0077129006
0.10625567 -0.070058689 0.0075373054
0.108277 -0.070615441 0.0072532594
0.10954849 -0.070676446 0.0069391727
0.11154022 -0.071195886 0.0058394372
0.11167881 -0.070533983 0.0055788755
0.11263731 -0.070398316 0.0051132143
0.10200465 -0.069979943 0.0060620606
0.10241266 -0.069452263 0.0069871843
0.1031328 -0.069145851 0.007142514
0.10432397 -0.069158584 0.0072129369
0.10521011 -0.068971075 0.00732705
0.10705165 -0.069407113 0.0073239505
