ply
format ascii 1.0
comment PCL generated
element vertex 1260
property float x
property float y
property float z
element camera 0
property float view_px
property float view_py
property float view_pz
property float x_axisx
property float x_axisy
property float x_axisz
property float y_axisx
property float y_axisy
property float y_axisz
property float z_axisx
property float z_axisy
property float z_axisz
property float focal
property float scalex
property float scaley
property float centerx
property float centery
property int viewportx
property int viewporty
property float k1
property float k2
end_header
-0.088033594 -0.097140521 0.051260173
-0.087202981 -0.097342864 0.051339656
-0.086312607 -0.097482473 0.051262289
-0.085116021 -0.097275458 0.051460326
-0.084094934 -0.097266428 0.051164091
-0.083563685 -0.097830653 0.051318139
-0.082277313 -0.097513855 0.051473558
-0.080612987 -0.096735582 0.051366687
-0.080644593 -0.097998492 0.051462352
-0.078222409 -0.096273735 0.051607162
-0.077967487 -0.09720622 0.051861346
-0.077025846 -0.097295806 0.051920414
-0.075369507 -0.096472964 0.051935792
-0.075021595 -0.09732531 0.051812738
-0.07386221 -0.09713386 0.051756263
-0.072907448 -0.09720993 0.051861346
-0.072731949 -0.098341785 0.052235752
-0.072337382 -0.099205554 0.052565962
-0.072154939 -0.10038948 0.053219378
-0.069522575 -0.098149516 0.053711742
-0.067362279 -0.09651909 0.053735703
-0.06475874 -0.094194531 0.054091424
-0.064019524 -0.094551906 0.053467184
-0.062280219 -0.093420327 0.051938802
-0.062491883 -0.095225729 0.049768955
-0.063525006 -0.098361298 0.047048002
-0.061215863 -0.096339718 0.039583325
-0.061796736 -0.098874778 0.02827087
-0.066714682 -0.10855271 0.026074797
-0.063935935 -0.10582499 0.025626779
-0.063697137 -0.10727939 0.024191201
-0.062557369 -0.1072412 0.022340119
-0.060568959 -0.10572036 0.020229399
-0.057121299 -0.10154898 0.015057921
-0.055234306 -0.10004704 0.013284653
-0.055065762 -0.10165987 0.011857957
-0.056663502 -0.10666072 0.011243105
-0.1064017 -0.10210264 0.029023081
-0.097816221 -0.094821848 0.042701602
-0.096793063 -0.094797328 0.047596097
-0.095126696 -0.094135791 0.049962074
-0.095014788 -0.095014788 0.051743627
-0.095719896 -0.096738189 0.05247429
-0.096844435 -0.09892711 0.051869273
-0.094922751 -0.098018058 0.051312119
-0.093292259 -0.097393021 0.051586866
-0.09124396 -0.096313067 0.051188797
-0.090293109 -0.096380286 0.05115059
-0.089324839 -0.09643022 0.051225483
-0.087980025 -0.096070141 0.051285356
-0.087693758 -0.096871011 0.051359296
-0.086818069 -0.097031958 0.051122427
-0.085481599 -0.096675619 0.051299334
-0.084859066 -0.097127847 0.051534176
-0.083605565 -0.096860111 0.05159393
-0.081987604 -0.096158303 0.051415145
-0.081772357 -0.097104669 0.05118987
-0.079472087 -0.095567703 0.051255822
-0.078835614 -0.096017733 0.051194519
-0.078596205 -0.096969336 0.051473558
-0.076803021 -0.096003778 0.051481694
-0.075790748 -0.09600161 0.051186383
-0.075226568 -0.096574649 0.050945848
-0.07349167 -0.095639847 0.050864071
-0.072790213 -0.096042641 0.050920278
-0.072498284 -0.097004749 0.050991476
-0.072052978 -0.097786181 0.051789284
-0.070572369 -0.097164854 0.052288324
-0.07104028 -0.099247448 0.052873284
-0.067839764 -0.096190706 0.053676397
-0.06625177 -0.095362395 0.053982258
-0.064463302 -0.094215602 0.053881466
-0.06291566 -0.093390428 0.052817881
-0.062076472 -0.093607374 0.051824659
-0.061362032 -0.094022468 0.049127281
-0.06281022 -0.097819194 0.044567168
-0.061089545 -0.096725114 0.035614371
-0.065816477 -0.10597569 0.02767393
-0.065320194 -0.10698996 0.027438551
-0.064669624 -0.10778271 0.025771171
-0.062417425 -0.10588671 0.022726834
-0.061250884 -0.10579699 0.019138515
-0.059558846 -0.10477945 0.015064031
-0.055843219 -0.10009634 0.012783527
-0.054582614 -0.099718235 0.011733472
-0.057370193 -0.10686605 0.00978899
-0.10003253 -0.094980381 0.037543118
-0.096914858 -0.092959151 0.047309548
-0.09640193 -0.093420424 0.048265249
-0.096562073 -0.094550364 0.050519228
-0.09698949 -0.095968552 0.051808059
-0.097227342 -0.097227342 0.05195868
-0.095807314 -0.096837498 0.051228523
-0.094709031 -0.096767917 0.050962359
-0.092147186 -0.095185004 0.050878465
-0.091745451 -0.095823027 0.050934672
-0.091225237 -0.096350253 0.051174939
-0.089545593 -0.095650971 0.051166505
-0.089077093 -0.096244216 0.051316559
-0.087579496 -0.095726423 0.051426023
-0.086760432 -0.095946826 0.051378399
-0.085583553 -0.095772073 0.051542401
-0.08419852 -0.095357358 0.051752329
-0.083501317 -0.095721021 0.051899046
-0.082748212 -0.096028782 0.05201596
-0.080717504 -0.094843067 0.051877856
-0.080228522 -0.095461786 0.051939547
-0.079393223 -0.095679007 0.051849216
-0.078086823 -0.095326766 0.052005023
-0.076990314 -0.095224857 0.051915109
-0.076559365 -0.095954403 0.051766723
-0.07497821 -0.095242597 0.051484406
-0.074218683 -0.09556926 0.05127573
-0.073002256 -0.095308498 0.051333249
-0.071828827 -0.095097318 0.051281303
-0.071559578 -0.096094295 0.051296324
-0.070554204 -0.096117318 0.051368028
-0.0696695 -0.096307836 0.051641792
-0.070577756 -0.099019542 0.052283615
-0.067438394 -0.096048623 0.052777588
-0.06463556 -0.093472965 0.053487837
-0.06358552 -0.093391232 0.053081393
-0.061814632 -0.092231356 0.052152812
-0.061189521 -0.09277121 0.049973339
-0.061555117 -0.094855428 0.048391283
-0.060912289 -0.095429257 0.041024357
-0.06477619 -0.10320275 0.035808772
-0.065789118 -0.10662375 0.031730324
-0.063681319 -0.10501833 0.03006807
-0.062511645 -0.10493026 0.023866028
-0.060964748 -0.1041943 0.018848181
-0.060745984 -0.10574301 0.014463723
-0.055925086 -0.099187888 0.012567312
-0.054849889 -0.099151723 0.012145877
-0.057887454 -0.10669452 0.0092220902
-0.1066662 -0.099199563 0.017793357
-0.099418409 -0.09339305 0.043567359
-0.097451501 -0.092479482 0.047882587
-0.097013369 -0.093012817 0.049151152
-0.096219502 -0.093212642 0.051171541
-0.097763106 -0.095704935 0.051669747
-0.098126464 -0.097082563 0.051722795
-0.095804341 -0.095804341 0.051444709
-0.093773484 -0.094792761 0.051105678
-0.092336968 -0.094366349 0.051074505
-0.091290973 -0.094334006 0.051178932
-0.090880811 -0.094965346 0.051491737
-0.090150572 -0.095272765 0.051618397
-0.089053661 -0.095195293 0.051762551
-0.087154523 -0.094248496 0.051930219
-0.086651973 -0.094807453 0.051783353
-0.085804373 -0.094997697 0.05181998
-0.08517351 -0.095435381 0.051840991
-0.084246546 -0.095547915 0.052154779
-0.082323097 -0.094519116 0.052239776
-0.081658505 -0.094928011 0.052255034
-0.080849081 -0.095176764 0.052125812
-0.079205431 -0.094437242 0.051990181
-0.078367606 -0.094651781 0.052022487
-0.077913143 -0.095341079 0.051983356
-0.076129042 -0.094400011 0.051904112
-0.075420022 -0.094784617 0.051551431
-0.074437685 -0.094831571 0.051492095
-0.073132619 -0.094462968 0.051431596
-0.072418116 -0.094857529 0.051060826
-0.071015418 -0.094349056 0.050870568
-0.070202604 -0.094620898 0.050870568
-0.069748506 -0.095391341 0.051491976
-0.068818428 -0.095524088 0.051753521
-0.06897185 -0.097187608 0.052032739
-0.066029444 -0.0944729 0.05300799
-0.063674681 -0.09252727 0.052884042
-0.062613316 -0.092429183 0.052485555
-0.061512914 -0.092269368 0.050952971
-0.06022957 -0.091825411 0.049943745
-0.061017971 -0.094577856 0.044081926
-0.063551337 -0.10017414 0.04093802
-0.064390957 -0.10324756 0.036293
-0.063183263 -0.10308848 0.032230258
-0.062578738 -0.10392541 0.024470806
-0.061564181 -0.10409943 0.01878792
-0.060354702 -0.10394421 0.014463633
-0.055793859 -0.097902432 0.012918115
-0.054786563 -0.097983658 0.010493428
-0.10265487 -0.094442479 0.03377676
-0.097995244 -0.091066286 0.046321541
-0.09670382 -0.090783179 0.048234075
-0.097938284 -0.09288992 0.049411267
-0.09722583 -0.093174748 0.051188886
-0.099845022 -0.096692026 0.051461905
-0.097149007 -0.095082007 0.051593751
-0.094973385 -0.093952164 0.051220298
-0.09369377 -0.09369377 0.051202536
-0.093293905 -0.094319113 0.051116049
-0.091101266 -0.093125738 0.051202536
-0.091486841 -0.094570667 0.051385224
-0.089897595 -0.093983851 0.051437318
-0.088803418 -0.093907066 0.051656365
-0.087715432 -0.093835108 0.05210349
-0.087257102 -0.094442986 0.052232862
-0.08564692 -0.093803771 0.052370757
-0.08510156 -0.094329439 0.052224606
-0.083864503 -0.094091885 0.052443802
-0.082454272 -0.093651764 0.052424431
-0.082034968 -0.09434022 0.052428722
-0.080199152 -0.093396477 0.052364856
-0.079669967 -0.09396971 0.052262098
-0.079228923 -0.094663128 0.052286744
-0.077381946 -0.093672886 0.052607834
-0.076464891 -0.093796931 0.052573323
-0.075778045 -0.094210543 0.05226028
-0.074678116 -0.094114885 0.051757157
-0.07340835 -0.093799561 0.051747561
-0.072470374 -0.09390527 0.051690847
-0.070920885 -0.09321031 0.051687956
-0.070405558 -0.093874075 0.051691115
-0.069519006 -0.094055124 0.051489562
-0.068824053 -0.094504669 0.051983446
-0.067894705 -0.094641097 0.052347124
-0.068005867 -0.096254461 0.05298683
-0.064581439 -0.092835814 0.053033948
-0.063020706 -0.092030242 0.05290693
-0.061243277 -0.090877123 0.052534193
-0.060394447 -0.091086708 0.05068329
-0.060710672 -0.0930897 0.049053103
-0.061774649 -0.096326567 0.043486416
-0.064383537 -0.10212561 0.036880493
-0.064564921 -0.10421004 0.033198476
-0.062343642 -0.1024217 0.02600491
-0.063007198 -0.10539386 0.018776983
-0.059807479 -0.10189422 0.014465481
-0.056097519 -0.097376823 0.013284385
-0.055496246 -0.098185666 0.010167927
-0.1011591 -0.092054777 0.042498291
-0.099001504 -0.091001384 0.047393948
-0.098771766 -0.09171664 0.049142063
-0.097899146 -0.091843531 0.049798638
-0.099045627 -0.093887001 0.050815403
-0.09770488 -0.09359099 0.051726907
-0.09602645 -0.092961781 0.051850468
-0.095818654 -0.093758032 0.051217169
-0.094617151 -0.093588702 0.051061779
-0.092269659 -0.092269659 0.051125646
-0.091474086 -0.092490464 0.051283538
-0.091950774 -0.094017088 0.051721096
-0.090091184 -0.093162477 0.051888913
-0.089951664 -0.094087377 0.052092552
-0.087579206 -0.092671022 0.052240908
-0.087001838 -0.093143143 0.05230546
-0.086284719 -0.093475111 0.052515477
-0.084989727 -0.093181506 0.052683055
-0.083758779 -0.092951812 0.052736908
-0.082690716 -0.092899449 0.052766979
-0.080422476 -0.091480561 0.052715063
-0.080715984 -0.092976637 0.052679509
-0.080134332 -0.093490057 0.052581936
-0.077921875 -0.092089489 0.052714199
-0.077753447 -0.093099527 0.052779227
-0.076871857 -0.093271181 0.052441031
-0.075286172 -0.092581637 0.052296191
-0.074913919 -0.093385845 0.052094281
-0.073688105 -0.093133584 0.052028328
-0.072615296 -0.093070306 0.052094281
-0.071781188 -0.093315542 0.051788867
-0.070554748 -0.093050465 0.051844984
-0.068936102 -0.092252724 0.051777542
-0.068717338 -0.093332499 0.052149922
-0.067572892 -0.093168683 0.051958948
-0.06795311 -0.095134355 0.052318186
-0.065740712 -0.093475081 0.052365392
-0.062637337 -0.090476155 0.052848637
-0.061714426 -0.090580851 0.051840663
-0.060062923 -0.089602068 0.050900757
-0.059534132 -0.090293437 0.049750745
-0.060399029 -0.093157828 0.044363528
-0.06263604 -0.098273784 0.03897658
-0.062215816 -0.099327005 0.035417646
-0.063037373 -0.10243573 0.023827076
-0.064318903 -0.10641854 0.019204021
-0.060042981 -0.10118354 0.014885664
-0.056327935 -0.096714005 0.01307568
-0.054849096 -0.095985919 0.007304281
-0.108632 -0.096800797 0.010178924
-0.10183468 -0.091651216 0.045925319
-0.099222481 -0.090202257 0.048344165
-0.099227101 -0.091126934 0.049223036
-0.098184675 -0.091099188 0.050030738
-0.10119931 -0.094874352 0.050863087
-0.09760496 -0.092467859 0.051997334
-0.09629292 -0.092195354 0.051665485
-0.095616639 -0.092532225 0.050897598
-0.09305501 -0.09103208 0.05075255
-0.09379001 -0.092759356 0.050815463
-0.092500307 -0.092500307 0.050968319
-0.091047302 -0.092070304 0.051539302
-0.090128303 -0.092176668 0.051718682
-0.089808568 -0.09290541 0.051800698
-0.08835838 -0.092468075 0.052054882
-0.087329656 -0.09246669 0.052127063
-0.086409926 -0.092582062 0.052218735
-0.084813394 -0.091966331 0.052202463
-0.083905309 -0.092091195 0.052218735
-0.082787484 -0.091986097 0.052024275
-0.081832878 -0.092061982 0.051969409
-0.08053375 -0.091747306 0.052049339
-0.079254813 -0.09144786 0.052123278
-0.078224376 -0.091431089 0.052236825
-0.078034349 -0.092409104 0.052653253
-0.077416904 -0.092900284 0.052241951
-0.075841658 -0.092239849 0.052236825
-0.075027719 -0.092499934 0.051769286
-0.073929012 -0.092411265 0.051765203
-0.073343702 -0.092970893 0.051798105
-0.071406409 -0.091808245 0.051970869
-0.070736527 -0.09226504 0.051992238
-0.069622271 -0.092147127 0.052016079
-0.068050295 -0.091410838 0.052191556
-0.067538172 -0.092097506 0.052507252
-0.066727363 -0.092391729 0.052690893
-0.066571407 -0.093616046 0.052686483
-0.063575268 -0.09082181 0.052686483
-0.061970454 -0.089957111 0.05211699
-0.060004532 -0.088531278 0.051923484
-0.059476826 -0.089215241 0.050693512
-0.059583813 -0.090890564 0.047460973
-0.060317434 -0.093596019 0.039731562
-0.06167474 -0.097381167 0.034891039
-0.063194178 -0.10156208 0.024712622
-0.064711109 -0.1058909 0.017796814
-0.061670758 -0.1027846 0.015240818
-0.05662493 -0.096155539 0.011622131
-0.10614906 -0.093537293 0.033070654
-0.10168769 -0.090502046 0.047432929
-0.10072315 -0.090549096 0.049028933
-0.098604396 -0.089548893 0.050005674
-0.099177569 -0.090997972 0.050586194
-0.099679835 -0.092411511 0.051206231
-0.097823411 -0.091645092 0.052205771
-0.097423308 -0.092241213 0.051764846
-0.095145218 -0.091052949 0.051174253
-0.094080798 -0.091012947 0.050828934
-0.093489498 -0.091434784 0.050958306
-0.092112489 -0.091089018 0.051218599
-0.091457732 -0.091457732 0.051553011
-0.0902742 -0.09130004 0.051657915
-0.089587674 -0.091647156 0.051624268
-0.088134713 -0.091209181 0.051738054
-0.08689706 -0.090986334 0.051741362
-0.086211197 -0.091342822 0.052015036
-0.08526133 -0.0914248 0.052111328
-0.083774246 -0.090925708 0.052238524
-0.083417326 -0.091656074 0.052238524
-0.082051583 -0.091282383 0.052060932
-0.080407239 -0.090585366 0.052009851
-0.080339462 -0.091669381 0.052064598
-0.079300202 -0.091658674 0.052044749
-0.077564627 -0.090832263 0.052304626
-0.077096082 -0.091487356 0.0522798
-0.07634417 -0.091819339 0.05235377
-0.074493386 -0.0908207 0.052261591
-0.073890783 -0.091337219 0.052072376
-0.072480902 -0.090856344 0.052041411
-0.071477629 -0.090878703 0.052075714
-0.070695736 -0.091187246 0.051901966
-0.06991075 -0.091500834 0.051443428
-0.068250477 -0.090661086 0.051770687
-0.067782909 -0.091404229 0.052088946
-0.066471428 -0.091014728 0.052590281
-0.066231593 -0.09210331 0.052574664
-0.064724334 -0.091435969 0.052628607
-0.061718158 -0.08859542 0.052472681
-0.060668521 -0.088516369 0.052031249
-0.059850149 -0.088777721 0.051414728
-0.058693562 -0.088537745 0.047644913
-0.060627304 -0.093031548 0.04155308
-0.060005747 -0.093693182 0.035204887
-0.065032594 -0.10335537 0.027864724
-0.065350525 -0.10574903 0.018969476
-0.062058505 -0.10228161 0.015579849
-0.056629173 -0.095094271 0.01090762
-0.10565696 -0.092057548 0.040645659
-0.10131088 -0.08915358 0.047932357
-0.099377915 -0.088335924 0.049151301
-0.099070348 -0.088961132 0.050428718
-0.099639483 -0.090394586 0.051204115
-0.099414028 -0.091129526 0.051740587
-0.098847531 -0.091564029 0.052512467
-0.096176244 -0.090037338 0.051899999
-0.095073462 -0.089961983 0.051246166
-0.095709376 -0.0915481 0.050893456
-0.092570275 -0.089518502 0.051219434
-0.092968263 -0.090902306 0.05131337
-0.092478171 -0.091439091 0.051464319
-0.089904375 -0.089904375 0.051547229
-0.089139588 -0.090164185 0.051448822
-0.088139534 -0.090189293 0.051574022
-0.08765202 -0.09074562 0.051574022
-0.085459255 -0.089528747 0.051715434
-0.085925564 -0.091101803 0.052186698
-0.084138811 -0.090295307 0.051838756
-0.083205707 -0.090396322 0.052260041
-0.081357829 -0.08949361 0.051804304
-0.081002966 -0.09023115 0.051690459
-0.079968527 -0.090220898 0.051795393
-0.078906387 -0.090178728 0.0519768
-0.07833755 -0.090706639 0.051938772
-0.077912927 -0.091417834 0.052072436
-0.07581985 -0.090164147 0.052101076
-0.07475847 -0.090119794 0.05211848
-0.074028037 -0.090478718 0.051919103
-0.073183447 -0.090706244 0.051869094
-0.071949296 -0.09045054 0.051906049
-0.070646256 -0.090099573 0.051906049
-0.069370866 -0.089774057 0.051819265
-0.068510398 -0.089983813 0.052066416
-0.067581818 -0.090109088 0.052226543
-0.066378124 -0.089865766 0.052539676
-0.066629738 -0.091615885 0.052469045
-0.064875104 -0.090619192 0.052846283
-0.062415075 -0.088589139 0.052522272
-0.061065987 -0.088095196 0.052320033
-0.05966644 -0.08751078 0.051366389
-0.059021737 -0.088032424 0.048617214
-0.060412191 -0.091659874 0.044186592
-0.059295543 -0.091543995 0.035850793
-0.066737391 -0.10487304 0.028485477
-0.064769246 -0.1036308 0.019594282
-0.063064992 -0.10277259 0.015966296
-0.058195088 -0.096625805 0.0063606501
-0.10416728 -0.089728251 0.042738765
-0.10172673 -0.088502251 0.048877001
-0.098660134 -0.086701326 0.050010443
-0.098699845 -0.087621294 0.050839871
-0.10022672 -0.089894071 0.05163914
-0.099520735 -0.090190671 0.052020222
-0.098001428 -0.089748681 0.052137524
-0.097283944 -0.090039395 0.051622361
-0.096383981 -0.09016566 0.051278174
-0.094296657 -0.089171834 0.050699294
-0.093730271 -0.089610256 0.050769955
-0.092749514 -0.089657858 0.050979793
-0.091561943 -0.089504376 0.051018327
-0.090549052 -0.089520089 0.051271319
-0.089076981 -0.089076981 0.05105713
-0.087868802 -0.08889053 0.051393628
-0.08736936 -0.089425109 0.051451981
-0.086514056 -0.089603841 0.051524907
-0.08536879 -0.089482948 0.051544815
-0.08521352 -0.090409465 0.051776737
-0.083426289 -0.089606017 0.051659644
-0.082563974 -0.089788318 0.051590413
-0.082345009 -0.090683743 0.051439494
-0.080324985 -0.089593254 0.051528007
-0.0792218 -0.089510344 0.051429361
-0.078721523 -0.090115421 0.051539063
-0.076823153 -0.08911486 0.051606417
-0.076154262 -0.089532711 0.051787972
-0.075519145 -0.090002269 0.051750988
-0.07407479 -0.089507036 0.051873952
-0.073000975 -0.089451902 0.051980346
-0.071940504 -0.089411773 0.052001327
-0.070600457 -0.089017965 0.052007914
-0.069967203 -0.089516863 0.052204072
-0.068269759 -0.088648796 0.052229673
-0.066977896 -0.088289037 0.052424401
-0.066552497 -0.089077964 0.052590489
-0.065435372 -0.088951208 0.052930802
-0.066163927 -0.091369234 0.053055286
-0.062870823 -0.08822196 0.052880406
-0.060758397 -0.086655423 0.052477568
-0.06015433 -0.087223776 0.051838636
-0.058876038 -0.086817205 0.049644232
-0.058816392 -0.08822459 0.046141922
-0.060556643 -0.092428558 0.036862105
-0.065443195 -0.10167067 0.02796784
-0.064992473 -0.10280627 0.021007806
-0.062528893 -0.10074099 0.014658868
-0.10379779 -0.088382274 0.043415159
-0.10107224 -0.086922131 0.049582362
-0.10014854 -0.086997718 0.05084154
-0.099384129 -0.087214641 0.051156551
-0.1008537 -0.08941669 0.051892459
-0.098784082 -0.088494077 0.052297086
-0.097462364 -0.088229083 0.052502453
-0.096561827 -0.088343799 0.051859021
-0.095499031 -0.088310935 0.051100194
-0.094615735 -0.088445142 0.050858229
-0.093960159 -0.08879751 0.050906897
-0.093365423 -0.089215852 0.05082643
-0.092060767 -0.088957593 0.050984651
-0.090636328 -0.088576414 0.050938606
-0.090507686 -0.089467369 0.050891072
-0.089237884 -0.089237884 0.051084459
-0.088128887 -0.089165702 0.051136583
-0.086891495 -0.088960335 0.051107973
-0.085628644 -0.088723652 0.051354349
-0.084477678 -0.088598534 0.051567525
-0.08337713 -0.088523872 0.051808059
-0.082814902 -0.089026019 0.051506877
-0.08135812 -0.088567063 0.051567465
-0.080096699 -0.088311739 0.051474124
-0.079431556 -0.088715769 0.051624924
-0.078069255 -0.088341519 0.05156517
-0.077657327 -0.089047074 0.05171904
-0.076250337 -0.088615254 0.051494718
-0.075387821 -0.088813052 0.051555723
-0.074134022 -0.088548966 0.051703453
-0.073305063 -0.088792048 0.051836371
-0.072152704 -0.088644758 0.052036583
-0.071040332 -0.08854302 0.052134931
-0.069734894 -0.088194132 0.052190632
-0.068420924 -0.087823875 0.052130014
-0.067647584 -0.08814685 0.052490234
-0.066633306 -0.088160984 0.053151846
-0.065920785 -0.088581055 0.053690851
-0.065714918 -0.089706078 0.053778857
-0.063526899 -0.088117957 0.053518772
-0.061261345 -0.086368456 0.052923292
-0.060332976 -0.086477265 0.052500367
-0.059019871 -0.086028971 0.050040632
-0.05868338 -0.087013289 0.047147155
-0.061862543 -0.09333647 0.037243754
-0.065811038 -0.10106695 0.027439773
-0.064337358 -0.10060023 0.021415174
-0.062854514 -0.10010163 0.013348848
-0.10414574 -0.087647408 0.043705702
-0.1005168 -0.08543928 0.05001235
-0.10013428 -0.085973874 0.051168293
-0.099548943 -0.086343475 0.05191493
-0.10035478 -0.087939754 0.052214473
-0.098991387 -0.087648623 0.052615494
-0.098418288 -0.088058464 0.052644461
-0.095960774 -0.086773038 0.0519692
-0.096408464 -0.08811526 0.051154286
-0.095054008 -0.087821633 0.050952673
-0.093468942 -0.087306157 0.050855935
-0.092874154 -0.087714478 0.050663501
-0.092454001 -0.08829876 0.050663501
-0.09078043 -0.087685637 0.05096218
-0.089996077 -0.087927207 0.050658584
-0.089114077 -0.088077866 0.050971329
-0.087784715 -0.087784715 0.050921828
-0.086790308 -0.087823525 0.050794244
-0.08615905 -0.08823517 0.050858915
-0.084612429 -0.087708004 0.051005363
-0.083885603 -0.088028103 0.051117063
-0.082376085 -0.087524585 0.051070422
-0.081708923 -0.087914661 0.051234454
-0.080879331 -0.088137731 0.051239312
-0.079443902 -0.087697811 0.051490963
-0.078366458 -0.087646693 0.051589459
-0.077955388 -0.088349447 0.051911324
-0.076121107 -0.087436408 0.051488996
-0.076021992 -0.088518754 0.051784903
-0.074377507 -0.087806784 0.051507056
-0.073502965 -0.087996513 0.051627755
-0.071783736 -0.087165967 0.051970989
-0.070944324 -0.087395184 0.052050024
-0.069883943 -0.087354928 0.052009374
-0.068812065 -0.087298885 0.052097857
-0.067725278 -0.08722195 0.052392691
-0.066348255 -0.086763106 0.052850008
-0.065912038 -0.087539427 0.053356946
-0.065133266 -0.087878212 0.053828567
-0.063570313 -0.087152846 0.053718805
-0.061943274 -0.086314395 0.053265482
-0.059824552 -0.08475145 0.052292675
-0.059492398 -0.085709386 0.050309926
-0.05931522 -0.086927481 0.047579914
-0.061756462 -0.092092969 0.036803544
-0.064941898 -0.098572522 0.027226448
-0.064183392 -0.099192515 0.019392639
-0.060679581 -0.095514156 0.0077754259
-0.10423204 -0.086688034 0.046296626
-0.10157219 -0.085320637 0.050252616
-0.099414408 -0.084351622 0.051758975
-0.099280439 -0.085097514 0.052479804
-0.099403501 -0.086081386 0.052659035
-0.099837787 -0.087358065 0.05339399
-0.097435199 -0.086153232 0.05339399
-0.096740305 -0.086448781 0.052547276
-0.095785566 -0.086515993 0.051268071
-0.094926618 -0.086672127 0.051016539
-0.094429441 -0.087165639 0.050935447
-0.093244486 -0.087028183 0.05082795
-0.091867246 -0.086706161 0.050891757
-0.091142923 -0.087000065 0.051274687
-0.089823857 -0.086726479 0.050904125
-0.08845444 -0.086397357 0.05096662
-0.087827958 -0.086794689 0.050766438
-0.086603835 -0.086603835 0.050665051
-0.085856572 -0.086890988 0.05065158
-0.085136361 -0.087212853 0.051210105
-0.084162846 -0.08727999 0.051210105
-0.082930505 -0.087077029 0.051641166
-0.081669465 -0.086838417 0.0516693
-0.080979645 -0.087208852 0.051357329
-0.079703316 -0.086949073 0.051137626
-0.07859093 -0.086863659 0.051412284
-0.077614114 -0.086927809 0.051437974
-0.076992691 -0.087397106 0.051380217
-0.075424023 -0.086789288 0.05180195
-0.07395485 -0.086280659 0.051830232
-0.074081957 -0.087646253 0.05187887
-0.07248003 -0.086976036 0.051839679
-0.071004488 -0.086440243 0.052209675
-0.070426844 -0.086997867 0.051872194
-0.069134891 -0.086676583 0.052385747
-0.067857876 -0.086364567 0.052458584
-0.066852175 -0.08639358 0.053082943
-0.065500632 -0.085969582 0.053312778
-0.065426119 -0.087234832 0.054028273
-0.064430453 -0.087292872 0.053857625
-0.061400626 -0.084551677 0.053696394
-0.060736243 -0.085030742 0.052872986
-0.059777297 -0.085106663 0.05100885
-0.058819707 -0.085187167 0.047669858
-0.061820984 -0.091104612 0.036040783
-0.064697184 -0.097045779 0.024713814
-0.064349324 -0.09827897 0.017393023
-0.059917431 -0.093204893 0.0056885481
-0.10530365 -0.086536653 0.041580498
-0.1009448 -0.083784185 0.050752491
-0.10019726 -0.084003761 0.052257776
-0.099149764 -0.08397378 0.052795827
-0.1002577 -0.08578752 0.052998692
-0.099217802 -0.085782059 0.053519189
-0.098054163 -0.085668378 0.053268224
-0.097908124 -0.086450793 0.052561581
-0.096018746 -0.085694149 0.051695347
-0.095260784 -0.085941792 0.051373124
-0.094652675 -0.086331561 0.051207572
-0.092762493 -0.085547633 0.051185668
-0.091827564 -0.085636936 0.051266223
-0.091286175 -0.086099461 0.051165164
-0.090192318 -0.086045541 0.050891399
-0.089129798 -0.086020619 0.050919771
-0.088006854 -0.085936107 0.050867081
-0.086431719 -0.085402772 0.05062148
-0.086425737 -0.086425737 0.051269323
-0.084841698 -0.085876353 0.051260978
-0.083635762 -0.085700847 0.051135302
-0.083822459 -0.086965807 0.051272839
-0.08225926 -0.086424284 0.051163316
-0.081149183 -0.086351052 0.051057577
-0.079852365 -0.086074628 0.051088125
-0.078312501 -0.085525498 0.051486135
-0.077397369 -0.085653089 0.051873147
-0.077484831 -0.086908661 0.051777542
-0.075369619 -0.085694224 0.051385462
-0.074300669 -0.085652158 0.051196009
-0.073851161 -0.086333051 0.051633745
-0.072139367 -0.085536681 0.051743895
-0.07157962 -0.086103022 0.051804006
-0.070250139 -0.085746489 0.051743895
-0.069193035 -0.085716747 0.051832616
-0.067709796 -0.085150197 0.05243513
-0.066787988 -0.085283123 0.053040951
-0.066188388 -0.085838065 0.053653896
-0.065292336 -0.086020067 0.053975523
-0.063815817 -0.085430853 0.054001451
-0.061811645 -0.084104374 0.053572416
-0.060906913 -0.084254563 0.05327183
-0.059071049 -0.083099946 0.049972534
-0.059280682 -0.084832698 0.047392249
-0.062052831 -0.090357631 0.03142342
-0.064267002 -0.095252879 0.024080604
-0.063150533 -0.0952999 0.014687538
-0.10829988 -0.087926634 0.0367558
-0.10282946 -0.084320158 0.050902069
-0.099604145 -0.082500398 0.05235669
-0.099601634 -0.083340146 0.053072751
-0.10007673 -0.084600948 0.053078532
-0.099049933 -0.08460515 0.053274184
-0.09872894 -0.085218668 0.053185076
-0.095739953 -0.083517835 0.052775264
-0.096531719 -0.085113987 0.052196145
-0.095899127 -0.085475311 0.051710278
-0.093368419 -0.084134176 0.051352948
-0.09284962 -0.084596321 0.051181525
-0.092619933 -0.085335225 0.051402986
-0.090991043 -0.084787108 0.051738322
-0.090060249 -0.084884375 0.051318824
-0.089284793 -0.08513201 0.051172912
-0.088316448 -0.085199393 0.051050365
-0.087326095 -0.085246898 0.050814688
-0.086324275 -0.085284218 0.051039845
-0.085647553 -0.085647553 0.051259995
-0.084143236 -0.085182041 0.051259995
-0.082359098 -0.084418081 0.051201791
-0.081974506 -0.085087456 0.051155835
-0.081713028 -0.085903436 0.051134527
-0.079689145 -0.084863767 0.051039666
-0.07885769 -0.085083298 0.051732898
-0.078351475 -0.08566428 0.051821798
-0.076096624 -0.084323287 0.051544338
-0.076220728 -0.085617803 0.051530659
-0.074805245 -0.085194863 0.051777542
-0.073590137 -0.084991425 0.051696479
-0.072617799 -0.085066564 0.051765501
-0.071230844 -0.08465115 0.052071899
-0.069938734 -0.084337883 0.051775903
-0.069471225 -0.085024484 0.051998854
-0.068228707 -0.084769003 0.052236348
-0.066731147 -0.084183909 0.053379238
-0.06700258 -0.085847057 0.05365333
-0.064701401 -0.084214523 0.054231286
-0.064802051 -0.085705936 0.053901583
-0.062313952 -0.083766297 0.053897738
-0.060210023 -0.082287028 0.052525818
-0.059932295 -0.083295733 0.050116777
-0.059884261 -0.084663957 0.046763569
-0.062192015 -0.089469217 0.029085517
-0.063079432 -0.092366308 0.021205097
-0.061507925 -0.091702729 0.0095307827
-0.10828443 -0.086841963 0.013630897
-0.10221269 -0.082792275 0.050538003
-0.10057869 -0.082291655 0.052942693
-0.098984689 -0.081813872 0.053547502
-0.098876983 -0.082567379 0.053668469
-0.099646047 -0.084076352 0.053785831
-0.098152876 -0.083688244 0.053367436
-0.096762642 -0.083380572 0.052971929
-0.096214481 -0.083799712 0.052227527
-0.095639639 -0.084204465 0.051902622
-0.094236448 -0.083880797 0.051578194
-0.09345299 -0.08410769 0.051624089
-0.092136577 -0.083854638 0.051728606
-0.09145657 -0.084181614 0.051803738
-0.090108126 -0.083893776 0.051280081
-0.089051642 -0.083874218 0.050937891
-0.088262476 -0.084108949 0.051008105
-0.08751715 -0.084391534 0.050905973
-0.08672519 -0.084635422 0.050668746
-0.085439593 -0.084397651 0.050821245
-0.08406765 -0.08406765 0.050821245
-0.082988627 -0.084025986 0.050821245
-0.082883447 -0.084981762 0.050723344
-0.081658915 -0.084799647 0.050700575
-0.079621725 -0.083757915 0.051023573
-0.079361923 -0.084583104 0.051436007
-0.077369139 -0.083558671 0.051703751
-0.077113204 -0.084407695 0.051726937
-0.076366015 -0.084734894 0.051823318
-0.074200496 -0.083475552 0.051657379
-0.073498175 -0.083850034 0.051669627
-0.072301231 -0.083662853 0.051951379
-0.071401238 -0.083818845 0.052048743
-0.070680104 -0.084192477 0.052169174
-0.069276109 -0.083751716 0.052317113
-0.067969225 -0.083416775 0.052828074
-0.06716042 -0.083692215 0.053454965
-0.06575419 -0.083220147 0.054671556
-0.065174423 -0.083795689 0.054795206
-0.06468077 -0.084502302 0.054660171
-0.061938148 -0.082245737 0.054640561
-0.06092706 -0.082251534 0.052965641
-0.060099617 -0.082509644 0.050822318
-0.059718251 -0.083399624 0.047361732
-0.062193967 -0.088380903 0.027545542
-0.063859023 -0.092367515 0.018853277
-0.061539952 -0.090631567 0.0071336329
-0.10283148 -0.082265183 0.049959958
-0.10067827 -0.081356183 0.05309236
-0.098846346 -0.080690898 0.053616077
-0.098339722 -0.081104927 0.053656936
-0.098009735 -0.081674777 0.05381918
-0.098518342 -0.082962818 0.053707391
-0.096730091 -0.082323484 0.05335772
-0.096314333 -0.082851037 0.052922696
-0.09521623 -0.082796723 0.05258587
-0.094506621 -0.083082743 0.052263945
-0.093049005 -0.082710221 0.052228242
-0.092016242 -0.082711227 0.052225679
-0.09109769 -0.082816079 0.051675051
-0.090898402 -0.083584733 0.051339805
-0.089766912 -0.083504103 0.051211596
-0.088535927 -0.083327934 0.050659865
-0.08682476 -0.082690246 0.050613821
-0.086765759 -0.083629645 0.050925165
-0.085377283 -0.083294913 0.051074415
-0.084555216 -0.083511323 0.050961345
-0.083313301 -0.083313301 0.051195443
-0.082240298 -0.083281308 0.050947398
-0.081153654 -0.083234519 0.051073909
-0.080934897 -0.084088206 0.051034719
-0.079145513 -0.083311066 0.051291853
-0.077638373 -0.082814269 0.051250488
-0.077052414 -0.083299905 0.051247001
-0.07535173 -0.082577236 0.051551163
-0.075366609 -0.083740681 0.051934749
-0.073880866 -0.083246045 0.052002758
-0.072628438 -0.083003931 0.052008569
-0.071930252 -0.083397396 0.052128017
-0.070546813 -0.082996249 0.052260399
-0.069184735 -0.082608633 0.052653462
-0.068404675 -0.082914755 0.05294323
-0.067114532 -0.082602501 0.053680182
-0.066445179 -0.083056472 0.05429709
-0.065975837 -0.083778843 0.054737657
-0.063216932 -0.081570238 0.054536551
-0.061964296 -0.081264645 0.054718018
-0.060934801 -0.081246398 0.053616077
-0.060114358 -0.081510991 0.050684363
-0.060001098 -0.082760133 0.043174952
-0.063335776 -0.088892318 0.024674028
-0.066957235 -0.095653191 0.016341746
-0.10463959 -0.082665272 0.044172108
-0.10186823 -0.081288785 0.052522302
-0.09936031 -0.080096573 0.054061115
-0.098122105 -0.079913877 0.054066628
-0.098684065 -0.081208766 0.054240704
-0.099040523 -0.082360014 0.053889871
-0.095958188 -0.08064571 0.053722501
-0.09606725 -0.081605509 0.053143203
-0.095657431 -0.082140625 0.053004801
-0.093262836 -0.080964439 0.05263868
-0.093145281 -0.081760861 0.052882314
-0.09322422 -0.08274959 0.05251497
-0.091139816 -0.081818692 0.051891893
-0.090929955 -0.082568578 0.051200658
-0.089706242 -0.082404569 0.050885797
-0.088935167 -0.082657389 0.051001251
-0.088022731 -0.082783282 0.051279932
-0.08664798 -0.082472175 0.051029831
-0.085460708 -0.082334094 0.051283747
-0.08480157 -0.082707703 0.051342487
-0.083266236 -0.082225412 0.051327556
-0.082730092 -0.082730092 0.051243603
-0.081316836 -0.082359359 0.051147312
-0.079925939 -0.082001939 0.0511159
-0.078960262 -0.082077116 0.051396966
-0.07847105 -0.082656175 0.051514566
-0.076699637 -0.081882045 0.051454961
-0.076258779 -0.082526617 0.051459193
-0.07465329 -0.081911251 0.051716089
-0.073486805 -0.081767008 0.051937371
-0.072892606 -0.082264513 0.052279025
-0.071447961 -0.081802741 0.052347034
-0.070140406 -0.08148665 0.052618682
-0.069650404 -0.082125098 0.052857846
-0.06844072 -0.081921466 0.053137183
-0.066912457 -0.081324369 0.053936601
-0.066802405 -0.082459211 0.054459959
-0.06582161 -0.08253821 0.054926932
-0.06382329 -0.081323229 0.054958224
-0.062227987 -0.080590345 0.054325908
-0.060758501 -0.079998694 0.052667499
-0.060514893 -0.081028417 0.050174862
-0.061489116 -0.083752416 0.033906221
-0.064282544 -0.08909335 0.021080405
-0.065939933 -0.093022406 0.010841042
-0.10592365 -0.082620449 0.027506232
-0.10206618 -0.080415778 0.051718354
-0.099758327 -0.079399489 0.054751605
-0.097892374 -0.078717574 0.054478735
-0.098230213 -0.07981205 0.054393679
-0.097727224 -0.080239199 0.054138869
-0.097224422 -0.080675587 0.053845286
-0.09603399 -0.080544636 0.053437382
-0.094601244 -0.080205403 0.053320199
-0.094162151 -0.080710411 0.05315426
-0.093219742 -0.080790438 0.053107232
-0.092396185 -0.080976434 0.052317798
-0.090894423 -0.080565512 0.052269131
-0.091224231 -0.081787243 0.051531345
-0.089532711 -0.081204087 0.051072299
-0.089142241 -0.081801116 0.051063329
-0.088007912 -0.081721634 0.050981671
-0.086751677 -0.081525669 0.050985157
-0.085358344 -0.081194527 0.050876528
-0.084883653 -0.081739813 0.051014543
-0.083366297 -0.081282139 0.050947249
-0.083323136 -0.082268417 0.051002115
-0.081158899 -0.081158899 0.051060885
-0.080545686 -0.081591733 0.051065832
-0.079590388 -0.081684873 0.05155158
-0.07807292 -0.081195839 0.051752687
-0.076916121 -0.081073754 0.051944405
-0.076202266 -0.081421599 0.05173856
-0.074674845 -0.080897748 0.051929474
-0.074229531 -0.081547938 0.051899314
-0.072842501 -0.081167355 0.052083105
-0.071753472 -0.081112623 0.052461565
-0.070567727 -0.080945328 0.052882105
-0.069606379 -0.081034295 0.053015798
-0.068148248 -0.080538839 0.053482085
-0.067375928 -0.080851108 0.054496497
-0.065701485 -0.080073692 0.055018127
-0.065991826 -0.08170417 0.055282086
-0.063800968 -0.080265731 0.055272013
-0.061894704 -0.079144046 0.05431819
-0.060988806 -0.07928545 0.053052068
-0.061468028 -0.081262819 0.04992941
-0.061876334 -0.083213001 0.02730605
-0.068679087 -0.093981907 0.017647505
-0.10309821 -0.0801875 0.045760006
-0.09963569 -0.07828518 0.054562509
-0.09872108 -0.07836622 0.055032939
-0.096704133 -0.077564776 0.055244476
-0.098214634 -0.079605542 0.055256277
-0.098001637 -0.080277935 0.054987103
-0.095538057 -0.079101406 0.054122806
-0.095052272 -0.079554625 0.054350048
-0.094274566 -0.079770789 0.054120421
-0.093501657 -0.079995863 0.053325057
-0.092601307 -0.080115736 0.05296579
-0.091895804 -0.080408826 0.052370578
-0.090728208 -0.080299675 0.051672012
-0.089746624 -0.080354534 0.051240623
-0.088692494 -0.080344968 0.05115217
-0.087732956 -0.080421872 0.051086336
-0.086988151 -0.080699854 0.051050603
-0.085728608 -0.080501258 0.051119238
-0.084324084 -0.080159932 0.051119238
-0.084466308 -0.081298821 0.051072478
-0.082287543 -0.080204308 0.051118791
-0.081456013 -0.08041171 0.051273227
-0.080164261 -0.080164261 0.051291049
-0.079408757 -0.080453612 0.051489174
-0.078636572 -0.080733545 0.052127868
-0.077516668 -0.08065924 0.052167624
-0.075674288 -0.079820827 0.052057147
-0.074708864 -0.079896979 0.052644461
-0.074080706 -0.080341049 0.052452862
-0.072976157 -0.080273777 0.052468151
-0.071877018 -0.080210589 0.052736908
-0.07035163 -0.079662874 0.053080976
-0.068887822 -0.079169586 0.05360806
-0.068689577 -0.080137841 0.053990602
-0.067110673 -0.07950034 0.05437687
-0.066810057 -0.08038085 0.05527094
-0.065885872 -0.080527171 0.055511743
-0.062643528 -0.077799223 0.054624259
-0.062212691 -0.078530774 0.053707957
-0.061748493 -0.079243898 0.051698059
-0.061024804 -0.079642542 0.045470029
-0.064734511 -0.085940644 0.02276814
-0.069907703 -0.09443672 0.012473106
-0.1047372 -0.080404311 0.030753583
-0.10133372 -0.078585334 0.052800983
-0.098839536 -0.077441283 0.055333942
-0.097354241 -0.077072106 0.05544284
-0.096933134 -0.077546507 0.055542439
-0.096777566 -0.078245692 0.055132866
-0.096141823 -0.078567512 0.054984957
-0.096347101 -0.079591081 0.054814219
-0.094138555 -0.078621209 0.054580659
-0.093687132 -0.07911358 0.053854316
-0.093254507 -0.079633065 0.053192854
-0.091790356 -0.079273492 0.052402169
-0.091357142 -0.079806238 0.052065074
-0.090011187 -0.079544768 0.051715553
-0.089272276 -0.079819918 0.051774949
-0.087816887 -0.079453371 0.051524222
-0.087199554 -0.079845376 0.051511258
-0.085503273 -0.079246931 0.051448226
-0.084916241 -0.079674497 0.051454335
-0.083040953 -0.078888908 0.051448226
-0.082865655 -0.079718858 0.051739633
-0.081603974 -0.079511568 0.051816642
-0.080291986 -0.079249233 0.051688045
-0.080092743 -0.080092743 0.051894844
-0.07860899 -0.079657108 0.052481592
-0.076362438 -0.078426287 0.052695662
-0.076301523 -0.079437204 0.052839816
-0.075065263 -0.079235554 0.053468704
-0.073578946 -0.078760564 0.053248256
-0.073117815 -0.079385057 0.05367288
-0.072161265 -0.079481974 0.053879946
-0.07032638 -0.078600071 0.053884715
-0.069713697 -0.079078227 0.054134965
-0.068720534 -0.079132736 0.054532886
-0.067448907 -0.078863338 0.054858148
-0.066510059 -0.078980692 0.055035889
-0.064316697 -0.077588394 0.05497241
-0.063066699 -0.077307567 0.054436564
-0.062600024 -0.077993475 0.053395748
-0.061495475 -0.07789427 0.050858825
-0.062498868 -0.080507018 0.034669518
-0.067893393 -0.088963754 0.014612794
-0.10140105 -0.077602841 0.047023565
-0.099954024 -0.077284038 0.054384142
-0.098049432 -0.076601118 0.05599463
-0.09511704 -0.075092398 0.056165934
-0.096847802 -0.077272184 0.056165934
-0.09606836 -0.077474482 0.056096464
-0.095533833 -0.077880844 0.055947244
-0.094142094 -0.077589639 0.055476755
-0.093850806 -0.078209005 0.05444777
-0.092234299 -0.07772553 0.053623796
-0.092044607 -0.078447104 0.05264461
-0.091319539 -0.078723736 0.05237788
-0.08994329 -0.078438915 0.05221498
-0.089265831 -0.078763969 0.051922202
-0.088214986 -0.078763381 0.051801443
-0.087148838 -0.078748949 0.051789343
-0.086331464 -0.0789617 0.051846236
-0.084967971 -0.078674048 0.052142024
-0.084307179 -0.079037979 0.052305013
-0.083339937 -0.079120189 0.052594364
-0.081100374 -0.077981129 0.052669853
-0.080653548 -0.078558654 0.052503318
-0.080236778 -0.07918103 0.052405
-0.078168929 -0.078168929 0.053081036
-0.077452898 -0.078499556 0.053126037
-0.076400675 -0.078493841 0.053363025
-0.075287901 -0.078424901 0.053882837
-0.073790006 -0.077947192 0.053850472
-0.072844416 -0.078047588 0.053916216
-0.071515769 -0.07773453 0.054104686
-0.07062652 -0.077896893 0.054171979
-0.069824979 -0.07816229 0.054396808
-0.068952844 -0.078355506 0.054573685
-0.067837551 -0.078274094 0.054909587
-0.065798737 -0.077107899 0.054930717
-0.064398557 -0.076664954 0.055191994
-0.064007044 -0.077427872 0.054332167
-0.062327761 -0.076632492 0.052605212
-0.062474754 -0.078093439 0.046482265
-0.065214232 -0.082899451 0.019954681
-0.10521601 -0.079448827 0.01946336
-0.10003725 -0.076317079 0.051641583
-0.098341569 -0.075804964 0.056291282
-0.095495783 -0.074386187 0.056359917
-0.095521763 -0.075197987 0.056413144
-0.095008977 -0.075598538 0.056259573
-0.094959386 -0.076380372 0.056259334
-0.095525444 -0.077680029 0.055670768
-0.092893511 -0.076379113 0.054501534
-0.092939407 -0.077275462 0.053633243
-0.09166649 -0.077083185 0.052858084
-0.091147073 -0.077527396 0.05256784
-0.090181395 -0.077597946 0.052422971
-0.089703448 -0.078094773 0.05256632
-0.08776851 -0.077319875 0.052887857
-0.086979076 -0.07754761 0.052528501
-0.086441949 -0.078008585 0.052664429
-0.084946856 -0.077605769 0.052703679
-0.084162466 -0.077850282 0.052749217
-0.082688369 -0.077454925 0.052887857
-0.081479959 -0.077301502 0.053086698
-0.080642641 -0.077500716 0.053049803
-0.080117248 -0.078008898 0.052965164
-0.078005925 -0.076965846 0.053397357
-0.077340707 -0.077340707 0.05364874
-0.076093599 -0.077135973 0.053883195
-0.075355187 -0.07744839 0.054424614
-0.073852047 -0.076972559 0.054242373
-0.072809272 -0.076969802 0.054449379
-0.072154514 -0.077383101 0.054579675
-0.070233874 -0.076430984 0.054636091
-0.069787316 -0.077078529 0.054924577
-0.068895996 -0.077247031 0.054928213
-0.068331204 -0.077792443 0.054928213
-0.065397762 -0.075616166 0.054928213
-0.064173788 -0.075378738 0.054693341
-0.063283309 -0.075531691 0.053313434
-0.063256823 -0.076737784 0.050247312
-0.06400568 -0.078940339 0.036000043
-0.10257796 -0.077197842 0.032299161
-0.099807724 -0.075895458 0.052049547
-0.097419046 -0.074858844 0.056328237
-0.094472736 -0.073367126 0.056767941
-0.094334006 -0.074047126 0.056788027
-0.09516342 -0.075510107 0.056800455
-0.093376316 -0.074906275 0.056026071
-0.09306667 -0.075487405 0.055247337
-0.093058161 -0.076328605 0.054354727
-0.09188839 -0.076225601 0.053859293
-0.090927489 -0.07629548 0.053870469
-0.090224877 -0.076586232 0.053705186
-0.089039117 -0.076468885 0.053368866
-0.087825961 -0.07632494 0.053361535
-0.086872928 -0.076406315 0.05330807
-0.0857464 -0.076335207 0.053194344
-0.085475281 -0.077033281 0.053198934
-0.083712056 -0.076387249 0.053640693
-0.082898043 -0.07660199 0.053939074
-0.082036018 -0.076777302 0.053939074
-0.080842637 -0.07664302 0.053886801
-0.07928022 -0.076150738 0.053834081
-0.078492016 -0.076398894 0.054461658
-0.077051118 -0.076009884 0.054461777
-0.076353326 -0.076353326 0.054861784
-0.07537467 -0.076421544 0.055119872
-0.073680006 -0.075755499 0.055143982
-0.072886817 -0.07601054 0.055352747
-0.071731046 -0.075889371 0.055617869
-0.070993654 -0.076213777 0.055276006
-0.069688991 -0.075929798 0.055650651
-0.068937652 -0.076249219 0.055742711
-0.067140199 -0.075403608 0.055612683
-0.065652989 -0.074885435 0.055120111
-0.063899375 -0.074042134 0.054927677
-0.064439289 -0.075872064 0.052551121
-0.064105265 -0.076716132 0.044380814
-0.066175133 -0.080513082 0.010763556
-0.10103554 -0.075776652 0.042359769
-0.097932123 -0.074222237 0.053343534
-0.095297419 -0.072993763 0.055336326
-0.094456702 -0.073127769 0.055837363
-0.092821613 -0.072643004 0.056284815
-0.093707092 -0.074141875 0.055895656
-0.093628995 -0.074903198 0.055495918
-0.092405334 -0.074754879 0.054653347
-0.09189041 -0.075183064 0.054380298
-0.091058716 -0.075358935 0.054266185
-0.089393832 -0.07484135 0.054202497
-0.089111909 -0.075483024 0.053993851
-0.088207744 -0.075606637 0.053862631
-0.087319553 -0.07574708 0.053750813
-0.086646862 -0.076080173 0.053917974
-0.084642485 -0.075237766 0.054024339
-0.0840955 -0.075685948 0.054461509
-0.082942426 -0.075593099 0.054619104
-0.081232905 -0.074984215 0.054684073
-0.081359364 -0.076076292 0.054915637
-0.080294184 -0.076068178 0.055086553
-0.078229494 -0.075100318 0.055796593
-0.077366926 -0.075275928 0.055960059
-0.07666073 -0.075610578 0.056063384
-0.074777745 -0.074777745 0.056293815
-0.074399836 -0.075447716 0.056297898
-0.072896905 -0.074979678 0.056331486
-0.072129503 -0.075265564 0.056321442
-0.070681572 -0.074839316 0.056062311
-0.070200749 -0.07543961 0.056270838
-0.067894302 -0.074066512 0.05648458
-0.066357806 -0.073504031 0.055881381
-0.064582616 -0.072655447 0.05507949
-0.065046832 -0.074339233 0.05387485
-0.065003179 -0.075487562 0.046847671
-0.066298909 -0.078254454 0.01952973
-0.10025445 -0.07492701 0.043697268
-0.09563224 -0.072232865 0.052980781
-0.094171315 -0.071894236 0.05498746
-0.09328045 -0.071988173 0.054906607
-0.092780381 -0.072389089 0.055367172
-0.091633745 -0.072288841 0.055020809
-0.092512369 -0.073802002 0.054906607
-0.091813512 -0.074076809 0.054801345
-0.091329016 -0.074532874 0.054509401
-0.090494327 -0.074710429 0.054431289
-0.088880889 -0.074241683 0.054578751
-0.087604493 -0.074046656 0.054387301
-0.086945578 -0.074375138 0.054430515
-0.085764468 -0.074259475 0.054698348
-0.08456187 -0.074122131 0.054770648
-0.084197178 -0.074724995 0.055028439
-0.082618773 -0.074252315 0.055437148
-0.081466988 -0.074155852 0.055645525
-0.081025332 -0.074711673 0.055709898
-0.079524003 -0.074292161 0.055992603
-0.078154653 -0.073986404 0.056250751
-0.077602774 -0.074456714 0.056357622
-0.075622991 -0.073551126 0.056388795
-0.075102121 -0.074059039 0.056626886
-0.074027173 -0.074027173 0.056833088
-0.07255441 -0.073590904 0.05679363
-0.071721531 -0.073800422 0.056690097
-0.071118906 -0.074256502 0.056545258
-0.068747722 -0.072852068 0.056577176
-0.06755884 -0.072676934 0.05668208
-0.066569395 -0.072714262 0.056051701
-0.065989658 -0.073207282 0.054636151
-0.066462964 -0.074902706 0.049098432
-0.065894701 -0.075460061 0.0281578
-0.098309442 -0.073209159 0.043404251
-0.096039191 -0.072287567 0.052965283
-0.094115116 -0.071609326 0.054745018
-0.092106402 -0.07085108 0.055152148
-0.091030873 -0.070801795 0.055377871
-0.091319233 -0.071824118 0.05538547
-0.091229066 -0.072568573 0.055343062
-0.091180108 -0.073363304 0.055102974
-0.089723311 -0.073030606 0.055103093
-0.088912182 -0.073221795 0.055119842
-0.087985344 -0.073321119 0.055216432
-0.086783469 -0.073190875 0.05531019
-0.085604213 -0.07307677 0.055534571
-0.084403463 -0.072941266 0.055729985
-0.08331091 -0.072897047 0.056079179
-0.0823652 -0.072981827 0.056316674
-0.08204519 -0.073630303 0.056426316
-0.080226295 -0.072932996 0.056451738
-0.079352401 -0.073087737 0.056305736
-0.078567915 -0.073330052 0.056734562
-0.076864772 -0.072709918 0.056831002
-0.07620021 -0.073068693 0.056865841
-0.075283967 -0.073192745 0.05693078
-0.07384523 -0.072805159 0.056887984
-0.072894812 -0.072894812 0.056887984
-0.071817443 -0.072858274 0.056477308
-0.069966108 -0.072023936 0.056435645
-0.068342499 -0.071402609 0.056287229
-0.06777326 -0.071880728 0.055846006
-0.067486815 -0.072678111 0.055050999
-0.067350715 -0.073664844 0.048905343
-0.067546226 -0.07505136 0.031178087
-0.098766677 -0.073278502 0.040598214
-0.09460596 -0.070954464 0.053432167
-0.093234256 -0.070694111 0.054893941
-0.091741048 -0.070334807 0.055722147
-0.089623161 -0.069483124 0.055994481
-0.08972384 -0.070351653 0.055823684
-0.090947881 -0.072131075 0.055816144
-0.089560062 -0.071856327 0.056047946
-0.089377873 -0.072553799 0.056110531
-0.0878058 -0.072126195 0.055980265
-0.086220399 -0.0716772 0.056076288
-0.085819595 -0.072214052 0.056042314
-0.085089512 -0.072483659 0.056288093
-0.083211094 -0.071769565 0.056554914
-0.083166964 -0.072639503 0.056671739
-0.081077188 -0.071722127 0.056915998
-0.080120914 -0.071796663 0.057044655
-0.079484522 -0.072163582 0.056965113
-0.078205235 -0.071948811 0.057356805
-0.077130668 -0.071919136 0.057553053
-0.076440863 -0.072252318 0.057553053
-0.074866362 -0.07174693 0.057789683
-0.074185751 -0.072096013 0.057796419
-0.071838379 -0.070812121 0.057865679
-0.070200831 -0.070200831 0.057590455
-0.069868505 -0.070895985 0.056936055
-0.068764634 -0.070817307 0.056040734
-0.068474494 -0.071586974 0.054909617
-0.068669513 -0.072895333 0.048743129
-0.068331338 -0.073669724 0.029116869
-0.098554462 -0.072844602 0.034737706
-0.095689863 -0.071504511 0.051586717
-0.0921892 -0.069654062 0.054853916
-0.090806283 -0.069380082 0.055507958
-0.089122064 -0.06886705 0.055969805
-0.082481854 -0.064468578 0.056152344
-0.08801011 -0.069589391 0.056686372
-0.087137215 -0.06970977 0.056722403
-0.086955547 -0.070392586 0.056686372
-0.086274602 -0.070682809 0.056396991
-0.085223369 -0.070673034 0.056698292
-0.083988406 -0.070508786 0.056524783
-0.083530687 -0.071001083 0.057332695
-0.081908189 -0.07050325 0.057676047
-0.081309922 -0.070885576 0.057834148
-0.080350794 -0.070959143 0.057863325
-0.078730524 -0.070443101 0.05787617
-0.077895753 -0.070625484 0.058180541
-0.077170439 -0.070913382 0.058231384
-0.075309411 -0.070151232 0.058180541
-0.074060202 -0.069945745 0.058377385
-0.072501734 -0.069438279 0.058277279
-0.071204796 -0.069170378 0.058046609
-0.070618264 -0.069594815 0.057211936
-0.070214935 -0.070214935 0.056217104
-0.069753267 -0.070794359 0.053954095
-0.069856912 -0.071973786 0.046031117
-0.070636675 -0.073896833 0.016460538
-0.098863766 -0.072789803 0.018611282
-0.095126495 -0.07081639 0.045473129
