ply
format ascii 1.0
comment PCL generated
element vertex 1315
property float x
property float y
property float z
element camera 0
property float view_px
property float view_py
property float view_pz
property float x_axisx
property float x_axisy
property float x_axisz
property float y_axisx
property float y_axisy
property float y_axisz
property float z_axisx
property float z_axisy
property float z_axisz
property float focal
property float scalex
property float scaley
property float centerx
property float centery
property int viewportx
property int viewporty
property float k1
property float k2
end_header
0.081766367 -0.14885671 0.0069789588
0.082883291 -0.1489801 0.0067741573
0.084019981 -0.14913547 0.0070586205
0.084557198 -0.14823608 0.00718835
0.086089209 -0.14908132 0.0073581338
0.086261943 -0.14758068 0.0073269606
0.088354446 -0.14936109 0.0072518885
0.088940702 -0.14858329 0.0072300136
0.089903988 -0.14844611 0.0071540773
0.089793563 -0.14655961 0.0074460208
0.093135498 -0.15028682 0.0074485838
0.093052194 -0.14846529 0.0073819458
0.095193557 -0.15019427 0.0072712004
0.095304638 -0.14871714 0.0070826411
0.096658118 -0.1491897 0.006935358
0.09770114 -0.14917809 0.00683406
0.10056847 -0.15192258 0.0066187978
0.099828899 -0.14921793 0.0066017509
0.10052222 -0.14868912 0.0065304935
0.10247444 -0.15001413 0.0064762533
0.10308042 -0.14936143 0.005790174
0.10423461 -0.14950822 0.0053079724
0.10622856 -0.15084456 0.0052808821
0.10615876 -0.14925291 0.0051412284
0.10907768 -0.15037894 0.0052321851
0.077876657 -0.15041929 0.0051648021
0.077678867 -0.14800973 0.0056640804
0.078411654 -0.14741391 0.0060402453
0.079900265 -0.14823602 0.0063387156
0.080858245 -0.14806511 0.0069388747
0.082991518 -0.15002313 0.0073425174
0.083692409 -0.14937507 0.007034272
0.084165759 -0.14834216 0.0071206987
0.084323801 -0.14678587 0.0074336529
0.086756706 -0.14917921 0.007714808
0.087105125 -0.14797378 0.0076484978
0.088239573 -0.14811642 0.0074285865
0.089050636 -0.14771928 0.0074240863
0.090074815 -0.1476808 0.0074285865
0.091198631 -0.14780468 0.0074424148
0.091219515 -0.14615855 0.0072930157
0.092992045 -0.14732447 0.007503897
0.094530329 -0.14809752 0.0071434677
0.095448129 -0.14789216 0.0071169734
0.096097216 -0.14727943 0.0068509281
0.097831666 -0.14832543 0.0070084631
0.099140808 -0.14871122 0.0065891743
0.10026854 -0.14881961 0.006711036
0.10155751 -0.14916259 0.0062656701
0.10195734 -0.14820604 0.0058668554
0.10303713 -0.1482473 0.0053613186
0.10429905 -0.14854713 0.0055276752
0.10635158 -0.14995573 0.0051521957
0.10806282 -0.15085998 0.0053611398
0.10978559 -0.15176243 0.005022198
0.10710654 -0.14662157 0.0050894022
0.076529033 -0.14880645 0.0050559342
0.076513812 -0.14673883 0.0056299865
0.077344179 -0.14632683 0.0058209002
0.079565212 -0.14852174 0.006170094
0.080321752 -0.14796112 0.006157428
0.080519356 -0.14639883 0.0065853
0.082073197 -0.14731087 0.0069766641
0.083822742 -0.14854664 0.0070748329
0.084315911 -0.14755285 0.0071885288
0.085754074 -0.14821692 0.0078118742
0.086439691 -0.14757997 0.0078901947
0.086832106 -0.1464638 0.0077374578
0.089156315 -0.14859386 0.0074826479
0.088564336 -0.14587067 0.0073240399
0.089976415 -0.14647324 0.0073291063
0.092368141 -0.14863838 0.0075497925
0.093628198 -0.14895394 0.0078423321
0.093590058 -0.14722031 0.0076588094
0.09481252 -0.14748614 0.0076587498
0.095480897 -0.14689369 0.0073907375
0.096751526 -0.14723058 0.0071562529
0.097929619 -0.14742093 0.0073054731
0.10023201 -0.14928171 0.0071217418
0.10108602 -0.14896888 0.0068685114
0.10028701 -0.14625189 0.0067106187
0.10009302 -0.14446415 0.0065636337
0.10352341 -0.14789058 0.005697757
0.10386761 -0.14688349 0.0054975748
0.1054049 -0.14756685 0.0053425431
0.10796639 -0.14965639 0.005654484
0.10689468 -0.14671819 0.0050394833
0.073970906 -0.1468851 0.0052136481
0.07499323 -0.14681773 0.0053071082
0.077248424 -0.14913239 0.0054962039
0.076548763 -0.14575723 0.005697608
0.077642426 -0.14584185 0.0060801208
0.079361394 -0.14708312 0.0066691935
0.080092974 -0.14648584 0.0065814257
0.081640147 -0.14737636 0.0070978999
0.083126664 -0.14813598 0.0068608224
0.082676098 -0.14546807 0.0068957806
0.084967799 -0.14763154 0.0072326362
0.084706344 -0.14536026 0.0075528622
0.085617289 -0.14513174 0.0076310635
0.087935701 -0.14726582 0.0075452626
0.088646218 -0.14668839 0.0074725449
0.089540444 -0.14642496 0.0073690116
0.09142714 -0.14777178 0.0072635114
0.091256067 -0.14579992 0.0076014102
0.093695946 -0.14799701 0.0076014102
0.093807213 -0.14650789 0.0079112053
0.095058091 -0.14681195 0.0077251494
0.096286342 -0.14707474 0.0074595809
0.096263424 -0.14544147 0.0070833266
0.098768175 -0.14762124 0.0070809722
0.10015222 -0.14809743 0.0068265498
0.10007378 -0.14642374 0.0065672994
0.10110643 -0.14639369 0.0065179467
0.10384826 -0.14881347 0.0063854754
0.10283027 -0.14585111 0.0058303177
0.10446642 -0.14667507 0.0054431856
0.10617647 -0.14758529 0.0053670406
0.10660931 -0.14671975 0.0051722229
0.074597105 -0.14706285 0.005194664
0.0756488 -0.14703569 0.0052653551
0.076846704 -0.14728951 0.0059210956
0.07748156 -0.14647199 0.0059756041
0.078660943 -0.14669204 0.006139636
0.07809937 -0.14370285 0.0066522658
0.081125014 -0.14730594 0.006804198
0.08193697 -0.14684807 0.0071239173
0.082147487 -0.14533785 0.0069915056
0.083687328 -0.14618799 0.0066492856
0.0843549 -0.14551219 0.0068050921
0.084668964 -0.14425083 0.0073040128
0.087798871 -0.14775907 0.0075563192
0.087184861 -0.14495796 0.0073685646
0.087779231 -0.14420874 0.0072871149
0.088914879 -0.14435592 0.0071733296
0.090570606 -0.14533423 0.0073050559
0.092178918 -0.14621483 0.0075985193
0.092983462 -0.14581499 0.0076682568
0.094049871 -0.14583014 0.0076690912
0.095230542 -0.14602016 0.0074662864
0.095539749 -0.14488445 0.0074333549
0.097273819 -0.14591072 0.0072348714
0.098607823 -0.14632128 0.0072388053
0.09954533 -0.14614102 0.0073613822
0.10140084 -0.14729807 0.0071977973
0.10246885 -0.14729898 0.0070067644
0.10185882 -0.14491254 0.0062531829
0.10333283 -0.1455095 0.0054998398
0.1056468 -0.14726524 0.0053144097
0.073783353 -0.14649738 0.0050223172
0.075035483 -0.14685516 0.0053418577
0.075135492 -0.14497975 0.0052550435
0.076813951 -0.14615989 0.0053334236
0.077069029 -0.14463641 0.0062004328
0.078307725 -0.14497511 0.0065000653
0.080001123 -0.14613539 0.0067543387
0.080514699 -0.14513834 0.0069182217
0.080968894 -0.14406154 0.0071878433
0.083305739 -0.14631905 0.0069694817
0.083191268 -0.14426841 0.0068838298
0.084601767 -0.14488053 0.006728828
0.086806908 -0.14682156 0.007327199
0.086136639 -0.14391121 0.0076682568
0.087570563 -0.14454417 0.0076307654
0.088700734 -0.14466667 0.0074760616
0.088717304 -0.14299142 0.0073642731
0.09039107 -0.14399508 0.0073106289
0.091745459 -0.14447273 0.0077601671
0.092861243 -0.14456807 0.0077650845
0.094426319 -0.14535287 0.0078544915
0.09628839 -0.14657232 0.0077016652
0.096118696 -0.14470616 0.0077664852
0.097273916 -0.14485355 0.0076591969
0.098355398 -0.14488915 0.0077802241
0.099990755 -0.14573121 0.0071283579
0.09994778 -0.14413522 0.0073464513
0.10108434 -0.14425579 0.0069830716
0.10293818 -0.1453869 0.0066228509
0.10504437 -0.14684774 0.0056304336
0.074729055 -0.14314298 0.0052178502
0.076574706 -0.14464112 0.0056083798
0.077120148 -0.14367589 0.005823046
0.078709386 -0.14465509 0.0059731007
0.079721533 -0.14456171 0.0065068305
0.081050947 -0.14503853 0.0068791509
0.081677645 -0.14426182 0.0070758164
0.083333403 -0.14529927 0.0071853399
0.083503805 -0.14375339 0.0070004165
0.085314065 -0.14503391 0.0067918897
0.084866017 -0.14249109 0.0068326294
0.086756051 -0.14388809 0.0069570839
0.088742524 -0.14540944 0.0075285435
0.088393047 -0.14311256 0.0075047612
0.090211928 -0.14433908 0.0074612796
0.091463633 -0.14464016 0.0072338879
0.090564109 -0.14157148 0.0077281892
0.093610875 -0.14467135 0.0078023374
0.094704688 -0.14471728 0.0075806677
0.095600545 -0.14446305 0.007419765
0.096529171 -0.14426337 0.0074323416
0.097092509 -0.14352806 0.0073727667
0.098500185 -0.14404328 0.0073877573
0.099528767 -0.14399907 0.0070666373
0.10058363 -0.14399341 0.007009536
0.10145496 -0.14372785 0.0065381527
0.1024116 -0.1435874 0.0061345696
0.10324138 -0.14327376 0.0053026378
0.10440868 -0.14343011 0.005009383
0.075322084 -0.14321806 0.005185008
0.077096313 -0.14455558 0.0054578781
0.076974764 -0.1423506 0.0058823824
0.078700602 -0.14357543 0.0060122907
0.079428069 -0.14297053 0.0065877438
0.080567613 -0.14311352 0.0066816807
0.08275941 -0.14509766 0.0070190728
0.081937663 -0.14181519 0.0069215
0.084377743 -0.14418982 0.0068254769
0.083655439 -0.14116855 0.006231904
0.085723095 -0.14287183 0.0068972707
0.086807944 -0.14291552 0.0072568059
0.087241344 -0.14189857 0.0072875917
0.088621624 -0.14242761 0.0074699819
0.090221293 -0.14329264 0.0075297654
0.089955039 -0.14120848 0.0074189603
0.092097625 -0.14291011 0.0075595677
0.093538918 -0.1434972 0.0076926649
0.093078651 -0.14118671 0.0076028407
0.096794322 -0.14519148 0.0073887408
0.096212186 -0.14273237 0.0074368715
0.097815834 -0.14353411 0.0073375106
0.099656276 -0.14466234 0.0070771575
0.099435411 -0.14280617 0.0071192682
0.10108785 -0.14365114 0.0067310333
0.10232457 -0.14389393 0.0063473284
0.10142465 -0.14115801 0.0060813427
0.10511762 -0.14480488 0.005574286
0.10581198 -0.14428908 0.0051142275
0.10597976 -0.14307268 0.0050505698
0.075483449 -0.14246172 0.0053700507
0.076414108 -0.14221515 0.005399853
0.077801526 -0.14281377 0.0056565404
0.078929149 -0.14292575 0.0056990981
0.079746991 -0.1424813 0.0061754584
0.080655567 -0.14220849 0.006654948
0.081110507 -0.14115335 0.0069982708
0.083064526 -0.1427006 0.0069078803
0.084335782 -0.14305057 0.0069407523
0.084516235 -0.1415647 0.0067343414
0.085538119 -0.14150751 0.0072701573
0.08657781 -0.14148082 0.0072004795
0.08733654 -0.14100116 0.0075142682
0.090041935 -0.14363833 0.0076411068
0.090027608 -0.14192587 0.0075225234
0.090592861 -0.14115632 0.007394731
0.091717511 -0.14126605 0.0081080794
0.093476586 -0.14233935 0.0078685284
0.09437789 -0.14209704 0.007468015
0.096308492 -0.14339265 0.0072519779
0.096379526 -0.14192151 0.0072294772
0.098043822 -0.14280295 0.0072039366
0.098029472 -0.14124677 0.0071246624
0.10001589 -0.14257583 0.0069429278
0.10031193 -0.14149262 0.0068721771
0.1005588 -0.14036332 0.0064997971
0.10305306 -0.14236197 0.0061432719
0.10576741 -0.14462075 0.0057073832
0.10445683 -0.14138602 0.0055672824
0.07398124 -0.14260152 0.0053244531
0.074474201 -0.14150098 0.005425483
0.075831547 -0.14205065 0.0057851076
0.077348121 -0.14287917 0.005877167
0.07765124 -0.14147419 0.0060944259
0.079226717 -0.14239396 0.0062240958
0.079737179 -0.14140059 0.0066117644
0.080902956 -0.14158016 0.0065253377
0.082416981 -0.1423566 0.0066506565
0.082763068 -0.14112164 0.0063728988
0.08352387 -0.14061613 0.0066584051
0.085424155 -0.14201765 0.0068058074
0.085928299 -0.14109215 0.0067605674
0.086776786 -0.14074771 0.0075001121
0.087837234 -0.14075123 0.0075162351
0.088511117 -0.1401426 0.0072540343
0.090367116 -0.14139795 0.0072519779
0.092180721 -0.14255856 0.00712201
0.0921655 -0.14089668 0.0075056255
0.093577228 -0.14142923 0.0078018308
0.094572507 -0.14132746 0.0077335835
0.09555012 -0.14120185 0.0074333251
0.096715376 -0.14135325 0.0073748231
0.098356821 -0.14218976 0.0073748231
0.097924918 -0.14004317 0.0077676773
0.10072161 -0.14251037 0.007148087
0.10094739 -0.14132634 0.0071501136
0.10186638 -0.14112738 0.0065820515
0.10441352 -0.14316493 0.006126076
0.10359795 -0.14059721 0.0053485036
0.10530607 -0.1414718 0.0051373839
0.072969414 -0.13959366 0.0050909519
0.074776351 -0.14100684 0.0055335462
0.075988375 -0.14127415 0.005744338
0.076946825 -0.14106917 0.0058240592
0.077850588 -0.14077091 0.0060423315
0.078256175 -0.1395921 0.0060632527
0.080042593 -0.14087497 0.0064547658
0.081612006 -0.14174716 0.006685406
0.082573116 -0.14155391 0.0069050789
0.082547359 -0.13969553 0.0066129565
0.084254958 -0.14078043 0.0066129565
0.084876724 -0.1400466 0.0062507391
0.086922884 -0.14165211 0.0066178739
0.088136636 -0.14187849 0.0065938234
0.087322772 -0.13887477 0.0073132813
0.089506462 -0.14065301 0.007212013
0.089202896 -0.13852684 0.0072212815
0.090528563 -0.13895081 0.0069432855
0.091586784 -0.13895926 0.0074629486
0.094020046 -0.14103007 0.0076075196
0.094001845 -0.13941847 0.0080424249
0.095338963 -0.13983048 0.0076005161
0.096776545 -0.14037918 0.0076839626
0.09874431 -0.14167662 0.0076036453
0.099770866 -0.14161025 0.0078825057
0.099902958 -0.14028926 0.0077506602
0.10098898 -0.14032154 0.0069331229
0.10361361 -0.14246871 0.0071367025
0.10405271 -0.14159749 0.0061833262
0.106263 -0.14312977 0.0054279566
0.10563521 -0.14084694 0.0050959289
0.073513702 -0.13956949 0.0051150918
0.075238168 -0.13881971 0.0050802529
0.077000059 -0.14009733 0.0054043233
0.077827506 -0.13966306 0.0055383742
0.078916542 -0.13970362 0.0055924356
0.080001347 -0.13973568 0.0058474839
0.082245819 -0.14176582 0.0061921179
0.082175516 -0.13980509 0.0064340234
0.084435835 -0.14180891 0.0064626634
0.084303729 -0.1397948 0.0063854456
0.084963188 -0.13912722 0.0065545738
0.085999787 -0.13908607 0.0065540075
0.087465584 -0.1397316 0.0064089
0.088301882 -0.13936803 0.0070544481
0.089494444 -0.13956872 0.0070057809
0.089684866 -0.13822021 0.0074691176
0.091641657 -0.13959369 0.0073423982
0.092489593 -0.13926594 0.0077723265
0.093644299 -0.13940232 0.0078254938
0.09511593 -0.1400021 0.0080747008
0.095022537 -0.13831058 0.0078462064
0.096515037 -0.13893923 0.0077909231
0.099382535 -0.14151208 0.0078648925
0.098927274 -0.13934918 0.007553488
0.099998131 -0.1393591 0.0071981549
0.10133273 -0.13973249 0.0068925023
0.10127165 -0.13819361 0.0067438483
0.1041624 -0.14067292 0.0064320862
0.10598329 -0.14167154 0.005401969
0.10313749 -0.13647486 0.0051731467
0.075618476 -0.14043431 0.0051108897
0.076076537 -0.13929506 0.0053466856
0.077154167 -0.13930613 0.0054667294
0.078594923 -0.13996357 0.0054671168
0.08014036 -0.14078712 0.0055415928
0.080582842 -0.13967693 0.0057523549
0.081066132 -0.13866575 0.0054787397
0.088845998 -0.13915639 0.0063723922
0.089388922 -0.13834 0.0065540075
0.090374812 -0.1382203 0.0065611303
0.092424937 -0.13971211 0.0071710646
0.091651246 -0.13695014 0.0074206293
0.094229922 -0.1392033 0.0077296197
0.094502553 -0.13803744 0.0078954995
0.095949873 -0.13859427 0.0076995492
0.096812934 -0.13830419 0.0076518953
0.098109104 -0.13863243 0.0075440109
0.099932902 -0.13969114 0.0075873137
0.10056162 -0.13907458 0.0073791444
0.10097708 -0.13817915 0.0072928667
0.10334735 -0.13994955 0.0071730316
0.1044401 -0.13997127 0.0067016184
0.10457435 -0.13872108 0.005972743
0.10550278 -0.138539 0.005548656
0.10897094 -0.14166223 0.0050869286
0.090544827 -0.13741508 0.0055682659
0.091289841 -0.13693477 0.0058953762
0.093334086 -0.13839191 0.0064011812
0.093463674 -0.13700925 0.0069507658
0.094799131 -0.13740548 0.0073006451
0.096443377 -0.13823551 0.0071292222
0.095624819 -0.13555606 0.0074249804
0.09719716 -0.13628732 0.0073014796
0.09940055 -0.13787818 0.0075337887
0.10042712 -0.1378202 0.0071292222
0.10129806 -0.1375521 0.0067484677
0.10362209 -0.13924217 0.0067948997
0.10244215 -0.1362375 0.006437093
0.10419024 -0.13714838 0.006267041
0.10675871 -0.13910984 0.0054666996
0.092869334 -0.13663535 0.0050512254
0.09337759 -0.13582195 0.0060412884
0.095349252 -0.13713151 0.006703496
0.096696064 -0.13752329 0.0071299374
0.097402774 -0.1370061 0.0076317489
0.09790881 -0.13622096 0.0076317489
0.099390998 -0.13679622 0.0076006353
0.10084844 -0.13732553 0.0072939396
0.10159676 -0.13688827 0.0072101057
0.10290021 -0.13720028 0.0071333051
0.1040391 -0.1372887 0.0069202185
0.1058201 -0.13821401 0.006226629
0.105683 -0.13664065 0.0062803626
0.10809074 -0.13835615 0.0056103468
0.10869536 -0.13775253 0.0051524043
0.095791019 -0.13517177 0.0066448152
0.097117782 -0.13553801 0.00669837
0.098139301 -0.13547491 0.0068134665
0.098381251 -0.1343486 0.0068333745
0.10190831 -0.13768463 0.0067861974
0.10158642 -0.13580501 0.0068354309
0.10246107 -0.13554746 0.0066828728
0.10443357 -0.13673262 0.0066191256
0.10403815 -0.13482495 0.00608325
0.10645753 -0.13656673 0.0063889325
0.10722949 -0.13618146 0.0056068897
0.097962826 -0.13416648 0.0056559145
0.099440522 -0.13472587 0.0066381097
0.10050014 -0.13471295 0.0068047047
0.10143211 -0.13453101 0.0067305267
0.10364784 -0.13603778 0.0067849159
0.10361253 -0.13458948 0.0067262053
0.10440146 -0.13423045 0.0061204433
0.10515001 -0.13382728 0.0059629977
0.10653473 -0.13423376 0.0050336421
0.09915892 -0.13327812 0.0052349865
0.099789426 -0.13269871 0.0063743293
0.10168552 -0.13379674 0.006401211
0.10339147 -0.13462432 0.0062401593
0.10512065 -0.13546476 0.0061740875
0.10546938 -0.13452728 0.0056159794
0.10532704 -0.13298869 0.0056592226
0.1016349 -0.1326603 0.0053058565
0.10207468 -0.13184646 0.005555898
0.10392633 -0.13285428 0.0053620338
0.10634442 -0.13455825 0.0051817298
0.1061697 -0.13298023 0.0050396323
0.082447223 -0.11954848 0.0056685209
0.08274401 -0.1184976 0.0063301325
0.083860785 -0.11863232 0.0086245835
0.085802659 -0.11991697 0.0092154145
0.086217873 -0.11906277 0.011930019
0.08753062 -0.11945355 0.011898071
0.088395685 -0.11923139 0.011584491
0.08954709 -0.11939612 0.011170954
0.090350345 -0.11909818 0.007188499
0.091392986 -0.11911894 0.0067056417
0.079806626 -0.11766361 0.0091672838
0.081457496 -0.11857736 0.014045864
0.082892694 -0.11915825 0.017024159
0.082999289 -0.11783849 0.020151556
0.085294597 -0.11962047 0.02035585
0.086005919 -0.11916482 0.022245646
0.086176679 -0.11797997 0.023413509
0.088047549 -0.11912315 0.023344129
0.089427665 -0.1195835 0.023079187
0.088683628 -0.11722549 0.020853072
0.091245376 -0.11924112 0.019354731
0.091260783 -0.11792124 0.019262522
0.092496693 -0.11819021 0.018863529
0.094013296 -0.11880802 0.014178008
0.09489426 -0.11861783 0.011618763
0.09470658 -0.11711028 0.0067056417
0.096809849 -0.11843758 0.0057312548
0.076758377 -0.11667273 0.0058233142
0.078267127 -0.11740069 0.013351768
0.07971064 -0.11801316 0.020564646
0.081127331 -0.11857072 0.022837102
0.081525378 -0.11764421 0.023239821
0.083130993 -0.11846167 0.02548179
0.083263852 -0.11718616 0.026607126
0.085688151 -0.11912743 0.026599288
0.085950434 -0.11805241 0.026599288
0.088798471 -0.12051221 0.027046591
0.092201203 -0.12365808 0.025696486
0.094359748 -0.12508152 0.025444239
0.095985644 -0.12577429 0.023463666
0.097565882 -0.12639216 0.022772044
0.09878581 -0.12653464 0.02177456
0.098964348 -0.12535484 0.021441638
0.099314295 -0.12441571 0.021064907
0.096430615 -0.11949011 0.020484239
0.096122377 -0.11782742 0.016826868
0.096950054 -0.11757772 0.01468572
0.097540088 -0.11704811 0.011535913
0.098804243 -0.11733004 0.0080810785
0.1001291 -0.11767749 0.0068010688
0.075433344 -0.11676668 0.0059284568
0.076704532 -0.11712989 0.01508522
0.07820712 -0.11783206 0.02211538
0.07891915 -0.11734031 0.02247861
0.079917297 -0.11728123 0.025008202
0.081267789 -0.11773411 0.026767731
0.081978954 -0.11726104 0.026320428
0.084593251 -0.11948796 0.027481109
0.088507742 -0.12347376 0.028067261
0.091660239 -0.12631227 0.027926177
0.093275063 -0.12698893 0.027730912
0.092009224 -0.12377431 0.027339727
0.090373904 -0.12014413 0.026103735
0.089110583 -0.11708716 0.02610141
0.089540303 -0.11629947 0.024287611
0.089615673 -0.11507467 0.023997575
0.091244832 -0.11585018 0.023668021
0.092812784 -0.1165316 0.023860455
0.09728419 -0.12080345 0.023263097
0.10138027 -0.12452143 0.021907657
0.10533171 -0.12798369 0.020450532
0.10941767 -0.13153401 0.019499183
0.10870717 -0.12930432 0.017163932
0.09894111 -0.11646193 0.014397234
0.099146798 -0.11550091 0.010988146
0.099707335 -0.11496866 0.0076921284
0.075165309 -0.11692381 0.00939852
0.07624153 -0.11697331 0.01920253
0.077296339 -0.11698905 0.023164213
0.078435063 -0.11712969 0.023860931
0.079248495 -0.11678725 0.025907844
0.081522025 -0.11857749 0.028028578
0.084492497 -0.12132256 0.028087199
0.087784313 -0.12445371 0.028124481
0.086800531 -0.12152074 0.028794229
0.083172522 -0.11500398 0.028777421
0.081786148 -0.11170791 0.028693795
0.081909321 -0.11052824 0.02810216
0.081399694 -0.10853292 0.028022766
0.083267018 -0.10971654 0.02789256
0.084548227 -0.11010932 0.027730912
0.083895653 -0.10800359 0.025498599
0.085854456 -0.10926931 0.024404317
0.087625667 -0.11027051 0.024400979
0.08845371 -0.11007573 0.024144053
0.089118078 -0.10968378 0.02404204
0.089931436 -0.10948174 0.023592561
0.090740874 -0.10927933 0.021980196
0.093349062 -0.11122441 0.020558894
0.095206939 -0.11224397 0.020211995
0.10310323 -0.12028711 0.018396378
0.11399425 -0.13162223 0.01541689
0.10672943 -0.12197649 0.011809796
0.10162182 -0.1149661 0.0090268552
0.074947856 -0.117172 0.013152093
0.075401179 -0.11624348 0.022541046
0.076169997 -0.11582013 0.023733079
0.077914432 -0.11687165 0.024584442
0.078512199 -0.11619805 0.026077569
0.084699564 -0.12370594 0.028078645
0.085780174 -0.12365713 0.02871269
0.08200299 -0.11669657 0.0291152
0.07919389 -0.11127243 0.029649794
0.078344837 -0.10870346 0.029873312
0.07961601 -0.10910342 0.029718161
0.081323132 -0.11008375 0.029236078
0.081020638 -0.1083529 0.028730243
0.082287885 -0.10873757 0.02897352
0.083621256 -0.10919952 0.028286994
0.08488635 -0.10956261 0.028043956
0.086606681 -0.11049818 0.02685678
0.088389121 -0.11149082 0.025801331
0.087259978 -0.10882986 0.025153905
0.088996671 -0.10976256 0.024810374
0.089666627 -0.10937358 0.024567008
0.090803474 -0.10955637 0.024396896
0.09104491 -0.10866651 0.023839056
0.092315286 -0.10901061 0.022714406
0.091802739 -0.10726425 0.021215379
0.093991481 -0.10867766 0.02041012
0.095320188 -0.10907774 0.019274652
0.098971605 -0.1121005 0.016975105
0.113975 -0.12779015 0.013469785
0.10835081 -0.1202694 0.0094248652
0.10290435 -0.1130929 0.0050525963
0.073808566 -0.11598489 0.013806194
0.074231207 -0.1150061 0.022769928
0.076062627 -0.11620679 0.023701221
0.076179959 -0.11479171 0.025388271
0.080172345 -0.11917511 0.026662737
0.083833821 -0.12295627 0.027351141
0.079260565 -0.11471923 0.028727174
0.077132225 -0.11018889 0.029486448
0.077914484 -0.1098794 0.028786391
0.077782638 -0.10830494 0.028775156
0.079329394 -0.10907792 0.028763264
0.080288067 -0.10903317 0.028641164
0.080584101 -0.10810062 0.027570248
0.081210174 -0.10762794 0.026431531
0.084376939 -0.11049361 0.025667369
0.084430039 -0.1092624 0.025176615
0.087665029 -0.11212969 0.025538921
0.091618747 -0.11583979 0.023769408
0.092201285 -0.11525161 0.023598909
0.095039278 -0.11746427 0.023631841
0.093065009 -0.11374612 0.023561895
0.090471141 -0.10936072 0.024471551
0.091174528 -0.10901302 0.024471551
0.09154471 -0.10827869 0.023330152
0.092941292 -0.10876109 0.023289502
0.093506716 -0.10827094 0.023289502
0.094371833 -0.10813439 0.022019118
0.09501873 -0.1077532 0.021055341
0.095835939 -0.10757095 0.02008155
0.097695135 -0.10855015 0.018249273
0.10181592 -0.11199751 0.012962222
0.11742777 -0.12789163 0.0078958869
0.072441831 -0.1144371 0.013962984
0.073395282 -0.11428694 0.021835059
0.074551553 -0.11445238 0.023933887
0.076753996 -0.11619702 0.024827898
0.081983149 -0.1224132 0.026046485
0.079702005 -0.1173989 0.027281284
0.075430244 -0.10962529 0.027406275
0.075517856 -0.10830851 0.028323323
0.076909058 -0.10887127 0.028896749
0.078139491 -0.10919493 0.028557301
0.078173034 -0.10785899 0.026535243
0.083941154 -0.11436982 0.025860012
0.083776303 -0.11273602 0.024867296
0.085543007 -0.11370961 0.024700373
0.088601686 -0.11635643 0.024637908
0.088429458 -0.11474775 0.024634749
0.089678168 -0.11499906 0.024309367
0.09303382 -0.11791496 0.024121135
0.091190539 -0.11425022 0.023827016
0.092837878 -0.11499237 0.023887992
0.093672335 -0.1147223 0.023343146
0.095589161 -0.1157691 0.023610622
0.097150274 -0.11636681 0.023873091
0.09894231 -0.11722513 0.024010658
0.097584054 -0.11437271 0.024527222
0.10012644 -0.11610407 0.024144948
0.099102288 -0.11370684 0.024516344
0.10206646 -0.11588797 0.023198545
0.098730102 -0.11094414 0.02280426
0.095364682 -0.10606888 0.021246642
0.097918957 -0.10780976 0.020899743
0.098863386 -0.10776109 0.018616945
0.097615585 -0.10534751 0.01296705
0.10918881 -0.11668216 0.0063872039
0.071748048 -0.11395278 0.011389554
0.072745092 -0.11386188 0.019863963
0.074212804 -0.11449975 0.023370296
0.076259106 -0.11599977 0.024472862
0.081788041 -0.12268206 0.025554776
0.076012887 -0.11245742 0.026396066
0.074066937 -0.10809769 0.027204067
0.074449778 -0.10720768 0.026588529
0.076122992 -0.10817478 0.026458591
0.077212796 -0.10829847 0.026059657
0.07850235 -0.10869557 0.025812835
0.083317921 -0.11390298 0.025044054
0.08399836 -0.11339778 0.024693459
0.086063594 -0.11475146 0.024693459
0.086475879 -0.11389506 0.024746537
0.087488346 -0.11384026 0.024876386
0.089428939 -0.11498007 0.024909973
0.091064192 -0.1157051 0.024924874
0.09008196 -0.11312618 0.026480049
0.093251802 -0.11576086 0.026606679
0.093557172 -0.11482017 0.02653271
0.094033509 -0.11410809 0.026845157
0.096958078 -0.1163497 0.026474327
0.099313147 -0.11786616 0.026474327
0.099164844 -0.1164109 0.026276946
0.10101748 -0.11731062 0.026026875
0.099417321 -0.11422416 0.02660656
0.099608444 -0.11323907 0.026492834
0.10254472 -0.11536281 0.02483514
0.10286921 -0.1145348 0.024130553
0.10116867 -0.11149201 0.023257822
0.097801305 -0.10669233 0.022565037
0.097874895 -0.10570489 0.021513194
0.098761462 -0.10560631 0.017151147
0.099687383 -0.10555135 0.010925949
0.10325839 -0.10827093 0.0067002177
0.070876598 -0.11319099 0.0075045824
0.072050929 -0.11337426 0.018168509
0.072209582 -0.11197717 0.021782428
0.077399231 -0.11831026 0.024055898
0.079334483 -0.11956041 0.024847537
0.074240483 -0.11032961 0.025623351
0.07330814 -0.10745165 0.026289463
0.074175142 -0.10725325 0.026289463
0.07545948 -0.10765553 0.02594769
0.076314889 -0.10744333 0.024514824
0.077452645 -0.10762899 0.024475724
0.08373858 -0.11487216 0.024672568
0.085197493 -0.11539408 0.024312645
0.085730754 -0.11466488 0.025215149
0.087196223 -0.11518513 0.025138646
0.085272588 -0.11127032 0.025300533
0.088378564 -0.11393381 0.025468051
0.090151697 -0.1148361 0.025670856
0.089509018 -0.11267606 0.027231306
0.092161305 -0.11466581 0.028285444
0.09461844 -0.11636981 0.029349357
0.09202677 -0.11189619 0.031051964
0.095680505 -0.11503162 0.031184614
0.096805781 -0.11509132 0.030844927
0.096265554 -0.11319137 0.028167427
0.099635184 -0.11588006 0.029146373
0.10011922 -0.11519093 0.03036958
0.10127884 -0.11528549 0.031879723
0.10039257 -0.11307373 0.03191039
0.1004441 -0.11195332 0.03115198
0.10684644 -0.11786155 0.027737111
0.10897592 -0.11898392 0.025343776
0.10644551 -0.11504716 0.024187893
0.1013694 -0.10846525 0.023537964
0.10017879 -0.10613 0.021462977
0.10021365 -0.10512608 0.016553074
0.10077667 -0.10469033 0.0093550384
0.10303993 -0.10601223 0.0054944456
0.070944272 -0.1122402 0.015175134
0.072063141 -0.11233371 0.01865831
0.074742481 -0.11482178 0.022078097
0.078072883 -0.11822464 0.023997992
0.071754292 -0.10712612 0.025085658
0.072955996 -0.10740744 0.024985284
0.073354155 -0.10651425 0.026176184
0.074869893 -0.10724606 0.025847465
0.076749064 -0.10847201 0.024922997
0.080465741 -0.11222854 0.022657603
0.082675718 -0.11381333 0.023395091
0.08274363 -0.11244647 0.024805546
0.08528202 -0.11442904 0.024462879
0.086689629 -0.11486375 0.025722861
0.086264849 -0.1128898 0.025716096
0.08575058 -0.11084832 0.026060611
0.088706397 -0.11328768 0.026097
0.087247245 -0.11009772 0.026380569
0.091205359 -0.11373845 0.027689904
0.093776114 -0.11558451 0.028595418
0.090392068 -0.11013287 0.029689252
0.094261184 -0.11354188 0.031700522
0.094253063 -0.11225646 0.031833172
0.094126143 -0.11085968 0.031303197
0.097776972 -0.11389405 0.029810607
0.098496832 -0.11348548 0.031527311
0.099028841 -0.11287158 0.032818377
0.10013878 -0.11292244 0.038874626
0.1018111 -0.11359976 0.039090484
0.10348935 -0.1142695 0.03846693
0.10214259 -0.11161973 0.032508731
0.10391141 -0.11239398 0.02941069
0.11012555 -0.1179122 0.026779622
0.10915925 -0.1157088 0.025719225
0.10884301 -0.11423128 0.024184465
0.10623261 -0.1103986 0.023223907
0.10295305 -0.10595169 0.015040368
0.10236389 -0.10433242 0.0088780522
0.10597727 -0.10698658 0.0055682957
0.070014596 -0.11138685 0.011720151
0.071341805 -0.11180432 0.016361147
0.073846847 -0.11402822 0.019112527
0.077162296 -0.11742088 0.02218309
0.071859181 -0.10778878 0.023522675
0.072594412 -0.10735793 0.024983197
0.072937272 -0.10636685 0.025502533
0.076698989 -0.11032046 0.025445431
0.078355648 -0.11118031 0.024724126
0.079881229 -0.11183372 0.022866815
0.081009261 -0.11192068 0.02272889
0.082835019 -0.11295684 0.022956252
0.083937146 -0.11299231 0.023412228
0.084871426 -0.11280379 0.024813414
0.086368628 -0.11335883 0.025135726
0.086852461 -0.11258653 0.02586934
0.08838103 -0.11317082 0.025967151
0.087399423 -0.11056554 0.026513308
0.088810287 -0.11101285 0.026672453
0.09081962 -0.11218894 0.02826342
0.090682805 -0.11071738 0.028862447
0.09210062 -0.11115592 0.030043006
0.093287811 -0.11130932 0.031974614
0.093702942 -0.11054841 0.032107264
0.095150746 -0.1110092 0.031730235
0.0918824 -0.10601816 0.030433267
0.098544978 -0.11246981 0.032096386
0.099180922 -0.11197846 0.033382624
0.099140577 -0.11074213 0.039981604
0.099734209 -0.11023255 0.042424649
0.10163372 -0.11116189 0.042130381
0.10072762 -0.10903505 0.038502008
0.10304474 -0.11040508 0.036685228
0.10920615 -0.11582471 0.031085402
0.10835884 -0.11377678 0.02998811
0.11044694 -0.11482108 0.029923916
0.11152326 -0.11480335 0.028777003
0.11103052 -0.11318645 0.024205476
0.10483341 -0.10584142 0.015553594
0.10289081 -0.10289081 0.0090015829
0.10442546 -0.10344031 0.0059756935
0.070217893 -0.11064638 0.012814403
0.071524322 -0.11102282 0.016965389
0.079322025 -0.12131603 0.017908245
0.070073806 -0.10561848 0.021381915
0.070981219 -0.10545781 0.023991585
0.072428398 -0.1060923 0.025381237
0.073707722 -0.10646671 0.024731368
0.079401426 -0.11311984 0.024716288
0.078354761 -0.11012021 0.02330035
0.081181496 -0.11257168 0.023196399
0.082344286 -0.11268165 0.023089767
0.083508641 -0.11279089 0.023193717
0.083696857 -0.11159582 0.023307264
0.085253716 -0.11223274 0.025367558
0.087422006 -0.11364861 0.025745541
0.088033043 -0.11303008 0.026486695
0.086488441 -0.10969266 0.026569098
0.087202296 -0.10926552 0.027069807
0.08934392 -0.11061628 0.028019845
0.088058919 -0.10774267 0.029164284
0.091603309 -0.1107761 0.030986279
0.09224277 -0.11026722 0.032279193
0.092266567 -0.10904231 0.034047246
0.092084177 -0.10760398 0.034047246
0.08963199 -0.10357475 0.033946872
0.088709258 -0.10138201 0.034208715
0.089663528 -0.10135877 0.04071182
0.094546296 -0.10572919 0.041055351
0.097358175 -0.10771542 0.044825852
0.10189866 -0.11155222 0.04621616
0.10117098 -0.10960189 0.044132203
0.10254283 -0.10994283 0.042953044
0.10295109 -0.10925421 0.040825754
0.10288884 -0.10808525 0.039724886
0.11102945 -0.11547062 0.038619459
0.11349709 -0.11686829 0.039168894
0.11127265 -0.11345447 0.036943614
0.11334944 -0.11444992 0.031126082
0.10969383 -0.10969383 0.023891747
0.1044158 -0.10342137 0.015130609
0.10612477 -0.10412242 0.0087530017
0.069168344 -0.10960522 0.0082805753
0.070923164 -0.11068312 0.015904307
0.077193037 -0.1186699 0.017272145
0.071386412 -0.10812941 0.018704921
0.070964649 -0.10593273 0.020745724
0.071128391 -0.10466034 0.022443533
0.072493516 -0.10516665 0.024528682
0.077053025 -0.11022864 0.024352014
0.080776982 -0.11397301 0.024175197
0.08101929 -0.11277009 0.022734612
0.080918722 -0.11112837 0.022430271
0.0811693 -0.11000577 0.023178369
0.081958808 -0.10963321 0.024088651
0.084000304 -0.11092348 0.0240134
0.085341558 -0.1112681 0.025630355
0.086244404 -0.11103967 0.026138514
0.086367458 -0.10982529 0.026752502
0.08921697 -0.11206522 0.027316093
0.083879896 -0.10409192 0.029058397
0.08367987 -0.10260746 0.031725973
0.084854715 -0.10282395 0.034056991
0.088100463 -0.10551567 0.040834635
0.088480495 -0.10475277 0.044374496
0.088856243 -0.10400219 0.044437051
0.087960988 -0.10179755 0.044393182
0.087892294 -0.10058784 0.04407087
0.089490652 -0.10129162 0.04417035
0.091690518 -0.10265352 0.044322759
0.090857655 -0.1006273 0.044023514
0.092750095 -0.10163043 0.046913058
0.094381943 -0.10232989 0.046847224
0.096600026 -0.10364377 0.046501338
0.09716557 -0.10317581 0.046224743
0.095025495 -0.099873737 0.045790285
0.097296141 -0.1012273 0.04402709
0.10529251 -0.10845128 0.043082684
0.11140759 -0.11361367 0.043180764
0.1109855 -0.11207359 0.042565167
0.11373939 -0.11373939 0.040344179
0.11314351 -0.11205559 0.034638554
0.10812078 -0.10606133 0.024851263
0.10759002 -0.10454502 0.011531323
0.1075234 -0.10350383 0.0065585971
0.070265248 -0.11026239 0.010624528
0.072543085 -0.11211204 0.01453954
0.072246976 -0.10998793 0.01713109
0.06917429 -0.10376143 0.018746972
0.069269553 -0.10239847 0.019873559
0.070764035 -0.10311332 0.02161172
0.07446713 -0.10698095 0.024242222
0.07940089 -0.11248459 0.024068356
0.081274323 -0.11356139 0.02207759
0.081457116 -0.11227872 0.021934092
0.081068538 -0.11025321 0.021979511
0.081928343 -0.10995646 0.022916108
0.082513139 -0.10930312 0.024558842
0.083421998 -0.10909031 0.024576545
0.084798239 -0.10948633 0.026995689
0.085259318 -0.10870562 0.027913421
0.085657328 -0.10786478 0.031143486
0.085428812 -0.10626511 0.033525288
0.080108725 -0.098446861 0.034731776
0.082273245 -0.099903233 0.039800882
0.08477544 -0.10173053 0.044914663
0.084183954 -0.099846087 0.049216688
0.084540695 -0.099116683 0.049878567
0.085240826 -0.098801866 0.049863726
0.085075609 -0.097502388 0.049574912
0.08568497 -0.097109638 0.048612833
0.087335087 -0.097892076 0.047861218
0.087772213 -0.097312666 0.047769129
0.088804282 -0.097398244 0.04764396
0.0891864 -0.096776731 0.047668964
0.089467324 -0.09605965 0.047668964
0.092970781 -0.098781452 0.047136575
0.092204452 -0.096957259 0.046862513
0.095645137 -0.099549018 0.046862513
0.099081114 -0.10208357 0.046501338
0.098076679 -0.10003821 0.045865834
0.10323399 -0.1042561 0.045128196
0.11269405 -0.11269405 0.044054836
0.11015326 -0.10908381 0.042379618
0.11376666 -0.11157884 0.041214019
0.11428973 -0.11102431 0.032557636
0.1073689 -0.10331725 0.018442988
0.10640233 -0.10143026 0.011307806
0.069675885 -0.1082656 0.012083232
0.076743491 -0.1174408 0.015148044
0.068870686 -0.10381999 0.017465204
0.06997972 -0.10394046 0.017708272
0.06989754 -0.10231379 0.019349158
0.07300593 -0.10533712 0.020542949
0.07660196 -0.10896898 0.02058205
0.080681764 -0.11317858 0.02120617
0.079757929 -0.11035001 0.021291405
0.082759194 -0.11295511 0.021973431
0.081506923 -0.10976265 0.022260934
0.081922047 -0.10887009 0.023657143
0.082055166 -0.1076308 0.024971068
0.083867714 -0.10859794 0.026217073
0.084174588 -0.10761561 0.028376579
0.084140569 -0.10622746 0.033383101
0.083423726 -0.10402218 0.038062572
0.0812741 -0.1001059 0.042966545
0.082313679 -0.10016484 0.047502935
0.082798645 -0.099555515 0.048573226
0.080563881 -0.095728852 0.050428659
0.081836045 -0.09610977 0.050840169
0.0826689 -0.095971942 0.050934613
0.082866319 -0.095107928 0.05086574
0.084194392 -0.095546447 0.050846398
0.085122518 -0.095526382 0.050733507
0.08530055 -0.094674237 0.050975502
0.087381758 -0.095929973 0.050370395
0.0885901 -0.096210755 0.050733507
0.089091249 -0.0957257 0.05043745
0.09005665 -0.095744438 0.05043745
0.090774179 -0.095502004 0.049308449
0.091526456 -0.095300741 0.04803586
0.093239009 -0.09609326 0.047476083
0.092786334 -0.094660804 0.047110528
0.094442308 -0.095386729 0.047099531
0.10188827 -0.10188827 0.047167033
0.10064904 -0.099662289 0.046409398
0.1112631 -0.10910266 0.045001835
0.11119594 -0.10798836 0.042946935
0.11263907 -0.10834806 0.038203895
0.11941008 -0.11377753 0.027106524
0.11061122 -0.10440872 0.017411411
0.10714842 -0.10020362 0.0085499883
0.073733442 -0.11343607 0.012483329
0.070066191 -0.10616089 0.015690297
0.068401225 -0.10209138 0.017027318
0.070085756 -0.10306729 0.017650157
0.072432786 -0.10497504 0.017570436
0.076438561 -0.10919794 0.019793034
0.078021012 -0.10988875 0.020556062
0.079548016 -0.11048336 0.020447761
0.081125073 -0.11113024 0.020934612
0.082507879 -0.11149713 0.022031695
0.08292345 -0.1105646 0.022888601
0.081005447 -0.10658611 0.024202973
0.081778839 -0.10620628 0.025418609
0.082262702 -0.105465 0.028293133
0.083465852 -0.10565298 0.03411749
0.082835965 -0.10354496 0.044507384
0.079511791 -0.098162703 0.049194872
0.08115273 -0.098966748 0.051065654
0.079764001 -0.096101202 0.050848424
0.07959938 -0.09476117 0.051460773
0.079338409 -0.093339302 0.051640719
0.082128763 -0.095498562 0.051768184
0.082585283 -0.094925612 0.052412361
0.083911866 -0.095354393 0.052093178
0.086074308 -0.096712708 0.052268565
0.086222619 -0.095802903 0.052243114
0.087504126 -0.096158378 0.052554429
0.088948779 -0.096683457 0.052458733
0.089424625 -0.096155509 0.05287987
0.090574563 -0.096355915 0.052901149
0.090523206 -0.095287584 0.052866876
0.092557631 -0.096414201 0.05229941
0.092730172 -0.095598117 0.05168283
0.093214139 -0.095116466 0.05041033
0.094024815 -0.094974555 0.04980433
0.095511347 -0.095511347 0.050251037
0.094507977 -0.093572259 0.049202949
0.097403832 -0.095493957 0.047933757
0.10312204 -0.10011848 0.047567666
0.10562845 -0.10156582 0.045703501
0.1069357 -0.10184353 0.042883873
0.11379385 -0.10735269 0.037282228
0.11732996 -0.10965417 0.022044271
0.11208064 -0.10377837 0.01433149
0.069831021 -0.10801986 0.0053631365
0.074739039 -0.1138333 0.01137948
0.067788444 -0.10168267 0.015688986
0.06907139 -0.10206071 0.016293377
0.07448741 -0.10844491 0.017448485
0.07528124 -0.10801221 0.017311215
0.076365702 -0.10800292 0.018002778
0.07896816 -0.11011053 0.019133836
0.079952359 -0.1099345 0.019425482
0.080767974 -0.10953465 0.021114856
0.083050676 -0.11110833 0.022251636
0.082885899 -0.10940939 0.023684412
0.07926321 -0.10325076 0.026336879
0.079151973 -0.10176682 0.029142112
0.077708513 -0.098630041 0.037959039
0.079383962 -0.099481165 0.046530128
0.078216136 -0.096792467 0.050609022
0.079079673 -0.09665294 0.052321643
0.076183029 -0.091977075 0.052861482
0.074632272 -0.089019224 0.052503258
0.079939701 -0.094214648 0.052821815
0.081508644 -0.094933592 0.053727418
0.082979389 -0.095522784 0.053713858
0.083701707 -0.095246769 0.053623199
0.085543804 -0.09623678 0.053530514
0.086209044 -0.095895454 0.053822756
0.088245071 -0.097069576 0.053274572
0.088739395 -0.09654066 0.053755969
0.089872442 -0.096710555 0.053496748
0.091609634 -0.097519934 0.053656906
0.092086017 -0.096984208 0.053636611
0.092004895 -0.095878787 0.053804278
0.09382344 -0.096755423 0.053344071
0.093410723 -0.095336713 0.052995503
0.095055938 -0.096025899 0.052561909
0.093999088 -0.093999088 0.052229911
0.095713913 -0.094756775 0.051986426
0.096485056 -0.094574466 0.051816702
0.097132891 -0.094276041 0.05146721
0.096588396 -0.092837386 0.049469501
0.1009922 -0.096136801 0.048514634
0.10448316 -0.098512687 0.046898514
0.10360844 -0.096766375 0.043779701
0.11994687 -0.11097889 0.035172611
0.1196214 -0.10965295 0.021029145
0.10838888 -0.098444946 0.009067744
0.071449883 -0.10940763 0.0061866939
0.069207892 -0.1043442 0.01123929
0.068684697 -0.10198636 0.015102118
0.069625944 -0.10184094 0.016575426
0.075925596 -0.10942218 0.017189354
0.076698817 -0.10893455 0.016720563
0.077478573 -0.10847 0.017272383
0.076413043 -0.10547152 0.017953813
0.08086554 -0.11006699 0.019918948
0.080813318 -0.10848912 0.021924108
0.082183376 -0.10883744 0.02408874
0.083479725 -0.10908017 0.02678144
0.076207697 -0.098267816 0.03012678
0.076326542 -0.097142875 0.039066195
0.078179017 -0.098224916 0.047854185
0.076707058 -0.095155589 0.051588207
0.076708719 -0.093968175 0.053825855
0.077587642 -0.093871467 0.054125398
0.078178108 -0.093432374 0.054865062
0.08120282 -0.095878027 0.05384782
0.081992 -0.095657334 0.054554403
0.082138918 -0.094701342 0.054442108
0.084231123 -0.095984302 0.054488927
0.086527526 -0.097467788 0.054255933
0.088499509 -0.098556273 0.054432631
0.090654783 -0.099822126 0.054306239
0.093252972 -0.10154212 0.053955615
0.09458226 -0.10185781 0.054046184
0.095532797 -0.1017632 0.05393818
0.096245795 -0.1014203 0.05393818
0.097830087 -0.10199307 0.054038405
0.097555384 -0.10063608 0.053807437
0.097022831 -0.099044137 0.053585529
0.09721601 -0.09821824 0.053435177
0.097093865 -0.097093865 0.053354681
0.096671015 -0.095694534 0.053150535
0.096109398 -0.094187208 0.053004771
0.096127324 -0.09327206 0.053734332
0.096640401 -0.092850581 0.053210795
0.098247081 -0.0934778 0.052362353
0.098218136 -0.092551701 0.051165521
0.10007205 -0.093400583 0.048716575
0.1047878 -0.096879289 0.046502739
0.10786534 -0.098792553 0.043205142
0.12361547 -0.11216959 0.031609774
0.11922755 -0.10719541 0.012948513
0.067999728 -0.10147651 0.0092386603
0.069439612 -0.10205519 0.01411739
0.070256293 -0.10171434 0.015413374
0.077975571 -0.11122985 0.017086029
0.077032991 -0.10829276 0.017023146
0.076293454 -0.10572093 0.017116934
0.077811062 -0.10630525 0.017421812
0.078916281 -0.10631777 0.018826455
0.079305761 -0.10537889 0.022176772
0.081525914 -0.10686506 0.02666533
0.079630986 -0.10298941 0.03152442
0.077076748 -0.09837427 0.040634274
0.076548815 -0.096431628 0.047513545
0.07567668 -0.094110742 0.051232785
0.075020097 -0.092113286 0.054002196
0.077104226 -0.093488872 0.055395067
0.07797347 -0.093375638 0.055994064
0.080135286 -0.094794177 0.055903435
0.081750482 -0.095539726 0.055630296
0.081781372 -0.094438016 0.055632323
0.085415334 -0.097473964 0.054882437
0.089489542 -0.10093588 0.054671019
0.089549847 -0.099842936 0.054521739
0.089992985 -0.099196814 0.054427236
0.089216135 -0.097235568 0.054335177
0.089460835 -0.096418895 0.05411002
0.090401746 -0.0963623 0.054142058
0.092174962 -0.097184472 0.054179788
0.092962578 -0.096960969 0.054320306
0.094054811 -0.09705656 0.054191947
0.095159546 -0.097162902 0.053881228
0.096637942 -0.09764459 0.053636461
0.09998136 -0.09998136 0.053696036
0.10166799 -0.10063057 0.053636461
0.10030193 -0.098275624 0.053396285
0.1003486 -0.097338147 0.053382754
0.097779877 -0.093907408 0.053804696
0.098457426 -0.093631081 0.053783596
0.099671341 -0.093865238 0.054056734
0.099721901 -0.093009852 0.052353621
0.099221669 -0.091661923 0.052356809
0.10115205 -0.092563674 0.049158365
0.10729519 -0.097267598 0.047135592
0.12141387 -0.10904764 0.037275314
0.1245776 -0.11086264 0.023098528
0.11476283 -0.10119995 0.0078919232
0.068189315 -0.10071038 0.0072943866
0.069065765 -0.10045929 0.012226701
0.070703052 -0.10130586 0.015337139
0.078572772 -0.11092627 0.017008603
0.07834857 -0.1090067 0.01703155
0.077360347 -0.1060942 0.017155498
0.078158125 -0.1056786 0.017491937
0.078694507 -0.10492601 0.019163787
0.080247663 -0.10553117 0.023371369
0.081975199 -0.1063462 0.031255454
0.077106133 -0.098695844 0.039738864
0.075370587 -0.095204949 0.047041148
0.074066833 -0.092343062 0.051736534
0.074379273 -0.091543719 0.053349912
0.07617344 -0.092565186 0.055945903
0.077561155 -0.093073383 0.056282371
0.07925114 -0.093927279 0.056615382
0.081583776 -0.095512711 0.056444734
0.082847916 -0.095824093 0.055426955
0.088473193 -0.10111222 0.05536744
0.086779736 -0.098010048 0.054865181
0.085064553 -0.09495578 0.054908514
0.086985879 -0.095984422 0.054373384
0.08863122 -0.096688598 0.053913772
0.08854755 -0.095511958 0.053892434
0.089983687 -0.095982596 0.053391695
0.090517305 -0.095490783 0.053453892
0.091300696 -0.095270291 0.053278357
0.092922002 -0.095919482 0.053732634
0.093671054 -0.095664054 0.053865522
0.094129741 -0.095120586 0.053932756
0.096517339 -0.096517339 0.053979844
0.095286764 -0.094304428 0.053979844
0.09858419 -0.096572265 0.053932756
0.1005263 -0.097480051 0.053932756
0.10255017 -0.098448157 0.054028362
0.10333218 -0.098216735 0.054626673
0.10184571 -0.095854789 0.054760098
0.099866472 -0.093079433 0.055000365
0.10126258 -0.093473151 0.054451793
0.10058551 -0.091963895 0.053600848
0.10105482 -0.091521338 0.051216483
0.102583 -0.092037082 0.049425244
0.10880817 -0.096718371 0.045367062
0.12243175 -0.10782979 0.034999907
0.12814999 -0.11183998 0.010557264
0.069537207 -0.10009144 0.0099906623
0.073169999 -0.10374851 0.013192922
0.077509165 -0.10828486 0.016054422
0.079730302 -0.10977361 0.016947925
0.077831715 -0.10562876 0.017014891
0.077237733 -0.10334627 0.017793596
0.079975031 -0.10552261 0.018997431
0.078304037 -0.10190251 0.027827501
0.077055678 -0.098922826 0.039935708
0.075193867 -0.095245562 0.047018588
0.073604211 -0.092005268 0.051357627
0.074758232 -0.092234179 0.053442091
0.076138519 -0.092732809 0.055159509
0.077242799 -0.09288691 0.056693017
0.078449316 -0.093158558 0.056879044
0.081253611 -0.095297441 0.0566127
0.084882244 -0.098339185 0.05619809
0.083989799 -0.096132897 0.055150717
0.085372306 -0.096552014 0.055280745
0.084607288 -0.094561093 0.055110633
0.08574263 -0.0947157 0.055083096
0.086926833 -0.094920106 0.054830402
0.087616041 -0.094585501 0.05425477
0.08813528 -0.094076984 0.054058194
0.089190371 -0.094145387 0.053775638
0.089549199 -0.09348543 0.053717762
0.090961769 -0.093927912 0.053299218
0.092552401 -0.094542779 0.053509474
0.09317039 -0.094161563 0.053812146
0.094232723 -0.094232723 0.053650171
0.094675355 -0.093689151 0.053763002
0.095459871 -0.093491629 0.053641021
0.098431781 -0.095418565 0.053802997
0.097921625 -0.093965195 0.053865224
0.099276014 -0.094312213 0.054041415
0.10353693 -0.097386219 0.054452986
0.10496679 -0.097763188 0.05431217
0.10320824 -0.095192067 0.054746896
0.10229873 -0.093445957 0.054835469
0.10185757 -0.09215685 0.054704159
0.10203456 -0.091446064 0.054099858
0.1019346 -0.090502687 0.051322252
0.10361803 -0.091145493 0.048988253
0.10978872 -0.095687419 0.042773038
0.12129222 -0.10475237 0.014558643
0.070012502 -0.099714771 0.0083991885
0.07630913 -0.10706057 0.012214124
0.078097589 -0.10795844 0.016146392
0.080985062 -0.11032747 0.017549515
0.078882247 -0.10592759 0.0179075
0.077790976 -0.10299087 0.01840198
0.077957876 -0.10177834 0.021643996
0.075368986 -0.097050473 0.038294435
0.074626341 -0.094795629 0.0454216
0.07270956 -0.091129318 0.05075103
0.073465519 -0.090865247 0.053112239
0.074942321 -0.091488034 0.054200858
0.076089025 -0.09169703 0.055813253
0.077394173 -0.092089266 0.056639969
0.081196435 -0.095405817 0.056928366
0.083612025 -0.097031236 0.056575119
0.08247187 -0.094540924 0.056214094
0.083731815 -0.094828799 0.055299312
0.083461612 -0.09339752 0.054863721
0.084207177 -0.093123227 0.05493325
0.086339325 -0.094370894 0.055229008
0.085402593 -0.09227407 0.054821432
0.088412955 -0.094441116 0.054153115
0.088100359 -0.093049824 0.054125667
0.089181632 -0.093145259 0.053838819
0.090312608 -0.093289949 0.053587586
0.09172786 -0.093721941 0.053270966
0.092067026 -0.093056992 0.053270966
0.094162539 -0.094162539 0.053295374
0.094357587 -0.093364343 0.052703738
0.094993152 -0.093014129 0.052703738
0.097148523 -0.094143927 0.052703738
0.096247308 -0.092318848 0.052943796
0.098661348 -0.093678452 0.053035498
0.10045105 -0.094423987 0.053760022
0.10052631 -0.093559138 0.054153919
0.10241229 -0.094379954 0.054407448
0.10770944 -0.098297939 0.054932117
0.10499635 -0.094900548 0.054800689
0.1035597 -0.092710592 0.055010855
0.10333651 -0.091638036 0.054932117
0.10285395 -0.090357669 0.052719802
0.10407908 -0.090587348 0.050465256
0.10456422 -0.090174653 0.046427786
0.1117167 -0.095466994 0.035196424
0.12240102 -0.10365492 0.0058414936
0.071916886 -0.10133743 0.0081397593
0.075866073 -0.10530664 0.011233151
0.079119653 -0.10820775 0.01635462
0.077980965 -0.10510478 0.019332081
0.081871599 -0.10877226 0.020152509
0.075757302 -0.099231392 0.021343738
0.073325425 -0.094712004 0.030700505
0.07506296 -0.09562815 0.042828143
0.072832987 -0.091533348 0.050201714
0.073013455 -0.090536691 0.052488953
0.074838698 -0.091578931 0.054686606
0.075254112 -0.090891331 0.054957688
0.076890834 -0.091677532 0.056120694
0.07971967 -0.0938472 0.056120694
0.081952602 -0.095269896 0.056090534
0.081089385 -0.093102627 0.055751294
0.082410455 -0.093465514 0.055407941
0.082121767 -0.092015959 0.055166006
0.08354754 -0.092499062 0.054727286
0.08401747 -0.091924995 0.054638892
0.0854818 -0.092439622 0.054406106
0.085892081 -0.091815673 0.054271489
0.08776506 -0.092751712 0.054200828
0.088464186 -0.092440106 0.053909242
