ply
format ascii 1.0
comment PCL generated
element vertex 1310
property float x
property float y
property float z
element camera 0
property float view_px
property float view_py
property float view_pz
property float x_axisx
property float x_axisy
property float x_axisz
property float y_axisx
property float y_axisy
property float y_axisz
property float z_axisx
property float z_axisy
property float z_axisz
property float focal
property float scalex
property float scaley
property float centerx
property float centery
property int viewportx
property int viewporty
property float k1
property float k2
end_header
0.11395946 -0.012662162 0.0074310899
0.11551478 -0.012693931 0.0070556998
0.11645389 -0.012658032 0.0067252517
0.11741857 -0.012625653 0.0062647462
0.11990124 -0.012755451 0.0061936975
0.12096886 -0.012733564 0.0058748126
0.12196352 -0.012704533 0.0050471425
0.054257717 -0.011626653 0.0052818656
0.054731905 -0.011455514 0.0056676269
0.055939257 -0.011442121 0.006616652
0.05733636 -0.011467271 0.006945014
0.0582413 -0.011395037 0.0083302259
0.059595454 -0.011411896 0.0095674396
0.060503837 -0.011344469 0.009842515
0.061272889 -0.011254204 0.010495305
0.06280002 -0.011304003 0.011181116
0.064331509 -0.011352619 0.011491537
0.065161586 -0.011277966 0.012392044
0.065978132 -0.011203834 0.012773454
0.068476431 -0.011412738 0.013554096
0.067995436 -0.011126526 0.014028311
0.069552213 -0.011178034 0.014733881
0.070646346 -0.011154686 0.015971452
0.072551571 -0.011258002 0.016674876
0.073307775 -0.011182542 0.017358363
0.074602686 -0.011190402 0.017930686
0.075403906 -0.011125166 0.017911196
0.077088229 -0.011190227 0.018352389
0.077934891 -0.011133555 0.018214971
0.079137646 -0.011128731 0.018320709
0.080756254 -0.011181635 0.018394411
0.081423759 -0.01110324 0.018486112
0.082716629 -0.011111189 0.019100249
0.083921045 -0.011107197 0.019233286
0.084313832 -0.010997456 0.018434376
0.086581521 -0.01113191 0.018234879
0.08766634 -0.011112634 0.018657953
0.089763239 -0.011220405 0.018182456
0.090782516 -0.011192365 0.017522395
0.091282025 -0.011101868 0.017472416
0.092783436 -0.011134013 0.017300099
0.095049299 -0.011255839 0.016919822
0.095432907 -0.011154495 0.016697913
0.096892744 -0.011179932 0.016086131
0.098168984 -0.011183809 0.01492691
0.098820671 -0.011117325 0.014646947
0.10105044 -0.011227826 0.013600528
0.10285874 -0.011289374 0.012958407
0.10298475 -0.011167021 0.012419462
0.10521837 -0.011273396 0.011438906
0.10664493 -0.011291816 0.010704875
0.10760961 -0.011261472 0.010158241
0.11010239 -0.011389903 0.0095137954
0.11093393 -0.011345516 0.0089030266
0.1124368 -0.011370013 0.0076886415
0.11487318 -0.011487317 0.0073022842
0.11624389 -0.011496648 0.0069491863
0.11672185 -0.011418441 0.0066561103
0.11963911 -0.011577978 0.005902946
0.11956256 -0.011447479 0.0058977008
0.11973884 -0.011343679 0.0057376623
0.055092938 -0.010249848 0.0054360628
0.056356452 -0.010246628 0.0064592361
0.056746315 -0.010088234 0.0068802238
0.058130052 -0.010109575 0.0072633624
0.059688929 -0.010159818 0.0091341734
0.060422644 -0.01007044 0.0095464587
0.061949901 -0.010114269 0.010415316
0.062383812 -0.0099814096 0.011175275
0.063470393 -0.0099561401 0.011706173
0.065462485 -0.010071152 0.012213707
0.066814959 -0.010085277 0.012742162
0.067363799 -0.0099798217 0.013647914
0.069363482 -0.010089234 0.014069796
0.070213087 -0.010030441 0.014714479
0.070543617 -0.0099008586 0.015147269
0.072289944 -0.0099710263 0.016153634
0.073393084 -0.0099516045 0.016414195
0.074649721 -0.0099532967 0.017959833
0.075690068 -0.0099265669 0.017983049
0.076905906 -0.0099233426 0.018293619
0.077303402 -0.0098163048 0.018291861
0.079587363 -0.0099484203 0.018126011
0.080885157 -0.0099550961 0.018506259
0.081717007 -0.0099050915 0.018933803
0.084006324 -0.010030606 0.018896192
0.083456829 -0.0098184505 0.018506259
0.084273018 -0.0097707845 0.018708259
0.087462038 -0.0099956617 0.018404007
0.08692304 -0.0097941458 0.018291414
0.088802882 -0.0098669864 0.017998278
0.091140747 -0.0099880267 0.017724574
0.091627464 -0.0099056717 0.017280787
0.093133338 -0.0099342223 0.017113715
0.09537629 -0.01003961 0.016826808
0.095906697 -0.009964332 0.016592741
0.097539984 -0.0100041 0.015906453
0.099653408 -0.010091485 0.015484154
0.099836878 -0.0099836877 0.01466924
0.10188081 -0.010062302 0.014121175
0.10162353 -0.0099144904 0.013470709
0.10450681 -0.010072946 0.01292485
0.10575833 -0.010072222 0.011651874
0.10694339 -0.01006526 0.010959864
0.10847372 -0.010090578 0.010264814
0.11089835 -0.01019755 0.009237051
0.11211488 -0.010192261 0.0083531141
0.1129334 -0.010151316 0.0071985722
0.1142166 -0.010152587 0.0068742037
0.11541313 -0.010146209 0.0064111352
0.11816088 -0.010274859 0.0058467388
0.11868625 -0.010209571 0.0056969523
0.11949032 -0.010169389 0.0056706667
0.055393729 -0.0090175839 0.0051131845
0.055922609 -0.0088967783 0.0059646964
0.057180695 -0.0088947751 0.006729424
0.05881555 -0.0089501925 0.0076681376
0.05964018 -0.0088825794 0.0083966255
0.060184713 -0.0087769376 0.0093574524
0.062165178 -0.0088807391 0.010201037
0.06280861 -0.008793206 0.011247337
0.063968152 -0.008779943 0.011956096
0.065377414 -0.0088008055 0.012550533
0.065850191 -0.008697195 0.012980044
0.067532569 -0.0087542217 0.013945699
0.069038481 -0.0087867156 0.014334679
0.070367709 -0.0087959636 0.014639795
0.071555063 -0.0087874634 0.014968693
0.071818672 -0.0086677708 0.015446126
0.07376878 -0.0087522278 0.016065657
0.075330973 -0.0087886127 0.016453743
0.076353133 -0.0087618344 0.016734958
0.076849796 -0.0086765895 0.017351419
0.078755647 -0.0087506277 0.017685592
0.078984067 -0.008638883 0.018349648
0.080752276 -0.0086963987 0.018492609
0.082100667 -0.0087076463 0.018221259
0.082760952 -0.0086466661 0.018349648
0.084226795 -0.0086704055 0.018461376
0.085975602 -0.0087221628 0.018209338
0.086246401 -0.0086246403 0.018284351
0.087190695 -0.0085962657 0.018441111
0.08965116 -0.008716085 0.018243283
0.090773776 -0.0087043345 0.017802596
0.092494063 -0.0087494384 0.017912328
0.092210196 -0.0086062849 0.017394304
0.094245948 -0.0086805476 0.016831309
0.095842086 -0.0087129166 0.016951621
0.096711405 -0.0086792288 0.015857428
0.098753199 -0.0087502832 0.015330136
0.10025136 -0.0087719942 0.014985263
0.10050523 -0.0086856363 0.014263332
0.10387407 -0.0088672992 0.01330483
0.10437791 -0.008802956 0.012345076
0.10410909 -0.0086757569 0.011620581
0.10710466 -0.0088203838 0.010957599
0.10933174 -0.0088990955 0.0094908476
0.10890321 -0.008762328 0.008844316
0.11229179 -0.0089323008 0.0078783631
0.11271632 -0.0088653285 0.0074872375
0.11394917 -0.0088627134 0.0069065094
0.11566065 -0.008896973 0.0065469146
0.11790391 -0.0089709498 0.0058391094
0.11832768 -0.0089063849 0.0055828691
0.055073217 -0.007684635 0.0051727891
0.055703845 -0.0075959787 0.0062339306
0.057622697 -0.0076830266 0.0068434477
0.05843975 -0.0076225759 0.0075519085
0.059384029 -0.0075809401 0.0087061524
0.060887609 -0.0076109511 0.0089617968
0.062031284 -0.0075956676 0.0095153451
0.063474022 -0.0076168831 0.010758221
0.063988879 -0.0075281039 0.011761785
0.065429844 -0.0075495974 0.012165725
0.066360287 -0.0075124851 0.012986779
0.068104066 -0.0075671184 0.01343435
0.06870988 -0.0074956235 0.013923645
0.070403911 -0.0075432756 0.01449275
0.071382761 -0.0075139753 0.01452893
0.072372541 -0.0074868142 0.015174627
0.073831797 -0.0075083184 0.015313506
0.075247146 -0.0075247143 0.015626371
0.07590159 -0.00746573 0.015711486
0.078192994 -0.0075670639 0.015967131
0.078724541 -0.0074975751 0.016007841
0.079378925 -0.0074417745 0.016007841
0.082205616 -0.0075882105 0.015792668
0.082127571 -0.007466143 0.016333818
0.083756022 -0.0075005395 0.017350554
0.085285157 -0.0075251609 0.017350674
0.084768333 -0.0073711593 0.017350912
0.086878411 -0.0074467212 0.017433852
0.089258783 -0.0075429957 0.017419517
0.0899259 -0.0074938247 0.017350912
0.091567151 -0.0075260671 0.017538041
0.091798976 -0.0074431603 0.017451853
0.092765011 -0.0074212011 0.017350912
0.095057286 -0.0075045228 0.017166108
0.096342042 -0.0075071719 0.016874492
0.097050235 -0.0074654026 0.016388237
0.099251479 -0.0075380867 0.015526354
0.099382833 -0.0074537122 0.015030563
0.10121841 -0.0074976599 0.01387167
0.10380942 -0.007595811 0.012889206
0.10327562 -0.0074657071 0.012185335
0.10606652 -0.0075761802 0.011602044
0.10819484 -0.0076372833 0.010499358
0.10887062 -0.0075956243 0.0093925595
0.10953766 -0.0075543211 0.0084799528
0.11149135 -0.007601683 0.008082211
0.11201297 -0.0075514363 0.007062614
0.11537257 -0.0076915044 0.0067511201
0.11594512 -0.0076447329 0.0061844587
0.11815848 -0.0077059879 0.005330205
0.055116102 -0.0064088493 0.0051358342
0.056159671 -0.0063817808 0.0060831904
0.057580635 -0.006397848 0.0068284869
0.058566201 -0.0063658915 0.0077521205
0.059847873 -0.0063667949 0.0082814097
0.060405761 -0.0062922668 0.0089530945
0.062154111 -0.006342256 0.0094681978
0.063334063 -0.0063334065 0.0098570585
0.064319603 -0.0063058436 0.01044035
0.06502451 -0.0062523568 0.011207402
0.067265548 -0.0063458062 0.012638271
0.067699641 -0.006268485 0.012701988
0.068533257 -0.0062302961 0.013232529
0.070237517 -0.0062712068 0.013232529
0.0714432 -0.0062669478 0.013451159
0.073054753 -0.0062978235 0.01358521
0.07394398 -0.0062664389 0.01354003
0.076319978 -0.0063599981 0.013569415
0.077867575 -0.0063825878 0.012241066
0.078548849 -0.0063345847 0.012200236
0.080594607 -0.0063963975 0.012200236
0.081719585 -0.0063843424 0.012241066
0.081518084 -0.0062706219 0.012204647
0.084278338 -0.0063847224 0.012245476
0.08544869 -0.006376768 0.012447894
0.086028971 -0.0063256598 0.01268208
0.088707976 -0.0064281146 0.015042305
0.089021824 -0.0063587017 0.01557368
0.089121342 -0.0062761507 0.016452372
0.091375209 -0.0063455007 0.016375422
0.090893768 -0.0062256004 0.01663053
0.091846287 -0.0062058303 0.01665473
0.094053499 -0.0062702331 0.01699239
0.094711058 -0.0062309904 0.016889632
0.095656089 -0.006211434 0.016277552
0.097369745 -0.0062416503 0.01596272
0.099245146 -0.0062813382 0.015087962
0.10072063 -0.0062950393 0.014776766
0.1014291 -0.0062610554 0.01377964
0.10259242 -0.0062556355 0.013140559
0.10480967 -0.0063138357 0.012160242
0.1065442 -0.006341917 0.011884928
0.1074554 -0.0063209063 0.009994626
0.10875639 -0.0063230461 0.0090004206
0.11115769 -0.0063883727 0.0085275173
0.11175054 -0.0063494626 0.0076890588
0.11352604 -0.0063778674 0.0072458982
0.11448485 -0.0063602696 0.0061707497
0.11630427 -0.0063903448 0.005656898
0.11857568 -0.0064443308 0.0050244331
0.056452919 -0.0051320833 0.0058199763
0.057793535 -0.0051372033 0.0066617727
0.059119664 -0.0051408401 0.0073451996
0.059653439 -0.0050768885 0.0076581836
0.061203092 -0.0051002577 0.0080930591
0.062536448 -0.0051050163 0.0092099905
0.062675506 -0.00501404 0.0098367333
0.064877175 -0.0050884057 0.010541856
0.065774597 -0.005059584 0.010850906
0.066341549 -0.0050069094 0.011179507
0.06765575 -0.0050115371 0.011564016
0.069411948 -0.0050481418 0.011660635
0.070572659 -0.005040904 0.010981619
0.072781563 -0.0051074782 0.010335445
0.074018613 -0.0051047318 0.01022172
0.075725377 -0.0051339236 0.010286868
0.077575698 -0.005171713 0.010278881
0.07844048 -0.0051436382 0.010331929
0.079443656 -0.0051253969 0.010697246
0.080751173 -0.0051270584 0.010694206
0.080934383 -0.0050583989 0.011093318
0.083055399 -0.0051111015 0.011082292
0.084351242 -0.0051121963 0.011447608
0.085165501 -0.0050845072 0.011664152
0.08697556 -0.0051162094 0.011664152
0.087991059 -0.005100931 0.012330353
0.088973485 -0.0050841989 0.012991428
0.091531046 -0.0051566786 0.012634277
0.093292505 -0.0051829168 0.013447464
0.093735769 -0.0051362067 0.015899181
0.09357249 -0.0050579724 0.015813112
0.093706645 -0.0049976874 0.015585303
0.095198847 -0.0050104656 0.01609844
0.096788518 -0.005027975 0.015279293
0.097451396 -0.0049975077 0.014916658
0.098376781 -0.0049811029 0.014582217
0.10088037 -0.0050440184 0.013955355
0.10107492 -0.004991354 0.01340729
0.10320505 -0.0050343927 0.012770653
0.10570569 -0.0050942502 0.011430144
0.10589757 -0.0050427415 0.011393726
0.10796304 -0.0050806138 0.010327995
0.10992344 -0.0051127183 0.0093845129
0.10936315 -0.0050281906 0.0084958076
0.11343414 -0.0051560975 0.0073266625
0.11324365 -0.005089602 0.0067302585
0.11417286 -0.0050743492 0.0061661601
0.11730399 -0.0051562195 0.0054941177
0.11848009 -0.0051513081 0.0052705407
0.05647482 -0.003850556 0.0052180886
0.057403203 -0.0038268804 0.0058752894
0.058787357 -0.0038339582 0.007129252
0.059898052 -0.0038232799 0.0072867274
0.060998462 -0.0038124039 0.0074014068
0.062640637 -0.0038351412 0.0081947446
0.063905731 -0.003834344 0.0089954734
0.064610831 -0.0038006373 0.0097863078
0.06539049 -0.0037725284 0.010415435
0.066760682 -0.0037789065 0.010808825
0.068638302 -0.003813239 0.010592699
0.070088021 -0.003822983 0.010515153
0.07219363 -0.0038675158 0.0090450644
0.073604912 -0.0038739427 0.0092038512
0.074824773 -0.0038702467 0.0095371008
0.076417454 -0.0038856333 0.0098924041
0.077064916 -0.0038532456 0.01026547
0.078313291 -0.0038514731 0.010358989
0.079638161 -0.0038534594 0.01088959
0.08098653 -0.0038565013 0.010952592
0.081377022 -0.0038145478 0.010773599
0.083473437 -0.00385262 0.010962129
0.083715796 -0.0038052634 0.011170864
0.084942117 -0.0038033784 0.011743486
0.087212898 -0.0038476277 0.011400521
0.086807363 -0.0037742332 0.01160109
0.089540146 -0.0038374348 0.011555493
0.09135814 -0.0038602031 0.011179507
0.091813326 -0.0038255553 0.011362076
0.094181851 -0.003870487 0.011334956
0.095566928 -0.0038743347 0.011334956
0.09693601 -0.0038774402 0.011958957
0.096565478 -0.003811795 0.013078332
0.097465307 -0.0037973498 0.01305604
0.097220942 -0.0037392671 0.013574302
0.099626087 -0.0037832693 0.013484538
0.099662714 -0.0037373519 0.01287514
0.10256676 -0.0037987686 0.012589872
0.10404118 -0.0038063847 0.012216032
0.10387154 -0.003754393 0.011280775
0.10731736 -0.0038327628 0.010715306
0.1086617 -0.0038351186 0.0097791553
0.10819939 -0.0037743973 0.0087891221
0.11124453 -0.0038360183 0.007999599
0.1128251 -0.0038463101 0.0076474547
0.11404754 -0.0038442991 0.0070722103
0.11580662 -0.0038602205 0.0060071945
0.11574838 -0.0038158805 0.0056799054
0.056262732 -0.0025573969 0.0051909089
0.057552908 -0.002557907 0.0058037639
0.059259363 -0.0025764941 0.006575942
0.060142189 -0.0025592421 0.006875813
0.061294053 -0.0025539189 0.0077165961
0.062307429 -0.0025431605 0.0085577965
0.063632086 -0.0025452834 0.0086996555
0.064697407 -0.0025371532 0.0091950297
0.066333465 -0.0025512869 0.0093013048
0.067734212 -0.0025560081 0.0091950297
0.069707714 -0.0025817673 0.0090180635
0.071914479 -0.0026150718 0.0086862445
0.072675459 -0.0025955522 0.0088770986
0.073786855 -0.0025890125 0.0090122819
0.075145751 -0.0025912328 0.0093681216
0.075528391 -0.0025602845 0.0094243288
0.076957345 -0.0025652449 0.0094655752
0.07862132 -0.0025777484 0.010181427
0.078798085 -0.0025418736 0.010600567
0.08008787 -0.0025424722 0.010652959
0.082467362 -0.0025771051 0.011141777
0.082215928 -0.0025297208 0.011336505
0.084396608 -0.002557473 0.01156497
0.086126417 -0.0025709376 0.011837721
0.085398383 -0.0025117171 0.011564553
0.087799139 -0.0025449025 0.01168561
0.089905083 -0.0025687166 0.011222303
0.089903034 -0.0025324798 0.010949075
0.092399254 -0.0025666459 0.011339903
0.093576446 -0.0025637383 0.010651767
0.095854685 -0.0025906672 0.010618269
0.09656518 -0.0025750713 0.01052624
0.098746844 -0.0025986012 0.010445595
0.10016108 -0.0026015865 0.011627793
0.099058382 -0.0025399586 0.011741459
0.098855644 -0.0025026745 0.012051523
0.1008978 -0.0025224451 0.011969745
0.10320418 -0.0025482513 0.011943579
0.1032913 -0.0025193002 0.011303365
0.10506713 -0.002531738 0.010858655
0.10773769 -0.002565183 0.0098567605
0.10781977 -0.0025369355 0.0093237758
0.10909933 -0.0025371937 0.0086833239
0.11193214 -0.0025731525 0.0078881383
0.11175125 -0.0025398012 0.0077228546
0.11370053 -0.0025550681 0.0070756674
0.11524255 -0.0025609455 0.0060366392
0.11721511 -0.0025761563 0.0054394603
0.0577619 -0.0012835978 0.0059143305
0.059212141 -0.0012872205 0.006238699
0.060289532 -0.001282756 0.0066007376
0.06143295 -0.0012798531 0.0068772435
0.063072078 -0.0012871852 0.0072561502
0.063340127 -0.0012668025 0.0069115758
0.064737499 -0.0012693628 0.0066692233
0.067817017 -0.0013041735 0.0069400072
0.068687744 -0.0012959952 0.0063853264
0.070321493 -0.0013022498 0.0068963766
0.072410233 -0.0013165496 0.007398963
0.072604612 -0.0012965109 0.0077463388
0.073656574 -0.0012922207 0.0085225701
0.074647434 -0.0012870248 0.0090679526
0.075450547 -0.0012788228 0.0099743009
0.076863773 -0.0012810628 0.010045707
0.077962488 -0.0012780736 0.010162234
0.078954503 -0.0012734598 0.010695875
0.080129668 -0.0012718996 0.011205316
0.081224598 -0.0012691343 0.011538625
0.082543403 -0.0012698985 0.011888206
0.084254488 -0.0012765832 0.012103379
0.084702678 -0.0012642191 0.012522221
0.087453745 -0.0012860845 0.01217407
0.087535314 -0.0012686277 0.011760831
0.089197919 -0.001274256 0.011555851
0.090760596 -0.0012783182 0.0113554
0.09296716 -0.0012912105 0.011085272
0.09319742 -0.001276677 0.010463119
0.095664755 -0.001292767 0.010504961
0.097061947 -0.0012941593 0.01046586
0.099054947 -0.0013033546 0.010490596
0.10014264 -0.0013005538 0.010573506
0.10166116 -0.0013033481 0.010280728
0.10067705 -0.0012743931 0.01070261
0.10140319 -0.0012675399 0.010965347
0.10185055 -0.0012574141 0.011157632
0.10357972 -0.0012631674 0.010452271
0.10612343 -0.0012785955 0.0101071
0.1063059 -0.0012655465 0.0097121
0.10891555 -0.0012813593 0.0091347098
0.11129453 -0.0012941224 0.008574605
0.11138546 -0.0012802926 0.0077546835
0.11373434 -0.0012924357 0.0074375868
0.11363778 -0.001276829 0.0066004395
0.057918906 0 0.0052929521
0.059161801 0 0.0056519508
0.060357127 0 0.0057717562
0.062071677 0 0.0058484077
0.062088914 0 0.0056979656
0.064258114 0 0.0063298941
0.066849239 0 0.0059221983
0.067603588 0 0.0063065886
0.069181345 0 0.0063253641
0.070408516 0 0.0068439841
0.070911668 0 0.0073157549
0.072361737 0 0.0074340105
0.072940409 0 0.0081908107
0.074667871 0 0.0091121197
0.075811453 0 0.0098254681
0.076370135 0 0.010586381
0.07748282 0 0.010504782
0.079162441 0 0.011191487
0.080322035 0 0.011405528
0.082094908 0 0.011876285
0.082788475 0 0.012329102
0.084032916 0 0.012671232
0.085003316 0 0.013042867
0.087009899 0 0.012824833
0.086718187 0 0.012235165
0.090310656 0 0.012371361
0.090743311 0 0.011833072
0.092098035 0 0.011269391
0.094478369 0 0.010598838
0.095054865 0 0.010371208
0.097231373 0 0.0097934604
0.09920828 0 0.0092122555
0.1002062 0 0.008893609
0.10179515 0 0.0088751316
0.10321661 0 0.009363234
0.10103659 0 0.0093858838
0.1027468 0 0.010257602
0.10419402 0 0.010282338
0.10557577 0 0.0098506212
0.10702433 0 0.0098506212
0.11040881 0 0.0089258552
0.10992658 0 0.0081447959
0.11221069 0 0.007927537
0.11377562 0 0.0069377422
0.11521933 0 0.005845964
0.066955514 0.0013128532 0.0062760115
0.067640118 0.0013007715 0.0062457323
0.06925036 0.0013066105 0.0063719153
0.069774374 0.0012921181 0.0064883828
0.071723893 0.0013040707 0.0069022179
0.072269931 0.0012905345 0.0077215433
0.073333286 0.0012865489 0.0085194707
0.074969903 0.0012925846 0.0094411373
0.075413987 0.0012782032 0.010402381
0.076301016 0.0012716836 0.01118201
0.077895515 0.0012769757 0.011686027
0.079046436 0.0012749424 0.012434483
0.079645462 0.0012642137 0.0128932
0.081561111 0.0012743924 0.013256788
0.081697896 0.0012568907 0.013753355
0.084032156 0.0012732145 0.013629138
0.085090838 0.0012700126 0.014103174
0.085548997 0.0012580735 0.014153123
0.08693634 0.001259947 0.013966262
0.089113235 0.0012730462 0.013149142
0.089211434 0.0012564991 0.012535989
0.092716224 0.0012877254 0.01155287
0.092969783 0.0012735587 0.010960877
0.094740465 0.0012802766 0.010275424
0.097301744 0.0012973566 0.0092709064
0.097820818 0.0012871161 0.0090460777
0.10008107 0.0012997541 0.0088096261
0.10323367 0.0013235086 0.008631289
0.10406629 0.0013172948 0.0086216331
0.10593341 0.0013241676 0.0081111193
0.10424408 0.0012869639 0.008485496
0.10423231 0.0012711257 0.008631289
0.10644779 0.0012825035 0.0077959895
0.10714827 0.0012755747 0.0082312822
0.10859659 0.0012776071 0.0076867938
0.11054809 0.001285443 0.0070469975
0.11274606 0.0012959318 0.0063857436
0.11367542 0.0012917662 0.0060070753
0.11548171 0.0012975474 0.0051674247
0.066628717 0.0026128909 0.0053295493
0.069246151 0.0026633134 0.0063407421
0.068796344 0.0025960885 0.0071593523
0.069954775 0.0025909175 0.0072375536
0.072079241 0.0026210633 0.0073406696
0.072319008 0.0025828218 0.0076794624
0.07348597 0.002578455 0.0084552169
0.074620344 0.0025731153 0.0099806786
0.075479999 0.0025586442 0.011054695
0.076616541 0.0025538849 0.01205188
0.077886946 0.0025536704 0.012861013
0.078606725 0.0025357008 0.013556361
0.079629295 0.0025279142 0.014235795
0.080770284 0.0025240714 0.014620125
0.081778646 0.002516266 0.015375912
0.084094107 0.0025483062 0.015539706
0.085149743 0.0025417835 0.015775442
0.084909625 0.0024973419 0.015881598
0.087702364 0.0025420976 0.015734732
0.088246256 0.0025213216 0.015116751
0.090690218 0.0025546539 0.014226139
0.091678873 0.0025466352 0.013430119
0.093290791 0.0025559121 0.012687802
0.094915554 0.0025652852 0.011511981
0.096575662 0.0025753512 0.011045516
0.098231331 0.0025850351 0.010681272
0.1005195 0.0026108962 0.0092992783
0.10242802 0.0026263595 0.0090070367
0.10351408 0.0026206097 0.0085853934
0.10546951 0.0026367379 0.006603241
0.10565817 0.0026088436 0.0059973598
0.10450385 0.0025488744 0.0057578087
0.1066434 0.0025697206 0.0053189397
0.10726654 0.0025539652 0.0054095387
0.10874643 0.0025587396 0.005707562
0.11196426 0.0026038201 0.0058278441
0.11101157 0.0025519901 0.0056385398
0.11449211 0.0026020934 0.0050328374
0.067652479 0.0039030276 0.0057047009
0.069049358 0.0039084544 0.006603837
0.07030987 0.0039061038 0.0077944398
0.070834979 0.0038637263 0.0079911351
0.072710626 0.003895212 0.0081368685
0.073066726 0.0038456174 0.0094895363
0.074287914 0.0038424784 0.011546075
0.07534381 0.003831041 0.012419105
0.07657887 0.0038289437 0.013079166
0.077643909 0.0038185529 0.014029026
0.078943193 0.0038198316 0.014855862
0.079903215 0.0038049151 0.01536572
0.081343547 0.0038129787 0.01584971
0.08283142 0.0038229888 0.016191423
0.083326325 0.0037875604 0.017367959
0.084358692 0.0037772548 0.01759994
0.086623676 0.0038216328 0.017604947
0.086599752 0.0037652068 0.017269015
0.08835756 0.0037867527 0.017037272
0.091044381 0.0038469457 0.015847027
0.091268823 0.0038028676 0.01559478
0.093711242 0.0038511469 0.014342725
0.094459049 0.0038294208 0.01326102
0.095679514 0.0038271805 0.012204409
0.098328672 0.0038813949 0.011800706
0.099334024 0.0038701568 0.010497332
0.10194251 0.0039208657 0.0092191696
0.1038169 0.0039424137 0.0079498291
0.10479592 0.0039298469 0.0062747002
0.10824556 0.0040090946 0.0051590204
0.068331636 0.0052562798 0.005427599
0.069655359 0.0052570086 0.0066151619
0.069619834 0.0051570246 0.0080661774
0.070703998 0.005142109 0.0086411834
0.072207369 0.0051576691 0.0098624229
0.073167205 0.0051345411 0.011149287
0.07489118 0.0051649087 0.012793243
0.074927725 0.0050798454 0.013685167
0.076306961 0.0050871307 0.014135003
0.07777705 0.0051001348 0.014793694
0.078643933 0.0050738021 0.015881121
0.080384009 0.0051037464 0.016485512
0.081107698 0.0050692311 0.017333508
0.081254043 0.0050002486 0.018086135
0.08323741 0.0050446917 0.018441975
0.085598439 0.0051103546 0.019483328
0.084825136 0.0049897139 0.019249558
0.087908544 0.0050961478 0.019384146
0.089513257 0.0051150434 0.019282281
0.089427233 0.0050381538 0.018255711
0.091356754 0.0050753751 0.017401814
0.092302464 0.0050576692 0.015526891
0.09454035 0.0051102894 0.014633119
0.096526086 0.0051480578 0.012816966
0.097343579 0.0051233461 0.011665821
0.0988224 0.0051336312 0.010262847
0.10203677 0.0052326545 0.008977294
0.10290672 0.0052104667 0.008112371
0.10543463 0.0052717319 0.0061943531
0.10780853 0.005323878 0.0054101944
0.068260051 0.006563467 0.0052760839
0.068433009 0.0064559439 0.0066564083
0.069717795 0.0064553516 0.0087578297
0.071216553 0.0064742318 0.0094135404
0.072056837 0.0064336462 0.01065284
0.073236421 0.0064242473 0.012899935
0.074185766 0.0063953246 0.014047623
0.074550316 0.0063178232 0.014750063
0.07650581 0.0063754842 0.015382886
0.076919287 0.0063048596 0.01667434
0.078162409 0.0063034203 0.017242372
0.079936281 0.0063441494 0.018188894
0.080342978 0.0062767952 0.018993676
0.081959382 0.0063045677 0.020323038
0.083420366 0.006319725 0.020949125
0.08368136 0.0062448778 0.021118879
0.086143203 0.0063340594 0.021444678
0.087287568 0.0063251858 0.020976305
0.08734148 0.0062386771 0.021150231
0.088920414 0.0062620011 0.020180047
0.091383971 0.0063461093 0.019178987
0.092613041 0.0063433591 0.017501414
0.09500917 0.0064195385 0.015841544
0.096080497 0.0064053666 0.014211178
0.097720504 0.0064289803 0.012718141
0.099625662 0.0064691985 0.01119107
0.10157824 0.0065114261 0.0092742443
0.10350423 0.0065509006 0.0086344481
0.10631488 0.0066446802 0.0063794851
0.10596126 0.0065408191 0.0051754117
0.068716519 0.0077792285 0.0069370866
0.070593394 0.0078437105 0.0090953708
0.070533417 0.007694555 0.010019243
0.072255388 0.0077416487 0.011908293
0.072956435 0.0076796245 0.014103651
0.074134067 0.0076690414 0.015327036
0.074597016 0.0075861374 0.01606524
0.07608936 0.0076089362 0.017393947
0.077139311 0.0075874734 0.018041849
0.078037046 0.0075519718 0.019078076
0.079382747 0.0075602615 0.019939899
0.081178635 0.0076104971 0.020905972
0.081812575 0.0075519304 0.021520257
0.082565084 0.007505917 0.022331476
0.084799513 0.0075939861 0.022628129
0.086079076 0.0075952127 0.023000836
0.085751832 0.0074566808 0.022468746
0.088111438 0.0075524091 0.02267468
0.089099519 0.0075295372 0.022584975
0.090148374 0.0075123645 0.021584153
0.09330146 0.007668613 0.020766258
0.093219846 0.0075583658 0.018265069
0.094794907 0.0075835926 0.016661346
0.097562812 0.0077023273 0.014456987
0.09886568 0.0077038188 0.012597501
0.10129563 0.0077919713 0.011550188
0.10394585 0.0078946222 0.0089116693
0.10427557 0.0078206677 0.0064982772
0.10831379 0.0080232434 0.00507164
0.068849899 0.0090933833 0.0079350471
0.069756724 0.0090425387 0.010199785
0.071447492 0.0090933172 0.011241436
0.072292171 0.0090365214 0.01344347
0.072423257 0.008894084 0.015142143
0.07436008 0.0089744916 0.016172409
0.074703351 0.0088631092 0.017627776
0.076208182 0.0088909548 0.019008696
0.077150561 0.0088533433 0.019944489
0.077966943 0.0088027194 0.020939469
0.079092897 0.0087881004 0.022030115
0.080692776 0.0088257724 0.022342205
0.080926999 0.0087152161 0.02342701
0.08284574 0.0087866699 0.023992658
0.083851293 0.0087605827 0.024067998
0.084954672 0.0087453341 0.024328351
0.086255118 0.0087505197 0.024051547
0.088471159 0.0088471156 0.024008512
0.0879611 0.0086722216 0.023184121
0.090895928 0.0088371038 0.022581995
0.092575222 0.0088770762 0.021590829
0.09373612 0.0088669304 0.020271659
0.096041217 0.0089638466 0.018242121
0.096965954 0.0089310743 0.016819715
0.098838322 0.0089853024 0.014616609
0.10089663 0.0090548266 0.012414336
0.10266837 0.0090971971 0.01064378
0.1048218 0.0091719069 0.0074345469
0.10659118 0.0092115831 0.0060880184
0.068177342 0.010488822 0.0054582357
0.067528948 0.010193049 0.0091223717
0.069516338 0.010298717 0.010909259
0.071595222 0.010413851 0.012236655
0.071492352 0.010213193 0.014711797
0.072908171 0.010232725 0.015954494
0.074036382 0.010211915 0.017329693
0.074876316 0.010152721 0.019166708
0.076139651 0.010151953 0.019891083
0.077300109 0.010137719 0.021602213
0.078078203 0.010074607 0.022479355
0.079160742 0.010052158 0.023111463
0.080409527 0.010051191 0.023903728
0.081478894 0.010028171 0.024367869
0.083255872 0.01009162 0.025082946
0.083367266 0.0099542998 0.025409043
0.085255243 0.010030029 0.025644958
0.086424112 0.010020187 0.025667608
0.087402187 0.009988822 0.02547127
0.088850491 0.010011323 0.025100529
0.091080412 0.010120045 0.024110317
0.09193147 0.010074682 0.023294687
0.093528926 0.010111235 0.021666467
0.095027521 0.010136269 0.020798802
0.097047053 0.01021548 0.018508375
0.099336974 0.010320725 0.016645014
0.099366076 0.010191393 0.014751971
0.10194011 0.01032305 0.01172924
0.10483978 0.010483978 0.0079781413
0.10585447 0.010454763 0.0067985058
0.068213493 0.011806182 0.0053218603
0.068033881 0.011552923 0.0098519921
0.069981828 0.011663639 0.011448979
0.0703407 0.011510297 0.01340878
0.07167282 0.011518846 0.016285539
0.072767265 0.011489568 0.017613053
0.074014716 0.011485042 0.018770695
0.074698962 0.011394757 0.020885408
0.075786963 0.011368044 0.022162497
0.077390693 0.011418299 0.023495197
0.078329876 0.011370466 0.024017632
0.079265743 0.011323678 0.025151432
0.080600329 0.011334421 0.025645494
0.081828021 0.011330033 0.026244581
0.082348645 0.011229361 0.027207017
0.083759047 0.011251215 0.02739054
0.085632242 0.011333679 0.02788794
0.085267082 0.011121793 0.027924299
0.087013707 0.011187476 0.027432978
0.089603439 0.011358182 0.027172506
0.090586454 0.011323307 0.02641052
0.092222251 0.011369866 0.02504164
0.093404979 0.011360065 0.023770392
0.094196819 0.011303619 0.022407115
0.097868837 0.011589731 0.020422935
0.098054126 0.011460871 0.018672168
0.10056568 0.011603733 0.016699851
0.10298995 0.011733033 0.013632357
0.10339915 0.011632404 0.0092900991
0.1053771 0.011708567 0.007602334
0.10921875 0.011987424 0.0052424669
0.067902856 0.013058242 0.0066016912
0.068449073 0.01291492 0.010759234
0.069264643 0.012826785 0.012543619
0.070296586 0.012781197 0.015186071
0.071339287 0.012739158 0.017233253
0.072701134 0.012754586 0.018273771
0.074128091 0.012780705 0.02071327
0.074556589 0.012636711 0.022675097
0.07578592 0.012630987 0.023907065
0.076776467 0.012586307 0.024845481
0.077661425 0.012526036 0.025139153
0.079023741 0.012543451 0.026156604
0.080691107 0.012607985 0.027155757
0.080669984 0.012410766 0.027943313
0.082237519 0.01246023 0.028826773
0.084146105 0.01255912 0.028893471
0.085176833 0.012526006 0.029654086
0.085760333 0.012429033 0.029658675
0.087968595 0.012566942 0.02946341
0.088256977 0.012430561 0.029278338
0.090495385 0.012568804 0.028532565
0.091899507 0.012588973 0.027688026
0.093381859 0.01261917 0.025747955
0.094641976 0.01261893 0.024884343
0.0964799 0.012694724 0.023391843
0.097663775 0.012683608 0.021263838
0.10084196 0.012928457 0.018895268
0.10061911 0.012736596 0.016050875
0.10394807 0.012993509 0.0105474
0.10623514 0.013115449 0.0088065863
0.10805883 0.013177906 0.0064692497
0.068044327 0.014393992 0.008077085
0.068262897 0.014167772 0.011511326
0.06935358 0.014127581 0.013811409
0.071280494 0.014256098 0.016944587
0.0721865 0.014179491 0.018645465
0.072774582 0.014044218 0.019924581
0.073577717 0.013954395 0.022388577
0.074343242 0.013860605 0.023750782
0.075949542 0.013924083 0.02537477
0.076753154 0.013840732 0.026097715
0.078015924 0.013841535 0.026806414
0.079447806 0.013871839 0.02785182
0.079404995 0.013647733 0.029207408
0.081220016 0.013744926 0.030012131
0.08325664 0.013876108 0.030654758
0.083241165 0.01366646 0.030854613
0.084810421 0.013719333 0.031181782
0.086314484 0.01376028 0.031158268
0.087078542 0.013683771 0.03132987
0.088852122 0.013765822 0.031008661
0.090005122 0.013750783 0.030652404
0.091632903 0.013807698 0.029507577
0.093375809 0.013880188 0.028835833
0.09483657 0.013909363 0.02685219
0.096247673 0.013930584 0.025569499
0.097790055 0.013970008 0.02386421
0.099505536 0.014032832 0.021240652
0.10115641 0.01408507 0.018080592
0.10431569 0.014343408 0.014236331
0.10384975 0.014103051 0.010108173
0.10887232 0.014604824 0.0073328018
0.11176415 0.014812116 0.0051228404
0.067221686 0.015512696 0.0086419582
0.068689674 0.01555238 0.012872219
0.069613576 0.015469683 0.014641762
0.070134677 0.015302112 0.017625332
0.071701221 0.015364548 0.018981755
0.07252676 0.015268791 0.020693302
0.073280662 0.015161516 0.022827089
0.074782625 0.015210026 0.025225341
0.075624585 0.015124917 0.026519239
0.076058343 0.014962297 0.027539313
0.077973276 0.015091601 0.028627992
0.078508653 0.01495403 0.02982074
0.079296388 0.014868073 0.03099218
0.081532538 0.015052161 0.031976104
0.081624091 0.014840744 0.032505929
0.084162697 0.015073916 0.033141643
0.084958665 0.014992706 0.03389439
0.085354403 0.014844243 0.034017742
0.087668993 0.015028969 0.033939034
0.090313137 0.015264192 0.033874303
0.090496108 0.015082684 0.032669902
0.091678642 0.015070462 0.032052934
0.092739865 0.015038897 0.031216025
0.094165504 0.01506648 0.029815376
0.096493736 0.015235853 0.027820468
0.097824216 0.015245332 0.026254416
0.099414967 0.015294611 0.023558915
0.10082085 0.01531456 0.021145463
0.10261845 0.015392767 0.016400337
0.10605585 0.015711978 0.01140213
0.10769252 0.015759882 0.0082312226
0.1105406 0.015981773 0.0056923628
0.066528015 0.016958121 0.0050479174
0.067671098 0.016917774 0.010176718
0.068569429 0.016818916 0.01340872
0.069012396 0.016614094 0.01565069
0.070870124 0.01675112 0.018717647
0.071286246 0.016548593 0.020191193
0.072138779 0.016452704 0.021846533
0.074038319 0.016594796 0.024474025
0.074194394 0.016347917 0.026381373
0.075726278 0.016407359 0.027815461
0.076734379 0.016353227 0.02870816
0.077722751 0.016296705 0.031161547
0.078562945 0.016211402 0.03230384
0.080047078 0.016259562 0.033993155
0.080370344 0.016074069 0.034546822
0.08224415 0.016199606 0.035277486
0.083053559 0.01611487 0.035884619
0.084388889 0.016133169 0.036654592
0.08564011 0.016135093 0.036915362
0.08804594 0.016351389 0.036880076
0.087495185 0.016020244 0.036377341
0.090364993 0.016315902 0.035672396
0.090898819 0.016187461 0.035237432
0.092574529 0.016263094 0.033607543
0.094876036 0.01644518 0.03175205
0.095000945 0.016250161 0.030998468
0.097332001 0.016432676 0.028676152
0.099286847 0.016547808 0.026814818
0.10076142 0.016580993 0.023584783
0.10224508 0.016614825 0.020785391
0.10539892 0.016915876 0.015910327
0.10678969 0.016930072 0.0093485713
0.11061942 0.017325934 0.0057046413
0.067056865 0.018407766 0.0065888762
0.067960881 0.018297162 0.010886967
0.067969367 0.017954173 0.013973057
0.069659621 0.018059902 0.016022801
0.07095924 0.018062351 0.019282103
0.071353771 0.017838443 0.021031082
0.07241226 0.017785467 0.025031507
0.072810695 0.017574996 0.026795983
0.073771901 0.017505197 0.028425038
0.075651743 0.017652074 0.030157447
0.076884672 0.017645663 0.03248468
0.077534869 0.017507875 0.033950716
0.078774728 0.017505495 0.035969436
0.078799143 0.017237313 0.037141353
0.079755194 0.017178042 0.037688613
0.081135467 0.017210552 0.038194835
0.081289634 0.016985893 0.039650351
0.08227922 0.016939839 0.040164918
0.083031781 0.016847027 0.040615886
0.084108554 0.016821712 0.038963854
0.085679933 0.016894635 0.038214743
0.087453656 0.017004877 0.037708461
0.088169955 0.016909307 0.037086219
0.090812176 0.017180681 0.036694348
0.092947751 0.017350247 0.034635782
0.094546579 0.017416475 0.033884346
0.09756168 0.017738488 0.03223145
0.098667696 0.017709587 0.029430807
0.10083262 0.017869072 0.027350962
0.10289086 0.0180059 0.023880124
0.10394995 0.017966658 0.019340158
0.10791656 0.018424777 0.012696803
0.1097494 0.018511947 0.007091701
0.067102045 0.019735895 0.0071915388
0.067620754 0.019505987 0.011645555
0.068477146 0.019380325 0.015102565
0.069985926 0.019440535 0.018191457
0.070428975 0.019207902 0.021169484
0.071742505 0.019216742 0.023746431
0.072071448 0.018966172 0.027525902
0.073449232 0.018995492 0.029457569
0.074689344 0.018988816 0.031258285
0.075447738 0.018861935 0.033833265
0.07584665 0.018650815 0.035594612
0.075939953 0.018372569 0.037487805
0.075883776 0.018067565 0.038449228
0.077387363 0.018137664 0.039011836
0.078488693 0.018112775 0.040312856
0.078909561 0.017933991 0.040665984
0.080484606 0.01801894 0.041843176
0.082309179 0.018156437 0.042244434
0.082655579 0.017968604 0.042816937
0.083739609 0.017944202 0.042686462
0.085884474 0.018144608 0.042806804
0.086239271 0.017966514 0.042224109
0.08801122 0.018084498 0.041744381
0.089204311 0.018081954 0.040019333
0.089492321 0.017898465 0.037725329
0.091741331 0.018106842 0.036983997
0.093491197 0.01821257 0.03500706
0.09553168 0.018371478 0.032941222
0.099198431 0.018835146 0.030119181
0.10066295 0.018874303 0.027014613
0.10358071 0.019181613 0.023815393
0.10726541 0.019621722 0.017921448
0.10804932 0.019526986 0.009747088
0.067097895 0.021050321 0.0077502728
0.067800552 0.020861709 0.012667716
0.06876839 0.02076027 0.01640594
0.069051065 0.020459576 0.01951319
0.070020415 0.020369576 0.023172975
0.071768805 0.020505372 0.02702862
0.071934931 0.020192262 0.029296219
0.073178604 0.020187201 0.030711412
0.07277485 0.019735552 0.034296811
0.072935417 0.019449444 0.0353311
0.073836379 0.019366918 0.038031876
0.074689798 0.019274788 0.039603263
0.075960062 0.019291444 0.040723503
0.077300601 0.01932515 0.041623533
0.077796124 0.019149814 0.042553276
0.07970155 0.019321589 0.043493539
0.081108548 0.019369205 0.044656634
0.080791801 0.019009836 0.045702994
0.083297722 0.019315414 0.046391577
0.084453315 0.019303614 0.046845108
0.08521428 0.019203218 0.04689458
0.087285191 0.019396709 0.046251535
0.087800026 0.019243842 0.045796812
0.088818915 0.019204091 0.044948786
0.090144172 0.019230757 0.044232458
0.092378698 0.019448146 0.042873234
0.092446513 0.019209664 0.040082484
0.094598524 0.019404825 0.037612379
0.095528141 0.019347472 0.034359276
0.10029353 0.020058706 0.030183017
0.10352285 0.020448959 0.027324557
0.10576969 0.020637987 0.02286464
0.10945745 0.021100231 0.012712717
0.065960176 0.021986725 0.0083801746
0.067986064 0.022226213 0.014778972
0.06812641 0.021851867 0.017738402
0.06911806 0.021759389 0.021583974
0.070680894 0.021846822 0.024934888
0.071258895 0.021632165 0.029227018
0.070994005 0.02117365 0.031291544
0.070661947 0.020711262 0.033587098
0.071724638 0.02066642 0.035703182
0.072498709 0.020541301 0.038766623
0.074266516 0.020697225 0.040379941
0.074964188 0.020554697 0.041786879
0.076644577 0.020681871 0.043032974
0.077465288 0.020576717 0.044588327
0.079241976 0.020724824 0.046492577
0.081290744 0.020938525 0.047239065
0.080670252 0.02046857 0.049085349
0.083100267 0.020775067 0.050408423
0.084193505 0.020743327 0.051096618
0.084737204 0.020579034 0.051667571
0.08712323 0.020860491 0.051706314
0.088270016 0.020841531 0.051427305
0.08906287 0.020740669 0.050869584
0.090401754 0.020767972 0.050104499
0.09208598 0.020872822 0.048725933
0.092262149 0.020637587 0.047510803
0.093424715 0.020626236 0.046279341
0.094026037 0.020492855 0.044254839
0.095238872 0.020494442 0.041674584
0.097706713 0.020762676 0.035833478
0.098334596 0.020638125 0.031653702
0.10387171 0.021534378 0.026815772
0.10877325 0.022278858 0.02147609
0.11084894 0.022433715 0.0095126629
0.066657916 0.023526322 0.0099895597
0.067386746 0.023326183 0.016229093
0.068286754 0.023191728 0.020183325
0.069895163 0.023298388 0.024517357
0.069488987 0.02274185 0.02849108
0.068897858 0.022145739 0.03097862
0.069603719 0.021980122 0.034488857
0.070273802 0.02180911 0.036304355
0.071833789 0.021915395 0.03842926
0.073021695 0.021906508 0.042213142
0.07446298 0.021972682 0.043480277
0.076417655 0.022185769 0.045173734
0.077388294 0.022110941 0.04775551
0.078636445 0.022116501 0.048981369
0.079907984 0.022128364 0.05163458
0.079643428 0.021720935 0.051966816
0.081440337 0.021879494 0.052640736
0.08314871 0.022009952 0.053587854
0.084476642 0.022037385 0.053888798
0.085881963 0.022083934 0.054446101
0.086987987 0.022053292 0.054570794
0.088043131 0.022010783 0.053758562
0.089791134 0.022140279 0.053446025
0.091587685 0.022278085 0.052836299
0.092535228 0.022208456 0.052447259
0.094141833 0.022296749 0.051279575
0.09456604 0.022106348 0.049783796
0.094909213 0.021902127 0.048384637
0.096713118 0.022035901 0.045972139
0.096735954 0.02176559 0.043393195
0.098593675 0.021909704 0.036735892
0.10032073 0.022021623 0.032444656
0.10425223 0.022608919 0.027109206
0.11086117 0.023755964 0.015399158
0.11478568 0.024307556 0.0056763887
0.066787541 0.025379265 0.006114006
0.066518441 0.024781378 0.012174368
0.068243489 0.024935121 0.018131077
0.068399042 0.024520412 0.022981524
0.067316636 0.023685481 0.02700305
0.067212641 0.023218913 0.031429112
0.068763241 0.023330385 0.033259869
0.069449909 0.023149971 0.03733182
0.071153082 0.023308767 0.038968801
0.072801754 0.023444632 0.042920172
0.074306466 0.023530379 0.044755489
0.075386576 0.023481065 0.046332061
0.076305903 0.023384068 0.049411714
0.077800594 0.02346367 0.050909787
0.078429773 0.023283839 0.053229064
0.079268441 0.023170775 0.053652048
0.081289552 0.023401538 0.054405272
0.083644837 0.023720179 0.054446101
0.083787218 0.023411134 0.054729402
0.084882177 0.023373354 0.054792166
0.08708369 0.023637002 0.055200517
0.08674264 0.02321282 0.055458069
0.090009481 0.023752501 0.055378646
0.091164067 0.023727633 0.055296719
0.092530757 0.023757897 0.055309802
0.093566366 0.02370348 0.053838134
0.094379626 0.023594907 0.053517878
0.095176741 0.023485171 0.052878737
0.097962625 0.02386269 0.052200049
0.098372877 0.023659298 0.050224304
0.098511048 0.023396375 0.049225926
0.098674729 0.023145923 0.045546025
0.099835403 0.023132592 0.037114263
0.10209767 0.023371754 0.032569408
0.10817385 0.024467895 0.024147093
0.11153498 0.024931347 0.010325909
0.065964676 0.02638587 0.0080346465
0.066982806 0.026267769 0.014435828
0.068166196 0.026217768 0.01979059
0.066197567 0.024980215 0.024233222
0.06640175 0.024593242 0.029954374
0.06756328 0.024568466 0.032909095
0.068397515 0.024427686 0.035759509
0.070262417 0.024653479 0.039764434
0.072169788 0.024886135 0.043903202
0.073398948 0.024881 0.045656949
0.074161917 0.024720637 0.048243582
0.07516335 0.024643721 0.050007343
0.07670746 0.024744343 0.051544696
0.079165585 0.025131933 0.052371442
0.079869501 0.024959218 0.053729922
0.080532879 0.024779348 0.054248035
0.080538012 0.024405459 0.055266321
0.07975293 0.023806846 0.055432558
0.080073744 0.023551101 0.055609405
0.081164911 0.023526061 0.05557704
0.081803977 0.023372566 0.05632627
0.082545742 0.023252321 0.056282878
0.084356807 0.023432447 0.056319058
0.085439727 0.023408145 0.055431873
0.087283567 0.023590153 0.055484533
0.089144498 0.023771865 0.054569423
0.092585377 0.024364572 0.054374576
0.095020175 0.024680564 0.053735316
0.097762004 0.02506718 0.053491414
0.099638186 0.025224857 0.053002447
0.10167567 0.025418917 0.0510391
0.099727385 0.024624046 0.050239027
0.10030935 0.024465695 0.046429008
0.10232678 0.024657056 0.037523448
0.10286422 0.024491481 0.028660834
0.10914361 0.025680849 0.014981031
0.066284649 0.027839551 0.010531425
0.067306146 0.027714295 0.017373562
0.065505043 0.026453961 0.022592783
0.065058477 0.025777888 0.027164102
0.066755131 0.02596033 0.032700181
0.067742445 0.025865296 0.034939468
0.070499323 0.026437247 0.039755255
0.071111336 0.026198912 0.044433177
0.072323613 0.026186135 0.045831233
0.07388971 0.026299726 0.047684193
0.074982986 0.026244044 0.05009377
0.077019595 0.026514942 0.051279664
0.077130444 0.026124828 0.052378744
0.075163275 0.025054427 0.053093255
0.075153828 0.02465985 0.053858578
0.075656608 0.024442906 0.054611832
0.076127037 0.024222238 0.055217266
0.077751957 0.024370017 0.055236042
0.079499252 0.024551241 0.055136085
0.079040639 0.024055848 0.055039197
0.080385931 0.02411578 0.055667102
0.083114728 0.02458323 0.055262566
0.083707005 0.024414543 0.055745959
0.08524026 0.02452117 0.055667222
0.085400671 0.024235327 0.055228829
0.086298838 0.024163675 0.055081069
0.088022858 0.024322106 0.054832458
0.089446329 0.024394454 0.054510355
0.091171399 0.024546146 0.054224789
0.093503438 0.024855345 0.05368945
0.098356381 0.025818549 0.053191394
0.10246396 0.02656473 0.051452607
0.10355338 0.02651977 0.048692077
0.1009819 0.025549637 0.042280436
0.10283273 0.025708184 0.034475923
0.10656776 0.026328506 0.024323046
0.066427581 0.029228136 0.012717187
0.064494528 0.02782117 0.019925117
0.06489037 0.027453618 0.025658071
0.065971762 0.027384507 0.030741274
0.06663698 0.027148398 0.034769356
0.069382407 0.027752964 0.039135605
0.070470005 0.027684646 0.043378204
0.071632728 0.027647719 0.046341807
0.074324287 0.028191971 0.047246844
0.075048096 0.027984036 0.048822343
0.072505683 0.026585417 0.05049175
0.072048292 0.025984628 0.051183224
0.072353207 0.025673717 0.052355677
0.072667591 0.025375985 0.052744657
0.074867286 0.02573563 0.053339303
0.074901909 0.025351414 0.054687887
0.07677038 0.025590127 0.054838568
0.078356832 0.02572911 0.055003196
0.078257985 0.02531876 0.054924279
0.08082746 0.025771072 0.054853588
0.08374396 0.02631953 0.0553087
0.084496096 0.026181888 0.055784225
0.085790887 0.026213882 0.056861997
0.085750364 0.025842577 0.05665338
0.086053908 0.025583593 0.056061417
0.087031811 0.025529331 0.056348801
0.088414013 0.02559353 0.055947244
0.089012824 0.025432235 0.055624366
0.091567598 0.025826758 0.054737389
0.091147594 0.025382875 0.054440379
0.093364835 0.02567533 0.054123908
0.095937349 0.026057057 0.052731335
0.10021336 0.026886513 0.051505923
0.10708926 0.028385105 0.047473192
0.10610131 0.02778844 0.040215671
0.10399314 0.026915871 0.033028185
0.11068406 0.028314527 0.013400376
0.066160478 0.031054918 0.0069487691
0.064501666 0.029670766 0.014670908
0.064031444 0.028876925 0.021260619
0.065316491 0.028889986 0.02808243
0.065263316 0.028321818 0.033986449
0.068788245 0.029298699 0.036001205
0.069320329 0.028988499 0.040328145
0.0713792 0.029316457 0.045262575
0.073067844 0.029483516 0.047688782
0.070689589 0.028032079 0.048566312
0.069713496 0.027176447 0.049194545
0.070419461 0.026994126 0.050261825
0.071592711 0.026993973 0.051606596
0.072448067 0.026875896 0.052232742
0.074507833 0.027201273 0.05335173
0.076153077 0.027367512 0.054324985
0.077456325 0.027407624 0.055045664
0.079229444 0.027610263 0.055449218
0.079753131 0.027377941 0.056676805
0.081771433 0.027657984 0.056676805
0.082968943 0.027656315 0.056560636
0.084186599 0.027661311 0.057760805
0.085547403 0.027712539 0.057936877
0.087672047 0.028006349 0.058090359
0.08905936 0.028059799 0.058207661
0.089893788 0.02793996 0.057885468
0.089482769 0.027441382 0.057381302
0.091481373 0.027685152 0.057119906
0.09203279 0.027490314 0.05659014
0.09279339 0.027362153 0.05561012
0.093201779 0.027134696 0.055280507
0.093566954 0.026900498 0.05497843
0.093409665 0.026523732 0.053469956
0.094992109 0.026644127 0.052342474
0.10080084 0.027932763 0.049590468
0.10679575 0.029241694 0.043567926
0.10750268 0.029088961 0.036901355
0.10802402 0.028890144 0.022151053
0.064193361 0.031441644 0.0083053112
0.063114621 0.030295018 0.019556522
0.064104542 0.030166844 0.025371253
0.065384783 0.030177593 0.030058205
0.067905866 0.030749828 0.035209715
0.068507485 0.030447772 0.03697902
0.071335033 0.031128014 0.041561484
0.070507079 0.030217318 0.046280682
0.068129309 0.028686026 0.048937529
0.068163425 0.028205557 0.049368888
0.069841743 0.0284102 0.049996674
0.070828766 0.028331507 0.051200956
0.071896121 0.028286997 0.052351415
0.074202962 0.028723726 0.053215742
0.075937703 0.028928651 0.05452916
0.077688672 0.029133253 0.056429893
0.078887776 0.029127795 0.057169735
0.079121128 0.02877132 0.057983071
0.081482239 0.029187668 0.058643162
0.082241334 0.029026352 0.058686674
0.082683809 0.028759588 0.058705509
0.084487207 0.028967043 0.059327215
0.086092144 0.029101571 0.059346646
0.087327577 0.029109193 0.059665173
0.088740483 0.029174952 0.059982628
0.089829437 0.029133871 0.05972755
0.090257414 0.028882373 0.059328467
0.092450112 0.02919477 0.058378398
0.092704378 0.028894871 0.057929724
0.094631083 0.029117256 0.057038307
0.09665449 0.029363388 0.056188434
0.094439395 0.028331818 0.055686176
0.094580047 0.028023718 0.054223895
0.095145516 0.027847469 0.053403258
0.095985189 0.027754754 0.050385833
0.10055587 0.028730247 0.04532212
0.10648112 0.030065257 0.041467786
0.10902744 0.030426262 0.030938089
0.063618079 0.032458205 0.011185646
0.063836873 0.031918436 0.021234453
0.065133482 0.031928178 0.028247774
0.067566618 0.032483954 0.033497989
0.066671401 0.031448774 0.0367589
0.068735555 0.031822015 0.038882375
0.06726636 0.030575618 0.042225778
0.066413373 0.029648826 0.047200978
