ply
format ascii 1.0
comment PCL generated
element vertex 1253
property float x
property float y
property float z
element camera 0
property float view_px
property float view_py
property float view_pz
property float x_axisx
property float x_axisy
property float x_axisz
property float y_axisx
property float y_axisy
property float y_axisz
property float z_axisx
property float z_axisy
property float z_axisz
property float focal
property float scalex
property float scaley
property float centerx
property float centery
property int viewportx
property int viewporty
property float k1
property float k2
end_header
-0.078851424 -0.077674538 0.0074029863
-0.077622615 -0.077622615 0.0081478953
-0.076355845 -0.077530548 0.008297503
-0.074018456 -0.076331533 0.0083176792
-0.073033914 -0.076511718 0.0085631311
-0.072435074 -0.077108309 0.008426398
-0.070728324 -0.076525733 0.0083992779
-0.06976416 -0.076740578 0.0083506405
-0.068825185 -0.076990888 0.0083191395
-0.066813082 -0.076028682 0.0083059072
-0.066178627 -0.07662788 0.0083355606
-0.064867899 -0.076451458 0.0082858205
-0.063890293 -0.076668352 0.0078424215
-0.063023075 -0.077028207 0.0078536868
-0.061678 -0.076806568 0.0072731674
-0.060781594 -0.077145867 0.0069408715
-0.059887018 -0.07750085 0.0067838132
-0.058531683 -0.07726182 0.0066617727
-0.057097308 -0.076906577 0.0063928068
-0.056731682 -0.078006059 0.0060880482
-0.054935411 -0.077143341 0.005615145
-0.10197054 -0.077070758 0.0053402483
-0.099763379 -0.076289646 0.005558759
-0.0986844 -0.076362923 0.0061520338
-0.097483978 -0.076342873 0.0070146322
-0.096019596 -0.076113097 0.007327646
-0.094841711 -0.076107547 0.0075688958
-0.093930811 -0.076318778 0.0078712404
-0.091748983 -0.07548967 0.0081641972
-0.091086864 -0.075905718 0.008220315
-0.089836664 -0.075836144 0.0083987713
-0.08808817 -0.075338565 0.0081769824
-0.087215327 -0.075586617 0.0077649057
-0.088420466 -0.077666625 0.0066616535
-0.07557147 -0.077970564 0.0057013631
-0.072819181 -0.076342694 0.0062201023
-0.071418256 -0.076101422 0.0072456896
-0.070027776 -0.075863421 0.0075518191
-0.068477102 -0.075440876 0.0075025558
-0.067347467 -0.075475611 0.0081217289
-0.066824257 -0.0762031 0.0080569386
-0.065100767 -0.075563386 0.0077013671
-0.064158894 -0.075824149 0.0075636506
-0.062944971 -0.075767092 0.0074405074
-0.061860293 -0.075866394 0.0072311461
-0.060627896 -0.075784869 0.0072009265
-0.059705488 -0.076095231 0.0070178807
-0.058504596 -0.076055974 0.0066245794
-0.057526547 -0.076310724 0.0059129
-0.056085076 -0.075948536 0.0059748888
-0.055279225 -0.076449998 0.0057321787
-0.1023846 -0.076193199 0.0052567422
-0.10162016 -0.076514006 0.0055364668
-0.099019073 -0.075443104 0.0060087442
-0.098047346 -0.07560277 0.0060398281
-0.097187631 -0.075853765 0.0061321259
-0.095870428 -0.075749472 0.0065336227
-0.093954138 -0.075163312 0.0069929361
-0.093007907 -0.075348176 0.0068569183
-0.091859847 -0.075372182 0.0061321259
-0.090305537 -0.075059146 0.0052079558
-0.070388071 -0.076353163 0.006498754
-0.068297371 -0.075362615 0.0074412823
-0.066171341 -0.074297644 0.0077044964
-0.065377191 -0.074716784 0.0080462396
-0.064374134 -0.074908085 0.0081859231
-0.063172638 -0.074871279 0.0078949034
-0.061812006 -0.074640915 0.0078828335
-0.061148606 -0.07525982 0.0077046156
-0.059742164 -0.074970558 0.0072056353
-0.059050925 -0.075585179 0.0070973337
-0.057911165 -0.075639069 0.0071946084
-0.056859329 -0.075812437 0.0067338347
-0.055659749 -0.075792 0.0064592659
-0.054212909 -0.075426653 0.0050733984
-0.099853732 -0.074890301 0.0051467121
-0.065413587 -0.073590286 0.0069966614
-0.063706711 -0.07297314 0.0074893534
-0.063175209 -0.073704414 0.0075528026
-0.06208957 -0.073804587 0.0075593591
-0.061028697 -0.073938616 0.0075156391
-0.059938632 -0.074041843 0.0071594119
-0.058693979 -0.073954411 0.0075020194
-0.057422101 -0.073828414 0.0074057877
-0.056803707 -0.074554868 0.0066142976
-0.055335313 -0.074172869 0.0058727562
-0.054223526 -0.074262656 0.0056265593
-0.05346521 -0.074851297 0.0050298274
-0.063389175 -0.072780162 0.0062504709
-0.062789097 -0.0734514 0.0075718164
-0.061241187 -0.073018335 0.0073425472
-0.059937663 -0.072865397 0.0072267354
-0.058375843 -0.072386049 0.0068038702
-0.057566248 -0.072838925 0.0069860518
-0.056042619 -0.072388381 0.0062504709
-0.055146866 -0.072746925 0.0057784617
-0.054512046 -0.073472761 0.0055168271
-0.053230301 -0.073339529 0.0051037371
-0.061939936 -0.071289361 0.0058905184
-0.060850471 -0.071382284 0.0060931444
-0.060475431 -0.072333358 0.006120652
-0.059277803 -0.072318919 0.0061322153
-0.058302406 -0.072580546 0.0061603785
-0.056348927 -0.071610093 0.0061891675
-0.055759586 -0.07236883 0.0060636997
-0.05406845 -0.071699463 0.0059617758
-0.052834336 -0.071619876 0.0052929819
-0.061586697 -0.071061574 0.0056405067
-0.059950024 -0.070529439 0.0059773624
-0.058874331 -0.070649199 0.0061297417
-0.057379682 -0.07026083 0.0062675178
-0.056852341 -0.071065426 0.0059069693
-0.055408429 -0.070734166 0.0057353973
-0.054384191 -0.070935905 0.0053019524
-0.058715176 -0.06928391 0.0055133104
-0.058168616 -0.070039764 0.0057163835
-0.05677788 -0.069789477 0.0057163835
-0.055966634 -0.070255987 0.005687654
-0.054716382 -0.070179708 0.0053621531
-0.08632765 -0.068342723 0.0051139891
-0.085152686 -0.068362013 0.0056022108
-0.0835943 -0.068069644 0.0059136748
-0.082086831 -0.067810856 0.0061134994
-0.080910333 -0.067821898 0.0062441528
-0.079765201 -0.067859948 0.0066063702
-0.077931985 -0.067304894 0.0062560141
-0.077223428 -0.067719005 0.005733937
-0.075406842 -0.067159221 0.0052420795
-0.0751331 -0.06797757 0.0050738752
-0.086258762 -0.066171102 0.0052140653
-0.08529143 -0.066337779 0.0064340532
-0.084283762 -0.066477329 0.0068367124
-0.08293888 -0.066351108 0.0075176358
-0.082302175 -0.066795968 0.0079841614
-0.080346599 -0.066167787 0.008387953
-0.079515524 -0.066460736 0.008387953
-0.079149917 -0.067157499 0.0079230368
-0.077012271 -0.06634903 0.0074787736
-0.076080538 -0.066570468 0.0069938898
-0.07582695 -0.067401737 0.0060979724
-0.073128715 -0.066051744 0.0058966279
-0.088061564 -0.06545116 0.0063853264
-0.087662756 -0.066047281 0.0069272518
-0.085390098 -0.065228544 0.0083324909
-0.083904028 -0.064996079 0.008664161
-0.082799606 -0.065056831 0.0092969835
-0.082425922 -0.06570182 0.0093694925
-0.07970465 -0.064466998 0.0095190108
-0.079812914 -0.065518066 0.0095309019
-0.077701114 -0.064750932 0.0092886388
-0.076784953 -0.064971887 0.0090732872
-0.075922132 -0.065245576 0.0082357526
-0.074362785 -0.064919889 0.0077292621
-0.074397489 -0.065997772 0.0071054995
-0.071979336 -0.0648994 0.0056929886
-0.091750942 -0.065191463 0.0056717098
-0.090072796 -0.064852409 0.0073731244
-0.088286549 -0.064425319 0.0080841482
-0.086978987 -0.064340621 0.0093869567
-0.085937366 -0.064453028 0.010334641
-0.08495938 -0.064616993 0.010966808
-0.082718641 -0.063811518 0.011415392
-0.081554711 -0.063825428 0.011297882
-0.080414332 -0.063858435 0.011419773
-0.079666913 -0.064209156 0.011166394
-0.077834949 -0.063683145 0.010827929
-0.076955944 -0.063932627 0.010095209
-0.07535886 -0.063584045 0.0093727708
-0.074869946 -0.064174242 0.0085829198
-0.073799215 -0.064276733 0.0080791116
-0.072044499 -0.063777097 0.006929487
-0.071648948 -0.064484052 0.0056906343
-0.070868112 -0.064862341 0.0052166879
-0.093102641 -0.064083636 0.0059486032
-0.089628831 -0.062504314 0.0076586604
-0.090165496 -0.063716955 0.0090663731
-0.089362487 -0.064002864 0.010246485
-0.086347088 -0.062690355 0.011969477
-0.08542183 -0.062879957 0.012150317
-0.084097192 -0.062776774 0.012718678
-0.082351401 -0.062351778 0.012718678
-0.081565537 -0.062651791 0.012643456
-0.080057293 -0.062397599 0.012688756
-0.07903716 -0.062521927 0.011961043
-0.078281865 -0.062862709 0.011937231
-0.076520421 -0.062393572 0.011714071
-0.076004393 -0.062941141 0.010993779
-0.075338818 -0.063380279 0.0096648037
-0.073495373 -0.062826693 0.0095545053
-0.072473064 -0.062968403 0.0089946091
-0.071604222 -0.0632504 0.0070976913
-0.06980323 -0.062704593 0.006169796
-0.069358297 -0.063379131 0.0051206052
-0.094204895 -0.062803261 0.006088376
-0.091008186 -0.061460074 0.0083809495
-0.089794852 -0.061438583 0.0099522471
-0.090042002 -0.062429123 0.012024224
-0.087009832 -0.061142046 0.01299268
-0.087158971 -0.062085845 0.01343599
-0.085272804 -0.061585914 0.013799012
-0.083954424 -0.061487745 0.013894618
-0.082466908 -0.061261129 0.013650835
-0.081410088 -0.061352529 0.013639092
-0.080018431 -0.061190564 0.013518125
-0.079602979 -0.061781418 0.013387382
-0.077632934 -0.06116534 0.013062805
-0.076674834 -0.061339866 0.012824208
-0.076352984 -0.062036801 0.012243778
-0.074407682 -0.061415862 0.011290103
-0.073598057 -0.061727401 0.010706097
-0.073632672 -0.062768832 0.010164797
-0.071421631 -0.061898749 0.0083247721
-0.070541412 -0.062172092 0.0073733628
-0.069304131 -0.062134739 0.0067947805
-0.095326975 -0.061540201 0.0066773295
-0.091434859 -0.05978433 0.0086105466
-0.092756607 -0.061436195 0.011548042
-0.089887559 -0.060319282 0.012878299
-0.08818806 -0.059967879 0.01360324
-0.087499328 -0.060303587 0.013917357
-0.086359613 -0.060333431 0.014445454
-0.084669732 -0.059974391 0.015329629
-0.084965877 -0.06103183 0.015576631
-0.082207873 -0.059894308 0.015466273
-0.080889404 -0.059787821 0.015322953
-0.080391772 -0.060293827 0.015250713
-0.079246044 -0.060321614 0.015012652
-0.077959865 -0.060241714 0.014058113
-0.07687182 -0.060314812 0.013725102
-0.075087167 -0.059835088 0.013334453
-0.074648082 -0.060429402 0.012363851
-0.074174605 -0.061014593 0.011576325
-0.072027907 -0.060220055 0.011062175
-0.070999876 -0.060349897 0.0098792613
-0.07098753 -0.061362099 0.0078861117
-0.06894514 -0.060624171 0.0073149502
-0.068144873 -0.060971726 0.0055013001
-0.098015539 -0.060503419 0.0052592754
-0.097674757 -0.061046723 0.0081822872
-0.093055852 -0.058896109 0.010284424
-0.092723995 -0.05943846 0.013504893
-0.091826834 -0.059627812 0.014440626
-0.090748884 -0.059703216 0.0147686
-0.089249618 -0.059499744 0.016212732
-0.087447204 -0.05908595 0.01744473
-0.085410781 -0.058500536 0.017758399
-0.084869482 -0.05893714 0.017953783
-0.084327824 -0.059385791 0.017824382
-0.082910821 -0.059222013 0.01754427
-0.081317335 -0.058925606 0.01746881
-0.079681762 -0.058589533 0.017137885
-0.078699261 -0.058730792 0.016643435
-0.07818713 -0.059232678 0.015976846
-0.076626435 -0.058943409 0.015387803
-0.075927913 -0.05931868 0.014960468
-0.074933581 -0.059471097 0.014116228
-0.073223256 -0.059051014 0.013003439
-0.072043546 -0.059052084 0.012035191
-0.071225069 -0.059354227 0.010776043
-0.070027873 -0.059345655 0.0089502037
-0.069547877 -0.059955068 0.008146435
-0.068193965 -0.05981927 0.007019043
-0.066932864 -0.059761491 0.0051033497
-0.098229237 -0.059422623 0.007440716
-0.094485842 -0.057872579 0.0094645023
-0.094247043 -0.058457028 0.011702776
-0.092631295 -0.058191452 0.014238328
-0.089697964 -0.057080522 0.015110046
-0.088441879 -0.057021737 0.015490234
-0.086720258 -0.056657236 0.017300189
-0.084298357 -0.055819184 0.018202722
-0.084238052 -0.05654335 0.018565446
-0.083276063 -0.056673989 0.019207835
-0.082359552 -0.05683969 0.019076705
-0.082301907 -0.057611335 0.018198073
-0.081164509 -0.057638563 0.018622726
-0.079723135 -0.057447556 0.018107295
-0.078997858 -0.057774555 0.017891675
-0.077909797 -0.057842124 0.017395198
-0.077237085 -0.058224883 0.016808808
-0.076090261 -0.058256604 0.016046256
-0.074330918 -0.05781294 0.015363783
-0.073522568 -0.058106542 0.014596552
-0.072727807 -0.058420695 0.013585865
-0.070925355 -0.057922374 0.012117267
-0.070113778 -0.058230087 0.010319233
-0.070384711 -0.059462946 0.0094100535
-0.068153217 -0.058587853 0.0085861087
-0.067328945 -0.058912825 0.006816268
-0.099153541 -0.058041099 0.0074590743
-0.094357543 -0.055915579 0.012183398
-0.091468193 -0.054880917 0.014008969
-0.089059226 -0.054111935 0.015261859
-0.086904615 -0.053479761 0.017583162
-0.086982898 -0.054223105 0.020585805
-0.085751735 -0.054158989 0.022878468
-0.083920471 -0.053709101 0.023570597
-0.083482012 -0.054150496 0.023763627
-0.082644396 -0.054341521 0.024191886
-0.080809318 -0.05387288 0.024307221
-0.079981439 -0.054071959 0.024143159
-0.078459866 -0.053801049 0.024108589
-0.077446237 -0.05387564 0.023932785
-0.076694772 -0.054137487 0.021242887
-0.076778241 -0.055005308 0.02022481
-0.076766521 -0.055830199 0.019673586
-0.076842129 -0.056744959 0.018626422
-0.07451845 -0.055888839 0.016968161
-0.074626908 -0.056858595 0.016384155
-0.073664576 -0.057030641 0.01562652
-0.071161807 -0.055996176 0.014656097
-0.070863932 -0.056691144 0.01326257
-0.070138767 -0.057062052 0.012225866
-0.068502255 -0.05669152 0.0098545253
-0.068081073 -0.057331432 0.009149909
-0.067427114 -0.057794672 0.0073520243
-0.066531263 -0.058063645 0.005810678
-0.10044811 -0.056203108 0.0058400929
-0.095759325 -0.054225162 0.0091002584
-0.092561185 -0.053053364 0.013487667
-0.091317385 -0.052986629 0.016334921
-0.091362312 -0.053675361 0.02237156
-0.089034893 -0.052970123 0.025256008
-0.088024065 -0.053040143 0.026616246
-0.087719783 -0.053543244 0.027475804
-0.085496157 -0.052872624 0.029082805
-0.084450088 -0.052922055 0.029218167
-0.083610013 -0.053103656 0.028636187
-0.082013294 -0.052803081 0.029718578
-0.081214771 -0.053015195 0.029961675
-0.080053262 -0.052993007 0.029718578
-0.078942664 -0.053004358 0.029640585
-0.078084014 -0.053187665 0.028828174
-0.076559305 -0.05291599 0.028770685
-0.075790696 -0.053166606 0.028662324
-0.074213274 -0.052848846 0.02645722
-0.073262684 -0.052974556 0.023411721
-0.073809072 -0.05420354 0.020476431
-0.074376114 -0.055486944 0.018681824
-0.07274159 -0.05514282 0.017025471
-0.072742254 -0.056047313 0.016220212
-0.072165862 -0.056529928 0.01441747
-0.069601096 -0.055444937 0.013492703
-0.068757355 -0.055717167 0.010897756
-0.068139248 -0.056184996 0.0097710192
-0.067545176 -0.056689698 0.0079581439
-0.066418052 -0.056757245 0.0067815483
-0.097733796 -0.052891228 0.0071641803
-0.09551011 -0.052303154 0.011689991
-0.09372659 -0.051944859 0.017585099
-0.093529627 -0.052467838 0.023970008
-0.092322879 -0.052430276 0.028308779
-0.090198882 -0.051864356 0.02965489
-0.089005284 -0.051825862 0.032071829
-0.088354252 -0.052106351 0.032656491
-0.086833499 -0.051874556 0.033954233
-0.086464562 -0.052333813 0.034576327
-0.085401714 -0.05237972 0.035016716
-0.08422552 -0.052356407 0.035404384
-0.082971014 -0.052283108 0.035276115
-0.081822805 -0.05227568 0.035303116
-0.08071705 -0.052295554 0.03514266
-0.078529589 -0.051605158 0.034221202
-0.077664234 -0.051776156 0.033390969
-0.076251693 -0.051582027 0.032816529
-0.075765491 -0.052018099 0.031637698
-0.074652933 -0.052030832 0.030969352
-0.073805399 -0.052231517 0.029654562
-0.072925813 -0.052415427 0.029172122
-0.07067965 -0.051607363 0.024662048
-0.071257755 -0.052868657 0.020519912
-0.072278216 -0.054504886 0.017528713
-0.071119614 -0.054525036 0.016504854
-0.069796033 -0.054417245 0.015001595
-0.069974452 -0.055496976 0.013630003
-0.06762933 -0.054578055 0.011214882
-0.067230023 -0.055224661 0.0097085536
-0.065630063 -0.054890595 0.0077695549
-0.065221809 -0.055559319 0.0055232644
-0.097852081 -0.051201668 0.0080350935
-0.097077996 -0.051394232 0.013603002
-0.096224986 -0.051549099 0.023737609
-0.094859436 -0.051429812 0.029331148
-0.093611076 -0.051371936 0.032645941
-0.092209764 -0.051227648 0.033738583
-0.09199547 -0.051747452 0.033525735
-0.09220735 -0.052523173 0.034455895
-0.090014257 -0.051931299 0.034843683
-0.08922442 -0.05214414 0.035384506
-0.087919638 -0.05205768 0.036067367
-0.086289957 -0.051773977 0.036352128
-0.084685288 -0.05149781 0.037844002
-0.084182255 -0.051893171 0.037844002
-0.082197085 -0.05137318 0.03655678
-0.081648931 -0.051749323 0.036655933
-0.080697313 -0.051876843 0.036855131
-0.079047367 -0.051552631 0.036818296
-0.077615343 -0.051363096 0.035285205
-0.075534344 -0.05073202 0.03394106
-0.07396061 -0.050427686 0.033472747
-0.073111571 -0.050615706 0.031280577
-0.072146066 -0.050727703 0.030546814
-0.070959002 -0.050685003 0.030015498
-0.070509292 -0.051176101 0.0292404
-0.068442151 -0.050490115 0.02458021
-0.069967933 -0.052475948 0.018581599
-0.070438959 -0.053724632 0.016789317
-0.068356447 -0.053035174 0.01501143
-0.068096086 -0.05376007 0.011904746
-0.066884011 -0.053746078 0.010332257
-0.065778442 -0.053818725 0.008358717
-0.065054342 -0.054211956 0.0053895414
-0.099475339 -0.050309367 0.0082223117
-0.098710828 -0.050503217 0.016928107
-0.097222552 -0.050326966 0.028631121
-0.096017063 -0.050294649 0.02993384
-0.095902584 -0.050839923 0.033235043
-0.097130291 -0.052118693 0.033968091
-0.098621115 -0.053571966 0.034436136
-0.098168142 -0.053992476 0.034618109
-0.094912864 -0.05286286 0.035489678
-0.093531653 -0.052761447 0.03589803
-0.092228115 -0.052701779 0.037467629
-0.089979745 -0.052093539 0.038026333
-0.08967226 -0.052607726 0.038432449
-0.089168653 -0.0530192 0.038899779
-0.087683119 -0.052850101 0.038877964
-0.087388366 -0.053404003 0.038890868
-0.084298126 -0.052241094 0.038929671
-0.081393205 -0.051161442 0.039004833
-0.07953874 -0.050720356 0.038095117
-0.077895418 -0.050402917 0.037847131
-0.076575898 -0.050288651 0.03758654
-0.075566724 -0.050377816 0.036139429
-0.074596189 -0.050495882 0.034418643
-0.072078682 -0.049554095 0.033641189
-0.07144665 -0.049899247 0.03245768
-0.069950879 -0.049642555 0.03117606
-0.069385298 -0.050048411 0.029960692
-0.06806685 -0.04991569 0.025080681
-0.067106232 -0.050045323 0.019474179
-0.068536818 -0.051993448 0.016999394
-0.068280317 -0.052707613 0.013857484
-0.067112409 -0.052731175 0.012214482
-0.066135742 -0.052908596 0.009523809
-0.065111607 -0.053053904 0.007140696
-0.10019103 -0.048956979 0.0067196786
-0.10044674 -0.049646091 0.016848534
-0.098200239 -0.04910012 0.029623747
-0.10091525 -0.05105124 0.031213701
-0.10498641 -0.053743042 0.033069968
-0.10020577 -0.051913835 0.035101235
-0.095256396 -0.049951527 0.035320163
-0.090732954 -0.048166875 0.035597235
-0.08712104 -0.046827558 0.036351055
-0.086607151 -0.047140602 0.036747575
-0.085191831 -0.046964727 0.036956072
-0.083050855 -0.046379048 0.038178682
-0.081545718 -0.046137709 0.038876027
-0.081687041 -0.046833903 0.039272785
-0.079835542 -0.046390921 0.039352298
-0.079098195 -0.046592087 0.039431781
-0.078986481 -0.047172479 0.039621234
-0.078677647 -0.047649845 0.039675981
-0.079612307 -0.048904706 0.040004224
-0.082625031 -0.051490963 0.039856464
-0.088602453 -0.05602802 0.039824605
-0.080526069 -0.051680908 0.038941026
-0.076136127 -0.049603838 0.038695484
-0.074801199 -0.049483869 0.037821054
-0.073714033 -0.049526613 0.036880732
-0.072362669 -0.049390394 0.035730839
-0.070374511 -0.048808131 0.03465724
-0.069614753 -0.049072694 0.032355845
-0.068068303 -0.048782285 0.030962378
-0.066883445 -0.048745565 0.028813481
-0.066375352 -0.049209312 0.020308763
-0.067146339 -0.050654255 0.017292768
-0.067252494 -0.051640306 0.013503492
-0.066077359 -0.051660478 0.010659009
-0.065243527 -0.051953178 0.0080688
-0.10181183 -0.048592009 0.014186531
-0.10420636 -0.050306521 0.030142844
-0.11274612 -0.055062059 0.031583488
-0.10076973 -0.0497921 0.03322795
-0.093283653 -0.046641827 0.034014285
-0.089924902 -0.045504168 0.035619497
-0.089527071 -0.045855328 0.035957336
-0.088023521 -0.045641825 0.035802782
-0.087112784 -0.045734212 0.036087841
-0.086589552 -0.046034954 0.036875784
-0.08464694 -0.045579121 0.037130088
-0.083845094 -0.045733687 0.037268162
-0.083140381 -0.045946002 0.037574589
-0.081495002 -0.045637202 0.037942171
-0.080156192 -0.045494057 0.038223475
-0.079340227 -0.045647804 0.038314223
-0.077916123 -0.045451075 0.038322002
-0.077302024 -0.045727957 0.038322002
-0.076191179 -0.045714706 0.03888467
-0.067572042 -0.041130811 0.038988739
-0.066305697 -0.040953517 0.039357305
-0.060075149 -0.037659049 0.039357305
-0.076121397 -0.048440889 0.039146692
-0.078135401 -0.050487489 0.038868427
-0.074728593 -0.049040638 0.037915081
-0.072610423 -0.048406947 0.037725866
-0.071593471 -0.048498806 0.036792874
-0.069509186 -0.047858782 0.035460204
-0.067924619 -0.047547236 0.032991499
-0.067443237 -0.048010439 0.031342775
-0.065672874 -0.047556221 0.029732108
-0.064277731 -0.047362536 0.021066844
-0.065836631 -0.049377471 0.014982522
-0.066051789 -0.050439551 0.012563974
-0.065541469 -0.050976694 0.0096314549
-0.064438574 -0.051064532 0.006016016
-0.10446221 -0.048123043 0.012838334
-0.11361438 -0.052933972 0.022736132
-0.10385481 -0.048943069 0.03126502
-0.095388003 -0.045475677 0.032375067
-0.092917651 -0.044819105 0.033314377
-0.091725573 -0.044770814 0.034021229
-0.0901388 -0.044526394 0.035472721
-0.089493595 -0.044746798 0.035847425
-0.088372841 -0.044731934 0.035957336
-0.08744362 -0.044814855 0.036005467
-0.086836077 -0.045066826 0.037169099
-0.087798715 -0.046150606 0.037063867
-0.085593216 -0.045575608 0.037081122
-0.083400637 -0.044992447 0.037877798
-0.082102545 -0.044882722 0.037972987
-0.081199594 -0.044988964 0.038199216
-0.079297163 -0.044536762 0.038327783
-0.078340277 -0.044610433 0.038192034
-0.077733248 -0.044888213 0.038243532
-0.076784693 -0.044973891 0.038636506
-0.074144185 -0.044056691 0.038688719
-0.067945458 -0.040967114 0.038796157
-0.074838772 -0.04579686 0.038907975
-0.072036259 -0.044749796 0.038719803
-0.071274318 -0.044957645 0.038531899
-0.073365167 -0.046999563 0.038406163
-0.076250181 -0.049623135 0.038218349
-0.072210543 -0.047752135 0.037576586
-0.070201099 -0.047184344 0.03668952
-0.069227748 -0.047305625 0.035771132
-0.066771194 -0.046400324 0.033112764
-0.066023476 -0.046671771 0.031795204
-0.065179817 -0.046883728 0.02991426
-0.063730471 -0.046659809 0.019695163
-0.065573975 -0.048882421 0.014486551
-0.065313652 -0.049589999 0.011995316
-0.064384706 -0.049807034 0.0067834854
-0.10782332 -0.047921475 0.01077193
-0.11397647 -0.051225379 0.017747343
-0.099213734 -0.04509715 0.03054443
-0.096680894 -0.044450987 0.032381922
-0.094906382 -0.044142503 0.033254266
-0.093049742 -0.043788113 0.032949895
-0.092527866 -0.04406089 0.033169478
-0.091645516 -0.044166513 0.034399092
-0.090272665 -0.044035446 0.034504235
-0.090730563 -0.044805214 0.035902113
-0.090844817 -0.045422409 0.035687417
-0.092275724 -0.046721883 0.036036819
-0.088251784 -0.045257326 0.036560774
-0.086132906 -0.044744365 0.037537247
-0.086774439 -0.045670755 0.038203418
-0.085945882 -0.045837801 0.038357496
-0.083671197 -0.045227673 0.038613945
-0.082984433 -0.045470923 0.038665086
-0.081524946 -0.045291636 0.038754016
-0.081088185 -0.045683485 0.038754016
-0.080833755 -0.04619072 0.039055794
-0.10291822 -0.059662737 0.038898468
-0.049346652 -0.029027443 0.039055794
-0.098071553 -0.058550179 0.038920194
-0.073370636 -0.044467051 0.038920194
-0.070445165 -0.043350872 0.038893044
-0.069581322 -0.043488327 0.038880646
-0.068763502 -0.043659367 0.038720429
-0.071400076 -0.046064567 0.038174719
-0.074003324 -0.048526771 0.037447661
-0.069307551 -0.046205033 0.036740988
-0.068074018 -0.046151876 0.034678668
-0.06621968 -0.045668744 0.032761455
-0.065152489 -0.045721047 0.031447053
-0.064369798 -0.045978427 0.027785957
-0.062673725 -0.04558089 0.018009394
-0.064638399 -0.047880292 0.012909979
-0.06435927 -0.048573036 0.0075210631
-0.1117001 -0.047871474 0.0075060725
-0.10973436 -0.047551554 0.014724374
-0.097983651 -0.042936657 0.021170497
-0.097300656 -0.043121882 0.031685203
-0.096747994 -0.043369789 0.033036619
-0.096131377 -0.043594461 0.033257574
-0.098899916 -0.045377608 0.033665776
-0.09614668 -0.044639532 0.033751607
-0.095361799 -0.044808555 0.03405565
-0.094950102 -0.045159195 0.035087645
-0.093537934 -0.045036782 0.036632866
-0.092494793 -0.045091212 0.036891192
-0.09206751 -0.045451049 0.038250685
-0.087611988 -0.043805994 0.039206624
-0.088152021 -0.044648428 0.039516717
-0.087038234 -0.044664357 0.039717108
-0.084664598 -0.044025589 0.03975454
-0.084070265 -0.044307303 0.039889932
-0.083763622 -0.044750426 0.040085167
-0.081909247 -0.044367507 0.039570659
-0.080550842 -0.044246238 0.039405197
-0.080114566 -0.044635259 0.039413214
-0.08394964 -0.047449797 0.039782256
-0.088641398 -0.050838448 0.040175766
-0.075338393 -0.043853689 0.039840877
-0.072115675 -0.042613808 0.03910774
-0.070785306 -0.042471185 0.03851977
-0.069222748 -0.042182613 0.038611084
-0.068486281 -0.04239627 0.038860142
-0.067824639 -0.042663883 0.03824088
-0.067568369 -0.04319945 0.038055152
-0.07178209 -0.046658356 0.037270755
-0.070077546 -0.046322446 0.036126733
-0.067076966 -0.045103479 0.033565938
-0.065141968 -0.044570822 0.03244099
-0.064366214 -0.044826474 0.030972958
-0.062746629 -0.044493061 0.023545682
-0.062295314 -0.044991061 0.014685601
-0.064480811 -0.047448143 0.0099780262
-0.063397802 -0.04754835 0.0059755147
-0.11021664 -0.046024531 0.011695266
-0.099630579 -0.042066246 0.017440677
-0.099047519 -0.04228995 0.024702221
-0.097661376 -0.042171959 0.034011245
-0.096586436 -0.04218718 0.033829153
-0.10233894 -0.045219533 0.034243256
-0.097895227 -0.043764926 0.034846961
-0.096957855 -0.043861888 0.03477475
-0.095727637 -0.043827109 0.036314458
-0.094919853 -0.043987248 0.037964076
-0.094205104 -0.044194989 0.039465606
-0.094211146 -0.044750296 0.040232718
-0.089907013 -0.043246415 0.040681988
-0.088530816 -0.043130398 0.040807635
-0.088718303 -0.043783061 0.041649073
-0.085981235 -0.042990617 0.042032629
-0.085288599 -0.043212891 0.042238533
-0.085085541 -0.043692574 0.041615784
-0.083110407 -0.043262955 0.041935325
-0.082967088 -0.043788187 0.041386694
-0.080226153 -0.042937942 0.040910274
-0.079457961 -0.043134321 0.041068822
-0.078704141 -0.043344311 0.040747523
-0.078155778 -0.043675289 0.041072845
-0.076014601 -0.043112762 0.040759087
-0.075045355 -0.043207932 0.039979398
-0.073296197 -0.042850085 0.039257616
-0.071179628 -0.042262904 0.039265841
-0.069658197 -0.042016055 0.03952986
-0.067200139 -0.041187182 0.039289981
-0.066442601 -0.041390475 0.039006621
-0.06575381 -0.041644081 0.037954807
-0.068635501 -0.044205915 0.036147356
-0.069725804 -0.045682427 0.034570605
-0.067020051 -0.044680033 0.034038752
-0.063932776 -0.043382958 0.032101661
-0.063599892 -0.043941744 0.029209018
-0.061743286 -0.043448981 0.023361653
-0.062352985 -0.044705916 0.013275981
-0.063963182 -0.046742324 0.0075329542
-0.11360157 -0.04568759 0.0072621107
-0.10154215 -0.041286368 0.012830377
-0.10014307 -0.041169927 0.01927197
-0.099236749 -0.041255727 0.02832073
-0.098760404 -0.041524261 0.035118461
-0.10513784 -0.044713795 0.035117805
-0.10318843 -0.044395022 0.035624593
-0.098273985 -0.042778086 0.035771161
-0.096735857 -0.042609841 0.036361188
-0.095364459 -0.042511869 0.039067924
-0.09488415 -0.042813577 0.040771872
-0.095321879 -0.043542095 0.040643126
-0.092439942 -0.042753473 0.041998088
-0.090033256 -0.042167474 0.041892499
-0.088613503 -0.042034611 0.042042673
-0.087066472 -0.041837133 0.043097913
-0.086904101 -0.042308576 0.043363839
-0.085705325 -0.042281296 0.043159127
-0.084054925 -0.042027462 0.043037027
-0.083052225 -0.042094965 0.042893022
-0.082356609 -0.042322148 0.042115539
-0.08014822 -0.041767381 0.041685134
-0.080327034 -0.042458575 0.041906178
-0.079005599 -0.042365324 0.04161036
-0.076936491 -0.041862503 0.041591883
-0.076525144 -0.042260155 0.041201085
-0.075079948 -0.042090274 0.04070428
-0.074093133 -0.04217609 0.040177375
-0.072885565 -0.042136967 0.040396124
-0.071467146 -0.041972768 0.040242463
-0.06811437 -0.040648896 0.039906532
-0.066853404 -0.040550422 0.039523393
-0.064786814 -0.039951868 0.038719535
-0.064274736 -0.040307883 0.036487609
-0.067057833 -0.042778272 0.035509735
-0.068505429 -0.044468436 0.035098821
-0.065399393 -0.043210313 0.033816874
-0.063200243 -0.042516526 0.032215774
-0.062156733 -0.042588875 0.0269759
-0.06098729 -0.042576034 0.015227467
-0.063188724 -0.04496121 0.0088795125
-0.10220103 -0.039991707 0.0097733736
-0.10321723 -0.04083319 0.015579462
-0.10333715 -0.041334856 0.020823449
-0.10339285 -0.04182183 0.033088297
-0.10587464 -0.043312352 0.03595829
-0.10611014 -0.043907642 0.035888791
-0.10150477 -0.042490371 0.036213636
-0.098905616 -0.04188944 0.03639248
-0.096854128 -0.041508913 0.037151009
-0.096368372 -0.041798331 0.041443467
-0.095460109 -0.041909315 0.042360693
-0.094961673 -0.042205188 0.042549849
-0.093394615 -0.042027578 0.0430457
-0.090092793 -0.041054945 0.043106854
-0.087762073 -0.040505573 0.043134034
-0.087244429 -0.040789604 0.044098496
-0.087038845 -0.041228928 0.04415971
-0.085168652 -0.040880952 0.043946028
-0.084612168 -0.041162677 0.043776155
-0.084096983 -0.041472483 0.043541163
-0.081819117 -0.040909559 0.042749852
-0.0807731 -0.040955376 0.042403132
-0.079631649 -0.04095342 0.042562544
-0.079049528 -0.041243233 0.042361498
-0.078377739 -0.041494098 0.041980147
-0.076503381 -0.041106291 0.041809142
-0.07529673 -0.041070942 0.041748583
-0.07380598 -0.04087716 0.040829718
-0.07261429 -0.040845536 0.040851653
-0.072603971 -0.041487984 0.040907681
-0.070892274 -0.041163255 0.040456653
-0.067061551 -0.039577305 0.040094942
-0.06519787 -0.039118722 0.03938815
-0.064337417 -0.039256729 0.036634237
-0.062933616 -0.039062243 0.036291748
-0.064987585 -0.04104479 0.035763472
-0.068001732 -0.043715402 0.034707308
-0.06334506 -0.041462224 0.032829851
-0.062338129 -0.041558754 0.028800994
-0.061325554 -0.041655093 0.023797721
-0.060750671 -0.042058155 0.010203302
-0.10430185 -0.039253384 0.0071080327
-0.10367975 -0.039443381 0.013437092
-0.10532983 -0.040511474 0.018606573
-0.10556681 -0.041053757 0.026780188
-0.10627159 -0.041792195 0.03433913
-0.10606569 -0.042185217 0.036843747
-0.10537644 -0.04239282 0.036698788
-0.099835984 -0.040630922 0.036827505
-0.097691379 -0.040225863 0.037045896
-0.097011916 -0.040421631 0.038796127
-0.095835581 -0.040412594 0.042118609
-0.096187301 -0.041055556 0.043097228
-0.095099486 -0.04109237 0.043097228
-0.092488118 -0.040463552 0.04350543
-0.088360853 -0.039147213 0.043605357
-0.088394523 -0.039664209 0.043629229
-0.088652767 -0.040296711 0.044653803
-0.085570619 -0.039407521 0.044745684
-0.085975349 -0.040121827 0.044512093
-0.084902681 -0.040156674 0.044303268
-0.083332814 -0.039954089 0.044060677
-0.081466928 -0.039601978 0.043692738
-0.080630235 -0.039747301 0.043092906
-0.079183839 -0.03959192 0.043265671
-0.078985184 -0.040064946 0.043082505
-0.077868767 -0.040079512 0.042859942
-0.07619106 -0.0398013 0.042766094
-0.075636119 -0.040110063 0.042692631
-0.074097343 -0.039898571 0.041532695
-0.072932109 -0.039884746 0.041336447
-0.073026955 -0.040570527 0.041172534
-0.071372218 -0.040290765 0.040580034
-0.069960639 -0.040141352 0.040125877
-0.066205435 -0.038619839 0.038479656
-0.064684413 -0.038372107 0.037077457
-0.063586332 -0.03837106 0.036984891
-0.062611796 -0.038445838 0.036625266
-0.06446293 -0.040289331 0.035057217
-0.0661771 -0.042112701 0.033389121
-0.062561542 -0.040549148 0.029727757
-0.061554506 -0.040649202 0.026032239
-0.060242802 -0.040548041 0.016038746
-0.062283162 -0.042743348 0.0074905455
-0.10598844 -0.038748462 0.0094855726
-0.10503751 -0.03881821 0.014931172
-0.109465 -0.040899012 0.021243006
-0.10731927 -0.040542834 0.02961719
-0.10774589 -0.041161351 0.03576386
-0.10769708 -0.041610237 0.037342548
-0.10621783 -0.041510418 0.037294835
-0.099202178 -0.039219465 0.037471265
-0.098240711 -0.039296284 0.037807643
-0.096813247 -0.039186314 0.040597767
-0.096075207 -0.039356109 0.043030798
-0.095454387 -0.039578646 0.044177771
-0.095420629 -0.040053103 0.044601858
-0.089921474 -0.038216628 0.045078665
-0.089265175 -0.038417924 0.04571107
-0.088461608 -0.038560186 0.045993716
-0.086833499 -0.038342062 0.046618402
-0.086637549 -0.038758904 0.046618402
-0.084821947 -0.038452614 0.046251863
-0.083178528 -0.038217165 0.045922279
-0.082896583 -0.038609367 0.045704663
-0.081161797 -0.038326405 0.04571107
-0.080861971 -0.038722634 0.044271171
-0.079992563 -0.03885353 0.044179231
-0.079007417 -0.038931191 0.043972254
-0.076856613 -0.038428307 0.043970197
-0.077119164 -0.039135098 0.043353081
-0.075085692 -0.038680509 0.043420345
-0.073691957 -0.038546562 0.042283058
-0.073754206 -0.039181922 0.042053699
-0.072804444 -0.039291285 0.041837394
-0.071717218 -0.039328799 0.041148305
-0.071109064 -0.039634559 0.039754927
-0.068536602 -0.038837411 0.038635254
-0.066223137 -0.038162485 0.037719488
-0.063871153 -0.037441708 0.037748724
-0.062805787 -0.037463102 0.037115484
-0.06162386 -0.037414487 0.035508871
-0.064354397 -0.039782718 0.03325662
-0.065590493 -0.041297719 0.030458331
-0.062500618 -0.040094737 0.027199298
-0.060602315 -0.03962459 0.020687968
-0.059986226 -0.03999082 0.010007292
-0.10738157 -0.038103137 0.012801886
-0.10485853 -0.0376123 0.016531646
-0.11032093 -0.040006489 0.023391902
-0.10725087 -0.039325319 0.030704051
-0.10660297 -0.039526943 0.037431955
-0.10808066 -0.040530246 0.038194329
-0.10204664 -0.038707346 0.038294196
-0.097163305 -0.037283596 0.038584322
-0.097212963 -0.037741501 0.03972739
-0.096268199 -0.03781965 0.043450564
-0.095808871 -0.038092684 0.045895547
-0.095626965 -0.038484026 0.047176272
-0.090915658 -0.037039712 0.048651904
-0.087215789 -0.035976514 0.048544109
-0.087863073 -0.036702294 0.049012452
-0.086852528 -0.036745302 0.049659938
-0.086410604 -0.037033115 0.049613059
-0.085505255 -0.037127282 0.049533129
-0.084683783 -0.037260864 0.048852354
-0.084208906 -0.037552621 0.048437417
-0.081829414 -0.036991376 0.04741621
-0.080873474 -0.037067007 0.046709388
-0.080215223 -0.03728313 0.046374559
-0.079165466 -0.037320863 0.046144187
-0.07895042 -0.037758898 0.045533031
-0.077785432 -0.037748814 0.044559807
-0.076648787 -0.03775239 0.044186205
-0.07527329 -0.037636645 0.043905139
-0.073614724 -0.037373628 0.042916417
-0.073647261 -0.037974369 0.042398274
-0.073753878 -0.038632985 0.042000294
-0.072114058 -0.038383286 0.041815937
-0.070558444 -0.038170964 0.040071547
-0.069514222 -0.038232822 0.038791955
-0.067878768 -0.037966091 0.038038105
-0.066416219 -0.037788536 0.03813231
-0.064289518 -0.037220247 0.037677258
-0.062257059 -0.036687195 0.035682946
-0.060770825 -0.036462493 0.03375715
-0.064573221 -0.039461412 0.030227393
-0.064141378 -0.039937086 0.026658505
-0.060496151 -0.038391788 0.021944612
-0.05933921 -0.03839596 0.012447655
-0.10589127 -0.036435705 0.015401393
-0.11364315 -0.039528053 0.01955387
-0.10863906 -0.038202748 0.027095497
-0.1075405 -0.038236622 0.035754979
-0.10765218 -0.038706403 0.039222807
-0.10782433 -0.039208844 0.039951771
-0.098761432 -0.036326043 0.041060865
-0.098055959 -0.036485936 0.042142719
-0.097157918 -0.036577098 0.043114036
-0.095557228 -0.036402754 0.048299193
-0.094645217 -0.036489721 0.050222963
-0.090074137 -0.035150886 0.050840497
-0.08692354 -0.034340166 0.050617546
-0.08632233 -0.034528933 0.050261229
-0.084872976 -0.034378927 0.050398946
-0.084743671 -0.034766633 0.051183939
-0.085240476 -0.035424612 0.051830709
-0.083839975 -0.035301041 0.051669985
-0.081156671 -0.034626849 0.050946236
-0.079635963 -0.034437172 0.050339371
-0.077666558 -0.034045614 0.049661636
-0.07870549 -0.034980219 0.049440354
-0.080228619 -0.036159378 0.048903644
-0.078770928 -0.036009569 0.048145801
-0.078785159 -0.036538046 0.047551274
-0.077172942 -0.036316678 0.04670772
-0.0762344 -0.036410458 0.045448124
-0.075063422 -0.036394387 0.044621557
-0.073423624 -0.036147013 0.043843955
-0.074329667 -0.037164833 0.043278545
-0.07325729 -0.037210055 0.042803079
-0.071087323 -0.036690231 0.042300135
-0.071125045 -0.037311498 0.040661216
-0.068906941 -0.036750369 0.038862288
-0.067996643 -0.036879536 0.038569212
-0.066787601 -0.036848329 0.038454384
-0.066784129 -0.037492841 0.038085699
-0.062308293 -0.035604738 0.036037564
-0.061096881 -0.035547275 0.033764035
-0.060674883 -0.035955489 0.030443937
-0.065426067 -0.039502531 0.02695033
-0.06138302 -0.037774168 0.023841947
-0.05934573 -0.037236538 0.014684558
-0.11244066 -0.03748022 0.017103016
-0.11470871 -0.038651846 0.023338974
-0.10685934 -0.036402635 0.031397015
-0.10806498 -0.037222382 0.038238674
-0.10891777 -0.037937649 0.041408449
-0.10195612 -0.035916362 0.043491095
-0.095346384 -0.033973999 0.044175923
-0.093397029 -0.033666372 0.044801712
-0.09396489 -0.034269549 0.049455285
-0.091904081 -0.033916984 0.053464025
-0.08954747 -0.03344544 0.055331469
-0.088022634 -0.033276848 0.055331469
-0.087180443 -0.033365354 0.05522871
-0.084845021 -0.032877445 0.054828554
-0.084093802 -0.032998834 0.055335253
-0.083269224 -0.033094179 0.054963022
-0.08169613 -0.032890651 0.057022691
-0.080817975 -0.032965228 0.056921482
-0.080442496 -0.033249564 0.056844324
-0.079489924 -0.033299834 0.054852843
-0.07884457 -0.033481941 0.054331541
-0.077781349 -0.03348919 0.051758826
-0.076955855 -0.033600442 0.051458985
-0.078527287 -0.034776367 0.050723195
-0.077612184 -0.034869242 0.050019562
-0.076711245 -0.034971304 0.048065454
-0.075747073 -0.035047151 0.047541171
-0.074444234 -0.03496623 0.045917958
-0.07393609 -0.035261828 0.045137942
-0.074233361 -0.035956785 0.043829948
-0.072881706 -0.035862427 0.043265253
-0.072021112 -0.036010556 0.042634159
-0.070941225 -0.036052097 0.040536731
-0.06916742 -0.035736501 0.039478242
-0.068149671 -0.035807453 0.039172888
-0.067907341 -0.036295302 0.038778216
-0.067038655 -0.036459621 0.038471162
-0.062906832 -0.034823425 0.036193937
-0.061229881 -0.034511387 0.033719122
-0.059931189 -0.034404941 0.029801816
-0.062562451 -0.036593132 0.027250111
-0.062168829 -0.037062187 0.024355888
-0.059536923 -0.036189109 0.021066517
-0.11441709 -0.036516093 0.011624753
-0.11819354 -0.038126945 0.018029451
-0.10887613 -0.035503086 0.025081575
-0.10703181 -0.035285212 0.035426527
-0.10925245 -0.036417484 0.041339725
-0.10451617 -0.035230171 0.044507951
-0.097004764 -0.033069804 0.046629041
-0.09534616 -0.032877989 0.050269425
-0.093032964 -0.032453358 0.054561406
-0.09090849 -0.032085352 0.056565583
-0.089678921 -0.032028187 0.058397561
-0.087422095 -0.031598348 0.059239239
-0.086328268 -0.031583514 0.058421552
-0.085447833 -0.031647347 0.058398038
-0.083969876 -0.031488705 0.058393508
-0.083578765 -0.031738773 0.058483243
-0.081691764 -0.03141991 0.058889985
-0.080723546 -0.031450734 0.059237391
-0.08028084 -0.031689804 0.059002906
-0.077584527 -0.03103381 0.058975011
-0.077396207 -0.031376842 0.058579803
-0.077964537 -0.03204022 0.058577001
-0.077107348 -0.032128062 0.058100104
-0.07708779 -0.032572307 0.058439493
-0.076076537 -0.032604232 0.057862043
-0.075270034 -0.032726102 0.056559682
-0.075480893 -0.033300392 0.051611632
-0.07458666 -0.033397011 0.049329877
-0.072594114 -0.032997325 0.048190832
-0.073235676 -0.033801083 0.046355098
-0.073574178 -0.034487896 0.045781791
-0.07342755 -0.0349655 0.044089168
-0.071972117 -0.034825217 0.042508334
-0.07007695 -0.034464072 0.040809095
-0.069076598 -0.034538299 0.040041149
-0.068483718 -0.034822229 0.039390922
-0.068260275 -0.035307039 0.038256615
-0.06792222 -0.035748538 0.037777752
-0.064458251 -0.034531206 0.035836548
-0.061133318 -0.033345446 0.033698827
-0.060397435 -0.033554129 0.029155791
-0.059416927 -0.033632223 0.026672781
-0.064991035 -0.037494831 0.024852782
-0.060433924 -0.035549369 0.022290766
-0.058846965 -0.035308179 0.0059184134
-0.11866578 -0.036609657 0.012922645
-0.11851195 -0.036955338 0.021337956
-0.10821355 -0.034110792 0.02922976
-0.10845841 -0.034563672 0.040817767
-0.10418262 -0.033569954 0.04572463
-0.099431373 -0.032398988 0.048147708
-0.0957257 -0.031545971 0.055017531
-0.092593826 -0.030864608 0.057139128
-0.091551155 -0.030871902 0.058435678
-0.090107128 -0.030742431 0.058985144
-0.089347586 -0.030846192 0.05959785
-0.087763339 -0.030664301 0.060377091
-0.086606823 -0.030629242 0.06020996
-0.086448975 -0.030950869 0.060025036
-0.085317776 -0.030927693 0.060027838
-0.084466346 -0.031006632 0.060210854
-0.08297921 -0.030851243 0.060215801
-0.081815332 -0.030813565 0.060450345
-0.080293968 -0.030638488 0.060326904
-0.07899946 -0.030546458 0.060158998
-0.078211837 -0.030650584 0.059674859
-0.076821491 -0.030518126 0.059577316
-0.073189236 -0.029478999 0.059581578
-0.072012208 -0.029413437 0.059674859
-0.073407091 -0.03041151 0.060866505
-0.074187651 -0.031180317 0.059844881
-0.073596433 -0.031386714 0.05941388
-0.072576083 -0.031413529 0.056126952
-0.07100179 -0.031197755 0.050620049
-0.07113488 -0.0317371 0.049322158
-0.073342212 -0.033233188 0.047305256
-0.073472165 -0.033820521 0.045245886
-0.071485765 -0.033436891 0.043369561
-0.070877433 -0.033695828 0.041148067
-0.069929324 -0.033799175 0.040308416
-0.067319505 -0.033089247 0.038865507
-0.06925302 -0.03462651 0.038113803
-0.068550743 -0.034876693 0.038002819
-0.066080086 -0.034220044 0.035498589
-0.062135696 -0.032762457 0.032278836
-0.06012933 -0.032291677 0.029086202
-0.058891095 -0.03222343 0.026360035
-0.061013963 -0.034027018 0.025330424
-0.060846314 -0.034598883 0.023160785
-0.058997393 -0.03421849 0.0087230504
-0.11778762 -0.035085674 0.016105175
-0.11548937 -0.034770995 0.02624613
-0.10608041 -0.03228534 0.036743492
-0.10148522 -0.031226221 0.045476854
-0.099423215 -0.030931666 0.051239908
-0.095786892 -0.030135201 0.056771904
-0.094420061 -0.030042747 0.058400661
-0.093090087 -0.029960027 0.05923143
-0.091662735 -0.029843682 0.05956009
-0.090714104 -0.029882295 0.060827136
-0.090273395 -0.030091131 0.060848296
-0.089634597 -0.030238176 0.061956763
-0.088383012 -0.030179566 0.061526716
-0.088673636 -0.030652614 0.061380208
-0.086253785 -0.030188825 0.061943352
-0.086349994 -0.030605061 0.061672926
-0.085605174 -0.030730063 0.061681539
-0.083537847 -0.030377399 0.062206447
-0.081730969 -0.03011141 0.061991751
-0.080822594 -0.030173769 0.061277419
-0.079040177 -0.029907094 0.061234981
-0.078352466 -0.030053003 0.061115652
-0.077183463 -0.030015793 0.060924739
-0.075816333 -0.029899398 0.061217606
-0.074158445 -0.029663377 0.061769307
-0.072756849 -0.029524518 0.061594695
-0.071781233 -0.029556978 0.060924739
-0.071974948 -0.030079082 0.060632706
-0.071735047 -0.030433051 0.058100969
-0.070050634 -0.03017566 0.055105388
-0.07151521 -0.031287905 0.050700575
-0.071964979 -0.031984434 0.047201097
-0.071252957 -0.032178756 0.045035899
-0.070824675 -0.032509688 0.041904151
-0.068181276 -0.031817928 0.041090012
-0.068296634 -0.032411963 0.039606512
-0.070031807 -0.033808459 0.038897157
-0.068370506 -0.033585515 0.038572639
-0.066423588 -0.033211794 0.036429435
-0.064552277 -0.03286298 0.031957686
-0.061080754 -0.031671502 0.029426724
-0.059620257 -0.031497493 0.027008146
-0.058416773 -0.031455185 0.026112914
-0.062248055 -0.034175403 0.023993641
-0.059286542 -0.033200465 0.0075142384
-0.12047815 -0.034605429 0.019768536
-0.1070508 -0.031079264 0.030011058
-0.1018104 -0.02987914 0.042592883
-0.099709332 -0.029584087 0.051607072
-0.097601756 -0.029280527 0.057031363
-0.094895564 -0.028788541 0.059179008
-0.094643489 -0.029038344 0.060466319
-0.093046874 -0.028876618 0.061039656
-0.092608988 -0.029074917 0.061527461
-0.093519613 -0.02970623 0.061715841
-0.092826791 -0.029837184 0.061861157
-0.092981011 -0.030246835 0.062384635
-0.093884006 -0.030913025 0.06225583
-0.092794068 -0.030931357 0.062319249
-0.09251985 -0.031225448 0.062640548
-0.09198796 -0.031438924 0.062666595
-0.089490011 -0.030977312 0.062777728
-0.088844731 -0.031153347 0.062904179
-0.087681264 -0.031149924 0.062716126
-0.085533671 -0.030792123 0.062482536
-0.082892343 -0.030244505 0.062311441
-0.080587409 -0.029806301 0.062311441
-0.078093171 -0.029284939 0.062264502
-0.076811805 -0.029210124 0.062530965
-0.075270623 -0.029032953 0.063048452
-0.073513821 -0.028766278 0.062870741
-0.072355948 -0.028729567 0.062731773
-0.070837848 -0.028546594 0.062172979
-0.070003234 -0.028637687 0.062200516
-0.070115693 -0.029124981 0.061618
-0.070146345 -0.029592991 0.0584324
-0.071151644 -0.030493563 0.051695049
-0.071411826 -0.031098699 0.047740579
-0.069367602 -0.030703692 0.043280274
-0.068595551 -0.030867998 0.041874886
-0.068661362 -0.031421304 0.040280879
-0.069155402 -0.032193035 0.039042562
-0.068695426 -0.032539941 0.037603378
-0.06596221 -0.031803209 0.036328763
-0.065181583 -0.031998232 0.031308442
-0.063694969 -0.031847484 0.029660136
-0.060294516 -0.030716075 0.027391881
-0.058402862 -0.030324563 0.026019514
-0.063260727 -0.033490971 0.024412185
-0.059378743 -0.032064524 0.0056394637
-0.12075271 -0.033048108 0.0080865026
-0.12054659 -0.033342674 0.027745306
-0.10498872 -0.029351687 0.038410902
-0.10131597 -0.028632773 0.050602704
-0.099528305 -0.028436659 0.058050364
-0.096117087 -0.027767159 0.059279084
-0.095809139 -0.027989186 0.061410397
-0.094583511 -0.027945129 0.061720699
-0.094686836 -0.028297216 0.062043279
-0.096193284 -0.029081691 0.06175819
-0.09740334 -0.029793965 0.061965197
-0.096145734 -0.029759392 0.061661363
-0.093666852 -0.029341424 0.062267154
-0.091678441 -0.029068774 0.062368751
-0.090067647 -0.028910602 0.062392056
-0.089051262 -0.028941659 0.062429696
-0.087115802 -0.028671023 0.062423259
-0.0861843 -0.0287281 0.06275019
-0.086556673 -0.029226929 0.062770516
-0.08397498 -0.028728282 0.062736243
-0.083437838 -0.028925117 0.062520176
-0.083435446 -0.029315157 0.062493563
-0.082213193 -0.029281411 0.062551349
-0.082763456 -0.029886805 0.062476754
-0.080366977 -0.029430162 0.062768787
-0.077041872 -0.028615553 0.063068569
-0.075202547 -0.02833719 0.06311354
-0.072770797 -0.02782413 0.06319508
-0.071460225 -0.027730832 0.063169509
-0.070140347 -0.027631044 0.063126385
-0.069148131 -0.027659254 0.062797964
-0.068619393 -0.027876629 0.061743855
-0.069420241 -0.028649623 0.059811443
-0.068531044 -0.028738823 0.0521622
-0.069273695 -0.029526494 0.046884865
-0.068521202 -0.029692519 0.043623865
-0.069285281 -0.030532496 0.040906012
-0.069782808 -0.031281948 0.038641214
-0.068947665 -0.031449813 0.0382469
-0.066244036 -0.030756159 0.035704732
-0.064840831 -0.030652029 0.031851709
-0.064214736 -0.030918207 0.029819846
-0.060862642 -0.029857146 0.027629524
-0.059513565 -0.029756783 0.025779784
-0.060764473 -0.030977968 0.024122894
-0.1209057 -0.031817291 0.0094065666
-0.11151987 -0.029659539 0.031031817
-0.10334587 -0.027781149 0.044606
-0.098805033 -0.026849195 0.057091713
-0.097740874 -0.026851889 0.05988735
-0.096927427 -0.026924284 0.060519934
-0.098214813 -0.027588431 0.061077982
-0.096617788 -0.027448235 0.061238617
-0.099770799 -0.028669769 0.061326593
-0.097844914 -0.028443288 0.061422437
-0.094856679 -0.027899023 0.061305851
-0.093557633 -0.027844533 0.061308086
-0.092108719 -0.027743591 0.061661869
-0.090901986 -0.02771402 0.061661869
-0.089677647 -0.027678287 0.061922282
-0.087958433 -0.02748701 0.061997563
-0.087504916 -0.027691428 0.06213209
-0.086284079 -0.027655153 0.062209159
-0.08441592 -0.027407765 0.062375993
-0.083894849 -0.02759699 0.062518954
-0.083259866 -0.027753288 0.06282115
-0.081854105 -0.027653415 0.062903196
-0.080547519 -0.027584767 0.063071519
-0.079668924 -0.027662821 0.062813252
-0.078779571 -0.027739285 0.063455164
-0.080387928 -0.028709974 0.063412189
-0.0783531 -0.028388804 0.06336394
-0.074635282 -0.027439443 0.063468009
-0.072508879 -0.02705555 0.063502789
-0.070792854 -0.026815474 0.063823193
-0.069228046 -0.026626172 0.063923419
-0.068178192 -0.026632106 0.063508272
-0.067063019 -0.02661231 0.062126398
-0.067188464 -0.027092122 0.059182078
-0.066915907 -0.027424552 0.04997769
-0.065760061 -0.027400026 0.046923876
-0.069414288 -0.029412836 0.043815345
-0.069885053 -0.030122867 0.041392982
-0.0680888 -0.02986351 0.039645374
-0.066383459 -0.029635474 0.035738945
-0.065067478 -0.029576126 0.032720923
-0.064985111 -0.030085698 0.030462384
-0.061030108 -0.028787788 0.028187573
-0.058917556 -0.02832575 0.025840074
-0.058853984 -0.028849993 0.015614152
-0.11712705 -0.02958999 0.016236126
-0.10604568 -0.027075492 0.043066382
-0.10251402 -0.026455231 0.054566354
-0.097599596 -0.025460763 0.059735686
-0.098299548 -0.025925156 0.060822159
-0.098507412 -0.026268642 0.061345547
-0.097882882 -0.026395382 0.061536759
-0.10142125 -0.02766034 0.061908513
-0.097570561 -0.026916016 0.061726332
-0.095428139 -0.026631108 0.061625808
-0.094619945 -0.026716219 0.061625808
-0.093238428 -0.026639551 0.061641663
-0.092313096 -0.026692944 0.061672121
-0.090908229 -0.026607286 0.061692983
