ply
format ascii 1.0
comment PCL generated
element vertex 1273
property float x
property float y
property float z
element camera 0
property float view_px
property float view_py
property float view_pz
property float x_axisx
property float x_axisy
property float x_axisz
property float y_axisx
property float y_axisy
property float y_axisz
property float z_axisx
property float z_axisy
property float z_axisz
property float focal
property float scalex
property float scaley
property float centerx
property float centery
property int viewportx
property int viewporty
property float k1
property float k2
end_header
0.028138703 -0.099006549 0.043111265
0.032302637 -0.10959823 0.034700185
0.032734085 -0.10723235 0.028039902
0.032156147 -0.10182779 0.016189724
0.032118361 -0.098427236 0.0054511428
-0.019627512 -0.10249922 0.0095273256
-0.019508988 -0.10787322 0.022037834
-0.017929487 -0.10533573 0.028773338
-0.015889307 -0.099572986 0.036128163
-0.014088165 -0.094591968 0.045270056
-0.012989517 -0.093924202 0.050774723
-0.01179047 -0.092358686 0.052778244
-0.010962847 -0.093682505 0.053512216
-0.0098835025 -0.092904918 0.053611338
-0.0090500852 -0.094523109 0.053603709
-0.0083856834 -0.098531775 0.052842408
-0.0071432637 -0.095923826 0.05238089
-0.0060668499 -0.095047317 0.052149832
-0.0050598062 -0.095124356 0.051832318
-0.0040559331 -0.095314428 0.051332712
-0.0030284191 -0.094890468 0.051105559
-0.0020239321 -0.095124811 0.051240385
-0.0010121567 -0.09514273 0.0513542
0 -0.094864689 0.051350862
0.0010217042 -0.096040197 0.051543832
0.0020103967 -0.094488643 0.05144456
0.0030362143 -0.095134713 0.05194208
0.0040494073 -0.095161073 0.052626371
0.0050175106 -0.094329201 0.052568853
0.0059961579 -0.093939804 0.052568853
0.0070679816 -0.094912902 0.052855581
0.0080874711 -0.095027789 0.052626371
0.009149584 -0.095562324 0.052707464
0.010030297 -0.094284788 0.052633077
0.010986102 -0.093881235 0.052447528
0.012130406 -0.095021516 0.052532136
0.013077454 -0.094560049 0.052221686
0.014070409 -0.094472751 0.052110642
0.014956347 -0.093726441 0.051919937
0.01602824 -0.094165914 0.051919937
0.017093971 -0.0945196 0.051925629
0.018305102 -0.095593311 0.052442878
0.019232702 -0.095151253 0.053533435
0.020643277 -0.097023405 0.053987205
0.021547263 -0.096449651 0.054438323
0.021853538 -0.093374208 0.055009246
0.022395547 -0.09152963 0.054840535
0.023545422 -0.092219569 0.053934813
0.024323778 -0.091457404 0.051017195
0.025731789 -0.093030311 0.048620373
0.027597839 -0.096081369 0.046055436
0.032132782 -0.10787435 0.037602752
0.033741277 -0.10936827 0.031041205
0.032951441 -0.10324785 0.022253245
0.032526869 -0.09862987 0.0070952177
-0.02021439 -0.10444101 0.010346532
-0.019217646 -0.10513183 0.024347991
-0.016611405 -0.096553788 0.032724828
-0.015462318 -0.095866367 0.042377234
-0.013991296 -0.092942186 0.049195379
-0.012828059 -0.091769956 0.051698416
-0.011811742 -0.091541 0.053353637
-0.010999016 -0.092991672 0.053888589
-0.0099260267 -0.092312045 0.053847551
-0.0094065852 -0.097201377 0.053406686
-0.008130257 -0.094514236 0.053055376
-0.0070868027 -0.09415324 0.052394152
-0.0061003929 -0.094556093 0.05225566
-0.005078997 -0.094469346 0.051857829
-0.004036956 -0.093859233 0.051604807
-0.0030370303 -0.094147943 0.051578403
-0.0020243556 -0.094132528 0.051767051
-0.0010064445 -0.093599342 0.051966757
0 -0.094431616 0.051944524
0.0010071698 -0.093666799 0.051956087
0.0020354777 -0.09464971 0.052321345
0.0030500868 -0.094552688 0.052595675
0.0040217242 -0.093505085 0.053321898
0.0050267139 -0.093496881 0.053327769
0.0061188876 -0.094842762 0.053322285
0.0070436504 -0.093579926 0.053559422
0.0081104338 -0.094283797 0.053021967
0.009003019 -0.09303119 0.053344518
0.010159281 -0.094481312 0.053131014
0.011203735 -0.094722487 0.052886903
0.012133663 -0.094035886 0.052855641
0.013188561 -0.094348937 0.052771598
0.014116468 -0.093773685 0.052702695
0.015159685 -0.09399005 0.052438378
0.015802529 -0.091852203 0.052595794
0.016888078 -0.092387728 0.052347749
0.018006751 -0.093034886 0.052110642
0.019312428 -0.094529256 0.052880466
0.020295052 -0.094371989 0.053334862
0.021820534 -0.096633792 0.054766655
0.022361303 -0.094527327 0.055340797
0.022992795 -0.09297087 0.054980099
0.023309836 -0.090325616 0.054624736
0.024710318 -0.091922387 0.053363621
0.025285376 -0.09044385 0.050286502
0.026750309 -0.092139959 0.046936721
0.030370401 -0.10087312 0.043364674
0.032860588 -0.10538051 0.034727395
0.033332936 -0.1033321 0.025133193
0.032552443 -0.09765733 0.0085445642
-0.021398464 -0.10936993 0.013098538
-0.018517243 -0.10021096 0.026082486
-0.016878733 -0.097052716 0.035473734
-0.015164571 -0.093009368 0.045651585
-0.013800373 -0.090688169 0.050298125
-0.012814123 -0.090684563 0.052045137
-0.011941022 -0.091547839 0.053420186
-0.011020513 -0.092171565 0.05381012
-0.010233886 -0.094151743 0.053881913
-0.009249663 -0.094552115 0.053552151
-0.0081381993 -0.093589291 0.052508622
-0.0070890887 -0.093170874 0.052115977
-0.006025455 -0.092390314 0.052223265
-0.0050473809 -0.092871815 0.052096993
-0.0040622023 -0.093430646 0.051971853
-0.0030438148 -0.093343653 0.051931083
-0.0020337156 -0.09355092 0.052043259
-0.0010133601 -0.09322913 0.051986486
0 -0.093490869 0.052248329
0.0010099739 -0.092917606 0.052345216
0.0020371017 -0.093706675 0.052897215
0.0030534288 -0.09363848 0.053145528
0.0040493836 -0.093135826 0.053249478
0.0050476831 -0.092877373 0.053280681
0.0060555642 -0.092851982 0.05338183
0.0070412662 -0.092542358 0.053405762
0.0080535626 -0.092615962 0.053159773
0.0090157157 -0.092160642 0.053168058
0.010123869 -0.093139596 0.053242594
0.011135539 -0.093133599 0.053238988
0.012162234 -0.093243785 0.053216308
0.013206168 -0.09345904 0.053121328
0.01420985 -0.093379013 0.053016365
0.015193575 -0.093187258 0.053004414
0.016083131 -0.092478007 0.052861124
0.017069139 -0.092374161 0.052451879
0.018156076 -0.092797719 0.052301407
0.019207329 -0.093003906 0.05308181
0.020120405 -0.092553854 0.05326736
0.021339342 -0.093486644 0.053955078
0.023189383 -0.096973784 0.055021018
0.023030737 -0.09212295 0.054598838
0.023892442 -0.091587692 0.055110693
0.024718262 -0.090963207 0.053962708
0.025497457 -0.09022177 0.051571637
0.02653899 -0.09042915 0.050280422
0.028760394 -0.094498441 0.043909609
0.031968638 -0.10141775 0.036109149
0.033987638 -0.10422875 0.026062548
0.032865658 -0.097536787 0.012214214
-0.021308424 -0.10205614 0.0072928965
-0.021642338 -0.10941405 0.021957397
-0.018334063 -0.098141156 0.028608739
-0.016857961 -0.095879652 0.038644224
-0.014797634 -0.089772321 0.047689259
-0.013987537 -0.090918995 0.05132091
-0.01307517 -0.091526188 0.053038418
-0.011839601 -0.089783646 0.053930938
-0.011178968 -0.092480555 0.054028124
-0.01033871 -0.094082259 0.054201722
-0.0090980278 -0.091991171 0.053787977
-0.0082418881 -0.093751475 0.053102881
-0.0071573737 -0.093045861 0.052666277
-0.0061017522 -0.092543237 0.052773118
-0.0050568422 -0.092034526 0.052571833
-0.0040830849 -0.092890181 0.052539945
-0.003048952 -0.092484877 0.052434355
-0.0020607309 -0.093763262 0.052366316
-0.0010149512 -0.092360556 0.052522689
0 -0.092603028 0.052779198
0.0010125318 -0.092140391 0.052543938
0.0020047219 -0.091214843 0.053036481
0.0030349803 -0.092061073 0.053607553
0.0041065523 -0.093424067 0.053801924
0.0050166217 -0.091302514 0.053687066
0.0060973973 -0.092477195 0.053747684
0.0072157946 -0.093805328 0.053747684
0.0080512734 -0.091583237 0.053258747
0.0090882313 -0.091892116 0.053264022
0.010107724 -0.091980286 0.053107888
0.01112576 -0.092040382 0.053018689
0.012154473 -0.092171416 0.053026259
0.013116037 -0.091812253 0.052776575
0.01419488 -0.092266716 0.052611828
0.015224672 -0.092363015 0.052605093
0.016094986 -0.091540232 0.052570879
0.016908104 -0.090508088 0.052397162
0.018202059 -0.092021517 0.052379131
0.019131891 -0.091631688 0.052671194
0.020090513 -0.091411829 0.053320855
0.021494497 -0.093142815 0.053937644
0.022391504 -0.092619397 0.054396659
0.023618573 -0.093447402 0.054938555
0.023968089 -0.090879001 0.055161983
0.024546459 -0.089349113 0.054800361
0.02534542 -0.088708967 0.05253607
0.026460998 -0.089183368 0.05046761
0.027683089 -0.089970037 0.04507497
0.03051082 -0.095740855 0.037213773
0.033721477 -0.10228848 0.026477635
0.032705873 -0.096007563 0.018151045
-0.021467756 -0.10168937 0.0086199641
-0.021436891 -0.10718445 0.023563713
-0.018629553 -0.098627038 0.030210108
-0.016274095 -0.091541789 0.04578045
-0.015090633 -0.090543799 0.05119127
-0.013990186 -0.089936912 0.052710623
-0.012866181 -0.089073561 0.053406239
-0.011957218 -0.089679137 0.053574622
-0.011415295 -0.093397871 0.054278553
-0.010072757 -0.090654813 0.054128706
-0.0091444049 -0.091444053 0.053607643
-0.0081399158 -0.09157405 0.053195924
-0.0070727854 -0.090935811 0.052596986
-0.0061185304 -0.091777958 0.052773178
-0.0050741425 -0.091334566 0.052595347
-0.0040482944 -0.091086626 0.052595347
-0.0030716804 -0.092150412 0.052564055
-0.0020455194 -0.092048369 0.052426964
-0.0010213775 -0.091923974 0.052730799
0 -0.092539586 0.052963674
0.0010199253 -0.091793284 0.052670181
0.0020268841 -0.091209784 0.052915931
0.0030714991 -0.092144974 0.05347681
0.0040511987 -0.091151968 0.053574324
0.0050747478 -0.091345459 0.053351432
0.0061286944 -0.091930412 0.053396374
0.0070287446 -0.090369575 0.053553581
0.0081253983 -0.091410726 0.053347528
0.0091155525 -0.091155522 0.053968936
0.010179817 -0.091618352 0.05302909
0.011118569 -0.090970114 0.052921534
0.012136475 -0.091023564 0.052825451
0.013196365 -0.091359451 0.052809596
0.014368596 -0.092369549 0.052778602
0.015192212 -0.091153264 0.052689373
0.016037103 -0.090208702 0.052752823
0.017186707 -0.09098845 0.052567631
0.018238168 -0.091190837 0.052385598
0.019080408 -0.090380877 0.05286935
0.020201888 -0.09090849 0.053013623
0.021341277 -0.09146262 0.053997755
0.022393124 -0.091608234 0.055021882
0.024212195 -0.094743371 0.055196881
0.0243263 -0.091223627 0.055152386
0.024729183 -0.089025065 0.053912342
0.02596394 -0.089875177 0.052731961
0.026581651 -0.088605501 0.051983237
0.02773221 -0.089139245 0.047250628
0.030282235 -0.093979351 0.039381415
0.031742554 -0.095227666 0.028623939
0.033114314 -0.096138328 0.019335836
-0.021996928 -0.10303824 0.0089989603
-0.021780793 -0.10769392 0.023945749
-0.01840701 -0.096366107 0.033263832
-0.016173579 -0.08996553 0.048600674
-0.01513333 -0.089791089 0.05169186
-0.013925852 -0.088528633 0.052965373
-0.012921999 -0.088465996 0.053899169
-0.012192438 -0.09042725 0.054231346
-0.01137152 -0.092005938 0.054316998
-0.010214985 -0.09091337 0.054277539
-0.0091629839 -0.090611733 0.054127544
-0.0080833361 -0.089927115 0.053532511
-0.007141022 -0.090792999 0.052688867
-0.0061153108 -0.090710446 0.052890301
-0.0050808331 -0.090438835 0.052823246
-0.0041027856 -0.09128698 0.05283463
-0.0030757033 -0.09124586 0.05237332
-0.0020374274 -0.090665519 0.052316397
-0.001015818 -0.090407804 0.052990675
0 -0.089944832 0.052966207
0.0010084948 -0.089756034 0.052948564
0.0020521949 -0.091322675 0.053162992
0.003068622 -0.091035791 0.053460002
0.0040490441 -0.090091228 0.053377807
0.0051077637 -0.090918198 0.053072929
0.0060579414 -0.089859463 0.053490222
0.0070868009 -0.090103611 0.053613991
0.0080586476 -0.089652456 0.053865105
0.0091602607 -0.0905848 0.054102838
0.010178078 -0.090584889 0.053585827
0.011117962 -0.089954421 0.052951574
0.012161948 -0.09020111 0.052975357
0.013182295 -0.090248019 0.052933633
0.014288289 -0.090832695 0.052995384
0.015095226 -0.089565009 0.052867115
0.016365165 -0.091031231 0.052931935
0.017051103 -0.089267537 0.052748919
0.018186031 -0.08991982 0.052418947
0.019159725 -0.089748189 0.05317077
0.020015802 -0.08907032 0.053676069
0.021280492 -0.090188749 0.053941131
0.02242652 -0.090725467 0.054851264
0.023413483 -0.090599999 0.055086493
0.024864383 -0.09220542 0.05523333
0.025102153 -0.089363664 0.053998739
0.025610643 -0.087667197 0.052935243
0.026879938 -0.088604242 0.05169642
0.027537752 -0.08753071 0.04864791
0.029708453 -0.091174215 0.040240854
0.032400403 -0.096121192 0.03174153
0.0331655 -0.095217079 0.019679427
-0.022085063 -0.10228872 0.0083949566
-0.021665359 -0.10591953 0.024355143
-0.017853111 -0.0924161 0.03980881
-0.016220991 -0.08921545 0.049110681
-0.015072506 -0.088425368 0.052135378
-0.013919842 -0.087496154 0.053303689
-0.013171284 -0.089159466 0.054106086
-0.01224691 -0.089810677 0.05457139
-0.011255089 -0.090040714 0.054632872
-0.010322134 -0.090834782 0.054574937
-0.0090545937 -0.088533804 0.053938657
-0.008147249 -0.089619741 0.053477943
-0.0070969691 -0.089219041 0.052516222
-0.0060771848 -0.089132048 0.052531302
-0.0051347152 -0.09037099 0.052781761
-0.0041090967 -0.090400122 0.052873254
-0.0030764404 -0.090242252 0.052368969
-0.0020388837 -0.089710884 0.052101672
-0.0010291984 -0.090569466 0.052328706
0 -0.089802563 0.052472144
0.0010324677 -0.090857156 0.052661687
0.0020417897 -0.089838751 0.052804142
0.0030539196 -0.089581646 0.053207517
0.0041207196 -0.090655833 0.053186566
0.0050832587 -0.089465357 0.053268254
0.0060619302 -0.088908315 0.053546518
0.0072037475 -0.090561397 0.053580135
0.0081230374 -0.089353405 0.053669631
0.009105254 -0.089029148 0.053711891
0.010141172 -0.089242302 0.053637445
0.011165884 -0.089327075 0.053477198
0.012354384 -0.090598822 0.053461909
0.013217695 -0.089473628 0.053030431
0.014165493 -0.089040242 0.053132057
0.015393758 -0.090310045 0.0530141
0.016213248 -0.089172862 0.053575993
0.017253619 -0.089312851 0.052894086
0.018386325 -0.089888699 0.052727014
0.01924357 -0.089128107 0.053101838
0.020105213 -0.088462934 0.053567141
0.021581389 -0.090436302 0.054495513
0.022217751 -0.088871002 0.054817796
0.023634544 -0.090427823 0.055819124
0.025079196 -0.091957055 0.05599305
0.025219902 -0.088774055 0.054647386
0.025880586 -0.087595828 0.053609878
0.026775397 -0.087267965 0.051647753
0.027576379 -0.086668618 0.049147129
0.029207692 -0.088630237 0.042628944
0.032446254 -0.095175676 0.032724291
0.033059333 -0.093845844 0.020645738
-0.020540245 -0.099277847 0.024327278
-0.017634096 -0.090245076 0.04115957
-0.01595464 -0.086753361 0.049881727
-0.014975244 -0.086856417 0.052919626
-0.014119643 -0.087743498 0.054160655
-0.0129438 -0.086623892 0.054672927
-0.0123718 -0.089695551 0.055028558
-0.011340954 -0.089696638 0.055067956
-0.010229501 -0.088996656 0.05470258
-0.0091678565 -0.088622615 0.053887933
-0.0082624927 -0.089854605 0.053240508
-0.0071143052 -0.088420644 0.052850485
-0.006163253 -0.089367174 0.0528633
-0.0051295571 -0.089254297 0.052833527
-0.0040938281 -0.089040764 0.052691847
-0.0030708008 -0.089053221 0.052388936
-0.0020482009 -0.089096747 0.052332431
-0.0010216271 -0.088881552 0.052313089
0 -0.089313857 0.052451104
0.0010195681 -0.088702425 0.052616358
0.0020449308 -0.088954493 0.052696705
0.0030666224 -0.088932052 0.052935869
0.0040729968 -0.088587686 0.052941054
0.005092619 -0.088611573 0.053327203
0.0061672493 -0.089425117 0.053392947
0.0070943837 -0.088173054 0.053405434
0.0081205703 -0.088311203 0.053704053
0.0091019245 -0.08798527 0.05378297
0.010198626 -0.08872804 0.053485423
0.011221091 -0.088748634 0.053522229
0.012296256 -0.089147851 0.053743005
0.013241232 -0.088614397 0.053547859
0.014323846 -0.089012474 0.05340749
0.015265726 -0.088541217 0.053477049
0.016217018 -0.088180035 0.053748488
0.017308034 -0.088576414 0.053808451
0.01837863 -0.088830046 0.05338034
0.019172186 -0.087788425 0.053722531
0.020389313 -0.088693514 0.05404523
0.02141243 -0.088708639 0.054692417
0.022290753 -0.088149793 0.055669665
0.023297966 -0.088127084 0.055930346
0.024990758 -0.090591498 0.056593418
0.025249923 -0.087869734 0.055604607
0.025982408 -0.086941138 0.05465737
0.026598852 -0.085707411 0.052423686
0.027668994 -0.085971519 0.050131857
0.028783536 -0.086350605 0.045149744
0.032642312 -0.094662711 0.033293396
0.034100313 -0.095700882 0.021147639
-0.019810854 -0.094651856 0.02082175
-0.017517736 -0.088619135 0.043310076
-0.016217789 -0.087170608 0.050674558
-0.01497136 -0.085835792 0.053649515
-0.0139118 -0.085458197 0.054578066
-0.01310099 -0.086668089 0.054946601
-0.012402229 -0.08888264 0.055532455
-0.011230968 -0.087805748 0.055603176
-0.010135541 -0.087165646 0.055336356
-0.0092386166 -0.088280112 0.054739088
-0.0081156306 -0.087243035 0.053935349
-0.0072549828 -0.089132644 0.053598195
-0.0061897328 -0.088719502 0.053830177
-0.0051298165 -0.088232845 0.053645968
-0.0041097822 -0.088360317 0.053360313
-0.003095669 -0.088742509 0.052561373
-0.0020490307 -0.088108324 0.052554369
-0.0010171952 -0.087478787 0.053046346
0 -0.087640554 0.052856237
0.0010243432 -0.088093512 0.053015769
0.0020641745 -0.088759504 0.052717298
0.003083857 -0.088403903 0.053125948
0.0040550241 -0.087183021 0.053307623
0.0051467763 -0.088524558 0.053160936
0.0060799802 -0.087146387 0.053277582
0.0072087697 -0.088564888 0.053427249
0.0081766797 -0.087899305 0.053453386
0.0091830213 -0.08774887 0.053559214
0.010192465 -0.087655194 0.053390414
0.01121698 -0.087696396 0.053307325
0.012229299 -0.08764331 0.053398877
0.013186782 -0.087235637 0.053439289
0.014233023 -0.087431423 0.053416997
0.01530551 -0.08775159 0.053471833
0.016371774 -0.087998278 0.053506196
0.017350029 -0.08777073 0.05368191
0.018452514 -0.088162012 0.053438067
0.019703072 -0.089182325 0.053215116
0.020347955 -0.087496206 0.053558111
0.021205131 -0.086840063 0.054074019
0.022460802 -0.087801315 0.054845363
0.023506319 -0.087893195 0.056064188
0.024841163 -0.089014165 0.05627802
0.025752908 -0.088589996 0.056052387
0.025805939 -0.085358106 0.054473877
0.026688039 -0.085006349 0.052710712
0.028125282 -0.086384796 0.05025208
0.028837305 -0.085517526 0.046923578
0.032950647 -0.09445852 0.033576846
0.034939475 -0.096928872 0.02103889
-0.019678026 -0.092924021 0.019042164
-0.017488685 -0.087443419 0.04843232
-0.016109962 -0.085584171 0.051136136
-0.015080011 -0.085453391 0.053690046
-0.013983524 -0.084899969 0.054582238
-0.013223547 -0.086461656 0.054813713
-0.01223709 -0.086679384 0.055296928
-0.011251442 -0.086942963 0.055814862
-0.010237726 -0.08702068 0.055279166
-0.009170332 -0.086608693 0.054594189
-0.0082526421 -0.087684326 0.054043651
-0.0071683838 -0.087044664 0.053678334
-0.006143122 -0.087027557 0.053678334
-0.0051660952 -0.087823614 0.053551883
-0.0041186917 -0.087522194 0.053447843
-0.0031172608 -0.088322386 0.053258866
-0.0020513027 -0.087180369 0.053263277
-0.0010256609 -0.087181173 0.053258866
0 -0.087109335 0.053235531
0.0010266909 -0.087268725 0.053344756
0.0020397902 -0.086691082 0.053085685
0.0030683631 -0.086936958 0.0532763
0.0041186917 -0.087522194 0.053159028
0.005096721 -0.086644262 0.053070366
0.0060638743 -0.085904889 0.052860767
0.0072078244 -0.087523587 0.05293864
0.0081557119 -0.08665444 0.052996725
0.0092406636 -0.087272935 0.052841067
0.010286187 -0.087432586 0.053121716
0.011308743 -0.087385736 0.052849591
0.012335208 -0.087374389 0.052973211
0.013229057 -0.086497679 0.052784085
0.01434214 -0.087077282 0.052834421
0.015288004 -0.086632021 0.052977711
0.016131274 -0.085697398 0.053318888
0.017320929 -0.086604647 0.053320467
0.01849582 -0.087341376 0.053320765
0.019208346 -0.085932069 0.053296745
0.020268928 -0.086142942 0.053451955
0.021424551 -0.086718418 0.054008365
0.022174256 -0.085673258 0.054643691
0.023341758 -0.086263016 0.055501401
0.024810372 -0.087870061 0.056544602
0.025707193 -0.08740446 0.055591404
0.025929492 -0.084769495 0.054851472
0.026897911 -0.084678605 0.053177357
0.027865723 -0.084592372 0.050918013
0.028854122 -0.084572427 0.048073888
0.031748913 -0.089955255 0.03370443
0.036196548 -0.099248603 0.012520373
-0.019893773 -0.092837609 0.019078612
-0.01753054 -0.086621493 0.048830032
-0.016121166 -0.084636122 0.051495969
-0.015090507 -0.08450684 0.053771019
-0.014227353 -0.085364118 0.054973364
-0.013061797 -0.084399305 0.055108249
-0.012325509 -0.086278558 0.05553928
-0.011316513 -0.086417004 0.05577454
-0.010201153 -0.085689694 0.05520305
-0.0091930293 -0.085801609 0.054695427
-0.0082132164 -0.086238779 0.053888947
-0.0071156309 -0.085387565 0.053657025
-0.0061669899 -0.086337864 0.053520024
-0.0051369085 -0.086300068 0.053446233
-0.0040941257 -0.085976645 0.053293258
-0.0030804791 -0.08625342 0.053198576
-0.0020707764 -0.086972609 0.053184658
-0.0010234576 -0.085970439 0.053198576
0 -0.086607113 0.053293556
0.0010261245 -0.086194456 0.053336591
0.0020660488 -0.086774051 0.053159416
0.0030912068 -0.08655379 0.053266555
0.0040812772 -0.085706815 0.052929819
0.0051414538 -0.086376429 0.052920431
0.0062306235 -0.08722873 0.05281046
0.0071843523 -0.086212225 0.052799463
0.0082025519 -0.086126789 0.052598059
0.0091843037 -0.085720167 0.052556217
0.010258109 -0.086168118 0.05249849
0.011236537 -0.085806288 0.052205592
0.012311695 -0.086181864 0.0525316
0.013267339 -0.085727423 0.052253842
0.014420704 -0.086524218 0.052285403
0.015333082 -0.085865259 0.05286625
0.01634888 -0.08583162 0.052906275
0.017296854 -0.08546681 0.053502679
0.018335231 -0.085564405 0.053555667
0.019269975 -0.085193574 0.053392649
0.020480303 -0.086017273 0.05354473
0.021290604 -0.085162416 0.054091662
0.022537153 -0.08605095 0.054978728
0.023530468 -0.085937366 0.055510759
0.024644369 -0.08625529 0.056974679
0.0259925 -0.087334797 0.056126803
0.026068686 -0.084221907 0.055200309
0.026965683 -0.083893232 0.053786844
0.027920745 -0.083762236 0.051456869
0.028734032 -0.083229609 0.048479199
0.032060403 -0.089769132 0.030224562
0.036399387 -0.0986306 0.0075922608
-0.020008126 -0.092259698 0.015563697
-0.017566137 -0.08576408 0.047184438
-0.016140029 -0.083726399 0.052263349
-0.01504821 -0.083266765 0.054105997
-0.013980089 -0.082881957 0.055380702
-0.013189767 -0.08421158 0.055421293
-0.012391357 -0.085706882 0.055849135
-0.011207556 -0.084566101 0.055952996
-0.010175408 -0.084455885 0.055616736
-0.0092222281 -0.085049435 0.055134773
-0.0082920408 -0.086029917 0.054101795
-0.0072639328 -0.086129487 0.053861946
-0.0061973808 -0.085730433 0.053690195
-0.0051146466 -0.084903136 0.053521663
-0.0041284477 -0.085665286 0.053407103
-0.0031042234 -0.085883513 0.052954465
-0.0020464764 -0.084928773 0.052954465
-0.0010281584 -0.085337147 0.052959681
0 -0.085312255 0.052813947
0.0010332509 -0.085759826 0.052813947
0.0020596927 -0.085477248 0.052808553
0.0030756691 -0.085093513 0.052985698
0.0041262652 -0.085620001 0.052791178
0.0051676906 -0.08578366 0.053184062
0.0061933799 -0.085675091 0.052929938
0.0073106079 -0.086682923 0.052800059
0.008215908 -0.085240051 0.052428991
0.0092380475 -0.085195325 0.052321076
0.010301472 -0.085502215 0.052230269
0.011332218 -0.08550673 0.052265733
0.012343362 -0.085374922 0.052441448
0.013415845 -0.085655011 0.052347481
0.014350777 -0.085079603 0.052283168
0.015254499 -0.084408231 0.052660853
0.016496714 -0.085576706 0.052829236
0.017317971 -0.084552452 0.053115129
0.018627955 -0.085895568 0.053584516
0.019416668 -0.084820181 0.053206295
0.020484583 -0.08501102 0.053275496
0.021291224 -0.08415103 0.054110974
0.022604454 -0.085280441 0.054826647
0.023532597 -0.084921986 0.055211961
0.024653872 -0.085261308 0.056616694
0.025731703 -0.085429259 0.055536896
0.026050491 -0.083161183 0.055080473
0.027121522 -0.083373562 0.053870469
0.027853701 -0.082566328 0.051908821
0.028808352 -0.082451485 0.048651934
0.032105248 -0.088824518 0.028762966
-0.02068292 -0.094222188 0.0086091459
-0.017556323 -0.084683433 0.045663863
-0.016397305 -0.084036186 0.052613229
-0.015052157 -0.082285129 0.053944588
-0.013981212 -0.08188995 0.055784643
-0.013269657 -0.083700918 0.055937737
-0.012289866 -0.083980747 0.056745529
-0.01123517 -0.083753087 0.056808561
-0.010358738 -0.084941648 0.056729108
-0.0091919107 -0.083748519 0.056056589
-0.0082180649 -0.084235169 0.055292338
-0.0072021759 -0.084368348 0.054575473
-0.0061680847 -0.084297158 0.054048359
-0.0051972442 -0.085234806 0.053887755
-0.0041045486 -0.084143251 0.05362168
-0.0030773864 -0.08411523 0.052876323
-0.0020669042 -0.084743075 0.052898586
-0.0010296414 -0.08443059 0.052999169
0 -0.084072813 0.053034544
0.0010335224 -0.084748842 0.053066134
0.0020430116 -0.083763473 0.053165793
0.0030661074 -0.083806939 0.053315938
0.0041045486 -0.084143251 0.053131163
0.0051150802 -0.083887316 0.053307563
0.0061302478 -0.083780058 0.053131163
0.0071919896 -0.08424902 0.053008974
0.0083034327 -0.085110188 0.053063005
0.0093026757 -0.084757708 0.052920043
0.010275683 -0.084260605 0.052624702
0.011332526 -0.084478825 0.052918613
0.012361877 -0.084472828 0.052754045
0.013301175 -0.083899722 0.052487075
0.014524237 -0.085070536 0.052487224
0.015394851 -0.084158517 0.052429676
0.016316835 -0.083623782 0.052747041
0.017426541 -0.084057435 0.053331316
0.018601215 -0.084738865 0.053437889
0.019547207 -0.084361628 0.053350896
0.02050812 -0.084083296 0.053400576
0.02174446 -0.084906943 0.054082334
0.022361265 -0.083346538 0.054785252
0.023636233 -0.084268309 0.055454671
0.024839023 -0.084866658 0.05593735
0.025538703 -0.083766945 0.055531353
0.026198914 -0.082627349 0.054767936
0.027009355 -0.082028411 0.053651243
0.028062556 -0.082183197 0.051700592
0.0290404 -0.082114235 0.04861626
0.032569006 -0.089021951 0.023306847
-0.021091793 -0.094913073 0.0062815845
-0.01783281 -0.08496809 0.043967903
-0.016292892 -0.08248277 0.053420544
-0.015007825 -0.081042252 0.054503202
-0.014170659 -0.081987388 0.056279093
-0.013038193 -0.081237972 0.056445241
-0.012342491 -0.083311819 0.057166338
-0.011248056 -0.082826599 0.057291448
-0.010227381 -0.082841791 0.05704239
-0.0092019094 -0.082817182 0.056084603
-0.0082711158 -0.083745055 0.055749387
-0.0071713338 -0.082982577 0.054961234
-0.0062278924 -0.084076546 0.054489046
-0.005123368 -0.082998559 0.054150969
-0.0041296212 -0.083624825 0.054038554
-0.0031103846 -0.083980381 0.053601384
-0.0020622183 -0.083519839 0.053531826
-0.0010300269 -0.083432183 0.053459585
0 -0.083319426 0.053428471
0.0010276006 -0.083235651 0.0532296
0.0020747138 -0.084025905 0.05337137
0.0031287633 -0.084476613 0.0532296
0.0041507287 -0.084052257 0.052810878
0.0051746201 -0.083828844 0.052897245
0.0061350958 -0.082823798 0.052970618
0.0071925609 -0.083228201 0.052967966
0.008293434 -0.083971016 0.053151459
0.0093034254 -0.083730832 0.053322315
0.010278319 -0.083254382 0.053140312
0.011344769 -0.083538756 0.052767217
0.012349767 -0.083360925 0.052770942
0.013433839 -0.083703153 0.052683294
0.014426964 -0.083470292 0.053013593
0.015485174 -0.083619937 0.0530186
0.016371444 -0.08288043 0.052997649
0.017456762 -0.083176337 0.053477287
0.018519809 -0.08333914 0.053561121
0.019597111 -0.083545581 0.053590566
0.020490348 -0.082985915 0.05395481
0.021531226 -0.083049014 0.054315656
0.022453597 -0.082670063 0.055011153
0.023759278 -0.083673976 0.055579036
0.024669537 -0.083259687 0.056220621
0.025741989 -0.083404042 0.055996001
0.026046656 -0.081145354 0.054999113
0.027040767 -0.081122302 0.054203153
0.02824593 -0.081711441 0.052394122
0.029158348 -0.081442282 0.049137533
0.03316528 -0.089546256 0.011787176
-0.017907344 -0.084269851 0.029623985
-0.01638912 -0.081945598 0.053868264
-0.015332621 -0.081773974 0.055415034
-0.013894067 -0.079394668 0.056063205
-0.013099005 -0.080609262 0.05657059
-0.012432184 -0.082881227 0.057450503
-0.011322925 -0.082348548 0.057778746
-0.010277254 -0.082218029 0.057637334
-0.0093057556 -0.082717828 0.056536615
-0.0081945714 -0.081945717 0.056056976
-0.0072899084 -0.083313234 0.055225968
-0.0061755809 -0.082341075 0.054910153
-0.0051398189 -0.082237102 0.054662228
-0.0041245888 -0.082491778 0.054414243
-0.003135008 -0.083600208 0.05403474
-0.0020731706 -0.082926825 0.053834647
-0.0010331366 -0.08265093 0.053684235
0 -0.083199672 0.053556591
0.0010372017 -0.08297614 0.053466976
0.0020595801 -0.082383201 0.052985758
0.0031151683 -0.083071157 0.053305954
0.0041078441 -0.082156882 0.053082794
0.0052010939 -0.083217502 0.052999169
0.0061439131 -0.081918843 0.053023964
0.0072228145 -0.08254645 0.052714497
0.0083168643 -0.083168641 0.052818626
0.0093041174 -0.08270327 0.05265516
0.010410693 -0.083285548 0.052481055
0.011364955 -0.082654215 0.052751273
0.012433639 -0.082890928 0.052934408
0.013444297 -0.082734138 0.053131759
0.014447554 -0.082557455 0.053322315
0.015424476 -0.082263872 0.053281873
0.0164997 -0.082498498 0.053388178
0.017664142 -0.083125375 0.053510427
0.018454617 -0.082020514 0.053682238
0.019775886 -0.083266892 0.053983063
0.020393668 -0.081574671 0.05393669
0.021395372 -0.081506178 0.054574877
0.022489863 -0.081781313 0.055440903
0.023370938 -0.081290215 0.055728257
0.024761457 -0.082538195 0.056101888
0.02534269 -0.081096604 0.055838436
0.026081491 -0.08025074 0.055113345
0.027029535 -0.080087513 0.05464527
0.028215693 -0.080616266 0.052873194
0.029695613 -0.081918932 0.04701966
-0.018392054 -0.085468963 0.022886902
-0.016418347 -0.081065588 0.053105801
-0.015118041 -0.07962168 0.055660039
-0.014061338 -0.07934612 0.05609557
-0.013095108 -0.07957796 0.056642413
-0.012237224 -0.080561727 0.057217449
-0.011354387 -0.081545137 0.057764888
-0.010422338 -0.08233647 0.056794256
-0.0092610698 -0.081291609 0.056660473
-0.0082888016 -0.081851915 0.056203604
-0.0072237304 -0.081524953 0.055392355
-0.0061923815 -0.081533022 0.055254251
-0.0052102539 -0.082322016 0.05486837
-0.0041236551 -0.081442192 0.054735392
-0.0031141094 -0.082004882 0.054332286
-0.0020614187 -0.081426047 0.054025471
-0.0010390938 -0.082088411 0.053598434
0 -0.081570879 0.053185582
0.0010378194 -0.081987731 0.05259943
0.0020839944 -0.082317777 0.052517921
0.0031230303 -0.082239799 0.052474499
0.0041991472 -0.082933158 0.05242008
0.0051589767 -0.081511833 0.052437276
0.006180367 -0.081374831 0.052603483
0.0073052822 -0.082445331 0.052602172
0.0082756951 -0.08172249 0.052792341
0.0093964906 -0.082480304 0.052849412
0.010248218 -0.080960922 0.05270052
0.011310344 -0.081228837 0.052504927
0.012413383 -0.08172144 0.052700937
0.013433388 -0.081633665 0.052652478
0.014373813 -0.081109375 0.053007394
0.01546645 -0.081456631 0.053239405
0.01643387 -0.081142232 0.053347528
0.017487038 -0.081263289 0.053936988
0.018572614 -0.081513137 0.054201931
0.019438632 -0.080823787 0.054481596
0.020328332 -0.080296904 0.054411352
0.021395499 -0.080487825 0.055088669
0.022327367 -0.080175549 0.055626005
0.023577303 -0.080982909 0.055694878
0.024856182 -0.08181826 0.055938721
0.025170179 -0.079537764 0.055643499
0.026062649 -0.079190351 0.05540666
0.027148923 -0.079435736 0.054348946
0.028336132 -0.079948373 0.052041978
0.030131154 -0.082081415 0.037176847
-0.019051129 -0.087411061 0.0081773102
-0.016693987 -0.081383184 0.047018915
-0.015277233 -0.079441614 0.054758161
-0.01414707 -0.078819394 0.056105345
-0.012980709 -0.077884249 0.056732178
-0.012172427 -0.079120778 0.05682978
-0.011423839 -0.081005409 0.057144225
-0.010235488 -0.079836808 0.056778193
-0.0092971399 -0.080575213 0.056751162
-0.0082223183 -0.080167606 0.056440115
-0.0072161052 -0.080408029 0.05595687
-0.0061720079 -0.0802361 0.055678964
-0.0051747747 -0.080726482 0.05529812
-0.0041469759 -0.080866031 0.055142879
-0.0031163089 -0.081024028 0.054874182
-0.0020653096 -0.080547072 0.053893417
-0.0010403129 -0.081144407 0.053721726
0 -0.08157552 0.053337783
0.0010380063 -0.080964483 0.053204894
0.0020705299 -0.080750667 0.053032488
0.0031348832 -0.08150696 0.05302006
0.004128038 -0.080496736 0.052550256
0.0051863068 -0.080906391 0.052440286
0.0062732478 -0.081552222 0.052507222
0.0072347987 -0.080616333 0.052358925
0.0082927188 -0.080854014 0.052457541
0.0093604969 -0.081124306 0.052918702
0.010364137 -0.080840267 0.052934349
0.011399143 -0.080830291 0.052987754
0.01240906 -0.08065889 0.053087682
0.013437375 -0.080624253 0.053090543
0.014496141 -0.080764212 0.053361058
0.015533825 -0.080775894 0.053549886
0.016392171 -0.079911835 0.053706884
0.017608738 -0.080793031 0.053631991
0.018590132 -0.080557242 0.054464668
0.019514685 -0.080112919 0.054689497
0.020749066 -0.080921359 0.054687977
0.021559713 -0.080078937 0.055419683
0.022554031 -0.079964295 0.055637985
0.023559211 -0.079896457 0.056290567
0.024879538 -0.080858499 0.056332082
0.025397293 -0.079239555 0.055979103
0.025994813 -0.077984437 0.056065053
0.027367951 -0.079062968 0.055156648
0.028561583 -0.079564407 0.051917166
0.031056585 -0.083531506 0.018745482
-0.016877437 -0.081222668 0.036029011
-0.015430947 -0.079212196 0.053819954
-0.014224263 -0.078233451 0.055792958
-0.013077601 -0.077459633 0.056666851
-0.012226231 -0.078451648 0.057101697
-0.011208176 -0.078457229 0.057960778
-0.010356833 -0.079747617 0.057138652
-0.0093085868 -0.079640128 0.057225257
-0.0082718208 -0.079616278 0.057150245
-0.0071463902 -0.078610294 0.05675444
-0.0061213528 -0.078557365 0.056289226
-0.00515746 -0.07942488 0.056079835
-0.0041217115 -0.079342946 0.056138694
-0.0031496366 -0.080840677 0.055372536
-0.0020883759 -0.080402464 0.054699808
-0.0010372759 -0.079870246 0.054157197
0 -0.080263205 0.053714991
0.0010409189 -0.080150753 0.053670824
0.0020792685 -0.080051839 0.053377569
0.0031237723 -0.080176823 0.053306609
0.0041020401 -0.078964271 0.053065985
0.005248527 -0.080827318 0.052696139
0.0062211594 -0.079838216 0.052874148
0.0072560273 -0.079816297 0.052606016
0.0082650222 -0.07955084 0.052438885
0.0093069477 -0.079626113 0.052862853
0.010440595 -0.080392584 0.053180099
0.011381759 -0.079672314 0.053139389
0.012515355 -0.080306865 0.053583741
0.013475206 -0.07981468 0.053597152
0.01449186 -0.079705231 0.053575903
0.015495565 -0.079543896 0.053691179
0.016577493 -0.079779185 0.053982526
0.017526194 -0.079383351 0.054230511
0.018521294 -0.079229973 0.055157959
0.019618308 -0.079505771 0.055486679
0.020329388 -0.078268141 0.055719823
0.021660207 -0.079420753 0.056526482
0.022604603 -0.079116113 0.056730479
0.023553513 -0.078853063 0.056856871
0.024700563 -0.079247639 0.056959242
0.025086541 -0.077266544 0.05677855
0.026229253 -0.077678941 0.056226492
0.027212352 -0.077605598 0.05524388
0.029073579 -0.079952344 0.049734205
0.032790113 -0.087063402 0.0058990419
-0.017525936 -0.083248191 0.018172055
-0.015444446 -0.078251861 0.050005019
-0.014343887 -0.077866815 0.056294411
-0.013136581 -0.076798469 0.057730317
-0.011972585 -0.075826369 0.058020383
-0.011323566 -0.078235544 0.058294475
-0.010276608 -0.078102216 0.057897568
-0.0092473049 -0.078088351 0.057997346
-0.0082406607 -0.078286283 0.057414502
-0.0072321659 -0.078520656 0.057098567
-0.0062258458 -0.078860715 0.05714339
-0.005184738 -0.078808017 0.056770235
-0.0041362466 -0.078588687 0.056251377
-0.0031257542 -0.079185776 0.056050926
-0.0020758521 -0.078882381 0.055544943
-0.0010420654 -0.079196975 0.055097669
0 -0.079497218 0.054515809
0.0010535433 -0.080069296 0.054366738
0.0020725727 -0.078757763 0.053923875
0.0031182847 -0.078996547 0.053845167
0.0041746264 -0.079317898 0.053418875
0.0051479996 -0.078249589 0.053290039
0.0062313108 -0.078929938 0.053502619
0.0073418277 -0.079711273 0.053051591
0.0083387811 -0.079218425 0.053069651
0.0094035855 -0.07940805 0.053268522
0.010353711 -0.078688204 0.053900987
0.011331579 -0.07829091 0.05348742
0.012499973 -0.079166494 0.053923696
0.013355944 -0.078080907 0.054119766
0.01447474 -0.078577161 0.054320484
0.015733927 -0.079718567 0.054540515
0.016443368 -0.078106001 0.05467689
0.017544594 -0.078434654 0.054969132
0.018735148 -0.079103962 0.055636495
0.019486733 -0.077946931 0.056668907
0.020636039 -0.078416944 0.056951791
0.021926181 -0.079351895 0.057354063
0.022402922 -0.077391915 0.057748109
0.023793101 -0.078620687 0.057691008
0.024285659 -0.076904587 0.057480991
0.025117958 -0.076358587 0.057214677
0.026462059 -0.077350631 0.055963814
0.027306827 -0.076863661 0.053191483
0.029254848 -0.079406016 0.02497375
-0.015781093 -0.078905463 0.037250012
-0.014426081 -0.077282578 0.054502547
-0.013186826 -0.076077841 0.057155818
-0.012095436 -0.075596482 0.058165759
-0.011165755 -0.076130144 0.058534145
-0.010224216 -0.076681614 0.05833298
-0.0092865052 -0.077387549 0.058283985
-0.008301748 -0.077828892 0.058122128
-0.007213776 -0.077290453 0.057938784
-0.0061718244 -0.077147804 0.057746589
-0.0051685693 -0.077528536 0.057532609
-0.0041471184 -0.077758476 0.056720823
-0.0031284471 -0.078211181 0.056542724
-0.0020927095 -0.078476615 0.056052178
-0.0010430844 -0.078231335 0.055496961
0 -0.078363694 0.055246055
0.0010368279 -0.077762097 0.055098623
0.002086757 -0.078253388 0.05449453
0.003124438 -0.078110956 0.054566324
0.0041548936 -0.077904254 0.054252654
0.0051728208 -0.077592313 0.053554684
0.0063245166 -0.079056457 0.053814113
0.0072490624 -0.077668525 0.053695321
0.0083488757 -0.078270711 0.053438008
0.0092777601 -0.077314667 0.053375632
0.010377849 -0.077833869 0.05387494
0.011454299 -0.078097492 0.053893685
0.012469936 -0.077937096 0.054350674
0.013527783 -0.078044899 0.054674447
0.014568013 -0.078042932 0.054901123
0.015513401 -0.077567004 0.055096567
0.016770368 -0.078611106 0.055344462
0.017624797 -0.077756457 0.055926383
0.018447623 -0.076865092 0.056274742
0.019548655 -0.077165745 0.057243705
0.02062965 -0.077361189 0.05757609
0.02160361 -0.077155754 0.058098376
0.022642687 -0.07719098 0.058659852
0.023580734 -0.076893695 0.058632404
0.024084341 -0.075263567 0.058212042
0.025146199 -0.075438596 0.057395667
0.026441069 -0.076272316 0.055672467
0.02757463 -0.0765962 0.051082134
0.031310868 -0.083868392 0.0068843961
-0.01666148 -0.082196638 0.019390106
-0.014497171 -0.076627903 0.049976021
-0.013285165 -0.075623244 0.056795299
-0.012064501 -0.074397758 0.058493674
-0.011043881 -0.0742952 0.059013337
-0.010162629 -0.075203456 0.059221327
-0.0092797456 -0.076300129 0.059224516
-0.0081635695 -0.075513013 0.058921278
-0.0072285011 -0.076415583 0.058672279
-0.0062121465 -0.076616473 0.058270335
-0.0051465896 -0.076169528 0.057852805
-0.0041902908 -0.077520378 0.057146013
-0.0031130773 -0.076789238 0.056852311
-0.0020682476 -0.076525167 0.05640918
-0.0010366245 -0.076710217 0.055977494
0 -0.076427206 0.055631638
0.0010363815 -0.076692231 0.055395752
0.0020992332 -0.077671625 0.054957479
0.0031282052 -0.077162392 0.054775596
0.0041864025 -0.07744845 0.054379314
0.0052240482 -0.077315912 0.054099709
0.0062595317 -0.07720089 0.054119855
0.0073160995 -0.077341624 0.054085046
0.0084162662 -0.077850461 0.053973675
0.0093059866 -0.076515883 0.054118842
0.010436555 -0.077230513 0.054524451
0.01143537 -0.076928854 0.054480761
0.012474789 -0.076927871 0.055102944
0.013454101 -0.076584883 0.055058718
0.014537124 -0.076839082 0.055444539
0.015517626 -0.07655362 0.055564165
0.016513634 -0.076375559 0.055829942
0.017490283 -0.076134175 0.056281656
0.01846249 -0.075901352 0.056672543
0.019517085 -0.076013908 0.057629138
0.020740854 -0.076741159 0.057772934
0.021325361 -0.075146511 0.058361918
0.022640847 -0.076155573 0.058996767
0.023117008 -0.074376456 0.059003323
0.024159344 -0.074491307 0.058260053
0.025479011 -0.075417876 0.056425273
0.026602766 -0.075715564 0.052660316
0.02869512 -0.078645885 0.026345223
-0.014944863 -0.077926785 0.030166984
-0.013537434 -0.076017894 0.052258343
-0.012131152 -0.073797837 0.058352053
-0.011161776 -0.074073605 0.059161812
-0.010112495 -0.073821217 0.059585631
-0.009132402 -0.074073926 0.05960694
-0.0082401186 -0.075191081 0.059553832
-0.0072300038 -0.075398616 0.059036016
-0.0061970321 -0.075397223 0.058557272
-0.005210551 -0.076074041 0.058194518
-0.004112409 -0.075051464 0.057583332
-0.003130496 -0.076175407 0.057285428
-0.002092985 -0.076393954 0.057033062
-0.0010480824 -0.076510012 0.056369275
0 -0.076363854 0.056072772
0.0010435246 -0.076177299 0.055757791
0.0020957803 -0.076495983 0.055299431
0.0031397936 -0.076401643 0.055099517
0.0041743903 -0.076182626 0.055089951
0.0052050822 -0.075994201 0.054740995
0.0062345834 -0.0758541 0.054849744
0.0073231496 -0.076369986 0.054712743
0.0083057359 -0.075789846 0.054964364
0.0093768146 -0.076056391 0.054846495
0.010484895 -0.076539733 0.054944962
0.011338851 -0.075248741 0.05533573
0.012573597 -0.076489381 0.055731595
0.013611654 -0.076434672 0.055972278
0.014623468 -0.076250941 0.056324661
0.015486235 -0.075366341 0.056525439
0.016604502 -0.07575804 0.056914389
0.017425792 -0.074828401 0.057344496
0.018782126 -0.076171957 0.057414025
0.019701054 -0.075693525 0.058342397
0.020272959 -0.073996298 0.058190346
0.021751612 -0.075612754 0.058625311
0.022193003 -0.073640421 0.059034824
0.023125984 -0.073399864 0.058926493
0.024458434 -0.074394405 0.057151079
0.025552522 -0.074613363 0.054288477
0.027111242 -0.076120026 0.041445553
-0.013622295 -0.075446561 0.03657496
-0.012384391 -0.074306346 0.055788189
-0.011330444 -0.074162908 0.058804244
-0.0099614132 -0.07172218 0.059692502
-0.0090817418 -0.072653934 0.060179532
-0.0082889386 -0.074600443 0.059962153
-0.0071493601 -0.073536277 0.059591025
-0.0062504271 -0.075005129 0.058910549
-0.0051912419 -0.074753881 0.058694571
-0.0041455729 -0.074620314 0.058247507
-0.003104324 -0.074503779 0.057752281
-0.0020824671 -0.074968815 0.05750981
-0.0010422157 -0.075039536 0.056909502
0 -0.075171053 0.056649446
0.0010464704 -0.075345874 0.056161225
0.0020650837 -0.074343018 0.055664182
0.0031316751 -0.075160198 0.055571795
0.0041555408 -0.074799731 0.055480629
0.0052006622 -0.074889541 0.055382311
0.006284704 -0.075416446 0.055389404
0.0072786836 -0.074866459 0.055607915
0.0084211715 -0.075790547 0.055759192
0.0092944847 -0.074355878 0.055832177
0.010480933 -0.075462714 0.056045741
0.011413988 -0.074709743 0.056064665
0.012529473 -0.075176835 0.0562644
0.013437496 -0.074423052 0.057007253
0.014554979 -0.07485418 0.057080597
0.015516689 -0.074480109 0.057401955
0.016600074 -0.074700333 0.057839632
0.017677069 -0.074867584 0.058553666
0.018499551 -0.073998205 0.058265775
0.019450083 -0.073705584 0.059086055
0.020769972 -0.074771903 0.059106499
0.021179842 -0.0726166 0.059163451
0.022150738 -0.072493322 0.059163451
0.023151571 -0.072474487 0.058273286
0.024431318 -0.073293954 0.055834293
0.025973206 -0.074802831 0.047280669
0.028778858 -0.079695299 0.0052140355
-0.01424187 -0.077782519 0.011879951
-0.012697448 -0.075126566 0.045702338
-0.011216346 -0.072396412 0.056162
-0.010201598 -0.072431341 0.058825999
-0.0091382181 -0.072090387 0.059663743
-0.0079968646 -0.070972174 0.059796542
-0.0071392702 -0.072412603 0.059721798
-0.0062148133 -0.073541962 0.059321314
-0.0051840506 -0.073613524 0.059182167
-0.0041485727 -0.073637158 0.058601409
-0.003145054 -0.074432947 0.058039665
-0.0020739988 -0.073626958 0.057852745
-0.0010429668 -0.074050643 0.057654887
0 -0.074232161 0.057263404
0.0010368268 -0.073614694 0.056923866
0.0020932094 -0.074308932 0.056388587
0.0031457834 -0.07445021 0.056111723
0.0041818856 -0.074228466 0.056091487
0.005208062 -0.073954485 0.056065321
0.0062396144 -0.073835433 0.05624637
0.0072677676 -0.073715933 0.056349844
0.008385865 -0.07442455 0.056525826
0.0093455315 -0.073725864 0.056697696
0.010449557 -0.074191853 0.056833535
0.011440953 -0.073846154 0.056732029
0.012470669 -0.073784791 0.057214856
0.013588624 -0.074214794 0.058190882
0.014379201 -0.072923094 0.058028102
0.015480536 -0.073274538 0.058142632
0.016637333 -0.073828168 0.058411092
0.017574167 -0.073397994 0.058933437
0.018426642 -0.072682865 0.058697551
0.019488495 -0.072825432 0.058794111
0.020325929 -0.072157048 0.058473527
0.02112278 -0.071415111 0.058395177
0.022151053 -0.071487486 0.057961524
0.023484135 -0.072494507 0.055716485
0.025001178 -0.073961817 0.051110178
0.02699307 -0.07666032 0.010177344
-0.013066707 -0.076222457 0.01371184
-0.011534051 -0.073398508 0.04786849
-0.010255197 -0.071786381 0.057125092
-0.0091071231 -0.070833176 0.059299052
-0.0080800857 -0.07070075 0.059535027
-0.0070644463 -0.070644461 0.059772074
-0.0060846666 -0.070987776 0.059824169
-0.0051294016 -0.071811624 0.060230851
-0.0041481429 -0.072592497 0.059826046
-0.003108256 -0.072525971 0.059425026
-0.002077797 -0.072722897 0.059361935
-0.0010396986 -0.072778903 0.059253216
0 -0.072242834 0.059355646
0.00104584 -0.073208794 0.058723569
0.0020819316 -0.072867602 0.058277428
0.0031162822 -0.072713248 0.05775544
0.0041756253 -0.073073447 0.057525724
0.0051829051 -0.072560675 0.057400912
0.0062856651 -0.073332757 0.057538092
0.0074019223 -0.074019223 0.05776751
0.0082994252 -0.072619975 0.058046222
0.0094517991 -0.073514 0.058090836
0.010322062 -0.072254434 0.058376372
0.011388295 -0.07247097 0.057792068
0.012478866 -0.072793387 0.058404773
0.013447408 -0.072409116 0.058880985
0.014441475 -0.072207376 0.05872798
0.015659373 -0.073077075 0.059050709
0.016527718 -0.072308764 0.058867425
0.017570263 -0.07234814 0.059269428
0.018591948 -0.072302021 0.058881253
0.019002886 -0.070010632 0.058844954
0.020239891 -0.070839621 0.058516145
0.0213461 -0.071153663 0.057492465
0.022384979 -0.071224928 0.056658626
0.023947928 -0.072884999 0.049205452
0.025485158 -0.074331708 0.024517328
-0.012129991 -0.076088123 0.016815186
-0.010479595 -0.072309203 0.047415942
-0.0092122136 -0.070626974 0.057129562
-0.0081812851 -0.070563585 0.059565455
-0.0070495675 -0.069488592 0.059687942
-0.0060795802 -0.069915175 0.060056716
-0.0050528073 -0.06972874 0.060429692
-0.0040910095 -0.07056991 0.060429692
-0.0031104682 -0.071540765 0.060089827
-0.0020772051 -0.071663573 0.060160041
-0.0010401326 -0.071769148 0.060137033
0 -0.072092488 0.060320824
0.0010278478 -0.070921496 0.059749842
0.0020807323 -0.071785264 0.059312433
0.0031117452 -0.071570143 0.058956027
0.0041094963 -0.07088881 0.058728397
0.0052318964 -0.072200172 0.058389157
0.0062598186 -0.071987912 0.058708608
0.0072377035 -0.071343079 0.058615714
0.0083602918 -0.072107516 0.058728784
0.0094103031 -0.072145656 0.058759868
0.010486282 -0.072355345 0.05914408
0.011405762 -0.071545236 0.058888674
0.012527108 -0.072030872 0.059629947
0.013598428 -0.072176278 0.059884816
0.014604942 -0.071981497 0.059874505
0.015431605 -0.070985384 0.059896797
0.016548244 -0.071364306 0.059861302
0.017486712 -0.070975475 0.059445143
0.018209316 -0.069802374 0.059083223
0.019146021 -0.069530286 0.058942437
0.02043432 -0.070498399 0.05752635
0.021338526 -0.070112295 0.056689411
0.022946158 -0.071967497 0.049691439
0.024823705 -0.074471116 0.017565727
-0.011056085 -0.07518138 0.014258444
-0.0095816348 -0.072394572 0.042240679
-0.0082917139 -0.070479572 0.055738032
-0.007118932 -0.069155335 0.058549613
-0.0061018225 -0.069153987 0.059685349
-0.0050540073 -0.068734497 0.060101151
-0.0040175295 -0.068298005 0.060586214
-0.0030391244 -0.068886817 0.060586214
-0.0020446056 -0.069516584 0.060545295
-0.0010349033 -0.070373431 0.059981585
0 -0.070150293 0.060297132
0.0010345993 -0.070352748 0.059980184
0.0021011736 -0.071439907 0.059442371
0.0031232454 -0.070793562 0.059442371
0.0041547483 -0.070630714 0.059403539
0.0052340403 -0.071182951 0.059272826
0.0062799039 -0.071172245 0.059312463
0.0072836867 -0.07075581 0.059437782
0.008363232 -0.071087472 0.059449852
0.009287186 -0.070169844 0.059094846
0.010439494 -0.070988558 0.059658885
0.011368989 -0.070281029 0.059339702
0.0124892 -0.070772126 0.059553742
0.013332912 -0.069741391 0.059901506
0.014477315 -0.070318386 0.060185492
0.015274777 -0.069245659 0.060405999
0.016402388 -0.06971015 0.06010133
0.016971176 -0.067884706 0.059208632
0.018275974 -0.069042571 0.058966339
0.019416077 -0.069489121 0.058562666
0.020546071 -0.069856636 0.056764334
0.02204771 -0.071392588 0.048814774
0.023928296 -0.073960185 0.01288411
-0.0085062636 -0.071239956 0.037372142
-0.0073019634 -0.069890223 0.052366465
-0.0061382703 -0.068544015 0.058396816
-0.0050825505 -0.068106174 0.05892393
-0.0040569073 -0.067953199 0.060059667
-0.0030372716 -0.067832395 0.060242802
-0.0020269477 -0.067902744 0.060354143
-0.0010226088 -0.068514794 0.060304374
0 -0.068894081 0.060828447
0.0010283275 -0.06889794 0.060408235
0.0020511607 -0.068713881 0.060019642
0.0031245097 -0.069780715 0.059950769
0.0041795489 -0.070007443 0.059974968
0.0051442953 -0.068933554 0.059939414
0.0061608986 -0.068796702 0.059918314
0.007344543 -0.07029777 0.059957981
0.0082639363 -0.06921047 0.059900016
0.0092198011 -0.068636298 0.059924334
0.010284975 -0.068909332 0.059973836
0.011219749 -0.068338476 0.059511662
0.01234393 -0.068920277 0.059850901
0.013274325 -0.068413831 0.060366392
0.014181869 -0.067870371 0.060245723
