ply
format ascii 1.0
comment PCL generated
element vertex 1300
property float x
property float y
property float z
element camera 0
property float view_px
property float view_py
property float view_pz
property float x_axisx
property float x_axisy
property float x_axisz
property float y_axisx
property float y_axisy
property float y_axisz
property float z_axisx
property float z_axisy
property float z_axisz
property float focal
property float scalex
property float scaley
property float centerx
property float centery
property int viewportx
property int viewporty
property float k1
property float k2
end_header
-0.0049045146 0.034331605 0.053397477
-0.0036687262 0.034241445 0.053960413
-0.0024594401 0.034432162 0.053992599
-0.0012081506 0.033828218 0.053723842
0 0.033683568 0.053603381
0.0012100743 0.033882078 0.054142743
0.002431548 0.034041669 0.055075914
0.0036068712 0.03366413 0.05534786
0.0048528197 0.033969738 0.055308878
0.0060490286 0.03387456 0.055570364
0.0072272159 0.033727009 0.056512773
0.0085656317 0.034262527 0.05699122
0.0097566331 0.034148216 0.057253391
0.010924803 0.033988275 0.057604194
0.012136167 0.033981267 0.057962745
0.013352899 0.033989195 0.057301253
0.01452973 0.033902705 0.05662185
0.016236108 0.034970079 0.05613178
0.017358284 0.034716569 0.056171358
0.018418113 0.034380477 0.055771351
0.01964318 0.034375563 0.051386386
0.02066152 0.034030739 0.049925297
0.021724328 0.033793401 0.046218216
0.022554448 0.033238135 0.044016093
0.023881614 0.033434261 0.038773537
0.027636822 0.036849096 0.031243682
0.02810658 0.035772011 0.016144633
-0.024679191 0.039760917 0.013353646
-0.02071112 0.035330731 0.021475554
-0.019473631 0.035295956 0.031893671
-0.018123139 0.035038069 0.035131395
-0.01802114 0.037329502 0.03808862
-0.016209062 0.036158677 0.040999532
-0.014816315 0.035806093 0.042951345
-0.013875931 0.036582001 0.045988977
-0.01264352 0.036666207 0.049295336
-0.011330083 0.036508046 0.049800426
-0.0098097706 0.035560418 0.050834417
-0.008503194 0.035227515 0.051558763
-0.0073309164 0.035432763 0.052114159
-0.0061447499 0.035639551 0.053760707
-0.0048724324 0.035325136 0.05489248
-0.0036682819 0.035460059 0.055362999
-0.0024492838 0.035514615 0.055583149
-0.0011986351 0.034760419 0.055147558
0 0.034955688 0.055296391
0.0012101119 0.035093244 0.0563187
0.0024028963 0.034841999 0.056917757
0.0036441274 0.035226565 0.056917757
0.0048717116 0.035319909 0.056756765
0.0059654005 0.034599323 0.056804776
0.007196093 0.034781117 0.057376742
0.0085519785 0.035429623 0.058358073
0.0097131683 0.035210233 0.058532208
0.010929453 0.035217129 0.058402747
0.012123915 0.035159353 0.05830884
0.013241634 0.034909762 0.057763577
0.014561172 0.035189498 0.057338655
0.016254347 0.036259696 0.056844711
0.017577233 0.036409982 0.056962907
0.018704096 0.036161251 0.056690156
0.019623496 0.035567585 0.052604973
0.020757046 0.035409078 0.050820798
0.022597019 0.036406308 0.047184318
0.02268194 0.034619804 0.044934183
0.023887312 0.034636602 0.039753318
0.026269421 0.036276821 0.032069921
0.028314045 0.037323061 0.025547922
-0.022519469 0.037532449 0.01496619
-0.02080136 0.03670828 0.02283448
-0.019259941 0.036112387 0.033584774
-0.018780852 0.037561703 0.036946297
-0.018391725 0.039410841 0.039858878
-0.016005572 0.036935937 0.042392999
-0.014962087 0.037405219 0.044512212
-0.013902448 0.037915766 0.048354417
-0.012508497 0.03752549 0.049767703
-0.011409077 0.038030256 0.051208138
-0.0097254086 0.036470283 0.052190036
-0.0084676612 0.036289979 0.053073704
-0.0073523298 0.036761649 0.053882092
-0.0061049243 0.036629546 0.056112379
-0.0048566856 0.03642514 0.05712837
-0.003664033 0.036640331 0.057434559
-0.0024317945 0.036476918 0.057236344
-0.0011982498 0.035947494 0.057592392
0 0.036176443 0.058317304
0.0011960275 0.035880826 0.058852047
0.0024064481 0.036096722 0.05938825
0.0036296179 0.036296178 0.059570938
0.0047781272 0.035835952 0.05938825
0.0059800027 0.035880018 0.058956385
0.0072633266 0.036316633 0.059551358
0.0084630372 0.036270157 0.060233414
0.0096946619 0.036354985 0.059589446
0.010936738 0.036455791 0.059391737
0.012143425 0.036430273 0.059232771
0.01330012 0.036273055 0.058742762
0.014438327 0.03609582 0.05787462
0.016110148 0.037177265 0.057725757
0.017511846 0.037525386 0.057632238
0.018524257 0.037048515 0.057279825
0.019685335 0.036910005 0.053224772
0.020889094 0.036863107 0.051758051
0.022816489 0.03802748 0.0482063
0.023045162 0.036387097 0.045824081
0.023950454 0.035925679 0.03976047
0.025100771 0.035858244 0.032702386
0.029074023 0.039646395 0.027028263
-0.022151435 0.038149692 0.017255664
-0.020808803 0.037945464 0.02503103
-0.019914979 0.038585272 0.032346427
-0.019706979 0.040727757 0.03874141
-0.01818227 0.04026074 0.041653991
-0.016137596 0.038481962 0.043849558
-0.015061559 0.038909029 0.046048522
-0.013650931 0.038470805 0.049891472
-0.012541568 0.038878862 0.051729113
-0.011370171 0.039163921 0.052487165
-0.0096871601 0.037537746 0.0538477
-0.0084476564 0.037411053 0.054925382
-0.0072497781 0.037457187 0.05752632
-0.0060401824 0.037449129 0.059292614
-0.0048649362 0.037703257 0.059463918
-0.0036334705 0.037545864 0.059749514
-0.0024028986 0.037244927 0.060344934
-0.0011871714 0.036802314 0.060544014
0 0.036834065 0.061326802
0.0011917943 0.036945622 0.061488301
0.002410223 0.037358455 0.062737197
0.0035857423 0.037052672 0.061993331
0.004754954 0.036850892 0.0618608
0.005981951 0.037088096 0.060753584
0.0070815724 0.036588125 0.061304182
0.0084140413 0.037262183 0.06186372
0.0096621895 0.037440985 0.062517315
0.010812143 0.037241824 0.062392503
0.012057215 0.037377365 0.061121672
0.013215881 0.037244756 0.060252249
0.01440552 0.037214257 0.059213161
0.016143838 0.038496844 0.058860004
0.017434651 0.038605299 0.058578163
0.018519955 0.038274571 0.058145523
0.019835312 0.038430914 0.054004341
0.020701731 0.037750214 0.052309543
0.023236444 0.04001832 0.048837692
0.023951463 0.039078705 0.046593249
0.024011005 0.037217058 0.039085567
0.025202135 0.037203152 0.032804966
0.027328622 0.038508512 0.028885782
-0.024592608 0.04141913 0.011352718
-0.022256251 0.03956667 0.018876076
-0.021479681 0.040432341 0.025063694
-0.020768903 0.041537806 0.029740095
-0.019550931 0.041708656 0.039753199
-0.018280204 0.041783325 0.042690754
-0.016129836 0.039704215 0.045618653
-0.014855654 0.039615076 0.047980428
-0.013772382 0.040065113 0.052204996
-0.012576937 0.040246196 0.05507803
-0.0112146 0.039874136 0.056839645
-0.0096762478 0.038704991 0.058135122
-0.0084456811 0.038608827 0.059409559
-0.0072210785 0.03851242 0.06176874
-0.0061083753 0.039093602 0.062331587
-0.004801142 0.038409136 0.062337697
-0.0035719478 0.038100775 0.06225872
-0.0023117226 0.036987562 0.06225872
-0.0011504708 0.036815066 0.061966151
0 0.037020657 0.062771142
0.0011792762 0.037736837 0.062773079
0.0023437683 0.037500292 0.06373921
0.0035303612 0.037657186 0.063208789
0.0046376791 0.037101433 0.062898815
0.005735734 0.036708698 0.062515765
0.0068959733 0.036778525 0.062915653
0.0082759941 0.037833117 0.06352675
0.0095879287 0.038351715 0.06411922
0.010873881 0.038662687 0.064049333
0.012022001 0.038470402 0.063199729
0.013210824 0.038431488 0.061416775
0.014487106 0.038632281 0.060621381
0.016061999 0.039537229 0.05977869
0.017280173 0.039497536 0.05979538
0.018597404 0.039674461 0.059536487
0.01957153 0.039143059 0.055129737
0.020978186 0.039488353 0.053213865
0.023312734 0.04144486 0.049613446
0.024282807 0.040897362 0.047217906
0.024875738 0.03980118 0.038794577
0.025599027 0.03900804 0.034391403
0.0265522 0.038621385 0.029266655
-0.023969349 0.041630972 0.011292696
-0.022518335 0.041283615 0.019775987
-0.021999061 0.042704061 0.02484566
-0.020632258 0.042554032 0.03076607
-0.019902034 0.043784473 0.040694952
-0.018305767 0.043149307 0.043993056
-0.016006637 0.040632233 0.04747659
-0.014866412 0.040882632 0.050046891
-0.01380856 0.041425679 0.053791732
-0.012482073 0.04119084 0.056723207
-0.011211302 0.041108109 0.059518903
-0.0094704954 0.039065793 0.061009884
-0.0083055319 0.039154653 0.062793583
-0.0071671698 0.039419435 0.064042509
-0.0059395507 0.039201036 0.064514935
-0.0046970667 0.038750801 0.065001428
-0.0034570131 0.038027141 0.064320534
-0.0023060299 0.038049493 0.063602656
-0.0011488264 0.037911274 0.06411922
0 0.038091525 0.064887404
0.0011409085 0.037649982 0.064933717
0.0022772376 0.037574422 0.064944506
0.0034453163 0.037898481 0.064933717
0.0045699053 0.037701719 0.064788669
0.0057422156 0.037898622 0.064700603
0.0068731559 0.037802357 0.064895093
0.0080519533 0.037959211 0.065608084
0.0093817348 0.038699657 0.066523492
0.01063271 0.038986601 0.065885127
0.011887203 0.039227769 0.065484792
0.013035518 0.039106555 0.064074725
0.014029627 0.038581476 0.062768906
0.015930256 0.040438343 0.061409324
0.017442977 0.041115589 0.060979128
0.018444493 0.040577885 0.060615033
0.019656939 0.040542439 0.055988103
0.020861004 0.040494889 0.054292411
0.022906655 0.041995537 0.05054304
0.02459209 0.042712577 0.047739416
0.025565829 0.042183619 0.039429188
0.0261099 0.041029841 0.034120083
0.026950406 0.04042561 0.029026449
0.030506378 0.043770023 0.016015768
-0.022763882 0.042998444 0.020809948
-0.021879317 0.043758634 0.026705801
-0.02073718 0.044066507 0.032098532
-0.019899495 0.045105521 0.041726291
-0.018010736 0.043740354 0.04560715
-0.01611717 0.042152599 0.049147964
-0.014953308 0.042367704 0.051953167
-0.013661999 0.042227998 0.056211621
-0.012423185 0.042238828 0.059167504
-0.010714848 0.040478311 0.063144118
-0.0093214586 0.039616201 0.064322084
-0.0081860209 0.039760675 0.065072775
-0.0070204623 0.039782621 0.066081345
-0.0057357685 0.039003223 0.066320896
-0.0045743501 0.038881976 0.066381395
-0.0033927029 0.038450632 0.065980911
-0.0022599173 0.038418595 0.065711975
-0.0011308683 0.038449522 0.066247851
0 0.037942033 0.066663176
0.0011189367 0.038043849 0.066499591
0.0022231033 0.037792757 0.067017794
0.00335529 0.03802662 0.066360116
0.0045266259 0.038476318 0.065908551
0.0056923018 0.038707651 0.065897763
0.0067355717 0.03816824 0.066277564
0.0079308767 0.038521402 0.06747818
0.0090768766 0.038576726 0.068391621
0.010323176 0.038998663 0.068676591
0.011588817 0.039401982 0.067663729
0.012659865 0.03913049 0.066537142
0.013854392 0.03925411 0.065910965
0.015238392 0.039854258 0.064938247
0.017156715 0.04166631 0.063722074
0.01847136 0.041868418 0.06191662
0.019708613 0.041880801 0.057491869
0.020483091 0.040966183 0.05508399
0.023167126 0.043760128 0.052052349
0.024828129 0.044429284 0.047965109
0.025168831 0.042787012 0.040075004
0.026954653 0.043640867 0.034276843
0.027502209 0.042503413 0.03055191
0.029318426 0.043340281 0.010320365
-0.022958426 0.044641383 0.022852182
-0.022175893 0.045656249 0.028669655
-0.021012437 0.045964703 0.033691406
-0.019711781 0.045994155 0.043485224
-0.018234916 0.04558729 0.048075557
-0.016003245 0.043085657 0.052321553
-0.01474171 0.042996656 0.056737006
-0.013523398 0.043028992 0.059973598
-0.012056322 0.042197127 0.065441847
-0.010554185 0.041044053 0.066747874
-0.009330688 0.040821761 0.067539245
-0.0080221072 0.040110532 0.068236053
-0.0068443622 0.039925445 0.068678021
-0.0057310904 0.040117633 0.067598164
-0.0045377733 0.039705515 0.068613738
-0.0034303705 0.040020987 0.067847997
-0.0022965369 0.040189397 0.067353934
-0.0011457019 0.040099565 0.067221224
0 0.040129051 0.067539066
0.001148998 0.04021493 0.067533672
0.0022899446 0.040074032 0.068121195
0.0034487089 0.040234938 0.067823231
0.0046060919 0.040303305 0.067457914
0.0057173073 0.040021151 0.067521989
0.0068724067 0.040089041 0.067742229
0.0079856142 0.039928071 0.068900824
0.0090934066 0.039783653 0.069131315
0.010224164 0.039760642 0.069947898
0.011364925 0.039777234 0.069390774
0.012610019 0.040122788 0.068700433
0.013953119 0.040696595 0.068465501
0.015048548 0.040515322 0.068291396
0.016786754 0.041966885 0.066570282
0.018267222 0.042623516 0.0635086
0.019432431 0.042508446 0.060705662
0.020699875 0.042617388 0.056677282
0.023203066 0.045117069 0.05431509
0.02457129 0.045262903 0.050257206
0.025477184 0.044585072 0.040678442
0.026896052 0.044826753 0.035348237
0.027200229 0.043273091 0.030658484
0.029244721 0.044502836 0.0081806779
-0.023297004 0.046594009 0.024749875
-0.022147495 0.046900578 0.030568361
-0.020726098 0.04663372 0.03534025
-0.019786322 0.047487173 0.0449633
-0.017971819 0.046213251 0.050810933
-0.015708748 0.04350115 0.054647326
-0.0144792 0.043437604 0.059190303
-0.013245856 0.043350074 0.066492796
-0.011601689 0.041766081 0.067986041
-0.010398459 0.041593835 0.068419933
-0.0092550479 0.041647717 0.06962502
-0.0080452869 0.04137576 0.070490658
-0.0069451062 0.041670639 0.07051295
-0.0057671154 0.041523229 0.070183247
-0.0046408931 0.041768037 0.069676042
-0.0035350146 0.042420175 0.068717599
-0.0023670155 0.042606276 0.067894936
-0.0011913658 0.04288917 0.067747146
0 0.043372363 0.068236589
0.0012020287 0.043273032 0.0680978
0.0024282364 0.043708257 0.069044262
0.0036448154 0.043737784 0.068448961
0.0047983127 0.043184817 0.068448961
0.0059563974 0.042886063 0.068177968
0.007098923 0.042593539 0.068632513
0.0081714857 0.042024784 0.070070922
0.00930967 0.041893516 0.070769906
0.010319765 0.041279059 0.070982754
0.011468742 0.041287474 0.070569277
0.012549607 0.041071441 0.070388824
0.013604743 0.040814232 0.070038497
0.014867348 0.041171119 0.069546014
0.016320646 0.041967373 0.068551511
0.017800057 0.042720139 0.066728175
0.019297173 0.043418638 0.062187612
0.020611098 0.043647032 0.059233963
0.022649597 0.045299195 0.055302113
0.024760222 0.046914104 0.051065207
0.025658263 0.046184871 0.040819645
0.026908956 0.04612964 0.03601402
0.027831381 0.045542259 0.03159821
0.029539578 0.046235859 0.0075181723
-0.024809062 0.048312385 0.0053076744
-0.024469599 0.05029862 0.026102901
-0.022300018 0.048535332 0.032249928
-0.020742401 0.047966801 0.036995649
-0.019974669 0.04927085 0.046636939
-0.01714755 0.045318525 0.053668886
-0.015535799 0.044217274 0.058110893
-0.014341099 0.044218387 0.065229505
-0.012767679 0.042945832 0.069653004
-0.011544266 0.042713784 0.07014364
-0.010482561 0.043094974 0.071200609
-0.0092110317 0.042601019 0.071607292
-0.0082238745 0.043469049 0.071796656
-0.0070751747 0.043630246 0.071932316
-0.00598688 0.044302914 0.071586311
-0.0049582375 0.045863695 0.070394546
-0.0037487538 0.04623463 0.070395499
-0.0024681911 0.045661535 0.069495946
-0.0012332684 0.045630932 0.068968773
0 0.04494429 0.068584919
0.0012174014 0.045043848 0.068557769
0.0024457977 0.045247257 0.068769127
0.003648883 0.045002889 0.068783283
0.0048933346 0.045263346 0.068271518
0.0061853556 0.045771629 0.068236649
0.0074444516 0.045907453 0.069691181
0.0087540001 0.046271145 0.070602536
0.0097828601 0.045245726 0.071011364
0.010795039 0.044379603 0.071336746
0.011787291 0.043612976 0.07110244
0.01275912 0.042917039 0.071015716
0.013766536 0.042446818 0.07119447
0.014904066 0.042419266 0.071084976
0.015909322 0.042046063 0.069710881
0.017299114 0.042671148 0.068127304
0.01887187 0.043641202 0.06335628
0.019794101 0.04308128 0.060928226
0.022227865 0.045690611 0.056586564
0.024582913 0.047871988 0.05054152
0.025349831 0.046897188 0.041560709
0.02738883 0.048256509 0.036813736
0.028411813 0.047783505 0.032174885
0.029198756 0.046971913 0.0077789426
-0.025355224 0.050710447 0.0062565207
-0.024716496 0.052179273 0.025092721
-0.022020247 0.049221728 0.033725202
-0.020945154 0.04974474 0.038330197
-0.019510519 0.049426649 0.048505425
-0.016946957 0.045998886 0.057199866
-0.015579102 0.04553891 0.063436657
-0.013930969 0.044114735 0.069023609
-0.012768963 0.044110965 0.070785522
-0.011666918 0.044334289 0.071727604
-0.010458823 0.044159476 0.072116941
-0.0095585743 0.045403227 0.072695017
-0.0085136695 0.046217062 0.072297722
-0.0074786781 0.047364961 0.072896987
-0.006133995 0.046618365 0.071845859
-0.0048460471 0.04603745 0.071796656
-0.0036297643 0.045977015 0.070989847
-0.0024130566 0.045848075 0.069717765
-0.0012050431 0.045791637 0.069289029
0 0.045664415 0.068954468
0.0012024097 0.045691568 0.068327039
0.0023843299 0.045302268 0.068479478
0.0036001403 0.045601778 0.068479478
0.0047864411 0.045471191 0.06906426
0.0059712199 0.045381274 0.069425255
0.0072111851 0.045670837 0.070015192
0.0084881177 0.04607835 0.070740163
0.0097237239 0.046187688 0.071157217
0.011137338 0.047024317 0.071350038
0.012462064 0.047355842 0.071421504
0.013270429 0.045843303 0.071742505
0.014221706 0.045035403 0.071848512
0.015126519 0.044215977 0.071886122
0.015994016 0.043412331 0.07126072
0.017256062 0.043715358 0.069091946
0.018286103 0.043429498 0.066151202
0.019919062 0.04452496 0.063288867
0.021615904 0.045633573 0.059787691
0.023994433 0.047988866 0.051871836
0.025560398 0.048564754 0.042607307
0.027433816 0.049642142 0.038133085
0.028800903 0.049747013 0.030003369
-0.025370525 0.05207634 0.0064283609
-0.024821023 0.053778883 0.023237884
-0.022057619 0.050602775 0.035345197
-0.020479079 0.049917754 0.041894019
-0.018964197 0.049306914 0.053911984
-0.016877862 0.0470169 0.062915713
-0.015113941 0.045341823 0.068050861
-0.013992559 0.045475818 0.070859313
-0.012870814 0.045632884 0.072027951
-0.011705067 0.045649763 0.073228776
-0.010931313 0.047369022 0.073302329
-0.0099607604 0.048558705 0.073432505
-0.0085921297 0.047870435 0.07336244
-0.0073391302 0.047704346 0.073260278
-0.0060374867 0.047092397 0.072748601
-0.0048186351 0.046981692 0.071908385
-0.003604362 0.046856705 0.070665151
-0.0024098831 0.046992723 0.069821984
-0.0012031578 0.046923157 0.068959981
0 0.04707728 0.068872064
0.001198133 0.046727188 0.068365753
0.0024092849 0.046981059 0.068325758
0.0036278707 0.047162317 0.06831032
0.0047552292 0.046363484 0.068354487
0.0060105701 0.046882447 0.069024205
0.0072153155 0.046899553 0.069461554
0.0083329668 0.046426531 0.070238978
0.0096449712 0.047019232 0.070662111
0.010789753 0.046755597 0.071285754
0.012057302 0.047023475 0.071295083
0.013552934 0.048051309 0.071318001
0.014952615 0.048595998 0.071320206
0.015542215 0.046626646 0.072093964
0.016417518 0.045734517 0.071638793
0.017406639 0.045257259 0.070238441
0.018288 0.044576999 0.06810686
0.019801969 0.045428045 0.065260231
0.021223836 0.045984976 0.062481999
0.02373335 0.048715822 0.053908437
0.025641559 0.05000104 0.044511676
0.027015673 0.050171964 0.038787961
0.029577132 0.052432191 0.030790865
-0.027570229 0.055140458 0.0064347982
-0.026037039 0.054814819 0.0080644488
-0.025165074 0.055922385 0.022830307
-0.021878511 0.051478852 0.036456883
-0.020150984 0.050377458 0.045937419
-0.018275777 0.048735406 0.062935084
-0.016357815 0.046736613 0.067944109
-0.015133917 0.046565901 0.070408791
-0.014119276 0.047064256 0.073141992
-0.01310793 0.047665201 0.07384482
-0.012227874 0.048911497 0.074085146
-0.011146668 0.049540747 0.074019879
-0.0096891439 0.04844572 0.074023366
-0.0084532741 0.048304424 0.073597074
-0.0072039771 0.048026513 0.073646933
-0.0060160682 0.048128545 0.073137283
-0.0048127454 0.048127454 0.07226938
-0.0035943885 0.047925182 0.071852744
-0.0024190156 0.048380312 0.070977211
-0.0012148999 0.048595998 0.069333076
0 0.047873858 0.069257319
0.0012095188 0.048380751 0.068685323
0.002428941 0.048578817 0.068709731
0.0035929536 0.047906049 0.068081409
0.0047689802 0.047689799 0.068017215
0.0060378904 0.048303124 0.068213493
0.0071828137 0.047885422 0.068974406
0.0083858985 0.047919422 0.069888502
0.0095805833 0.047902916 0.070506454
0.010682381 0.047477249 0.071066141
0.011992964 0.047971856 0.071364045
0.013254546 0.04819835 0.071142972
0.014595488 0.048651628 0.071467102
0.016315574 0.050201766 0.071641833
0.01707728 0.048792232 0.072142988
0.017562348 0.04683293 0.071279496
0.018600466 0.046501163 0.069022417
0.019577222 0.046064049 0.067250967
0.020986844 0.046637431 0.065602452
0.02319321 0.048827812 0.059531033
0.024706069 0.049412139 0.047439575
0.027193397 0.051796947 0.039461553
0.029724602 0.054044731 0.030644417
-0.029031495 0.056680538 0.005083859
-0.027693029 0.056770712 0.0062735677
-0.026794644 0.057820022 0.0081405044
-0.02494552 0.056820352 0.016535878
-0.021630423 0.05216749 0.039357424
-0.019965451 0.051161468 0.050053477
-0.017759016 0.048541307 0.064785182
-0.016368313 0.047935769 0.070187658
-0.015302878 0.048262924 0.071682453
-0.014149015 0.048342466 0.073367774
-0.013593804 0.050667815 0.074733049
-0.012302023 0.050438296 0.074872375
-0.010863275 0.049488258 0.074357986
-0.0096744243 0.049581423 0.073678046
-0.0084111253 0.049265161 0.07372278
-0.0072406512 0.049477782 0.073858738
-0.0060687358 0.049763631 0.072645128
-0.004846036 0.049671866 0.072204649
-0.0036306591 0.049619008 0.071541965
-0.0024330257 0.049877025 0.070832819
-0.0012086352 0.049554043 0.070312709
0 0.049688954 0.070440948
0.0012139541 0.049772117 0.069809854
0.0023971687 0.049141958 0.069382578
0.0036204399 0.049479347 0.068124652
0.0048352787 0.049561609 0.06742543
0.0059713298 0.048964903 0.068162918
0.0071947589 0.049164183 0.068989217
0.0084529528 0.049510151 0.06951955
0.0095836017 0.04911596 0.070200711
0.010829936 0.049336374 0.071034223
0.012086346 0.049554016 0.071413845
0.013231058 0.049315762 0.071160108
0.014687363 0.050181825 0.071252674
0.01583557 0.049942955 0.071827203
0.017556529 0.051415548 0.072003216
0.018174682 0.049677461 0.071332961
0.018762518 0.048078954 0.069906116
0.019993095 0.048218638 0.068048
0.021024004 0.047888007 0.066399485
0.022431143 0.048404045 0.060611755
0.024509113 0.050243683 0.049828529
0.027013591 0.05274082 0.040805757
0.02984681 0.055623598 0.027390361
-0.029115049 0.058230098 0.005757153
-0.027814353 0.058410142 0.0078630447
-0.026652329 0.058915675 0.0090527534
-0.025038613 0.05842343 0.015733659
-0.021600589 0.053366162 0.04094249
-0.019315854 0.050704114 0.056275427
-0.017875699 0.050051957 0.067421585
-0.016615231 0.049845692 0.071651101
-0.015269791 0.04933317 0.072332382
-0.014638632 0.05123521 0.073619902
-0.013552349 0.051745333 0.074705124
-0.012055957 0.050635017 0.074705124
-0.010868179 0.050718166 0.074317873
-0.0096104499 0.050454862 0.074017972
-0.0084220646 0.050532386 0.074004412
-0.0072937333 0.051056135 0.07434386
-0.0060586012 0.050892249 0.073332906
-0.0048546568 0.050973896 0.072490215
-0.0036272712 0.050781798 0.071929097
-0.0024179781 0.05077754 0.071494907
-0.0012136591 0.050973684 0.070633143
0 0.051232241 0.070534706
0.0012082234 0.050745383 0.070201218
0.0024196506 0.050812662 0.070088148
0.0036376645 0.050927304 0.0692285
0.0048226416 0.050637737 0.068335176
0.006074131 0.051022697 0.068036258
0.0072865658 0.05100596 0.068497092
0.0084412955 0.050647777 0.069324613
0.0097083943 0.050969068 0.070175201
0.010818194 0.050484903 0.070469081
0.012029681 0.050524663 0.070527792
0.013309322 0.050817415 0.070065051
0.014480286 0.050681002 0.070879132
0.015760312 0.050917927 0.071394712
0.017133411 0.051400237 0.072078317
0.018771991 0.052561574 0.072323471
0.019433318 0.05101246 0.070065051
0.020181179 0.049859382 0.068505585
0.020751651 0.048420519 0.06761989
0.022136772 0.048933916 0.064418107
0.024379024 0.051195953 0.055025756
0.026345231 0.052690461 0.041027963
0.030763943 0.058731165 0.015306652
-0.029366145 0.060130678 0.0063198805
-0.027800635 0.059771363 0.0074498653
-0.026528131 0.060037348 0.0096072555
-0.025220584 0.060249172 0.012909949
-0.021713644 0.054922748 0.046269655
-0.019292954 0.051849812 0.060114026
-0.017916095 0.051359471 0.069107473
-0.016564421 0.050876435 0.073103756
-0.015714515 0.051978782 0.073704094
-0.015027422 0.053848267 0.074729532
-0.013270577 0.051875893 0.075222015
-0.012193245 0.052430954 0.075424254
-0.01095628 0.052346673 0.075244665
-0.0097026406 0.052151695 0.074620605
-0.0085428441 0.052477468 0.074620605
-0.0072869039 0.052222811 0.074715227
-0.0061051561 0.052504346 0.073792309
-0.0048735109 0.05239024 0.073798567
-0.0036287014 0.052011386 0.072825164
-0.002416902 0.051963393 0.072753251
-0.001213477 0.052179512 0.071616799
0 0.052210473 0.071519792
0.0012158054 0.052279633 0.070870697
0.0024520075 0.052718159 0.070653498
0.0035964623 0.051549293 0.070248127
0.0048725554 0.052379973 0.06988126
0.0060630683 0.052142389 0.069286823
0.0072342502 0.051845461 0.069648504
0.0085629011 0.052600678 0.070421457
0.009637218 0.051800046 0.070522219
0.010805863 0.051628012 0.070760995
0.012148481 0.052238468 0.071006894
0.013362489 0.052235182 0.070640236
0.014526127 0.052051958 0.070723087
0.015710637 0.051965952 0.070997655
0.016987115 0.05217471 0.071360141
0.018354623 0.052616585 0.071360141
0.019936306 0.053578824 0.070333987
0.020350711 0.051475327 0.069012463
0.021337273 0.050972376 0.06833455
0.02251792 0.050961606 0.066346437
0.023829116 0.051232599 0.05883798
0.026865646 0.055010606 0.042661428
0.030868132 0.060333166 0.014576375
-0.030775398 0.061550796 0.0056111813
-0.029054895 0.060876925 0.0061322451
-0.027728358 0.061002389 0.007580936
-0.026500173 0.061368823 0.0097103119
-0.024821686 0.06067523 0.012765229
-0.021584218 0.055865034 0.051965773
-0.019453146 0.053496148 0.067551702
-0.017790863 0.052186534 0.071250945
-0.016745683 0.052629288 0.073979199
-0.016041625 0.054294731 0.075023592
-0.014635543 0.053663656 0.076031715
-0.013388621 0.053554483 0.076546401
-0.012172835 0.053560473 0.07666111
-0.010869728 0.053140894 0.076415062
-0.0097961156 0.053878635 0.075409442
-0.008488873 0.053358629 0.07563895
-0.0072864839 0.053434215 0.075673252
-0.0060997177 0.053677514 0.074606001
-0.0048569916 0.053426906 0.073118985
-0.0036333322 0.053288873 0.072266459
-0.0024505428 0.053911939 0.072423667
-0.0012176441 0.053576339 0.071539164
0 0.053836443 0.071155697
0.0012215229 0.053747006 0.071161568
0.0024214224 0.05327129 0.070946693
0.0036662715 0.05377198 0.070569158
0.0048515019 0.05336652 0.070076585
0.0060752528 0.053462226 0.070073485
0.0073000877 0.053533979 0.070557386
0.008536486 0.053657912 0.070767462
0.0097493399 0.05362137 0.070638061
0.010948122 0.053524148 0.070934951
0.012112582 0.053295363 0.07046029
0.01336303 0.053452119 0.070128113
0.014653438 0.053729273 0.070173174
0.015705114 0.053155772 0.070995599
0.016916011 0.053164605 0.071421236
0.018418808 0.054028504 0.071419507
0.019852893 0.054595456 0.070068151
0.02081795 0.053881753 0.06965521
0.021573437 0.052735068 0.068609685
0.022202021 0.051415205 0.067066699
0.023789812 0.052337587 0.061692774
0.027136341 0.056857094 0.043446243
0.030037342 0.060074683 0.0087731481
-0.044949502 0.063210241 0.0052381754
-0.043693107 0.063425481 0.005176127
-0.041443676 0.062165514 0.0052381754
-0.04058858 0.062982284 0.005219698
-0.037448447 0.062414076 0.0053465366
-0.036355019 0.06292215 0.0052653551
-0.035194233 0.06334962 0.0051160455
-0.030814918 0.063030511 0.0061109066
-0.029445531 0.063097566 0.0068891644
-0.02803845 0.06308651 0.0084874034
-0.0264936 0.062748 0.0099498034
-0.024353329 0.060883321 0.013496399
-0.02147506 0.056845747 0.056221902
-0.019086692 0.053681321 0.071328223
-0.017973213 0.053919636 0.07402429
-0.016860738 0.054195229 0.076574504
-0.016052127 0.055565052 0.077674776
-0.01470041 0.055126537 0.07751444
-0.01344482 0.055001538 0.077688992
-0.012047435 0.054213457 0.077979743
-0.010937223 0.054686114 0.077735096
-0.0097611118 0.054906253 0.077257067
-0.0085042035 0.054669879 0.077144116
-0.0073919385 0.055439536 0.07622534
-0.006111545 0.055003904 0.075210452
-0.0048905602 0.055018801 0.074751705
-0.0036960882 0.055441324 0.072647989
-0.0024357056 0.054803375 0.071561247
-0.0012216809 0.054975644 0.071248829
0 0.055305932 0.070671529
0.001209454 0.05442543 0.070279509
0.0024513321 0.055154972 0.06998238
0.0036669234 0.055003852 0.069918871
0.0048633642 0.054712843 0.069681853
0.0060850051 0.054765046 0.069476753
0.0073744049 0.055308037 0.069849968
0.0084495181 0.054318327 0.070283741
0.0097677913 0.054943826 0.070450515
0.010975862 0.054879311 0.070721179
0.012190538 0.054857418 0.070479602
0.013423833 0.054915681 0.070407689
0.014579504 0.054673139 0.070387393
0.015865356 0.054918543 0.070721179
0.017079383 0.05489802 0.071296692
0.018256627 0.054769881 0.071032107
0.019769449 0.055601574 0.070387244
0.020935092 0.055416424 0.069769412
0.021419903 0.053549759 0.068763912
0.022489674 0.05326502 0.067585558
0.023944622 0.053875398 0.063220203
0.026497222 0.056779765 0.042117476
0.030399563 0.062180925 0.0051448941
-0.060289189 0.064495414 0.0055716634
-0.05820452 0.063747808 0.0056240559
-0.057469815 0.06447833 0.0057804585
-0.055773031 0.064138986 0.0053693056
-0.054192375 0.063919216 0.0054003596
-0.051783513 0.064379506 0.0054615736
-0.050251629 0.064210415 0.0053693056
-0.049030263 0.064439774 0.0056703687
-0.047441196 0.06418515 0.006265521
-0.046268757 0.064495847 0.006060183
-0.045217659 0.065000385 0.0058990121
-0.043003842 0.063812159 0.0058346987
-0.041898839 0.064244889 0.0058990121
-0.040980089 0.065002903 0.0058346987
-0.0387627 0.063681573 0.0058990121
-0.037917644 0.06460043 0.0056736469
-0.036659803 0.064859651 0.0052449107
-0.034398325 0.063292921 0.0051583648
-0.03070231 0.064195737 0.006061554
-0.029440532 0.064488783 0.0072009563
-0.028111095 0.064655513 0.008197546
-0.026745981 0.064753428 0.010134339
-0.024379503 0.062303174 0.013772607
-0.021387152 0.057871118 0.05663538
-0.019396238 0.055764183 0.0732342
-0.018083783 0.055456936 0.075603664
-0.01687799 0.055456255 0.077774376
-0.016023792 0.056699574 0.078897506
-0.014802308 0.05674218 0.079289943
-0.013347496 0.055816803 0.079895765
-0.012191464 0.056080736 0.07941702
-0.011020143 0.056325175 0.079026788
-0.0097709075 0.056182716 0.078297496
-0.0086050015 0.056547154 0.078045994
-0.0073856586 0.056623384 0.07733804
-0.0061376314 0.056466207 0.076290578
-0.0049216817 0.056599341 0.074890167
-0.0036714883 0.056296155 0.073512942
-0.0024516298 0.056387484 0.072755903
-0.0012287468 0.056522358 0.071076304
0 0.056105711 0.070710659
0.0012264815 0.056418151 0.069829434
0.0024572334 0.056516364 0.069146186
0.0036392978 0.055802565 0.068979859
0.0048966454 0.056311425 0.06882748
0.0061388235 0.056477174 0.068536371
0.0073491796 0.056343708 0.069161862
0.0086054187 0.056549896 0.06958881
0.009725133 0.055919517 0.070177794
0.010973477 0.056086659 0.07024464
0.012232585 0.056269892 0.070392728
0.013509408 0.056493886 0.070510089
0.01468361 0.056287169 0.070522755
0.015850287 0.056085631 0.0713965
0.016907183 0.055552177 0.072067052
0.018311651 0.056155734 0.071969718
0.019649759 0.056493055 0.071160108
0.02099327 0.056805316 0.07020393
0.021540839 0.055048808 0.070148855
0.022843663 0.055305712 0.068502665
0.023815714 0.054776143 0.063348532
0.02673752 0.058567904 0.042673409
-0.067655094 0.066245608 0.0050480366
-0.064054944 0.065447442 0.0057195425
-0.063958526 0.066801131 0.005369544
-0.062063597 0.066295207 0.0062403083
-0.059822686 0.065387592 0.005961895
-0.058973875 0.065994576 0.0062558651
-0.057564408 0.065988466 0.0062558651
-0.056280579 0.066129677 0.0062558651
-0.054777659 0.066014104 0.0061281323
-0.05321167 0.065814435 0.0059818029
-0.052251004 0.066372894 0.0061480403
-0.050574161 0.066027381 0.006182909
-0.049084086 0.065912917 0.0059018731
-0.047495604 0.065655686 0.0059351921
-0.04639985 0.066084631 0.0058717132
-0.044399902 0.065212354 0.0056672692
-0.043744262 0.066321947 0.005644381
-0.042451348 0.066507116 0.0052434206
-0.032120835 0.065638229 0.0050947666
-0.031172115 0.066594973 0.0059369802
-0.029539078 0.066111274 0.0069403052
-0.028237062 0.066357091 0.0084678531
-0.026716366 0.066087857 0.0099214315
-0.024688376 0.064464092 0.011858344
-0.021311358 0.058919638 0.049859405
-0.019546274 0.057417177 0.073213607
-0.017871715 0.055998042 0.076402366
-0.016937647 0.056862101 0.078689784
-0.016015528 0.057902295 0.079669446
-0.014600993 0.057187222 0.079998612
-0.013528643 0.057804205 0.080283254
-0.012290603 0.05776583 0.079748601
-0.010939399 0.057127971 0.079080045
-0.0098073259 0.057618041 0.078502625
-0.008602228 0.057757817 0.078242511
-0.0073478878 0.057558455 0.077540427
-0.0061258236 0.057582743 0.077205867
-0.0049110381 0.057704698 0.075845212
-0.0036701285 0.057498682 0.074575454
-0.002459897 0.057807576 0.073220998
-0.0012257887 0.057612069 0.072454602
0 0.057371411 0.071722835
0.0012337131 0.057984516 0.069392443
0.0024498871 0.05757235 0.069189817
0.0036685199 0.057473481 0.068695456
0.0049591786 0.05827035 0.068491429
0.0060683307 0.057042312 0.068192512
0.0073718373 0.05774606 0.068477929
0.0086460151 0.058051813 0.069538474
0.0098082796 0.057623643 0.069951743
0.011109883 0.058018278 0.070261449
0.012313237 0.057872213 0.07036379
0.013495885 0.057664234 0.070448607
0.014693187 0.057548314 0.070952088
0.015909465 0.057518836 0.071042091
0.017029351 0.057169963 0.072030216
0.01837098 0.057562407 0.072055012
0.019572945 0.057495527 0.071052581
0.021148421 0.058469165 0.070819378
0.021771885 0.056848813 0.070472926
0.022717677 0.056196362 0.069044709
0.02412243 0.056687709 0.061973006
0.027142365 0.060747199 0.017380178
-0.065437518 0.066829808 0.0052857399
-0.064743333 0.067558259 0.0055094957
-0.063523322 0.06775821 0.0052421689
-0.061513133 0.067105241 0.0055270791
-0.060907278 0.067989521 0.0062111616
-0.059065342 0.067503251 0.0055094957
-0.056895722 0.066609628 0.0067384839
-0.05657392 0.067888707 0.0060575604
-0.055126198 0.067847624 0.0064315796
-0.053413976 0.067470282 0.0067943931
-0.05227663 0.067818329 0.006362617
-0.050520215 0.067360289 0.0055776238
-0.049332794 0.067656405 0.0055797696
-0.047953252 0.06769871 0.0065252185
-0.046508998 0.067649454 0.0063914061
-0.044975329 0.067462996 0.0065252185
-0.043984812 0.068105519 0.0063700676
-0.041850243 0.066960387 0.0057740808
-0.040949833 0.067779034 0.0055312514
-0.039795652 0.068221115 0.0054982305
-0.037777383 0.067159794 0.005361259
-0.036694538 0.067743763 0.0056065321
-0.035301924 0.067779697 0.0056518316
-0.033822015 0.06764403 0.0053943992
-0.032452844 0.067727678 0.0058990717
-0.030819679 0.067242935 0.006505549
-0.02972354 0.06793952 0.0070027709
-0.028217601 0.067722246 0.0087504387
-0.026743148 0.067561634 0.010852635
-0.025164919 0.067106448 0.012273967
-0.021897046 0.061826952 0.029023886
-0.019510385 0.05853115 0.068560123
-0.018082002 0.057862405 0.077377141
-0.016984647 0.058233075 0.079954505
-0.015925933 0.058803447 0.080650389
-0.01456838 0.05827352 0.080606848
-0.013573322 0.059229039 0.080604494
-0.01222585 0.058684085 0.079984903
-0.011029608 0.058824576 0.07940039
-0.0097855404 0.058713242 0.078979731
-0.0085677318 0.05875016 0.078638434
-0.0073426254 0.058741003 0.077990711
-0.0061535928 0.059074491 0.076808304
-0.0049203858 0.059044629 0.075933576
-0.0036891159 0.059025854 0.075134575
-0.0024629012 0.059109628 0.074010462
-0.0012291392 0.058998678 0.07322529
0 0.059258971 0.071954995
0.0012137153 0.058258336 0.071051985
0.0024287191 0.058289256 0.069602191
0.0036989416 0.059183065 0.0689345
0.0048777489 0.058532987 0.068501651
0.0061899167 0.059423201 0.068376064
0.007469099 0.059752792 0.068731189
0.0085773179 0.058815897 0.069613278
0.0098041166 0.058824699 0.069719255
0.011063901 0.059007473 0.069912702
0.012314556 0.05910987 0.070816904
0.013551057 0.059131887 0.070345491
0.014841247 0.059364989 0.071375221
0.015879506 0.058632027 0.072400779
0.01712963 0.058730159 0.072582453
0.018408721 0.058907907 0.072511941
0.019514192 0.058542576 0.072288692
0.021070646 0.05949359 0.07196945
0.021648103 0.057728276 0.070841223
0.022981633 0.058058862 0.069584638
0.024539322 0.05889437 0.055547476
0.027689014 0.063289173 0.011091471
-0.058738165 0.070199274 0.005081892
-0.056184206 0.068825655 0.0052118897
-0.055511042 0.069744647 0.0058176517
-0.053910799 0.069516554 0.0059306026
-0.052212007 0.069145635 0.0067374706
-0.051018871 0.069442354 0.0071941614
-0.04965983 0.069523759 0.0060939789
-0.047918059 0.069058381 0.006573081
-0.046478771 0.069013931 0.005815208
-0.045078989 0.0690272 0.005815208
-0.043444749 0.068670735 0.005815208
-0.042492546 0.06940449 0.0062310696
-0.041493095 0.070109025 0.005543232
-0.039154589 0.068520531 0.0055257082
-0.038382944 0.069657937 0.0050988793
-0.03098915 0.069021285 0.0067558885
-0.029931353 0.069839828 0.0075290203
-0.028079109 0.068793818 0.0086773038
-0.026970828 0.069556348 0.0097182989
-0.02551131 0.06944745 0.012515545
-0.022562874 0.065034173 0.020369112
-0.019805579 0.060654584 0.066666543
-0.018263413 0.059660483 0.079042286
-0.016720034 0.05852012 0.080850154
-0.01590904 0.059964843 0.082087636
-0.014727768 0.060138382 0.082403094
-0.013291288 0.059206646 0.082428455
-0.012200369 0.059781805 0.081911832
-0.011074673 0.060295444 0.081232369
-0.0098213255 0.060155623 0.079889804
-0.0086577795 0.060604461 0.079768807
-0.0073655364 0.060151882 0.078818619
-0.0061664181 0.060430899 0.078096896
-0.0049568354 0.060721233 0.076042354
-0.0037107407 0.060608763 0.075235784
-0.0024519607 0.060073037 0.074249595
-0.001238788 0.060700614 0.073268324
0 0.060152497 0.071782172
0.0012317647 0.060356472 0.070963442
0.002480292 0.060767151 0.069676816
0.0037052054 0.060518354 0.069097102
0.0049842135 0.061056618 0.067656994
0.0062333732 0.061087057 0.067209244
0.0073798201 0.060268529 0.068623155
0.00868819 0.060817331 0.069723994
0.0097899046 0.059963167 0.070585668
0.011135191 0.060624927 0.070861131
0.012402677 0.060773116 0.071438968
0.013532793 0.060282443 0.071274191
0.014858417 0.06067187 0.071748018
0.015978642 0.060227193 0.072443455
0.017108951 0.059881326 0.073067069
0.018445423 0.060255047 0.073379189
0.019724691 0.060406867 0.072920233
0.020694597 0.059649132 0.071891963
0.021737324 0.05917383 0.071255296
0.023032805 0.059400391 0.06859991
0.024461022 0.059929505 0.051886916
0.028894028 0.067419402 0.0080208182
-0.064360142 0.069956675 0.0050929785
-0.064247139 0.071385711 0.005012691
-0.062791623 0.071354121 0.00518471
-0.061008815 0.070940487 0.0051749945
-0.060676165 0.072233528 0.0053470135
-0.058719326 0.071608938 0.0055621266
-0.056775063 0.070968829 0.0057573318
-0.05597369 0.071761139 0.0057111382
-0.054271739 0.071410187 0.0059334636
-0.052519832 0.070972748 0.0062415004
-0.051380187 0.07136137 0.0066680908
-0.049670916 0.07095845 0.0067389607
-0.048197083 0.070878066 0.0066993833
-0.046896406 0.071055159 0.0066993833
-0.044846363 0.070072442 0.0059452653
-0.044177528 0.071254082 0.0056191087
-0.043144617 0.071907699 0.0052942038
-0.041164789 0.070973776 0.0052942038
-0.03987832 0.071211286 0.0055583119
-0.038718391 0.071700729 0.0054314137
-0.03673454 0.070643343 0.0052276254
-0.031210544 0.070933051 0.0050778389
-0.029940406 0.071286678 0.0060546994
-0.028464666 0.071161665 0.0068203807
-0.026942948 0.070902497 0.0095301867
-0.025387563 0.070521004 0.011308134
-0.02367145 0.069621913 0.014517903
-0.020195454 0.063110799 0.048587263
-0.018050388 0.060167957 0.080009043
-0.016886765 0.060309879 0.081839234
-0.015695741 0.060368232 0.082956642
-0.01453298 0.06055408 0.08368066
-0.013490921 0.061322369 0.083729267
-0.012309247 0.061546236 0.083348721
-0.011054326 0.061412923 0.081701905
-0.0098413145 0.061508216 0.080772281
-0.0086515043 0.06179646 0.080507308
-0.0074426294 0.062021911 0.080019087
-0.0062012044 0.062012043 0.07897073
-0.0049622864 0.062028579 0.07708469
-0.0036984137 0.061640229 0.075269759
-0.0024773055 0.061932638 0.073982894
-0.0012394966 0.061974831 0.073424071
0 0.061722185 0.071902007
0.0012361058 0.061805289 0.070758134
0.0024566036 0.061415091 0.069914132
0.0037226842 0.06204474 0.069031298
0.00497228 0.062153496 0.068397015
0.0061327978 0.061327975 0.068246901
0.0074315658 0.061929714 0.069272071
0.0086923083 0.062087916 0.069839627
0.0099041229 0.061900765 0.070523202
0.011199384 0.0622188 0.071557641
0.012404995 0.062024977 0.072335362
0.013595583 0.061798103 0.072378814
0.014814834 0.061728474 0.072484612
0.016059034 0.061765511 0.073180705
0.017179755 0.061356269 0.073363423
0.018439181 0.061463937 0.073694676
0.019500207 0.06093815 0.073034286
0.020569418 0.060498286 0.072787851
0.021937585 0.060937732 0.071942776
0.022716846 0.059781175 0.066210777
0.025295325 0.063238308 0.024514258
-0.061942574 0.07346677 0.0054992437
-0.057651378 0.073505506 0.0052514076
-0.053436119 0.073655196 0.0052989125
-0.050809041 0.071979471 0.0055855513
-0.05011921 0.073030852 0.0057233572
-0.0485944 0.0728916 0.0058675408
-0.046697281 0.072168529 0.005936265
-0.046171039 0.073585093 0.0058960319
-0.044470023 0.073160365 0.0053673387
-0.042484675 0.072223946 0.0052672029
-0.041706901 0.073346615 0.0050640106
-0.039976556 0.072814442 0.0052672029
-0.034243979 0.072768457 0.0051584244
-0.033031978 0.073244825 0.0051763058
-0.02980339 0.072379664 0.0050377846
-0.028553909 0.072812468 0.005461216
-0.0270402 0.072581589 0.0074113607
-0.025692547 0.072795548 0.0084328055
-0.024331328 0.072993986 0.011581659
-0.020739745 0.066107936 0.026188374
-0.018526422 0.062989831 0.070040584
-0.016942581 0.061719406 0.08167401
-0.015475628 0.060712077 0.082740486
-0.014477385 0.061528888 0.083387762
-0.013509821 0.062636442 0.083720356
-0.012230708 0.062376615 0.083610147
-0.011102416 0.062913693 0.083015293
-0.0098792994 0.062980533 0.082118541
-0.0086585041 0.063083388 0.081988901
-0.0074122306 0.063003957 0.081787229
-0.0061925184 0.06316369 0.079489321
-0.0049589034 0.063226022 0.077834547
-0.0037126553 0.063115142 0.076261312
-0.0024828697 0.063313171 0.075487047
-0.0012408514 0.063283414 0.073283911
0 0.063632317 0.072165042
0.0012311599 0.062789157 0.071369529
0.002502609 0.063816525 0.070515752
0.0037401235 0.0635821 0.06948927
0.0049372623 0.062950097 0.068933487
0.006191032 0.063148528 0.069040775
0.0075049726 0.063792266 0.070034385
0.0086768139 0.063216791 0.07023263
0.0098992726 0.063107863 0.070810735
0.011237766 0.063680671 0.071086854
0.01238941 0.06318599 0.072493613
0.013640578 0.063242681 0.072803557
0.014757661 0.06272006 0.072959691
0.016005594 0.062791176 0.073493719
0.017285326 0.062967971 0.07338503
0.018238548 0.062011063 0.073603362
0.019273 0.061432689 0.073350459
0.020600786 0.061802361 0.072723716
0.021752596 0.061632354 0.070661098
0.023240671 0.062382851 0.054168105
0.027150027 0.069232568 0.010485053
-0.028631024 0.074440666 0.0051736236
-0.027381944 0.074940056 0.0061476827
-0.025923328 0.074889615 0.0062770844
-0.024245458 0.07416258 0.0082729459
-0.02228185 0.072416015 0.01294297
-0.01908735 0.066169478 0.046779931
-0.016928399 0.06287691 0.076257914
-0.015481899 0.061927594 0.082735837
-0.014419632 0.062485073 0.083389491
-0.013305151 0.062897079 0.084217936
-0.012328624 0.064108849 0.084293813
-0.011106011 0.064168066 0.083897263
-0.0099290684 0.064538948 0.083363205
-0.0086579612 0.06431628 0.083308607
-0.0074367258 0.06445162 0.082551271
-0.006217082 0.064657651 0.081131339
-0.0049980422 0.064974554 0.078943431
-0.0036903161 0.063965477 0.077134103
-0.002484373 0.064593703 0.076644033
-0.0012482589 0.064909458 0.075136065
0 0.064696439 0.073565513
0.0012527156 0.065141208 0.072394848
0.0024981592 0.064952143 0.071626186
0.0037249001 0.064564936 0.070943147
0.0049773636 0.064705729 0.070436239
0.0062271832 0.064762704 0.070503414
0.0073764762 0.063929461 0.07105425
0.0087149404 0.064739555 0.071513087
0.0098473169 0.064007558 0.071930677
0.011225247 0.064856976 0.072313666
0.01247714 0.064881131 0.073405385
0.013607688 0.064327255 0.073585629
0.014839462 0.064304337 0.073682249
0.016088789 0.064355157 0.074073702
0.01718615 0.063834272 0.073832184
0.018241121 0.063235886 0.073589414
0.019423107 0.063125096 0.073258609
0.020416006 0.06244896 0.071197867
0.022108402 0.063868716 0.059875667
0.024248775 0.066365071 0.022371411
-0.025710482 0.075703084 0.0056195855
-0.024259415 0.075632289 0.0066561103
-0.02279379 0.07550443 0.0081794262
-0.019842532 0.070110284 0.014237106
-0.017480046 0.066174462 0.051786721
-0.015700294 0.064008892 0.079495668
-0.014257138 0.062969021 0.08321327
-0.013103894 0.063136943 0.083843023
-0.012221522 0.064774066 0.084491909
-0.010990906 0.064724222 0.08451885
-0.0099469004 0.065898217 0.083974302
-0.0086137224 0.065218188 0.083222359
-0.0074130492 0.065481938 0.082571626
-0.006256727 0.066321306 0.081836998
-0.0049682194 0.065828905 0.080428451
-0.0037453058 0.066167071 0.078470111
-0.0024973827 0.066180639 0.077206105
-0.0012422288 0.065838128 0.075976074
0 0.066304184 0.075064987
0.0012519095 0.066351205 0.073587596
0.0024851481 0.065856427 0.072426528
0.0037777326 0.066739947 0.071781218
0.0049765338 0.065939076 0.071619719
0.0061786333 0.065493509 0.071626157
0.0074590133 0.06588795 0.072160035
0.0087280348 0.066083692 0.072399229
0.0099606765 0.065989487 0.072779566
0.011208938 0.066008188 0.073416024
0.012306428 0.065224066 0.073670536
0.013523166 0.065157071 0.074047118
0.014837027 0.065530203 0.074398696
0.016049104 0.065430962 0.074831992
0.017077012 0.064648688 0.074476242
0.018153673 0.06414298 0.07365945
0.019048791 0.063099124 0.072532147
0.020584388 0.064174861 0.063820541
0.022821482 0.067196585 0.027732253
0.026099944 0.072805107 0.0057171583
-0.022906456 0.077309288 0.0065645576
-0.021507911 0.077428482 0.008030951
-0.018457884 0.071194701 0.014079034
-0.016006287 0.066487655 0.059721172
-0.014401615 0.064807266 0.080869794
-0.013193894 0.064770028 0.083843112
-0.011854556 0.064014606 0.08428216
-0.010936216 0.065617301 0.084284604
-0.0098464368 0.066463448 0.084382415
-0.0086758388 0.066927902 0.084063292
-0.0074278177 0.066850357 0.083657384
-0.0061790687 0.066733941 0.081826925
-0.0049984693 0.067479335 0.08114782
-0.0037357523 0.067243539 0.080368489
-0.00250241 0.067565069 0.07829833
-0.0012445085 0.067203462 0.076585382
0 0.067860767 0.076168954
0.0012366733 0.066780359 0.075452805
0.0025040722 0.067609943 0.074792773
0.0037646 0.0677628 0.073160499
0.0049379263 0.066662006 0.07243976
0.0062247715 0.067227535 0.072179586
0.0075289533 0.067760579 0.072621495
0.0086583905 0.0667933 0.07288596
0.0099081583 0.06688007 0.073587835
0.011183504 0.067101024 0.073510826
0.012306735 0.06645637 0.073745221
0.013569203 0.066612452 0.074066013
0.014714182 0.066213824 0.074366719
0.015783388 0.065561764 0.074967593
0.016748637 0.064601891 0.074208885
0.018085795 0.065108858 0.073588192
0.019416915 0.065532088 0.064689875
0.021450171 0.068135835 0.029886961
0.024212537 0.07263761 0.0074732304
-0.02169599 0.079551965 0.0052245855
-0.019917635 0.078247853 0.0075596571
-0.017068047 0.072210975 0.015282571
-0.015014796 0.068817817 0.061567843
-0.013174778 0.065873891 0.08189252
-0.011823022 0.065026619 0.08397162
-0.010666939 0.065186851 0.08397162
-0.0096278759 0.066191643 0.084678978
-0.0086269761 0.067783386 0.084087223
-0.0074015977 0.067847975 0.083813965
-0.0061957827 0.068153612 0.082957983
-0.0049821478 0.068504535 0.081444234
-0.0037185354 0.068173148 0.080601871
-0.0024961459 0.068644017 0.079724163
-0.0012508724 0.068797976 0.07751745
0 0.06815213 0.076284647
0.0012537199 0.068954594 0.07559973
0.0025209435 0.069325946 0.075099945
0.0037172898 0.068150312 0.074345708
0.0049916399 0.068635046 0.073301852
0.0062370109 0.068607122 0.072911263
0.0074350536 0.068154655 0.073780119
0.0087332716 0.068618566 0.073908269
0.0098698772 0.06785541 0.074099839
0.011122805 0.067972697 0.074521065
0.012417287 0.068295076 0.074946582
0.013360045 0.066800222 0.074679554
0.014447649 0.066218391 0.074808002
0.015560276 0.065831937 0.074808002
0.016980002 0.066707149 0.073571831
0.018338924 0.067242719 0.065759718
0.020221772 0.069512337 0.031681061
0.022922494 0.074161008 0.0086169243
-0.018636221 0.080279112 0.0060904026
-0.015874702 0.074081942 0.011211395
-0.013940592 0.070970289 0.053561211
-0.012202819 0.068335786 0.080562949
-0.010634246 0.066168644 0.083562762
-0.0095247477 0.066673234 0.08503899
-0.008351123 0.066808984 0.084135771
-0.0071857702 0.067067191 0.083960772
-0.0061653103 0.069051474 0.083271801
-0.004966767 0.069534734 0.08221373
-0.0037020289 0.069104537 0.081374943
-0.002492721 0.069796182 0.080132037
-0.0012476165 0.069866523 0.07818976
0 0.07020209 0.076106042
0.0012534865 0.070195243 0.075060755
0.0024729175 0.069241695 0.074542373
0.0037303104 0.069632463 0.07396403
0.0050085061 0.07011909 0.073754162
0.0061315163 0.068672985 0.073392838
0.0074511329 0.069543906 0.074000061
0.0086793751 0.069435 0.074469715
