ply
format ascii 1.0
comment PCL generated
element vertex 1595
property float x
property float y
property float z
element camera 0
property float view_px
property float view_py
property float view_pz
property float x_axisx
property float x_axisy
property float x_axisz
property float y_axisx
property float y_axisy
property float y_axisz
property float z_axisx
property float z_axisy
property float z_axisz
property float focal
property float scalex
property float scaley
property float centerx
property float centery
property int viewportx
property int viewporty
property float k1
property float k2
end_header
95.851418 58.767414 240.41576
95.989883 58.304596 242.4649
97.116371 58.786083 240.75304
97.50618 58.559212 241.85991
98.140282 58.568291 242.02448
99.011276 58.813229 241.24477
99.876999 59.057972 240.46196
100.50519 59.066643 240.61963
101.36288 59.31105 239.83127
101.98799 59.319466 239.98462
102.83768 59.563549 239.19078
103.45969 59.57169 239.33995
104.08142 59.579723 239.48727
104.92038 59.823334 238.68567
105.32399 59.595444 239.77657
105.73221 59.367489 240.86684
106.35522 59.375095 241.00757
106.97795 59.382587 241.14655
107.39515 59.154423 242.23364
108.01979 59.16172 242.36958
108.44379 58.933407 243.45477
109.07034 58.940506 243.58771
109.50116 58.712063 244.67088
110.51572 59.189793 242.89574
111.13907 59.196529 243.02292
111.76217 59.203171 243.1483
112.19932 58.974361 244.226
112.82437 58.980797 244.34843
113.63002 59.222416 243.51418
114.25217 59.228615 243.63269
114.69815 58.999474 244.70537
115.3223 59.005482 244.82092
115.77516 58.776203 245.89151
116.06404 58.311691 247.9185
116.69484 58.317455 248.03023
117.65297 58.793354 246.22411
118.2785 58.798874 246.33156
119.22161 59.274441 244.51952
119.99834 59.514771 243.66347
120.61599 59.51992 243.76466
121.38506 59.759983 242.90411
121.9999 59.764919 243.00159
122.61457 59.769749 243.09744
123.08476 59.539516 244.15289
123.70152 59.544182 244.2458
124.17865 59.313812 245.29907
124.79751 59.318298 245.3891
125.55081 59.557575 244.51482
126.03474 59.326981 245.56421
126.39363 58.861469 247.57597
127.01672 58.865604 247.66013
127.26495 58.165184 250.63454
127.77254 57.934364 251.68066
128.645 58.407887 249.83191
129.39 58.646465 248.94524
130.36046 59.354465 246.12592
131.31625 60.06229 243.30321
131.81592 59.830986 244.34032
132.42825 59.834351 244.41034
132.93492 59.602917 245.44507
133.24011 58.902012 248.41196
133.76108 58.670483 249.44508
134.38504 58.673561 249.51003
134.8172 58.207218 251.50806
135.4458 58.210155 251.57025
136.16531 58.447636 250.66304
136.70268 58.215767 251.68979
137.41718 58.45306 250.77892
138.21051 58.924854 248.89754
138.99409 59.396542 247.01369
139.689 59.633514 246.09633
140.30244 59.635803 246.1461
140.91583 59.638004 246.19432
141.52913 59.640137 246.24095
142.07309 59.407627 247.25566
142.6218 59.175056 248.26915
143.17526 58.94241 249.28143
143.79553 58.944252 249.3223
144.35611 58.711479 250.33188
144.86424 58.244114 252.31064
145.43677 58.011215 253.31779
146.06645 58.01276 253.35294
146.64612 57.779724 254.35732
147.32567 58.015614 253.41846
147.91006 57.782429 254.41989
148.58472 58.018158 253.4776
149.21416 58.01931 253.50481
149.84358 58.02039 253.5304
150.54398 58.490341 251.6115
151.20158 58.725731 250.6622
151.79298 58.492096 251.65446
152.44572 58.727329 250.70186
153.09361 58.962482 249.74757
153.64285 58.259701 252.67899
154.26965 58.260239 252.69345
154.89645 58.2607 252.70636
155.45834 57.323261 256.60565
156.09476 57.323582 256.61554
156.70836 56.854908 258.56799
157.34956 56.855076 258.57474
157.99734 57.089622 257.60779
158.64447 57.55854 255.66708
159.27844 57.558472 255.66901
159.9111 58.027248 253.72507
160.54332 57.792576 254.69594
161.1749 57.792278 254.69312
161.80649 57.791916 254.68867
162.4381 57.791473 254.68266
163.05699 58.025414 253.70303
163.70134 57.790363 254.66586
164.36806 57.320755 256.59903
165.02451 57.085533 257.5585
165.6411 57.319176 256.57254
166.32718 56.849319 258.50049
166.99577 56.613842 259.45486
167.66922 56.378288 260.40747
168.31552 56.377136 260.38669
168.99628 56.141407 261.33582
169.60826 56.374592 260.34027
170.21547 56.607689 259.34335
170.8179 56.840736 258.34494
171.37149 57.308216 256.37405
172.0549 57.072094 257.31494
172.74319 56.835873 258.25403
173.33379 57.068626 257.24973
174.08075 56.597698 259.15591
174.72517 56.595741 259.11899
175.48674 56.124599 261.02112
176.13612 56.122475 260.98059
176.72223 56.354843 259.96838
177.30357 56.587124 258.95493
178.01657 56.350178 259.87952
178.66386 56.347725 259.83258
179.38426 56.110584 260.75333
179.95871 56.342571 259.73376
180.68413 56.105236 260.65085
181.25392 56.337074 259.62836
181.81898 56.568844 258.60461
182.3793 56.800545 257.57965
183.19749 56.328178 259.45782
183.75562 56.559711 258.42978
184.58611 56.087112 260.3035
185.23682 56.083786 260.23975
185.98485 55.845642 261.14154
186.63821 55.842121 261.07419
187.4958 55.369011 262.93854
188.25873 55.130524 263.83371
189.02664 54.891914 264.72662
189.79953 54.653168 265.61731
190.46567 54.649117 265.54007
190.78949 55.349415 262.56519
191.21552 55.81488 260.55533
191.98898 55.57576 261.43912
192.64603 55.571373 261.35617
193.55093 55.097137 263.19968
194.4657 54.622719 265.04022
195.13293 54.617981 264.95078
195.80034 54.613129 264.85959
196.60147 54.37323 265.72943
197.54364 53.898216 267.55927
198.08044 54.127998 266.4996
199.03513 53.652679 268.32413
199.71317 53.647247 268.2226
200.53711 53.406654 269.08026
200.77359 54.106178 266.0929
201.59793 53.865364 266.94696
202.12137 54.09462 265.87875
202.64014 54.323807 264.80948
203.15425 54.552933 263.7392
203.82402 54.546814 263.62659
204.49402 54.540588 263.51215
205.32944 54.299026 264.35367
206.16994 54.057304 265.19254
207.35568 53.344879 267.94257
208.03882 53.338081 267.81857
208.72223 53.331154 267.69275
209.40587 53.324127 267.565
210.26959 53.081596 268.39053
210.59167 53.54509 266.34921
211.45839 53.302299 267.17047
212.1431 53.294785 267.03516
212.82811 53.28714 266.89795
213.32133 53.514885 265.80609
214.39345 53.035973 267.56995
214.88483 53.263496 266.47476
215.57098 53.255371 266.3298
216.45929 53.011497 267.13361
216.94421 53.238739 266.03412
217.6313 53.230232 265.88333
218.52791 52.985893 266.67963
219.64143 52.505615 268.42136
220.55098 52.26088 269.21088
221.46577 52.015923 269.99731
222.38583 51.770782 270.78055
222.86816 51.997192 269.66818
223.56989 51.987625 269.50055
224.4984 51.741989 270.27591
225.20331 51.732132 270.10358
225.67722 51.958138 268.98538
226.3804 51.948044 268.80951
227.55655 51.465675 270.51666
228.26541 51.455254 270.33536
228.97469 51.444695 270.15192
230.17177 50.961624 271.84769
230.88678 50.950729 271.65869
231.35352 51.175972 270.5282
232.82027 50.455933 273.15158
233.54144 50.444565 272.95474
234.51913 50.196693 273.69299
234.98508 50.42144 272.55447
235.96858 50.173225 273.28693
236.69395 50.161285 273.08057
237.41974 50.149239 272.87192
237.87747 50.373642 271.72729
238.87267 50.124756 272.44791
239.32629 50.348999 271.3002
240.32735 50.099785 272.01483
242.44775 48.903328 276.44891
243.46967 48.653534 277.15289
243.93008 48.877228 275.99442
244.95789 48.627106 276.69217
245.99117 48.376793 277.38596
245.57507 49.31118 273.44119
246.31329 49.297722 273.20496
247.64394 48.810028 274.81693
248.68655 48.559166 275.49875
249.43365 48.545288 275.25287
250.18121 48.531334 275.00452
250.62325 48.754532 273.83182
251.6777 48.503151 274.50061
252.42661 48.48896 274.24496
252.86243 48.712105 273.06747
253.29364 48.93528 271.88928
254.03882 48.921013 271.62802
254.46332 49.144241 270.44754
254.88319 49.367531 269.26642
255.62457 49.353241 268.9996
256.69498 49.101257 269.64438
258.10202 48.611412 271.19797
259.18579 48.359161 271.83319
260.94748 47.631149 274.2865
262.04712 47.378632 274.91104
263.49344 46.88813 276.44043
264.26257 46.873421 276.14673
266.07104 46.144691 278.5726
266.84833 46.129974 278.27081
267.62589 46.115334 277.96646
268.40369 46.100807 277.65948
269.53815 45.848167 278.25336
268.88278 46.786896 274.33066
270.37659 46.296272 275.82181
270.78842 46.520706 274.60529
271.92853 46.2686 275.18692
272.70456 46.255066 274.86566
274.59573 45.526283 277.23349
275.37939 45.513092 276.90402
277.29327 44.784447 279.2572
278.46362 44.533096 279.81342
279.63892 44.281982 280.36499
280.05032 44.508522 279.12833
280.45636 44.735527 277.89136
281.24649 44.724228 277.54379
282.03619 44.713371 277.19379
57.304985 57.59301 232.01332
58.743362 58.073753 230.5251
59.009705 57.846561 231.70393
57.741783 56.675701 236.45206
58.411217 56.685413 236.74225
58.700981 56.459457 237.92487
58.995972 56.23386 239.10747
58.546524 55.53685 242.08334
59.97364 56.01944 240.57507
60.651215 56.03051 240.85785
61.695992 56.277504 240.23868
61.641647 55.817501 242.31766
63.770256 56.771759 238.98752
64.080444 56.547752 240.16129
64.752678 56.559532 240.431
66.488464 57.277977 237.98389
67.504837 57.525299 237.34035
68.515984 57.772617 236.69263
69.521889 58.019909 236.04076
70.866989 58.502518 234.47595
71.517876 58.514397 234.72467
72.847336 58.996799 233.14981
73.155754 58.773453 234.30403
73.134544 58.315048 236.37065
73.123123 57.85685 238.43884
73.12146 57.398834 240.50858
73.129562 56.94099 242.57979
73.796005 56.953255 242.81987
75.749336 57.905182 239.38896
76.724358 58.152092 238.70296
77.693993 58.398861 238.01311
78.029716 58.175934 239.15903
78.370087 57.953037 240.3046
78.715111 57.730186 241.44974
79.678284 57.976665 240.7496
80.027565 57.753777 241.8922
81.588463 58.469151 239.33798
82.236237 58.480633 239.55145
83.477119 58.960987 237.91138
83.82489 58.737801 239.04562
84.76078 58.983383 238.32472
84.823532 58.525784 240.38455
85.756157 58.771152 239.65877
85.83062 58.313572 241.71844
86.47821 58.324493 241.91826
87.125427 58.335323 242.11603
87.218651 57.877785 244.17574
88.418701 58.35667 242.50551
89.336586 58.601238 241.76379
89.979797 58.611614 241.95276
91.156349 59.089825 240.26994
92.322624 59.567772 238.58228
92.692894 59.343773 239.69881
93.846031 59.821301 238.00375
94.475021 59.83094 238.1794
94.594704 59.372917 240.22992
95.227928 59.382408 240.40312
96.110336 59.625492 239.63464
96.246277 59.167389 241.68416
97.125534 59.410213 240.91122
97.515259 59.185654 242.01851
98.149239 59.194614 242.18286
98.782898 59.203465 242.34529
99.416214 59.212193 242.50589
100.28148 59.454273 241.72037
100.91169 59.462734 241.87662
101.99626 59.937878 240.14015
102.84581 60.179413 239.34549
103.46773 60.187443 239.49443
104.30929 60.428658 238.6944
105.14566 60.669701 237.89139
105.54671 60.444088 238.98218
105.95239 60.21843 240.0723
106.3627 59.992714 241.16177
107.19302 60.23325 240.35054
107.60768 60.007378 241.43753
108.22977 60.014534 241.57278
108.65122 59.788521 242.65787
109.07732 59.56245 243.74223
109.50806 59.336327 244.82585
110.32944 59.576115 244.00246
110.95512 59.582779 244.12997
111.58056 59.589344 244.25569
112.20574 59.595787 244.37973
113.01393 59.835011 243.54692
113.81701 60.074078 242.71144
114.43661 60.080166 242.82932
115.056 60.086147 242.9455
115.67516 60.09201 243.06001
115.95201 59.632252 245.08755
116.2384 59.172474 247.11517
117.03284 59.410851 246.26807
117.82221 59.649078 245.41843
118.60651 59.887154 244.56625
119.38574 60.125095 243.71158
120.15993 60.3629 242.85439
120.92905 60.600555 241.99478
121.54155 60.605492 242.09338
121.85558 60.145164 244.11252
122.61929 60.382488 243.24721
123.2337 60.387154 243.34129
123.84793 60.391712 243.43376
124.32257 60.163677 244.48712
125.07591 60.400562 243.61377
125.68967 60.404846 243.70135
125.90678 59.711666 246.67809
126.5275 59.715816 246.76343
127.02075 59.48745 247.81139
127.39383 59.026623 249.82289
127.89892 58.798149 250.86919
128.6488 59.03437 249.98405
129.51132 59.502834 248.1312
130.24883 59.738808 247.24129
131.20691 60.439323 244.41707
131.70891 60.2104 245.45494
132.32358 60.213722 245.52513
132.83261 59.984653 246.56067
133.24326 59.523254 248.56229
133.76416 59.294075 249.59596
134.38805 59.297104 249.66083
134.91597 59.067795 250.69202
135.35521 58.606194 252.69023
136.07706 58.841232 251.78258
136.79396 59.076153 250.87289
137.41975 59.078773 250.92996
138.213 59.545712 249.0473
138.99648 60.01252 247.16223
139.61235 60.014854 247.21371
140.22815 60.017113 247.26363
140.84386 60.019283 247.31198
141.4595 60.021389 247.35873
142.0058 59.791267 248.37415
142.55684 59.561081 249.38835
143.17709 59.562958 249.43077
143.73526 59.332642 250.44231
144.3578 59.334373 250.48172
144.86588 58.871811 252.46158
145.49312 58.873398 252.49814
146.12032 58.874908 252.53311
146.69749 58.644249 253.53792
147.37456 58.877701 252.5983
148.0016 58.878983 252.62852
148.62862 58.880184 252.65718
149.25558 58.881317 252.68422
149.92043 59.114433 251.73776
150.54491 59.11541 251.76157
151.16934 59.116306 251.78383
151.79376 59.117134 251.80449
152.44643 59.349937 250.85132
153.06837 59.350609 250.86879
153.64342 58.887112 252.82953
154.27014 58.887642 252.84399
154.87823 58.656052 253.82941
155.45869 57.960297 256.75848
156.09502 57.960613 256.76837
156.70854 57.496761 258.72195
157.34969 57.496925 258.7287
157.99739 57.729053 257.76117
158.64444 58.193142 255.81932
159.27832 58.193077 255.82124
159.91158 58.42498 254.84886
160.54306 58.424774 254.84758
161.17456 58.424484 254.84474
161.80608 58.424122 254.84033
162.43761 58.423683 254.83434
163.05644 58.655228 253.8541
163.71582 58.190536 255.79016
164.36734 57.957825 256.75189
165.02371 57.725025 257.71198
165.66258 57.724205 257.69788
166.32623 57.491249 258.65457
166.96756 57.49028 258.63721
167.63852 57.257156 259.59048
168.28233 57.256023 259.56982
168.9606 57.022732 260.51965
169.60692 57.02145 260.49564
170.25328 57.020073 260.47003
170.81641 57.482811 258.49921
171.36993 57.945499 256.52716
172.05327 57.711815 257.46869
172.74147 57.478027 258.40842
173.38327 57.476284 258.37488
174.07884 57.242332 259.31094
174.72319 57.240417 259.27405
175.42613 57.006268 260.20648
176.07303 57.004196 260.16614
176.65665 57.23418 259.15359
177.30127 57.231945 259.11017
178.01418 56.997448 260.0354
178.66138 56.995041 259.98853
179.3817 56.760349 260.90994
179.88063 57.222168 258.9201
180.60355 56.987305 259.83804
181.25111 56.984554 259.78458
181.8161 57.213959 258.76031
182.37634 57.443302 257.7348
183.19443 56.975803 259.61426
183.84241 56.972713 259.55417
184.58284 56.73727 260.46063
185.23346 56.733994 260.39697
185.8842 56.730633 260.33163
186.53506 56.727184 260.26462
187.39011 56.258987 262.13046
188.15051 56.022984 263.02658
188.91589 55.786869 263.92044
189.79555 55.31826 265.77853
190.46159 55.314266 265.70142
190.89951 55.774975 263.69077
191.32788 56.235657 261.67953
192.10367 55.999016 262.56369
192.64163 56.227135 261.51553
193.5464 55.757801 263.36035
194.46104 55.288303 265.20218
195.12817 55.283634 265.11285
195.66437 55.511375 264.05807
196.5965 55.041473 265.8923
197.40256 54.803932 266.76041
198.07524 54.798828 266.6633
199.02979 54.328445 268.48911
199.85097 54.090477 269.3497
200.67722 53.852386 270.2077
201.06418 54.312065 268.17953
201.74274 54.306389 268.07275
202.42148 54.300606 267.96411
202.94502 54.527428 266.89359
203.30608 54.986908 264.86243
203.81789 55.213615 263.79028
204.65051 54.974701 264.63486
205.4882 54.735649 265.47668
206.16342 54.729248 265.35788
207.17896 54.25705 267.15231
208.20448 53.784645 268.94315
208.8902 53.777809 268.81699
209.39882 54.003769 267.73279
210.4422 53.530838 269.5148
210.58443 54.222519 266.51675
211.63567 53.749283 268.29355
212.32269 53.741852 268.15793
213.19958 53.501266 268.97418
213.50562 53.959709 266.92764
214.57999 53.485748 268.69235
214.87679 53.944061 266.64392
215.36346 54.169212 265.54739
216.24918 53.927917 266.35254
217.14008 53.686455 267.1546
217.8295 53.678047 267.00348
218.72841 53.436226 267.80005
219.84419 52.960922 269.54263
220.75603 52.718704 270.33243
221.67313 52.476288 271.11911
222.59549 52.233688 271.90259
223.08017 52.457756 270.78925
223.78423 52.448288 270.62128
224.48863 52.438698 270.45123
225.19342 52.42897 270.27914
225.4359 52.886261 268.21609
226.37027 52.642738 268.98489
227.30997 52.39901 269.75037
227.53877 52.856117 267.68481
228.48169 52.612099 268.44547
229.67361 52.134125 270.14398
230.87582 51.655876 271.8378
231.59109 51.644989 271.64691
232.80899 51.166252 273.33243
233.53003 51.155037 273.13583
234.50755 50.909737 273.87503
235.23193 50.898224 273.67334
236.21774 50.65255 274.40604
236.68198 50.874794 273.26337
237.67361 50.628792 273.99014
238.13374 50.850853 272.84442
238.86029 50.838699 272.63159
239.31384 51.060654 271.48352
240.59067 50.579758 273.13126
242.71323 49.395653 277.56799
243.73746 49.148399 278.27216
244.48373 49.135345 278.04251
245.23047 49.122185 277.81049
245.97766 49.108894 277.57611
245.27072 50.26815 272.70157
246.29976 50.020302 273.39316
246.7424 50.241516 272.22885
248.07581 49.758728 273.8392
249.11874 49.510353 274.51959
249.86371 49.496567 274.27243
250.30316 49.717514 273.10019
251.35501 49.468765 273.77081
251.79034 49.689644 272.5954
252.22113 49.910545 271.41934
252.96329 49.896492 271.16171
253.7059 49.882393 270.90164
254.76996 49.633148 271.55655
255.19238 49.854034 270.37421
255.93625 49.839798 270.10681
257.00909 49.590324 270.75159
258.41852 49.105438 272.30588
259.50479 48.855667 272.94113
260.93265 48.370445 274.48386
262.371 47.88504 276.02029
263.81979 47.39946 277.55038
264.59146 47.384781 277.25595
266.40237 46.663422 279.68317
266.83344 46.884331 278.4736
267.25967 47.105408 277.2634
268.38892 46.855232 277.86282
269.16702 46.840843 277.55356
268.50943 47.769798 273.62946
270.00079 47.284126 275.12326
270.41028 47.506142 273.90732
271.18137 47.49247 273.59091
271.95251 47.478996 273.27197
274.21036 46.521599 276.54199
275.36591 46.272308 277.1106
277.65668 45.314842 280.36172
278.82983 45.065811 280.91772
280.00793 44.817001 281.46902
280.42224 45.040932 280.23074
280.83124 45.265305 278.99213
280.84546 45.72644 276.8631
281.24115 45.951805 275.62518
57.313736 58.232792 232.18617
58.752388 58.708767 230.69655
59.406479 58.717743 230.98412
58.136513 57.559223 235.73433
58.421356 57.335461 236.91736
58.711433 57.112045 238.10046
59.38398 57.122425 238.38741
59.307106 56.666214 240.46675
60.729286 57.143848 238.95488
61.771675 57.388203 238.33598
62.808998 57.632652 237.71281
62.747314 57.177452 239.78976
64.506195 57.888569 237.3562
64.811485 57.66692 238.5284
65.835808 57.911705 237.89136
66.854919 58.156498 237.25012
68.572815 58.867352 234.7916
69.226921 58.879055 235.04758
70.227791 59.123775 234.39284
70.878944 59.135559 234.64349
71.87175 59.380219 233.98157
72.859253 59.624821 233.31557
72.494019 58.938374 236.29485
72.812286 58.717602 237.45111
72.803474 58.264282 239.52126
72.145805 57.345913 243.4232
72.488312 57.125587 244.58215
73.808311 57.60289 242.98987
75.439659 58.312454 240.47395
76.736343 58.789284 238.86923
77.705894 59.033508 238.17847
78.041603 58.812927 239.32478
78.69368 58.824665 239.54938
79.036194 58.604111 240.69402
80.303444 59.080185 239.06909
80.951904 59.091698 239.28648
82.203377 59.567368 237.65234
83.145271 59.810722 236.93835
84.081795 60.053909 236.22066
84.130325 59.600986 238.28081
85.355286 60.075901 236.63026
85.41304 59.622971 238.68956
85.767113 59.401989 239.82037
86.125786 59.180988 240.95074
86.489052 58.95998 242.08061
86.856911 58.738949 243.20999
87.229362 58.517899 244.33884
88.154953 58.760128 243.60046
89.075188 59.002171 242.8586
89.990074 59.244026 242.11325
91.166451 59.717232 240.42894
92.068184 59.958672 239.67607
92.440865 59.737034 240.79367
93.596291 60.209595 239.09784
93.970734 59.987778 240.21228
94.349754 59.765915 241.32619
95.237312 60.006618 240.56013
95.870071 60.015877 240.73119
96.255478 59.793793 241.84134
96.890015 59.802856 242.00926
97.766304 60.042965 241.23297
98.158096 59.820656 242.33937
98.791626 59.829372 242.50163
99.42482 59.837978 242.66203
100.28994 60.077507 241.87569
100.69026 59.854858 242.97719
101.77713 60.32505 241.23988
102.62899 60.564068 240.44502
103.25323 60.572006 240.59441
103.87718 60.579842 240.74194
104.71832 60.818398 239.9393
105.55425 61.056786 239.13373
105.95985 60.833447 240.22427
106.5802 60.840809 240.36409
107.20026 60.848049 240.50217
107.82005 60.855186 240.63844
108.43958 60.862213 240.77299
108.65818 60.407856 242.81018
109.28207 60.414722 242.94225
109.71028 60.190891 244.0258
110.33609 60.197563 244.15489
110.96167 60.204128 244.28221
111.77509 60.441086 243.45311
112.39773 60.447418 243.57646
113.38657 60.914547 241.78676
114.54618 61.611916 239.03728
114.97758 61.387394 240.1098
115.58955 61.393211 240.22447
116.02784 61.16856 241.295
116.29977 60.713512 243.32269
116.41263 60.028133 246.30887
117.03836 60.033676 246.41945
117.66389 60.039112 246.52834
118.4505 60.274708 245.67586
119.23204 60.510155 244.82088
120.00854 60.745476 243.96338
120.77997 60.980648 243.10347
121.39481 60.985516 243.20236
121.7112 60.529976 245.22293
122.33054 60.534691 245.31931
123.09398 60.769424 244.45163
123.42686 60.313728 246.46988
124.04811 60.318176 246.56168
124.6692 60.322529 246.65184
125.55928 60.786896 244.81268
125.77878 60.100929 247.79138
126.27211 59.875004 248.84146
126.89743 59.879017 248.92574
127.39775 59.652962 249.97351
128.02521 59.656822 250.05478
128.65254 59.660591 250.13443
129.51494 60.124157 248.28032
130.25233 60.357647 247.38976
131.09753 60.820938 245.53035
131.49155 60.364471 247.53596
132.11096 60.36776 247.60666
132.73026 60.370972 247.6757
133.24635 60.144222 248.71094
133.6665 59.687557 250.7131
134.39099 59.920391 249.80988
135.01468 59.923283 249.87306
135.54486 59.696262 250.90343
136.17076 59.699005 250.96362
136.88516 59.931458 250.05305
137.50847 59.934025 250.10983
138.21544 60.166286 249.19542
138.91748 60.398457 248.27896
139.53569 60.400753 248.33061
140.07732 60.173229 249.35088
140.77188 60.405128 248.42912
141.31818 60.177467 249.44661
141.93849 60.17947 249.49213
142.49188 59.951672 250.507
143.11447 59.953522 250.54956
143.737 59.955299 250.5905
144.35947 59.957005 250.62987
144.86746 59.499233 252.61086
145.49464 59.500793 252.64735
146.12177 59.502281 252.6823
146.69887 59.27401 253.68762
147.32829 59.275345 253.71953
148.00282 59.506279 252.77759
148.62976 59.507462 252.80621
149.25665 59.508572 252.83324
149.8835 59.509613 252.85867
150.51031 59.510567 252.88257
151.10402 59.281803 253.87759
151.76385 59.512264 252.92561
152.39058 59.513 252.94478
153.01729 59.513672 252.96234
153.62051 59.284618 253.9514
154.27063 59.514778 252.99283
154.87865 59.285599 253.97879
155.47525 58.826698 255.93645
156.12289 59.056633 254.97313
156.72014 58.367985 257.90094
157.35878 58.368137 257.90768
158.004 58.597843 256.93958
158.64856 59.057117 254.99652
159.27821 58.827423 255.97173
159.91139 59.056915 254.99876
160.54282 59.056709 254.9975
161.18518 58.597157 256.94122
161.82144 58.596806 256.93674
162.45772 58.596363 256.93073
163.0813 58.825504 255.94986
163.71519 58.824921 255.94069
164.34912 58.824272 255.92989
165.02293 58.364262 257.86365
165.66173 58.363453 257.84958
166.3253 58.132931 258.80685
167.02089 57.672649 260.73535
167.69659 57.441956 261.68906
168.31316 57.670498 260.69553
168.95935 57.669296 260.67322
169.60559 57.66803 260.64926
170.25188 57.666683 260.62366
170.85657 57.894951 259.62405
171.41245 58.352821 257.65082
172.05165 58.351261 257.6207
172.78865 57.890228 259.53302
173.43279 57.888496 259.49945
174.13068 57.656986 260.43597
174.77736 57.655087 260.39902
175.48262 57.423401 261.33185
176.07092 57.651073 260.32013
176.65446 57.878689 259.30704
177.29901 57.876488 259.26367
178.01183 57.64444 260.18954
178.65895 57.642071 260.14273
179.45218 57.180058 262.03528
179.95346 57.637093 260.04413
180.60086 57.634468 259.9924
181.24834 57.631767 259.939
181.81326 57.858799 258.91425
182.20326 58.545433 255.9492
183.01639 58.082851 257.83026
183.65945 58.079838 257.77069
184.4873 57.617004 259.64719
185.13542 57.613804 259.5838
185.88083 57.380619 260.48715
186.6312 57.147335 261.38831
187.38654 56.913918 262.28732
188.14684 56.680401 263.18408
189.01897 56.216827 265.04593
189.90091 55.753105 266.90497
190.56929 55.749165 266.82767
191.00955 56.205097 264.81564
191.55684 56.430988 263.76929
192.09943 56.656826 262.72174
192.63731 56.882595 261.67313
193.29431 56.878269 261.58862
194.20398 56.413712 263.43237
194.99483 56.179081 264.30841
195.65961 56.174408 264.21777
196.45808 55.939526 265.08936
197.39752 55.474384 266.92209
198.07013 55.469357 266.82513
198.88371 55.234066 267.6893
199.84558 54.768448 269.51352
200.67171 54.532852 270.37228
201.2067 54.757553 269.30487
201.88757 54.751953 269.19781
202.56863 54.746246 269.08893
203.09454 54.970711 268.01758
203.45795 55.425426 265.98492
203.97212 55.649776 264.91196
204.80704 55.413372 265.75681
205.4819 55.407185 265.63998
206.32458 55.170494 266.47989
207.17238 54.93364 267.31711
208.19775 54.466194 269.10925
208.88335 54.459465 268.98328
209.5692 54.452614 268.85544
210.43509 54.215134 269.68201
210.75949 54.669106 267.63821
211.62834 54.431374 268.46051
212.50237 54.193474 269.27994
213.192 54.186012 269.14209
213.49794 54.639725 267.09448
214.76659 53.940071 269.814
215.06577 54.393608 267.76407
215.55481 54.616417 266.66663
216.44281 54.377655 267.47198
217.13177 54.369484 267.32303
218.23444 53.89959 269.07364
218.92897 53.891106 268.91971
220.04701 53.420761 270.66312
220.96115 53.181084 271.45316
222.09706 52.710266 273.18866
222.80521 52.701126 273.02383
223.51369 52.691864 272.85696
224.22253 52.682472 272.68802
225.1581 52.441872 273.46329
225.6413 52.663284 272.34396
225.88867 53.115768 270.27872
226.59406 53.105927 270.10269
227.53603 52.864746 270.86838
227.52856 53.548317 267.85806
228.71248 53.075592 269.5621
229.90666 52.602615 271.26141
230.86505 52.360695 272.01483
231.58017 52.34996 271.82419
232.79785 51.876244 273.5112
233.51877 51.865166 273.31491
234.49612 51.622475 274.0549
235.22035 51.611099 273.85352
236.20599 51.368019 274.58707
236.67014 51.587959 273.44409
237.39568 51.57621 273.23599
238.12164 51.564331 273.02567
238.57716 51.784058 271.87881
239.02814 52.003746 270.73117
240.30228 51.527931 272.3812
242.422 50.356239 276.82211
243.16269 50.343544 276.59662
244.18721 50.098778 277.29932
245.21722 49.853806 277.99817
245.96429 49.840675 277.76407
245.54834 50.755753 273.81488
246.87311 50.278336 275.43396
247.02483 50.729324 273.34113
248.06216 50.483727 274.02652
249.10495 50.237961 274.70782
250.15323 49.992004 275.38507
250.59515 50.210579 274.21167
251.64938 49.964363 274.88239
252.39813 49.950439 274.62735
252.83389 50.168915 273.44922
253.26508 50.387436 272.27032
254.01013 50.373405 272.0097
255.07663 50.126671 272.6647
255.82507 50.112495 272.39825
256.57394 50.098274 272.12933
257.65179 49.851242 272.77328
259.39722 49.138451 275.24173
260.15741 49.12397 274.96164
261.59021 48.643646 276.50409
263.03351 48.163139 278.04022
264.14609 47.915482 278.65933
264.92032 47.900818 278.36426
266.73367 47.186836 280.79279
267.51614 47.172142 280.48956
267.59628 47.623917 278.37033
268.37424 47.609459 278.0639
269.15244 47.595093 277.75491
268.49512 48.514244 273.82846
269.62503 48.266914 274.42108
270.39618 48.253067 274.10745
271.534 48.005898 274.69193
272.30786 47.992355 274.37216
274.19666 47.278275 276.74545
275.35242 47.031395 277.31494
278.01993 45.850037 281.4653
278.81662 45.837051 281.12573
279.61325 45.824356 280.78369
280.40967 45.811974 280.43912
280.81906 46.033768 279.19998
280.44437 46.723724 276.17883
280.83795 46.946503 274.94153
56.930222 58.641331 233.24744
57.981781 58.881386 232.6489
59.02858 59.121689 232.04611
58.531258 58.437778 235.01341
59.578476 58.678661 234.40652
59.481491 58.226627 236.48264
59.771957 58.005985 237.66412
59.692856 57.554691 239.74353
60.368263 57.565598 240.02705
61.413315 57.80756 239.40839
62.453278 58.04961 238.78543
62.758934 57.830154 239.96242
64.155754 58.303158 238.42982
64.463722 58.084003 239.60349
65.490639 58.326366 238.96657
66.866798 58.799339 237.41927
68.232658 59.272217 235.86578
69.238792 59.514462 235.21434
69.892746 59.526192 235.4679
70.890846 59.768406 234.80914
71.541786 59.78017 235.05739
72.192444 59.791962 235.3035
72.50602 59.573475 236.4604
72.824333 59.355087 237.61703
72.815598 58.906582 239.68822
72.487366 58.2281 242.67667
72.827377 58.010098 243.83505
73.820511 58.252289 243.15793
75.451691 58.954403 240.63985
76.429031 59.196251 239.95297
77.717682 59.6679 238.34195
78.367561 59.679543 238.56754
79.017082 59.691139 238.79097
79.666229 59.702679 239.01228
80.928314 60.173653 237.38417
81.571693 60.184963 237.59962
82.51635 60.425869 236.88765
83.156464 60.436996 237.09811
84.389503 60.907196 235.45258
83.847229 59.999931 239.36848
84.782837 60.240383 238.64584
85.134758 60.021767 239.77829
85.491264 59.803135 240.91029
85.852371 59.584499 242.04179
86.781464 59.824505 241.3094
87.146774 59.605751 242.43837
87.793396 59.616226 242.63362
88.71386 59.855801 241.89291
89.357231 59.866028 242.08339
89.730957 59.647026 243.20731
90.909622 60.11525 241.52228
91.285072 59.896069 242.64294
91.926949 59.905872 242.82549
92.827797 60.144527 242.06786
93.209587 59.925129 243.18475
93.850365 59.934597 243.36145
94.742714 60.172813 242.59592
95.629761 60.410851 241.82712
96.264542 60.419903 241.99672
97.143478 60.6576 241.22215
97.775101 60.666397 241.38731
97.927231 60.217705 243.43768
98.563103 60.226334 243.60037
98.964005 60.006237 244.70595
99.833893 60.243263 243.92007
100.4688 60.251564 244.07712
101.33066 60.48827 243.28569
102.18729 60.7248 242.49123
103.26106 61.189621 240.74594
104.1048 61.425781 239.94489
104.94333 61.661758 239.14093
105.56168 61.669201 239.28354
106.17975 61.676529 239.42439
106.37733 61.227104 241.46481
106.99974 61.234272 241.60324
107.41669 61.013073 242.6916
108.24374 61.24828 241.87479
108.66504 61.026909 242.96072
109.28882 61.033672 243.09262
109.71693 60.812164 244.17661
110.34265 60.818737 244.30553
111.15863 61.053303 243.47789
111.7814 61.059635 243.60284
112.58957 61.293915 242.77026
113.759 61.984112 240.02248
114.73282 62.446053 238.22691
114.98339 61.995853 240.25662
115.59525 62.001572 240.37117
116.03346 61.779255 241.44214
116.13432 61.101048 244.4294
116.08102 60.194973 248.3766
116.71152 60.200462 248.48793
117.34181 60.205864 248.5975
118.29443 60.666821 246.78491
118.91946 60.671974 246.89027
119.7007 60.904823 246.03293
120.47688 61.137539 245.17308
121.24803 61.370113 244.31079
121.71591 61.147095 245.37054
122.48183 61.379448 244.5042
123.24274 61.611675 243.63544
123.71495 61.388401 244.69104
124.33127 61.392742 244.78201
124.67346 60.941696 246.79947
125.29431 60.945889 246.88785
125.5186 60.267132 249.8689
126.01671 60.043591 250.92009
126.77408 60.275162 250.03951
127.27673 60.051468 251.08807
127.90653 60.055271 251.16959
128.77621 60.514069 249.31679
129.63609 60.972729 247.46112
130.37096 61.203724 246.56963
131.21362 61.662121 244.70868
131.60516 61.210419 246.71506
132.00624 60.758686 248.72096
132.62788 60.761856 248.79021
133.04326 60.310028 250.79451
133.66949 60.313034 250.86113
134.29564 60.315975 250.92607
134.92166 60.318829 250.98944
135.54759 60.321602 251.05119
136.17343 60.324291 251.11134
136.79916 60.3269 251.16989
137.51096 60.556808 250.25685
138.21783 60.78661 249.3418
138.83846 60.78896 249.39516
139.45901 60.791241 249.4469
140.00298 60.566093 250.4679
140.62578 60.568218 250.51669
141.17683 60.342941 251.5351
141.73264 60.117607 252.55226
142.2932 59.892216 253.56816
142.92296 59.894051 253.61116
143.55264 59.895821 253.65253
144.24188 60.124798 252.72032
144.86903 60.126404 252.75838
145.44136 59.900661 253.76714
146.12318 60.129395 252.82976
146.65025 59.676243 254.80817
147.23448 59.450302 255.81281
147.91376 59.67881 254.87053
148.63089 60.134491 252.95351
149.25771 60.135571 252.98055
149.88448 60.136593 253.00595
150.51123 60.137531 253.02982
151.10486 59.911163 254.02539
151.73395 59.911961 254.04619
152.39127 60.139927 253.09195
152.99205 59.913349 254.08301
153.6445 60.141155 253.12555
154.27109 60.141666 253.13997
154.87904 59.914883 254.12648
155.45937 59.233582 257.05896
156.10934 59.461098 256.09509
156.72032 59.006886 258.0509
157.35889 59.007042 258.05762
158.00404 59.234341 257.08893
158.64853 59.688793 255.14473
159.27811 59.461502 256.12051
159.91187 59.461372 256.12082
160.54562 59.461166 256.11957
161.19034 59.006443 258.06439
161.82104 59.233307 257.08612
162.45724 59.232891 257.08005
163.06805 59.686836 255.12494
163.71458 59.459042 256.08951
164.34843 59.458408 256.0787
165.02217 59.003216 258.01367
165.66089 59.002434 257.99957
166.32437 58.77433 258.95746
166.99272 58.54615 259.91357
167.66594 58.317875 260.86801
168.31201 58.316784 260.84729
168.95813 58.315601 260.82501
169.6411 58.087101 261.7742
170.2505 58.313034 260.77551
170.85512 58.538906 259.77539
171.45497 58.764702 258.7739
172.05006 58.990456 257.77094
172.7381 58.761551 258.71188
173.43103 58.532566 259.65091
174.07515 58.530796 259.61572
174.71935 58.528942 259.57892
175.48062 58.07238 261.48462
176.00792 58.525005 259.50043
176.65231 58.522923 259.45874
177.29678 58.520752 259.41544
178.00951 58.291172 260.34189
178.65656 58.288834 260.29514
179.44969 57.831699 262.18887
179.87549 58.511307 259.2258
180.52039 58.508751 259.17429
181.16537 58.506104 259.12115
181.7278 58.730778 258.0961
182.11534 59.410221 255.12964
183.01344 58.725105 257.98199
183.65642 58.722141 257.92249
184.48416 58.264202 259.80014
185.1322 58.26104 259.73691
185.8775 58.030334 260.64087
186.72736 57.572037 262.51135
187.38301 57.568592 262.44229
188.03879 57.565048 262.37158
188.90839 57.10638 264.23495
189.78778 56.647564 266.09552
190.45364 56.643711 266.01855
191.00554 56.867321 264.97284
191.55273 57.090874 263.92596
192.09525 57.314354 262.87799
192.63306 57.537781 261.82886
193.28998 57.53352 261.74451
194.19949 57.073887 263.58945
194.86159 57.069405 263.50098
195.39276 57.292492 262.44592
196.31978 56.832447 264.28342
197.12073 56.599957 265.15353
198.06509 56.139591 266.98511
198.73776 56.134552 266.88647
199.69707 55.673874 268.71234
200.375 55.668591 268.60941
200.90504 55.89101 267.54227
201.58093 55.885532 267.43613
202.40997 55.652115 268.28976
202.93335 55.874275 267.21835
203.45209 56.096371 266.14594
204.1264 56.090492 266.03293
204.80093 56.084518 265.91806
205.64081 55.850475 266.76099
206.48581 55.616283 267.6012
207.50589 55.153946 269.3974
208.36354 54.919418 270.23172
209.22633 54.684723 271.06329
209.91695 54.677948 270.93466
210.78757 54.442947 271.76108
210.93459 55.120255 268.75885
211.80576 54.885017 269.58148
212.495 54.877808 269.44568
213.37405 54.642258 270.26303
213.68237 55.091202 268.21396
214.95326 54.398918 270.93491
215.45169 54.619431 269.83694
215.94551 54.839882 268.73804
216.63651 54.831932 268.5907
217.3278 54.82386 268.44141
218.22609 54.587288 269.24152
219.12961 54.350525 270.0386
220.03833 54.113602 270.83252
220.9523 53.876465 271.62338
221.87155 53.639137 272.41116
222.79604 53.401642 273.19568
223.7258 53.163948 273.97702
224.43698 53.154655 273.80774
225.37483 52.916603 274.58319
225.63162 53.364349 272.51666
225.87891 53.812103 270.45047
226.58417 53.802399 270.27466
227.28979 53.792564 270.09677
227.51849 54.240196 268.0293
228.70219 53.772499 269.73474
229.89618 53.304527 271.43555
230.60831 53.294098 271.24796
231.32086 53.283539 271.05823
232.53584 52.814888 272.74738
233.50764 52.574982 273.49182
234.22885 52.563919 273.29361
235.20892 52.323647 274.03159
236.71629 51.624878 276.64157
236.92188 52.071632 274.55975
237.91568 51.830765 275.28763
238.37811 52.048218 274.14047
238.83601 52.265617 272.99252
239.2894 52.482971 271.84381
240.0141 52.470909 271.62775
241.57431 51.77047 274.20743
242.3074 51.758041 273.98453
243.04094 51.745506 273.75928
244.06079 51.503304 274.46213
245.08609 51.26091 275.16104
244.95355 51.936844 272.14084
246.56644 51.234879 274.69107
247.30731 51.221703 274.45255
248.64534 50.748886 276.06442
249.99384 50.27581 277.67056
250.74615 50.262161 277.42151
251.19305 50.47834 276.24612
251.94379 50.464569 275.99304
252.69498 50.450706 275.73752
252.81982 50.896881 273.63681
253.88281 50.652901 274.29852
254.63284 50.638893 274.03644
255.70428 50.394638 274.69061
255.81079 50.840942 272.5871
256.88559 50.596565 273.23535
257.63733 50.582382 272.96335
259.38263 49.877037 275.43405
260.47632 49.632256 276.06833
262.24768 48.926399 278.52469
263.69592 48.450806 280.06052
264.81354 48.205582 280.67868
265.59283 48.190918 280.38193
266.71875 47.945602 280.992
267.50128 47.930954 280.68915
267.23026 48.608643 277.66144
267.65195 48.825081 276.44995
269.13785 48.349152 277.95401
269.19861 48.796722 275.83395
269.97226 48.782707 275.52213
271.474 48.306854 277.01236
272.25302 48.293045 276.6933
273.03217 48.279396 276.3717
274.5545 47.803696 277.84589
276.08707 47.328041 279.31329
278.38306 46.39003 282.56793
279.56174 46.145683 283.12347
279.98199 46.36412 281.88452
281.16553 46.120293 282.43277
280.80676 46.802177 279.40561
280.8219 47.253242 277.27417
281.21841 47.473396 276.03516
56.15451 58.825974 235.19908
57.211411 59.063755 234.60204
57.876213 59.073086 234.89383
57.771645 58.625381 236.97205
58.441879 58.635338 237.26187
58.352798 58.188396 239.34238
59.028313 58.19891 239.63011
59.70388 58.209644 239.91565
60.379471 58.220577 240.19901
61.794258 58.688526 238.67882
62.831802 58.928097 238.05396
63.135101 58.711048 239.23036
64.529419 59.179092 237.69525
64.475533 58.734085 239.77309
65.859444 59.202168 238.22951
66.878624 59.441998 237.58653
68.244469 59.909931 236.03154
68.901237 59.921608 236.28798
69.90461 60.161358 235.63251
70.558357 60.173077 235.88364
71.895454 60.640694 234.30919
72.54361 60.65237 234.55409
72.517952 60.208374 236.62402
72.836304 59.992352 237.78105
72.495926 59.320915 240.76871
72.170319 58.649731 243.7597
72.512856 58.434128 244.91939
73.832611 58.90144 243.32404
75.141945 59.36853 241.72292
75.802559 59.380348 241.95602
77.096085 59.847084 240.34525
78.065071 60.086151 239.65056
78.717026 60.097675 239.87462
79.368614 60.109146 240.09653
80.939659 60.80246 237.54347
81.887085 61.040924 236.83351
82.527496 61.052006 237.04579
83.765755 61.517361 235.40245
84.993629 61.982464 233.75381
84.446442 61.084774 237.67032
85.08532 61.095528 237.87439
85.434685 60.879189 239.00642
85.502022 60.435879 241.06874
85.578926 59.99263 243.13217
86.510361 60.230106 242.39967
87.157257 60.240551 242.59671
88.08046 60.477699 241.85789
88.724098 60.4879 242.05016
89.910782 60.951454 240.36983
90.279465 60.734676 241.49266
91.186249 60.97118 240.74146
91.559151 60.754272 241.86179
91.67485 60.310753 243.91974
92.578041 60.546894 243.16193
92.962219 60.329834 244.27991
93.605354 60.339211 244.45706
94.500023 60.574898 243.69141
95.638824 61.036804 241.98088
96.520432 61.272095 241.20804
97.152275 61.280872 241.37489
98.025803 61.515842 240.5963
97.935852 60.845596 243.5912
98.808708 61.080326 242.8089
98.972443 60.636311 244.85968
99.842178 60.870796 244.07297
100.70667 61.105099 243.28322
101.79317 61.565323 241.54317
102.64474 61.79924 240.74675
103.4911 62.032997 239.9473
104.55211 62.492577 238.19594
105.16819 62.499992 238.33957
105.569 62.281334 239.43161
106.18695 62.288555 239.57228
106.17444 61.617996 242.56491
106.38396 61.173351 244.60728
107.21849 61.406219 243.79306
108.04785 61.638931 242.97598
108.67178 61.645683 243.10951
109.29546 61.652344 243.24126
110.11425 61.884617 242.41687
110.54204 61.665329 243.49953
111.54593 62.123028 241.71526
111.97567 61.903557 242.79495
112.96687 62.360928 241.00479
113.94807 62.818089 239.21106
114.91931 63.27507 237.4137
114.98911 62.604046 240.40172
115.77672 62.835217 239.55788
116.039 62.38969 241.58752
116.13983 61.718658 244.5764
116.25505 61.047653 247.56622
116.7169 60.827583 248.63696
117.01974 60.382027 250.66724
117.97708 60.838097 248.8542
118.28925 60.392422 250.88272
119.08009 60.622841 250.02629
120.01984 61.078484 248.20531
120.94968 61.533962 246.38106
121.57144 61.538631 246.47923
122.33968 61.768505 245.61259
123.24714 62.223534 243.77998
123.71929 62.002613 244.83601
124.33551 62.006882 244.92688
124.67764 61.560596 246.94537
125.2984 61.564716 247.03369
125.65477 61.118343 249.05099
126.15038 60.897133 250.10234
126.77795 60.901035 250.18672
127.28053 60.679691 251.23578
128.03267 60.908573 250.3506
128.77982 61.137341 249.46317
129.63957 61.591103 247.60629
130.25919 61.594528 247.68163
131.10416 62.048046 245.81975
131.60837 61.826202 246.85941
132.11731 61.604305 247.89801
132.73643 61.607395 247.96693
133.35545 61.610409 248.03427
133.87372 61.388313 249.06915
134.49495 61.391178 249.13353
135.11606 61.393959 249.19633
135.64368 61.171669 250.2274
136.26701 61.174305 250.28725
136.89026 61.176857 250.34552
137.59955 61.404289 249.43166
138.30392 61.631638 248.51573
139.00339 61.858883 247.59784
139.46121 61.411224 249.59149
140.0816 61.413376 249.64165
140.7019 61.415459 249.69019
141.25049 61.192554 250.70889
141.8038 60.969589 251.72639
142.42873 60.971458 251.77058
143.05359 60.973251 251.81319
143.67838 60.974976 251.8542
144.3031 60.97662 251.89366
144.92778 60.978195 251.9315
145.4976 60.754826 252.94066
146.12459 60.756256 252.97552
146.70154 60.532757 253.98192
147.28328 60.309196 254.98697
147.96007 60.535267 254.04398
148.63199 60.761253 253.09917
149.25873 60.762325 253.12613
149.84753 60.538483 254.12521
150.47662 60.53941 254.14914
151.07259 60.315445 255.14531
151.7347 60.541054 254.19225
152.33542 60.316948 255.18542
152.9668 60.317593 255.20311
153.64503 60.767799 253.271
154.27155 60.768303 253.2854
154.89806 60.768726 253.29826
155.50832 60.544277 254.2838
156.13721 60.544563 254.29356
156.74329 60.095169 256.2504
157.36798 59.870506 257.23145
158.00407 59.870583 257.23654
158.64433 60.095406 256.26563
159.27625 59.870525 257.24197
159.91234 59.870388 257.24231
160.54538 60.095001 256.26663
161.19002 59.645103 258.21255
161.82066 59.86956 257.23376
162.45679 59.869144 257.22772
163.08023 60.093472 256.24579
163.7442 59.643276 258.18518
164.36528 59.867466 257.20007
165.04134 59.417118 259.13608
165.68239 59.416332 259.12201
166.34822 59.190651 260.08038
167.01891 58.964893 261.03702
167.69444 58.739044 261.99194
168.31088 58.962799 260.99734
168.95692 58.961647 260.97507
169.60301 58.960419 260.95117
170.20993 59.183971 259.95203
170.81207 59.407455 258.95151
171.40945 59.63089 257.94952
172.04849 59.629383 257.91946
172.73647 59.40292 258.86099
173.42931 59.176376 259.80063
174.12703 58.949741 260.7384
174.77356 58.947918 260.70148
175.53717 58.496204 262.60822
176.0668 58.944035 260.6228
176.65021 59.166897 259.60867
177.36035 58.939842 260.53757
178.00723 58.93763 260.49249
178.65421 58.935337 260.4458
179.37425 58.708015 261.36908
179.87299 59.155483 259.37601
180.43999 59.377926 258.35333
181.08249 59.37534 258.30045
181.72507 59.372673 258.24591
182.28268 59.594925 257.21912
183.18552 58.917068 260.07281
183.83324 58.914135 260.01294
184.66571 58.461052 261.89133
185.3185 58.457943 261.82761
186.06854 58.229668 262.73178
186.82355 58.001301 263.63373
187.37955 58.222973 262.59555
188.03523 58.219505 262.52487
188.90471 57.76572 264.38947
189.67476 57.536922 265.28308
190.22643 57.758278 264.23859
190.8875 57.754421 264.16058
191.54872 57.750473 264.08087
191.9722 58.196789 262.06537
192.62888 58.192696 261.98279
193.40948 57.963295 262.86493
194.1951 57.733768 263.74475
194.85709 57.729355 263.6564
195.51926 57.724857 263.56628
196.31506 57.49498 264.43958
197.11592 57.26498 265.31042
197.9218 57.034847 266.1788
198.59195 57.029896 266.08069
199.54868 56.574173 267.90814
200.22408 56.568993 267.80569
200.89966 56.563717 267.70145
201.72594 56.332935 268.55798
202.5573 56.102001 269.41196
203.08301 56.321819 268.33969
203.4463 56.767025 266.30505
204.12051 56.761246 266.19217
204.46964 57.206367 264.15634
205.30452 56.974892 265.00079
206.1445 56.743263 265.84259
207.32951 56.060345 268.60028
208.01219 56.053967 268.4769
209.0448 55.596233 270.26849
209.73286 55.589584 270.14047
210.60091 55.357151 270.96808
210.92761 55.801613 268.92181
211.79863 55.568928 269.74515
212.6748 55.336075 270.56561
213.36667 55.328815 270.42764
213.86685 55.547241 269.33261
214.75122 55.313957 270.14584
215.44394 55.306351 270.00204
215.93767 55.524483 268.90277
216.62854 55.516659 268.75562
217.5239 55.282787 269.55899
218.42448 55.048737 270.35934
219.1212 55.040489 270.20523
220.02979 54.806099 271
220.72961 54.797577 270.84131
221.64622 54.562859 271.6304
222.5681 54.32795 272.41632
223.71661 53.866714 274.14764
224.42766 53.857559 273.97858
225.36536 53.62207 274.75485
225.85083 53.83886 273.63419
226.10052 54.281853 271.56641
226.34074 54.724846 269.49902
226.80762 54.941513 268.37701
227.26993 55.158127 267.25415
228.45099 54.695473 268.96167
229.6423 54.232544 270.66458
230.59785 53.995827 271.42029
231.55878 53.758911 272.17258
232.27405 53.748337 271.98029
232.98975 53.737625 271.78583
233.70587 53.726807 271.58917
234.68082 53.489182 272.32944
235.92207 53.024666 274.00449
236.91029 52.786606 274.73685
237.90393 52.548325 275.46558
238.36627 52.763474 274.31815
239.09494 52.751732 274.10538
239.55072 52.966759 272.9556
240.55362 52.727867 273.6731
241.84024 52.26181 275.32007
242.29489 52.476509 274.16418
242.74504 52.691177 273.00748
243.76224 52.451607 273.71201
244.78488 52.211853 274.4126
244.94063 52.653465 272.32104
246.55328 51.958977 274.87344
246.99826 52.173218 273.7074
248.03528 51.932823 274.39456
249.3786 51.464859 276.00394
250.12579 51.451454 275.75684
250.87346 51.43795 275.50735
251.31326 51.651871 274.33173
252.05936 51.638245 274.07822
252.49252 51.852158 272.90024
253.55289 51.610794 273.56378
254.30034 51.596962 273.30289
255.04825 51.583076 273.03952
255.79659 51.56913 272.77371
256.54535 51.555145 272.5054
257.29456 51.541115 272.23462
259.03714 50.8433 274.7084
260.46176 50.373138 276.25937
262.23294 49.674759 278.7179
263.34253 49.432228 279.34241
264.45755 49.189606 279.96243
265.23438 49.175056 279.66702
266.35773 48.932335 280.27899
267.13776 48.917801 279.97739
266.86441 49.588242 276.94907
267.63745 49.573975 276.64523
269.12332 49.103004 278.15085
269.54312 49.317261 276.93481
270.68079 49.074745 277.52621
271.8237 48.832268 278.11295
272.97186 48.589844 278.69504
273.75626 48.576103 278.37158
274.91226 48.333878 278.94537
276.44745 47.863075 280.41318
277.99283 47.392296 281.87421
279.16919 47.150406 282.43167
279.58722 47.366371 281.19336
280.76849 47.124939 281.74356
280.40762 47.799423 278.71567
280.80991 48.016563 277.47638
280.81503 48.463112 275.34579
56.163727 59.473022 235.36832
56.831085 59.482166 235.66322
57.498703 59.491615 235.95601
57.397003 59.048923 238.03647
58.070015 59.058987 238.32724
58.743149 59.069298 238.61586
59.416344 59.079815 238.90233
59.714943 58.864494 240.08583
60.390701 58.875443 240.369
61.435997 59.112526 239.74866
62.476173 59.349686 239.12399
63.146683 59.361008 239.39845
64.541016 59.824131 237.86188
64.487305 59.383991 239.94078
65.871208 59.847137 238.39571
66.890419 60.084476 237.75186
67.904373 60.321796 237.10381
68.563698 60.333458 237.36104
69.916412 60.796326 235.79521
71.258751 61.259033 234.22337
71.907196 61.270622 234.47018
72.555367 61.282227 234.71481
72.866508 61.068439 235.87155
72.848183 60.629395 237.94318
71.844551 59.514606 242.76463
72.182426 59.301285 243.92505
72.524986 59.088039 245.08505
73.520477 59.32518 244.40703
74.832191 59.787312 242.80531
75.495255 59.799061 243.03906
76.791161 60.260849 241.42763
77.134369 60.047417 242.57764
77.793793 60.058964 242.804
78.761887 60.295341 242.10419
80.644318 61.206154 238.62579
81.594124 61.442097 237.9158
82.840103 61.902649 236.27553
84.075676 62.362953 234.62991
85.300903 62.823013 232.97896
84.751297 61.934933 236.89684
85.387581 61.945518 237.09988
85.734406 61.731453 238.23149
85.512634 61.068336 241.22537
85.589523 60.629841 243.28975
86.520821 60.864746 242.55641
86.60936 60.426254 244.62054
87.537392 60.660919 243.88237
88.734215 61.119724 242.20555
89.649033 61.353977 241.45969
90.558517 61.588055 240.71036
91.462662 61.821945 239.95764
92.097244 61.831486 240.13957
