ply
format ascii 1.0
comment PCL generated
element vertex 1595
property float x
property float y
property float z
element camera 0
property float view_px
property float view_py
property float view_pz
property float x_axisx
property float x_axisy
property float x_axisz
property float y_axisx
property float y_axisy
property float y_axisz
property float z_axisx
property float z_axisy
property float z_axisz
property float focal
property float scalex
property float scaley
property float centerx
property float centery
property int viewportx
property int viewporty
property float k1
property float k2
end_header
113.08167 111.67236 235.29987
113.856 111.70398 234.43372
114.43572 111.70415 234.54645
114.82814 111.67287 235.63947
115.0405 111.61013 237.7142
115.99152 111.67317 235.85825
116.39307 111.64188 236.94855
117.15417 111.67347 236.07094
118.08529 111.73649 234.20691
118.66135 111.73663 234.30864
119.06708 111.70531 235.3938
119.64523 111.70544 235.49298
119.72722 111.61124 238.54784
120.14941 111.57991 239.63139
120.57628 111.54858 240.71423
121.00783 111.51726 241.79637
121.59975 111.51736 241.89046
122.6513 111.61178 239.01996
122.934 111.549 241.08603
123.52309 111.5491 241.17522
124.40407 111.61206 239.28539
124.98807 111.61215 239.37088
125.57195 111.61224 239.45493
126.1557 111.61231 239.53749
126.87569 111.64383 238.62846
127.4568 111.64391 238.70776
127.90626 111.61254 239.77643
128.74782 111.67548 237.87091
129.32619 111.67554 237.94556
129.65584 111.61273 240.00224
130.23882 111.61279 240.0746
130.8217 111.61285 240.14551
131.4045 111.6129 240.215
131.9872 111.61295 240.283
132.56981 111.613 240.34956
133.15233 111.61305 240.41469
133.73476 111.61309 240.47839
134.21205 111.5817 241.53464
134.89938 111.61317 240.6015
135.58182 111.64465 239.66643
136.25937 111.67611 238.72946
136.83659 111.67615 238.78552
137.59981 111.73904 236.84984
137.99086 111.6762 238.89342
138.6561 111.70766 237.94963
139.31648 111.73912 237.00404
139.88857 111.73914 237.05266
140.37961 111.70773 238.09608
141.03259 111.73918 237.14566
141.52832 111.70777 238.18668
142.10258 111.70779 238.2299
142.81961 111.77067 236.2778
143.59595 111.86497 233.32652
144.42442 111.99071 229.37561
145.16945 112.08501 226.41949
145.83824 112.14789 224.45874
146.55678 112.24219 221.49834
147.26086 112.33649 218.5358
147.84134 112.36793 217.56717
148.41698 112.39936 216.59702
148.98779 112.43079 215.62537
149.45901 112.39937 216.64899
149.84506 112.30507 219.66855
150.28806 112.24221 221.6889
150.78081 112.21078 222.70969
151.24057 112.14791 224.72816
151.67453 112.05361 227.74458
152.28775 112.11647 225.76537
152.8302 112.11646 225.78264
153.37263 112.11646 225.79857
153.9666 112.17931 223.81485
154.57433 112.27361 220.83038
155.06277 112.21073 222.84074
155.6351 112.27358 220.85263
156.18166 112.30501 219.8625
156.70963 112.30499 219.87042
157.23758 112.30498 219.87706
157.79247 112.39926 216.88405
158.31981 112.43068 215.88861
158.83398 112.39924 216.89088
159.35297 112.36779 217.89194
159.87675 112.33634 218.89175
160.40837 112.27346 220.8898
160.94417 112.242 221.88705
161.47694 112.24199 221.88351
162.00974 112.24197 221.87869
162.54253 112.24195 221.8726
163.06032 112.27336 220.86584
163.60815 112.24191 221.85658
164.14101 112.24188 221.84666
164.69608 112.21043 222.83469
165.30522 112.1161 225.81978
165.9288 112.02177 228.80315
166.50793 111.99032 229.78668
167.0919 111.95885 230.76878
167.68071 111.92739 231.74934
168.16444 111.99023 229.73192
168.63861 112.05306 227.71355
169.10321 112.1159 225.69418
169.60205 112.1473 224.67247
170.14236 112.14727 224.64809
170.73135 112.1158 225.62073
171.32518 112.08433 226.59184
171.97728 112.02142 228.55948
172.58319 111.98994 229.5273
173.2522 111.92703 231.49133
173.87021 111.89556 232.4558
174.61917 111.80121 235.41362
175.5135 111.64398 240.36389
176.36406 111.51819 244.314
177.16364 111.42384 247.2643
177.97769 111.32948 250.21217
178.73117 111.26655 252.16081
179.3394 111.26649 252.11426
180.02756 111.23499 253.06255
180.7206 111.2035 254.00896
181.24916 111.23487 252.96167
181.77298 111.26624 251.91327
182.47104 111.23474 252.8548
183.08211 111.23467 252.79909
183.69324 111.2346 252.7419
184.40118 111.20309 253.67805
185.21313 111.14014 255.60683
185.73022 111.17149 254.55006
186.34653 111.17142 254.48636
186.96292 111.17133 254.42117
187.57941 111.17125 254.35446
188.30716 111.13972 255.27951
189.15338 111.07675 257.19553
189.7774 111.07665 257.12338
190.40154 111.07655 257.04971
191.02579 111.07645 256.97449
191.65015 111.07635 256.89767
192.149 111.1077 255.82774
192.77118 111.10758 255.74818
193.65437 111.04459 257.64896
194.28162 111.04446 257.56558
195.04428 111.0129 258.47101
195.81189 110.98133 259.37415
196.44437 110.98121 259.2854
197.07698 110.98108 259.19504
197.70975 110.98094 259.10309
198.34267 110.9808 259.00955
198.97574 110.98066 258.91443
199.60895 110.98051 258.81766
200.39691 110.94891 259.70676
201.03287 110.94875 259.60641
201.50957 110.98004 258.51773
202.14343 110.97988 258.41449
202.77748 110.97971 258.30966
203.74507 110.91663 260.17419
204.38431 110.91646 260.06525
205.19527 110.88482 260.93933
205.83731 110.88463 260.82669
206.83231 110.82153 262.67999
207.47958 110.82132 262.56314
208.30829 110.78966 263.42752
208.77477 110.8209 262.32431
209.60875 110.78922 263.18439
209.88229 110.85192 261.09717
210.52823 110.85169 260.97229
211.17436 110.85146 260.8457
212.01653 110.81976 261.69751
212.8638 110.78804 262.54669
213.51552 110.78779 262.41397
214.57365 110.72459 264.23682
215.02522 110.75579 263.12146
215.68013 110.75552 262.983
216.5457 110.72377 263.81992
217.41638 110.69201 264.65393
217.86172 110.72318 263.53308
218.52014 110.72288 263.38696
219.17886 110.72256 263.23911
219.61526 110.75372 262.11502
220.49716 110.72192 262.93793
221.15675 110.72159 262.78461
222.04657 110.68977 263.6022
222.70924 110.68942 263.4447
223.60703 110.65759 264.25687
224.51004 110.62573 265.06598
225.17859 110.62536 264.9017
226.08963 110.59349 265.70532
227.00591 110.56161 266.5058
227.68039 110.5612 266.33463
228.35522 110.5608 266.16156
229.03044 110.56037 265.98654
229.70602 110.55994 265.80963
230.38199 110.55951 265.63077
231.31769 110.52757 266.41525
231.73508 110.55861 265.26718
232.41223 110.55814 265.08249
233.35651 110.52617 265.85904
234.30612 110.49418 266.63226
234.98943 110.49369 266.44019
235.9473 110.46168 267.20731
236.63394 110.46117 267.0105
237.04196 110.49215 265.8519
237.72702 110.49162 265.6517
238.69656 110.45956 266.40778
239.67151 110.4275 267.16031
240.36292 110.42693 266.95251
241.34625 110.39484 267.69861
242.33502 110.36275 268.44107
243.32925 110.33063 269.17987
244.62788 110.26697 270.8688
245.33417 110.26635 270.64639
246.04099 110.26572 270.42184
247.05469 110.23356 271.14645
247.76503 110.23291 270.91663
248.16458 110.26379 269.73483
249.50122 110.20006 271.39926
250.53207 110.16784 272.11002
250.93076 110.1987 270.92224
251.32503 110.22955 269.73386
252.36255 110.19731 270.43604
253.07932 110.1966 270.18948
253.1389 110.259 268.05286
254.18318 110.22673 268.74634
256.23474 110.09978 272.26196
256.62497 110.1306 271.06213
257.3497 110.12986 270.802
258.7579 110.06598 272.41815
259.14493 110.09679 271.21289
259.181 110.15918 269.06949
260.95264 110.06371 271.61032
262.03699 110.03136 272.27173
262.77292 110.03059 271.99405
263.50949 110.02982 271.7139
264.60577 109.99747 272.36392
265.34613 109.99669 272.07773
266.45123 109.96433 272.7197
266.82861 109.99515 271.49759
267.94003 109.96278 272.13242
267.94168 110.02522 269.97937
268.68246 110.02446 269.68127
269.04694 110.05531 268.45486
270.1658 110.02296 269.07721
270.90836 110.02223 268.7713
271.26685 110.05312 267.54013
271.62079 110.08402 266.3085
272.35986 110.08334 265.99677
62.153702 111.92884 230.05162
62.79097 111.9292 230.32092
63.042572 111.90041 231.51033
62.533417 111.81332 234.54642
63.179558 111.81373 234.81317
63.447609 111.78498 236.00317
64.095345 111.78541 236.26643
65.860207 111.8733 233.74477
66.86937 111.90288 233.07188
67.872955 111.93246 232.39481
69.965805 112.0495 228.92177
70.950691 112.07908 228.23335
71.210266 112.05037 229.40596
72.189125 112.07996 228.7113
72.452782 112.05125 229.88159
72.368683 111.99342 231.98711
72.993721 111.99386 232.2216
73.271011 111.96516 233.39127
73.552834 111.93648 234.56068
74.865875 111.99519 232.9124
75.488937 111.99563 233.13849
76.785904 112.05433 231.48062
77.402962 112.05476 231.70081
78.683907 112.11344 230.03349
78.965279 112.08474 231.19154
80.232758 112.1434 229.51582
80.515678 112.1147 230.67079
81.12532 112.11511 230.8793
80.775414 112.02817 233.92706
81.708809 112.05769 233.18628
81.69265 111.99986 235.28807
82.31041 112.00026 235.49211
83.547173 112.05888 233.79346
84.773552 112.11748 232.08958
84.770508 112.05964 234.1886
85.381516 112.06001 234.38333
85.692299 112.03128 235.52975
86.899536 112.08985 233.81282
87.80162 112.11931 233.04602
89.283028 112.20695 230.36412
89.879547 112.20729 230.54573
91.337883 112.29491 227.85344
91.356339 112.23705 229.94543
91.384285 112.17917 232.0386
91.98172 112.17949 232.21379
92.856293 112.20889 231.42691
93.450523 112.20918 231.59782
94.316971 112.23857 230.8053
94.907997 112.23886 230.97202
95.49868 112.23914 231.13702
96.08902 112.23941 231.30029
96.153503 112.18151 233.39069
96.748077 112.18178 233.55188
97.342316 112.18204 233.71133
97.936226 112.18229 233.86913
98.276886 112.15346 234.99225
99.123093 112.18278 234.17957
99.716064 112.18301 234.33226
100.7999 112.24139 232.54539
101.14422 112.21254 233.66307
101.97452 112.24184 232.83998
102.79965 112.27112 232.01402
102.9122 112.21317 234.09938
103.26762 112.1843 235.21346
103.16582 112.09728 238.27217
103.99228 112.12654 237.44025
104.36153 112.09766 238.55292
104.95898 112.09784 238.69083
105.77734 112.12708 237.85233
106.8093 112.18539 236.03572
107.61499 112.21462 235.19121
108.20171 112.21478 235.3205
108.99962 112.244 234.47121
109.37445 112.21509 235.57426
110.16704 112.24429 234.72081
110.75042 112.24443 234.84326
111.13188 112.2155 235.94321
111.91653 112.24469 235.08353
112.49928 112.24482 235.20132
113.08183 112.24494 235.31758
113.66417 112.24506 235.43231
114.43588 112.27423 234.56404
114.82829 112.24528 235.65715
115.04064 112.18726 237.73201
115.80936 112.21642 236.85872
116.21335 112.18745 237.94951
116.79942 112.18755 238.05598
117.73538 112.24576 236.19264
118.31628 112.24584 236.29523
118.55666 112.18781 238.36629
119.14207 112.18789 238.46666
119.2313 112.10079 241.52303
119.82366 112.10086 241.62161
120.41587 112.10094 241.7187
121.00793 112.101 241.81427
121.59984 112.10107 241.90837
122.49812 112.15924 240.02539
122.93408 112.13024 241.10384
123.37473 112.10124 242.18153
124.11212 112.13035 241.28072
124.70094 112.13039 241.36694
125.28963 112.13045 241.45166
125.8782 112.13049 241.53493
126.7394 112.18864 239.63623
127.45686 112.21774 238.7253
128.03786 112.21777 238.80313
128.74788 112.24686 237.88834
129.32625 112.24689 237.96297
129.53157 112.15976 241.01163
130.11696 112.15979 241.08429
130.82175 112.18887 240.16306
131.28745 112.15984 241.22522
131.98724 112.18892 240.30054
132.56984 112.18893 240.36713
133.15236 112.18896 240.43224
133.62733 112.15992 241.48973
134.10704 112.13088 242.54626
134.69412 112.1309 242.60759
135.38136 112.15997 241.67294
136.06372 112.18903 240.73637
136.74118 112.21809 239.7979
137.50681 112.27621 237.86229
137.90025 112.21811 239.90623
138.47968 112.21812 239.95828
139.05905 112.21812 240.00891
139.63835 112.21812 240.05812
140.21761 112.21812 240.10591
140.95399 112.27623 238.15935
141.37593 112.21812 240.19728
141.955 112.21812 240.24084
142.46265 112.18907 241.28004
143.11302 112.21812 240.32376
143.82513 112.27623 238.36839
144.65596 112.39244 234.41599
145.46753 112.50864 230.46095
146.25986 112.62486 226.50339
147.03293 112.74107 222.54337
147.73218 112.82822 219.57904
148.31262 112.85727 218.60907
148.88823 112.88631 217.6376
149.50639 112.94441 215.66617
150.02496 112.9444 215.69014
150.54352 112.9444 215.71288
151.10222 112.97344 214.73557
151.54277 112.91532 216.75345
151.95752 112.82815 219.76936
152.51857 112.85719 218.78841
152.95248 112.77002 221.80246
153.4008 112.68285 224.81566
153.88927 112.62473 226.82874
154.45744 112.65377 225.84282
154.93692 112.5666 228.85292
155.4865 112.56658 228.8638
156.06842 112.62468 226.87445
156.64073 112.68277 224.88365
157.18069 112.68275 224.89043
157.76553 112.82802 219.89827
158.30664 112.88611 217.90323
158.82562 112.85704 218.90564
159.34941 112.82797 219.90678
159.87799 112.7989 220.90665
160.4144 112.74078 222.90485
160.96042 112.68266 224.90169
161.49257 112.71169 223.89857
162.04039 112.68262 224.89325
162.56776 112.71165 223.88757
163.12039 112.68259 224.87961
163.71269 112.5954 227.86911
164.27975 112.56633 228.85829
164.80717 112.59537 227.84741
165.37907 112.56629 228.83385
165.90175 112.59533 227.82042
166.36079 112.68247 224.80753
166.86909 112.71151 223.7919
167.40686 112.71149 223.77414
167.94466 112.71147 223.75505
168.44344 112.7405 222.73587
169.02032 112.71143 223.71303
169.64586 112.65329 225.68729
170.28104 112.59516 227.65984
170.8286 112.59514 227.63382
171.58032 112.47888 231.59959
172.24445 112.42075 233.56671
172.9182 112.36261 235.53197
173.60162 112.30447 237.49532
174.41599 112.18821 241.45222
175.18655 112.10101 244.40892
176.03706 111.98476 248.36073
176.70328 111.95567 249.31802
177.37436 111.92657 250.27351
178.05031 111.89748 251.2272
178.73112 111.86839 252.17906
179.33936 111.86835 252.13254
180.10738 111.8102 254.07726
180.72055 111.81017 254.02739
181.2491 111.83918 252.98001
181.86 111.83914 252.92731
182.47098 111.8391 252.87314
183.08205 111.83906 252.81746
183.59888 111.86807 251.7652
184.30441 111.83897 252.70164
185.11395 111.7808 254.63075
185.73015 111.78075 254.56859
186.24252 111.80976 253.51076
186.96284 111.78065 254.43971
187.57933 111.78059 254.37302
188.19592 111.78054 254.30476
189.03973 111.72236 256.22122
189.77733 111.69324 257.14218
190.28307 111.72224 256.07596
190.7841 111.75124 255.00877
191.52684 111.72211 255.92456
192.02328 111.7511 254.85489
192.64305 111.75102 254.77559
193.52383 111.69283 256.67682
194.28151 111.66369 257.5845
194.77364 111.69267 256.50922
195.53641 111.66353 257.41315
196.30415 111.63438 258.31476
196.93436 111.63429 258.22476
197.56471 111.6342 258.13321
198.34254 111.60504 259.02869
199.12535 111.57588 259.92184
199.60881 111.60484 258.83679
200.39677 111.57568 259.72598
201.03273 111.57557 259.62564
201.50941 111.60452 258.5369
201.98143 111.63348 257.44727
202.94159 111.57523 259.31482
203.7449 111.54604 260.19354
204.21504 111.57498 259.09946
205.1951 111.51672 260.9588
205.83713 111.51659 260.84613
206.65573 111.48737 261.71573
207.30058 111.48724 261.59927
208.12686 111.45802 262.4642
208.59091 111.48694 261.36142
209.42247 111.45771 262.22205
209.69357 111.51569 260.13513
210.52798 111.48646 260.99188
211.36751 111.45721 261.84604
212.2121 111.42796 262.69748
213.06178 111.39871 263.54623
213.71593 111.39852 263.41302
214.57339 111.36926 264.25684
215.02496 111.39813 263.14139
215.67986 111.39793 263.00296
216.33502 111.39773 262.86273
217.20326 111.36844 263.69739
217.43089 111.42638 261.60089
218.08443 111.42616 261.4559
218.9584 111.39684 262.28415
219.39236 111.42569 261.16058
220.49683 111.36728 262.95804
221.15642 111.36703 262.80478
221.81631 111.36678 262.64969
222.47653 111.36652 262.49277
223.13707 111.36625 262.33401
224.03516 111.33689 263.14441
224.69881 111.33661 262.98138
225.84708 111.27814 264.75607
226.76089 111.24875 265.55725
227.67996 111.21935 266.35532
228.1053 111.24813 265.21432
229.28198 111.18962 266.97461
229.70558 111.21839 265.83038
230.38153 111.21806 265.65152
231.57655 111.15952 267.40146
232.25821 111.15916 267.21738
232.94028 111.15881 267.03134
233.62274 111.15845 266.84332
234.5748 111.12897 267.61594
234.98891 111.15769 266.46124
235.94678 111.1282 267.22845
236.63339 111.1278 267.03168
237.59955 111.09829 267.79269
238.008 111.12698 266.63199
239.26404 111.06834 268.34586
239.95741 111.06792 268.13934
240.36232 111.0966 266.97388
241.34564 111.06703 267.72009
242.04047 111.06658 267.50726
242.73579 111.06612 267.29236
243.73053 111.03654 268.02911
244.73074 111.00694 268.76221
245.73643 110.97733 269.49152
246.74762 110.94771 270.21704
247.76434 110.91808 270.93872
248.16386 110.9467 269.75684
249.18666 110.91706 270.47247
250.21498 110.88741 271.18414
250.93002 110.88687 270.94455
251.64563 110.88634 270.70261
252.36179 110.8858 270.4584
253.07855 110.88525 270.21185
253.467 110.91385 269.01904
254.1824 110.91329 268.76874
255.90005 110.82529 271.34253
256.62418 110.82472 271.08484
257.34888 110.82415 270.82471
258.75708 110.76527 272.44107
259.48804 110.76468 272.17429
259.52664 110.82242 270.02985
260.95178 110.76351 271.63333
262.0361 110.73376 272.29486
262.41797 110.76234 271.08246
263.15201 110.76175 270.80328
263.88666 110.76117 270.52158
264.98355 110.73141 271.16922
265.72195 110.73083 270.88144
266.46094 110.73025 270.59113
267.93912 110.67133 272.15594
268.31259 110.69993 270.93063
269.05594 110.69936 270.63153
269.79987 110.69881 270.3298
270.54437 110.69826 270.02548
271.28949 110.69772 269.71854
271.26596 110.75556 267.56366
272.00705 110.75505 267.25354
272.74866 110.75455 266.94077
61.763878 112.50746 230.99051
62.403694 112.50766 231.26088
62.657852 112.48112 232.4514
62.533966 112.42787 234.56525
63.560257 112.45485 233.90746
63.825783 112.42836 235.09644
64.095909 112.40188 236.28525
65.860764 112.48236 233.76332
66.499916 112.48263 234.01901
67.50605 112.50964 233.3428
68.871544 112.56339 231.73177
70.588829 112.64388 229.18294
70.850937 112.61742 230.35655
71.832314 112.64445 229.66278
72.098488 112.618 230.83408
71.664604 112.53812 233.87621
72.294685 112.53842 234.11253
72.924271 112.53872 234.34673
72.863861 112.48557 236.45544
74.181931 112.53932 234.80882
74.809998 112.53962 235.03674
75.77478 112.56664 234.32152
76.734047 112.59366 233.60243
78.019997 112.64739 231.93672
78.63607 112.64768 232.15288
79.906036 112.7014 230.47786
80.516136 112.70168 230.68832
81.125786 112.70197 230.89676
81.095566 112.64882 232.99757
82.026459 112.67581 232.25584
82.322502 112.64938 233.40813
82.93528 112.64964 233.61049
84.167053 112.70333 231.91003
84.773956 112.70359 232.10693
85.075668 112.67714 233.25401
85.684189 112.6774 233.44792
85.692696 112.62424 235.54723
86.899925 112.67789 233.83012
87.801987 112.70483 233.06325
89.283394 112.78518 230.3811
89.879898 112.7854 230.56271
91.625633 112.89243 226.91275
91.641609 112.83924 229.00412
91.949532 112.81276 230.1378
92.54203 112.81297 230.31148
93.411659 112.83987 229.52309
94.000946 112.84007 229.69257
94.317276 112.81358 230.82205
94.908295 112.81377 230.98877
95.2313 112.78725 232.11688
95.824081 112.78744 232.28084
95.891022 112.73424 234.37202
96.488052 112.73441 234.53386
97.342575 112.76127 233.72813
97.681091 112.73475 234.85239
98.27713 112.73491 235.00908
99.123344 112.76175 234.1963
99.964325 112.78859 233.3806
100.80012 112.81541 232.56197
101.38757 112.81556 232.71008
102.21542 112.84238 231.88629
102.79986 112.84251 232.03049
102.67661 112.76259 235.08737
102.80111 112.70934 237.17413
102.93509 112.6561 239.26161
103.53551 112.65622 239.40338
103.90964 112.62965 240.51724
104.73557 112.65644 239.68192
105.77751 112.70991 237.86903
106.59074 112.73669 237.02769
107.39886 112.76347 236.18365
107.98801 112.76355 236.31346
108.78834 112.79032 235.46463
109.3746 112.79041 235.59071
110.16718 112.81716 234.73715
110.54642 112.79057 235.8382
110.93033 112.76396 236.93866
111.91666 112.81738 235.09984
112.4994 112.81745 235.21762
113.08194 112.81751 235.33388
113.66428 112.81757 235.44858
114.43599 112.84431 234.58025
114.82838 112.81768 235.67342
115.22545 112.79106 236.76596
115.80946 112.79111 236.87502
116.21342 112.76447 237.96588
116.97694 112.79119 237.08858
117.73545 112.81791 236.20886
118.31635 112.81795 236.31145
118.72691 112.79131 237.39755
119.30989 112.79134 237.49754
119.39671 112.71134 240.55363
119.82373 112.68469 241.63811
120.57643 112.7114 240.74852
121.16608 112.71142 240.8437
121.75557 112.71144 240.93738
122.65143 112.76481 239.05391
123.08498 112.73815 240.13202
123.52321 112.71149 241.20941
124.25817 112.73817 240.3082
124.84457 112.73819 240.39403
125.28967 112.71152 241.46805
125.87823 112.71153 241.55128
126.87579 112.79156 238.66214
127.45689 112.79156 238.74142
128.16943 112.81824 237.82834
128.74789 112.81824 237.90439
129.32626 112.81824 237.97903
129.6559 112.76489 240.03598
130.36079 112.79156 239.11613
131.06076 112.81824 238.19427
131.52164 112.79156 239.25594
132.21661 112.81822 238.33061
132.7944 112.81822 238.39662
133.15237 112.76486 240.44841
133.51988 112.7115 242.49977
134.00198 112.68482 243.55666
134.59148 112.68481 243.61824
135.28113 112.71147 242.68373
135.96588 112.73814 241.74734
136.64575 112.76479 240.80901
137.32076 112.79146 239.86882
137.80963 112.76477 240.91782
138.47968 112.79143 239.97432
138.97324 112.76474 241.0209
139.55495 112.76472 241.07031
140.21759 112.79138 240.12196
140.79678 112.79137 240.1683
141.29971 112.76467 241.21002
141.955 112.79133 240.25688
142.39124 112.73796 242.29321
142.97502 112.73795 242.33432
143.49217 112.71125 243.3714
144.27083 112.79126 240.41708
144.97324 112.84459 238.45816
145.84416 112.97795 233.50362
146.69102 113.11131 228.5463
147.51384 113.24467 223.58626
148.10388 113.27133 222.61674
148.73888 113.32466 220.64728
149.36424 113.378 218.67606
149.84505 113.3513 219.69899
150.45834 113.40464 217.72467
151.14238 113.51133 213.75101
151.69385 113.53799 212.77213
152.13438 113.48462 214.78888
152.68343 113.51128 213.80742
153.13593 113.45791 215.82211
153.56982 113.37786 218.83511
154.06967 113.35117 219.8486
154.59767 113.35115 219.86159
155.08372 113.29778 221.87215
155.6165 113.29777 221.88269
156.1331 113.27108 222.89146
156.64072 113.2177 224.89857
157.15793 113.16434 226.90451
157.71167 113.191 225.91046
158.25403 113.19099 225.91467
158.79221 113.16429 226.91722
159.33873 113.19096 225.9192
159.88048 113.21762 224.91988
160.42648 113.16425 226.91817
160.97125 113.16424 226.91586
161.50821 113.1909 225.91264
162.04037 113.21757 224.90814
162.55511 113.2709 222.90285
163.0753 113.29757 221.89592
163.62555 113.27088 222.88675
164.14096 113.29755 221.87735
164.62936 113.35089 219.86736
165.18207 113.3242 220.85429
165.65851 113.37754 218.84204
166.12537 113.43089 216.82875
166.6463 113.43088 216.81279
167.23572 113.37751 218.79369
167.87138 113.29746 221.77196
168.52148 113.21741 224.74843
169.18602 113.13737 227.72302
169.77734 113.11068 228.69833
170.37349 113.08399 229.6721
171.02312 113.03062 231.64279
171.68239 112.97726 233.61168
172.3513 112.92389 235.57867
173.25322 112.76381 241.53615
174.06754 112.65708 245.49471
174.77982 112.60371 247.45509
175.50177 112.55034 249.41348
176.36429 112.44361 253.36479
176.90681 112.47028 252.32666
177.4446 112.49694 251.28738
178.12294 112.47025 252.24095
178.65604 112.49692 251.19908
179.26186 112.4969 251.15273
179.9476 112.47021 252.10135
180.72052 112.41683 254.04436
181.24907 112.4435 252.99693
182.03415 112.39012 254.93593
182.64993 112.3901 254.88132
183.1739 112.41676 253.8298
183.78745 112.41675 253.7724
184.40108 112.41673 253.7135
185.01479 112.4167 253.65312
185.73012 112.39001 254.58568
186.24248 112.41666 253.52777
186.85646 112.41664 253.46283
187.47055 112.41662 253.39639
188.19588 112.38991 254.32187
188.92613 112.3632 255.24527
189.6613 112.33649 256.16663
190.28302 112.33647 256.09323
190.78406 112.36312 255.02597
191.52679 112.33641 255.9418
192.02322 112.36305 254.87209
192.64301 112.36302 254.7928
193.52376 112.30962 256.69418
194.28146 112.28291 257.60196
194.77356 112.30955 256.52661
195.39867 112.30951 256.44046
196.164 112.28278 257.34253
196.79178 112.28274 257.25287
197.41971 112.28269 257.16165
198.04779 112.28265 257.06885
198.82576 112.25591 257.9628
199.30438 112.28254 256.87842
200.08749 112.25581 257.76843
200.71861 112.25574 257.66888
201.19046 112.28237 256.58084
201.81949 112.2823 256.47842
202.77721 112.22887 258.3465
203.41142 112.22881 258.24005
204.04581 112.22874 258.13196
205.02345 112.17529 259.99191
205.83701 112.14853 260.86407
206.47923 112.14845 260.74976
207.12166 112.14837 260.63379
207.94551 112.1216 261.49924
208.40712 112.14819 260.39682
209.23624 112.12141 261.258
209.69344 112.148 260.15314
210.52783 112.12122 261.00995
211.36734 112.09443 261.86417
212.21191 112.06763 262.7157
213.06161 112.04083 263.56454
213.9164 112.01403 264.41064
214.37013 112.0406 263.29642
215.02477 112.04047 263.15973
215.67966 112.04034 263.0213
216.33481 112.04021 262.8811
216.99023 112.04008 262.73917
217.43066 112.06663 261.6192
218.30191 112.03979 262.44989
218.95816 112.03964 262.30258
219.61472 112.03949 262.1535
220.4966 112.01263 262.97662
221.61111 111.95908 264.77017
222.27588 111.95892 264.61392
222.47626 112.01213 262.51132
223.3716 111.98525 263.32428
224.27214 111.95837 264.13419
224.93823 111.95818 263.97058
225.84677 111.93129 264.77493
227.00519 111.87769 266.54547
227.92671 111.85078 267.34299
228.10498 111.90397 265.23328
229.02966 111.87705 266.02634
229.95967 111.85012 266.81622
230.63806 111.84989 266.63672
231.5762 111.82295 267.42075
232.51964 111.79601 268.20142
233.20416 111.79575 268.01474
233.62234 111.82221 266.86264
234.5744 111.79524 267.63535
234.98851 111.82169 266.48062
235.67224 111.82141 266.28662
236.3564 111.82114 266.09058
237.59912 111.76743 267.81232
238.28912 111.76714 267.61072
239.54758 111.71342 269.32397
239.95695 111.73983 268.15906
240.93979 111.71281 268.90747
241.63661 111.71249 268.69608
242.33392 111.71217 268.48254
243.03172 111.71185 268.26688
244.02893 111.68479 269.00299
245.0316 111.65774 269.73535
246.03976 111.63067 270.46396
247.05344 111.60359 271.18875
248.07263 111.57652 271.90976
248.47467 111.60287 270.72705
249.1861 111.60251 270.49283
249.89806 111.60214 270.25635
250.92944 111.57504 270.96503
251.64502 111.57465 270.72311
252.36118 111.57427 270.47891
252.75157 111.60062 269.28757
253.13751 111.62697 268.09558
253.85039 111.62657 267.84616
255.23163 111.5727 269.47888
255.95071 111.5723 269.22299
257.00931 111.54517 269.90515
258.41498 111.49127 271.52261
258.79944 111.51762 270.31815
259.17947 111.54395 269.1131
260.95108 111.46331 271.65445
262.0354 111.43615 272.3161
262.77136 111.43575 272.03851
263.15131 111.46209 270.82452
263.88596 111.46169 270.54285
264.25952 111.48804 269.32675
264.99283 111.48765 269.04095
265.72678 111.48726 268.75272
266.83057 111.46012 269.39078
267.56824 111.45974 269.09637
268.68085 111.43261 269.72626
269.04535 111.45901 268.49976
270.16422 111.43189 269.12234
271.28876 111.40479 269.74023
272.03442 111.40446 269.43066
272.78061 111.40414 269.11844
273.13766 111.43061 267.88297
61.764229 113.11524 231.00754
62.404076 113.11527 231.27785
63.043488 113.11532 231.54591
62.917046 113.06673 233.65883
63.940804 113.09113 232.99989
64.581406 113.09122 233.26224
65.221519 113.09131 233.52235
66.233704 113.11573 232.85252
66.870316 113.11584 233.10718
67.138969 113.09164 234.28935
68.871925 113.16472 231.74843
70.226814 113.21349 230.13106
70.851334 113.21362 230.373
71.832695 113.23807 229.67918
72.098862 113.2139 230.85052
71.664993 113.1411 233.89279
71.945297 113.11693 235.06561
72.230141 113.09277 236.23817
72.519493 113.06861 237.41049
73.840073 113.11739 235.76463
75.489807 113.19049 233.17279
76.112358 113.19065 233.39679
77.069107 113.21512 232.67674
78.020355 113.23959 231.95288
78.966103 113.26405 231.22523
79.906372 113.28851 230.49384
80.191795 113.26436 231.64977
80.481735 113.2402 232.80542
80.776199 113.21605 233.96083
81.709587 113.2405 233.21985
82.008102 113.21635 234.37303
82.623383 113.21649 234.57617
84.167358 113.28955 231.92586
84.774254 113.2897 232.12274
85.075966 113.26553 233.26984
85.684471 113.26566 233.46376
85.692978 113.21719 235.56316
86.900192 113.26593 233.84593
87.802261 113.29036 233.07895
88.991295 113.33909 231.35263
89.880157 113.36351 230.5782
91.913277 113.48513 225.97044
91.926773 113.43665 228.06122
91.949768 113.38815 230.15317
92.542259 113.38826 230.32684
93.134361 113.38837 230.49878
93.451042 113.36417 231.63005
94.044884 113.36427 231.79919
94.638367 113.36436 231.96657
95.231499 113.36446 232.13222
95.559074 113.34025 233.25999
95.891205 113.31604 234.38745
96.74852 113.34042 233.58405
97.342758 113.3405 233.74347
97.936653 113.34058 233.90121
98.277298 113.31635 235.02443
99.123497 113.34071 234.21159
99.964478 113.36507 233.39581
100.80026 113.38943 232.57709
101.38771 113.38949 232.7252
102.21556 113.41384 231.90135
102.56174 113.3896 233.01643
102.67674 113.34106 235.10258
103.03458 113.31682 236.21738
102.93521 113.24399 239.27705
103.7641 113.26832 238.44556
104.36182 113.26836 238.58507
104.73567 113.2441 239.69734
105.55646 113.26843 238.85922
106.59085 113.31705 237.04285
107.61523 113.36565 235.22273
108.20194 113.36568 235.35199
108.99983 113.38999 234.50256
109.58366 113.39001 234.62811
110.37379 113.41432 233.77399
110.75061 113.39005 234.87454
111.13208 113.36577 235.97456
112.11598 113.41436 234.1351
112.49945 113.39008 235.23253
112.88758 113.36579 236.32939
113.47234 113.36579 236.44458
114.05692 113.3658 236.5582
114.45416 113.34151 237.65233
115.04078 113.3415 237.76337
115.62721 113.3415 237.87288
116.0336 113.3172 238.96423
116.79955 113.34148 238.08728
117.56046 113.36576 237.20795
118.14378 113.36575 237.31094
118.55675 113.34145 238.39752
119.14217 113.34143 238.49791
119.39673 113.29283 240.56866
119.82374 113.26852 241.65323
120.73695 113.31709 239.77679
121.48227 113.34136 238.88445
122.06693 113.34134 238.97736
122.8047 113.36561 238.08089
123.23582 113.34129 239.15869
123.52321 113.29269 241.2244
124.11216 113.29266 241.31207
124.70097 113.29263 241.39828
125.14848 113.26831 242.47269
125.87823 113.29257 241.56622
126.73943 113.34113 239.66727
127.32294 113.3411 239.74689
128.03789 113.36536 238.83401
128.61876 113.36533 238.91042
129.19952 113.3653 238.98535
129.65588 113.34097 240.0508
130.23888 113.34094 240.12312
130.82175 113.3409 240.19403
131.52162 113.36517 239.27066
132.2166 113.38943 238.34526
132.79439 113.38939 238.41127
133.26221 113.36506 239.46951
133.73479 113.34073 240.52684
134.00197 113.26781 243.57161
134.59146 113.26778 243.63316
135.2811 113.29204 242.69861
135.96587 113.31629 241.76215
136.74117 113.36485 239.82864
137.32074 113.36481 239.88348
137.8096 113.34048 240.93254
138.39145 113.34045 240.98479
138.97321 113.34041 241.03561
139.47151 113.31608 242.08124
140.05556 113.31605 242.12943
140.71815 113.34031 241.17958
141.2235 113.31597 242.22156
141.80737 113.31594 242.26549
142.31982 113.29161 243.30515
142.97501 113.31587 242.34908
143.49214 113.29154 243.38623
144.14243 113.3158 242.42702
144.72607 113.31577 242.46387
145.48782 113.38863 239.50546
146.23514 113.46149 236.54485
147.02258 113.55865 232.58379
147.7386 113.63152 229.61867
148.48996 113.72868 225.65303
149.12733 113.77725 223.68224
149.62013 113.75293 224.7058
150.24544 113.8015 222.73187
150.86113 113.85007 220.75626
151.46718 113.89864 218.77899
152.02824 113.92292 217.79915
152.68341 114.02009 213.8204
153.19705 114.02007 213.83673
153.68251 113.99575 214.85114
154.14697 113.94713 216.86382
154.66779 113.94711 216.87662
155.14662 113.8985 218.88715
155.67221 113.89848 218.89754
156.19778 113.89846 218.90668
156.70958 113.87415 219.91417
157.2148 113.82553 221.92007
157.75653 113.84981 220.92584
158.2803 113.82549 221.92966
158.81306 113.82549 221.93251
159.3476 113.84977 220.93439
159.87733 113.87405 219.935
160.41135 113.82544 221.93344
160.93869 113.84973 220.9315
161.46126 113.87402 219.9283
161.97902 113.89831 218.9239
162.49199 113.9226 217.91824
163.0152 113.92259 217.91103
163.55585 113.89828 218.90205
164.08148 113.89828 218.89229
164.58492 113.92257 217.88177
165.13281 113.89827 218.86891
165.63147 113.92256 217.85596
166.12537 113.94685 216.84193
166.74178 113.87395 219.82356
167.40685 113.77675 223.80257
168.01788 113.72815 225.78156
168.63857 113.67954 227.7589
169.26888 113.63094 229.73454
169.86499 113.60664 230.70975
170.51218 113.55804 232.68198
171.16901 113.50944 234.65244
172.03963 113.36364 240.61467
172.77879 113.29074 243.57922
173.64409 113.16924 248.53786
174.30049 113.14494 249.50169
175.0224 113.09635 251.46162
175.6909 113.07205 252.42183
176.42973 113.02345 254.37778
176.97467 113.04776 253.33946
177.5851 113.04777 253.29718
178.1956 113.04778 253.25342
178.58096 113.12068 250.21754
179.10692 113.14498 249.17467
179.86774 113.09639 251.12024
180.55595 113.0721 252.06726
181.16438 113.07211 252.01625
182.03415 112.99921 254.95152
182.64993 112.99922 254.89693
183.1739 113.02353 253.84535
183.78745 113.02354 253.78796
184.40106 113.02354 253.72906
184.91566 113.04785 252.67389
185.62859 113.02355 253.60675
186.03461 113.07216 251.55475
186.75012 113.04787 252.48439
187.47054 113.02357 253.41197
188.0847 113.02358 253.34399
188.92612 112.97499 255.26099
189.77727 112.92639 257.17535
190.51978 112.9021 258.09433
191.02562 112.92641 257.02646
191.77318 112.90211 257.94177
192.27444 112.92641 256.8714
192.89903 112.92641 256.7915
193.65417 112.90212 257.7012
194.28143 112.90212 257.61789
194.77354 112.92642 256.54248
195.39864 112.92642 256.45636
196.16396 112.90212 257.35846
196.50673 112.95072 255.28986
197.27475 112.92641 256.18848
197.90041 112.92641 256.09601
198.67596 112.90211 256.99042
199.15218 112.9264 255.90639
200.24205 112.85349 258.77222
200.87558 112.85349 258.67224
201.34984 112.87778 257.58374
201.98128 112.87776 257.48096
202.94142 112.82915 259.34879
203.57805 112.82913 259.24194
204.21486 112.82912 259.13345
205.19492 112.7805 260.99307
205.83694 112.78048 260.88043
206.47916 112.78046 260.76614
207.12158 112.78043 260.65018
207.76421 112.7804 260.53253
208.22339 112.80468 259.43054
209.05008 112.78035 260.29224
209.50484 112.80461 259.18777
210.14589 112.80458 259.06387
210.98053 112.78024 259.9191
212.01604 112.7316 261.75201
212.86328 112.70725 262.60141
213.51498 112.70721 262.46872
214.16693 112.70716 262.33429
214.6136 112.73141 261.21979
215.26363 112.73135 261.0824
215.91391 112.7313 260.94327
216.77728 112.70694 261.77917
217.64581 112.68257 262.61224
218.51947 112.6582 263.44244
219.17816 112.65813 263.29459
219.83714 112.65806 263.14496
220.72145 112.63368 263.96759
221.38348 112.6336 263.81378
222.27573 112.60921 264.63104
222.9408 112.60912 264.47296
223.84103 112.58473 265.28482
224.74646 112.56033 266.0936
225.65712 112.53593 266.89932
226.33087 112.53583 266.73203
227.24957 112.51141 267.53214
227.67944 112.53561 266.39175
228.10475 112.5598 265.25064
228.7775 112.55968 265.07635
229.70502 112.53526 265.86691
230.38095 112.53513 265.68811
231.31662 112.51069 266.47284
231.99579 112.51056 266.28946
232.67535 112.51042 266.10413
233.35536 112.51028 265.91684
234.30495 112.48582 266.69031
234.98822 112.48567 266.49832
235.67195 112.48552 266.30432
236.63269 112.46104 267.06897
237.59882 112.43657 267.83017
238.57034 112.41209 268.58786
239.26324 112.41192 268.38348
239.95663 112.41174 268.17709
240.65048 112.41156 267.96854
241.63626 112.38706 268.7142
242.33356 112.38687 268.50067
243.03137 112.38668 268.28506
244.02855 112.36217 269.02121
245.03122 112.33765 269.75366
246.03938 112.31313 270.48236
247.05307 112.2886 271.20731
247.45453 112.31271 270.02676
247.85156 112.33681 268.84564
248.55798 112.3366 268.6131
248.94861 112.3607 267.42993
249.97247 112.33616 268.14124
251.00191 112.31161 268.84857
252.0369 112.28706 269.55188
252.75113 112.28683 269.30627
253.46591 112.28661 269.05832
254.1813 112.28638 268.80804
255.56505 112.23748 270.44003
255.95023 112.26158 269.24185
257.00882 112.23701 269.9241
258.41446 112.18812 271.54172
259.48688 112.16355 272.2146
259.87192 112.18765 271.00763
261.29956 112.13876 272.6105
262.03488 112.13853 272.33545
262.41678 112.16264 271.12299
262.79419 112.18675 269.90991
263.52631 112.18653 269.62927
263.89734 112.21066 268.41406
264.99231 112.18611 269.06033
265.72626 112.18591 268.77209
267.19934 112.13703 270.33929
267.56772 112.16119 269.11588
268.68033 112.13667 269.74585
269.42172 112.13651 269.44525
270.92264 112.08766 270.99182
271.67029 112.08751 270.68387
272.41849 112.08738 270.37323
273.55435 112.06292 270.98166
273.91653 112.08716 269.74402
62.154755 113.74491 230.10246
62.404259 113.72289 231.2932
63.043694 113.72276 231.56122
62.917267 113.67886 233.67424
63.941025 113.70067 233.01521
64.581627 113.70058 233.27756
65.596809 113.72242 232.61093
66.233925 113.72236 232.86775
67.24054 113.74422 232.1936
67.874138 113.74417 232.44501
69.237099 113.78795 230.83267
70.589455 113.83173 229.21419
71.211441 113.83171 229.45514
72.190285 113.8536 228.76022
72.453926 113.83169 229.93066
72.01754 113.76597 232.97212
72.645096 113.76597 233.20749
72.924896 113.74407 234.37823
73.55397 113.74408 234.61026
74.182541 113.74409 234.84021
75.490044 113.78791 233.18755
75.775368 113.76602 234.35274
76.734627 113.78794 233.63348
77.356186 113.78796 233.85338
78.636627 113.83179 232.18359
79.579407 113.85371 231.45297
80.516693 113.87564 230.71866
80.481941 113.83186 232.81995
81.096092 113.83188 233.02812
81.709778 113.8319 233.23433
82.008301 113.81002 234.38753
82.623573 113.81004 234.59067
83.857819 113.85387 232.89073
84.774429 113.87579 232.13704
85.38089 113.87582 232.332
85.986908 113.87583 232.52512
85.992928 113.83205 234.62384
86.900368 113.85397 233.86018
87.507599 113.85398 234.04845
88.406754 113.87589 233.27882
89.590431 113.91972 231.549
91.626007 114.02924 226.94171
91.641975 113.98544 229.03333
91.667442 113.94164 231.12608
92.542381 113.96355 230.34073
93.134491 113.96355 230.51262
93.451157 113.94166 231.64398
93.7724 113.91975 232.77498
94.638474 113.94166 231.98047
95.231598 113.94165 232.1461
95.559166 113.91975 233.27393
95.891304 113.89783 234.40141
97.008911 113.94164 232.63264
97.600677 113.94162 232.79143
98.192123 113.94161 232.94847
98.783249 113.9416 233.10385
99.374054 113.94158 233.25755
99.964546 113.94156 233.40959
100.80032 113.96345 232.59079
101.38777 113.96342 232.73889
101.97493 113.9634 232.8853
102.5618 113.96337 233.03008
102.91259 113.94144 234.14478
103.03463 113.89761 236.23119
103.39708 113.87568 237.34555
103.99261 113.87564 237.48615
104.58789 113.87561 237.62509
104.9593 113.85367 238.73683
105.55649 113.85363 238.87306
106.37215 113.8755 238.03215
107.18269 113.89736 237.18851
107.98811 113.91922 236.34224
108.99986 113.96299 234.51608
109.58366 113.96294 234.64165
110.58036 114.00671 232.80927
110.95474 113.98476 233.90938
111.33378 113.9628 235.00894
111.91672 113.96275 235.12825
112.69629 113.9846 234.26582
113.08199 113.96265 235.36226
113.47234 113.94069 236.45808
114.05691 113.94064 236.57173
114.64128 113.94058 236.68382
115.04076 113.91862 237.77696
115.6272 113.91856 237.88643
116.39331 113.94041 237.01094
116.97696 113.94035 237.11694
117.73546 113.9622 236.23712
118.31635 113.96214 236.33968
118.89708 113.96208 236.44072
119.30989 113.94011 237.52585
119.3967 113.87433 240.58231
120.14956 113.89617 239.69408
120.89743 113.91801 238.80357
121.48224 113.91795 238.89793
122.06689 113.91789 238.99084
122.80466 113.93974 238.09431
123.08495 113.89585 240.16048
123.52318 113.87388 241.23798
124.11211 113.87381 241.32568
124.84454 113.89566 240.42247
125.43082 113.89559 240.50682
126.15575 113.91744 239.59961
127.01212 113.9612 237.69987
127.59081 113.96114 237.77881
128.30092 113.98298 236.8653
128.74785 113.96101 237.9324
129.19949 113.93903 238.99872
129.65585 113.91705 240.06419
130.23883 113.91698 240.13655
130.82172 113.91692 240.20741
131.52158 113.93877 239.28401
132.21655 113.96062 238.35855
132.79434 113.96056 238.42458
133.37204 113.9605 238.48914
133.84219 113.93852 239.54626
134.21204 113.89464 241.59669
134.69406 113.87266 242.65224
135.28105 113.8726 242.71211
135.86798 113.87254 242.77055
136.64569 113.91631 240.83713
137.32069 113.93817 239.8968
137.90018 113.93811 239.95026
138.47961 113.93806 240.00227
139.05898 113.938 240.0529
139.63829 113.93795 240.10211
140.13654 113.91598 241.14635
140.71811 113.91592 241.19295
141.22345 113.89395 242.23494
141.88113 113.91582 241.28185
142.31978 113.87193 243.31859
142.97496 113.89381 242.36247
143.55869 113.89375 242.40216
144.1424 113.89371 242.44038
144.60246 113.84982 244.47295
145.19087 113.84978 244.50867
145.83623 113.87165 243.54482
146.53131 113.91545 241.58102
147.21677 113.95924 239.6153
147.99214 114.04689 235.65065
148.74828 114.13453 231.68365
149.35023 114.15641 230.71066
150.03253 114.22214 227.73842
150.70039 114.28787 224.76424
151.27827 114.30975 223.78625
151.85133 114.33165 222.80681
152.45256 114.37546 220.82668
153.04416 114.41927 218.84496
153.56979 114.41925 218.86041
154.12119 114.44115 217.87518
154.66776 114.46304 216.88857
155.18855 114.46302 216.9001
155.70934 114.463 216.9104
156.24629 114.4849 215.91985
156.76466 114.48488 215.9276
157.27165 114.46294 216.93381
157.81934 114.52869 213.93994
158.32632 114.50675 214.94368
158.84229 114.50674 214.94644
159.35825 114.50673 214.94798
159.87358 114.52864 213.94853
160.39319 114.48479 215.9471
160.91158 114.48477 215.94492
161.42212 114.50669 214.94176
161.93811 114.50668 214.93709
162.46674 114.48476 215.93086
163.00017 114.46283 216.92336
163.55585 114.41898 218.91412
164.12112 114.37514 220.90343
164.74048 114.28745 224.89032
165.3298 114.2436 226.87659
165.90172 114.22168 227.86192
166.44904 114.22168 227.84647
166.99638 114.22169 227.82968
167.54375 114.22169 227.81157
168.05452 114.24362 226.79308
168.75565 114.15594 230.76845
169.4346 114.09018 233.74281
170.12799 114.02442 236.71521
170.88205 113.93674 240.68434
171.60672 113.87099 243.65256
172.34586 113.80524 246.6187
173.04599 113.76141 248.5843
173.75578 113.71759 250.54796
174.41699 113.69569 251.51155
175.14369 113.65186 253.47134
175.75397 113.65188 253.4335
176.36429 113.6519 253.39421
176.97467 113.65192 253.35344
177.58511 113.65195 253.31117
178.12296 113.6739 252.27031
178.58098 113.71777 250.23137
179.18439 113.7178 250.1852
179.86775 113.6959 251.13416
180.47369 113.69593 251.08484
181.1644 113.67403 252.03023
182.12125 113.58639 255.96161
182.73944 113.58642 255.9068
183.26582 113.60837 254.85497
183.88176 113.60841 254.79733
184.40109 113.63036 253.74315
184.91568 113.65231 252.68791
185.6286 113.63043 253.62083
186.13855 113.65238 252.5631
186.85648 113.6305 253.49251
187.5793 113.60862 254.41991
188.30704 113.58674 255.34525
189.0397 113.56486 256.26852
189.89325 113.52106 258.18268
190.63817 113.49918 259.10147
191.14644 113.52113 258.03326
191.77319 113.52118 257.95618
192.27446 113.54314 256.88574
192.77101 113.56509 255.81433
193.52376 113.54321 256.72446
194.14859 113.54326 256.64145
194.63829 113.56522 255.5663
195.26097 113.56525 255.4805
195.88379 113.5653 255.39313
196.36423 113.58726 254.31464
197.12984 113.56538 255.21368
197.75308 113.56541 255.12161
198.67596 113.52162 257.00488
199.15218 113.54358 255.92082
200.24205 113.47787 258.7868
200.87558 113.47791 258.68686
201.50928 113.47795 258.5853
202.14313 113.47799 258.48212
203.10568 113.4342 260.34967
203.57805 113.45615 259.25662
204.55307 113.41235 261.11887
205.36644 113.39047 261.99286
205.83693 113.41242 260.89526
206.65552 113.39054 261.76508
207.12157 113.41249 260.66504
207.76419 113.41253 260.54739
208.03972 113.45639 258.46259
209.05005 113.41259 260.3071
209.50481 113.43453 259.20261
210.14586 113.43456 259.0787
210.9805 113.41267 259.93402
211.82021 113.39079 260.78662
212.66502 113.3689 261.6366
213.51494 113.34701 262.48383
214.16689 113.34703 262.34943
214.61357 113.36897 261.23489
215.26358 113.36898 261.0975
216.12424 113.34708 261.93573
216.77722 113.3471 261.79431
217.64575 113.3252 262.62747
218.51941 113.3033 263.45773
218.95795 113.32523 262.33469
219.83707 113.30332 263.16028
220.72137 113.28142 263.98294
221.38339 113.28142 263.82916
222.27563 113.25951 264.64648
222.94072 113.25951 264.48843
223.60612 113.25951 264.32858
224.27185 113.25951 264.16684
225.17761 113.23759 264.97382
226.08862 113.21567 265.77774
227.00488 113.19374 266.57855
227.67932 113.19373 266.40747
228.10464 113.21563 265.26633
228.77737 113.21561 265.09204
229.45047 113.21559 264.91583
230.12393 113.21558 264.7377
231.05713 113.19363 265.52313
231.99564 113.17169 266.30536
232.93948 113.14975 267.08426
233.35519 113.17163 265.93274
234.30478 113.14969 266.7063
234.98807 113.14965 266.51431
235.39764 113.17152 265.35889
236.07932 113.17149 265.16357
237.31958 113.12762 266.88632
238.57013 113.08374 268.60406
238.97903 113.10561 267.44119
239.95642 113.08364 268.19336
240.65027 113.08359 267.98483
241.63605 113.06162 268.73056
242.03941 113.08348 267.56149
243.03113 113.06151 268.30145
244.02831 113.03953 269.03769
245.03098 113.01756 269.77023
246.03914 112.99557 270.49902
246.74643 112.99551 270.27234
247.45427 112.99545 270.04346
248.16264 112.99538 269.81235
248.87155 112.99531 269.57895
249.26468 113.01716 268.39499
249.9722 113.01709 268.15793
251.32295 112.97318 269.81204
252.03659 112.97311 269.56876
252.42447 112.99496 268.37817
253.79446 112.95105 270.01935
254.51236 112.95098 269.76822
255.56473 112.92899 270.45712
256.28632 112.92893 270.20035
257.34741 112.90694 270.88177
258.07269 112.90688 270.61932
259.14258 112.8849 271.29318
259.87161 112.88484 271.02496
260.95026 112.86287 271.69113
261.68301 112.86282 271.41699
262.77048 112.84085 272.07538
263.50705 112.84081 271.79535
263.8851 112.86269 270.57974
264.6203 112.86267 270.29556
265.3562 112.86265 270.00891
266.09265 112.86263 269.71967
266.82971 112.86263 269.42789
267.56738 112.86263 269.13348
268.68002 112.84072 269.76358
269.79831 112.81882 270.38895
270.9223 112.79694 271.00967
271.66995 112.797 270.70175
272.0336 112.81898 269.46832
272.77982 112.81906 269.15613
273.52655 112.81916 268.84128
63.716156 114.42818 226.43422
63.955467 114.40841 227.62068
64.584709 114.40813 227.88441
64.448097 114.3689 229.99332
64.701393 114.34917 231.17944
64.959297 114.32944 232.36546
65.971962 114.34869 231.69771
66.606537 114.34847 231.95349
67.240631 114.34827 232.20708
67.874222 114.34807 232.45847
68.872246 114.36736 231.77686
70.589531 114.42565 229.22742
71.211525 114.42548 229.46834
72.547714 114.46429 227.8396
72.808846 114.44465 229.00909
73.074516 114.425 230.17842
73.344749 114.40536 231.34752
73.619507 114.38573 232.51643
73.898804 114.3661 233.6851
74.524849 114.36597 233.91414
75.490128 114.38533 233.20073
75.775467 114.36571 234.36592
76.400017 114.36559 234.58875
77.024078 114.36546 234.80952
77.977341 114.38485 234.08435
79.252296 114.42373 232.41068
79.867401 114.42361 232.62277
80.482018 114.42351 232.8329
81.415855 114.4429 232.09375
82.027046 114.44279 232.29912
82.637779 114.44269 232.50253
83.248055 114.44259 232.70403
84.167603 114.46199 231.95296
84.774498 114.46189 232.14981
85.685707 114.48129 231.3925
85.986961 114.46169 232.53784
85.992981 114.42259 234.63667
87.197716 114.46149 232.91838
87.80246 114.4614 233.10588
88.406792 114.4613 233.2915
89.590462 114.50021 231.56158
91.051239 114.55862 228.86923
91.357079 114.53903 230.00404
91.385025 114.49992 232.09763
92.262421 114.51933 231.31294
93.134506 114.53874 230.52504
93.451187 114.51914 231.6564
94.045013 114.51904 231.82552
94.908623 114.53845 231.03024
95.231606 114.51884 232.15851
95.293961 114.47974 234.25038
95.628563 114.46013 235.37856
96.748627 114.49904 233.61035
97.342834 114.49894 233.76978
98.192108 114.51835 232.96086
99.036171 114.53776 232.14891
99.875 114.55717 231.33405
100.4606 114.55707 231.4848
101.29147 114.57648 230.66472
101.38776 114.53735 232.75114
101.97491 114.53725 232.89755
102.56178 114.53715 233.04233
102.67676 114.49802 235.12868
102.80125 114.45889 237.21574
103.39705 114.45878 237.35797
103.99258 114.45867 237.49854
104.58784 114.45856 237.63748
105.18286 114.45846 237.77477
105.7776 114.45835 237.91046
106.3721 114.45824 238.04453
107.18263 114.47765 237.20085
107.77422 114.47754 237.33115
108.78839 114.51646 235.50543
109.7926 114.55539 233.67607
