ply
format ascii 1.0
comment PCL generated
element vertex 1596
property float x
property float y
property float z
element camera 0
property float view_px
property float view_py
property float view_pz
property float x_axisx
property float x_axisy
property float x_axisz
property float y_axisx
property float y_axisy
property float y_axisz
property float z_axisx
property float z_axisy
property float z_axisz
property float focal
property float scalex
property float scaley
property float centerx
property float centery
property int viewportx
property int viewporty
property float k1
property float k2
end_header
63.029083 87.807671 227.29115
64.049042 87.940315 226.64691
64.296997 87.820724 227.82825
64.930466 87.827271 228.09352
65.563606 87.833839 228.35655
66.196381 87.840408 228.6174
66.455658 87.720978 229.79521
67.090218 87.72757 230.0527
67.356331 87.608208 231.22922
68.358154 87.740723 230.56108
68.991493 87.747269 230.812
69.984879 87.879662 230.13649
70.614838 87.886139 230.38206
71.599777 88.018402 229.69926
72.579201 88.150581 229.01241
73.903488 88.408432 227.39336
74.521576 88.414673 227.62656
75.48452 88.546585 226.92767
76.099197 88.552719 227.15575
77.053703 88.684479 226.44989
77.327194 88.564857 227.60579
77.940521 88.570862 227.82771
78.22065 88.451218 228.98225
78.835571 88.457138 229.20102
78.794601 88.211929 231.2906
79.738838 88.343307 230.56982
80.677605 88.474579 229.84529
81.290726 88.480278 230.05603
82.221077 88.611366 229.32495
82.830795 88.616928 229.53088
83.752777 88.747833 228.79333
84.359116 88.753258 228.99454
85.272743 88.883972 228.25064
85.875725 88.889252 228.44717
86.478279 88.89447 228.64183
87.380669 89.024918 227.88896
87.979897 89.029991 228.07904
88.283447 88.909752 229.21442
88.884346 88.914719 229.40152
89.194519 88.794418 230.53549
90.084908 88.924469 229.77022
90.399254 88.804077 230.90201
91.00103 88.808823 231.08247
92.163216 89.063751 229.35777
92.759285 89.068329 229.53311
93.630417 89.197929 228.75357
94.223251 89.202362 228.92465
95.356766 89.456841 227.18483
95.943939 89.461105 227.351
95.999603 89.215279 229.42728
96.327881 89.09446 230.54796
96.921417 89.098602 230.71092
97.256409 88.977715 231.83011
97.851715 88.98175 231.99026
98.446693 88.985718 232.14871
99.041344 88.989639 232.30539
99.884033 89.118393 231.4998
100.7215 89.247063 230.69121
101.3103 89.250763 230.84152
102.13979 89.379272 230.02771
102.96408 89.50769 229.21097
103.54707 89.511192 229.35506
103.66246 89.265015 231.42604
104.01857 89.143631 232.53287
104.83682 89.271797 231.70833
105.19727 89.15033 232.81303
105.56233 89.028847 233.91724
106.37488 89.156815 233.08661
106.74429 89.03524 234.18866
107.33488 89.038361 234.32193
107.92522 89.04142 234.45358
108.72698 89.169128 233.61426
108.89592 88.922714 235.6819
109.48797 88.925636 235.8092
109.8754 88.803841 236.90585
110.46941 88.806671 237.03046
111.06319 88.809448 237.15347
112.64207 89.435287 232.41267
113.6125 89.687134 230.58418
114.18861 89.68969 230.69901
114.76451 89.692192 230.8123
115.52756 89.819229 229.94968
115.7308 89.572495 232.00908
116.30854 89.574875 232.11824
116.88609 89.577202 232.22588
117.28583 89.454956 233.30812
117.69023 89.33268 234.38976
117.92651 89.085854 236.4478
118.51303 89.088043 236.55107
119.43526 89.339203 234.69695
120.01659 89.341286 234.79631
120.59776 89.34333 234.89417
121.17877 89.345329 234.99051
121.75963 89.34729 235.08533
121.87283 88.97583 238.11839
122.46065 88.977737 238.21135
123.1993 89.104042 237.32216
123.93296 89.230301 236.43069
124.36934 89.107635 237.49982
125.24164 89.358223 235.62286
125.68016 89.235489 236.68936
126.26229 89.237137 236.77261
126.70779 89.114349 237.83719
127.15801 88.991539 238.90094
127.61293 88.868698 239.96385
128.33105 88.994614 239.05836
128.79057 88.871712 240.11896
129.37921 88.873169 240.19427
130.08977 88.998947 239.28342
130.79539 89.12468 238.37045
131.37889 89.126015 238.44075
132.19186 89.376015 236.53844
132.88271 89.50161 235.61942
133.45868 89.502831 235.68449
133.927 89.379677 236.73456
134.40007 89.256508 237.78366
134.98059 89.257629 237.84497
135.56102 89.258736 237.90479
135.94553 89.011162 239.938
136.53062 89.012207 239.99544
137.11563 89.013214 240.05144
137.51917 88.765579 242.08215
138.10884 88.766541 242.13565
138.78433 88.891762 241.1992
139.37144 88.892647 241.24962
139.95851 88.893509 241.29857
140.70284 89.142914 239.36783
141.36122 89.26799 238.42419
142.01472 89.393028 237.47876
142.66338 89.518028 236.53157
143.30716 89.642998 235.58263
143.81279 89.519394 236.61191
144.38742 89.520035 236.64998
144.71468 89.02359 240.64792
145.23941 88.899925 241.67421
145.71188 88.651978 243.68996
146.24854 88.528267 244.7141
146.78996 88.404526 245.73706
147.38597 88.405022 245.76781
148.02936 88.529739 244.80598
148.62289 88.530182 244.83369
149.259 88.654839 243.86865
149.85007 88.65522 243.89339
150.47891 88.779816 242.92516
151.06752 88.780144 242.94691
151.6891 88.904686 241.97556
152.27527 88.904953 241.99437
152.8614 88.905205 242.01176
153.47333 89.029663 241.03584
154.08041 89.154091 240.05835
154.59875 88.78154 243.04747
155.1129 88.284729 247.02751
155.74335 88.533325 245.05379
156.30907 88.284935 247.04706
156.873 87.912285 250.03122
157.48724 88.03656 249.04523
158.10324 88.285049 247.06548
158.69296 88.03656 249.05321
159.29228 87.78804 251.03951
159.89868 88.036446 249.05533
160.49852 88.160591 248.06195
161.09357 88.284706 247.06714
161.68381 88.408798 246.07091
162.25902 88.657104 244.08107
162.83728 88.781143 243.08205
163.42578 88.780922 243.07381
164.01431 88.78067 243.06415
164.62271 88.656151 244.0451
165.25818 88.407364 246.01653
165.82932 88.531273 245.01047
166.42274 88.530914 244.99495
167.01617 88.530533 244.978
167.60965 88.530121 244.95959
168.20316 88.529694 244.93974
168.83336 88.404968 245.91003
169.54654 88.031708 248.86166
170.19122 87.906921 249.82846
170.75301 88.030624 248.81105
171.35629 88.030037 248.78354
172.00832 87.905167 249.74561
172.51193 88.153061 247.73317
173.05946 88.276665 246.71056
173.71404 88.151695 247.66811
174.37347 88.026703 248.6239
174.97705 88.025948 248.58752
175.70691 87.776596 250.53018
176.38094 87.651489 251.48064
176.924 87.774933 250.44943
177.46231 87.898346 249.41708
178.14133 87.773148 250.36269
178.82523 87.647903 251.3065
179.28139 87.895531 249.28079
179.88789 87.894539 249.23238
180.65918 87.644882 251.1601
181.1859 87.768127 250.11969
181.53351 88.139992 247.10136
182.31468 87.890228 249.02374
183.10556 87.640411 250.94379
183.71736 87.639221 250.88593
184.42607 87.513641 251.81404
185.23891 87.263687 253.7274
185.85822 87.262375 253.66423
186.3736 87.385384 252.61278
187.09715 87.259644 253.53328
187.82564 87.133858 254.45174
188.3365 87.256775 253.3961
188.84267 87.379654 252.33951
189.57629 87.253754 253.25275
190.19638 87.25219 253.17873
190.57474 87.499374 251.1335
191.68355 87.000153 254.99509
192.43457 86.874054 255.89998
192.93422 86.996735 254.83484
193.55975 86.994965 254.75238
194.45142 86.744308 256.63483
194.67583 87.115746 253.5997
195.43719 86.989426 254.49539
196.20354 86.863052 255.38878
197.11752 86.61216 257.26181
197.89627 86.485657 258.15027
198.5325 86.483582 258.05515
199.019 86.605927 256.9776
199.95782 86.354782 258.84052
200.44223 86.477058 257.76001
201.23633 86.350288 258.63806
201.87584 86.347977 258.53433
202.35352 86.470139 257.45007
202.99097 86.467743 257.34344
203.7955 86.340752 258.21323
204.43578 86.338242 258.10287
205.24797 86.211136 258.96805
206.06523 86.083954 259.83069
206.53438 86.205872 258.73801
207.1779 86.203156 258.62045
207.82164 86.200401 258.50119
208.46561 86.197601 258.38019
209.2961 86.070107 259.23209
210.13168 85.942551 260.0813
210.59003 86.064201 258.98065
211.43095 85.936508 259.82544
212.08096 85.933418 259.69485
212.33429 86.179626 257.61829
213.58264 85.802361 260.40015
214.23586 85.799088 260.26379
214.88934 85.795746 260.1257
215.75131 85.667633 260.95587
216.61844 85.539429 261.78323
217.06453 85.660645 260.66965
218.15266 85.407532 262.46082
219.03288 85.279068 263.28003
219.47742 85.400131 262.1615
220.14024 85.396339 262.00909
221.25404 85.142838 263.78735
221.92239 85.138885 263.6301
222.59108 85.134872 263.47095
223.49278 85.005936 264.27444
223.92946 85.126663 263.14703
224.36157 85.24736 262.01892
224.78912 85.368027 260.89011
225.69711 85.238785 261.68481
226.36542 85.23439 261.51489
227.5289 84.980011 263.26468
227.953 85.100433 262.12946
228.8772 84.970825 262.91263
229.55191 84.966125 262.73364
230.99878 84.586273 265.42737
231.422 84.706421 264.28491
232.6272 84.451355 266.01239
233.57806 84.321213 266.77896
234.26715 84.316071 266.58661
234.68707 84.435982 265.43738
235.10248 84.555862 264.28751
235.23886 84.80085 262.18362
235.91978 84.795502 261.98584
236.88066 84.664871 262.73798
237.28302 84.784561 261.58417
238.81868 84.403259 264.23166
239.79582 84.272293 264.97305
240.77841 84.141205 265.71085
242.05835 83.884697 267.39316
242.75995 83.878677 267.17535
243.46204 83.872589 266.95538
244.16464 83.866417 266.73322
244.56587 83.985565 265.56375
244.65826 84.230095 263.44943
245.66177 84.098335 264.16647
247.28952 83.715546 266.76489
247.68533 83.834473 265.58896
248.70541 83.702362 266.29428
249.41415 83.695656 266.05557
250.12344 83.688889 265.81458
250.18948 83.933197 263.69437
251.54364 83.67514 265.32556
252.58145 83.542542 266.01425
253.62486 83.409821 266.69882
254.34192 83.402664 266.44437
254.72507 83.521149 265.25351
255.4407 83.513885 264.99521
256.15689 83.506577 264.73447
257.21567 83.373428 265.40259
258.28003 83.240181 266.06638
260.04413 82.855164 268.58456
260.77521 82.847504 268.30942
261.50677 82.839806 268.03171
262.5936 82.706146 268.67801
263.68604 82.572388 269.31985
264.06461 82.690475 268.10815
265.52545 82.430611 269.66641
265.90253 82.54866 268.45059
267.00977 82.41465 269.07721
268.86243 82.028412 271.54022
269.24103 82.146408 270.31662
270.74005 81.886063 271.84769
272.24973 81.625595 273.37195
272.62976 81.743576 272.14044
272.6225 81.987823 269.99316
272.99063 82.105972 268.76169
272.96631 82.350449 266.61667
273.32245 82.468781 265.38535
62.010384 88.282997 228.01715
62.25898 88.165649 229.20313
63.284027 88.295776 228.56056
63.153824 88.054855 230.65956
63.794937 88.061348 230.92787
64.813896 88.191467 230.27649
66.203056 88.445137 228.70232
66.462341 88.327995 229.88033
67.096886 88.334442 230.13766
67.731041 88.340881 230.39279
68.730286 88.470795 229.72313
68.998116 88.353706 230.89645
69.99144 88.483528 230.22047
70.979271 88.613274 229.54033
71.961609 88.742943 228.85606
72.585594 88.749161 229.09528
73.909798 89.002022 227.47539
74.527847 89.008125 227.70842
75.49073 89.137466 227.00903
76.105347 89.143463 227.237
77.059776 89.272659 226.53064
77.670975 89.278534 226.75359
78.281731 89.284363 226.97446
78.559326 89.166985 228.12828
78.841476 89.049591 229.28189
79.128197 88.932205 230.43523
79.744659 88.937897 230.6507
80.360664 88.943542 230.86417
80.976219 88.949135 231.07562
81.908989 89.07769 230.34492
82.836334 89.206154 229.61052
83.758232 89.334511 228.87251
84.984886 89.585724 227.1882
85.278046 89.467972 228.32922
85.880959 89.473122 228.52565
86.786171 89.601112 227.77502
87.385765 89.606117 227.96683
87.984932 89.611069 228.15678
88.583687 89.615952 228.34486
88.889267 89.497963 229.47934
89.489685 89.502747 229.66451
90.089706 89.507469 229.84778
90.404007 89.389374 230.97975
91.288574 89.516731 230.20885
92.167801 89.64399 229.43466
92.763802 89.648453 229.60989
93.63485 89.775536 228.82991
94.227623 89.779854 229.0009
95.090546 89.906761 228.21519
95.948158 90.033577 227.42636
96.269356 89.915062 228.54692
96.858238 89.919121 228.71019
97.186142 89.800537 229.8293
97.77681 89.804504 229.98975
98.367126 89.808395 230.1485
98.703873 89.689705 231.26511
99.296005 89.693504 231.42108
100.13617 89.819748 230.61441
100.9711 89.945892 229.80481
101.55738 89.949493 229.95439
102.38435 90.075485 229.13954
102.96758 90.078957 229.28517
103.55052 90.082367 229.42915
103.66588 89.840897 231.50067
104.02195 89.721832 232.60773
104.61137 89.725121 232.74855
105.20053 89.728355 232.88773
105.56555 89.609177 233.99214
106.37803 89.734665 233.16113
106.74741 89.615402 234.26344
107.33795 89.618439 234.39661
107.92822 89.621422 234.52818
108.72992 89.746651 233.68846
108.89883 89.504951 235.75664
109.49083 89.507797 235.88387
110.08258 89.510582 236.00952
110.47219 89.391075 237.10527
111.06592 89.393784 237.22823
112.44763 89.885345 233.45857
113.03119 89.887909 233.57635
113.61454 89.890427 233.69258
113.81817 89.648506 235.7556
114.78062 89.895317 233.92032
114.99356 89.653343 235.98213
115.76344 89.777863 235.11748
116.52827 89.902313 234.25034
117.11044 89.904556 234.35727
117.51723 89.784622 235.43956
117.92869 89.664658 236.52124
118.51517 89.666794 236.62444
119.43733 89.913101 234.76968
119.85312 89.79303 235.84761
120.43668 89.795029 235.94582
121.18073 89.919067 235.06305
121.76154 89.920975 235.15784
122.18638 89.800774 236.23131
122.92271 89.924675 235.34285
123.65406 90.048515 234.45219
124.23186 90.050262 234.54062
124.66338 89.929924 235.60925
125.38705 90.053635 234.71303
125.96445 90.055267 234.797
126.4028 89.934837 235.86227
126.70938 89.692368 237.90985
127.29363 89.693909 237.99043
127.61444 89.451408 240.03705
128.20329 89.452888 240.1153
128.79202 89.454338 240.19205
129.38063 89.45575 240.26733
129.96913 89.457123 240.34114
130.55753 89.458458 240.41347
131.263 89.581734 239.49872
132.07832 89.826927 237.59604
132.77155 89.950111 236.67696
133.3499 89.951302 236.74226
134.03571 90.074402 235.81947
134.50633 89.953575 236.86861
134.98167 89.832733 237.91681
135.56207 89.833794 237.97662
136.04449 89.712898 239.02269
136.53163 89.59198 240.06779
137.0235 89.471039 241.11192
137.52013 89.350075 242.15503
138.10976 89.350998 242.20854
138.69933 89.351898 242.26059
139.28883 89.352768 242.31114
139.95934 89.47551 241.37106
140.70363 89.720116 239.43971
141.36197 89.842781 238.49576
142.01546 89.965416 237.55002
142.66408 90.088013 236.60249
143.23878 90.088692 236.64336
143.7468 89.967453 237.67311
144.25957 89.846191 238.70177
144.71529 89.603035 240.71996
145.18056 89.359856 242.73727
145.71243 89.238533 243.76288
146.24905 89.117188 244.78731
146.79047 88.995827 245.81052
147.43625 89.118179 244.84995
148.12462 89.362358 242.8963
148.6683 89.240913 243.9153
149.30199 89.363174 242.94983
149.93083 89.485413 241.9827
150.51703 89.485748 242.00581
151.06783 89.364197 243.01939
151.68938 89.486351 242.04771
152.24492 89.364754 243.05862
152.80525 89.243134 244.06822
153.42195 89.365204 243.09209
154.05721 89.609108 241.12216
154.55693 89.121841 245.10455
155.11304 88.878273 247.10112
155.75963 89.24395 244.13437
156.32291 89.000328 246.1282
156.87305 88.51297 250.10571
157.5052 88.878571 247.1344
158.10982 89.000427 246.14655
158.6971 88.756714 248.13484
159.29576 88.634811 249.1292
159.89671 89.000305 246.15189
160.49236 89.000214 246.15077
161.09343 88.878242 247.14073
161.68365 88.999954 246.1442
162.26907 89.121643 245.14626
162.84972 89.243301 244.14694
163.42555 89.364944 243.14626
164.01405 89.3647 243.13658
164.60258 89.364433 243.12549
165.21336 89.242279 244.10527
165.80434 89.241959 244.09126
166.39532 89.241608 244.07582
166.98633 89.241241 244.05893
167.57738 89.240845 244.04063
168.20271 89.118553 245.01282
168.83289 88.996231 245.98341
169.50696 88.752007 247.94415
170.23216 88.385872 250.89473
170.79633 88.507202 249.87695
171.40199 88.506638 249.84933
172.00771 88.506035 249.82025
172.61346 88.505417 249.78969
173.16579 88.626648 248.76654
173.82513 88.504082 249.72412
174.48933 88.381485 250.67998
175.1584 88.25885 251.634
175.76923 88.258072 251.59578
176.51114 88.013481 253.53674
177.05898 88.134544 252.50496
177.60208 88.255592 251.47198
178.21315 88.2547 251.42772
178.89943 88.131874 252.37163
179.35797 88.374756 250.34518
179.96684 88.373787 250.29659
180.74051 88.128929 252.22473
181.26959 88.249817 251.18384
181.6196 88.614548 248.16446
182.31355 88.491516 249.09875
183.1044 88.246506 251.01941
183.71617 88.245346 250.96158
184.42484 88.1222 251.89
185.23763 87.877045 253.80405
185.95853 87.753807 254.72823
186.47629 87.874458 253.67622
187.09576 87.873108 253.61002
187.82422 87.749756 254.52879
188.33505 87.870316 253.47292
188.95486 87.868866 253.40207
189.57478 87.867386 253.32962
190.19481 87.865868 253.25563
190.69406 87.986313 252.19498
191.68192 87.618683 255.07269
192.43288 87.495026 255.97795
192.9325 87.615364 254.91255
193.558 87.613647 254.83012
194.4496 87.367805 256.71326
194.8094 87.610092 254.66046
195.4353 87.608261 254.57324
196.34184 87.362259 256.44962
197.25819 87.116196 258.32291
197.89424 87.114212 258.22949
198.38293 87.234268 257.15295
199.16679 87.110115 258.03775
199.80331 87.108002 257.93942
200.28526 87.227951 256.8591
201.07689 87.103645 257.73785
201.87354 86.979279 258.6142
202.18915 87.221245 256.55048
202.98859 87.096779 257.42313
203.79306 86.972244 258.29327
204.26398 87.091972 257.20499
205.24542 86.845169 259.04849
206.06262 86.720444 259.91153
206.35516 86.962219 257.84195
206.9962 86.959595 257.72491
207.2746 87.20134 255.65457
207.91122 87.198639 255.53505
208.92064 86.951431 257.36356
209.94002 86.704117 259.18848
210.58705 86.701218 259.06198
211.62151 86.453735 260.88062
211.88185 86.695259 258.80374
212.33115 86.814491 257.69952
213.37852 86.566803 259.51044
214.23257 86.441307 260.34616
214.68024 86.560379 259.23721
215.95612 86.190094 262.00912
216.82561 86.064362 262.83633
217.27411 86.183258 261.72202
218.14905 86.057396 262.54453
219.24716 85.809059 264.33237
219.47368 86.050194 262.24539
219.91357 86.168915 261.12595
221.02486 85.920319 262.90552
221.6907 85.916489 262.74893
222.12666 86.035049 261.62506
223.25603 85.786179 263.39493
223.92531 85.78215 263.23212
224.59494 85.778053 263.06741
224.78488 86.018906 260.97482
225.4503 86.014725 260.80753
225.87115 86.132996 259.67657
227.02963 85.883568 261.42838
227.69859 85.879166 261.2547
228.87256 85.629501 262.99881
229.29243 85.747528 261.86075
230.73672 85.375031 264.55621
231.41708 85.370277 264.37207
232.62219 85.12014 266.10031
233.30832 85.115219 265.9108
234.26199 84.987518 266.67511
234.95142 84.982437 266.4808
235.36926 85.100021 265.33005
235.23355 85.463066 262.27124
236.19141 85.335075 263.02658
237.15466 85.20697 263.77847
237.27747 85.447182 261.67218
238.52856 85.196075 263.36996
239.79004 84.944832 265.06262
240.77255 84.816299 265.8009
241.76048 84.687653 266.53546
243.04828 84.435974 268.21411
243.4559 84.552948 267.04651
244.15843 84.546928 266.82449
244.5596 84.663818 265.65485
244.34763 85.026672 262.59543
245.0417 85.020515 262.37003
246.35495 84.768219 264.02826
247.05505 84.761887 263.79675
248.38437 84.509308 265.44556
249.40739 84.379684 266.14828
250.11661 84.373077 265.90741
250.50449 84.489555 264.72549
251.53665 84.35965 265.41876
252.90128 84.10643 267.04498
253.61769 84.099503 266.79303
254.33467 84.092514 266.53876
254.7178 84.20874 265.34778
255.77031 84.078354 266.02301
255.81003 84.317856 263.89655
256.86615 84.187325 264.56607
257.92792 84.056686 265.23135
259.68939 83.679146 267.75168
260.41785 83.671692 267.47763
261.49899 83.540726 268.12891
262.94034 83.286194 269.70248
264.03525 83.155014 270.3439
264.77606 83.147278 270.05591
266.24188 82.892395 271.61307
266.62402 83.008141 270.39508
267.36899 83.00029 270.09839
268.85419 82.745148 271.64072
269.23282 82.860878 270.41699
270.35678 82.729263 271.03018
271.86383 82.473862 272.55634
272.24133 82.589615 271.32574
272.2316 82.829201 269.17905
272.59723 82.945099 267.94849
272.18268 83.308746 264.89063
272.53375 83.424866 263.66132
62.407768 89.012177 227.18919
62.265526 88.775818 229.28777
63.676361 89.024643 227.73013
63.160439 88.667175 230.74423
63.420845 88.552307 231.92909
64.06414 88.558693 232.19608
65.458328 88.807411 230.62317
65.722717 88.692604 231.80342
66.73288 88.820068 231.14177
68.105568 89.068573 229.55397
69.102226 89.195892 228.88283
69.730453 89.202095 229.13142
70.358261 89.208282 229.37785
70.985619 89.214439 229.62215
71.967896 89.341537 228.93742
72.944679 89.468559 228.2486
73.915962 89.59549 227.55576
74.533966 89.60144 227.78865
75.49678 89.728233 227.08876
76.111359 89.734077 227.31659
77.065712 89.86071 226.60977
78.014572 89.987244 225.89909
78.28756 89.872139 227.05331
78.897812 89.877785 227.27203
79.507607 89.883377 227.48874
79.789276 89.768219 228.6405
80.400665 89.773727 228.8541
81.334267 89.899857 228.12688
81.622101 89.784607 229.27527
82.232147 89.789955 229.48289
83.156898 89.91584 228.74724
83.76355 89.921059 228.9501
84.679932 90.046768 228.20804
85.283218 90.051842 228.40625
85.886086 90.05687 228.60251
86.488518 90.061829 228.79691
87.090523 90.066734 228.9894
87.692123 90.071579 229.17999
87.998062 89.955933 230.31654
88.601311 89.96067 230.5042
89.204155 89.965355 230.68997
90.094391 90.090347 229.9238
90.123329 89.854187 232.00682
91.010292 89.979042 231.23622
91.891907 90.103798 230.46233
92.490318 90.108162 230.6382
93.088341 90.112465 230.81227
93.958946 90.236969 230.03008
94.553764 90.241135 230.19986
95.416237 90.365463 229.41202
96.273422 90.489708 228.621
96.862244 90.49366 228.78415
97.450729 90.497559 228.94554
98.038879 90.501404 229.10524
98.626678 90.50518 229.26323
98.707672 90.268646 231.33931
99.299744 90.272346 231.49515
100.13983 90.396088 230.68811
100.72882 90.399658 230.83992
101.56093 90.523239 230.02757
102.14685 90.526688 230.1754
102.97099 90.650116 229.35791
103.55388 90.653442 229.50177
103.6692 90.416679 231.57382
104.02524 90.299919 232.68109
104.61461 90.303123 232.82182
104.97742 90.186295 233.92757
105.12099 89.949478 236
106.1597 90.192459 234.20193
106.53146 90.075523 235.30504
107.34093 90.198418 234.46979
107.71707 90.081406 235.57071
108.73279 90.324074 233.76117
108.90167 90.087082 235.8299
109.49361 90.089851 235.95705
109.88097 89.972702 237.05415
110.67679 90.09523 236.20657
111.26804 90.097847 236.32895
112.45019 90.459923 233.53056
113.2283 90.582237 232.67476
114.00137 90.704491 231.81638
114.38985 90.587067 232.90451
115.15764 90.709206 232.04213
115.55058 90.591721 233.12811
115.9482 90.474197 234.2135
116.71055 90.596191 233.34554
117.29025 90.598366 233.45197
117.69458 90.480743 234.53409
118.10358 90.363106 235.61555
118.85794 90.484901 234.74017
119.43936 90.486916 234.84093
119.85511 90.369171 235.91911
120.43863 90.371117 236.01724
121.02197 90.373016 236.11388
121.60516 90.374878 236.209
122.1882 90.376694 236.30261
122.92449 90.498154 235.41383
123.65579 90.61956 234.52281
124.38213 90.740921 233.62953
124.81119 90.62291 234.69807
125.5324 90.744179 233.80115
126.10735 90.745758 233.88472
126.40436 90.508026 235.93295
126.8474 90.389923 236.99768
127.29514 90.27179 238.0616
127.61592 90.034027 240.10876
128.20473 90.035461 240.18698
128.92024 90.156464 239.27904
129.38199 90.038239 240.33897
130.09247 90.159164 239.42743
130.67842 90.160461 239.49942
131.38144 90.281303 238.58405
132.07954 90.4021 237.66666
132.8851 90.642441 235.76077
133.35106 90.524025 236.81248
134.03682 90.644707 235.88936
134.50742 90.52623 236.93878
135.08546 90.52729 236.99974
135.56311 90.408775 238.04701
136.04549 90.29023 239.09335
136.53261 90.171669 240.13873
137.02444 90.053085 241.18312
137.52104 89.934479 242.2265
138.19894 90.054901 241.29108
138.87195 90.175293 240.35376
139.4566 90.176132 240.4039
140.12227 90.296455 239.46309
140.78305 90.416748 238.52045
141.36272 90.417488 238.56592
142.01616 90.53772 237.61984
142.66475 90.657913 236.67201
143.17038 90.539063 237.70329
143.68079 90.420197 238.73347
144.19594 90.301308 239.76259
144.71587 90.182396 240.79056
145.18111 89.94397 242.80846
145.71295 89.825012 243.83432
146.24957 89.706039 244.85902
146.89537 89.826012 243.8996
147.48651 89.826477 243.93005
148.12505 89.946396 242.96739
148.80373 90.185768 241.01123
149.38756 90.18615 241.03705
149.93117 90.067017 242.0535
150.55516 90.186829 241.08446
151.10352 90.067657 242.09822
151.65665 89.948456 243.11075
152.24516 89.948715 243.12964
152.80548 89.829468 244.13954
153.39635 89.829681 244.15561
154.03398 90.068802 242.18515
154.55708 89.710541 245.17613
155.13173 89.591202 246.18063
155.75972 89.830261 244.20564
156.33676 89.710869 245.20732
156.88446 89.233047 249.18593
157.51421 89.591492 246.21373
158.10982 89.591499 246.21838
158.70125 89.472015 247.21443
159.29749 89.352509 248.20905
159.89664 89.591377 246.22372
160.48921 89.710754 245.22978
161.08786 89.591171 246.22005
161.6835 89.591034 246.21605
162.25865 89.829811 244.22505
162.83687 89.949097 243.22546
163.42532 89.948883 243.21724
164.01381 89.948654 243.20757
164.60229 89.948387 243.19649
165.19081 89.948105 243.18398
165.77936 89.947792 243.17004
166.39497 89.827972 244.14714
166.98596 89.827614 244.13028
167.60883 89.707748 245.10429
168.23654 89.587845 246.07671
168.86908 89.467926 247.0475
169.50647 89.347961 248.01668
170.23164 88.988998 250.96814
170.79578 89.107956 249.95006
171.44769 88.987915 250.91423
172.05579 88.987328 250.88507
172.66393 88.986725 250.85437
173.16513 89.225082 248.83946
173.88034 88.98542 250.78859
174.54692 88.865219 251.74461
175.21835 88.744995 252.69882
175.89467 88.624725 253.65126
176.57584 88.504433 254.60185
177.12607 88.623138 253.56963
177.67154 88.741821 252.53619
178.21227 88.860474 251.50162
178.97363 88.620529 253.43585
179.43456 88.858665 251.40865
179.96587 88.977249 250.37033
180.65715 88.856735 251.30966
181.18379 88.975266 250.26871
181.53137 89.332878 247.24866
182.22289 89.212273 248.18352
183.01128 88.972076 250.10498
183.52623 89.090508 249.05907
184.32684 88.85022 250.97641
185.03796 88.729446 251.90344
185.85564 88.489067 253.81606
186.37096 88.607376 252.76402
187.09442 88.486481 253.68521
187.82283 88.365555 254.60431
188.33365 88.483772 253.54819
188.83975 88.601959 252.49109
189.5733 88.480919 253.40497
190.1933 88.479439 253.33104
190.6925 88.597549 252.27011
191.6803 88.237129 255.14874
192.3055 88.235535 255.06947
192.80267 88.353539 254.00418
193.29515 88.471512 252.93791
194.31485 88.11087 255.8062
194.53682 88.468094 252.76967
195.29567 88.346657 253.66638
196.05951 88.225166 254.56084
196.97096 87.983955 256.43549
197.45706 88.101723 255.36067
198.08597 88.09977 255.26677
198.86491 87.978081 256.15265
199.49655 87.976044 256.05511
199.97363 88.093674 254.97531
200.76036 87.97184 255.85521
201.39252 87.969673 255.75278
201.86284 88.087212 254.6692
202.65738 87.96521 255.54303
203.45694 87.843163 256.41434
204.09229 87.840805 256.30493
204.7278 87.838409 256.19385
205.71179 87.596397 258.03592
205.99945 87.833481 255.96669
206.63559 87.830948 255.8506
207.27194 87.828362 255.73283
208.09238 87.70591 256.58899
208.91788 87.583382 257.44254
209.93718 87.340942 259.26816
210.39301 87.457977 258.16748
211.23138 87.335243 259.01355
211.68283 87.452209 257.91034
212.12967 87.56913 256.80646
213.17453 87.326324 258.61853
214.02606 87.203331 259.45508
214.677 87.20018 259.31766
215.7446 86.957108 261.11987
216.40094 86.953827 260.97784
216.84451 87.07045 259.86438
217.93002 86.827118 261.65744
218.80765 86.703674 262.478
219.47005 86.700134 262.32761
220.13275 86.696533 262.17542
221.02107 86.572861 262.98822
221.91461 86.449097 263.798
222.35297 86.565338 262.67337
223.01941 86.561493 262.51312
223.92126 86.4375 263.31552
224.59084 86.43351 263.15094
224.78075 86.669678 261.0578
225.68857 86.545471 261.85333
226.35672 86.541306 261.68362
227.27264 86.416916 262.47345
227.944 86.412613 262.29922
229.37262 86.047653 265.0036
230.05212 86.043167 264.82355
231.50369 85.677948 267.51807
232.19138 85.673271 267.33203
233.14163 85.548271 268.1015
234.09724 85.423172 268.86758
234.25696 85.658829 266.76184
234.94632 85.653877 266.56769
235.36411 85.76918 265.41672
235.50287 86.004799 263.3111
236.18613 85.999687 263.11292
237.42877 85.753738 264.81781
237.55402 85.989258 262.7103
238.52307 85.863518 263.45697
240.07132 85.496796 266.10077
240.76682 85.491257 265.8891
241.75467 85.365158 266.62418
243.04233 85.118454 268.30356
243.74677 85.112633 268.08313
244.45171 85.10675 267.86044
245.15715 85.100792 267.63556
245.55879 85.215347 266.46356
245.64914 85.450478 264.3468
246.65796 85.323738 265.06097
247.36047 85.317551 264.82874
248.37787 85.190598 265.53595
248.45032 85.425636 263.41681
249.47128 85.298538 264.11862
250.17593 85.292068 263.87732
251.20549 85.16478 264.5719
252.89433 84.795792 267.13712
254.26944 84.547417 268.75824
254.99139 84.540543 268.50235
255.37949 84.65448 267.30939
256.43695 84.526627 267.98334
256.48172 84.761398 265.85458
257.54285 84.633415 266.52277
258.60956 84.505325 267.18665
260.0289 84.256157 268.77625
260.41028 84.369858 267.57233
261.49133 84.241501 268.22412
262.22339 84.2341 267.94427
263.31314 84.105576 268.58813
264.04883 84.098083 268.30228
265.50949 83.848282 269.86227
265.88657 83.961823 268.64618
266.62637 83.954208 268.35168
268.10645 83.704147 269.89691
268.47998 83.817688 268.67508
269.97372 83.567459 270.20996
271.85568 83.195831 272.6561
271.85315 83.430649 270.50833
271.84091 83.665573 268.36221
272.20401 83.779236 267.13254
272.17471 84.014374 264.98868
272.13559 84.249649 262.84656
62.414116 89.617508 227.27156
62.660263 89.50473 228.45683
63.682739 89.629692 227.81223
63.166893 89.279373 230.82718
63.42733 89.166794 232.01222
64.448776 89.291794 231.36095
65.464767 89.416748 230.70532
66.102226 89.422935 230.96561
66.739296 89.429123 231.22363
67.375946 89.435295 231.47948
68.377632 89.560089 230.80988
69.010887 89.566193 231.06035
70.00412 89.69088 230.38336
70.991829 89.815483 229.70229
71.974052 89.94001 229.01707
72.950768 90.064461 228.32779
74.272255 90.30732 226.70537
74.53994 90.194633 227.86725
75.157455 90.200409 228.09792
76.117218 90.324562 227.39458
76.391106 90.211838 228.55302
77.68261 90.454231 226.90993
77.958092 90.341431 228.06522
78.238129 90.228622 229.22031
78.522743 90.115814 230.37512
79.139557 90.121292 230.59233
79.430748 90.008446 231.7458
80.371788 90.13208 231.02074
81.307365 90.255615 230.29195
81.919838 90.260857 230.50031
82.847008 90.384216 229.76501
83.768745 90.507477 229.02611
84.064766 90.394371 230.17023
84.980621 90.517479 229.42581
85.891075 90.640488 228.67781
86.493446 90.645325 228.87207
87.095398 90.650101 229.06445
87.994621 90.772858 228.3076
88.298035 90.659485 229.44356
88.89875 90.664085 229.63029
89.208801 90.550644 230.76485
89.523407 90.43718 231.89908
89.842567 90.3237 233.03294
90.449097 90.328125 233.21457
91.335594 90.450394 232.44171
91.938889 90.454674 232.61891
92.541794 90.4589 232.79433
93.144318 90.463066 232.96793
94.016953 90.585007 232.18423
94.616287 90.589043 232.35353
95.480782 90.710815 231.56422
96.340012 90.832512 230.77173
97.19397 90.954109 229.97615
98.042664 91.075623 229.17749
98.630409 91.0793 229.33539
98.9646 90.965195 230.45178
99.554161 90.968781 230.60689
99.895088 90.854614 231.7218
100.73234 90.975784 230.912
101.32095 90.97921 231.06204
102.39119 91.21788 229.28368
102.97431 91.221169 229.42912
103.7932 91.342026 228.60835
103.90607 91.109962 230.6803
104.49077 91.113106 230.8214
104.84648 90.998604 231.92726
104.98053 90.766502 233.99956
105.12407 90.534393 236.07253
106.16269 90.772491 234.2738
106.53443 90.657875 235.37709
107.1273 90.660759 235.51067
107.934 90.781113 234.67291
108.73557 90.90139 233.83243
109.11363 90.786606 234.93088
109.49632 90.671806 236.02875
110.08797 90.674438 236.15425
110.88129 90.794495 235.3058
111.47006 90.797035 235.42758
112.6497 91.15184 232.62778
113.42534 91.271683 231.7711
114.00373 91.27404 231.88623
114.20245 91.041534 233.94939
114.97261 91.161232 233.08707
115.36795 91.046074 234.17377
115.95041 91.048279 234.28365
116.89275 91.285187 232.43872
117.46997 91.287292 232.54465
117.69667 91.054634 234.60408
117.93288 90.821976 236.66373
118.51927 90.82399 236.76682
118.93759 90.708633 237.84715
119.52606 90.710579 237.94759
120.11438 90.712479 238.04648
120.86317 90.83165 237.16385
121.44875 90.833466 237.25932
122.18998 90.95253 236.37248
123.07961 91.188835 234.50218
123.95943 91.425072 232.62888
124.68088 91.543976 231.73454
125.10507 91.428299 232.80258
125.82143 91.547119 231.90459
126.25018 91.431381 232.97044
126.40587 91.081139 236.00221
126.84888 90.965378 237.06717
127.43065 90.96682 237.14734
127.749 90.73378 239.19472
128.20612 90.61795 240.25723
128.9216 90.736526 239.34894
129.38333 90.620636 240.40912
129.97176 90.621933 240.48286
130.56009 90.623199 240.5551
131.26549 90.741631 239.63968
131.96596 90.860016 238.72224
132.88625 91.212723 235.82932
133.35217 91.096657 236.88132
134.14545 91.3321 234.97058
134.6136 91.215973 236.01999
135.18921 91.216995 236.08067
135.5641 90.983665 238.11603
136.14438 90.984642 238.17432
136.62906 90.868423 239.21971
137.21156 90.869347 239.27538
137.61263 90.635941 241.30756
138.1998 90.63681 241.36078
138.87279 90.754791 240.42316
139.37395 90.638466 241.46286
140.04198 90.756386 240.52196
140.7838 90.991402 238.5892
141.36343 90.992126 238.63464
142.01685 91.109947 237.68826
142.59396 91.110611 237.73067
143.10199 90.994133 238.76237
143.61476 90.877625 239.793
144.19653 90.87822 239.8315
144.77824 90.878784 239.86856
145.30049 90.762222 240.89552
145.77049 90.528519 242.91286
146.35928 90.529015 242.94606
147.00026 90.646591 241.98607
147.53676 90.52993 243.00816
148.17285 90.647453 242.04506
148.80411 90.764946 241.08029
149.38792 90.765312 241.10612
149.9315 90.648552 242.12285
150.55547 90.765976 241.1535
151.10379 90.64917 242.16756
151.65692 90.532349 243.18033
152.24541 90.532593 243.19922
152.80569 90.415733 244.20937
153.34497 90.181747 246.21104
153.98738 90.416107 244.24013
154.55722 90.299171 245.24625
155.11327 90.065125 247.24397
155.74364 90.2994 245.26848
156.32306 90.182388 246.27045
156.89589 89.948273 248.26414
157.49628 89.948303 248.27029
158.10324 90.065399 247.28188
158.69705 89.948303 248.27821
159.29919 90.065346 247.2869
159.89656 90.182365 246.29411
160.48911 90.29937 245.29987
161.08774 90.182167 246.29045
161.68335 90.18203 246.28647
162.26872 90.298958 245.28796
162.86195 90.298782 245.28108
163.44016 90.415657 244.2798
164.01357 90.532516 243.27715
164.62187 90.415176 244.25897
165.19052 90.531982 243.25357
165.80368 90.414589 244.23244
166.42168 90.297165 245.20976
167.07394 90.062622 247.17818
167.67215 90.062233 247.1597
168.30464 89.944733 248.13225
168.94196 89.827194 249.10316
169.506 89.94384 248.08775
170.18967 89.709145 250.04782
170.75137 89.825745 249.02957
171.35458 89.825211 249.00209
171.95784 89.824646 248.97316
172.56114 89.824066 248.94275
173.11101 89.940567 247.9192
173.82379 89.705688 249.86909
174.54622 89.470779 251.81691
175.21764 89.352951 252.77145
175.89391 89.235092 253.72418
176.50955 89.234329 253.68414
177.12524 89.233536 253.64261
177.74101 89.232727 253.59953
178.2114 89.466164 251.57408
178.97275 89.23101 253.50891
179.43364 89.464401 251.48114
179.96492 89.580635 250.44252
180.57382 89.579681 250.3925
181.18279 89.578712 250.34096
181.61752 89.812027 248.30939
182.3114 89.693832 249.24434
183.10217 89.458435 251.1662
183.71388 89.457336 251.10841
184.42247 89.33902 252.03748
185.03677 89.33786 251.97644
185.75278 89.219467 252.90175
186.36969 89.218231 252.83742
187.09312 89.09977 253.75891
187.71265 89.098473 253.69118
188.33228 89.097137 253.62195
189.06567 88.978554 254.53773
189.68794 88.977142 254.4651
190.31032 88.9757 254.39093
190.69101 89.208687 252.34375
191.67874 88.855484 255.22325
192.17818 88.971169 254.15897
192.54477 89.204094 252.10889
193.16295 89.202484 252.0275
193.91423 89.083588 252.92868
194.26431 89.316437 250.87616
195.01828 89.197464 251.77388
195.91747 88.961143 253.6525
196.54118 88.959343 253.56256
197.16504 88.957504 253.47099
197.78906 88.95562 253.37785
198.56314 88.836395 254.26483
199.1899 88.834427 254.16809
199.81682 88.83242 254.06973
200.60109 88.713036 254.95039
201.39035 88.593597 255.8286
202.18466 88.474106 256.70438
202.81955 88.471909 256.59833
203.62151 88.352295 257.46964
204.2592 88.350006 257.3598
204.89711 88.347664 257.24838
205.53522 88.345284 257.13528
205.82042 88.577667 255.06595
206.45409 88.575211 254.95038
207.08795 88.572708 254.83311
207.90588 88.452728 255.69008
209.10146 88.097794 258.49539
209.9344 87.977661 259.34616
210.3902 88.092377 258.24527
211.22852 87.972122 259.09171
211.48392 88.204247 257.01477
211.92828 88.318871 255.91113
212.97063 88.080948 257.7244
213.81967 87.960442 258.56186
214.67386 87.839867 259.39655
215.94955 87.484131 262.17041
216.81891 87.363373 262.99838
217.2673 87.477669 261.88364
218.35762 87.239204 263.6763
219.02211 87.235809 263.52731
219.46651 87.34996 262.40817
220.35201 87.228844 263.22379
221.24268 87.107651 264.03638
221.91086 87.104004 263.87943
222.34917 87.217972 262.75455
222.78293 87.331879 261.62903
223.44717 87.328094 261.46759
224.11179 87.324234 261.30432
224.53673 87.438034 260.17551
225.19955 87.434074 260.00903
226.10767 87.312309 260.80307
227.26839 87.072693 262.55566
227.93968 87.068497 262.38159
229.36818 86.710884 265.08691
230.30237 86.588715 265.86679
231.49905 86.348618 267.60251
231.92702 86.461899 266.45816
232.87473 86.339447 267.2287
233.56317 86.334763 267.03876
233.71791 86.565781 264.9339
234.40227 86.560989 264.74127
235.08707 86.556129 264.5466
235.4978 86.669144 263.39551
235.90404 86.78212 262.24384
236.86464 86.659119 262.99731
237.26682 86.772003 261.84293
237.94888 86.766846 261.63934
239.20517 86.525551 263.33505
240.18253 86.402161 264.07574
241.16531 86.278656 264.81274
242.74222 85.918877 267.44281
243.74091 85.79512 268.1709
244.44577 85.789383 267.94836
245.15114 85.783577 267.72363
246.16132 85.659531 268.44189
246.25662 85.889946 266.32306
246.65176 86.002167 265.14886
247.66603 85.877884 265.85959
248.68582 85.753494 266.56641
248.76074 85.983833 264.44595
249.7841 85.859299 265.14734
250.49121 85.852966 264.90536
250.87456 85.964912 263.7226
252.88757 85.485001 267.22739
253.9332 85.360031 267.91254
254.98444 85.23494 268.59357
255.37251 85.346611 267.40051
256.76678 85.102905 269.00897
256.81403 85.332977 266.87881
257.87759 85.207565 267.54654
258.60229 85.200577 267.27875
260.02155 84.956421 268.86914
260.40289 85.067886 267.6651
260.77975 85.179337 266.46048
261.86127 85.053535 267.11026
262.94843 84.927643 267.75558
264.0412 84.801659 268.39642
265.13959 84.675598 269.03275
265.14935 84.905655 266.89398
266.25134 84.77951 267.52417
268.0986 84.415718 269.99274
268.47214 84.527008 268.77075
269.96582 84.281815 270.30646
271.84769 83.917656 272.75375
271.84521 84.147781 270.60553
271.45044 84.496933 267.54266
271.4259 84.72731 265.39877
271.39157 84.957802 263.25659
271.34741 85.188423 261.11615
62.420319 90.222725 227.35223
63.054802 90.228668 227.62355
63.688972 90.234634 227.89264
63.17321 89.891464 230.9084
63.814346 89.897522 231.17624
64.455101 89.903595 231.44188
65.471062 90.02597 230.78578
66.108513 90.032021 231.04588
66.74556 90.038055 231.30379
67.014236 89.927834 232.48204
68.383827 90.166298 230.88942
69.017067 90.172264 231.13972
70.010231 90.294373 230.46231
70.997887 90.416397 229.78076
71.980042 90.538361 229.09509
72.956703 90.66024 228.40535
73.927864 90.782043 227.71156
74.545784 90.787704 227.94418
75.163246 90.793335 228.17471
75.780258 90.798927 228.40317
76.396812 90.804474 228.62953
77.350548 90.925934 227.91978
77.628517 90.81543 229.07616
78.243683 90.820839 229.29642
78.528267 90.710312 230.45139
79.145012 90.715652 230.66847
79.111076 90.489227 232.76064
80.377144 90.726166 231.09659
81.31263 90.847145 230.36739
81.925049 90.852249 230.57561
82.537041 90.8573 230.78185
83.461182 90.978035 230.04333
84.069771 90.982948 230.24486
84.677933 90.987816 230.44441
85.285652 90.992615 230.64207
86.195595 91.113037 229.89175
87.100136 91.233353 229.13795
87.999283 91.353577 228.38068
88.597855 91.358093 228.56841
88.903305 91.246964 229.70346
89.503555 91.251389 229.88823
90.103394 91.255753 230.07117
90.132278 91.028984 232.1552
90.736275 91.033272 232.33595
91.620224 91.153 231.56195
91.665268 90.926186 233.64563
92.545959 91.045776 232.86729
93.421356 91.165283 232.08568
94.020988 91.169266 232.25668
95.156227 91.404022 230.51292
96.28125 91.638664 228.76462
96.869949 91.642403 228.92758
97.458321 91.646095 229.08878
98.304474 91.765091 228.28908
99.145386 91.883995 227.48634
99.221413 91.656837 229.56212
99.808456 91.660309 229.71651
100.14688 91.548431 230.83099
100.73576 91.551811 230.98262
101.32432 91.55513 231.13257
102.39448 91.788925 229.35349
102.97754 91.792114 229.49887
103.56032 91.795258 229.64259
103.90919 91.683128 230.75018
104.49385 91.68618 230.89122
104.84953 91.57399 231.99727
104.98355 91.346603 234.07007
105.57471 91.349541 234.20793
106.60838 91.582741 232.40741
106.97519 91.470413 233.50983
107.34663 91.358063 234.61169
108.15083 91.475922 233.77301
108.52666 91.363495 234.87274
108.90711 91.251045 235.97194
109.49895 91.253662 236.09897
110.09056 91.256226 236.2244
110.88383 91.37381 235.37558
111.47255 91.376274 235.49728
112.65211 91.723831 232.69656
113.42769 91.841217 231.83952
114.00604 91.843498 231.95461
114.20473 91.615715 234.01825
114.97484 91.732948 233.15561
115.37015 91.620125 234.24252
115.95257 91.622261 234.35234
116.71481 91.739342 233.48372
117.29443 91.741394 233.59003
117.52353 91.513474 235.65041
117.93488 91.400505 236.73277
118.35091 91.287506 237.81448
118.77162 91.1745 238.89545
119.52796 91.291321 238.01675
120.11623 91.293167 238.1156
120.86499 91.409889 237.23265
121.45052 91.411652 237.32805
122.3475 91.643181 235.45981
123.08128 91.75975 234.56998
124.11201 92.106056 231.7142
124.68246 92.107628 231.80141
125.25276 92.109177 231.8871
125.67921 91.995811 232.95432
126.25166 91.997292 233.03746
126.54623 91.76902 235.0864
126.98679 91.655594 236.15128
127.56612 91.65699 236.23108
128.01367 91.54351 237.29404
128.46594 91.430016 238.35616
129.04974 91.431328 238.43216
129.50902 91.317787 239.49226
130.095 91.319031 239.56567
130.68089 91.320259 239.63757
131.50102 91.551064 237.73511
132.08188 91.552216 237.80351
132.88736 91.782936 235.89644
133.35324 91.669212 236.94873
134.03896 91.785065 236.02493
134.50949 91.671295 237.07487
135.08748 91.672295 237.13577
135.46477 91.443703 239.17188
136.14531 91.559425 238.24187
136.72546 91.560341 238.29872
137.30554 91.561226 238.35413
137.79486 91.447327 239.39735
138.46547 91.56292 238.46063
139.04533 91.563728 238.51176
139.54166 91.449753 239.55132
140.12379 91.450508 239.59978
140.78452 91.565979 238.65654
141.36412 91.566681 238.70197
142.01752 91.682098 237.75528
142.5946 91.682739 237.79767
143.17163 91.683357 237.83865
143.74861 91.683952 237.87822
144.32555 91.684517 237.91638
144.84061 91.570335 238.94456
145.30101 91.3414 240.96329
145.771 91.112457 242.98116
146.30515 90.998215 244.00624
146.94849 91.113388 243.0461
147.53719 91.113823 243.07639
148.22066 91.343658 241.12076
148.84949 91.458755 240.15559
149.47346 91.57383 239.1888
150.01222 91.459442 240.20557
150.63135 91.574463 239.23578
151.13947 91.345322 241.24269
151.72314 91.345581 241.26283
152.27623 91.23111 242.27446
152.83408 91.116615 243.28484
153.37094 90.88739 245.28699
154.01093 91.116982 243.31543
154.57834 91.002419 244.32176
155.15054 90.887833 245.32677
155.7599 91.00264 244.3439
156.3369 90.888016 245.3461
156.91869 90.773361 246.34697
157.50526 90.658691 247.34644
158.1098 90.773399 246.35774
158.70119 90.658676 247.35434
159.30092 90.773346 246.36272
159.89584 90.887985 245.36967
160.48901 90.887894 245.36858
161.09305 90.658379 247.35281
161.69104 90.658249 247.34877
162.27879 90.772797 246.34998
162.87439 90.772614 246.34309
163.45497 90.887123 245.34149
164.03076 91.001602 244.33852
164.62161 91.001358 244.32741
165.21248 91.001083 244.31485
165.80338 91.000793 244.30086
166.42134 90.885765 245.27847
167.07359 90.655991 247.2475
167.63991 90.77034 246.23608
168.30423 90.540512 248.20181
168.90486 90.540085 248.18031
169.46648 90.654366 247.16472
170.14771 90.424454 249.12546
170.75085 90.423958 249.09949
171.35405 90.423439 249.07204
172.00595 90.308167 250.03531
172.61163 90.307594 250.00479
173.16388 90.42173 248.98085
173.82315 90.306374 249.93935
174.48726 90.190987 250.89607
175.21693 89.960831 252.84254
175.95627 89.730621 254.787
176.5743 89.729889 254.74683
177.12447 89.843872 253.71405
177.7402 89.843079 253.67104
178.28328 89.957016 252.63577
178.97186 89.841408 253.58043
179.35521 90.18483 250.56177
179.964 90.183937 250.51326
180.49054 90.297783 249.4733
181.18182 90.182068 250.41176
181.61652 90.410645 248.37962
182.39993 90.180084 250.30423
183.1011 90.064262 251.23735
183.80716 89.94841 252.16849
184.42134 89.947311 252.10898
185.03561 89.946175 252.04797
185.75159 89.830208 252.97359
186.36845 89.82901 252.90926
186.98543 89.827789 252.8434
187.71135 89.711708 253.7634
188.55344 89.480766 255.66847
189.17796 89.479424 255.59717
189.68654 89.592888 254.5377
190.42737 89.476654 255.44984
190.81044 89.704903 253.40181
191.55392 89.588593 254.31056
192.05092 89.70195 253.24629
192.67134 89.700417 253.1662
193.2919 89.698853 253.08452
193.91258 89.697258 253.00128
194.39803 89.810501 251.93234
195.15439 89.693954 252.83006
195.91571 89.577354 253.72551
196.68201 89.460701 254.61868
197.45331 89.344002 255.50952
197.93466 89.457077 254.43335
198.56122 89.4552 254.33832
199.03563 89.568222 253.25999
199.50537 89.681221 252.18083
200.28473 89.564308 253.06256
201.06912 89.447334 253.94189
201.85852 89.330299 254.81885
202.65295 89.213211 255.69333
203.45242 89.096069 256.56534
204.08766 89.093849 256.45605
204.89478 88.976593 257.32349
205.53284 88.974281 257.21045
205.81802 89.201942 255.14063
206.80957 88.969521 256.97931
207.44827 88.967064 256.86124
208.08717 88.964577 256.74142
209.09882 88.731934 258.57144
209.93172 88.614273 259.42258
210.00523 88.95681 256.37189
210.83861 88.83905 257.2196
211.48111 88.836304 257.09082
212.12384 88.833519 256.9603
213.36942 88.485336 259.74655
214.22327 88.367294 260.58337
214.87653 88.364311 260.44553
216.15457 88.015839 263.21985
216.60509 88.127869 262.10617
217.26405 88.124695 261.96198
218.13879 88.006302 262.78561
218.80078 88.003006 262.63727
219.24268 88.114868 261.51843
220.12567 87.996262 262.33502
221.01382 87.877579 263.14859
221.45177 87.989296 262.02536
222.11531 87.985718 261.8678
222.31395 88.212631 259.77692
222.97324 88.208969 259.61676
223.63287 88.205254 259.45477
224.29285 88.201469 259.29092
224.95316 88.197632 259.12515
226.10361 87.963051 260.88287
227.01691 87.843704 261.67413
227.68567 87.839645 261.50079
229.1116 87.489365 264.20776
230.04324 87.36972 264.98871
231.23737 87.134583 266.7258
231.92245 87.130165 266.54068
232.87009 87.010239 267.31168
233.55846 87.005676 267.12183
233.71317 87.23201 265.01648
234.12793 87.34285 263.86792
234.81018 87.338135 263.67407
234.94394 87.564423 261.56891
235.34517 87.675163 260.41849
236.58015 87.439178 262.12701
236.9798 87.549805 260.97318
237.65933 87.544785 260.77054
238.91302 87.308472 262.46768
239.59845 87.303291 262.25934
240.28433 87.298042 262.04886
241.85365 86.945694 264.68228
243.14159 86.708862 266.36102
243.54211 86.819031 265.19312
244.54172 86.697693 265.91724
246.1554 86.344734 268.52859
246.25066 86.57048 266.4093
246.64575 86.680435 265.23495
247.97168 86.442917 266.88919
248.6796 86.43692 266.65335
248.7545 86.662582 264.53247
249.77777 86.540619 265.23434
250.80661 86.418549 265.93222
250.8681 86.64415 263.80957
252.88097 86.174072 267.31577
253.92651 86.051682 268.0014
255.30951 85.813179 269.61911
256.03439 85.806572 269.36023
256.75986 85.799904 269.09894
257.14648 85.909241 267.90179
258.21249 85.786392 268.56912
258.59521 85.895683 267.3689
260.01434 85.656548 268.96011
260.39569 85.765755 267.75595
260.4205 85.99115 265.62247
261.85397 85.751762 267.20145
262.22687 85.860931 265.99365
262.95486 85.853867 265.71112
264.04556 85.730484 266.35092
264.77716 85.72332 266.06238
265.50931 85.716141 265.77124
267.72116 85.2435 269.16479
268.09216 85.352562 267.9437
269.58322 85.112442 269.48123
271.46243 84.755768 271.93073
271.83746 84.864777 270.70074
271.44275 85.206818 267.63705
