ply
format ascii 1.0
comment PCL generated
element vertex 1597
property float x
property float y
property float z
element camera 0
property float view_px
property float view_py
property float view_pz
property float x_axisx
property float x_axisy
property float x_axisz
property float y_axisx
property float y_axisy
property float y_axisz
property float z_axisx
property float z_axisy
property float z_axisz
property float focal
property float scalex
property float scaley
property float centerx
property float centery
property int viewportx
property int viewporty
property float k1
property float k2
end_header
82.743019 144.46883 218.45584
82.672112 144.67841 220.53889
82.936234 144.77963 221.6842
84.173714 144.55606 220.0087
84.759888 144.54916 220.20995
85.027687 144.65057 221.35121
85.930893 144.53563 220.60675
86.515739 144.52898 220.80234
86.789726 144.63052 221.94046
87.068291 144.7321 223.07835
87.962273 144.61755 222.32391
87.639069 144.93533 225.35345
88.231766 144.92896 225.54294
89.121986 144.81468 224.78215
90.006836 144.70053 224.01791
90.300316 144.8024 225.15033
91.760399 144.47261 222.47939
92.05307 144.57463 223.60818
92.350311 144.67668 224.73671
92.935204 144.67093 224.91191
93.800308 144.55742 224.13158
94.381958 144.55183 224.30252
95.238876 144.43855 223.51651
95.817307 144.43314 223.68324
97.207504 144.10463 220.97838
97.50959 144.20714 222.09686
98.347801 144.09431 221.29903
98.917419 144.08926 221.45685
100.0084 143.86902 219.69423
99.79731 144.187 222.72748
100.36841 144.18214 222.88094
100.68575 144.28494 223.99408
101.25866 144.28021 224.14487
101.83128 144.27554 224.29399
102.15749 144.37848 225.40477
102.73196 144.37393 225.55124
103.54728 144.26198 224.73155
103.64125 144.4725 226.80441
104.21727 144.46815 226.94661
104.79301 144.46387 227.08716
105.59984 144.35223 226.25917
106.17257 144.3481 226.39592
107.42445 144.02193 223.62682
107.98933 144.01797 223.75864
108.55393 144.01408 223.8889
108.89915 144.11757 224.98738
109.24901 144.22108 226.08537
109.60349 144.32463 227.18294
109.96262 144.42821 228.28
110.53577 144.42456 228.40462
111.10869 144.42096 228.52769
111.88589 144.31021 227.67622
112.25385 144.41397 228.76917
113.42499 144.08899 225.96562
114.18692 143.97849 225.10649
115.13853 143.76093 223.2699
115.50322 143.86493 224.35628
116.25237 143.75468 223.49023
116.62152 143.85876 224.57454
116.99535 143.96286 225.65834
117.19122 144.1741 227.7189
117.93719 144.06409 226.84641
118.50037 144.06122 226.94978
118.88803 144.16547 228.03035
119.62618 144.05563 227.15208
120.5298 143.83885 225.29196
121.08743 143.83621 225.3886
121.47928 143.94064 226.46413
122.03902 143.9381 226.55829
122.59861 143.93561 226.65096
122.99968 144.04013 227.72375
123.56139 144.03772 227.81393
123.96944 144.14232 228.88501
124.53328 144.14 228.97267
125.09698 144.13771 229.05888
125.66056 144.13548 229.14363
126.08015 144.24022 230.21077
126.78731 144.13116 229.30885
127.35049 144.12906 229.38931
127.91355 144.12701 229.46834
128.34232 144.2319 230.5311
128.90755 144.22993 230.6076
129.34332 144.33488 231.66847
129.91075 144.33299 231.74242
130.35355 144.438 232.80141
130.80107 144.54305 233.85951
131.49269 144.43443 232.94275
132.0621 144.43271 233.01126
132.63142 144.43102 233.07838
133.31311 144.32256 232.15616
133.98987 144.21416 231.23198
134.33882 144.42622 233.27113
134.90778 144.42471 233.33257
135.57945 144.31644 232.40361
136.24623 144.20822 231.47275
136.81012 144.20683 231.52942
137.37392 144.20549 231.58472
137.93765 144.20418 231.63861
138.41054 144.30968 232.68126
138.88818 144.41519 233.72293
139.45651 144.414 233.77307
140.0248 144.41283 233.82179
140.75526 144.19821 231.88718
141.31859 144.19713 231.93274
142.0345 143.98262 229.9942
142.51898 144.08835 231.02814
143.22275 143.87393 229.08594
143.64044 144.08646 231.10919
144.2011 144.08556 231.14767
144.56883 144.40485 234.16139
145.13661 144.40401 234.19757
145.70435 144.40321 234.23238
146.27203 144.40245 234.26579
146.83968 144.40172 234.29781
147.5118 144.18762 232.34262
148.0247 144.29367 233.36464
148.49495 144.50644 235.37874
149.01981 144.61255 236.39859
149.5921 144.61198 236.4239
150.16435 144.61147 236.44783
150.7744 144.50429 235.47681
151.4859 144.0771 231.52319
152.14513 143.75665 228.56129
152.7899 143.43623 225.5976
153.44846 143.00919 221.6382
154.03613 142.79553 219.66487
154.56738 142.79527 219.67805
155.14061 142.5817 217.7018
155.72281 142.26147 214.72997
156.242 142.26131 214.73904
156.78877 142.04784 212.7585
157.3373 141.72771 209.78233
157.85344 141.62097 208.7933
158.35818 141.62093 208.79724
158.87546 141.3009 205.81712
159.37477 141.19424 204.82433
159.86928 141.08762 203.83029
160.36201 141.08769 203.82938
160.85475 141.0878 203.82727
161.3475 141.08794 203.82396
161.86076 141.30145 205.80797
162.34569 141.19496 204.80798
162.85593 141.30186 205.79526
163.37099 141.40878 206.78122
163.91072 141.62242 208.75999
164.4601 141.83609 210.73735
165.04378 142.15649 213.70724
165.58775 142.26355 214.68768
166.19553 142.58403 217.65442
166.81773 142.90454 220.61946
167.38583 143.01172 221.59535
167.99545 143.22563 223.56335
168.65382 143.54626 226.52322
169.28516 143.76027 228.48778
169.88225 143.86761 229.45726
170.66942 144.40181 234.39799
171.23711 144.40254 234.37079
171.90707 144.61671 236.32811
172.58672 144.83095 238.28352
173.16415 144.8318 238.25162
173.74164 144.83267 238.21826
174.50142 145.15376 241.1608
175.08624 145.15474 241.12421
175.80223 145.3692 243.07042
176.52791 145.58372 245.01453
177.12253 145.58482 244.97295
177.71719 145.58597 244.92989
178.16156 145.37364 242.90253
178.67397 145.2681 241.86566
179.26163 145.26933 241.8188
179.84935 145.2706 241.77051
180.52199 145.37869 242.71143
181.02504 145.27328 241.66956
181.61299 145.27467 241.6169
182.20103 145.27611 241.56277
182.6947 145.17079 240.51744
183.37737 145.2791 241.45018
184.16425 145.49426 243.37033
185.06255 145.81631 246.27708
185.66309 145.81799 246.2144
186.5833 146.14018 249.11592
187.19128 146.14197 249.04947
187.91071 146.25063 249.9695
188.40756 146.14566 248.912
189.01587 146.14757 248.84097
189.50569 146.04266 247.78127
189.86981 145.83093 245.73372
190.59464 145.93983 246.6456
191.07275 145.83502 245.58279
191.80266 145.94403 246.49101
192.6682 146.16002 248.38272
193.54353 146.37608 250.27159
194.15767 146.37839 250.18762
195.04779 146.5946 252.0714
195.66704 146.59703 251.98363
196.42921 146.70645 252.87822
197.05119 146.709 252.78696
197.67331 146.71158 252.69403
198.29561 146.71422 252.59955
198.91806 146.7169 252.50345
199.23096 146.50565 250.44154
200.00618 146.61543 251.32474
200.62672 146.61827 251.22421
201.24744 146.62115 251.1221
201.70377 146.51706 250.03781
202.6564 146.73418 251.89314
203.11069 146.63017 250.80602
203.90399 146.74039 251.67671
204.87662 146.95776 253.52376
205.50578 146.96103 253.4106
206.31427 147.07149 254.27374
207.49095 147.39629 257.08939
208.13046 147.39978 256.96936
208.95662 147.51051 257.82428
209.41016 147.40698 256.7243
210.05035 147.41068 256.59921
210.30331 147.20003 254.52202
210.74297 147.0966 253.41978
211.17798 146.99321 252.31683
212.21149 147.21159 254.13423
213.05151 147.32285 254.97472
213.8967 147.4342 255.81247
214.53865 147.43835 255.67522
215.39169 147.54988 256.5079
216.46313 147.76884 258.30881
217.11325 147.77325 258.1647
218.41809 148.09982 260.9288
219.07614 148.10442 260.77942
219.95753 148.21649 261.59714
220.16769 148.00644 259.5069
220.36838 147.7964 257.41714
221.02032 147.80125 257.26218
221.43979 147.6987 256.13882
222.08994 147.70369 255.98077
222.74045 147.70876 255.82091
223.39128 147.7139 255.65918
224.28511 147.82666 256.45975
224.93909 147.83197 256.29364
225.34589 147.72978 255.16283
226.49818 147.95045 256.91806
227.40823 148.06366 257.70731
228.06863 148.06934 257.53235
229.50168 148.3981 260.23633
230.43015 148.51172 261.01514
231.10158 148.51775 260.8317
232.03827 148.63159 261.60452
232.71301 148.6378 261.41641
233.38815 148.6441 261.22626
233.7915 148.54269 260.07797
234.46506 148.54916 259.88452
234.58466 148.34001 257.77954
235.53383 148.45448 258.53751
235.92407 148.35329 257.38538
237.16376 148.57591 259.0903
238.12672 148.69078 259.83841
238.80551 148.69781 259.63187
240.06897 148.92093 261.32376
241.04829 149.03624 262.06097
242.03308 149.15169 262.79449
242.72379 149.15919 262.57635
244.32123 149.49113 265.19745
244.71588 149.39078 264.02618
245.72018 149.50681 264.74539
246.11089 149.40659 263.57132
246.8092 149.41463 263.34055
247.19345 149.31451 262.16449
247.89032 149.32271 261.93002
248.26816 149.2227 260.75201
248.64148 149.12273 259.57339
249.98422 149.3479 261.2131
251.01044 149.46489 261.90829
252.04224 149.58203 262.59943
253.41177 149.8078 264.22336
255.12668 150.14229 266.7774
255.84564 150.15147 266.51819
256.90494 150.2693 267.1908
257.96985 150.3873 267.8591
259.04041 150.50545 268.5231
259.07465 150.29776 266.38846
259.44916 150.19872 265.18561
260.52399 150.31715 265.84125
260.89459 150.21822 264.63535
261.26068 150.11929 263.42892
262.70227 150.34688 265.00165
263.4295 150.35693 264.71677
263.79221 150.25818 263.50479
264.88562 150.37729 264.1394
265.6145 150.38754 263.84686
266.34387 150.39789 263.55179
267.4491 150.51733 264.17462
268.93774 150.74599 265.71219
270.0567 150.86572 266.32455
270.41537 150.76726 265.0976
270.38382 150.55957 262.95392
270.34253 150.35176 260.81201
271.46329 150.47165 261.41394
66.607948 145.78485 217.40453
67.215652 145.77609 217.6649
67.823036 145.76736 217.92317
66.895462 146.20468 221.84618
68.274597 145.97292 220.26883
68.507469 146.07562 221.44165
69.497108 145.95551 220.7746
69.734314 146.05823 221.94522
70.347137 146.04961 222.1938
70.591156 146.15231 223.36322
71.205688 146.14375 223.60854
71.819778 146.13525 223.85173
72.433426 146.12682 224.0928
73.404877 146.00728 223.40477
74.726524 145.77676 221.78467
75.331238 145.76862 222.01651
76.636787 145.53844 220.38647
77.23555 145.53049 220.61226
77.833847 145.52261 220.83604
78.431694 145.5148 221.05779
80.050743 145.17432 218.47653
80.640129 145.16675 218.6915
81.22905 145.15927 218.90451
82.150528 145.04103 218.17914
82.405548 145.14452 219.32463
82.665138 145.24802 220.46999
83.254776 145.2408 220.67609
84.166931 145.12297 219.94034
84.753174 145.11594 220.14171
85.021019 145.21964 221.28282
85.608871 145.21274 221.48128
85.883347 145.3165 222.62112
86.472839 145.30972 222.81662
86.753922 145.41357 223.95522
87.650513 145.29645 223.202
87.329803 145.62131 226.2316
87.925064 145.61479 226.42201
88.817886 145.49792 225.66238
89.705315 145.38121 224.8994
90.29435 145.37498 225.0827
91.464043 145.14816 223.36322
92.04731 145.14215 223.54137
92.344604 145.24649 224.66971
93.212662 145.13036 223.89232
93.794769 145.12457 224.06511
94.654633 145.00867 223.28197
95.233513 145.00307 223.45053
95.538826 145.1077 224.573
96.660889 144.88196 222.82616
97.236229 144.87662 222.98882
98.076988 144.76125 222.19208
99.175812 144.53593 220.43384
99.742706 144.53088 220.5894
99.79248 144.74594 222.6628
100.36366 144.74098 222.81635
100.68104 144.84608 223.92932
101.00302 144.95122 225.04192
101.57815 144.94644 225.1918
102.15297 144.94174 225.34003
102.48386 145.047 226.45021
103.30172 144.93253 225.63152
103.39817 145.14777 227.70453
103.97672 145.1433 227.8474
104.7888 145.02907 227.02258
105.59571 144.91495 226.19498
106.16851 144.91072 226.3318
107.42052 144.57726 223.56358
108.20949 144.46346 222.72713
108.77171 144.4595 222.8569
109.33369 144.4556 222.98511
109.6787 144.56148 224.08185
110.02835 144.66737 225.17813
110.38264 144.77332 226.27391
110.74159 144.87927 227.3692
111.10516 144.98526 228.464
111.88243 144.87204 227.61288
112.45251 144.86852 227.73241
113.22204 144.75545 226.87666
113.98647 144.64247 226.01839
115.13538 144.31046 223.20818
115.50011 144.41679 224.29436
116.05942 144.4136 224.40428
116.80602 144.30096 223.53659
117.3625 144.29791 223.64311
117.73618 144.40442 224.7252
118.29471 144.40146 224.82925
118.67532 144.50803 225.90973
119.06059 144.61462 226.98965
119.45055 144.72125 228.06895
120.18617 144.60904 227.1891
120.58064 144.71574 228.26631
121.14544 144.71307 228.36278
121.71008 144.71045 228.45779
122.43535 144.59848 227.57043
122.83889 144.70534 228.64339
123.55902 144.59351 227.75232
124.12064 144.59109 227.84113
124.531 144.69807 228.91087
125.24344 144.58641 228.01433
125.95091 144.47481 227.1156
126.22185 144.69122 229.16533
126.92664 144.57974 228.26337
127.34843 144.6869 229.32776
127.91154 144.68481 229.40681
128.34033 144.79205 230.46936
128.77383 144.89931 231.53114
129.0827 145.11588 233.57768
129.65501 145.11392 233.65231
130.2272 145.11201 233.72546
130.79929 145.11017 233.7972
131.49095 144.99911 232.88071
132.29498 144.7789 230.97513
132.9744 144.66798 230.05435
133.53642 144.66632 230.11922
134.09836 144.66472 230.18269
134.66022 144.66315 230.24475
135.11674 144.77081 231.29385
135.578 144.87849 232.34209
136.34523 144.65868 230.42258
136.90675 144.65727 230.47903
137.37259 144.76506 231.52353
137.84319 144.87289 232.56709
138.31853 144.98074 233.60974
138.79861 145.08862 234.65138
139.36938 145.08739 234.70175
139.85657 145.19534 235.74124
140.59189 144.97591 233.80757
141.2388 144.86566 232.86264
141.88084 144.75546 231.91592
142.37018 144.86356 232.94998
143.0788 144.64433 231.00867
143.57043 144.75249 232.04018
144.13351 144.75157 232.07881
144.56799 144.9689 234.09998
145.1358 144.96805 234.1362
145.70357 144.96724 234.17099
146.27129 144.96646 234.20442
146.83897 144.96571 234.23647
147.45888 144.85591 233.27446
147.97421 144.96434 234.2964
148.44688 145.18187 236.31006
148.9742 145.29034 237.32982
149.54892 145.28976 237.35524
150.12361 145.28923 237.37927
150.7361 145.17966 236.40862
151.34377 145.07011 235.43634
151.91357 145.06969 235.45604
152.48337 145.06931 235.47433
153.10956 144.8508 233.50395
153.72614 144.63235 231.53197
154.35648 144.30487 228.56458
154.97237 143.97745 225.59554
155.59244 143.54099 221.63097
156.12849 143.5408 221.64037
156.67831 143.43159 220.65453
157.22333 143.32243 219.66733
157.76353 143.21329 218.6788
158.28578 143.32231 219.67696
158.82953 142.99512 216.69774
159.3553 142.88608 215.70529
159.87691 142.88612 215.70558
160.40155 142.99527 216.69862
160.92014 142.88632 215.70239
161.44176 142.88646 215.69888
161.99414 143.21382 218.67604
162.52299 143.21404 218.66994
163.05186 143.21428 218.66255
163.61566 143.43268 220.6416
164.18909 143.65112 222.61923
164.74989 143.76053 223.60158
165.34019 143.97905 225.57622
165.94012 144.1976 227.54929
166.54971 144.41621 229.52075
167.16893 144.63486 231.4906
167.76352 144.74445 232.4653
168.36295 144.8541 233.43852
169.0063 145.07286 235.4034
169.61781 145.1826 236.37337
170.19028 145.18327 236.34869
170.9017 145.51126 239.30144
171.43272 145.40294 238.28079
172.11237 145.62192 240.23711
172.69461 145.62276 240.20631
173.2769 145.62363 240.17409
173.85924 145.62454 240.14047
174.62387 145.95284 243.08194
175.15039 145.84471 242.05298
175.86882 146.064 243.99847
176.46101 146.06506 243.9585
177.05325 146.06619 243.91705
177.64557 146.06734 243.87416
178.16275 145.9594 242.83864
178.67519 145.85149 241.80203
179.3429 145.9619 242.74596
179.93307 145.96321 242.69743
180.52332 145.96455 242.64743
181.02641 145.85678 241.6058
181.70406 145.96738 242.54311
182.20248 145.85968 241.49899
182.69618 145.752 240.45389
183.37891 145.86273 241.38635
184.16583 146.08272 243.30592
185.06419 146.41197 246.21185
185.76889 146.5229 247.13771
186.69159 146.85233 250.03816
187.30202 146.85414 249.97139
187.91257 146.85602 249.90311
188.18192 146.53021 246.87085
188.78543 146.53215 246.80034
189.38907 146.53413 246.72832
189.75079 146.31763 244.68155
190.47327 146.42897 245.59344
191.20068 146.54036 246.50319
192.06133 146.76112 248.3965
192.80107 146.87265 249.30161
193.812 147.20288 252.17467
194.43102 147.20525 252.09
195.18811 147.317 252.98813
195.80983 147.31949 252.89995
196.4317 147.32202 252.8102
197.05374 147.32462 252.71884
197.52831 147.21788 251.64291
197.9982 147.11119 250.56613
198.76833 147.22331 251.45302
199.23369 147.1167 250.37376
200.00899 147.22894 251.25667
200.62958 147.23184 251.15608
201.25035 147.2348 251.05389
201.70673 147.12837 249.96983
202.65944 147.35034 251.82455
202.94434 147.13454 249.75819
203.90714 147.35667 251.608
204.87985 147.57892 253.45447
205.50906 147.58226 253.34122
206.31763 147.69518 254.20403
207.4944 148.02725 257.01877
208.13397 148.03084 256.89874
208.96021 148.14404 257.75333
209.60268 148.14777 257.62939
210.05405 148.04195 256.52832
210.50081 147.93619 255.42653
210.94293 147.83046 254.32402
211.38043 147.72476 253.22073
212.41647 147.94804 255.03703
213.05553 147.95213 254.90375
213.48891 147.84662 253.79631
214.33444 147.96053 254.63196
215.18512 148.07452 255.46478
216.25421 148.29837 257.26559
216.90198 148.30286 257.12195
218.20447 148.63672 259.88565
218.86014 148.6414 259.73676
219.73918 148.75597 260.55469
220.17242 148.651 259.4335
220.6011 148.54608 258.31165
221.48596 148.6609 259.12286
221.91039 148.55611 257.9985
222.56554 148.56123 257.8392
222.98326 148.45653 256.71292
223.63663 148.46179 256.55048
224.533 148.57709 257.35001
225.18954 148.58255 257.1832
225.59883 148.47809 256.05191
226.50366 148.59369 256.8439
227.41382 148.70943 257.63275
228.0743 148.71523 257.45767
229.76492 149.16142 261.1207
230.43607 149.1675 260.93912
231.36996 149.28377 261.7142
232.04437 149.29002 261.52795
232.71921 149.29637 261.33972
233.12465 149.19261 260.19287
233.79785 149.19913 260.00131
234.4715 149.20572 259.80774
234.86835 149.10214 258.65765
235.54041 149.10889 258.46072
235.93073 149.00543 257.30878
236.88586 149.12268 258.06073
237.84647 149.24008 258.80914
238.52284 149.24724 258.60324
239.78397 149.47531 260.29517
240.76093 149.59315 261.03275
242.33755 149.9321 263.66345
242.73123 149.82928 262.4967
244.32884 150.16864 265.11676
244.41898 149.95546 262.99963
245.4209 150.07404 263.71918
246.11877 150.08215 263.49051
247.12926 150.201 264.20313
247.20148 149.98798 262.08359
247.89844 149.99635 261.849
248.27634 149.89409 260.67108
248.97188 149.90262 260.43283
249.99263 150.02205 261.13159
251.34612 150.25247 262.76477
252.38054 150.37224 263.4545
253.75278 150.60307 265.07678
255.80511 151.05598 268.56467
256.52917 151.0654 268.30341
256.91412 150.96393 267.1058
257.97913 151.08453 267.77362
259.0498 151.20529 268.43716
259.08405 150.99294 266.30292
259.80853 151.00278 266.03036
260.88599 151.12387 266.68451
261.61414 151.13393 266.40601
261.98535 151.03282 265.19772
263.07214 151.15427 265.84143
263.43939 151.05325 264.6301
263.80212 150.95224 263.41821
264.89563 151.07397 264.05228
265.62457 151.08443 263.75958
265.98123 150.98351 262.54312
268.20996 151.44 265.92697
269.32596 151.56229 266.54251
270.06711 151.57312 266.23523
270.80875 151.58401 265.92538
270.77975 151.37166 263.78107
270.35281 151.04753 260.72366
271.47363 151.17004 261.32507
66.59948 146.36565 217.32913
67.207184 146.35674 217.58969
67.81459 146.34785 217.8481
67.654282 146.56689 219.93719
68.266121 146.55798 220.19347
68.877594 146.5491 220.4476
68.736603 146.76794 222.53874
69.352409 146.75908 222.79066
69.967812 146.75026 223.04044
70.214378 146.85522 224.21075
70.831497 146.84647 224.45724
72.174866 146.61047 222.85222
72.786034 146.60191 223.09244
73.396774 146.59341 223.33057
74.362801 146.47142 222.63893
74.970108 146.46309 222.87189
75.927635 146.34134 222.17319
76.531517 146.33318 222.40103
77.134933 146.32507 222.62686
78.081001 146.20367 221.9182
79.362144 145.96907 220.27231
80.632759 145.73468 218.62071
81.221756 145.72705 218.83386
81.810295 145.7195 219.04507
82.398399 145.71202 219.25432
82.658035 145.81779 220.39949
82.922249 145.92358 221.54446
84.160004 145.69005 219.87042
84.746315 145.68288 220.07196
85.014214 145.78885 221.21291
85.286667 145.89485 222.35367
85.876663 145.88786 222.55119
85.845276 146.1069 224.63449
86.131409 146.21297 225.77457
87.033089 146.09323 225.02341
87.020355 146.3123 227.1076
87.618179 146.3056 227.29895
88.513603 146.18617 226.54054
89.69915 145.95409 224.83009
90.581306 145.83496 224.06409
90.876961 145.94145 225.19513
91.465271 145.93527 225.37491
91.767578 146.04185 226.50462
92.074463 146.14847 227.63396
92.666542 146.14247 227.80986
94.370911 145.68607 224.1683
94.952339 145.68033 224.33771
95.533394 145.67467 224.50537
96.655586 145.44398 222.75922
97.230988 145.43854 222.922
98.071854 145.32065 222.12563
98.644089 145.31537 222.28432
99.215988 145.31017 222.44135
99.270737 145.52991 224.51559
99.846893 145.5248 224.67058
100.16925 145.63217 225.78468
100.74722 145.6272 225.93697
101.57347 145.50995 225.12549
101.90224 145.61746 226.23653
102.47929 145.61272 226.38382
102.81482 145.72032 227.49342
102.91621 145.94023 229.56715
103.73602 145.82338 228.74619
104.78451 145.59441 226.95656
105.82291 145.36559 225.16295
106.85123 145.1369 223.36539
107.86951 144.90836 221.56389
108.65366 144.79211 220.72665
108.98945 144.90024 221.82402
109.32986 145.00841 222.92102
109.67493 145.11661 224.01753
110.02461 145.22482 225.1136
110.59081 145.22101 225.23831
110.94736 145.32932 226.33289
111.30854 145.43765 227.42697
112.08345 145.32196 226.57568
112.65115 145.31837 226.69476
113.4183 145.20285 225.83885
113.98315 145.1994 225.95438
115.13216 144.86012 223.14508
115.68929 144.85683 223.2561
116.05629 144.96555 224.34105
116.80295 144.85043 223.47369
117.35949 144.84732 223.58028
117.55058 145.06804 225.63893
118.1116 145.06502 225.74348
118.67245 145.06204 225.84651
119.05777 145.17097 226.92621
119.44777 145.27994 228.00528
120.01295 145.2771 228.10477
120.40988 145.38614 229.18219
120.97716 145.38339 229.27913
121.38104 145.49249 230.35481
122.11122 145.37805 229.4686
122.51964 145.48724 230.54213
123.24467 145.37292 229.65215
123.81117 145.37044 229.74176
124.37753 145.36801 229.82988
125.24117 145.14215 227.95146
125.94868 145.02811 227.05302
126.50739 145.02585 227.13576
127.06595 145.02364 227.21703
127.62437 145.02147 227.29689
127.90947 145.24272 229.34392
128.20412 145.46399 231.39088
128.64008 145.57359 232.45274
128.95139 145.79489 234.49911
129.52615 145.79289 234.5741
130.22533 145.67931 233.6617
130.91957 145.56577 232.74724
131.60889 145.4523 231.83076
132.29327 145.3389 230.91228
132.97273 145.22554 229.99179
133.42233 145.33545 231.04407
133.87666 145.4454 232.09547
134.55101 145.33218 231.17023
135.11523 145.33061 231.23116
135.67935 145.3291 231.29074
136.44423 145.10446 229.37152
137.00336 145.10303 229.4278
137.46684 145.2132 230.4718
137.93504 145.32339 231.51494
138.40802 145.43362 232.55708
138.79736 145.65541 234.58809
139.36818 145.65414 234.63847
139.93893 145.65292 234.68748
140.59076 145.54022 233.74461
141.23772 145.42757 232.79999
141.72714 145.53799 233.83521
142.29524 145.53693 233.87837
143.07782 145.20139 230.94664
143.56949 145.31192 231.97786
144.13263 145.31097 232.01653
144.63141 145.42157 233.0455
145.19685 145.42072 233.08157
145.70277 145.53137 234.10825
146.27052 145.53058 234.14168
146.83824 145.52982 234.17374
147.40593 145.52908 234.20441
147.87386 145.75136 236.21872
148.35136 145.97365 238.2321
148.92856 145.97302 238.25908
149.54837 145.86096 237.29178
150.12309 145.86043 237.31583
150.77345 145.63698 235.3524
151.41418 145.41359 233.38719
151.97922 145.41315 233.40669
152.51361 145.52422 234.41814
153.08101 145.52385 234.43498
153.62259 145.63498 235.44391
154.16895 145.74614 236.45154
154.7411 145.74588 236.46434
155.35045 145.52275 234.4886
155.91779 145.52255 234.49854
156.52649 145.18805 231.52611
157.10936 144.96504 229.54579
157.68262 144.74205 227.56406
158.23969 144.63055 226.57462
158.79193 144.51909 225.5838
159.33939 144.40767 224.59167
159.88266 144.40771 224.59198
160.42897 144.51926 225.58473
160.97466 144.51938 225.58238
161.52036 144.51953 225.57874
162.10704 144.96552 229.54861
162.64972 144.85429 228.54848
163.20267 144.85455 228.54076
163.79054 145.07776 230.51891
164.38805 145.30099 232.49554
164.92839 145.1899 231.49004
165.53796 145.41322 233.4637
166.15718 145.63658 235.43575
166.75655 145.74852 236.41278
167.36076 145.8605 237.38829
167.96982 145.97253 238.36227
168.58369 146.08459 239.33469
169.16333 146.08522 239.31245
169.743 146.08588 239.28888
170.32271 146.08659 239.26387
170.99509 146.31029 241.22279
171.48222 146.0881 239.20956
172.16431 146.31189 241.16524
172.74899 146.31276 241.13431
173.38968 146.42514 242.09413
173.97687 146.42609 242.0602
174.68561 146.65007 244.00865
175.21455 146.53958 242.97977
175.86989 146.65216 243.93301
176.46211 146.65326 243.89297
177.12479 146.76591 244.8428
177.64674 146.65558 243.80861
178.23917 146.6568 243.76424
178.67642 146.435 241.73695
179.34418 146.54782 242.68059
179.9344 146.54916 242.63203
180.60953 146.66209 243.57214
181.2023 146.66351 243.52048
181.88483 146.77655 244.45703
182.48018 146.77806 244.40221
182.88666 146.55647 242.36737
183.47736 146.55806 242.31006
184.26675 146.78287 244.22884
184.96417 146.89615 245.15662
185.6665 147.00951 246.08243
186.48032 147.23451 247.99425
187.19492 147.34798 248.91571
187.91444 147.46152 249.83517
188.18382 147.12857 246.80367
188.90358 147.24219 247.72011
189.50967 147.24423 247.64775
189.99487 147.13464 246.58752
190.59879 147.13678 246.51245
191.45453 147.36229 248.40732
192.1918 147.47621 249.314
192.93402 147.59021 250.21848
193.94743 147.92767 253.09033
194.56892 147.9301 253.00528
195.19055 147.93259 252.91864
195.81233 147.93512 252.83044
196.43427 147.93771 252.74063
196.76593 147.71686 250.68307
197.53096 147.8313 251.57352
198.00089 147.72226 250.49696
198.77107 147.83682 251.38348
199.39137 147.83968 251.28606
200.16916 147.95439 252.16824
200.79224 147.95737 252.0672
201.57764 148.07222 252.94496
202.03891 147.96349 251.86029
202.82954 148.07849 252.73401
203.28635 147.96983 251.6469
204.08221 148.08498 252.51649
205.05745 148.3121 254.36189
205.51242 148.20363 253.27029
206.32104 148.31902 254.13274
207.31635 148.54643 255.9696
208.13757 148.66202 256.82651
208.77742 148.66574 256.70465
209.6064 148.78149 257.5567
210.24916 148.78537 257.431
210.69839 148.67729 256.32889
211.14301 148.56926 255.22609
211.78163 148.5733 255.09618
212.62157 148.68945 255.93767
213.05963 148.58157 254.83116
213.69901 148.58582 254.69606
214.33867 148.59013 254.5592
214.97859 148.59453 254.42059
216.04536 148.82324 256.22131
216.90646 148.93997 257.0481
217.99092 149.16896 258.84146
218.86484 149.28592 259.6619
219.74396 149.40297 260.47937
220.40277 149.40793 260.32617
220.83395 149.30072 259.20392
221.49097 149.30582 259.04761
221.68257 149.08644 256.95743
222.57065 149.20395 257.76398
222.98843 149.09695 256.63791
223.88211 149.21468 257.43951
224.78107 149.33252 258.23807
225.19498 149.22571 257.10757
225.60432 149.11896 255.97644
226.50928 149.23709 256.76807
227.16699 149.2429 256.59546
228.08008 149.36127 257.38129
229.77089 149.81725 261.04306
230.70203 149.93594 261.8204
231.63852 150.05478 262.59439
232.31549 150.06119 262.40738
232.99286 150.06769 262.21829
233.40085 149.96169 261.07092
234.07663 149.96835 260.87851
234.75284 149.9751 260.68408
235.15224 149.86928 259.53345
235.82686 149.87619 259.33566
236.50192 149.88321 259.1358
237.46217 150.00307 259.88589
238.42783 150.12308 260.63235
239.10928 150.13043 260.42477
240.37553 150.36356 262.11447
241.35757 150.48402 262.85001
242.64224 150.71753 264.53003
243.33813 150.7254 264.31
244.9409 151.07224 266.92743
245.03604 150.85445 264.80908
245.73596 150.86264 264.58163
246.74606 150.98399 265.29608
247.44955 150.99242 265.06329
247.52432 150.77475 262.94339
248.54103 150.89645 263.64935
248.92398 150.79199 262.46985
249.30249 150.68756 261.28979
250.32587 150.80962 261.98721
251.68204 151.04509 263.61874
252.71909 151.1675 264.3071
253.42953 151.17674 264.05499
255.47955 151.63953 267.54239
256.53848 151.76248 268.2164
256.92346 151.65875 267.01892
257.98862 151.78198 267.68625
259.40424 152.01884 269.28101
259.44104 151.80185 267.14627
260.51807 151.92548 267.80243
261.60071 152.04926 268.45416
261.979 151.94594 267.24554
262.71036 151.9563 266.96341
263.44226 151.96674 266.67865
263.44946 151.74977 264.54144
263.81219 151.6465 263.32965
264.90582 151.77087 263.96326
265.6348 151.78151 263.67032
266.36429 151.79224 263.37482
267.84503 152.03085 264.9165
268.95856 152.15573 265.53256
270.0777 152.28073 266.14395
270.81937 152.29179 265.83383
270.40472 151.96068 262.77438
270.75146 151.85759 261.54779
272.26559 152.09692 263.061
65.41671 147.29608 219.99057
66.032089 147.28693 220.25456
67.033432 147.16136 219.60141
66.494469 147.50142 222.60822
67.876328 147.25957 221.03358
68.490379 147.2505 221.28894
69.10405 147.24149 221.54216
69.717354 147.23251 221.7932
69.959267 147.33977 222.96344
70.205849 147.44701 224.13361
70.823006 147.43811 224.38028
71.803116 147.31317 223.70042
72.777718 147.18835 223.01645
73.746811 147.06369 222.32837
74.710403 146.93915 221.63622
75.315247 146.93069 221.86836
75.568916 147.03822 223.02776
75.827202 147.14575 224.18695
76.781395 147.02159 223.48366
77.386948 147.01338 223.70853
78.332664 146.88948 222.99829
79.949074 146.53424 220.41626
80.543167 146.5264 220.63141
81.469879 146.40297 219.90878
82.060562 146.39531 220.11908
82.650803 146.38774 220.32741
82.915054 146.49582 221.47226
83.506897 146.48837 221.6776
84.098305 146.481 221.88098
84.05323 146.70468 223.96452
84.64875 146.69742 224.16579
85.556839 146.57483 223.42242
85.527962 146.79854 225.5061
86.124664 146.7915 225.70244
87.33197 146.55388 224.00656
87.013748 146.89297 227.03545
87.311119 147.00143 228.17371
88.209129 146.87943 227.41655
89.101746 146.75755 226.65594
89.402832 146.86621 227.79019
90.289658 146.74457 227.02432
90.883011 146.7382 227.20576
91.47596 146.73192 227.38538
92.068504 146.72572 227.5632
92.941338 146.60454 226.7863
94.087021 146.36845 225.05255
94.671005 146.36258 225.22279
95.254616 146.35678 225.39128
96.108627 146.2361 224.60226
96.689041 146.23048 224.76657
97.800774 145.99512 223.01485
98.638924 145.87482 222.21651
99.210892 145.86949 222.37363
99.524094 145.97911 223.48825
99.841896 146.08875 224.60251
100.1643 146.19843 225.71642
100.74236 146.19334 225.8688
101.07149 146.30312 226.98131
101.40524 146.4129 228.0934
102.23094 146.29329 227.27901
102.81021 146.2885 227.42538
103.15041 146.39844 228.53435
103.73154 146.39377 228.67801
105.24786 145.93062 224.95811
106.05005 145.81155 224.13005
106.84705 145.69258 223.29921
107.86543 145.45914 221.49838
108.42558 145.45497 221.62933
108.76385 145.56541 222.7271
109.10677 145.67587 223.8244
109.45432 145.78638 224.92126
110.02081 145.78241 225.04764
110.37518 145.89301 226.14304
110.73422 146.0036 227.23792
111.09789 146.11426 228.33234
111.67076 146.1105 228.45406
112.24341 146.10681 228.57423
113.21519 145.87437 226.74651
113.58527 145.98523 227.83627
114.73926 145.63864 225.02885
115.3013 145.63525 225.14093
115.86316 145.63193 225.25148
116.61232 145.51434 224.38496
117.35643 145.39684 223.51601
117.54753 145.6223 225.57419
117.92839 145.73349 226.65575
118.49173 145.73044 226.75929
118.87952 145.84169 227.83919
118.9261 146.18147 230.87506
119.49861 146.17853 230.97589
120.07095 146.17566 231.07523
120.64313 146.17284 231.17305
121.21513 146.17006 231.26938
121.94781 146.05316 230.38387
122.35869 146.16467 231.4576
123.24217 145.93375 229.5872
123.80873 145.93121 229.67686
124.37514 145.92871 229.76503
125.23883 145.69803 227.88722
125.94641 145.58153 226.98912
126.50516 145.57922 227.07187
127.20523 145.46286 226.16983
127.48322 145.68884 228.2168
127.90737 145.80075 229.27962
128.33624 145.91269 230.34172
128.63805 146.13872 232.3877
128.94939 146.36476 234.43356
129.65114 146.24869 233.52327
130.22342 146.2467 233.5965
130.91771 146.13074 232.68239
131.60709 146.01483 231.76622
132.29152 145.89899 230.84804
132.97102 145.7832 229.92786
133.42067 145.89548 230.97987
133.98509 145.8938 231.04369
134.54944 145.89215 231.10612
135.11369 145.89055 231.16708
135.67786 145.88899 231.22667
136.34236 145.77351 230.29646
136.70793 145.99995 232.33028
137.27426 145.9985 232.38589
137.84053 145.99712 232.44011
138.31593 146.1097 233.48222
138.88446 146.10837 233.53384
139.36694 146.22102 234.57384
139.85419 146.33369 235.61284
140.50847 146.21857 234.67044
141.07913 146.21741 234.71666
141.57341 146.33018 235.752
142.22029 146.21519 234.80487
142.93381 145.98634 232.86502
143.43033 146.09924 233.89635
144.065 145.98439 232.94411
144.56624 146.09735 233.97299
145.13412 146.09647 234.00925
145.70197 146.09561 234.04408
146.32683 145.98093 233.08568
146.83751 146.09402 234.10962
147.45749 145.97942 233.14818
147.87318 146.32031 236.15408
148.44563 146.31964 236.18222
148.97301 146.43288 237.20146
149.59044 146.31842 236.23434
150.16281 146.31787 236.2583
150.81081 146.08965 234.29532
151.41374 145.97531 233.32344
151.97881 145.97487 233.34296
152.51323 146.0883 234.35414
153.10889 145.97409 233.37791
153.64809 146.0876 234.38649
154.21548 146.0873 234.40056
154.76187 146.20088 235.40659
155.35025 146.08681 234.42462
155.86902 146.42815 237.41469
156.45738 146.31415 236.42998
157.02954 146.31403 236.43723
157.61069 146.20009 235.44965
158.17384 146.31389 236.4476
158.75435 146.08618 234.46371
159.32524 145.85854 232.47841
159.88841 145.97243 233.47224
160.45639 146.08636 234.46469
161.01831 145.97264 233.46877
161.58327 145.97281 233.46498
162.17899 146.31453 236.44012
162.73853 146.20093 235.44012
163.29327 146.08736 234.43875
163.89561 146.31535 236.41609
164.48773 146.42953 237.39861
165.06239 146.42992 237.38638
165.63708 146.43034 237.37276
166.23888 146.54465 238.35085
166.81601 146.54514 238.33437
167.42508 146.65953 239.30943
167.9361 146.43237 237.30426
168.5843 146.66071 239.26929
169.16399 146.66135 239.24707
169.78519 146.77589 240.21608
170.32343 146.66273 239.19843
170.99585 146.89124 241.15681
171.53175 146.77817 240.13641
172.16515 146.89288 241.0992
172.74988 146.89375 241.06827
173.33464 146.89467 241.0359
173.97781 147.00952 241.99387
174.68661 147.23831 243.94173
175.21559 147.12546 242.91315
175.87097 147.24043 243.86604
176.5312 147.35547 244.81717
177.12595 147.35664 244.77553
177.72073 147.35785 244.73242
178.2404 147.24518 243.69722
178.6777 147.01862 241.67044
179.42552 147.2478 243.60403
179.93576 147.13522 242.56519
180.52609 147.13664 242.51515
181.20375 147.25204 243.45331
181.88632 147.36749 244.38959
182.38963 147.25508 243.3455
182.9827 147.25667 243.28938
183.67276 147.37227 244.22055
184.26842 147.37395 244.16124
185.0676 147.60365 246.07697
185.87653 147.83344 247.99022
186.58868 147.94928 248.91321
187.19679 147.95117 248.84662
187.91638 148.06714 249.76575
188.29956 147.84108 247.72198
188.90558 147.84311 247.65114
189.63034 147.95923 248.56511
189.99696 147.73326 246.51877
190.60092 147.73544 246.44366
191.33087 147.85172 247.35246
192.06578 147.96808 248.25912
192.80566 148.0845 249.1636
193.81671 148.42918 252.03491
194.43584 148.43166 251.95013
195.19305 148.54831 252.84764
195.8149 148.5509 252.75938
196.29408 148.43941 251.68636
196.76859 148.32794 250.61249
197.68129 148.55899 252.48502
198.15369 148.44763 251.40829
198.77388 148.45049 251.31241
199.54913 148.5676 252.19626
200.48674 148.79898 254.05864
200.95497 148.68782 252.97624
201.74287 148.80516 253.85327
202.37122 148.80833 253.74811
202.99976 148.81157 253.64134
203.28957 148.58633 251.57515
204.08551 148.70395 252.44441
204.88652 148.82166 253.31116
205.3391 148.71083 252.22017
206.14539 148.82867 253.08273
207.13834 149.06096 254.91942
207.77316 149.06465 254.80013
208.5947 149.18279 255.65495
209.42131 149.30101 256.50711
210.25302 149.41934 257.3566
210.70233 149.30894 256.25476
211.3432 149.31302 256.12598
211.98431 149.31715 255.99548
212.6257 149.32135 255.86328
213.0638 149.21117 254.75693
213.90923 149.32999 255.5936
214.55139 149.33441 255.45612
215.40469 149.45341 256.28769
216.04987 149.45801 256.14618
216.91104 149.57722 256.97256
217.99561 149.81113 258.76526
218.64899 149.81599 258.61676
219.52576 149.93555 259.43442
220.63327 150.16985 261.21661
221.06696 150.06036 260.09399
221.72649 150.06557 259.93695
222.15349 149.95619 258.81241
223.04657 150.07626 259.61734
222.99373 149.73755 256.56122
223.88751 149.85779 257.36243
224.54384 149.86337 257.1973
224.95535 149.75426 256.0676
225.36232 149.64519 254.9373
226.515 149.88066 256.69052
227.17279 149.8866 256.51779
228.08598 150.00749 257.30322
229.77696 150.47324 260.96368
230.70822 150.59448 261.74063
231.64482 150.71585 262.51422
232.32187 150.7224 262.32703
232.99936 150.72903 262.13785
233.67725 150.73576 261.94662
234.35558 150.74258 261.75339
235.30916 150.86458 262.51273
235.99086 150.87161 262.31467
236.95276 150.99387 263.06769
237.63785 151.00113 262.86475
238.32343 151.00848 262.65976
239.00946 151.01595 262.45261
239.69598 151.0235 262.24335
240.67516 151.14639 262.98135
241.36514 151.15417 262.76709
242.35278 151.27737 263.49847
243.34593 151.40073 264.22614
244.34457 151.52423 264.94998
245.04408 151.53249 264.72461
245.74411 151.54085 264.49698
246.44466 151.54932 264.26712
247.45792 151.67339 264.97803
247.53271 151.45103 262.85852
248.54956 151.57532 263.56406
249.57193 151.69978 264.26556
250.27773 151.70879 264.0235
251.30875 151.83353 264.7178
252.3454 151.95844 265.40805
253.38762 152.08353 266.09418
254.43546 152.20877 266.77612
256.15848 152.56575 269.32422
256.54797 152.45975 268.12747
257.27283 152.46964 267.86343
257.99829 152.47961 267.59692
258.37939 152.37378 266.39651
259.10345 152.38391 266.12604
259.82806 152.39412 265.85306
260.90579 152.52046 266.50623
261.63409 152.53088 266.22729
262.72052 152.6575 266.87253
263.09238 152.552 265.66196
263.45972 152.44647 264.45081
264.18765 152.45718 264.16275
265.28394 152.58421 264.79486
265.64523 152.47879 263.57907
266.74762 152.60603 264.20398
268.23105 152.84976 265.74374
269.72516 153.0937 267.2767
270.84949 153.22141 267.88541
271.21326 153.11627 266.65665
270.80106 152.77805 263.59683
271.15036 152.67273 262.36932
272.2764 152.80057 262.96747
65.407845 147.88452 219.91087
66.023232 147.87521 220.17505
67.024635 147.74706 219.52235
66.869324 147.97548 221.61264
68.248734 147.72862 220.03773
68.481598 147.8382 221.2101
68.719193 147.94774 222.3824
69.335075 147.93857 222.63466
69.950569 147.92944 222.88478
69.828674 148.15756 224.97681
70.814369 148.02991 224.30164
72.157982 147.78386 222.6982
72.769264 147.77499 222.93878
73.380104 147.76617 223.17726
73.990517 147.75743 223.4136
74.247192 147.86713 224.57588
74.859238 147.85849 224.80902
75.470825 147.84991 225.04008
76.427643 147.72314 224.3382
77.378967 147.59651 223.63235
78.324783 147.47003 222.92262
79.603226 147.22552 221.27536
80.199913 147.2175 221.49156
81.12925 147.09146 220.77032
81.722519 147.08363 220.98166
82.64341 146.95786 220.25378
83.233276 146.95021 220.46031
83.822693 146.94266 220.66495
84.091118 147.05312 221.8075
84.364105 147.1636 222.94984
84.957207 147.15623 223.15041
85.549866 147.14894 223.34906
85.831551 147.25955 224.48903
86.425842 147.25241 224.68469
87.325241 147.12759 223.93361
86.703949 147.59154 227.90741
87.304428 147.58456 228.09984
87.904472 147.57767 228.29039
88.504112 147.57086 228.47903
89.103325 147.56415 228.66583
90.283348 147.32236 226.9516
90.876778 147.31586 227.13318
91.469803 147.30945 227.31293
91.779266 147.42062 228.4427
92.654686 147.29689 227.66698
94.0812 146.93837 224.98134
94.389503 147.0498 226.10577
95.24894 146.92647 225.32033
96.103058 146.80325 224.53174
96.415222 146.91489 225.6523
97.263672 146.79189 224.85886
98.106857 146.66901 224.06229
98.422913 146.78082 225.17908
99.002029 146.77542 225.33664
99.580811 146.77008 225.49248
99.905716 146.88205 226.60687
100.4863 146.87685 226.76001
101.31518 146.75455 225.94998
101.89268 146.74953 226.09911
102.46987 146.74458 226.2466
103.04675 146.7397 226.39244
103.38454 146.85199 227.50064
103.72696 146.96431 228.60838
105.00954 146.60847 225.85492
105.81425 146.48689 225.02785
106.84279 146.24841 223.2316
107.40817 146.24405 223.36537
108.42149 146.00581 221.56247
108.53816 146.23552 223.62811
109.10277 146.23137 223.75714
109.2336 146.46111 225.823
110.01691 146.34015 224.98026
110.37135 146.45305 226.07542
110.73042 146.56598 227.1701
111.30115 146.5621 227.29295
111.87164 146.55829 227.41425
112.23978 146.67136 228.50635
113.01196 146.55084 227.65218
113.38453 146.664 228.74219
114.34622 146.4269 226.9101
114.91319 146.42342 227.02321
115.66992 146.30325 226.15996
116.23407 146.2999 226.26955
116.98312 146.1799 225.40187
117.36177 146.29338 226.48425
117.56487 146.52357 228.54272
118.13312 146.52043 228.64722
118.70117 146.51735 228.75023
118.92316 146.7476 230.80775
119.49572 146.74461 230.90863
120.06812 146.74167 231.00803
120.64035 146.73878 231.10588
121.04915 146.85255 232.18198
121.62349 146.84976 232.27727
122.19765 146.84703 232.37109
123.08364 146.61124 230.50169
123.65266 146.60864 230.59177
124.22155 146.60608 230.68039
125.08773 146.37054 228.80356
125.79779 146.2516 227.90616
126.35901 146.24924 227.9893
126.92008 146.24692 228.07104
127.34198 146.36113 229.13474
127.7686 146.47539 230.19768
128.19992 146.58966 231.25986
128.50417 146.82043 233.30568
129.07671 146.81831 233.38187
129.64915 146.81624 233.4566
130.22147 146.81422 233.52991
131.03796 146.57941 231.63045
131.84468 146.34465 229.72833
132.52435 146.22639 228.80988
133.31398 145.99181 226.90292
133.8689 145.99007 226.96706
134.31364 146.10475 228.01691
134.65549 146.33585 230.05324
135.11212 146.45059 231.10162
135.57349 146.56537 232.14912
136.24045 146.44745 231.21944
136.80449 146.44595 231.27628
137.36845 146.44449 231.3317
137.74596 146.67574 233.36334
138.2238 146.79068 234.40544
138.79478 146.78932 234.45729
139.36568 146.78801 234.50777
139.85295 146.90305 235.54651
140.50728 146.78551 234.60446
140.99925 146.90062 235.64076
141.49597 147.01576 236.67604
142.14529 146.89835 235.72937
142.86127 146.6647 233.79028
143.42935 146.66367 233.83073
144.06407 146.5464 232.87878
144.56534 146.66174 233.90742
145.13326 146.66084 233.9437
145.64165 146.77625 234.97
146.26897 146.65913 234.01202
146.78207 146.77461 235.03583
147.35223 146.77385 235.06665
147.82263 147.00565 237.08002
148.39752 147.00497 237.10829
148.9724 147.00432 237.13516
149.58987 146.88747 236.16833
150.20251 146.77065 235.19991
150.84814 146.53763 233.2374
151.41328 146.53714 233.2583
151.94536 146.65292 234.27052
152.51285 146.65251 234.28877
153.10854 146.53589 233.31281
153.64777 146.65179 234.32109
154.21521 146.65149 234.33522
154.78262 146.65121 234.34792
155.35004 146.65099 234.35927
155.86885 146.99948 237.34853
156.44345 146.99933 237.35721
157.01805 146.99921 237.36452
157.60164 146.88287 236.37723
158.16724 146.99905 237.37491
158.74182 146.99904 237.37804
159.31996 146.7666 235.3933
159.88976 146.76666 235.39362
160.46257 146.883 236.38577
161.02934 146.76689 235.39012
161.59914 146.76706 235.38628
162.18945 146.99973 237.3674
162.77675 147.1162 238.3539
163.33875 147.00024 237.35272
163.93086 147.11679 238.33632
164.50795 147.11716 238.32544
165.10733 147.23378 239.30612
165.68687 147.23421 239.29237
166.26643 147.23468 239.27721
166.81653 147.11894 238.26785
167.42563 147.23573 239.24266
167.93668 147.00381 237.23802
168.54823 147.12067 238.20992
169.16464 147.23758 239.18025
169.78589 147.35454 240.14897
170.36807 147.35527 240.12383
170.99663 147.47231 241.08939
171.53256 147.35686 240.06926
172.21715 147.59026 242.02365
172.85785 147.70743 242.98434
173.44748 147.70837 242.95169
174.0955 147.82564 243.90906
174.7484 147.94295 244.86475
175.27983 147.82773 243.83623
175.87207 147.82883 243.79764
176.53236 147.94629 244.74847
177.12714 147.94748 244.70682
177.72197 147.94872 244.66367
178.31688 147.95 244.61908
178.83423 147.83499 243.58284
179.58693 148.069 245.51546
180.10202 147.95409 244.47646
180.61237 147.8392 243.43642
181.37975 148.07336 245.36342
182.06717 148.19125 246.29892
182.57535 148.07651 245.25468
183.17328 148.07813 245.19806
183.86821 148.19617 246.12843
184.46873 148.19791 246.06863
185.17108 148.31607 246.99532
185.98248 148.55067 248.9077
186.59055 148.55255 248.84261
187.08975 148.4381 247.78882
188.02972 148.78931 250.68175
188.30156 148.44209 247.65157
189.02383 148.56059 248.56706
189.75107 148.67917 249.48044
190.24117 148.56491 248.42012
190.72656 148.45068 247.35886
191.71072 148.80235 250.23741
192.19638 148.68823 249.17307
192.93872 148.8071 250.07689
193.68604 148.92606 250.97853
194.3028 148.92856 250.89401
195.05765 149.04765 251.79153
195.67712 149.05028 251.70355
196.15393 148.93643 250.63113
196.62605 148.82262 249.55782
197.53642 149.05852 251.4301
198.00644 148.94481 250.35399
198.62427 148.94771 250.25842
199.55208 149.18384 252.12332
200.48976 149.42009 253.98506
201.1178 149.42322 253.88312
201.746 149.42639 253.77956
202.3744 149.42964 253.67436
203.00299 149.43295 253.56752
203.12338 149.08632 250.52324
203.91698 149.20639 251.39253
204.54131 149.20985 251.28163
205.16583 149.21338 251.16907
205.96976 149.33369 252.03172
206.96036 149.57083 253.86821
207.59283 149.57458 253.7493
208.22552 149.57843 253.62872
209.04735 149.6991 254.48146
209.87428 149.81987 255.33154
210.31876 149.70712 254.23085
211.15105 149.82808 255.07657
211.98846 149.94913 255.91956
212.83101 150.07027 256.75983
213.47516 150.07465 256.62524
214.32555 150.196 257.46048
215.18109 150.31744 258.29291
215.83093 150.3221 258.15201
216.69438 150.44376 258.97931
217.34724 150.44856 258.83429
218.2186 150.57043 259.65631
218.65385 150.4584 258.53879
219.30762 150.46346 258.38837
220.18726 150.58562 259.20328
220.84409 150.59085 259.04855
221.50125 150.59616 258.89203
221.92584 150.48445 257.76822
222.81659 150.60701 258.57339
223.23695 150.49544 257.44708
224.13327 150.61821 258.24728
224.79214 150.62395 258.08142
225.20619 150.51256 256.95126
225.86333 150.51843 256.78223
227.02106 150.7589 258.53348
227.43129 150.64772 257.3989
228.34706 150.77118 258.18329
229.78317 151.12939 260.88263
230.45456 151.13585 260.70065
231.38879 151.25974 261.47449
232.3284 151.38377 262.24496
233.54074 151.62537 263.96848
234.22369 151.63228 263.77573
234.90706 151.6393 263.5809
235.59088 151.64639 263.38406
236.27518 151.65361 263.18518
236.68011 151.54337 262.03131
237.64508 151.66832 262.7811
238.33073 151.67581 262.57593
239.01686 151.68341 262.36862
239.41376 151.57347 261.20938
240.6828 151.8166 262.89682
241.07816 151.70682 261.73404
242.06345 151.83257 262.46576
242.75452 151.8407 262.24698
244.35269 152.2023 264.86386
244.74759 152.09291 263.69318
245.7524 152.21927 264.41049
246.14337 152.11002 263.237
247.15424 152.23663 263.94821
247.54126 152.12752 262.77185
248.55823 152.25439 263.47687
249.58075 152.38145 264.17789
250.60886 152.50867 264.87491
251.31779 152.51797 264.62949
252.35455 152.64549 265.31921
253.06712 152.65503 265.06818
253.78027 152.66467 264.81482
255.49844 153.02905 267.36356
256.22028 153.03899 267.10263
256.94272 153.04903 266.83932
257.66571 153.05916 266.57358
258.04434 152.95103 265.37421
258.76596 152.9613 265.10449
259.48816 152.97168 264.83228
260.21088 152.98215 264.55759
260.9342 152.99269 264.28046
262.37329 153.24039 265.85339
262.74261 153.1326 264.64392
263.83282 153.26202 265.28253
264.56342 153.27295 264.99332
265.66232 153.40265 265.62381
266.02618 153.29501 264.40714
267.13123 153.42491 265.03046
268.24188 153.55495 265.64911
268.9801 153.56627 265.34491
270.09943 153.69652 265.95523
270.07495 153.47012 263.81268
270.42633 153.36256 262.58679
270.3848 153.13596 260.44659
271.5058 153.26636 261.04648
65.398842 148.47313 219.82948
65.625328 148.58502 221.00706
66.629333 148.45424 220.35599
66.476517 148.68735 222.44685
67.858566 148.43542 220.87387
68.093987 148.54726 222.04709
69.086433 148.41675 221.38309
69.32618 148.52858 222.55417
69.941719 148.5193 222.80443
69.819794 148.75214 224.89601
71.171562 148.50089 223.2986
72.149307 148.37082 222.61873
73.121552 148.24088 221.93477
73.729935 148.23193 222.17238
73.626175 148.46478 224.26135
74.238724 148.4559 224.49677
74.500053 148.56789 225.65871
75.462486 148.43839 224.9613
76.419411 148.30904 224.25992
77.714035 148.05916 222.62311
78.316742 148.05075 222.84534
