ply
format ascii 1.0
comment PCL generated
element vertex 1597
property float x
property float y
property float z
element camera 0
property float view_px
property float view_py
property float view_pz
property float x_axisx
property float x_axisy
property float x_axisz
property float y_axisx
property float y_axisy
property float y_axisz
property float z_axisx
property float z_axisy
property float z_axisz
property float focal
property float scalex
property float scaley
property float centerx
property float centery
property int viewportx
property int viewporty
property float k1
property float k2
end_header
257.12515 191.94972 266.59995
258.53793 192.46498 268.14017
258.94885 192.23544 266.95007
260.37494 192.75102 268.48053
260.78387 192.52141 267.28644
261.87817 192.78873 267.90192
262.63016 192.8075 267.60886
263.38239 192.82623 267.31326
263.7821 192.59613 266.11313
264.53214 192.61462 265.81357
265.28229 192.633 265.51154
265.31195 192.1534 263.409
266.7829 192.66931 264.89999
267.89868 192.93628 265.48749
269.01956 193.20317 266.0704
270.14548 193.46997 266.64877
271.64944 193.98587 268.1163
272.41229 194.00316 267.79178
273.17496 194.02017 267.46484
274.69873 194.53564 268.91644
275.08276 194.30267 267.69318
277.00436 195.06717 270.02274
276.22284 194.08475 266.13345
278.15625 194.84869 268.45276
278.13763 194.3642 266.33878
62.446083 181.43396 218.33989
62.677956 181.67462 219.50485
64.081932 181.15941 218.01157
63.544601 181.90271 220.94868
64.557999 181.63861 220.33682
64.804153 181.87753 221.49994
64.676903 182.36765 223.554
65.312454 182.35417 223.82695
66.321846 182.08899 223.20517
66.955215 182.07507 223.47307
67.957291 181.80959 222.84407
68.954384 181.54401 222.21092
69.582932 181.52963 222.47072
70.211487 181.51506 222.72847
71.198502 181.24924 222.08507
71.824463 181.23448 222.33772
72.450363 181.2196 222.58833
74.128761 180.45178 220.13037
74.746841 180.43692 220.37389
76.056381 179.92033 218.80704
77.012367 179.65471 218.13937
77.96312 179.38916 217.46771
77.893982 179.87566 219.51338
78.170441 180.11128 220.65279
78.451714 180.3468 221.7921
79.068436 180.33173 222.0213
79.684898 180.31667 222.24846
80.301094 180.30162 222.47357
80.917 180.28662 222.69666
81.853134 180.02145 222.0041
82.147934 180.25674 223.13672
83.393906 179.7417 221.5229
84.629478 179.22696 219.90356
85.233772 179.21246 220.11301
85.837753 179.19804 220.32043
86.746811 178.93384 219.60703
87.044708 179.16943 220.7294
86.746529 179.90445 223.69254
87.058807 180.13986 224.81598
86.785042 180.8745 227.78345
87.697388 180.61066 227.06178
88.894714 180.09753 225.41267
90.081665 179.58475 223.75838
90.972893 179.3217 223.02437
92.707283 178.31088 219.50827
93.019615 178.547 220.6189
93.614433 178.53391 220.80142
94.484245 178.27177 220.05357
95.348709 178.00986 219.30234
95.667145 178.24631 220.40771
96.258072 178.23376 220.582
97.379387 177.72343 218.89153
97.964645 177.71126 219.06067
98.809952 177.45036 218.2951
99.134155 177.68729 219.39348
99.718399 177.67551 219.55717
100.30231 177.66385 219.71907
100.63545 177.90097 220.81485
101.22119 177.88954 220.97385
102.05209 177.6297 220.19405
102.6347 177.61858 220.34879
102.73595 178.10452 222.3784
103.32289 178.09358 222.53091
104.14508 177.83443 221.7421
104.49582 178.07214 222.83067
105.31244 177.81335 222.03709
106.12382 177.55478 221.24051
106.92996 177.29643 220.44098
107.28444 177.53461 221.52386
107.86431 177.52472 221.66298
108.22562 177.76305 222.7442
108.59158 178.00142 223.82487
108.96217 178.23985 224.90503
109.7592 177.98245 224.09349
110.34261 177.97318 224.22525
111.1317 177.71617 223.40866
111.3051 178.20287 225.43088
112.29225 177.69836 223.66267
112.67355 177.93742 224.73541
113.25565 177.92882 224.8588
114.22485 177.42499 223.08194
114.80155 177.41673 223.20099
115.37801 177.40858 223.31837
116.14055 177.15302 222.48337
116.34634 177.64026 224.49959
116.74313 177.87999 225.56435
117.6815 177.37735 223.77177
118.25682 177.36987 223.88109
118.65785 177.60992 224.94193
119.23518 177.60266 225.04849
119.64313 177.84286 226.1075
119.88901 178.33047 228.12027
120.14447 178.81808 230.13315
120.7332 178.81119 230.23547
121.48116 178.55714 229.38039
122.22403 178.30331 228.5229
122.96184 178.04964 227.66298
123.99876 177.30183 224.88678
124.57191 177.2957 224.97871
125.1449 177.28969 225.06909
125.57294 177.53087 226.11601
126.00568 177.77213 227.16216
126.58302 177.7664 227.24863
127.02275 178.00781 228.29274
127.46719 178.2493 229.33603
128.04893 178.24388 229.41852
128.50037 178.48553 230.45972
129.21198 178.2334 229.57886
129.91858 177.98145 228.69582
130.62018 177.72964 227.81058
131.43723 177.23112 225.96164
132.2444 176.73282 224.10997
132.57942 177.22194 226.10414
133.37663 176.72391 224.24825
133.94257 176.71962 224.31516
134.40009 176.96219 225.34358
134.96822 176.9581 225.40778
135.53622 176.9541 225.4705
135.7001 177.93706 229.38698
136.2776 177.93323 229.44775
136.75885 178.17616 230.47134
137.24484 178.41917 231.49391
137.73558 178.66225 232.51541
138.49771 178.16553 230.64084
138.99069 178.4088 231.65956
139.48842 178.65216 232.67725
140.07253 178.64899 232.72812
140.65654 178.64594 232.77753
141.24046 178.64297 232.82541
141.97299 178.147 230.93924
142.48001 178.39082 231.95021
143.06129 178.38818 231.99341
143.57542 178.63217 233.00192
144.22363 178.38321 232.07532
144.74249 178.62737 233.08118
145.44554 178.13213 231.18398
145.96667 178.37648 232.18701
146.54758 178.37442 232.22127
147.07587 178.61896 233.22176
147.70921 178.37064 232.28532
148.24225 178.61533 233.28308
148.82536 178.61365 233.31151
149.49417 178.1192 231.40204
150.03192 178.36417 232.3956
150.57446 178.60922 233.38791
151.12181 178.85437 234.37891
151.67395 179.09958 235.36858
152.26169 179.09848 235.38826
152.84938 179.09749 235.40648
153.43706 179.09657 235.42317
154.04823 178.84937 234.46948
154.63345 178.84865 234.48317
155.18129 179.34082 236.4333
155.7713 179.34027 236.44406
156.33362 179.83264 238.39149
156.91702 180.07869 239.36845
157.53229 179.58565 237.43655
158.12469 179.58549 237.44135
158.72127 179.33905 236.47551
159.313 179.09271 235.50815
159.90057 179.09285 235.50844
160.49123 179.33946 236.47641
161.08122 179.33978 236.47371
161.67914 179.58661 237.43866
162.27159 179.58713 237.43297
162.86404 179.58774 237.42575
163.45651 179.58844 237.41701
164.0666 179.83565 238.37579
164.66153 179.83655 238.36404
165.2565 179.83755 238.35074
165.85149 179.83865 238.33597
166.44652 179.83984 238.31967
167.07126 180.08755 239.27054
167.66878 180.08896 239.25114
168.26633 180.09045 239.23021
168.82698 179.84558 238.23929
169.34349 179.35437 236.2787
169.89214 179.10968 235.28526
170.3918 178.61859 233.32239
171.06831 179.11348 235.23061
171.75455 179.60851 237.13684
172.55345 180.59665 240.97662
173.26402 181.09195 242.87849
173.98434 181.58739 244.77829
174.6557 181.83646 245.70859
175.27083 181.83911 245.66977
175.75888 181.3488 243.69533
176.30333 181.1051 242.68681
176.97983 181.3546 243.6105
177.51959 181.11108 242.59921
178.05458 180.86765 241.58672
178.66051 180.87088 241.5392
179.26653 180.87424 241.49011
179.87263 180.87769 241.43945
180.47884 180.88126 241.38724
181.17052 181.13159 242.29875
181.86716 181.38205 243.2083
182.47853 181.38597 243.15088
183.09001 181.39 243.09189
183.79669 181.64087 243.99573
184.50835 181.89186 244.89746
185.22498 182.14302 245.79707
185.94658 182.39433 246.6946
186.77798 182.89258 248.55331
187.29755 182.65059 247.52
187.92204 182.65549 247.44838
188.43459 182.41368 246.41261
189.17146 182.66568 247.30031
189.67944 182.42406 246.2618
190.30209 182.42943 246.18393
190.9249 182.43492 246.1044
191.54785 182.44052 246.02321
192.17099 182.44627 245.9404
192.53603 181.95811 243.93512
193.15462 181.96405 243.84964
193.90736 182.21715 244.72217
194.52873 182.22336 244.63304
195.42801 182.72388 246.46017
196.33722 183.22464 248.28421
197.11264 183.47847 249.14682
198.03931 183.97968 250.96484
198.6787 183.98669 250.86461
199.3183 183.99387 250.76266
199.8046 183.75391 249.70224
200.44217 183.76129 249.59717
200.76318 183.27422 247.5786
201.55713 183.52917 248.42636
202.51949 184.03171 250.22659
203.32613 184.28709 251.06876
204.13791 184.54268 251.90826
204.9548 184.79848 252.7451
205.43071 184.55948 251.67264
206.07748 184.56808 251.55209
206.72452 184.57684 251.42978
207.73267 185.08093 253.20947
208.56799 185.33769 254.034
209.40851 185.59467 254.85574
210.25421 185.85184 255.67461
210.91487 185.86151 255.5407
211.3831 185.62357 254.45541
211.84673 185.3857 253.36928
212.30571 185.14789 252.28229
212.96016 185.15808 252.1424
213.81744 185.41632 252.94797
214.47496 185.42683 252.80374
215.1328 185.4375 252.65764
216.42073 186.19247 255.34679
217.299 186.45166 256.14032
218.18253 186.71111 256.93079
219.07133 186.97078 257.71811
220.18521 187.47891 259.44574
220.64252 187.24263 258.34048
221.54472 187.50301 259.1189
222.22501 187.51529 258.95245
222.67598 187.27936 257.84296
223.12236 187.0435 256.73267
223.56415 186.80769 255.62157
224.23848 186.8205 255.44885
224.67358 186.58488 254.33562
226.07246 187.34384 256.97305
226.75291 187.35724 256.79291
227.6808 187.61951 257.54718
228.86362 188.13083 259.23395
230.05676 188.64249 260.91583
230.49673 188.4079 259.78937
231.44615 188.67122 260.52975
232.14148 188.68584 260.3335
232.5752 188.45157 259.20267
233.53336 188.71555 259.93445
234.22992 188.73062 259.73163
234.92694 188.74586 259.52664
235.89636 189.01051 260.2489
236.32224 188.77681 259.11002
237.29752 189.04187 259.82635
238.27826 189.30721 260.53894
238.98242 189.3233 260.32126
239.40254 189.09003 259.17575
240.39209 189.35594 259.87918
241.09758 189.37247 259.65472
242.38757 189.88855 261.27444
243.68808 190.40498 262.88861
244.99905 190.9218 264.49713
246.32056 191.43896 266.10004
246.74623 191.20665 264.93744
247.1673 190.9743 263.77411
247.58377 190.74197 262.61014
248.30527 190.75974 262.36285
249.33939 191.02777 263.02963
250.37895 191.29605 263.69229
251.74123 191.81485 265.26547
252.79422 192.08357 265.91879
254.17497 192.60295 267.4808
255.24139 192.87212 268.12469
255.98587 192.89087 267.85318
256.73071 192.90965 267.57922
257.47589 192.92847 267.30273
258.55637 193.19806 267.93204
259.30469 193.21695 267.64963
260.73343 193.73764 269.17737
261.48743 193.75662 268.88803
262.24164 193.77554 268.59613
262.64844 193.54332 267.39838
263.75079 193.81322 268.00485
263.80017 193.32951 265.90277
264.55008 193.34799 265.60291
264.94226 193.11501 264.40125
265.68985 193.13315 264.09747
266.80038 193.40262 264.68851
267.55057 193.42047 264.37885
268.66876 193.68973 264.96188
269.79193 193.95886 265.54034
271.29321 194.47958 267.00729
272.42883 194.74847 267.57556
273.56937 195.01717 268.13928
275.09543 195.53751 269.58813
275.48157 195.30193 268.36435
277.40546 196.07375 270.69049
277.01416 195.33328 267.68927
278.56146 195.85242 269.11877
278.5448 195.36278 267.00507
62.435806 182.04572 218.1601
63.450058 181.78046 217.5556
64.45977 181.51486 216.94707
63.53302 182.52005 220.76756
64.54612 182.25363 220.15649
64.410568 182.74933 222.20782
63.906647 183.49857 225.15158
64.546951 183.48511 225.42686
65.934937 182.9635 223.916
66.94178 182.69574 223.29201
67.943703 182.42786 222.66386
69.672897 181.65228 220.24106
70.296196 181.63808 220.49893
71.280571 181.37003 219.85747
72.259895 181.10193 219.2119
72.878128 181.08737 219.4617
73.496307 181.07269 219.7095
74.465332 180.80449 219.05383
75.080803 180.78967 219.29659
76.387863 180.26819 217.73044
77.341324 180.00011 217.06274
78.289543 179.73212 216.3911
77.879463 180.47673 219.34099
78.491577 180.46173 219.57263
78.437057 180.95274 221.6188
79.053764 180.93762 221.84831
79.342087 181.17538 222.98589
79.960823 181.16022 223.2122
80.902382 180.89233 222.52449
81.838615 180.6246 221.83295
82.1334 180.86229 222.96513
83.379532 180.34219 221.35303
84.928307 179.56989 218.81979
85.840645 179.30292 218.1122
86.131668 179.54091 219.2355
87.343819 179.02187 217.60405
87.333755 179.51222 219.6433
87.032967 180.25464 222.60382
87.342789 180.49246 223.72598
87.066406 181.23448 226.6909
87.97641 180.96811 225.96938
88.881042 180.70195 225.24426
90.068207 180.18408 223.59161
90.674202 180.17029 223.78331
92.411415 179.14941 220.27103
93.006706 179.13608 220.45572
93.601631 179.12286 220.63855
94.19622 179.10976 220.81944
95.063354 178.8452 220.06992
95.925156 178.58089 219.31702
96.781631 178.31679 218.56078
97.632767 178.05293 217.80124
98.478584 177.78931 217.03841
99.058655 177.77724 217.20456
99.122482 178.26782 219.23476
99.706863 178.25591 219.3987
100.29091 178.24413 219.56082
100.62415 178.4836 220.65614
100.96201 178.72311 221.75104
102.28661 177.95857 219.10017
102.62383 178.19836 220.19153
102.96569 178.43817 221.28235
103.55028 178.42717 221.43448
104.60579 177.91464 219.70699
104.71852 178.40556 221.73341
105.53285 178.14423 220.94009
106.11375 178.1338 221.08456
106.92006 177.87288 220.28593
107.27464 178.11339 221.36835
108.07543 177.85283 220.56509
108.65268 177.84302 220.70213
109.01379 178.08382 221.7812
109.16617 178.57512 223.80408
109.74998 178.56558 223.93771
110.12505 178.80655 225.01512
110.91678 178.54694 224.19994
111.29624 178.78809 225.27502
112.2836 178.27858 223.50833
112.86362 178.26978 223.63304
113.4434 178.26108 223.75606
114.21664 178.00241 222.9288
114.98472 177.74393 222.09888
115.37004 177.98579 223.1656
116.13274 177.72765 222.33142
116.52249 177.96971 223.39589
116.91693 178.21182 224.45969
117.67404 177.95413 223.61966
118.07294 178.19646 224.68118
118.6506 178.18896 224.78951
119.05641 178.43143 225.84917
119.6361 178.42416 225.95474
119.88205 178.91658 227.96637
120.13757 179.40898 229.9781
120.88832 179.15227 229.12589
121.63398 178.89572 228.27119
122.21756 178.88904 228.3696
123.11008 178.38319 226.55453
123.99265 177.87759 224.73631
124.41624 178.12094 225.7851
124.99178 178.11482 225.87598
125.56714 178.10883 225.96532
125.8576 178.60193 227.9688
126.43752 178.59613 228.05576
127.01726 178.59042 228.14114
127.32672 179.08371 230.14282
127.91103 179.07819 230.22577
128.36497 179.32219 231.2668
128.95142 179.31688 231.34698
129.66301 179.06236 230.46532
130.3696 178.80798 229.58147
131.19165 178.30447 227.73453
132.00385 177.80116 225.88483
132.4594 178.04581 226.91692
133.37234 177.29356 224.10089
133.82764 177.53844 225.12999
134.39598 177.53416 225.19577
134.85834 177.77921 226.22272
135.42888 177.77515 226.2858
135.69624 178.51865 229.23691
136.27385 178.51474 229.29779
136.85135 178.51096 229.35713
137.42874 178.50726 229.41499
137.91473 178.75278 230.43547
138.58325 178.5002 229.52615
139.07388 178.7459 230.54411
139.48524 179.24069 232.52583
140.06944 179.23749 232.5768
140.73276 178.98537 231.66104
141.23759 179.23138 232.67421
141.89589 178.97949 231.75504
142.40543 179.22571 232.76561
142.98923 179.22301 232.80904
143.50587 179.46938 233.81715
144.15662 179.21793 232.8914
144.67796 179.46448 233.89685
145.32375 179.21326 232.96777
145.90721 179.21106 233.00371
146.49063 179.20898 233.03813
147.02142 179.4559 234.03821
147.70743 178.95619 232.1353
148.24055 179.20331 233.13252
148.77847 179.4505 234.12846
149.40694 179.20003 233.18796
149.9496 179.4474 234.18115
150.53511 179.446 234.20526
151.08496 179.69354 235.19576
151.67282 179.69232 235.21696
152.29143 179.44235 234.2686
152.8768 179.44135 234.28677
153.46216 179.44041 234.30341
154.07101 179.19075 233.35031
154.6328 179.43887 234.33223
155.18073 179.93591 236.28116
155.75456 180.1842 237.26038
156.3194 180.68143 239.20659
156.9053 180.9299 240.18297
157.51408 180.68082 239.22084
158.1114 180.68066 239.22571
158.71709 180.18295 237.29196
159.31134 179.93417 236.32523
159.90076 179.68547 235.35698
160.49152 179.93454 236.32433
161.0816 179.93488 236.32162
161.67963 180.18411 237.28593
162.27216 180.18465 237.28021
162.85196 179.93643 236.30452
163.44211 179.93715 236.29584
164.04987 180.1868 237.25403
164.66249 180.43655 238.2106
165.27998 180.68643 239.1656
165.90234 180.9364 240.11896
166.50229 180.93762 240.10249
167.13197 181.18782 241.0526
167.73442 181.18924 241.03297
168.26787 180.69301 239.07603
168.86555 180.69463 239.05356
169.38457 180.19855 237.09409
169.93573 179.95145 236.10112
170.4379 179.45552 234.13934
171.11693 179.95532 236.04614
171.80571 180.45526 237.95096
172.55571 181.20427 240.82089
173.2664 181.7045 242.72151
173.93053 181.9559 243.65311
174.59958 182.20744 244.58286
175.27353 182.45911 245.51074
175.82526 182.21292 244.50389
176.37221 181.96683 243.4958
177.05125 182.21884 244.41864
177.52267 181.72391 242.44183
178.05777 181.47809 241.4299
178.5881 181.23233 240.41679
179.26991 181.48477 241.33313
179.95667 181.73734 242.24751
180.5654 181.74097 242.19502
181.25964 181.99382 243.10564
181.95883 182.2468 244.01425
182.57274 182.25079 243.95653
183.0014 181.75659 241.96916
183.80089 182.25911 243.8363
184.41513 182.26344 243.7738
185.12947 182.51709 244.67297
185.84879 182.77089 245.56999
186.78271 183.52332 248.39038
187.40962 183.5282 248.32007
188.14635 183.78247 249.2103
188.66385 183.53833 248.17444
189.52026 184.04221 250.02245
189.91867 183.54893 248.02226
190.4269 183.30505 246.98262
190.93042 183.06128 245.94197
191.5535 183.06697 245.86066
192.05003 182.82336 244.81763
192.41272 182.33038 242.81387
193.16058 182.58585 243.68799
194.04749 183.09097 245.51881
194.67142 183.09729 245.4292
195.29553 183.10373 245.33788
196.34381 183.85904 248.11885
197.11938 184.11542 248.98068
198.04623 184.6216 250.79726
198.83441 184.87839 251.65376
199.47656 184.88567 251.55124
200.11896 184.8931 251.44699
200.60556 184.65091 250.3853
200.92911 184.15906 248.36743
201.88654 184.66641 250.16882
202.69066 184.92419 251.01236
203.49991 185.18216 251.85326
204.3143 185.44034 252.69148
204.96317 185.44882 252.57396
205.43919 185.20749 251.50197
206.26166 185.46619 252.33347
206.91129 185.4751 252.21051
207.92209 185.98425 253.98822
208.94298 186.49371 255.76222
209.78857 186.75333 256.58212
210.45155 186.76302 256.44937
210.92453 186.52264 255.36542
211.58562 186.53259 255.2294
211.85663 186.04218 253.1949
212.71103 186.30266 254.00391
213.17044 186.06268 252.91548
214.03036 186.32358 253.71965
214.69051 186.33426 253.57468
215.35095 186.34511 253.42778
216.22169 186.60663 254.22404
217.31012 187.11893 255.96175
218.19385 187.38097 256.75131
219.30023 187.89389 258.48111
220.41684 188.40715 260.2066
221.32135 188.67001 260.98553
221.7816 188.43161 259.87805
222.46452 188.44409 259.71072
222.68832 187.95502 257.66061
223.36703 187.96774 257.49048
223.81143 187.72968 256.37918
224.25122 187.49167 255.26707
224.9261 187.50479 255.09207
226.08563 188.02026 256.78937
226.76624 188.03381 256.60895
227.69434 188.29869 257.36227
228.87741 188.81509 259.04739
230.07082 189.33188 260.72763
231.02003 189.59767 261.46921
231.97464 189.86371 262.20721
232.67509 189.8786 262.00925
233.11392 189.64212 260.87735
233.54819 189.4057 259.74475
234.51195 189.67255 260.47186
234.67252 189.18466 258.40677
235.63965 189.4519 259.12878
236.06311 189.21581 257.99103
237.0361 189.48344 258.70712
238.29407 190.00323 260.34592
238.99838 190.01949 260.12793
239.70314 190.03589 259.90771
240.69539 190.3045 260.60934
241.4035 190.32123 260.38373
242.69626 190.84247 262.00092
244.29413 191.61633 264.53427
245.31326 191.88605 265.21854
246.33784 192.15601 265.89877
247.3679 192.42621 266.57495
247.18469 191.68665 263.57355
247.60118 191.45195 262.40991
248.32277 191.46982 262.16226
249.04477 191.48779 261.91226
250.08194 191.75861 262.57471
251.7592 192.53523 265.06104
252.81232 192.80655 265.71332
254.19324 193.33099 267.27356
255.25977 193.60274 267.91638
256.00427 193.62158 267.64453
256.41916 193.38733 266.46078
257.1618 193.40613 266.18491
258.57483 193.93149 267.72165
259.66074 194.20377 268.34546
260.75198 194.47612 268.96484
261.16327 194.2417 267.77054
261.91492 194.26059 267.47931
262.31906 194.02585 266.28299
263.06854 194.04453 265.98776
263.81821 194.06314 265.69012
264.56799 194.0816 265.38998
265.31787 194.09995 265.08737
266.06784 194.1181 264.78232
267.18079 194.39006 265.37131
267.93332 194.40793 265.06033
268.68579 194.42557 264.74695
269.43817 194.44296 264.43112
270.93674 194.96848 265.89746
272.44528 195.49391 267.35712
273.58551 195.76494 267.91989
275.1113 196.29007 269.36716
276.26361 196.56064 269.91974
277.42059 196.83089 270.46777
276.64035 195.82823 266.58301
277.79379 196.09749 267.12759
278.16486 195.85712 265.90094
63.213768 182.14377 216.21352
64.222565 181.87637 215.60751
64.837906 181.86536 215.88226
63.908058 182.88072 219.69876
64.918297 182.61208 219.0874
64.779762 183.11296 221.13628
64.27285 183.86984 224.07681
64.910324 183.85661 224.35115
66.295601 183.3302 222.84079
66.557205 183.57291 224.0015
67.561462 183.30258 223.37534
68.926979 182.77588 221.85049
69.918785 182.50542 221.21507
70.905594 182.23486 220.57553
71.887344 181.96429 219.93196
73.22007 181.43764 218.3856
73.835594 181.42305 218.6326
75.153023 180.89651 217.07614
75.414886 181.1377 218.21886
76.373528 180.86708 217.55614
77.67038 180.34077 215.98569
78.616081 180.07036 215.31407
77.864929 181.07805 219.16672
78.812805 180.8075 218.49203
78.755608 181.30348 220.5361
78.708313 181.79922 222.58191
79.327316 181.784 222.81055
80.271744 181.51346 222.1268
80.887711 181.49832 222.35045
82.144661 180.97287 220.74771
82.436897 181.21303 221.87859
83.680679 180.68796 220.26729
85.540245 179.65318 216.82072
85.826546 179.89362 217.94383
86.425613 179.87914 218.15012
87.329903 179.60989 217.43697
87.62281 179.85037 218.55678
87.018921 180.85486 222.43376
87.626747 180.84045 222.63556
87.938744 181.08072 223.75621
88.841377 180.81192 223.03323
89.448166 180.79781 223.22913
90.630539 180.27499 221.57655
90.946175 180.51553 222.69098
92.39827 179.73895 220.10577
92.713219 179.97972 221.21635
93.310776 179.96632 221.40019
94.183426 179.69894 220.65501
95.323692 179.17773 218.97855
96.183167 178.91086 218.22586
97.037308 178.64423 217.46983
97.886124 178.37784 216.71053
98.466644 178.36549 216.87874
98.786362 178.60709 217.97665
98.852707 179.10246 220.00645
99.439697 179.09036 220.17134
99.773346 179.33205 221.26804
100.11162 179.57376 222.36429
100.70259 179.56198 222.52512
102.02995 178.78986 219.8772
102.36974 179.03194 220.96873
102.71416 179.27406 222.05983
103.30137 179.26288 222.2128
104.35957 178.74524 220.48755
104.70802 178.98767 221.5746
105.52254 178.72374 220.78215
106.33179 178.46005 219.98679
107.13582 178.19656 219.18842
107.48801 178.43948 220.26981
107.84485 178.68243 221.35066
108.4247 178.67245 221.48849
108.78838 178.91556 222.56769
109.1567 179.15872 223.64633
109.74065 179.14906 223.78018
110.32432 179.13954 223.91232
110.90771 179.13019 224.0428
111.49084 179.12094 224.1716
112.27484 178.85913 223.35225
112.855 178.8502 223.47713
113.23869 179.09406 224.54782
114.01456 178.83278 223.72192
114.59396 178.82426 223.84184
115.36197 178.56335 223.01112
115.93845 178.55515 223.12724
116.69862 178.29459 222.29175
117.0907 178.53911 223.35461
117.84552 178.2789 222.51494
118.06547 178.77594 224.52689
118.81741 178.51602 223.68352
119.04916 179.01318 225.69453
119.45973 179.25809 226.75302
119.875 179.50304 227.81073
120.4593 179.49586 227.91411
121.0434 179.48883 228.01588
121.6273 179.48192 228.11603
122.21101 179.47513 228.2146
122.94911 179.21638 227.35626
123.83429 178.70575 225.53986
124.11072 179.20348 227.54459
124.83852 178.94521 226.67992
125.27161 179.19107 227.72661
125.85179 179.18506 227.81525
126.43182 179.17915 227.9023
127.14919 178.92148 227.02989
127.72646 178.91583 227.11351
128.30356 178.91031 227.19554
128.88052 178.90491 227.27603
129.32956 179.15144 228.3143
130.034 178.89445 227.43242
130.6105 178.8894 227.50832
131.18689 178.88446 227.58267
131.88118 178.62791 226.69492
132.45488 178.62321 226.7659
133.14162 178.36694 225.87421
133.60187 178.61417 226.90335
134.28349 178.35815 226.00807
134.85426 178.35391 226.07272
135.42491 178.34979 226.13593
135.69234 179.10057 229.08519
136.17143 179.34821 230.10893
136.75146 179.34433 230.16862
137.23764 179.59212 231.19008
137.91122 179.33693 230.28345
138.57986 179.08185 229.37482
139.07059 179.32994 230.39221
139.48203 179.82959 232.37276
140.06633 179.82634 232.4238
140.65054 179.82318 232.47333
141.23468 179.82014 232.52135
141.96745 179.31433 230.63785
142.54659 179.31151 230.68245
143.12564 179.30881 230.7256
143.63754 179.5576 231.73279
144.15421 179.80649 232.73883
144.67564 180.05545 233.74368
145.32153 179.80173 232.81528
145.79028 180.30225 234.78365
146.43362 180.04875 233.85208
147.0195 180.04672 233.88524
147.65549 179.79346 232.95024
148.23883 179.79166 232.98027
148.82214 179.78992 233.00874
149.40541 179.7883 233.03577
149.94817 180.0381 234.02838
150.53377 180.03668 234.05254
151.11934 180.03535 234.07518
151.70488 180.03412 234.09631
152.32117 179.78169 233.14853
152.87585 180.03195 234.13412
153.43536 180.28229 235.11835
154.04674 180.03018 234.16597
154.58992 180.532 236.11504
155.18015 180.53136 236.12735
155.73782 181.03336 238.07372
156.319 181.28416 239.0509
156.89359 181.78635 240.99449
157.50487 181.53484 240.03308
158.09154 182.0372 241.97371
158.70457 181.53461 240.04129
159.30617 181.28339 239.07521
159.90361 181.28351 239.07549
160.49796 181.03249 238.10635
161.08199 180.53027 236.16785
161.67218 180.53072 236.16364
162.26241 180.53125 236.15796
162.83987 180.28059 235.18289
163.4277 180.28131 235.17422
164.06833 181.036 238.06732
164.66347 181.03693 238.05553
165.30348 181.54054 239.97749
165.92836 181.79297 240.93015
166.53084 181.79422 240.91357
167.16304 182.04688 241.86295
167.76802 182.04832 241.84325
168.30396 181.54724 239.88742
168.86722 181.29756 238.89763
169.42569 181.04796 237.90646
169.89577 180.29578 234.98003
170.43982 180.04633 233.9865
171.11897 180.55106 235.89198
171.80786 181.05589 237.79546
172.45503 181.30951 238.73044
173.2149 182.06602 241.59639
173.87672 182.3199 242.52742
174.54346 182.5739 243.45665
175.15395 182.57663 243.41805
175.76451 182.57944 243.37788
176.37515 182.58238 243.33615
177.05431 182.83687 244.25829
177.66753 182.84003 244.21321
178.20757 182.59183 243.20149
178.74283 182.34369 242.18852
179.35149 182.34717 242.13913
180.04079 182.60225 243.0526
180.4861 182.10289 241.07124
181.26343 182.60976 242.94543
181.87491 182.61368 242.88947
182.57677 182.86929 243.7955
183.00551 182.37027 241.80934
183.80513 182.87772 243.67509
184.41949 182.88211 243.6125
185.23395 183.38992 245.47357
185.75101 183.14291 244.44485
186.78751 184.15442 248.22559
187.5218 184.41107 249.11703
188.1514 184.41617 249.04469
188.66901 184.16965 248.00938
189.41103 184.42673 248.89499
189.80707 183.92862 246.89627
190.31297 183.68237 245.85747
190.81415 183.43619 244.81766
191.55922 183.69379 245.69629
192.18259 183.69968 245.6132
192.67696 183.45381 244.56938
193.42982 183.71185 245.44205
194.18774 183.97006 246.31236
194.67776 183.72455 245.26419
195.302 183.73108 245.17273
196.20912 184.24179 246.99428
196.98242 184.50067 247.85567
198.05325 185.26392 250.62782
198.84157 185.52325 251.48347
199.18164 185.02637 249.46919
199.97284 185.28601 250.321
200.30112 184.78928 248.30519
200.77829 184.54477 247.24388
201.57257 184.80484 248.09003
202.69865 185.56967 250.84113
203.50809 185.83023 251.68121
204.32265 186.09097 252.51865
204.97165 186.09956 252.40091
205.62091 186.10829 252.28139
206.44601 186.36961 253.11159
207.09824 186.37868 252.98795
207.93123 186.6404 253.81313
209.13525 187.40744 256.53574
209.79811 187.41708 256.40466
210.27338 187.17427 255.32251
210.93433 187.1842 255.18817
211.4028 186.94159 254.10379
211.86664 186.69907 253.01857
212.72125 186.96214 253.82671
213.38092 186.97266 253.6853
213.83827 186.73047 252.59593
214.49609 186.74124 252.45128
215.15424 186.7522 252.3047
216.23271 187.26923 254.04501
217.32138 187.78661 255.78117
218.20532 188.05125 256.56979
219.74677 189.07544 260.18341
220.86856 189.59387 261.90613
221.55588 189.60625 261.74142
222.24353 189.6188 261.57468
222.93158 189.63153 261.40588
222.93063 188.88445 258.41595
223.37971 188.64398 257.30585
223.82422 188.40359 256.19495
224.26413 188.16328 255.08325
224.93915 188.17654 254.90794
226.09894 188.69711 256.60364
227.02438 188.96442 257.35876
227.70801 188.97832 257.17529
228.64169 189.24609 257.92422
230.08501 190.0217 260.53732
230.77982 190.03629 260.34479
232.24637 190.81267 262.94736
232.94948 190.82776 262.74838
233.653 190.84299 262.54718
234.09235 190.60437 261.41348
235.06133 190.87396 262.13815
235.22693 190.38138 260.07263
235.92717 190.39714 259.86407
236.62782 190.41306 259.65326
237.606 190.68341 260.36676
238.58963 190.95407 261.07654
239.2966 190.97052 260.85745
240.2886 191.24161 261.56033
240.71181 191.00386 260.41245
241.42006 191.02072 260.18652
242.71306 191.54707 261.80197
244.01654 192.07379 263.41183
245.03333 192.34607 264.09589
246.35526 192.87344 265.69525
247.3855 193.14626 266.37039
247.50694 192.65436 264.28842
248.23325 192.67239 264.04108
248.65018 192.43541 262.8754
249.37479 192.45355 262.62415
249.78494 192.21655 261.45633
251.4599 193.00067 263.94104
251.8708 192.76379 262.76837
253.24431 193.29311 264.32956
253.97836 193.31175 264.06354
255.36775 193.84152 265.61429
256.10754 193.86034 265.34149
256.84769 193.87917 265.06625
258.2583 194.40948 266.60214
259.00403 194.42841 266.32001
259.75006 194.4473 266.03537
260.49634 194.46616 265.74832
261.58807 194.74097 266.36169
261.98953 194.50368 265.16675
262.73639 194.52231 264.87225
263.83624 194.797 265.47519
264.58588 194.81544 265.17477
264.97766 194.57742 263.97403
266.08539 194.85187 264.56659
267.19821 195.12625 265.1546
267.9505 195.14404 264.84341
268.33463 194.90501 263.63608
269.08423 194.92224 263.32114
270.20685 195.19586 263.89536
271.71008 195.72601 265.3555
273.22321 196.25603 266.80893
274.74619 196.78589 268.25568
275.8956 197.05869 268.80853
277.43555 197.58807 270.24286
276.65457 196.57523 266.36093
277.80759 196.84671 266.90475
278.17807 196.60355 265.67877
63.598137 182.49121 215.14993
64.603981 182.22163 214.54353
65.216362 182.21092 214.8172
64.283394 183.23648 218.62967
64.90683 183.22473 218.90424
65.149261 183.47168 220.06433
65.018204 183.9772 222.11322
65.273941 184.22324 223.27504
66.282654 183.95099 222.65585
66.543945 184.19629 223.81595
67.548027 183.9236 223.19066
68.913391 183.39203 221.66751
69.90506 183.11916 221.03299
70.891724 182.84622 220.39441
72.590652 182.05603 217.95784
73.562172 181.78311 217.3091
74.52861 181.51015 216.6563
75.840973 180.97879 215.09952
76.09761 181.2226 216.23973
76.705185 181.20792 216.478
77.656097 180.93494 215.81126
78.260887 180.92017 216.04454
77.850365 181.67963 218.99059
78.46241 181.66458 219.22276
78.740921 181.9075 220.35979
78.693497 182.40816 222.40439
79.640762 182.13503 221.72462
80.256989 182.11981 221.95059
81.19619 181.84689 221.26396
81.809372 181.83177 221.48494
82.422279 181.8167 221.7039
83.034904 181.80165 221.92084
84.899788 180.75674 218.47923
85.191124 180.99945 219.60362
85.48719 181.24211 220.72781
86.70472 180.71284 219.10153
87.305748 180.69835 219.30502
87.004776 181.45544 222.26186
87.910728 181.18381 221.54466
88.220253 181.4265 222.66403
89.120522 181.15518 221.94127
89.724915 181.14101 222.1366
90.904976 180.61319 220.48497
90.932655 181.11298 222.52147
92.385025 180.32884 219.93867
92.700027 180.57198 221.04881
93.297684 180.55846 221.23294
94.170509 180.28848 220.48874
95.037987 180.01872 219.74112
95.900131 179.74921 218.99016
96.756943 179.47992 218.23582
97.608429 179.21088 217.4782
98.454597 178.94205 216.71727
98.774384 179.18599 217.81476
98.840759 179.68619 219.84341
99.427887 179.67395 220.00854
99.761597 179.918 221.10483
100.35054 179.90601 221.26704
100.93916 179.89413 221.42744
102.01871 179.3705 219.71613
102.11543 179.87082 221.74283
102.46242 180.11523 222.83414
103.05225 180.10388 222.98799
104.11314 179.58113 221.26497
104.46416 179.82587 222.35222
105.51208 179.30363 220.62251
106.54981 178.78171 218.88855
107.35153 178.5157 218.09052
107.47801 179.01654 220.11147
107.83495 179.26184 221.19185
108.41493 179.25174 221.32991
108.77869 179.49719 222.40866
109.14711 179.74269 223.48685
109.9422 179.4776 222.67737
110.52354 179.468 222.80916
110.89854 179.71381 223.88391
111.4818 179.70445 224.01289
112.0648 179.69524 224.14018
112.64755 179.68617 224.26579
113.42629 179.42213 223.44293
114.00608 179.41338 223.56468
114.58562 179.40475 223.68477
115.54267 178.88629 221.90657
115.9304 179.13297 222.97121
116.50677 179.12477 223.08588
116.90139 179.37158 224.1487
117.47976 179.36363 224.26059
117.70467 179.86543 226.27232
118.46166 179.60291 225.43071
118.8701 179.85004 226.48984
119.28322 180.09727 227.54825
119.86784 180.08987 227.65341
120.45228 180.08261 227.75693
121.0365 180.07547 227.85884
121.78002 179.81387 227.00536
122.36141 179.80702 227.10364
123.25184 179.29121 225.29106
123.98014 179.03015 224.43033
124.55365 179.02377 224.52267
124.83241 179.5264 226.52505
125.41045 179.5202 226.61502
125.98832 179.51413 226.70341
126.42605 179.76254 227.74718
127.00603 179.7567 227.83282
127.45074 180.00528 228.87453
128.1655 179.74533 227.9994
128.48454 180.24841 229.99704
129.19656 179.98871 229.11844
129.65285 180.23767 230.15561
130.35971 179.97826 229.27327
130.94107 179.97321 229.34836
131.52229 179.96828 229.42192
132.10338 179.96344 229.4939
132.91075 179.45047 227.64331
133.59749 179.19179 226.75087
134.17091 179.18736 226.8174
134.74422 179.18306 226.88243
135.4209 178.92479 225.98433
135.68835 179.68286 228.93179
136.16756 179.93286 229.95497
136.7477 179.92894 230.01471
137.32773 179.92513 230.07298
137.90767 179.92142 230.1297
138.4875 179.91783 230.18495
139.06725 179.91434 230.23865
139.47874 180.41884 232.21797
140.06316 180.41553 232.26907
140.56827 180.66624 233.28264
141.23172 180.40924 232.36676
141.89026 180.15237 231.44899
142.47191 180.14951 231.49385
143.0535 180.14676 231.53722
143.5679 180.39795 232.54402
144.15176 180.39539 232.58456
144.67329 180.64676 233.58885
145.25945 180.64439 233.62654
145.84555 180.64212 233.6627
146.43158 180.63995 233.69737
147.07013 180.38412 232.76476
147.70378 180.12839 231.83032
148.23709 180.38033 232.82632
148.8205 180.37857 232.85486
149.44675 180.12317 231.9156
149.94672 180.62915 233.87392
150.57047 180.37395 232.93156
151.15372 180.3726 232.95413
151.73692 180.37137 232.97523
152.3201 180.37022 232.99484
152.90326 180.36919 233.01297
153.46043 180.62196 233.99652
154.04596 180.62111 234.0117
154.61035 180.87407 234.99246
155.17957 181.12714 235.97182
155.73734 181.63402 237.91695
156.30476 182.14098 239.86069
156.8933 182.39433 240.83583
157.49567 182.39407 240.84229
158.09143 182.64763 241.81445
158.70457 182.14014 239.88327
159.30803 181.63275 237.95055
159.90381 181.88661 238.91812
160.49826 181.63315 237.94962
161.08238 181.12605 236.01237
161.6806 181.3802 236.9754
162.28366 181.63446 237.93689
162.85332 181.12766 235.99522
163.44366 181.1284 235.9865
164.08682 181.89041 238.87764
164.68446 181.89137 238.86577
165.30458 182.14615 239.81937
165.92957 182.40103 240.77133
166.55942 182.65605 241.72166
167.19415 182.91116 242.67027
167.80164 182.91264 242.65048
168.37463 182.66048 241.66248
168.97978 182.66216 241.63965
169.50623 182.15639 239.68236
170.02304 181.6507 237.72394
170.57443 181.39886 236.73067
171.21432 181.65472 237.66835
171.90819 182.16451 239.5703
172.5603 182.42062 240.50432
173.27124 182.93066 242.40227
173.99193 183.44089 244.2981
174.72238 183.95123 246.19177
175.27907 183.70016 245.18738
175.95818 183.95694 246.11197
176.5762 183.95993 246.06967
177.26274 184.21695 246.99059
177.74161 183.71237 245.01566
178.28416 183.46179 244.00432
178.74623 182.95735 242.02751
179.43314 183.21481 242.94206
180.04442 183.21844 242.89078
180.65579 183.2222 242.83791
181.35271 183.48006 243.74687
182.05458 183.73807 244.65381
182.67114 183.74219 244.59567
183.10239 183.23834 242.61047
183.71432 183.24266 242.54964
184.32637 183.2471 242.4872
185.03854 183.50577 243.38516
185.75568 183.76456 244.28094
186.58267 184.27765 246.13608
187.41953 184.79094 247.98851
188.04681 184.79608 247.91632
188.67424 184.80136 247.84248
189.4164 185.06097 248.72734
189.92953 184.81227 247.68982
190.43797 184.56366 246.65125
190.81981 184.06085 244.65221
191.4407 184.06668 244.571
192.06177 184.07265 244.48813
192.5538 183.82437 243.44513
193.17274 183.83057 243.35925
194.06 184.34567 245.18723
194.68419 184.35217 245.09732
195.30856 184.3588 245.00574
196.21587 184.87451 246.82585
197.13313 185.39044 248.64276
198.06036 185.90665 250.45645
198.99756 186.42307 252.26689
199.34015 185.92145 250.25337
200.13394 186.18365 251.10396
200.62077 185.93677 250.04326
200.94447 185.43532 248.02768
201.74136 185.69797 248.87257
202.87013 186.47032 251.62109
203.68217 186.73347 252.45993
204.49936 186.99683 253.29608
205.15097 187.00555 253.17772
205.62965 186.75957 252.10622
206.63055 187.27837 253.88646
207.28537 187.28758 253.76218
208.121 187.55191 254.586
209.32776 188.32649 257.30597
210.17863 188.59134 258.12317
210.47104 188.09119 256.09201
211.1346 188.10129 255.95694
211.60565 187.85638 254.87253
212.07205 187.61156 253.78722
212.92932 187.87727 254.59395
213.5916 187.88795 254.4518
214.2542 187.8988 254.30772
214.91711 187.90979 254.16176
215.78792 188.17635 254.95813
216.45393 188.18771 254.80774
217.33279 188.45471 255.59856
218.4319 188.97748 257.32886
219.54124 189.50061 259.0549
220.44089 189.76845 259.83517
221.34581 190.03654 260.61221
222.03117 190.04921 260.44583
222.7169 190.06204 260.27737
222.94333 189.56345 258.22885
223.85715 189.83235 258.99594
224.30672 189.58974 257.88416
224.98897 189.60312 257.70871
225.67162 189.6167 257.53125
226.83911 190.1425 259.2233
227.28276 189.90039 258.10513
227.96904 189.91451 257.92068
228.90543 190.18497 258.66797
230.35155 190.96819 261.27805
230.79433 190.72668 260.15204
232.00403 191.2543 261.8205
232.96445 191.52588 262.55292
233.40598 191.28482 261.42108
233.84293 191.04382 260.28848
234.8096 191.31598 261.01285
234.97275 190.81854 258.94919
235.67064 190.83441 258.74103
236.36894 190.8504 258.53067
237.34482 191.12335 259.24393
238.32614 191.39656 259.9534
239.03073 191.4131 259.73474
240.02042 191.68677 260.43735
241.01556 191.96068 261.13614
241.72644 191.97775 260.90906
243.02219 192.50925 262.52191
244.03369 192.78391 263.20892
244.75339 192.80151 262.97238
246.37282 193.59128 265.4895
247.4032 193.8667 266.16354
247.52463 193.36995 264.08264
248.25104 193.38811 263.83496
248.66797 193.14874 262.66965
249.08028 192.90936 261.50372
249.48788 192.66989 260.33713
251.16058 193.46152 262.82025
251.56894 193.22218 261.64886
253.26257 194.0144 264.1199
254.32169 194.29111 264.76337
255.71375 194.82599 266.31143
256.78616 195.10303 266.94531
257.86395 195.38022 267.57486
259.28229 195.91574 269.10611
260.03561 195.93491 268.82077
260.78922 195.95404 268.53296
261.54303 195.97311 268.24261
262.6424 196.2506 268.85199
262.70343 195.75246 266.7533
264.15604 196.28842 268.2569
265.26599 196.56586 268.8548
265.67017 196.32576 267.65182
266.06934 196.08539 266.44846
267.18454 196.36243 267.0369
267.94174 196.38046 266.72577
268.33325 196.1393 265.51825
268.71957 195.89774 264.31036
269.84213 196.17401 264.88605
270.59631 196.19092 264.56638
272.47766 196.98514 266.91348
274.37393 197.77933 269.25174
275.14249 197.79547 268.91849
276.29404 198.07057 269.46936
277.83612 198.60474 270.90103
277.05701 197.58173 267.02087
277.43008 197.3364 265.79669
278.19092 197.34998 265.4545
63.194733 183.35721 215.84814
64.202652 183.0854 215.24362
64.428062 183.33661 216.4017
63.88604 184.11057 219.32904
64.511589 184.099 219.60478
64.756111 184.3486 220.7653
64.627129 184.85925 222.8139
64.885002 185.10788 223.97617
66.269882 184.57184 222.46902
67.273514 184.29707 221.84663
67.903496 184.28343 222.11214
69.26622 183.74706 220.58955
70.25518 183.47186 219.95491
71.600403 182.93546 218.42105
72.218163 182.92122 218.67346
73.548271 182.3848 217.12946
74.160995 182.37035 217.37585
75.124786 182.09488 216.72104
75.386307 182.34109 217.86276
75.998856 182.32629 218.10323
76.954803 182.05072 217.43945
77.905563 181.77518 216.77171
77.835777 182.28145 218.81261
78.447784 182.26639 219.04503
78.392838 182.7722 221.08763
78.678627 183.01736 222.22502
79.297623 183.00204 222.45419
80.242188 182.72644 221.77246
81.504738 182.19077 220.17702
82.11541 182.17566 220.3974
82.725822 182.16058 220.61574
83.020248 182.40555 221.74458
84.572212 181.6106 219.21957
84.866058 181.85565 220.34442
85.164627 182.10065 221.46906
86.079224 181.82603 220.76135
86.98848 181.55161 220.04996
87.291145 181.79669 221.17035
88.492836 181.26294 219.53476
88.797371 181.50813 220.65204
89.692764 181.23434 219.92862
90.292221 181.22018 220.12265
90.891357 181.20612 220.31473
91.20459 181.45146 221.42751
92.371666 180.91907 219.76971
92.686722 181.16457 220.87943
93.284485 181.15094 221.06384
93.606369 181.3965 222.17206
94.752068 180.86502 220.50047
95.346313 180.85181 220.67844
96.476364 180.32092 218.99861
97.330521 180.04921 218.24266
98.179344 179.77776 217.48344
98.501694 180.02399 218.58119
99.086777 180.01158 218.74774
99.415932 180.25793 219.84401
99.749733 180.5043 220.9398
100.08817 180.75072 222.0352
100.67941 180.73868 222.19653
101.76166 180.20993 220.48752
102.34729 180.19826 220.64389
102.69189 180.44507 221.73407
103.27936 180.43362 221.88753
104.10226 180.16411 221.10237
103.98682 180.92757 224.06416
104.8091 180.65833 223.27545
105.85448 180.13121 221.54498
106.6638 179.86247 220.74965
107.02112 180.10999 221.8313
107.38309 180.35754 222.91243
107.96815 180.34723 223.05186
108.33694 180.59494 224.13129
108.7104 180.84271 225.21014
109.51059 180.57495 224.40271
110.30557 180.30742 223.59242
110.88925 180.29781 223.72327
111.47266 180.28835 223.85245
112.05579 180.27902 223.97993
112.63867 180.26984 224.10574
113.2213 180.26079 224.22987
113.80368 180.25186 224.35231
114.19443 180.50058 225.42027
115.1566 179.97702 223.64459
115.54933 180.22595 224.7097
116.13074 180.21759 224.82555
116.71191 180.20937 224.93973
117.47197 179.94397 224.10268
117.69694 180.45058 226.11324
118.45409 180.18549 225.27248
119.03439 180.1778 225.38011
119.44515 180.4274 226.43759
119.86061 180.67708 227.49431
120.44516 180.66972 227.59799
121.02951 180.66249 227.70007
121.77319 180.39833 226.84737
122.35471 180.39139 226.94582
123.09067 180.12756 226.08868
123.97375 179.60698 224.27481
124.54739 179.60051 224.36729
124.82622 180.10797 226.36847
125.54926 179.84479 225.50304
125.83994 180.35237 227.50299
126.2802 180.60315 228.5466
126.86272 180.5972 228.63275
127.30997 180.84813 229.67429
127.89462 180.84238 229.7576
128.47913 180.83676 229.83936
129.31911 180.31781 228.00354
129.89842 180.31248 228.08154
130.35466 180.56393 229.11661
130.93613 180.55881 229.1918
131.63556 180.29718 228.3062
131.98302 180.80551 230.29713
132.79297 180.28755 228.44827
133.48227 180.02635 227.55684
134.1666 179.76529 226.66333
134.74001 179.76091 226.72845
135.41681 179.50015 225.83112
135.78542 180.009 227.81544
136.26227 180.26141 228.8378
136.84009 180.25745 228.8974
137.32402 180.51004 229.9175
137.90405 180.50629 229.9743
138.48401 180.50264 230.0296
138.97734 180.75549 231.0461
139.39134 181.26483 233.02441
139.97829 181.26146 233.07581
140.64438 181.00185 232.16237
141.15192 181.25505 233.17404
141.7386 181.25201 233.22089
142.39717 180.99277 232.30228
142.98128 180.98996 232.3459
143.43109 181.49983 234.31654
144.08459 181.24094 233.39305
144.67091 181.23843 233.43231
145.25717 181.23602 233.47006
145.78593 181.48999 234.47118
146.4845 180.9753 232.57597
147.12074 180.71698 231.64386
147.70192 180.715 231.67529
148.28305 180.71313 231.70526
148.86415 180.71138 231.73375
149.44519 180.70972 231.76074
149.94524 181.22055 233.71777
150.56909 180.96289 232.77609
151.18808 180.70534 231.83273
151.76897 180.70407 231.85376
152.31903 180.95911 232.83948
152.90228 180.95804 232.8576
153.45956 181.21326 233.84053
154.02165 181.46857 234.8221
154.60966 181.46779 234.83588
155.17897 181.7233 235.81464
155.75311 181.97888 236.79196
156.31822 182.49074 238.73438
156.90442 182.74652 239.70886
157.49547 183.00241 240.68187
158.09134 183.25839 241.6534
158.70039 183.00218 240.69017
159.30463 182.74606 239.72536
159.90468 182.74622 239.72566
160.50165 182.4903 238.75778
161.08278 181.72218 235.85519
161.68901 182.23494 237.78419
162.28427 182.2355 237.77843
162.854 181.72382 235.83804
163.45963 181.98073 236.79579
164.08772 182.49393 238.71848
164.66545 182.23871 237.74016
165.28325 182.49594 238.69315
165.90591 182.7533 239.64453
166.56075 183.26694 241.56047
167.19557 183.52454 242.50845
167.80318 183.52603 242.4886
168.37627 183.27142 241.50119
168.94455 183.01692 240.51242
169.50806 182.76251 239.52229
170.06676 182.50818 238.53087
170.70912 182.76642 239.46927
171.3564 183.02478 240.40594
172.05765 183.53951 242.30618
172.61415 183.28558 241.30862
173.32762 183.8006 243.20509
173.93819 183.80316 243.16954
174.60757 184.06215 244.0972
175.2207 184.06496 244.05836
175.89751 184.32419 244.98239
176.51321 184.32724 244.9402
177.19746 184.58673 245.8606
177.74487 184.33365 244.85103
178.28752 184.08066 243.84029
178.82541 183.82776 242.82831
179.51486 184.08774 243.74194
180.12869 184.09145 243.69038
180.65959 183.83884 242.67421
181.44208 184.35564 244.54523
182.05862 184.35971 244.48866
182.76559 184.62036 245.39278
183.19936 184.11169 243.40858
183.81383 184.11609 243.34737
184.33084 183.86407 242.32298
185.04314 184.12524 243.22017
185.65799 184.13 243.15419
186.48271 184.64806 245.00818
187.10268 184.65308 244.93834
187.83252 184.91487 245.82716
188.56738 185.17682 246.71378
189.30725 185.43893 247.59813
189.81805 185.18784 246.56146
190.44363 185.19354 246.4828
190.94745 184.94264 245.44373
191.44656 184.69182 244.40361
192.06775 184.69788 244.32063
192.68909 184.70404 244.23593
193.31061 184.71033 244.14961
194.20049 185.23045 245.97578
194.96376 185.49396 246.84216
195.7321 185.75763 247.7061
196.50551 186.02147 248.5676
197.42786 186.54248 250.38234
198.36014 187.06375 252.19382
199.15369 187.32823 253.04707
199.49881 186.82181 251.03433
200.44882 187.34369 252.83781
200.78461 186.83742 250.8231
201.26932 186.5883 249.76152
201.91034 186.59644 249.65192
202.71497 186.86191 250.49295
203.52475 187.12759 251.33138
204.50797 187.65074 253.11868
204.98895 187.4023 252.04901
205.6385 187.41125 251.92909
206.63962 187.93509 253.70782
207.11649 187.68704 252.63361
207.94983 187.95392 253.45702
208.97137 188.47849 255.22644
210.18848 189.26086 257.94034
210.6689 189.01346 256.85818
211.33507 189.02371 256.72238
211.80869 188.77652 255.63792
212.47299 188.78706 255.49884
213.1376 188.79776 255.35786
213.80251 188.80861 255.21495
214.46771 188.81963 255.07011
215.13326 188.83081 254.92339
216.00671 189.10001 255.71828
216.88545 189.36945 256.51013
217.5569 189.38123 256.35645
218.4437 189.65111 257.14264
219.55328 190.17929 258.86703
220.01318 189.93361 257.76489
220.69092 189.94611 257.60205
221.36902 189.95877 257.43716
222.04749 189.97162 257.27026
222.49643 189.72633 256.16299
223.63785 190.25607 257.86807
224.31989 190.26945 257.6944
225.0023 190.28302 257.51871
225.92491 190.55518 258.2767
226.85286 190.82764 259.03131
227.29663 190.58321 257.91354
227.73581 190.33885 256.79501
228.66989 190.61188 257.54193
229.86163 191.14392 259.2179
230.80896 191.41753 259.95712
231.76172 191.69142 260.69284
232.97958 192.22446 262.35532
233.68341 192.24002 262.1535
233.85825 191.73775 260.09164
234.82513 192.01254 260.815
234.98834 191.5103 258.75241
235.68636 191.52631 258.54391
236.38478 191.54245 258.33319
237.08365 191.55875 258.12027
237.78293 191.57516 257.90509
238.48264 191.59174 257.68765
239.75223 192.12735 259.31363
240.45781 192.14432 259.09012
241.45355 192.42099 259.78552
243.03931 193.21716 262.31784
244.34576 193.75412 263.92331
244.77078 193.51218 262.76691
246.09067 194.04968 264.36356
247.42105 194.58754 265.95447
247.54242 194.08594 263.87463
248.26892 194.10422 263.62662
249.30571 194.38263 264.29068
249.72305 194.14098 263.12335
250.13573 193.89926 261.95538
251.81369 194.69855 264.43414
252.54712 194.71729 264.17227
253.60345 194.99644 264.81802
