ply
format ascii 1.0
comment PCL generated
element vertex 1598
property float x
property float y
property float z
element camera 0
property float view_px
property float view_py
property float view_pz
property float x_axisx
property float x_axisy
property float x_axisz
property float y_axisx
property float y_axisy
property float y_axisz
property float z_axisx
property float z_axisy
property float z_axisz
property float focal
property float scalex
property float scaley
property float centerx
property float centery
property int viewportx
property int viewporty
property float k1
property float k2
end_header
154.47372 53.344254 241.10713
155.05872 53.081299 242.0842
155.64853 52.818275 243.0598
156.2708 53.082146 242.10483
156.84259 52.291946 245.00662
157.45584 52.292152 245.01315
158.07567 52.555763 244.0535
158.68651 52.555786 244.0569
159.29384 52.028732 245.98807
159.90819 52.555565 244.05907
160.51903 52.555328 244.0578
161.12988 52.554993 244.05499
161.74074 52.554573 244.05064
162.34129 52.817558 243.08012
162.93703 53.08046 242.10812
163.54312 53.079788 242.09917
164.14922 53.079002 242.08868
164.77533 52.814629 243.04111
165.3839 52.813675 243.02747
166.04213 52.285583 244.94095
166.68282 52.020912 245.88835
167.32837 51.756149 246.83405
167.91467 52.018349 245.84979
168.53067 52.01693 245.82813
169.1467 52.015419 245.8049
169.76279 52.013802 245.78014
170.37892 52.012108 245.75375
170.95097 52.27388 244.76221
171.56479 52.272003 244.7328
172.17868 52.270027 244.70183
172.8954 51.740791 246.59583
173.56804 51.475021 247.52455
174.35803 50.681923 250.37741
174.98668 50.67952 250.33925
175.55435 50.940651 249.33679
176.05377 51.465347 247.3705
176.6095 51.726341 246.36562
177.22879 51.723587 246.32172
178.06036 50.929749 249.16222
178.61392 51.19046 248.15268
179.23831 51.187401 248.10355
179.94078 50.920532 249.01427
180.48737 51.180984 248.00046
180.94638 51.705078 246.02444
181.65158 51.437912 246.93008
182.36172 51.170601 247.83368
182.98672 51.166946 247.77486
183.79691 50.635612 249.63463
184.52193 50.367912 250.53195
185.25192 50.10009 251.42708
185.8871 50.095955 251.36067
186.72684 49.564026 253.21088
187.36713 49.559631 253.14064
188.11462 49.291275 254.02725
188.75761 49.286667 253.95335
189.51266 49.018021 254.83578
189.92967 49.541046 252.84268
190.45389 49.800079 251.80652
191.09262 49.795059 251.72643
191.85315 49.52594 252.60144
192.61868 49.256668 253.47411
193.51576 48.723213 255.30061
194.16487 48.717651 255.21239
194.68279 48.976074 254.16685
195.19601 49.234421 253.1203
195.97702 48.964447 253.98236
196.76308 48.694313 254.84195
197.272 48.952347 253.79088
198.06331 48.681938 254.64624
198.85968 48.411354 255.49908
199.51273 48.404846 255.39642
200.16599 48.398201 255.29202
200.81946 48.391441 255.18581
201.78459 47.855942 256.98138
202.12704 48.377563 254.968
202.94177 48.106064 255.80739
203.92465 47.570007 257.59464
204.42108 47.826965 256.52805
205.0808 47.819412 256.41016
205.9111 47.547249 257.23965
206.57376 47.539398 257.11768
207.41191 47.266891 257.94214
208.43294 46.72963 259.71167
209.10368 46.721313 259.58267
209.7747 46.712852 259.45181
210.446 46.704262 259.31906
210.93005 46.960228 258.23846
211.40948 47.216125 257.15698
212.46155 46.677711 258.90933
213.13397 46.668571 258.76898
214.00401 46.394501 259.57053
214.67947 46.385078 259.42575
215.35526 46.375511 259.27905
215.82663 46.630745 258.18808
216.50058 46.620934 258.03802
216.96521 46.876015 256.94476
217.63731 46.865974 256.79135
218.73883 46.325668 258.51605
219.63351 46.050179 259.29703
220.314 46.039627 259.13593
221.21675 45.763748 259.91113
221.90039 45.752899 259.74539
222.58437 45.74189 259.57767
223.49803 45.465462 260.34436
224.41701 45.188812 261.10779
224.6384 45.708107 259.06213
225.56058 45.431152 259.8208
226.72729 44.888504 261.5101
226.93742 45.407608 259.46143
227.6264 45.395638 259.27863
228.80911 44.852348 260.9577
229.50381 44.840034 260.76932
230.19888 44.827606 260.5788
231.4026 44.283577 262.24606
232.36005 44.005028 262.97916
233.06375 43.992088 262.78012
233.50629 44.244888 261.65106
233.9442 44.497688 260.52121
234.6441 44.484489 260.31705
234.8063 45.003204 258.25937
236.31668 44.191704 260.82709
237.56836 43.645927 262.4639
238.00081 43.898315 261.32526
239.26578 43.352097 262.95383
240.54114 42.805588 264.57706
240.69075 43.323997 262.51053
240.83075 43.842529 260.44485
242.11731 43.29557 262.05814
242.83118 43.28125 261.82849
243.54541 43.266853 261.59656
244.55661 42.98584 262.27942
245.87228 42.438065 263.87454
246.89676 42.156708 264.54855
247.01437 42.675316 262.47491
248.65533 41.860298 264.97086
249.38437 41.84539 264.7207
250.11374 41.830452 264.46823
250.21515 42.34935 262.3912
251.5735 41.800583 263.95615
252.30386 41.785683 263.6965
253.03452 41.770782 263.43451
253.76549 41.75592 263.17017
254.82344 41.473946 263.80994
255.55746 41.459145 263.53989
256.6235 41.177147 264.17212
257.69482 40.895142 264.80008
259.10822 40.345779 266.32651
260.1925 40.063744 266.94489
260.94016 40.049225 266.65805
260.99908 40.569893 264.569
262.08887 40.288231 265.17822
262.83429 40.274284 264.88513
264.28378 39.725227 266.38351
264.67981 39.979324 265.18777
266.49896 39.162781 267.57123
266.8949 39.417419 266.37073
268.37204 38.868927 267.84845
269.12988 38.856361 267.53607
270.98898 38.040398 269.89355
271.38431 38.296402 268.68369
272.51871 38.016899 269.25085
272.90839 38.273842 268.03851
273.66986 38.263252 267.71252
274.43094 38.253166 267.38431
275.57379 37.975479 267.93817
276.3363 37.966454 267.60449
276.71091 38.226219 266.38663
277.4696 38.218475 266.0498
278.22754 38.211388 265.71094
58.001427 50.449722 228.03708
59.039787 50.720924 227.44524
60.073784 50.992622 226.84943
59.176849 49.937546 230.66859
59.066101 49.414032 232.72493
60.487 49.952682 231.23987
61.142738 49.960938 231.52269
62.174103 50.234932 230.9155
63.573524 50.774551 229.41496
64.592934 51.049126 228.79854
65.607559 51.323975 228.17801
66.252151 51.333878 228.44582
67.259575 51.609215 227.81824
67.541786 51.354538 228.97546
68.902016 51.89537 227.44638
68.831779 51.376213 229.49709
69.82943 51.652344 228.85738
70.471962 51.663658 229.11209
71.462006 51.940018 228.46533
72.446968 52.216476 227.8145
73.426804 52.492958 227.15971
74.061516 52.504745 227.40332
75.033569 52.781342 226.74155
75.665497 52.793289 226.98012
75.964828 52.540733 228.12187
76.928848 52.817444 227.45113
77.560242 52.829613 227.68356
77.216743 52.04847 230.63805
78.500008 52.589699 229.05124
79.133255 52.602051 229.27843
79.766251 52.614418 229.50357
80.713837 52.89106 228.81505
81.343788 52.903389 229.03523
81.663643 52.65155 230.16672
82.295547 52.66391 230.38367
83.231956 52.940315 229.68353
84.163071 53.216591 228.97964
84.789063 53.228775 229.18883
85.414749 53.240913 229.39597
85.450508 52.725266 231.43796
86.372856 53.001228 230.7235
86.710274 52.749481 231.8455
87.339676 52.761497 232.04625
88.25354 53.037125 231.32339
89.444389 53.57621 229.67462
89.785492 53.324295 230.79019
90.685883 53.599457 230.05753
91.580956 53.874435 229.3214
92.470718 54.149246 228.5818
93.085312 54.160477 228.76497
93.966942 54.434967 228.01932
94.578392 54.445969 228.19791
95.189499 54.456871 228.37463
95.800293 54.467674 228.54944
96.410736 54.478371 228.72238
96.765915 54.225838 229.82391
97.125717 53.973289 230.92491
97.490158 53.720711 232.02544
97.859222 53.468117 233.12538
98.968048 54.004379 231.42535
99.824097 54.277451 230.6546
100.43477 54.287422 230.8152
101.28278 54.56015 230.0388
102.1255 54.832672 229.25935
102.49762 54.579475 230.34956
102.64415 54.063507 232.37622
103.25576 54.07296 232.52826
104.09236 54.344955 231.74028
104.7009 54.354126 231.88817
105.74989 54.888344 230.1554
106.35293 54.897209 230.29851
107.17113 55.168465 229.49928
107.55817 54.914597 230.57942
107.94984 54.660675 231.65895
108.13808 54.144302 233.68013
109.15836 54.677429 231.93048
109.76221 54.685623 232.06363
110.56651 54.956001 231.25117
110.96913 54.701653 232.32474
112.15961 55.496204 229.61792
112.56174 55.241631 230.68805
112.77762 54.724831 232.70346
113.37994 54.732307 232.82632
113.98204 54.739685 232.94742
114.40034 54.484856 234.01427
115.36665 55.016136 232.23665
115.96561 55.023132 232.35223
116.38811 54.768005 233.41498
117.16286 55.036774 232.57837
117.9325 55.305367 231.7392
118.69704 55.573803 230.89745
119.29004 55.58017 231.00385
120.21088 56.110168 229.20645
120.63702 55.854424 230.26019
120.90868 55.336803 232.26511
121.50334 55.342766 232.36534
121.94353 55.086838 233.41672
122.3884 54.830849 234.46727
123.13676 55.098244 233.60994
123.73311 55.103798 233.70412
124.04021 54.585869 235.70523
124.64108 54.591248 235.79691
125.10211 54.334869 236.84203
125.4306 53.816826 238.84155
126.03827 53.82193 238.92946
126.91052 54.350082 237.10361
127.64297 54.616501 236.23116
128.24287 54.621223 236.31322
128.96773 54.887375 235.43658
129.56491 54.891884 235.51508
130.04172 54.634811 236.54971
130.75887 54.900589 235.66737
131.47104 55.166245 234.78284
131.9523 54.908897 235.81334
132.54881 54.912903 235.88396
133.25333 55.178207 234.99384
133.84717 55.181999 235.06105
134.33765 54.924324 236.0864
134.93369 54.927925 236.15077
135.52962 54.93145 236.21353
135.93346 54.412216 238.19572
136.53403 54.415573 238.25587
137.22563 54.680115 237.35353
137.91229 54.944534 236.44919
138.42142 54.686295 237.46564
139.01917 54.689247 237.51933
139.6983 54.953354 236.60965
140.2144 54.694878 237.62209
140.73526 54.436325 238.63339
141.4093 54.700127 237.71867
142.15022 55.225018 235.83945
142.60388 54.705017 237.80908
143.33499 55.229687 235.92607
143.86272 54.970695 236.93025
144.39523 54.711647 237.93321
144.8728 54.191368 239.89839
145.41727 53.932159 240.89906
145.96649 53.67289 241.89847
146.57297 53.67469 241.93271
147.17938 53.676392 241.96541
147.78575 53.677994 241.99658
148.4825 54.201752 240.09767
149.12674 54.464287 239.16115
149.80649 54.987823 237.25842
150.43857 55.250156 236.3183
151.06578 55.512386 235.3765
151.655 55.513424 235.39778
152.24419 55.514381 235.41754
152.77673 54.993095 237.36557
153.31891 54.471725 239.31239
153.8942 54.211357 240.29297
154.45325 53.689835 242.23718
155.0592 53.690392 242.24977
155.66516 53.690842 242.26085
156.28493 53.952286 241.30519
156.86563 53.430435 243.24364
157.47397 53.430626 243.25012
158.07573 53.16967 244.22038
158.68648 53.169693 244.22375
159.29373 52.647491 246.15625
159.90797 53.169487 244.22591
160.51872 53.169235 244.22467
161.12399 53.429985 243.25656
161.73236 53.429565 243.25223
162.3201 53.951218 241.31583
162.93639 53.689552 242.2737
163.54239 53.688881 242.26476
164.16595 53.42704 243.21942
164.79439 53.165085 244.1725
165.42769 52.903061 245.12387
166.06583 52.64093 246.07358
166.70885 52.378693 247.02162
167.35672 52.116364 247.96793
167.9774 52.115036 247.94774
168.56367 52.374748 246.96124
169.18204 52.373253 246.93796
169.83974 52.110535 247.87762
170.46062 52.108849 247.85109
170.94914 52.890488 244.93008
171.56288 52.888641 244.90074
172.17667 52.886703 244.8698
172.8419 52.62352 245.80122
173.51202 52.360214 246.73082
174.29948 51.57444 249.58585
174.92561 51.572083 249.54791
175.55182 51.569641 249.50833
176.05118 52.089508 247.54082
176.6727 52.086891 247.49835
177.36261 51.822945 248.41716
178.1989 51.036415 251.25937
178.75722 51.294716 250.24887
179.38634 51.291679 250.19945
180.09355 51.027267 251.1105
180.56448 51.5466 249.1338
181.02583 52.06588 247.15631
181.6481 52.062485 247.10101
182.35814 51.797684 248.00531
182.98305 51.794067 247.94659
183.79308 51.267647 249.8078
184.51799 51.002449 250.70584
185.24786 50.737106 251.60176
185.88293 50.73304 251.53545
186.72255 50.206032 253.38708
187.36273 50.201714 253.31693
188.11009 49.935844 254.20435
188.75298 49.931305 254.13052
189.61981 49.403687 255.97241
190.03917 49.92189 253.97783
190.56572 50.178535 252.94083
191.20677 50.173584 252.8605
191.9696 49.906952 253.73601
192.73744 49.640175 254.60916
193.51031 49.373245 255.47993
194.28821 49.106171 256.34833
194.80846 49.362206 255.30194
195.19026 49.879829 253.29868
195.97113 49.612373 254.16153
196.75705 49.344765 255.02194
197.40694 49.338722 254.92509
198.05704 49.332573 254.82651
198.99922 48.802734 256.63425
199.65457 48.796288 256.53134
200.15933 49.051544 255.47342
200.81268 49.044891 255.36736
201.77762 48.514359 257.16443
202.12003 49.031189 255.1499
203.09517 48.50032 256.94174
204.08031 47.969215 258.7301
204.57909 48.223808 257.66257
205.07321 48.478325 256.59409
205.56268 48.73278 255.52461
206.22031 48.725105 255.40369
206.87817 48.717293 255.28094
208.06935 47.922997 258.00198
208.55495 48.176994 256.92606
209.40106 47.906563 257.74438
210.43738 47.373726 259.50702
210.54639 48.15184 256.53271
211.40067 47.880928 257.34396
212.26015 47.609818 258.15231
213.12482 47.338501 258.95773
213.79739 47.329361 258.81564
214.67001 47.057678 259.61566
215.14345 47.310692 258.52563
215.81694 47.301147 258.37772
216.49074 47.291473 258.22787
216.95528 47.544197 257.13422
217.83928 47.271713 257.9223
218.72855 46.999008 258.70734
219.84003 46.46344 260.42941
220.52283 46.452988 260.26794
221.20598 46.442383 260.10449
221.88948 46.431648 259.93903
222.57332 46.420776 259.77155
223.25751 46.409782 259.60199
224.17383 46.13575 260.367
224.62695 46.387375 259.25681
225.54895 46.112991 260.01645
226.95465 45.312378 262.64206
227.40887 45.563599 261.52563
228.10269 45.551682 261.34177
229.29015 45.013336 263.02121
229.98965 45.001076 262.83176
230.68958 44.988678 262.64017
231.64397 44.712875 263.37711
232.60373 44.436867 264.1105
233.05072 44.687378 262.98178
233.49318 44.937836 261.85233
233.66702 45.451759 259.79422
234.36432 45.438721 259.59109
234.79303 45.68914 258.45938
235.76013 45.412338 259.17825
237.00662 44.871689 260.81833
237.71051 44.858139 260.60489
238.97278 44.317009 262.23596
239.96396 44.039368 262.93912
240.39256 44.28923 261.79483
241.10306 44.2752 261.57089
242.10294 43.997154 262.26489
243.10822 43.718933 262.95499
243.53091 43.968628 261.80396
244.54199 43.69017 262.48785
245.25945 43.67569 262.25079
246.27882 43.396973 262.92755
246.69551 43.646591 261.76974
248.02719 43.103386 263.35458
248.75117 43.088646 263.10651
250.09866 42.545082 264.68146
250.20016 43.059097 262.60327
251.55841 42.515312 264.16998
252.28877 42.50045 263.91064
253.01947 42.48558 263.64896
253.75043 42.470757 263.38486
254.4817 42.455963 263.11838
255.21324 42.441223 262.84952
256.94028 41.632126 265.29462
258.01413 41.352531 265.92264
259.09326 41.072929 266.54636
260.51697 40.528381 268.06833
260.92542 40.77877 266.87915
260.98459 41.294456 264.78885
261.7276 41.280281 264.49942
262.4707 41.266296 264.20758
263.5658 40.987328 264.81097
264.31152 40.973709 264.51337
266.12823 40.164482 266.90027
266.88153 40.151222 266.59488
267.99677 39.872887 267.18063
268.38782 40.125603 265.97693
269.87497 39.582375 267.44742
270.63281 39.570328 267.13055
271.76251 39.293152 267.70068
272.52228 39.281876 267.37811
273.65894 39.005447 267.94049
274.80023 38.729431 268.49844
275.94608 38.45385 269.052
277.09644 38.178764 269.60114
277.08942 38.701401 267.49744
277.85126 38.693245 267.15945
279.0047 38.419952 267.69998
58.400124 51.346893 227.34879
58.655937 51.089844 228.51978
59.692924 51.359428 227.92439
58.799118 50.314484 231.74762
59.074158 50.059143 232.92094
60.115196 50.330208 232.32108
61.151588 50.601631 231.71716
62.558533 51.136269 230.22025
63.955719 51.671135 228.71712
65.343086 52.2062 227.20778
66.720612 52.741447 225.69225
66.99279 52.48867 226.84988
67.995392 52.761597 226.21938
67.912743 52.246788 228.27034
69.270599 52.782776 226.73856
69.198143 52.268585 228.78958
69.840858 52.279785 229.04617
70.13353 52.028709 230.19994
70.778717 52.040314 230.45341
71.423813 52.052063 230.70483
72.411293 52.326279 230.052
73.393616 52.600525 229.39516
74.033333 52.612541 229.63843
75.342712 53.149017 228.06955
75.977058 53.16111 228.30681
76.941101 53.435356 227.63507
77.899902 53.709572 226.95943
77.878922 53.197746 229.00616
78.834755 53.471977 228.32552
79.785316 53.746147 227.64101
80.730606 54.020226 226.95265
81.355812 54.03241 227.17284
82.293022 54.306351 226.47777
82.295601 53.795082 228.52121
82.92247 53.807289 228.73619
82.939507 53.296265 230.78073
83.873032 53.570061 230.07671
84.201721 53.320717 231.20393
85.129623 53.594337 230.49417
85.462685 53.344994 231.619
86.384933 53.618416 230.90356
86.722321 53.369049 232.02602
87.926163 53.903511 230.38342
88.265396 53.654053 231.50267
89.173813 53.926956 230.7753
89.797134 53.938568 230.96825
90.42012 53.950104 231.15924
91.317551 54.22258 230.42288
91.937363 54.233894 230.60921
92.826653 54.50605 229.86673
93.710632 54.77803 229.12083
94.324455 54.788963 229.29993
94.937965 54.799812 229.47708
95.291252 54.549789 230.58214
96.163956 54.821198 229.82576
96.776459 54.831734 229.99725
97.1362 54.58152 231.09875
97.25061 54.070686 233.13225
97.86956 54.081032 233.30014
98.488182 54.091255 233.46617
99.591553 54.622314 231.76131
100.68471 55.153099 230.05196
101.76767 55.683613 228.33821
102.37021 55.69315 228.49298
102.50713 55.181938 230.5201
103.11397 55.191315 230.67255
103.26509 54.680092 232.69977
104.10153 54.949524 231.9109
104.93275 55.218758 231.11903
105.75875 55.487804 230.32419
106.14381 55.236465 231.40778
107.17973 55.76527 229.66696
107.56667 55.513729 230.74762
107.95827 55.26215 231.82762
108.3545 55.010529 232.907
108.75537 54.758835 233.98575
109.36401 54.766991 234.11978
110.37375 55.29475 232.36293
110.77873 55.04277 233.43753
111.97147 55.829937 230.72899
112.56927 55.837486 230.85403
112.78509 55.325466 232.87062
113.38731 55.332859 232.99327
113.98929 55.34013 233.11421
114.4075 55.087646 234.18156
115.19255 55.354328 233.35103
115.97247 55.620846 232.51785
116.57109 55.627632 232.63159
117.34325 55.893833 231.79369
118.11031 56.159874 230.95322
118.87228 56.425751 230.11021
119.46272 56.432007 230.216
120.21696 56.697582 229.36844
120.64302 56.444195 230.4227
121.07375 56.19075 231.4762
121.50917 55.937237 232.5289
121.94928 55.68367 233.5808
122.39406 55.430035 234.63188
123.1423 55.694908 233.77376
123.73853 55.700367 233.86781
124.04558 55.187241 235.87012
124.78842 55.451748 235.00638
125.24693 55.197716 236.05164
125.57292 54.684433 238.05205
126.31284 54.948608 237.18309
127.1801 55.471783 235.35509
127.90755 55.735653 234.4812
128.375 55.481171 235.51985
129.09731 55.744801 234.64211
129.69196 55.749222 234.72021
130.16626 55.494499 235.75507
130.64528 55.239708 236.78897
131.47511 55.761894 234.94501
131.9563 55.506924 235.97607
132.4422 55.251881 237.00615
133.14902 55.514706 236.11555
133.85086 55.777409 235.22284
134.34125 55.52211 236.24876
135.03802 55.784584 235.3524
135.63144 55.788025 235.41487
136.12877 55.532482 236.4369
136.7244 55.535751 236.49651
137.22878 55.280056 237.51616
138.00406 55.800854 235.64925
138.51067 55.544994 236.66602
139.18979 55.806713 235.75717
139.86397 56.068321 234.84636
140.37515 55.81221 235.85896
140.81448 55.297215 237.83336
141.48599 55.558544 236.91774
142.1526 55.819759 236.0002
142.6062 55.304558 237.97112
143.33719 55.824345 236.08672
143.92938 55.826504 236.1277
144.45938 55.569836 237.13109
144.93446 55.054352 239.09741
145.41914 54.538826 241.06279
145.96831 54.281952 242.06281
146.57469 54.283714 242.097
147.18102 54.285393 242.12965
147.73967 54.028275 243.12555
148.48393 54.805855 240.26051
149.0425 54.548561 241.25333
149.76735 55.325916 238.38435
150.43973 55.844486 236.47842
151.06685 56.104271 235.53595
151.65598 56.105301 235.55717
152.21437 55.847584 236.54239
152.74925 55.331123 238.49182
153.31966 55.073242 239.47438
153.89485 54.8153 240.45554
154.47487 54.557274 241.4353
155.05969 54.299156 242.41365
155.66557 54.299606 242.42471
156.28525 54.558617 241.46835
156.86586 54.041611 243.40813
157.47412 54.041801 243.4146
158.09552 54.559196 241.48764
158.69478 54.300575 242.45695
159.2971 53.783218 244.39075
159.9071 54.041718 243.42508
160.51537 54.041481 243.42381
161.1291 53.782516 244.38699
161.73189 54.040749 243.41673
162.32986 54.298904 242.44493
162.94849 54.039673 243.40343
163.54166 54.297668 242.42862
164.14758 54.296913 242.41817
164.77351 54.037415 243.37192
165.42668 53.519157 245.28975
166.03995 53.518127 245.27451
166.68044 53.258347 246.22325
167.32581 52.998474 247.17032
167.944 52.997177 247.15022
168.52776 53.254478 246.16321
169.1805 52.994324 247.1053
169.79881 52.992752 247.08051
170.41718 52.991104 247.05409
170.99147 53.24807 246.06119
171.60753 53.246239 246.03175
172.1747 53.503059 245.03604
172.83983 53.242325 245.96815
173.56364 52.722733 247.86292
174.24098 52.461777 248.79118
174.86461 52.459473 248.75343
175.4883 52.457069 248.7141
175.98517 52.972137 246.74545
176.67004 52.710777 247.6669
177.35986 52.449303 248.58644
178.12531 51.928902 250.46735
178.68111 52.184837 249.45645
179.45883 51.664177 251.33322
180.09038 51.661095 251.28203
180.56123 52.175606 249.30409
181.10533 52.431213 248.2877
181.81516 52.168968 249.19441
182.44226 52.16552 249.1371
182.9794 52.42086 248.11652
183.78932 51.899361 249.97911
184.41919 51.895584 249.91672
185.24388 51.373795 251.7746
185.97861 51.110817 252.6691
186.71831 50.847702 253.56143
187.35838 50.84346 253.49135
188.10564 50.580078 254.37955
188.74841 50.575615 254.30583
189.39133 50.571022 254.23045
189.92006 50.825409 253.19426
190.44411 51.07972 252.15701
191.08261 51.07486 252.07712
191.96448 50.55162 253.91187
192.85623 50.028206 255.74364
193.50494 50.022934 255.65738
194.02492 50.276741 254.61218
194.67154 50.271255 254.52281
195.18459 50.524887 253.47519
195.82913 50.519211 253.38268
196.7511 49.994873 255.20004
197.54193 49.72963 256.05878
198.19434 49.723534 255.95995
198.84695 49.717316 255.85939
199.49976 49.710991 255.75703
200.00197 49.963936 254.69897
200.65277 49.957382 254.59348
201.6151 49.431847 256.39246
202.27119 49.425026 256.28256
203.08806 49.158577 257.1232
204.23601 48.372948 259.86493
204.5717 48.884705 257.84506
205.06572 49.136894 256.77603
205.5551 49.389015 255.7061
206.38536 49.121811 256.53549
207.22075 48.854431 257.36212
208.23895 48.327194 259.13519
208.907 48.319107 259.00711
209.5753 48.310913 258.87711
210.24388 48.302589 258.74521
210.3504 49.073532 255.76955
210.82228 49.324867 254.68858
211.67422 49.056404 255.49933
212.72617 48.527863 257.25296
213.59097 48.258972 258.05737
214.46097 47.989899 258.8588
214.93185 48.240601 257.76886
215.39812 48.491257 256.67804
216.06686 48.481766 256.52951
216.52637 48.732254 255.43646
217.61731 48.202263 257.16864
218.50392 47.932175 257.95514
219.3958 47.66188 258.73853
220.07355 47.651611 258.57849
220.97348 47.380936 259.35614
221.65437 47.370369 259.19153
222.56241 47.099304 259.96338
223.24646 47.08844 259.79407
223.93086 47.077438 259.62274
224.61563 47.066292 259.4494
225.30078 47.055016 259.27399
225.98627 47.04361 259.09653
226.91376 46.771477 259.85165
227.8466 46.499115 260.60345
228.78476 46.22654 261.35184
229.97734 45.693024 263.02948
230.92868 45.419983 263.77023
231.63135 45.407547 263.57611
232.59091 45.134117 264.31049
233.03784 45.382301 263.18134
233.48022 45.630447 262.05145
233.65402 46.139572 259.99225
234.35123 46.126671 259.7894
234.77985 46.374741 258.65729
235.7468 46.100525 259.37714
236.99307 45.564919 261.01892
237.69687 45.551476 260.80582
238.67999 45.276649 261.51456
239.94998 44.740303 263.14282
240.66248 44.726433 262.92065
241.37537 44.712479 262.6962
242.37762 44.436943 263.39044
243.09383 44.422768 263.16061
243.51648 44.670105 262.00916
244.23099 44.65583 261.77557
244.64691 44.903175 260.62198
245.96265 44.365372 262.21832
246.37683 44.612656 261.06094
247.70584 44.074524 262.64835
248.42728 44.059898 262.40146
249.77213 43.52137 263.97906
249.55716 44.292564 260.98804
251.54337 43.229805 264.38159
252.27374 43.214973 264.12259
253.32602 42.938026 264.77103
254.05957 42.923157 264.50638
255.44669 42.383865 266.05536
255.85666 42.631279 264.87689
256.92523 42.354195 265.51019
257.66492 42.339432 265.23404
259.07831 41.799904 266.76398
260.16275 41.522751 267.38437
260.56885 41.770691 266.19571
260.62573 42.281456 264.10516
262.06003 41.74202 265.61771
262.45645 41.990608 264.42569
263.5517 41.714005 265.03012
264.65207 41.437523 265.6301
266.11447 40.898338 267.12207
266.86798 40.884972 266.8168
267.98349 40.608955 267.40353
268.37488 40.859055 266.19925
269.49521 40.58358 266.77911
270.25082 40.571396 266.46341
271.00626 40.559578 266.14539
272.13605 40.285049 266.71408
273.27057 40.010857 267.27838
274.78946 39.473877 268.7251
275.93579 39.20047 269.27942
277.08667 38.927528 269.82932
276.69299 39.708214 266.84052
277.45291 39.699722 266.50363
278.60446 39.428513 267.04599
59.191872 52.499947 225.77534
59.833488 52.50621 226.06183
60.47567 52.512978 226.34657
59.577415 51.478043 230.17058
59.082474 50.704338 233.11513
60.123894 50.973183 232.51451
61.160652 51.242378 231.90979
62.943069 52.032715 229.52173
64.338013 52.56282 228.01595
66.093254 53.353455 225.61223
67.09832 53.62355 224.98582
67.368279 53.373322 226.14307
67.643417 53.123436 227.30037
67.203537 52.353516 230.24959
68.924088 53.144905 227.82132
69.209457 52.895859 228.9767
70.204865 53.167198 228.33414
70.8452 53.178596 228.58751
71.832947 53.450119 227.93787
72.125687 53.201866 229.08804
73.108185 53.473564 228.43234
73.745621 53.485451 228.67648
74.382912 53.497444 228.91855
76.024612 54.288681 226.44128
76.32164 54.040993 227.58313
76.953346 54.053101 227.81712
78.239456 54.584419 226.23195
78.21608 54.077438 228.27899
78.847084 54.089653 228.50684
79.797615 54.36132 227.82135
80.425598 54.373512 228.04419
80.738556 54.126366 229.17807
81.680725 54.397888 228.4838
81.6884 53.891579 230.53015
82.320259 53.903824 230.74655
82.647087 53.656891 231.87746
83.885231 54.187302 230.25595
84.213936 53.940346 231.38361
85.438934 54.470428 229.75386
86.064178 54.482361 229.9585
86.689095 54.494225 230.16113
86.734283 53.988335 232.20464
87.93795 54.517792 230.56038
88.277161 54.270699 231.68005
89.185448 54.541054 230.95169
89.808685 54.552574 231.14438
90.43158 54.564003 231.33513
91.32888 54.833923 230.59781
92.220856 55.103668 229.85704
92.837753 55.114738 230.04044
93.4543 55.12571 230.22191
94.070526 55.136589 230.40146
94.161766 54.630646 232.43864
94.522446 54.383102 233.54625
95.402451 54.652077 232.79103
96.532028 55.179092 231.10065
96.894165 54.931259 232.20328
97.510857 54.941551 232.37216
98.374664 55.209839 231.60527
98.743256 54.961807 232.70428
99.843964 55.487827 230.99712
100.93446 56.013561 229.28552
102.01476 56.539028 227.56953
102.37962 56.290504 228.66057
102.74911 56.041943 229.75111
103.12323 55.793346 230.84106
103.50199 55.544708 231.93045
104.1106 55.553776 232.0797
105.16442 56.078182 230.34671
105.76751 56.086948 230.49118
106.37032 56.095596 230.63388
107.40358 56.619366 228.89095
107.78799 56.370129 229.9715
108.17705 56.120853 231.05144
108.77875 56.129044 231.1871
109.17462 55.879631 232.26523
109.57513 55.630169 233.34271
110.38158 55.895477 232.52905
110.98469 55.903236 232.65834
111.97901 56.425583 230.89337
112.38342 56.175713 231.96503
112.98331 56.183083 232.0887
113.58296 56.190346 232.21066
113.99644 55.940266 233.27922
114.59806 55.947311 233.39833
115.38052 56.211437 232.56647
115.80064 55.961098 233.63141
116.57776 56.224934 232.79529
117.17604 56.231514 232.9072
117.77412 56.237984 233.01744
118.54083 56.501377 232.17451
119.30246 56.764618 231.32904
119.89503 56.770702 231.4335
120.48741 56.776684 231.5363
120.92049 56.5256 232.59076
121.35826 56.274467 233.64439
121.80072 56.023273 234.6972
122.39964 56.028893 234.79475
123.14774 56.291252 233.93585
123.89081 56.553455 233.07455
124.19535 56.045097 235.07767
124.93564 56.307079 234.21275
125.39163 56.055386 235.25819
125.85233 55.803616 236.30275
126.4525 55.808521 236.38934
127.18484 56.070023 235.51697
127.65235 55.818008 236.55775
128.12457 55.565933 237.59761
128.85161 55.827099 236.71976
129.57364 56.08812 235.83971
130.05029 55.835785 236.87541
130.76721 56.096573 235.99153
131.47914 56.357239 235.10548
131.96024 56.10463 236.13712
132.44606 55.851959 237.16772
133.15276 56.112289 236.27641
133.85449 56.372505 235.38295
134.3448 56.119579 236.40942
134.94066 56.123081 236.4736
135.6348 56.382961 235.57471
136.13203 56.129791 236.59732
136.63402 55.876564 237.61885
137.14075 55.623257 238.63931
137.82962 55.88274 237.73372
138.341 55.629272 238.75156
138.94098 55.632153 238.80533
139.70377 56.147713 236.93129
140.21971 55.893993 237.9449
140.6638 55.383846 239.9209
141.34006 55.642719 239.00497
142.0114 55.901497 238.08708
142.46976 55.391125 240.0596
143.20547 55.906044 238.17421
143.80241 55.908184 238.21545
144.39928 55.910236 238.25517
144.87671 55.399593 240.22289
145.36372 54.888878 242.18968
146.02493 55.147003 241.26031
146.68126 55.40501 240.32918
147.28267 55.406643 240.36153
147.88403 55.40818 240.39238
148.57574 55.92218 238.49055
149.08662 55.411022 240.4494
149.72821 55.668568 239.50987
150.40291 56.182266 237.60274
150.99681 56.183365 237.62564
151.5907 56.184391 237.647
152.18454 56.185322 237.66689
152.77835 56.186169 237.68524
153.32037 55.674477 239.63463
153.91898 55.675167 239.6501
154.47543 55.163315 241.59682
155.06018 54.907616 242.57582
155.64973 54.65184 243.55334
156.27173 54.908424 242.59636
156.86609 54.652481 243.57086
157.46527 54.396446 244.54393
158.07584 54.396553 244.54886
158.68642 54.396576 244.55228
159.29524 54.140289 245.52075
159.90756 54.396362 244.55441
160.51508 54.652351 243.58656
161.12325 54.652031 243.58379
161.73933 54.395393 244.54608
162.33965 54.651131 243.57364
162.97331 54.138115 245.49928
163.60152 53.881218 246.45676
164.21703 53.88047 246.44614
164.81258 54.135864 245.46758
165.44809 53.878708 246.42024
166.03888 54.133942 245.43864
166.65207 54.132843 245.42186
167.29494 53.87542 246.36964
167.91061 53.874146 246.34967
168.52634 53.872787 246.32811
169.17899 53.615074 247.27089
169.79721 53.613525 247.24612
170.37379 53.868179 246.25407
170.9897 53.86647 246.22626
171.60567 53.864677 246.19684
172.17274 54.119095 245.20052
172.83778 53.860809 246.13336
173.50771 53.602432 247.06433
174.18254 53.343933 247.99347
174.80365 53.341675 247.95592
175.48587 53.082977 248.88141
175.98265 53.593231 246.91153
176.60158 53.590698 246.86938
177.28886 53.331711 247.78975
178.19318 52.303444 251.6002
178.67819 52.813377 249.62473
179.38025 52.554039 250.53925
180.08725 52.294586 251.45172
180.55804 52.804298 249.47258
181.10205 53.057526 248.45561
181.89697 52.541313 250.32582
182.43877 52.794357 249.30583
182.97583 53.047333 248.28465
183.78561 52.530746 250.14865
184.32048 52.783539 249.12445
185.14261 52.266678 250.98398
185.8748 52.00621 251.87949
186.61197 51.745598 252.77284
187.24951 51.741432 252.70313
187.99422 51.48056 253.59235
188.63446 51.476181 253.51901
189.27484 51.47168 253.444
189.91537 51.467087 253.36731
190.43933 51.71904 252.3295
191.07773 51.714249 252.24969
191.95944 51.195953 254.08588
192.72704 50.934189 254.9606
193.3732 50.929016 254.87477
194.01953 50.923729 254.78722
194.79735 50.661552 255.65549
195.44646 50.656036 255.56415
196.09575 50.650391 255.47107
196.88382 50.387794 256.33273
197.67696 50.125046 257.19193
198.33168 50.119019 257.09286
198.9866 50.112877 256.99203
199.49341 50.363548 255.93448
200.1463 50.357193 255.83051
200.64619 50.607697 254.77054
201.45273 50.344124 255.61723
202.10626 50.33741 255.50792
202.92053 50.07354 256.34976
203.73993 49.809486 257.189
204.39902 49.802361 257.07346
204.8905 50.052238 256.00439
205.54764 50.044891 255.88565
206.37773 49.780235 256.71588
207.21298 49.515404 257.54337
208.23099 48.993149 259.31796
208.8989 48.985191 259.19003
209.56708 48.977104 259.06021
210.23552 48.96888 258.92853
210.52942 49.475258 256.89902
211.19351 49.466843 256.76456
212.0502 49.200882 257.57516
212.91209 48.934723 258.38287
213.77917 48.668358 259.18765
214.45178 48.659332 259.04404
215.12469 48.650177 258.8985
215.79791 48.640877 258.75101
216.47145 48.631447 258.60162
216.93578 48.879532 257.50702
217.81944 48.61219 258.29694
218.92279 48.086899 260.02594
219.60254 48.076866 259.86752
220.06326 48.324493 258.7662
220.74118 48.31424 258.60437
221.64377 48.045959 259.38037
222.55162 47.777473 260.15314
223.00632 48.024689 259.04553
223.68813 48.01384 258.87512
224.83862 47.486816 260.57727
225.52609 47.475624 260.40149
226.21393 47.464317 260.22363
227.14374 47.19471 260.97913
228.32294 46.666702 262.66595
228.7728 46.913109 261.54578
229.4671 46.901192 261.35825
230.91631 46.114174 263.9668
231.36484 46.360237 262.84088
232.32178 46.089432 263.57697
233.02509 46.076897 263.37875
233.46738 46.322708 262.24847
233.64117 46.827057 260.18814
234.60466 46.555679 260.91412
235.30463 46.54274 260.70865
236.005 46.529686 260.50101
236.97968 46.257797 261.21744
237.68335 46.244476 261.00464
238.66632 45.972244 261.71436
239.65472 45.699799 262.42032
240.6485 45.42717 263.1225
241.3613 45.413315 262.89835
242.36342 45.140358 263.5936
243.07954 45.126297 263.36407
243.50217 45.371262 262.21225
244.513 45.097931 262.89816
244.93143 45.342857 261.74338
245.94807 45.06929 262.42303
246.36224 45.314209 261.26523
247.99757 44.521706 263.77026
248.72148 44.507103 263.52283
250.0687 43.973541 265.10129
250.48438 44.218315 263.93408
252.16141 43.424881 266.4158
252.57779 43.669624 265.24384
253.31099 43.654816 264.98181
254.36862 43.38028 265.62711
255.10498 43.365448 265.35941
255.84166 43.350655 265.08926
257.24188 42.816154 266.63052
258.3183 42.541435 267.25964
259.40002 42.266708 267.88443
260.48706 41.991959 268.50485
260.55408 42.497444 266.41168
260.95547 42.743134 265.22202
262.04556 42.468697 265.8342
262.7915 42.454552 265.54181
263.8894 42.180313 266.14615
264.99246 41.906151 266.74612
266.45752 41.371758 268.23877
267.21381 41.358238 267.93271
268.33203 41.084526 268.51929
268.72629 41.331985 267.31339
269.84943 41.058762 267.89316
270.60791 41.046371 267.57648
271.73828 40.773705 268.14838
271.74963 41.283318 266.04645
273.25916 40.75071 267.50134
274.77844 40.218399 268.94962
276.3074 39.686401 270.3913
277.4613 39.415588 270.94086
277.07077 40.188568 267.94873
277.44406 40.440582 266.72751
278.59619 40.171478 267.27054
58.805611 52.868805 226.84523
59.05999 52.617233 228.01668
59.707687 52.624329 228.30362
59.585449 52.115707 230.36075
59.856422 51.865715 231.53328
60.893166 52.132263 230.92973
61.547577 52.141144 231.21132
63.327728 52.924271 228.8199
64.72039 53.449593 227.31152
66.473297 54.232971 224.90443
67.108498 54.242859 225.16965
67.74382 54.253021 225.43291
67.654167 53.747902 227.48538
66.854614 52.72773 231.33327
67.862762 52.996506 230.69901
68.155922 52.75013 231.85797
69.511475 53.276802 230.31783
70.856873 53.803444 228.77164
71.844704 54.072548 228.12108
72.482483 54.084229 228.36916
73.120163 54.096039 228.61513
73.757706 54.107948 228.85902
74.732391 54.377251 228.19536
76.036674 54.903793 226.62125
76.666122 54.915787 226.85611
77.625122 55.18499 226.1806
78.578865 55.45414 225.50119
78.553101 54.952011 227.54849
79.503853 55.221161 226.86407
79.809868 54.976288 227.99982
80.120636 54.731499 229.1353
80.121445 54.229935 231.1843
81.380753 54.755859 229.57614
81.391014 54.254463 231.6245
82.332512 54.523415 230.92517
82.96402 54.535553 231.13928
83.897354 54.804283 230.43332
84.226059 54.559708 231.5614
85.45089 55.084793 229.92999
85.781433 54.840149 231.05489
86.408791 54.851982 231.25806
87.035812 54.863754 231.45921
87.949638 55.13179 230.73546
88.573486 55.143372 230.93184
89.196976 55.154869 231.12625
89.540459 54.910072 232.24396
90.165756 54.921448 232.43518
91.065407 55.18885 231.69768
91.959732 55.456078 230.95671
92.579018 55.467087 231.14059
93.197952 55.478004 231.32254
94.346062 56.000717 229.6431
94.172546 55.243629 232.6111
94.792946 55.254276 232.78802
95.41301 55.264828 232.96303
96.542389 55.786827 231.27104
96.904472 55.541336 232.3741
97.521049 55.551514 232.54274
98.137299 55.561584 232.70952
98.75322 55.571552 232.87439
99.853729 56.092545 231.16565
100.94403 56.613274 229.45245
102.02414 57.133739 227.73488
102.62396 57.143013 227.88858
103.2235 57.152168 228.04051
103.3625 56.650448 230.06874
103.73871 56.404106 231.15799
104.56992 56.66835 230.3661
105.3959 56.932392 229.57129
105.99641 56.941017 229.71495
106.59664 56.949528 229.85686
107.41193 57.213097 229.0544
107.79625 56.966198 230.13544
108.18523 56.71925 231.21585
108.7868 56.727333 231.35133
109.18259 56.480255 232.42995
109.7861 56.488144 232.5625
110.58995 56.750881 231.74745
111.38864 57.013443 230.92961
112.18217 57.275829 230.10904
112.7773 57.283157 230.23322
113.563 57.545223 229.40773
113.96684 57.297474 230.47649
114.37533 57.049667 231.54459
114.97195 57.056572 231.66252
115.56834 57.063362 231.77881
115.98593 56.815327 232.84381
116.58432 56.821926 232.95723
117.1825 56.828415 233.06897
117.6092 56.580154 234.13083
118.37822 56.841053 233.28752
119.14215 57.101799 232.44168
119.901 57.362373 231.59335
120.65477 57.622795 230.74257
121.08534 57.374046 231.79709
121.52059 57.125233 232.85085
121.96053 56.876366 233.90379
122.55692 56.881882 234.00079
123.15312 56.887287 234.09621
123.74915 56.892586 234.18999
124.20053 56.643402 235.23843
124.94069 56.902878 234.37274
125.39661 56.65353 235.41872
125.9944 56.658443 235.50644
126.59203 56.663254 235.59258
127.18951 56.667957 235.67712
127.78683 56.672558 235.76007
128.384 56.677067 235.84142
128.98103 56.681473 235.9212
129.70053 56.939983 235.04007
130.29486 56.944172 235.11636
130.88904 56.948273 235.1911
131.59843 57.206417 234.30402
132.07703 56.956165 235.33588
132.56035 56.705849 236.36676
133.15645 56.709579 236.43553
133.85808 56.967308 235.54134
134.34831 56.716755 236.56837
134.94406 56.720188 236.63249
135.5397 56.723537 236.69504
136.03931 56.472755 237.71846
136.54362 56.22192 238.74078
136.96158 55.716991 240.72498
137.65518 55.974022 239.81912
138.2576 55.976952 239.87459
138.85991 55.979794 239.92851
139.625 56.490471 238.05333
140.1433 56.239151 239.06772
140.74292 56.241703 239.11681
141.34248 56.244167 239.16434
141.94196 56.246548 239.21031
142.47202 55.994923 240.21948
143.20763 56.504948 238.33276
143.73996 56.253162 239.33904
144.33916 56.255184 239.37888
144.8786 56.00325 240.38257
145.4801 56.005108 240.41951
146.08153 56.006889 240.45486
146.73535 56.262444 239.5229
147.33426 56.264042 239.5551
147.83791 55.757858 241.51788
148.53194 56.266987 239.6149
149.08792 56.014496 240.6088
149.68907 56.015762 240.63499
150.36607 56.524601 238.72664
150.99785 56.779503 237.78302
151.62477 57.034325 236.83768
152.21613 57.035236 236.85745
152.77914 56.782269 237.84254
153.34697 56.529209 238.82628
153.9196 56.276081 239.80864
154.47598 55.769066 241.75664
155.06064 55.515789 242.73622
155.66635 55.51622 242.74725
156.27203 55.516563 242.75677
156.88911 55.770638 241.79755
157.4744 55.263237 243.73836
158.08247 55.26334 243.74329
158.69055 55.263348 243.74669
159.29688 55.009483 244.71581
159.90736 55.009346 244.71608
160.51172 55.516712 242.78033
161.11191 55.770191 241.81035
161.73099 55.262199 243.74051
162.34941 55.007912 244.70187
162.98541 54.499748 246.62877
163.61595 54.245277 247.58688
164.25133 53.99073 248.54333
164.83167 54.497513 246.597
165.44713 54.496613 246.58327
166.03783 54.749435 245.60107
166.65094 54.74836 245.58429
167.2937 54.49337 246.53276
167.9093 54.492119 246.51282
168.55939 54.236938 247.45792
169.21436 53.981667 248.40128
169.79564 54.233994 247.41
170.37213 54.486252 246.41733
170.98796 54.484573 246.38954
171.60384 54.482803 246.36018
172.17084 54.734825 245.36328
172.88713 54.225113 247.26263
173.61314 53.715279 249.15993
174.23653 53.713135 249.12387
174.80136 53.964813 248.12077
175.42245 53.962494 248.08168
175.91675 54.467957 246.1107
176.53316 54.465469 246.06877
177.28621 53.955002 247.95485
178.19038 52.936478 251.76791
178.67532 53.441612 249.79121
179.45282 52.930756 251.6707
180.16211 52.673767 252.58372
180.63525 53.178665 250.60313
181.18159 53.429504 249.58537
181.89362 53.172211 250.49332
182.43533 53.422874 249.47278
182.97232 53.673477 248.45103
183.6895 53.415878 249.35364
184.31676 53.412224 249.29164
185.04144 53.154388 250.19028
185.7711 52.896408 251.08678
186.50572 52.638306 251.98111
187.24533 52.380074 252.87326
187.9899 52.121712 253.7632
188.52061 52.371567 252.72903
189.15846 52.367157 252.65442
189.91075 52.108437 253.53848
190.55132 52.103798 253.46021
191.19205 52.09906 253.38025
191.95448 51.839951 254.25804
192.72195 51.580696 255.13353
193.368 51.5756 255.04781
194.01422 51.570381 254.96042
194.66063 51.565079 254.87126
195.4409 51.30529 255.7382
195.95395 51.554115 254.68779
196.73946 51.29406 255.5506
197.38901 51.288277 255.45416
198.32564 50.773491 257.26877
198.98044 50.767441 257.16809
199.63545 50.761261 257.06567
200.13992 51.009499 256.0062
200.79291 51.00312 255.9006
201.2905 51.25119 254.83878
202.25758 50.735413 256.63812
202.75316 50.983276 255.57312
203.73291 50.46714 257.36682
204.39188 50.460114 257.25143
205.05109 50.452965 257.13425
205.54025 50.700432 256.06326
206.54292 50.183571 257.84579
207.38046 49.921249 258.67371
208.22313 49.65876 259.49878
209.07095 49.396072 260.32111
209.74146 49.388062 260.19101
210.22728 49.634827 259.10989
210.89587 49.626595 258.97653
211.18507 50.128136 256.94498
211.84933 50.119705 256.80884
212.70859 49.856148 257.61789
213.57306 49.592377 258.42407
214.04344 49.838577 257.33511
214.7113 49.829605 257.19083
215.58403 49.565361 257.98965
216.46199 49.300896 258.78552
217.1357 49.291458 258.63437
218.23358 48.771385 260.36801
219.12726 48.506332 261.15463
220.02617 48.241074 261.93811
220.49171 48.48632 260.83514
221.17445 48.476105 260.67242
221.85754 48.465759 260.50769
222.9944 47.944359 262.22061
223.22475 48.444672 260.17212
223.90889 48.433929 260.00131
224.82753 48.167458 260.76648
225.75146 47.900787 261.52832
225.9635 48.400894 259.47662
227.37373 47.622513 262.10583
228.55521 47.099495 263.79367
229.00745 47.343536 262.67242
229.45512 47.58754 261.55038
231.15555 46.552132 265.09473
231.35252 47.051758 263.03494
232.30927 46.783546 263.77197
233.27139 46.515114 264.50546
233.97748 46.502525 264.30469
233.89233 47.258095 261.31192
234.85815 46.989258 262.03818
235.56047 46.97641 261.83221
236.53459 46.707207 262.55188
237.24023 46.694084 262.34082
238.22264 46.42453 263.05377
238.93161 46.41114 262.83749
239.64101 46.397644 262.61899
240.06697 46.640511 261.4743
241.06104 46.370361 262.1752
241.77164 46.356598 261.94986
242.77402 46.086128 262.64383
243.19412 46.328781 261.49243
243.90596 46.314774 261.26025
244.61821 46.30069 261.02579
245.93361 45.772911 262.62558
246.34776 46.015472 261.46738
247.98291 45.230431 263.97488
248.70676 45.215927 263.72772
249.7424 44.944366 264.39307
250.46953 44.929749 264.14032
251.82993 44.400879 265.7114
252.24384 44.64328 264.53992
253.29602 44.371353 265.19043
254.02957 44.356598 264.9263
254.76343 44.341866 264.65979
255.82669 44.069786 265.29947
256.89526 43.797661 265.93481
257.96918 43.525482 266.56589
259.0484 43.253265 267.19263
260.1329 42.981033 267.81503
260.53931 43.22403 266.6254
260.59665 43.724892 264.53247
261.68427 43.452942 265.14661
262.42786 43.438797 264.85547
263.52335 43.167007 265.46179
265.33267 42.379601 267.86142
266.80035 41.850014 269.35471
267.55942 41.836342 269.04785
269.04233 41.306946 270.53015
269.07748 41.809769 268.42685
269.46942 42.054977 267.21906
270.22571 42.042465 266.90363
272.09796 41.255814 269.26062
272.11227 41.760277 267.15625
273.24756 41.490585 267.7222
274.38757 41.221222 268.28369
276.29654 40.435623 270.61523
276.29688 40.942032 268.50708
276.28662 41.449081 266.40115
277.04517 41.439972 266.06537
278.58755 40.914581 267.49304
58.026955 52.986954 228.79823
59.457497 53.505249 227.31914
60.490829 53.76825 226.71935
60.364059 53.264709 228.7757
61.395767 53.528542 228.17107
62.422798 53.792709 227.56238
62.689873 53.546089 228.72955
63.712471 53.810905 228.11479
65.102859 54.331444 226.60378
66.48333 54.852112 225.08658
67.118797 54.862129 225.35165
67.754364 54.872398 225.61478
67.665016 54.372299 227.66855
66.865837 53.362053 231.51917
67.516685 53.37323 231.78236
68.522453 53.639778 231.14409
69.170723 53.651268 231.40211
70.868576 54.428154 228.95392
71.856491 54.694847 228.3024
72.149551 54.451561 229.45361
73.132164 54.718376 228.79602
73.769768 54.730278 229.03973
74.069923 54.487411 230.18761
75.379219 55.009132 228.61369
76.67823 55.530712 227.03395
77.307495 55.542725 227.26654
78.918159 56.318756 224.76714
79.214699 56.076069 225.90378
79.838188 56.088062 226.1284
79.822067 55.591026 228.17641
80.450027 55.603111 228.39877
80.44841 55.106354 230.44803
81.080826 55.118523 230.668
81.403275 54.876328 231.8022
82.344696 55.142754 231.10187
82.976151 55.154816 231.31573
84.21151 55.675198 229.69003
84.537704 55.432945 230.81773
85.75988 55.952976 229.18384
86.087906 55.710655 230.30833
86.712692 55.722351 230.51044
87.337151 55.733982 230.71053
87.96125 55.745529 230.90865
88.585014 55.757011 231.10475
89.20842 55.768406 231.29892
89.551857 55.525959 232.41704
90.177055 55.537224 232.60805
91.076561 55.802074 231.86958
91.698586 55.81311 232.05589
92.589943 56.077648 231.31128
93.208778 56.088444 231.493
94.091988 56.352646 230.74237
94.183205 55.856297 232.78175
94.803497 55.86684 232.95842
95.166183 55.623905 234.0657
96.297852 56.14093 232.37282
96.914658 56.151108 232.54309
98.030792 56.667671 230.84232
98.889343 56.930756 230.07227
99.742615 57.193649 229.29903
100.34821 57.203224 229.45923
101.43338 57.718876 227.74315
102.27088 57.981197 226.96059
102.63312 57.737305 228.05194
103.46507 57.999332 227.26453
103.83165 57.755291 228.35355
103.97523 57.258308 230.38237
104.57869 57.267086 230.52995
105.6272 57.781414 228.79272
106.00491 57.537098 229.87772
106.8228 57.798264 229.07671
107.42017 57.806515 229.21609
107.80441 57.561951 230.29761
107.77251 56.812016 233.26729
108.58682 57.072685 232.45874
108.7795 56.575378 234.48386
109.59082 56.835781 233.67128
110.39697 57.096008 232.85593
111.19797 57.35606 232.03777
111.9938 57.615932 231.21687
112.59127 57.623188 231.34138
113.57006 58.135166 229.56696
113.97382 57.889755 230.6362
114.56812 57.896648 230.75516
115.34563 58.155766 229.92235
115.93703 58.162403 230.03755
116.34964 57.91666 231.10208
116.94304 57.923103 231.21443
117.36255 57.677231 232.27705
117.78671 57.431278 233.33899
118.55316 57.68964 232.4944
119.14816 57.695675 232.60065
119.74295 57.701603 232.70525
120.49904 57.959534 231.85406
120.77291 57.461082 233.86407
121.52618 57.718777 233.00922
121.81184 57.220222 235.01805
122.41057 57.225674 235.11533
123.15842 57.483013 234.25482
123.90121 57.740196 233.39198
124.20564 57.241409 235.39745
124.94568 57.498375 234.53099
125.5411 57.503284 234.61986
125.9992 57.256214 235.66512
126.73146 57.512814 234.7928
127.3264 57.517429 234.87689
127.9212 57.52195 234.95938
128.51585 57.526363 235.04031
128.98534 57.278893 236.07933
129.58212 57.283138 236.15741
130.05861 57.035515 237.19423
130.7753 57.291321 236.30888
131.487 57.547001 235.42134
132.19373 57.802555 234.53165
132.67455 57.554588 235.56281
133.16008 57.306557 236.59299
133.75597 57.310135 236.66008
134.35175 57.313622 236.72565
134.94742 57.317001 236.78967
135.54297 57.320297 236.85213
136.04248 57.071899 237.87608
136.54672 56.823421 238.89903
136.96461 56.323299 240.8844
137.65813 56.577862 239.9778
138.17418 56.329182 240.99721
138.9465 56.835091 239.12288
139.70908 57.340862 237.24614
140.22485 57.091908 238.26091
140.74539 56.842899 239.27452
141.41904 57.096836 238.35698
142.01601 57.099155 238.40276
142.54358 56.849915 239.41232
143.20975 57.103565 238.48962
143.8065 57.105637 238.53078
144.4032 57.107628 238.57039
144.94016 56.858067 239.57454
145.53915 56.859898 239.61124
146.08324 56.610191 240.61275
146.73695 56.863289 239.68013
147.33578 56.864868 239.71227
147.88696 56.614925 240.70961
148.53329 56.867756 239.772
149.13199 56.869083 239.79955
149.73062 56.870323 239.82562
150.40512 57.374283 237.91591
151.03441 57.626755 236.97148
151.69194 58.130531 235.05809
152.24768 57.880028 236.04506
152.80821 57.629448 237.03072
