ply
format ascii 1.0
comment PCL generated
element vertex 925
property float x
property float y
property float z
element camera 1
property float view_px
property float view_py
property float view_pz
property float x_axisx
property float x_axisy
property float x_axisz
property float y_axisx
property float y_axisy
property float y_axisz
property float z_axisx
property float z_axisy
property float z_axisz
property float focal
property float scalex
property float scaley
property float centerx
property float centery
property int viewportx
property int viewporty
property float k1
property float k2
end_header
-0.013975658 -0.054737996 0.0072272718
-0.012855877 -0.054929659 0.0072796941
-0.011615269 -0.054591767 0.0073127151
-0.010373709 -0.054173816 0.0057688653
-0.0080238851 -0.053874657 0.0052469671
-0.014602558 -0.047979835 0.0086878836
-0.013544117 -0.047925338 0.011296034
-0.01248288 -0.047851041 0.011760652
-0.011390164 -0.047631599 0.013173133
-0.01030813 -0.047417399 0.012212604
-0.0092991162 -0.047528822 0.01236403
-0.0082813352 -0.047617678 0.012067974
-0.0074368659 -0.048870835 0.012046635
-0.0062173521 -0.047666367 0.012141407
-0.0051755477 -0.047615044 0.012236685
-0.0041565453 -0.047800269 0.012349725
-0.0031169306 -0.047792938 0.012313634
-0.0020807723 -0.047857765 0.012108743
-0.001033793 -0.047554482 0.012640059
0 -0.047674447 0.012305975
0.0010379122 -0.047743961 0.012391269
0.0020521805 -0.047200155 0.011158615
0.0031381925 -0.048118953 0.01010105
0.0040957294 -0.04710089 0.005307883
-0.016719293 -0.047023017 0.0058214366
-0.015728515 -0.047185548 0.011470318
-0.014710085 -0.047282416 0.013127595
-0.013614836 -0.047128282 0.014108986
-0.012503098 -0.046886619 0.014213443
-0.011533278 -0.047181595 0.014213443
-0.010470939 -0.047119226 0.013856709
-0.009375874 -0.046879373 0.013715804
-0.008425178 -0.047391627 0.013709217
-0.0073337788 -0.047145724 0.013581306
-0.006265264 -0.046989482 0.013553888
-0.0052442546 -0.047198292 0.012625962
-0.0042023063 -0.047275949 0.012676626
-0.0031347109 -0.047020666 0.01284954
-0.0020899607 -0.04702412 0.012589961
-0.0010502617 -0.047261778 0.013063043
0 -0.046880186 0.013118267
0.0010422633 -0.046901856 0.013933837
0.0020950506 -0.047138639 0.01369366
0.0031127164 -0.046690747 0.013512075
0.0042032758 -0.047286857 0.011520237
0.005240316 -0.047162849 0.0097174048
-0.017769372 -0.045991316 0.0071454942
-0.016827563 -0.046275798 0.011535853
-0.015769171 -0.046256233 0.013557792
-0.01485659 -0.046692137 0.014235824
-0.013587859 -0.045989677 0.01438868
-0.012551604 -0.046022549 0.014432043
-0.01161842 -0.046473678 0.014282793
-0.01041504 -0.045826178 0.014007568
-0.0094553437 -0.046226129 0.013888955
-0.0084110089 -0.046260551 0.013694465
-0.0072738593 -0.045721401 0.013422906
-0.0062582586 -0.045893896 0.013459116
-0.0052705435 -0.046380781 0.012560695
-0.0042020064 -0.046222068 0.012560695
-0.0031402996 -0.046057727 0.01269114
-0.0021104149 -0.046429127 0.012810409
-0.0010432164 -0.045901522 0.012703091
0 -0.046285689 0.013646901
0.0010535201 -0.046354886 0.014289171
0.0020970809 -0.046135779 0.014032185
0.0031368448 -0.046007056 0.01402539
0.004214128 -0.046355404 0.013776273
0.0052347863 -0.04606612 0.013048917
0.0062666219 -0.045955226 0.0099339783
0.0072751325 -0.045729402 0.0053203106
-0.018937565 -0.045239743 0.0070180595
-0.017800914 -0.04502584 0.011726737
-0.016645979 -0.044736069 0.013366044
-0.015675256 -0.044935733 0.014369577
-0.014643423 -0.044976227 0.014492452
-0.013645862 -0.045136314 0.014660835
-0.012626239 -0.045244023 0.014472753
-0.011447546 -0.044749498 0.014180154
-0.010438444 -0.044885311 0.0141927
-0.0094578834 -0.045187667 0.014097154
-0.0084481826 -0.045408979 0.013608634
-0.0074200826 -0.045580506 0.013187796
-0.0063174078 -0.045274757 0.013196856
-0.0052198251 -0.044890497 0.012407154
-0.0041980431 -0.045128964 0.012407154
-0.0031887947 -0.045706056 0.012414902
-0.0020843067 -0.044812594 0.012585223
-0.001048832 -0.045099773 0.012682706
0 -0.045021705 0.013752937
0.0010502263 -0.045159731 0.014354229
0.0020926732 -0.044992473 0.013875335
0.0031491462 -0.045137763 0.014090568
0.0041703987 -0.044831786 0.013590276
0.0052283118 -0.044963483 0.013096541
0.0062944936 -0.045110535 0.011486262
0.0072855726 -0.044754233 0.0098537803
0.0083633224 -0.044952858 0.0050815344
-0.019047216 -0.044443507 0.011832595
-0.017895192 -0.044211648 0.013650358
-0.016750207 -0.043969292 0.014404118
-0.01579663 -0.044230565 0.014704525
-0.014540358 -0.043621074 0.014722675
-0.013694355 -0.044243302 0.014722675
-0.012574272 -0.044009954 0.014632761
-0.011457887 -0.043748293 0.01423654
-0.010533333 -0.044240002 0.014146656
-0.0094489073 -0.044094905 0.013986796
-0.0084018959 -0.044109955 0.013405889
-0.0073876525 -0.044325914 0.013159573
-0.0063008759 -0.044106133 0.013063043
-0.0053006313 -0.044525303 0.012130916
-0.004197205 -0.044070654 0.012107283
-0.003157068 -0.044198953 0.012666106
-0.0020988018 -0.044074837 0.012569219
-0.0010494713 -0.044077795 0.013097852
0 -0.044032086 0.013787687
0.0010571122 -0.044398714 0.014137
0.0020843691 -0.043771751 0.013888448
0.0030988532 -0.043383945 0.014319211
0.0041695535 -0.043780316 0.013903409
0.0052199829 -0.043847859 0.013561666
0.0062739537 -0.043917675 0.013034791
0.0073070102 -0.043842062 0.012683421
0.0083451467 -0.043812018 0.0095448196
-0.020072561 -0.043314476 0.010478675
-0.018933201 -0.043125629 0.013364077
-0.017867839 -0.043093022 0.014504641
-0.016873779 -0.043239057 0.014617682
-0.015603374 -0.042649224 0.014829993
-0.014827549 -0.043423537 0.014821559
-0.013531568 -0.042676486 0.01484099
-0.01260005 -0.043050177 0.014717191
-0.011491505 -0.04283198 0.014404118
-0.010482065 -0.042976469 0.014314234
-0.0093956627 -0.042802464 0.014007568
-0.008434617 -0.043227416 0.013405889
-0.0073912456 -0.043291584 0.013022989
-0.0063388837 -0.043315705 0.013055325
-0.0052944096 -0.043414161 0.012123019
-0.0042441376 -0.043502409 0.012130916
-0.0031809881 -0.043473508 0.012736022
-0.002112685 -0.043310046 0.012685537
-0.0010502866 -0.043061748 0.013124824
0 -0.042765934 0.013795018
0.001058172 -0.043385051 0.014391631
0.0021007962 -0.043066323 0.014044136
0.0031611538 -0.043202437 0.014326751
0.004231764 -0.043375582 0.014053732
0.005258624 -0.043120719 0.013779134
0.0062533654 -0.042731334 0.013368368
0.0073606786 -0.04311255 0.012979478
0.0083700903 -0.042896714 0.011314422
0.0093203448 -0.04245935 0.0095385909
-0.021330511 -0.042661022 0.0069956183
-0.019988915 -0.042081926 0.012826383
-0.018862657 -0.041917015 0.013383955
-0.017669294 -0.041574806 0.014335066
-0.016707281 -0.041768197 0.014395893
-0.015845558 -0.042254817 0.014472753
-0.014557063 -0.041591607 0.014494151
-0.013672126 -0.042068079 0.014307946
-0.012638138 -0.042127125 0.014282793
-0.011587785 -0.042137396 0.013499051
-0.010541705 -0.042166822 0.012980372
-0.0096551431 -0.042911749 0.01191321
-0.0085299052 -0.042649522 0.011307269
-0.0075183678 -0.0429621 0.010995179
-0.0063826954 -0.042551301 0.010384828
-0.0053539779 -0.042831823 0.010141999
-0.0042927661 -0.04292766 0.010141999
-0.0032272888 -0.043030519 0.010581583
-0.0021336002 -0.042672005 0.010832042
-0.0010688122 -0.042752489 0.011068702
0 -0.042492937 0.011931688
0.0010520666 -0.04208266 0.012409687
0.0020826354 -0.041652706 0.013241559
0.0031845158 -0.042460211 0.013827741
0.0041922964 -0.041922964 0.013561666
0.005255695 -0.04204556 0.013448089
0.0062625762 -0.041750509 0.01320228
0.0073353457 -0.041916259 0.013114601
0.0084022749 -0.042011373 0.012330562
0.0094056586 -0.041802928 0.010636479
0.010528361 -0.042113446 0.0089699328
-0.020986585 -0.040923841 0.011013627
-0.019983426 -0.041018609 0.012969792
-0.018801782 -0.040737197 0.013323575
-0.017885946 -0.041032463 0.013751477
-0.016756959 -0.040845085 0.013873667
-0.015675677 -0.040756762 0.013867259
-0.014544484 -0.040516779 0.013707995
-0.013718835 -0.041156504 0.013557911
-0.012745319 -0.041422285 0.012889415
-0.011660017 -0.041340061 0.012237638
-0.010668047 -0.041605383 0.011127144
-0.0096247401 -0.04170721 0.010417968
-0.0085790753 -0.041822989 0.0092895329
-0.0075452663 -0.042037912 0.0081010461
-0.0064162947 -0.041705914 0.0079696774
-0.0053440602 -0.04168367 0.0081301332
-0.0042726975 -0.0416588 0.0079022944
-0.0032055026 -0.041671537 0.0081757009
-0.0021384915 -0.041700583 0.0086575747
-0.0010784802 -0.042060725 0.0097185671
0 -0.041360274 0.010605693
0.0010724114 -0.041824043 0.010590822
0.0021335152 -0.041603547 0.01138556
0.003156529 -0.041034877 0.011816055
0.0042549772 -0.041486029 0.012762547
0.0052503049 -0.040952377 0.012865573
0.0062790345 -0.040813722 0.012757748
0.0073044328 -0.040696125 0.012823284
0.0084256865 -0.041075218 0.012404948
0.0094439965 -0.040923987 0.011127263
0.010410204 -0.040599797 0.0098697245
-0.022520836 -0.04075199 0.009604156
-0.021010976 -0.039920855 0.012544781
-0.020143708 -0.040287416 0.013134539
-0.018825905 -0.03974358 0.013375789
-0.01789433 -0.039999086 0.013488591
-0.016890991 -0.040116105 0.013415635
-0.015794056 -0.040011611 0.013284355
-0.014654113 -0.03977545 0.012888044
-0.013730777 -0.040136121 0.01261428
-0.012618026 -0.03995708 0.011294365
-0.011892407 -0.041082863 0.010624826
-0.010602016 -0.040287662 0.0084405839
-0.0095445607 -0.040299259 0.0078477859
-0.0085481042 -0.040603496 0.0070252717
-0.0074999062 -0.040713776 0.0064098835
-0.0064396751 -0.040784612 0.0061828196
-0.0054272767 -0.041247305 0.0063784122
-0.00430965 -0.040941674 0.0063786805
-0.0031942483 -0.040460479 0.0066904724
-0.0021336596 -0.040539529 0.0068234205
-0.0010710282 -0.040699068 0.0076948404
0 -0.040761475 0.008477807
0.0010707247 -0.040687535 0.0097017586
0.0021204266 -0.040288106 0.0098010004
0.0032206529 -0.040794939 0.01014939
0.0042268559 -0.040155135 0.010926753
0.0052008745 -0.039526649 0.011307031
0.0062834444 -0.039795149 0.012405038
0.0074357535 -0.040365521 0.012673438
0.0083699171 -0.039757106 0.012391299
0.009534183 -0.040255442 0.011329234
0.010453949 -0.039725006 0.010627151
0.011397808 -0.039374247 0.0090764761
-0.022007819 -0.038775682 0.01147449
-0.020994017 -0.038838934 0.013038725
-0.019957092 -0.038863812 0.013184667
-0.018915432 -0.038881723 0.013344944
-0.017890228 -0.038937557 0.013276607
-0.016880348 -0.039035808 0.013009787
-0.015739474 -0.03882404 0.012854159
-0.015029602 -0.039721094 0.012318999
-0.0137955 -0.039264116 0.011178941
-0.012824872 -0.039543357 0.010233909
-0.011670843 -0.039256476 0.0078998804
-0.010681565 -0.039521791 0.0069280863
-0.0097379861 -0.040033948 0.0059707165
-0.0010752236 -0.039783273 0.0059291422
0 -0.039644111 0.0069133639
0.0010613803 -0.039271068 0.0078733265
0.0021133905 -0.039097726 0.0093542635
0.0032097441 -0.039586846 0.0097568035
0.0042037959 -0.038885113 0.010127664
0.0053071138 -0.039272647 0.010845155
0.0063173235 -0.038956828 0.011140257
0.0073299683 -0.038744122 0.012029737
0.0083903158 -0.038805213 0.012186438
0.0094500808 -0.038850334 0.011892438
0.01046973 -0.038738001 0.010836452
0.011620103 -0.039085805 0.0098145008
0.012945036 -0.039913863 0.0075287521
-0.02341014 -0.038307499 0.010009617
-0.022020428 -0.037749302 0.01231125
-0.02094659 -0.037703861 0.013045818
-0.019988107 -0.037872203 0.013294965
-0.019001607 -0.038003214 0.013344944
-0.017965442 -0.03804446 0.013130575
-0.016925912 -0.0380833 0.012830973
-0.015895054 -0.038148127 0.01247716
-0.014961622 -0.038472742 0.011191428
-0.013843595 -0.038336109 0.010239542
-0.01274837 -0.038245108 0.0080316067
-0.01189719 -0.038936254 0.0062203705
0.0010905886 -0.039261188 0.006151557
0.0021289296 -0.038320731 0.0075023472
0.003189337 -0.038272042 0.0088611841
0.0042491988 -0.038242791 0.0096921921
0.0053055817 -0.038200188 0.010077238
0.0063533648 -0.038120188 0.010801047
0.0073847575 -0.03797875 0.01148355
0.0084592467 -0.038066607 0.012029737
0.0094483923 -0.037793569 0.012292981
0.010481811 -0.03773452 0.01211524
0.011415719 -0.037360534 0.010871708
0.012518183 -0.037554547 0.009494096
-0.023053668 -0.036676291 0.01147449
-0.022007428 -0.036679044 0.012969792
-0.021059182 -0.03685357 0.013013095
-0.020085879 -0.037000302 0.013120919
-0.019021073 -0.03698542 0.01321438
-0.017754795 -0.036553986 0.012860864
-0.016917009 -0.037005953 0.012348473
-0.01581387 -0.03689903 0.011431277
-0.014940266 -0.037350666 0.010388523
-0.013986338 -0.037655525 0.0081486106
-0.012953724 -0.037781697 0.0062274635
0.0021666943 -0.037917152 0.0056931674
0.0031831146 -0.037136335 0.0071397126
0.0042729732 -0.037388515 0.00889498
0.0052897427 -0.037028201 0.0096975863
0.0064433175 -0.037586018 0.010321975
0.0074203932 -0.037101965 0.011209548
0.0083649084 -0.036596473 0.011612415
0.0094450051 -0.036730576 0.012185723
0.010460434 -0.03661152 0.012275159
0.011501054 -0.036594264 0.011652946
0.012648442 -0.036891289 0.010960788
0.013571981 -0.036539949 0.0093494356
-0.024503751 -0.036222935 0.010218889
-0.023075938 -0.035662815 0.011822701
-0.021981545 -0.03558917 0.012820691
-0.02125543 -0.036134232 0.012907773
-0.020063648 -0.035903368 0.012936294
-0.019027323 -0.035940498 0.012870461
-0.018022763 -0.036045525 0.012403607
-0.017004158 -0.036133837 0.011449546
-0.016034 -0.036343735 0.010550588
-0.015015716 -0.036466736 0.0087024868
-0.014061166 -0.036775358 0.006457448
0.0032654505 -0.037008438 0.0058279037
0.0042622229 -0.036228895 0.007951647
0.0053087967 -0.036099818 0.0094556212
0.006415172 -0.036352642 0.0098411739
0.0074270843 -0.036074411 0.010519236
0.0084964484 -0.036109906 0.011172324
0.0094524939 -0.035709422 0.01175037
0.010508226 -0.03572797 0.011886746
0.011514871 -0.03559142 0.011843771
0.012543291 -0.035539325 0.011205405
0.013547252 -0.035431277 0.010557801
-0.024263237 -0.034812469 0.011376083
-0.02306604 -0.034599058 0.012051135
-0.022108447 -0.034741845 0.012870014
-0.021110535 -0.034832381 0.012981892
-0.01996747 -0.034680344 0.013008833
-0.019060776 -0.034944754 0.012766272
-0.01804921 -0.035036702 0.011788309
-0.016813381 -0.034677599 0.011097848
-0.015971744 -0.03513784 0.0095946193
-0.014955916 -0.03525323 0.0079738498
0.0042942213 -0.035427324 0.0063917637
0.0052919746 -0.034927033 0.0085679591
0.0063818712 -0.035100292 0.0098068416
0.007427352 -0.035014659 0.010428041
0.0084816888 -0.034986965 0.011314124
0.0094150901 -0.034521997 0.011956066
0.010579664 -0.034912892 0.012173802
0.011448437 -0.034345314 0.012147635
0.012561205 -0.034543313 0.011856079
0.013668505 -0.03469697 0.011218816
0.014624319 -0.034471609 0.0089859366
-0.025166674 -0.033555567 0.0098810196
-0.024273701 -0.033772103 0.012280107
-0.023173489 -0.033706892 0.013038695
-0.022098877 -0.033674479 0.013186365
-0.02095452 -0.033527233 0.013172626
-0.019888436 -0.033496313 0.012962192
-0.019082101 -0.033923738 0.012407064
-0.017952707 -0.03379333 0.011541605
-0.017059702 -0.034119405 0.010438561
-0.016121648 -0.034392849 0.0081988275
-0.015193647 -0.034728333 0.0050326884
0.004322317 -0.034578536 0.0054023862
0.0053677978 -0.034353908 0.0083956122
0.0063671144 -0.033957943 0.0097839534
0.0074479943 -0.034047976 0.010277182
0.0085286126 -0.03411445 0.011558384
0.0093491739 -0.033241507 0.012212098
0.010542303 -0.033735372 0.012588888
0.011472134 -0.033373483 0.012708962
0.01260019 -0.033600509 0.012367487
0.013570962 -0.033405446 0.01200974
0.014624714 -0.033427916 0.011239737
0.015988629 -0.034109078 0.0057658851
-0.025381306 -0.03278419 0.010479212
-0.024282621 -0.03272875 0.012412339
-0.022898901 -0.032266635 0.012898177
-0.021904303 -0.032334924 0.013127476
-0.021092189 -0.032692894 0.013118714
-0.019986929 -0.032610252 0.012906373
-0.01907271 -0.032847445 0.011987299
-0.018091479 -0.032990348 0.010647357
-0.017074697 -0.033082224 0.0093680918
-0.016303407 -0.033693708 0.0065267384
0.005363985 -0.03325671 0.0073291361
0.0063745608 -0.032935232 0.0090402961
0.0073698852 -0.032638062 0.010351926
0.0084767938 -0.032847576 0.011377335
0.0094511034 -0.032553803 0.012215614
0.010451987 -0.032401163 0.01280871
0.011529192 -0.03249136 0.013124377
0.012601194 -0.032553088 0.01302439
0.013726857 -0.032733273 0.012341321
0.014641182 -0.03241976 0.012263536
0.015626337 -0.032294434 0.0090118051
-0.026159169 -0.031391002 0.0069025457
-0.025375905 -0.031719882 0.011064708
-0.024016343 -0.031325664 0.012432694
-0.022827093 -0.031127855 0.012912422
-0.022005355 -0.03143622 0.013237685
-0.021190913 -0.031786371 0.013274312
-0.01991339 -0.031442195 0.013128191
-0.019126613 -0.031877689 0.011981815
-0.018110393 -0.031959515 0.010542601
-0.017099315 -0.032061215 0.0087256134
-0.016527971 -0.033055943 0.0051660836
0.0054084738 -0.032450844 0.0055266619
0.0064038564 -0.032019284 0.0084627569
0.0074602254 -0.031972393 0.010122478
0.0084516509 -0.03169369 0.011018991
0.0094988504 -0.031662837 0.012461394
0.010439986 -0.031319961 0.013205379
0.011487917 -0.031330682 0.013308465
0.012553257 -0.031383142 0.013257474
0.013753946 -0.031739876 0.013124377
0.014705207 -0.031511158 0.013000309
0.015794266 -0.031588532 0.011492163
0.016969053 -0.031816974 0.0053965449
-0.026817968 -0.031108843 0.0092078447
-0.025341203 -0.030620622 0.011141717
-0.024273496 -0.030605713 0.012412339
-0.023083761 -0.030428596 0.012820035
-0.021997901 -0.030378055 0.012898177
-0.021259176 -0.030825805 0.012910366
-0.02016288 -0.030774925 0.012330979
-0.019034972 -0.030667458 0.01154682
-0.017992856 -0.030693695 0.0098128915
-0.017219121 -0.031209657 0.0081101656
0.0064159767 -0.031010555 0.0084428489
0.007429244 -0.030778298 0.010024488
0.008522273 -0.030893242 0.010832071
0.009589239 -0.030898662 0.012312651
0.010577478 -0.030674687 0.013223231
0.011455247 -0.0302002 0.01335451
0.012762725 -0.030843254 0.013270706
0.013754096 -0.030682215 0.01280871
0.014713007 -0.030476945 0.01267761
0.015711468 -0.030375505 0.011496782
0.016755342 -0.030369058 0.007322818
-0.026558619 -0.029745653 0.0088023543
-0.025188297 -0.029386347 0.011021167
-0.024383934 -0.029684788 0.012251824
-0.023053098 -0.029340306 0.012889057
-0.022138281 -0.029517706 0.012935042
-0.021103766 -0.029545274 0.012935042
-0.020068321 -0.029574366 0.012644708
-0.018990213 -0.029540332 0.011986494
-0.018183034 -0.029948527 0.0096310973
-0.017252313 -0.030191548 0.0077697039
0.006508708 -0.03037397 0.0077835321
0.007340733 -0.029362932 0.0099446774
0.008548595 -0.029920083 0.01101318
0.0094097806 -0.029274875 0.012485802
0.010452262 -0.029266335 0.012999237
0.011551583 -0.029404031 0.01332742
0.012642413 -0.029498966 0.013227135
0.013574754 -0.029237932 0.012678027
0.014776035 -0.02955207 0.012523979
0.015840983 -0.029569836 0.01149413
0.017025732 -0.02979503 0.0074139535
-0.026312681 -0.028417695 0.0089930892
-0.025622549 -0.028825369 0.011152357
-0.024238618 -0.02845403 0.012342572
-0.023194682 -0.028466202 0.012935042
-0.022087196 -0.028397825 0.012935042
-0.021115873 -0.028506432 0.012913316
-0.020098303 -0.028560745 0.012644708
-0.01911051 -0.028665768 0.011986494
-0.018123107 -0.028783759 0.009630233
-0.017562607 -0.029636901 0.00573349
0.0064068967 -0.028831035 0.0077469945
0.0074352375 -0.028678775 0.0099027455
0.0084454389 -0.028503357 0.010956407
0.0094628455 -0.028388539 0.012485802
0.010447968 -0.028209515 0.013064027
0.011459235 -0.028127216 0.013370901
0.012606629 -0.028364917 0.01332432
0.013762834 -0.02858435 0.012778044
0.014755579 -0.028457189 0.012676716
0.015723316 -0.028301971 0.011573255
0.016820498 -0.028384591 0.0073372424
-0.026698077 -0.027765999 0.008990705
-0.025505768 -0.027631249 0.010977358
-0.02421326 -0.027371511 0.01229012
-0.023487205 -0.027757607 0.01268664
-0.022088276 -0.027347388 0.012754917
-0.021308955 -0.027701642 0.012727588
-0.020031167 -0.02741107 0.012473494
-0.018912332 -0.027317813 0.011813909
-0.018155029 -0.027766515 0.0097946823
-0.017328141 -0.028158227 0.0070625842
0.0065174657 -0.028242351 0.0077617764
0.007369176 -0.027371226 0.010031134
0.0085456269 -0.027773287 0.011535436
0.0094791865 -0.027384318 0.012572408
0.010452732 -0.027177103 0.012910396
0.011659836 -0.027559614 0.013354003
0.012660525 -0.027431138 0.01285094
0.013611725 -0.027223449 0.012657255
0.01466351 -0.027232233 0.01245743
0.015812552 -0.027408425 0.011088848
0.016689023 -0.027119663 0.0061066151
-0.026541343 -0.026541343 0.0072341561
-0.025358176 -0.026414767 0.010541648
-0.024373602 -0.026493045 0.011679143
-0.02309522 -0.02624457 0.012481213
-0.0220688 -0.026272383 0.012727588
-0.021280725 -0.026600907 0.012859613
-0.020028565 -0.026353374 0.012580544
-0.01891095 -0.02626521 0.011964798
-0.018127929 -0.026658721 0.010143489
-0.01715187 -0.026799796 0.0077493787
0.0063629672 -0.026512366 0.0082923472
0.0074214581 -0.026505208 0.01060003
0.0084968461 -0.026552645 0.012013167
0.0094620725 -0.026283538 0.012904465
0.010435529 -0.026088824 0.013226777
0.011481678 -0.026094723 0.013116002
0.012530412 -0.026105024 0.012856632
0.013700072 -0.026346294 0.012602836
0.014727142 -0.026298469 0.011787891
0.015763974 -0.026273292 0.010855079
-0.025531178 -0.025531178 0.010098249
-0.024490517 -0.02555532 0.011190414
-0.023245806 -0.025359062 0.012110412
-0.022224054 -0.025398917 0.012473494
-0.021331377 -0.025597652 0.012639701
-0.020013129 -0.025279742 0.012565553
-0.018992633 -0.02532351 0.011970609
-0.017922899 -0.025302915 0.010542601
-0.017300444 -0.025950665 0.0088844001
0.0054285335 -0.02605696 0.0052498281
0.0063113552 -0.025245421 0.0097734928
0.0074357959 -0.025494158 0.010947794
0.0085088527 -0.025526557 0.012015492
0.0095456643 -0.025455106 0.012913048
0.010533867 -0.025281282 0.013225466
0.011578466 -0.025262108 0.013025194
0.012595836 -0.025191672 0.012809604
0.013752773 -0.025389737 0.011982411
0.014740458 -0.025269356 0.011668205
0.015891369 -0.025426188 0.0092058778
-0.025559694 -0.024494708 0.0090192556
-0.024351511 -0.024351511 0.010881841
-0.023171641 -0.024224898 0.011892825
-0.022139212 -0.024247708 0.01233992
-0.021094942 -0.024259185 0.012420237
-0.020077288 -0.024304084 0.0125646
-0.018884847 -0.024130641 0.01228112
-0.018009266 -0.024365477 0.011416644
-0.017479124 -0.025126241 0.0093488097
-0.016203023 -0.024844637 0.0054655671
0.0054174582 -0.024920309 0.0077037513
0.0063794777 -0.024454664 0.010747284
0.0073883128 -0.024275886 0.012015492
0.0085422331 -0.024558922 0.012830436
0.0094709266 -0.024203481 0.013248861
0.010508632 -0.024169855 0.013548046
0.011525271 -0.024098296 0.013196886
0.012672887 -0.024289701 0.012836039
0.013758739 -0.024342386 0.011859804
0.014728133 -0.024196219 0.011092603
0.016015053 -0.024556413 0.0066539347
-0.025716417 -0.023573382 0.0050100386
-0.024354912 -0.023296002 0.0098078251
-0.023122719 -0.023122719 0.011021972
-0.022164013 -0.023219442 0.01180023
-0.021073572 -0.02318093 0.012181401
-0.020091649 -0.023264015 0.012352347
-0.018823991 -0.0230071 0.012262464
-0.017820479 -0.023061797 0.0114398
-0.017008519 -0.023386713 0.010411263
-0.016329408 -0.023949798 0.0082520843
0.0043188669 -0.023753768 0.0051131546
0.0053491197 -0.023536127 0.0098350048
0.0063672224 -0.023346482 0.011257559
0.0073752864 -0.023179471 0.012668252
0.0084893769 -0.023345785 0.012912661
0.0094777318 -0.023167789 0.013059765
0.010541146 -0.023190521 0.013231575
0.011638017 -0.023276035 0.01286158
0.012545403 -0.022999905 0.012602985
0.013693427 -0.023173491 0.011683255
0.01499512 -0.023563759 0.010694861
-0.024421087 -0.022297513 0.0078077316
-0.023406705 -0.022342764 0.010414034
-0.022046939 -0.022046939 0.011347234
-0.021166395 -0.022224717 0.011862516
-0.020155584 -0.022277225 0.012061924
-0.01899513 -0.022160986 0.012221545
-0.017938696 -0.022159567 0.012053281
-0.016640864 -0.021841135 0.011472046
-0.016481282 -0.023073796 0.0098493695
-0.014974975 -0.022462463 0.0051450729
0.004419303 -0.023201341 0.0077721775
0.005269466 -0.022131758 0.010921031
0.0062716338 -0.021950718 0.012524247
0.0073916167 -0.02217485 0.012937427
0.0083979769 -0.022044688 0.013059765
0.0095020123 -0.022171363 0.013231575
0.010599168 -0.022258256 0.013174653
0.011488926 -0.021933405 0.012755424
0.012632537 -0.02210694 0.011926591
0.013786245 -0.022270089 0.010896713
0.015052504 -0.022578757 0.0057342947
-0.023431093 -0.021300994 0.0098392069
-0.021998663 -0.020951107 0.011201531
-0.021085156 -0.021085156 0.011750042
-0.019853026 -0.020897919 0.012181014
-0.018757729 -0.020841921 0.012277901
-0.01790892 -0.021069316 0.012501568
-0.016680961 -0.0208512 0.011943817
-0.015743975 -0.020991966 0.011237293
-0.015284486 -0.021834979 0.010454863
0.0033394538 -0.022263026 0.0077277124
0.00429369 -0.021468449 0.010563821
0.0052704434 -0.021081774 0.012214839
0.006334546 -0.021115152 0.012913048
0.00742325 -0.021209285 0.013132662
0.0083815139 -0.020953784 0.013331473
0.0094692511 -0.021042781 0.013339669
0.010526857 -0.021053715 0.012913048
0.011560035 -0.021018244 0.012361497
0.012593973 -0.020989956 0.01127252
0.013711251 -0.021094231 0.0079572797
-0.023540966 -0.020330835 0.0066235065
-0.022195477 -0.020081623 0.010314465
-0.021253174 -0.020190516 0.011471987
-0.020147884 -0.020147884 0.011856973
-0.018842146 -0.019888932 0.012183875
-0.017889369 -0.019994002 0.012595266
-0.016837809 -0.0199949 0.012094945
-0.01550395 -0.019638337 0.01166755
-0.014821053 -0.020114288 0.010880172
-0.014302489 -0.020903638 0.010414749
0.0022183249 -0.021074086 0.0074110925
0.0032572725 -0.020629393 0.010663658
0.0041538896 -0.019730976 0.012001753
0.005263167 -0.020000035 0.012843251
0.006340066 -0.020076877 0.01343298
0.0073359115 -0.01991176 0.01349321
0.0083956858 -0.019939754 0.013339669
0.009534522 -0.020128436 0.013059765
0.010457505 -0.019869262 0.012822151
0.011508531 -0.019878373 0.012015492
0.01269705 -0.020103663 0.010837078
-0.022619586 -0.019388216 0.0077223182
-0.021149762 -0.019034786 0.011240482
-0.019880841 -0.018834479 0.01163584
-0.019089675 -0.019089675 0.012110025
-0.017942127 -0.018997544 0.012352258
-0.01676379 -0.018859262 0.012671262
-0.015910227 -0.019092271 0.012189716
-0.014456282 -0.018586649 0.012011558
-0.013689171 -0.018954236 0.012000054
-0.013516831 -0.020275246 0.010773599
-0.011845428 -0.019383429 0.0055983663
0.0011276967 -0.020298541 0.0088261664
0.0021353734 -0.019218359 0.010948718
0.0031083524 -0.018650115 0.012061596
0.0042084577 -0.018938059 0.012839317
0.0052930103 -0.019054838 0.01316151
0.0062962133 -0.018888639 0.013269067
0.0073320684 -0.01885389 0.013354629
0.0083479332 -0.018782848 0.013161242
0.0094457353 -0.018891471 0.012786299
0.010486723 -0.0188761 0.012525916
0.011595593 -0.018974606 0.011604041
0.012843181 -0.019264773 0.0069230199
-0.022568392 -0.018269651 0.0051094592
-0.021355286 -0.018151993 0.0091623962
-0.020012502 -0.017905923 0.010750026
-0.018973444 -0.017919365 0.011447132
-0.017651254 -0.017651254 0.012160718
-0.016826976 -0.017878663 0.012587935
-0.015699193 -0.017792419 0.012459904
-0.014779203 -0.017946174 0.012435108
-0.013632881 -0.017827613 0.012462169
-0.012620983 -0.017879726 0.012230784
-0.011964618 -0.018490775 0.010887593
-0.011236348 -0.019101793 0.0083698332
-0.0098381434 -0.01858316 0.0057336986
-0.0011320233 -0.019244397 0.0061880052
0 -0.018491538 0.010319084
0.0010545935 -0.01792809 0.011282712
0.0020762705 -0.0176483 0.01227352
0.0031344602 -0.017761942 0.012923449
0.0042564324 -0.018089838 0.012745738
0.0052585616 -0.017879112 0.013119429
0.0063473368 -0.017984122 0.013284206
0.0073972512 -0.017964752 0.013279408
0.0083936723 -0.017836554 0.013224036
0.009456085 -0.017861495 0.012645364
0.010543897 -0.017924625 0.011830658
0.011620972 -0.017959686 0.010820389
-0.021456059 -0.017164849 0.006015569
-0.020130187 -0.016951736 0.0095646083
-0.019004973 -0.01689331 0.010829449
-0.018013189 -0.016953589 0.011874199
-0.016879356 -0.016879356 0.012423635
-0.015768388 -0.016819613 0.01255545
-0.014774755 -0.016885435 0.012691289
-0.013670697 -0.016825473 0.013023973
-0.012528008 -0.01670401 0.012980282
-0.011533067 -0.01677537 0.012700766
-0.010586399 -0.016938239 0.012126654
-0.0097476058 -0.017329076 0.011077225
-0.0090606995 -0.018121399 0.010088354
-0.0079122782 -0.018085208 0.0090655684
-0.0070062922 -0.018683447 0.0067611933
-0.0057681077 -0.018457945 0.0065969527
-0.0045863469 -0.018345388 0.0078078806
-0.0033689183 -0.017967565 0.0098954737
-0.0021272968 -0.017018374 0.010424584
-0.001059028 -0.016944448 0.011205107
0 -0.016869437 0.01204583
0.0010446492 -0.016714387 0.012487978
0.00207027 -0.01656216 0.01270172
0.0031713382 -0.016913803 0.013079405
0.0041506197 -0.016602479 0.012751013
0.0052301651 -0.01673653 0.012961984
0.0062690377 -0.016717434 0.013119429
0.0073387399 -0.016774263 0.013175339
0.0083287489 -0.016657498 0.012727439
0.0093803089 -0.016676106 0.012313664
0.010552291 -0.016883666 0.01146403
0.011802384 -0.017167104 0.0057168901
-0.020151788 -0.015909307 0.0070127249
-0.01895093 -0.015792441 0.010530889
-0.017964216 -0.015850779 0.011392176
-0.016837148 -0.015784826 0.012055129
-0.015727898 -0.015727898 0.012466699
-0.014598854 -0.01564163 0.012691289
-0.013582555 -0.015672179 0.013067782
-0.012517525 -0.015646907 0.013141006
-0.0115114 -0.015697364 0.013112664
-0.010322448 -0.015483673 0.012866229
-0.0093477722 -0.01557962 0.012389064
-0.0083938856 -0.015738536 0.012175798
-0.0073671704 -0.015786793 0.011261165
-0.0063694413 -0.015923604 0.0113464
-0.0052678371 -0.01580351 0.011250466
-0.0042443657 -0.015916372 0.011744916
-0.0031798705 -0.015899353 0.011705756
-0.0020757103 -0.015567827 0.011835992
-0.0010472484 -0.015708726 0.012418181
0 -0.015580817 0.012648374
0.0010470656 -0.015705984 0.01265642
0.002119825 -0.015898688 0.012739211
0.0031144305 -0.015572153 0.013099223
0.0042031771 -0.015761914 0.01283586
0.0052242731 -0.01567282 0.012961984
0.0062425938 -0.015606484 0.013166875
0.0073795374 -0.015813295 0.012815505
0.0084328745 -0.015811641 0.012238264
0.0095045725 -0.015840955 0.011466295
0.010544783 -0.015817175 0.0095834434
-0.020436957 -0.015058811 0.0060206652
-0.019099474 -0.014855147 0.0079799891
-0.017759873 -0.014625777 0.010744631
-0.016930249 -0.014813968 0.011594623
-0.015701916 -0.014655121 0.012223691
-0.01465133 -0.01465133 0.01255545
-0.013566364 -0.01460993 0.012717068
-0.012443371 -0.014517266 0.013095081
-0.011653828 -0.014832145 0.012836576
-0.01040745 -0.01457043 0.012919307
-0.0093908375 -0.014607971 0.012456119
-0.0083907461 -0.014683806 0.012387127
-0.0072778445 -0.014555689 0.012175798
-0.0062544914 -0.014593813 0.011775702
-0.0052451589 -0.014686446 0.012251496
-0.0041972203 -0.014690271 0.012550622
-0.0031211108 -0.014565185 0.0125902
-0.0021163605 -0.014814524 0.01245743
-0.0010514871 -0.014720818 0.012670934
0 -0.014627872 0.01279214
0.0010469776 -0.014657686 0.012847364
0.0020695606 -0.014486924 0.012943685
0.0031302515 -0.01460784 0.013099223
0.0042328066 -0.014814823 0.012672454
0.0052695326 -0.014754691 0.012710631
0.0063228561 -0.014753331 0.012811333
0.0073695425 -0.014739085 0.011950403
0.0084697064 -0.014821986 0.011293262
0.0094856946 -0.014755526 0.0090278089
0.010735804 -0.015030127 0.0051682591
-0.019257791 -0.013908406 0.006344825
-0.017903175 -0.013690664 0.0088812709
-0.016620867 -0.013504454 0.010541409
-0.015805552 -0.013698144 0.011738688
-0.014581792 -0.013540235 0.012294829
-0.013673613 -0.013673613 0.012397349
-0.012597197 -0.013646963 0.012334377
-0.011602539 -0.013712091 0.012545288
-0.010398579 -0.013518153 0.012756675
-0.0093916282 -0.013565686 0.012334377
-0.0083865784 -0.013628189 0.012266546
-0.0073560881 -0.013661306 0.012072861
-0.0063460576 -0.013749791 0.011585891
-0.0052321944 -0.013603706 0.012072861
-0.0042277998 -0.01374035 0.012402743
-0.0031658004 -0.013718468 0.012399644
-0.0020881398 -0.013572908 0.01227352
-0.0010432873 -0.013562735 0.012410194
0 -0.013637249 0.012599319
0.0010407277 -0.013529461 0.012599319
0.0020837518 -0.013544386 0.012565911
0.0031592187 -0.013689947 0.012658089
0.0041768537 -0.013574774 0.01247704
0.0052437731 -0.01363381 0.012376726
0.0063215611 -0.013696715 0.011847794
0.0073296423 -0.013612193 0.011109918
0.0084689576 -0.013762056 0.0089075565
0.0095336512 -0.01377083 0.0051459372
-0.018108502 -0.012782472 0.0063136816
-0.016962225 -0.012721668 0.0088493228
-0.015974881 -0.012779905 0.01087597
-0.014592309 -0.012507693 0.011768579
-0.013651715 -0.012601582 0.012354732
-0.012617917 -0.012617917 0.012229651
-0.01159339 -0.012647334 0.012334049
-0.010377456 -0.012452947 0.012671113
-0.0094631044 -0.012617473 0.01222834
-0.008404783 -0.012607174 0.012259901
-0.007329361 -0.012564619 0.012135655
-0.0062719602 -0.01254392 0.011695802
-0.0052134055 -0.012512174 0.012154549
-0.0041901004 -0.012570301 0.012535512
-0.0031351475 -0.01254059 0.012410194
-0.0021091467 -0.01265488 0.012291223
-0.0010550708 -0.01266085 0.012344956
0 -0.012646262 0.012380749
0.0010500731 -0.012600876 0.012357682
0.0020808671 -0.012485202 0.012195587
0.0031517858 -0.012607143 0.012306929
0.004170598 -0.012511794 0.012013495
0.0052597225 -0.012623334 0.011597633
0.0062291799 -0.01245836 0.010851949
0.007368179 -0.012631164 0.0085935593
-0.017146641 -0.011788315 0.0060765445
-0.015774112 -0.011567682 0.0085822344
-0.014802296 -0.011630375 0.010347486
-0.01359092 -0.011500009 0.011434853
-0.012675117 -0.011618857 0.011550605
-0.01155669 -0.01155669 0.011766583
-0.01050738 -0.011558117 0.012040317
-0.0094160698 -0.01150853 0.011964619
-0.0084195239 -0.011576844 0.012069196
-0.0073064244 -0.011481524 0.011862725
-0.0063247024 -0.011595287 0.011666119
-0.0052933171 -0.011645298 0.012135655
-0.0041772365 -0.011487399 0.012441695
-0.003164629 -0.011603639 0.012355506
-0.0021162466 -0.011639357 0.011876762
-0.0010538056 -0.011591862 0.011660635
0 -0.011520157 0.011909157
0.0010518552 -0.011570406 0.011750787
0.00206907 -0.011379885 0.012005657
0.0031701147 -0.011623754 0.011381507
0.0041738232 -0.011478013 0.0108172
0.0052799084 -0.011615799 0.010204732
0.0063459114 -0.01163417 0.00820297
-0.016033724 -0.010689149 0.0056412816
-0.014880022 -0.010628587 0.007070601
-0.013728829 -0.010560637 0.0093896985
-0.012577973 -0.010481643 0.010935873
-0.011684128 -0.010621935 0.011203527
-0.010549505 -0.010549505 0.011421055
-0.0095011517 -0.010556835 0.011381149
-0.0084215384 -0.010526923 0.011562616
-0.0073521263 -0.010503038 0.011575341
-0.0063035409 -0.010505901 0.011759937
-0.005247036 -0.010494072 0.01184833
-0.0042318804 -0.010579701 0.011977255
-0.0031653855 -0.010551284 0.011859924
-0.0020957824 -0.010478911 0.011666119
-0.001050766 -0.010507659 0.011372119
0 -0.010425401 0.011189163
0.0010413786 -0.010413786 0.011155844
0.0021195549 -0.010597775 0.010935992
0.003168494 -0.010561646 0.010199904
0.0042574811 -0.010643702 0.0088427663
0.0053122542 -0.010624508 0.0075200796
-0.013911818 -0.0096312584 0.0059984922
-0.012663538 -0.0094976537 0.0072140396
-0.011631196 -0.0095164338 0.0090197027
-0.010505035 -0.0094545316 0.010385603
-0.0095346253 -0.0095346253 0.010955542
-0.0084590949 -0.0095164813 0.011131674
-0.0073999208 -0.0095141837 0.011350185
-0.0063488982 -0.009523347 0.011520594
-0.0052644149 -0.0094759464 0.011470884
-0.0042328634 -0.0095239431 0.011649668
-0.003183495 -0.0095504848 0.011539876
-0.0021104151 -0.0094968677 0.011234403
-0.0010600332 -0.009540299 0.010722637
0 -0.0095326472 0.010155469
0.0010517427 -0.0094656833 0.0090965033
0.0021091958 -0.0094913812 0.0083980262
0.0032076344 -0.0096229035 0.0076571107
-0.010629309 -0.0085034482 0.005118221
-0.0096541625 -0.0085814781 0.0061836839
-0.008598025 -0.008598025 0.0063742697
-0.0074092741 -0.0084677413 0.0055626631
-0.0064223837 -0.0085631786 0.0058337748
-0.0053332727 -0.0085332366 0.006704092
-0.0042708833 -0.0085417666 0.0058621466
-0.0032240816 -0.0085975509 0.0059054196
-0.0021560052 -0.008624021 0.0056760311
0 0 0 1 0 0 0 1 0 0 0 1 0 0 0 0 0 925 1 0 0
