ply
format ascii 1.0
comment PCL generated
element vertex 949
property float x
property float y
property float z
element camera 1
property float view_px
property float view_py
property float view_pz
property float x_axisx
property float x_axisy
property float x_axisz
property float y_axisx
property float y_axisy
property float y_axisz
property float z_axisx
property float z_axisy
property float z_axisz
property float focal
property float scalex
property float scaley
property float centerx
property float centery
property int viewportx
property int viewporty
property float k1
property float k2
end_header
-0.01043119 -0.031293571 0.0054864883
-0.0093286186 -0.031484086 0.0059138834
-0.0080343317 -0.030989565 0.0060736835
-0.0068941475 -0.031023666 0.0062441826
-0.0058648554 -0.03167022 0.0062709153
-0.0047161058 -0.031833716 0.0062709153
-0.0035223735 -0.031701364 0.0072221458
-0.0023238293 -0.031371694 0.0072221458
-0.0011657582 -0.031475473 0.0068157613
0 -0.031948641 0.0065527558
0.0011710511 -0.031618379 0.0066093504
0.0023114188 -0.031204153 0.0051702857
-0.014151704 -0.028303407 0.0071348846
-0.012890424 -0.027929252 0.0084692836
-0.011758191 -0.027792087 0.0084489286
-0.010709427 -0.027844511 0.008561343
-0.0095262704 -0.027520338 0.0090516806
-0.0085402736 -0.027755888 0.0095175505
-0.0074628671 -0.02771922 0.0098178983
-0.0064451876 -0.027929146 0.010328203
-0.0053678262 -0.027912699 0.010346234
-0.0042325645 -0.027511667 0.010423481
-0.0032033329 -0.027762217 0.0097322464
-0.0020944565 -0.027227933 0.010177404
-0.0010620847 -0.0276142 0.010098308
0 -0.027679151 0.010034323
0.0010690212 -0.027794551 0.0095573664
0.0021325464 -0.027723102 0.0088967383
0.0031819763 -0.027577126 0.0081827641
-0.015684612 -0.02614102 0.0075869858
-0.014624964 -0.026116008 0.011235923
-0.013405924 -0.025780624 0.012200028
-0.012436247 -0.02590885 0.012590945
-0.011461603 -0.0260491 0.011987984
-0.0103753 -0.025938252 0.012084931
-0.009355844 -0.025988458 0.012072802
-0.0083128521 -0.025977664 0.012072802
-0.0072289365 -0.025817631 0.012019545
-0.0062921378 -0.026217241 0.011987984
-0.0052028568 -0.026014287 0.011974782
-0.0041417116 -0.025885699 0.011999965
-0.0031527232 -0.026272696 0.011857122
-0.0020810354 -0.026012942 0.012033671
-0.0010373021 -0.025932552 0.012024701
0 -0.026087817 0.012269616
0.001038154 -0.025953852 0.012046546
0.0020708116 -0.025885146 0.01156199
0.0031308152 -0.026090128 0.010730714
0.00414585 -0.025911562 0.0090305507
0.0051693884 -0.025846943 0.0054445863
-0.016767193 -0.025150789 0.01091814
-0.015669666 -0.025071466 0.012898475
-0.014661258 -0.025133586 0.013158619
-0.013597769 -0.025103573 0.013297766
-0.012403099 -0.024806198 0.013017088
-0.011469373 -0.025024088 0.012986422
-0.010328204 -0.02478769 0.013071239
-0.0093999878 -0.025066637 0.012640446
-0.0084299855 -0.025289956 0.012489527
-0.0073910663 -0.025340797 0.012481749
-0.0062638852 -0.025055541 0.012557626
-0.0052328641 -0.025117747 0.01212135
-0.0042299866 -0.025379919 0.012244821
-0.0031460829 -0.025168663 0.01215291
-0.0021032644 -0.025239173 0.012575865
-0.001043912 -0.025053889 0.012968302
0 -0.025125546 0.013337225
0.0010358777 -0.024861066 0.013262928
0.0020802573 -0.024963086 0.013620973
0.0031197895 -0.024958316 0.013486862
0.0041885995 -0.025131598 0.011537611
0.0052063894 -0.024990669 0.0093961358
0.0061525125 -0.02461005 0.0066540837
-0.017957568 -0.024295533 0.011462361
-0.016983753 -0.024414146 0.01274246
-0.015714843 -0.024096094 0.013554364
-0.014705987 -0.024159836 0.014098942
-0.013611622 -0.024082102 0.014046282
-0.012661204 -0.024267308 0.013792813
-0.011517239 -0.0240815 0.01325196
-0.010438647 -0.024008891 0.013031155
-0.0094665447 -0.024192281 0.012904495
-0.0084146652 -0.024192162 0.012534201
-0.0073482632 -0.024144294 0.012363046
-0.0063356524 -0.024286669 0.012337476
-0.0052646738 -0.024217499 0.012035638
-0.0041867779 -0.024073973 0.012028456
-0.0031710144 -0.024311112 0.012079686
-0.002094076 -0.024081875 0.012723327
-0.0010534397 -0.024229111 0.013171703
0 -0.023853952 0.01331526
0.001046926 -0.024079299 0.013524801
0.002066439 -0.02376405 0.013682574
0.0031313859 -0.024007292 0.014179677
0.0041933521 -0.024111774 0.013476431
0.005233021 -0.024071898 0.012399197
0.0062629757 -0.024008075 0.010949999
0.0072788149 -0.023916107 0.0066540837
-0.018760493 -0.022929491 0.011173189
-0.01781014 -0.023048414 0.012820363
-0.016696069 -0.022957094 0.013255566
-0.01572982 -0.023070402 0.014216393
-0.014797491 -0.023253199 0.014475852
-0.013712412 -0.023205619 0.014406532
-0.012671741 -0.023231525 0.014226139
-0.011534249 -0.023068499 0.013156652
-0.010336031 -0.022739269 0.013260275
-0.0094202114 -0.023027183 0.012867004
-0.0084557757 -0.023253383 0.012511611
-0.0073646335 -0.02314599 0.012498468
-0.0063526118 -0.02329291 0.012301743
-0.0052033151 -0.022894586 0.012035638
-0.0042199967 -0.023209982 0.012026429
-0.0031475327 -0.023081906 0.012337476
-0.0021059371 -0.023165308 0.012891442
-0.0010539526 -0.023186957 0.013350487
0 -0.023282129 0.013755918
0.001059006 -0.023298129 0.013906687
0.0020884031 -0.022972433 0.014447778
0.0031530119 -0.023122087 0.014772713
0.0041829818 -0.023006398 0.014606655
0.0052017928 -0.022887889 0.014242232
0.0063003795 -0.023101391 0.012490004
0.0072615128 -0.022821896 0.010425031
0.0086062495 -0.023667185 0.005340308
-0.020022685 -0.022130335 0.010562658
-0.018931624 -0.022086896 0.012835979
-0.017804246 -0.021993482 0.013120592
-0.016829723 -0.022089012 0.013563216
-0.015706368 -0.021988917 0.014108181
-0.014571997 -0.021857996 0.014260143
-0.013576583 -0.021931404 0.014252394
-0.012598209 -0.022046866 0.014002353
-0.011533116 -0.022017768 0.012789696
-0.010473162 -0.021993641 0.01325196
-0.0095047513 -0.022177754 0.012785524
-0.0084866174 -0.02227737 0.012382597
-0.0073524085 -0.022057226 0.012479216
-0.0062997621 -0.022049168 0.012172729
-0.005242371 -0.02201796 0.011866838
-0.0042220233 -0.022165623 0.011859924
-0.0031587319 -0.022111123 0.012092173
-0.0020987906 -0.022037301 0.012384832
-0.0010501359 -0.022052854 0.012953639
0 -0.021786947 0.013377398
0.0010545201 -0.022144923 0.013543427
0.0020981818 -0.022030909 0.014313579
0.003130418 -0.021912927 0.01461485
0.0042152037 -0.022129821 0.014612317
0.0052323244 -0.021975765 0.014862001
0.0062709027 -0.021948161 0.01395002
0.007372865 -0.022118596 0.013704807
0.0082888808 -0.02175831 0.010425031
-0.02105961 -0.02105961 0.010847241
-0.019939709 -0.020989167 0.012749374
-0.018816864 -0.020907626 0.013386637
-0.017886164 -0.021042544 0.013953477
-0.016766639 -0.020958299 0.014046282
-0.015742149 -0.02098953 0.014226139
-0.014561075 -0.020801535 0.014024854
-0.013658235 -0.021012669 0.013984531
-0.012598356 -0.02099726 0.013849616
-0.01155133 -0.021002417 0.013049871
-0.010618178 -0.021236356 0.012770921
-0.0093980171 -0.020884484 0.012480319
-0.0085130306 -0.021282576 0.012082905
-0.0074496763 -0.021284789 0.012103945
-0.006428442 -0.02142814 0.011489362
-0.0053176368 -0.021270547 0.011200219
-0.0042476524 -0.021238262 0.01139915
-0.0031691836 -0.021127891 0.011450201
-0.0021096552 -0.021096552 0.012180477
-0.0010468597 -0.020937193 0.012810498
0 -0.020959182 0.013146698
0.0010586742 -0.021173483 0.013393044
0.0020944306 -0.020944305 0.014118373
0.0031509143 -0.021006094 0.014567852
0.0042023454 -0.021011725 0.014639765
0.0053033265 -0.021213306 0.014793009
0.0062826653 -0.020942217 0.01491788
0.0073341676 -0.020954764 0.01423645
0.0084048947 -0.021012237 0.013298333
0.0094993887 -0.021109754 0.0090582371
-0.022362802 -0.020233011 0.0078167021
-0.02107068 -0.020017147 0.01175037
-0.020055411 -0.020055411 0.012818933
-0.018845432 -0.019892402 0.013578802
-0.017866611 -0.019968566 0.013617694
-0.01690305 -0.020072373 0.013655841
-0.015753189 -0.019954041 0.013581842
-0.014648061 -0.019879512 0.013414741
-0.013588671 -0.019860364 0.013188213
-0.012528292 -0.019836463 0.012210429
-0.01163176 -0.020091223 0.011600792
-0.010492821 -0.01993636 0.011017442
-0.0096386466 -0.020348255 0.01036045
-0.0085437819 -0.020291483 0.0096044838
-0.0074510081 -0.020224165 0.0091786981
-0.0064566289 -0.020445991 0.0090998113
-0.0053548249 -0.020348335 0.0083687603
-0.0042791083 -0.020325763 0.0089358091
-0.0032263936 -0.020433826 0.0092967153
-0.0021440194 -0.020368183 0.010883391
-0.0010656244 -0.020246863 0.011087656
0 -0.019992337 0.011967093
0.0010483877 -0.019919368 0.012639523
0.0020915181 -0.019869423 0.013109893
0.0031761469 -0.020115597 0.013661951
0.0041646087 -0.019781893 0.013955563
0.0052409377 -0.019915564 0.014630973
0.0062826979 -0.019895211 0.014360368
0.0073001035 -0.019814566 0.013974786
0.0083606103 -0.019856449 0.013306528
0.0093958722 -0.019835731 0.011517256
-0.022244019 -0.019066302 0.011231542
-0.021022003 -0.018919801 0.012105793
-0.019862343 -0.018816955 0.012852967
-0.019102817 -0.019102817 0.013445884
-0.017977301 -0.01903479 0.013111621
-0.016848514 -0.018954577 0.013083637
-0.01594675 -0.019136099 0.012829334
-0.014545771 -0.018701704 0.012651175
-0.01359182 -0.018819444 0.012111217
-0.01272847 -0.019092705 0.011354744
-0.011648508 -0.019061193 0.0096624494
-0.010674279 -0.019213703 0.0090161264
-0.0096309884 -0.019261977 0.0078113377
-0.0085101752 -0.019147893 0.0072093904
-0.0074893851 -0.019258417 0.0066536665
-0.0063762451 -0.019128734 0.0066435337
-0.0053359517 -0.019209426 0.006480962
-0.0042759469 -0.01924176 0.0067076981
-0.0032055683 -0.019233409 0.0074826479
-0.0021353734 -0.019218359 0.0081398189
-0.0010722043 -0.019299677 0.0093863904
0 -0.0192493 0.010787219
0.0010586814 -0.019056264 0.01115793
0.0021318402 -0.019186562 0.012458533
0.0031361282 -0.018816769 0.013241261
0.0042191781 -0.0189863 0.013300836
0.005284179 -0.019023044 0.013861507
0.0062753828 -0.018826148 0.013927042
0.007346137 -0.018890066 0.014024675
0.008346959 -0.018780656 0.013537616
0.0094051771 -0.018810354 0.012906879
0.010385029 -0.01869305 0.010242313
-0.023526164 -0.018179309 0.0094081163
-0.02208419 -0.017877677 0.011643201
-0.021175185 -0.01799891 0.011687487
-0.019923475 -0.017826267 0.012394547
-0.019008499 -0.017952472 0.012791663
-0.017605728 -0.017605728 0.01254034
-0.016915604 -0.017972831 0.012397707
-0.015780466 -0.017884526 0.012051314
-0.014931777 -0.018131442 0.011763692
-0.013874304 -0.01814332 0.010831147
-0.012673594 -0.017954258 0.0092978179
-0.011700018 -0.018081846 0.0077241063
-0.01072173 -0.018226942 0.0063226819
-0.0096868547 -0.018297393 0.0059621036
-0.0032636691 -0.018494125 0.0056040585
-0.0021561973 -0.018327678 0.0059775412
-0.0010647672 -0.018101042 0.0068899989
0 -0.018145632 0.0080520809
0.0010742708 -0.018262602 0.0097910464
0.0021014912 -0.017862676 0.0108293
0.0031861803 -0.018055022 0.012384713
0.0041930783 -0.017820582 0.012494981
0.0052183573 -0.017742416 0.013156295
0.0063747484 -0.018061787 0.013431877
0.007402794 -0.017978214 0.013543814
0.0084078033 -0.017866582 0.013391495
0.0093804412 -0.017718611 0.013011664
0.010470815 -0.017800385 0.011254638
0.011775044 -0.018197795 0.0068291128
-0.023090931 -0.016793406 0.010867655
-0.022055792 -0.016804412 0.011638135
-0.021128682 -0.016902946 0.012132645
-0.020033058 -0.016869942 0.012419194
-0.018877886 -0.016780343 0.012584358
-0.018008014 -0.016948719 0.012295812
-0.016876433 -0.016876433 0.011866271
-0.016009489 -0.017076788 0.011496902
-0.014996394 -0.017138734 0.010817558
-0.013753817 -0.016927777 0.0093551278
-0.012899982 -0.017199976 0.0074649751
-0.011921634 -0.017340558 0.0054783821
-0.0010869323 -0.017390916 0.0055829883
0 -0.017133616 0.0066762865
0.0010651815 -0.017042903 0.0081253052
0.0021175486 -0.016940389 0.0095251501
0.0032066137 -0.01710194 0.011135221
0.0042154426 -0.01686177 0.012078166
0.0052676322 -0.016856425 0.012685329
0.006319114 -0.016850971 0.012967855
0.0073331962 -0.016761592 0.01329869
0.0083575007 -0.016715001 0.013274819
0.0093507059 -0.016623478 0.013094068
0.010495037 -0.016792059 0.012177587
0.01138568 -0.016560989 0.010702729
-0.024089098 -0.015710281 0.0090686083
-0.023111895 -0.01575811 0.011342764
-0.022105198 -0.015789427 0.012027413
-0.021156279 -0.015867211 0.012182921
-0.019974856 -0.015769623 0.012335449
-0.018939972 -0.01578331 0.012335449
-0.0179104 -0.015803294 0.011960745
-0.017002754 -0.015940081 0.011238813
-0.015936142 -0.015936142 0.010640025
-0.014748901 -0.015802395 0.0095329881
-0.014070247 -0.016234901 0.0075779557
0.0010613848 -0.015920771 0.0065289438
0.0021232374 -0.015924281 0.0079886317
0.0031632364 -0.015816182 0.0097974241
0.0042631319 -0.015986744 0.010800719
0.0052772807 -0.015831843 0.011751443
0.0062469803 -0.015617451 0.01285702
0.0073739938 -0.015801415 0.013106734
0.0084172795 -0.015782399 0.013054222
0.0094722267 -0.015787045 0.013106734
0.010427829 -0.015641743 0.012732416
0.011546911 -0.015745789 0.01177597
0.012823026 -0.016028782 0.0086565614
-0.024197618 -0.014728984 0.011429101
-0.023041697 -0.014662898 0.011871487
-0.022042019 -0.01469468 0.01253289
-0.021131409 -0.014791988 0.012376279
-0.020139731 -0.014839802 0.012335896
-0.018924149 -0.014718783 0.012120724
-0.017782642 -0.014644528 0.011455864
-0.017049104 -0.014917967 0.011066616
-0.01589191 -0.014832449 0.0096587837
-0.015061438 -0.015061438 0.0077201128
0.0021445137 -0.015011596 0.0061840415
0.0031708351 -0.01479723 0.0083844662
0.004283017 -0.01499056 0.0096407831
0.0052966475 -0.014830614 0.011226594
0.0063795224 -0.014885553 0.012202173
0.0073840437 -0.014768087 0.012703687
0.0084609333 -0.014806634 0.012773484
0.009538332 -0.014837407 0.012962192
0.010466541 -0.014653158 0.012830764
0.01148698 -0.014619793 0.012374878
0.012551548 -0.014643474 0.01139161
-0.025205774 -0.013653128 0.0093894005
-0.024126882 -0.013636933 0.011544466
-0.022944566 -0.013558153 0.012536079
-0.022057932 -0.01365491 0.012401879
-0.021214748 -0.013789587 0.012361497
-0.020010727 -0.013691549 0.012219906
-0.019060535 -0.013765942 0.011816442
-0.018038774 -0.013794356 0.011245668
-0.016790397 -0.013642197 0.010281593
-0.01612802 -0.013977617 0.007809937
0.0032328973 -0.014009221 0.0067533255
0.0042141494 -0.013695986 0.0087619722
0.0053108055 -0.013808094 0.010400772
0.0063628759 -0.013786232 0.011495262
0.0072827232 -0.013525058 0.012544215
0.0083768293 -0.013612347 0.012750357
0.0093921768 -0.013566478 0.01284194
0.010485091 -0.013630619 0.012796551
0.011546248 -0.013645565 0.012496889
0.012521174 -0.013564604 0.011908233
0.013575424 -0.013575424 0.010377109
-0.02536981 -0.012684905 0.011035711
-0.024055984 -0.012550947 0.012174845
-0.023151195 -0.012627924 0.012373716
-0.022233477 -0.012704843 0.012401879
-0.021266315 -0.012759789 0.012361497
-0.019990306 -0.012625457 0.012219906
-0.019065307 -0.012710205 0.011500269
-0.018040178 -0.012734244 0.010653317
-0.017075254 -0.012806441 0.0087634325
0.0042795679 -0.012838704 0.0079692304
0.0053291977 -0.012790076 0.0095095634
0.0063300985 -0.012660197 0.011068165
0.0074176611 -0.012715991 0.011921167
0.0083804084 -0.012570612 0.012426525
0.009449943 -0.012599925 0.012728989
0.010545011 -0.012654013 0.012649983
0.011634272 -0.012691933 0.012502581
0.01259964 -0.01259964 0.012291431
0.013488581 -0.012450999 0.011544019
0.015115046 -0.012955754 0.0060830414
-0.02621183 -0.011533204 0.0082627237
-0.025192015 -0.01154634 0.011552572
-0.023945739 -0.01145231 0.012160599
-0.02324524 -0.01162262 0.012376279
-0.022125142 -0.011589359 0.012417555
-0.021090079 -0.011599544 0.012361497
-0.020000992 -0.011579522 0.012194455
-0.019166414 -0.011712808 0.011290133
-0.01803319 -0.011668534 0.0098870695
-0.017326916 -0.011912255 0.0075055063
0.0043105939 -0.011854133 0.0059211552
0.0053180009 -0.011699603 0.008954823
0.0063791876 -0.011695177 0.010562807
0.0074591478 -0.011721518 0.011698455
0.0084131854 -0.01156813 0.012311965
0.0094418461 -0.011540035 0.012721986
0.010542721 -0.011596993 0.012896478
0.011573446 -0.011573446 0.012881696
0.012655377 -0.011600763 0.012410194
0.013662198 -0.011560321 0.011971474
0.014554979 -0.011436054 0.010221481
-0.026412787 -0.010565114 0.010101855
-0.0250929 -0.010455376 0.011894643
-0.024085872 -0.010472118 0.012208521
-0.023169095 -0.010531407 0.012432992
-0.02190288 -0.010429942 0.012479037
-0.021183999 -0.010592 0.012432992
-0.020083284 -0.010570149 0.012333333
-0.01899777 -0.010554316 0.011330843
-0.018157575 -0.010680926 0.009434998
0.0053543113 -0.010708623 0.0085574985
0.0063496185 -0.010582698 0.010146141
0.0074092946 -0.010584706 0.011203647
0.0084551796 -0.010568975 0.012008429
0.0094907302 -0.010545256 0.012403548
0.010478209 -0.010478209 0.012761503
0.011555436 -0.010504941 0.012747943
0.012617455 -0.010514546 0.012318611
0.013575178 -0.010442444 0.012037247
0.014647189 -0.010462278 0.011671692
-0.02719136 -0.009412393 0.0056425333
-0.026394574 -0.0095020458 0.010880917
-0.025338273 -0.0095018521 0.012020409
-0.024293065 -0.0095059816 0.012319535
-0.023174483 -0.0094804708 0.012537271
-0.02205375 -0.0094516063 0.012510359
-0.021141414 -0.0095136361 0.012438655
-0.020042824 -0.0094939684 0.012239665
-0.019177571 -0.0095887855 0.011009663
-0.01836987 -0.0097252252 0.0085366368
0.0053808396 -0.0096855108 0.0074757338
0.0063862018 -0.0095793018 0.0099426806
0.0073913876 -0.0095032128 0.011101305
0.0084537314 -0.0095104473 0.012008429
0.0093777534 -0.0093777534 0.012408257
0.010554397 -0.0094989575 0.012888461
0.011467641 -0.0093826149 0.012811303
0.012491708 -0.0093687801 0.012353361
0.013570438 -0.0093949186 0.012308776
0.014621616 -0.0093996106 0.011823744
0.015625309 -0.0093751848 0.0080271363
-0.027714763 -0.0085276198 0.0078280866
-0.02642183 -0.008454985 0.011062562
-0.025140986 -0.0083803292 0.012022972
-0.024206161 -0.0084195342 0.012348175
-0.023349801 -0.0084908372 0.012541533
-0.021924512 -0.0083521949 0.012450397
-0.021131575 -0.0084526306 0.012352973
-0.020013802 -0.0084268637 0.012194455
-0.019025117 -0.008455608 0.010658264
-0.018352205 -0.0086363321 0.0076491237
0.0053768582 -0.0086029731 0.0058493614
0.0063265599 -0.0084354132 0.0099074841
0.0074361549 -0.0084984628 0.01141566
0.0084644202 -0.0084644202 0.012169123
0.0094369436 -0.0083883945 0.012744367
0.010348965 -0.0082791727 0.013216197
0.011461545 -0.0083356695 0.01305759
0.012574269 -0.0083828457 0.012709677
0.013663041 -0.0084080258 0.012271315
0.014595098 -0.0083400561 0.011963457
0.015707467 -0.0083773155 0.0099291801
-0.027485115 -0.0073998389 0.0083186328
-0.026488474 -0.0074167722 0.011391401
-0.025365626 -0.0073983078 0.012239665
-0.024331881 -0.0074053551 0.012441188
-0.023254469 -0.0073991492 0.012558848
-0.021917867 -0.007305955 0.012552589
-0.02135542 -0.0074743973 0.012434483
-0.020019365 -0.0073755556 0.012347996
-0.019148789 -0.0074467515 0.010506362
0.0053774146 -0.007528381 0.0054612458
0.0063367314 -0.0073928535 0.0099980831
0.0073358025 -0.0073358025 0.011525184
0.0084745688 -0.0074152471 0.012358069
0.0094220256 -0.0073282425 0.013026685
0.01055789 -0.0073905233 0.013294786
0.011549232 -0.0073495111 0.013251185
0.012636282 -0.0073711649 0.012928993
0.013619322 -0.0073334812 0.012475759
0.014738233 -0.0073691164 0.012060881
0.015842538 -0.0073931841 0.010026604
-0.027519446 -0.0063506411 0.0084099174
-0.026535183 -0.0063684438 0.011603504
-0.02531115 -0.0063277874 0.012372196
-0.02429647 -0.0063382094 0.012594998
-0.02308264 -0.0062952656 0.012859017
-0.021962225 -0.0062749214 0.012859017
-0.021162648 -0.0063487943 0.012760073
-0.020052576 -0.0063323923 0.012538552
-0.019189032 -0.0063963444 0.010957867
0.0054410356 -0.0065292432 0.0052362978
0.006311385 -0.006311385 0.010476172
0.007437232 -0.0063747698 0.011775851
0.0084783267 -0.0063587446 0.012388587
0.0094668437 -0.006311229 0.013236403
0.01048335 -0.0062900102 0.013398767
0.01144847 -0.0062446198 0.013304442
0.012637527 -0.0063187634 0.012947619
0.013629382 -0.0062904838 0.012537271
0.014742243 -0.006318104 0.012003988
0.015738083 -0.0062952335 0.009909451
-0.027639028 -0.0053151976 0.0079638064
-0.026418952 -0.0052837902 0.011342317
-0.02523168 -0.0052565997 0.012349874
-0.0241811 -0.0052567604 0.012561798
-0.023194598 -0.0052714995 0.012796223
-0.022029467 -0.005245111 0.012866706
-0.02104402 -0.0052610049 0.01276806
-0.020015078 -0.0052671256 0.01265505
-0.019012081 -0.0052811336 0.011667103
-0.018411394 -0.0054151155 0.0064248145
0.0053570895 -0.0053570895 0.0054233074
0.0062527102 -0.0052105919 0.010725468
0.0074080429 -0.0052914592 0.012093782
0.0084420424 -0.0052762763 0.012781054
0.0093782963 -0.0052101645 0.013236403
0.010373997 -0.0051869983 0.013390958
0.011448863 -0.0052040289 0.013243169
0.012651124 -0.0052713016 0.012811303
0.013723329 -0.0052782032 0.012414902
0.0148127 -0.0052902498 0.011862755
0.015837327 -0.0052791084 0.0081656873
-0.027391439 -0.0042140675 0.0054033995
-0.026512492 -0.0042419988 0.01063633
-0.025318569 -0.0042197616 0.012210876
-0.024286782 -0.0042237882 0.012444049
-0.022951484 -0.0041729971 0.012672901
-0.021963596 -0.004183542 0.012785494
-0.020986149 -0.0041972301 0.012697577
-0.019990183 -0.0042084595 0.012532145
-0.018896395 -0.0041991994 0.012084067
-0.018450227 -0.0043412298 0.0077967346
0.0053874189 -0.0043099355 0.0079307258
0.0063044629 -0.0042029754 0.011441141
0.0074048373 -0.0042313356 0.012204051
0.0084320381 -0.0042160191 0.013006747
0.0094537204 -0.0042016534 0.013360053
0.010522405 -0.004208962 0.013427973
0.011557796 -0.0042028348 0.013324469
0.012573957 -0.0041913195 0.012801588
0.01351219 -0.0041575967 0.012467206
0.014814823 -0.0042328066 0.011712223
0.015852394 -0.0042273053 0.0050972998
-0.026271174 -0.0031525407 0.0098660886
-0.025422834 -0.0031778542 0.011725485
-0.024267709 -0.0031653531 0.012338936
-0.02309664 -0.0031495416 0.012499332
-0.022199353 -0.0031713361 0.012601197
-0.02096712 -0.0031450682 0.012633801
-0.020033436 -0.003163174 0.01248017
-0.018926412 -0.0031544019 0.012096643
-0.018338783 -0.0032362556 0.0087441504
0.0053454684 -0.003207281 0.0099368691
0.006308625 -0.0031543125 0.011910915
0.0073793945 -0.0031625975 0.012503564
0.0083615072 -0.0031355652 0.013345331
0.0094308835 -0.0031436281 0.013388395
0.010504958 -0.0031514876 0.01347205
0.0114729 -0.0031289728 0.013259858
0.012527426 -0.0031318564 0.012754112
0.013674104 -0.0031555623 0.012122184
0.014777609 -0.0031666304 0.011058927
-0.026665624 -0.0021332498 0.0080697536
-0.025407162 -0.0021172634 0.011368185
-0.024136476 -0.0020988241 0.012036204
-0.023193438 -0.0021084943 0.012357205
-0.021915825 -0.0020872212 0.012507766
-0.020883406 -0.0020883407 0.012633801
-0.0201784 -0.002124042 0.012543976
-0.018903682 -0.0021004092 0.012381226
-0.018138155 -0.0021339008 0.011138797
-0.017367359 -0.0021709199 0.0062948465
0.0043368018 -0.0021684009 0.0061429739
0.005241293 -0.0020965172 0.010667443
0.0062915301 -0.0020971769 0.012262553
0.0073534767 -0.0021009934 0.012791246
0.0084196739 -0.0021049185 0.013370752
0.0094140237 -0.0020920055 0.013489634
0.010427708 -0.0020855416 0.013607383
0.011432852 -0.0020787003 0.013257682
0.012591982 -0.0020986637 0.01275447
0.013625196 -0.0020961841 0.012030125
0.014908368 -0.0021297669 0.0084676147
-0.025484821 -0.0010618676 0.010436743
-0.02433552 -0.001058066 0.011958808
-0.023240535 -0.001056388 0.012360305
-0.022086099 -0.001051719 0.012713253
-0.021088224 -0.0010544113 0.012947083
-0.019985329 -0.0010518595 0.012923688
-0.018786538 -0.0010436967 0.012846351
-0.018024404 -0.0010602591 0.012348503
-0.01746013 -0.0010912581 0.010080695
0.0043173316 -0.0010793329 0.0099481046
0.0051910412 -0.0010382083 0.012139678
0.0063285367 -0.0010547561 0.012906492
0.007330501 -0.0010472145 0.013241857
0.0084143877 -0.0010517985 0.013449878
0.0093992986 -0.0010443665 0.013533741
0.010431464 -0.0010431465 0.013636589
0.011594543 -0.0010540495 0.013257682
0.012592832 -0.0010494026 0.01271683
0.013790115 -0.001060778 0.011075348
-0.025638282 0 0.0080913603
-0.024250189 0 0.011446148
-0.02299281 0 0.012275338
-0.022078495 0 0.012705356
-0.020860525 0 0.012879819
-0.019841896 0 0.012881756
-0.019042069 0 0.01292932
-0.0177438 0 0.012702644
-0.017098522 0 0.012020528
-0.016372334 0 0.0080941916
0.0033030168 0 0.0097799301
0.0042310078 0 0.011964709
0.0052456264 0 0.012424469
0.0063164844 0 0.013314456
0.0073172939 0 0.013481319
0.0083739348 0 0.01370585
0.0094854645 0 0.013663232
0.010487577 0 0.01369518
0.01146853 0 0.012900203
0.012651381 0 0.012164682
0.01388206 0 0.0072806776
-0.024447531 0.0010629361 0.010343522
-0.023208387 0.0010549267 0.01151669
-0.022118069 0.0010532413 0.012270123
-0.021186879 0.001059344 0.01278159
-0.019884652 0.0010465606 0.012803018
-0.018967452 0.0010537474 0.012897551
-0.017711639 0.0010418611 0.012809902
-0.016622754 0.0010389221 0.012462616
-0.016339378 0.0010892919 0.011522055
-0.015214782 0.0010867702 0.0070786178
0.0022224041 0.0011112021 0.0092450082
0.0032047778 0.0010682594 0.012050062
0.0042188 0.0010547 0.012421846
0.0052090273 0.0010418055 0.013302207
0.0062476918 0.001041282 0.013616741
0.0073279398 0.0010468486 0.01367268
0.0084090233 0.0010511279 0.013757855
0.0094804969 0.0010533886 0.013776839
0.010504611 0.0010504612 0.013815552
0.011439663 0.0010399694 0.012953073
0.012714971 0.0010595809 0.011183977
-0.024779128 0.0021547067 0.0064914227
-0.023326039 0.0021205491 0.010864139
-0.021963136 0.0020917272 0.01151669
-0.021146489 0.0021146489 0.012260556
-0.020009447 0.0021062575 0.012628555
-0.01868549 0.0020761658 0.012886494
-0.017919635 0.0021081925 0.013119847
-0.016529988 0.0020662486 0.012474746
-0.015672935 0.0020897246 0.012289226
-0.015311043 0.0021872919 0.011859208
-0.014267715 0.002195033 0.0076599121
0.001106629 0.0022132581 0.0099846125
0.0021237272 0.0021237272 0.012119174
0.003142555 0.0020950367 0.012462437
0.0041751047 0.0020875523 0.013341397
0.0052537918 0.0021015168 0.013653129
0.0063321353 0.0021107118 0.01388216
0.007293304 0.0020838012 0.01388216
0.0084333299 0.0021083325 0.013892025
0.0094815055 0.0021070014 0.013827324
0.010433194 0.0020866389 0.013745219
0.011531411 0.0020966202 0.012847692
0.012888918 0.002148153 0.0058946609
-0.023322998 0.0031804089 0.0091671944
-0.022219811 0.0031742586 0.010942638
-0.02114616 0.003171924 0.011856019
-0.020063523 0.0031679247 0.012460679
-0.018814577 0.0031357629 0.012809902
-0.017871717 0.0031538324 0.013124645
-0.016757835 0.003142094 0.013222128
-0.015629733 0.0031259465 0.012839377
-0.014624902 0.0031339074 0.012885571
-0.013735106 0.0031696397 0.012158513
-0.013809496 0.0034523739 0.010150313
-0.011918755 0.0032505698 0.0058570206
0 0.0032618593 0.010188878
0.0010622229 0.0031866685 0.012280405
0.0021156457 0.0031734684 0.013303578
0.0031622609 0.0031622609 0.013476193
0.0042413762 0.0031810319 0.013589978
0.0052311514 0.0031386907 0.013958365
0.0062735081 0.003136754 0.014053792
0.0073264772 0.0031399189 0.013917297
0.0083624823 0.003135931 0.013883233
0.0094621563 0.003154052 0.013793886
0.010472042 0.003141613 0.013173819
0.011569447 0.0031553037 0.0096831322
-0.022189917 0.004226651 0.01013875
-0.021114031 0.0042228065 0.01113674
-0.020063085 0.0042238072 0.01194945
-0.018858023 0.0041906717 0.012377292
-0.017828867 0.0041950275 0.013116896
-0.016782813 0.0041957032 0.013320655
-0.015681487 0.0041817296 0.013227731
-0.014579369 0.0041655339 0.013831794
-0.013656374 0.0042019612 0.013914257
-0.012505211 0.0041684038 0.013109773
-0.012026438 0.0043732501 0.011473417
-0.011399525 0.0045598103 0.010134757
-0.010164175 0.0045174113 0.0065509975
-0.008782194 0.004391097 0.006056726
-0.0075891898 0.0043366798 0.0051575005
-0.0054322309 0.0043457849 0.0051575005
-0.0034226594 0.0045635458 0.0058684051
-0.0022540053 0.0045080106 0.0096500218
-0.0010604315 0.0042417259 0.011267751
0 0.0042322273 0.012693077
0.0010539683 0.0042158733 0.013183445
0.0020787723 0.0041575446 0.013771951
0.0031614602 0.0042152805 0.013843685
0.0042076278 0.0042076278 0.013718247
0.0052157948 0.0041726362 0.01397258
0.0063088527 0.0042059016 0.01393488
0.0073339981 0.0041908561 0.013787061
0.0083310874 0.0041655437 0.013685346
0.0094570117 0.0042031165 0.013206542
0.010480957 0.004192383 0.012611806
-0.022350403 0.0053215241 0.0074163675
-0.021225486 0.0053063715 0.010421574
-0.019842664 0.0052217534 0.011219442
-0.018814733 0.005226315 0.012289226
-0.017901894 0.0052652624 0.013164073
-0.016467497 0.0051460927 0.01393497
-0.015736796 0.005245598 0.014000118
-0.01482123 0.0052932967 0.014298499
-0.013438928 0.0051688184 0.014389306
-0.012531919 0.0052216328 0.01417765
-0.011491771 0.0052235322 0.013890028
-0.010445311 0.0052226554 0.013356239
-0.0095000844 0.0052778251 0.012368768
-0.0084600858 0.0052875536 0.012222677
-0.007515152 0.0053679654 0.011541665
-0.0064531602 0.0053776335 0.011583149
-0.0054076915 0.0054076915 0.011716962
-0.0042082411 0.0052603013 0.011736602
-0.0031476533 0.0052460888 0.012435168
-0.0021029802 0.0052574505 0.012571663
-0.0010483294 0.0052416464 0.012918085
0 0.0052764164 0.013496399
0.0010391228 0.005195614 0.013972431
0.0021079797 0.0052699493 0.014162332
0.003112352 0.0051872535 0.014281422
0.0041736118 0.0052170143 0.014077961
0.005228756 0.005228756 0.014024526
0.0062662442 0.0052218703 0.014016241
0.0073026405 0.0052161715 0.013781071
0.0083640153 0.0052275094 0.013520539
0.0093771983 0.0052095549 0.012925208
0.010648889 0.0053244447 0.008636117
-0.021183351 0.0063550058 0.0091460347
-0.020042162 0.0063291038 0.010608494
-0.01894784 0.006315947 0.011733234
-0.017843289 0.0062976312 0.012521654
-0.016710611 0.0062664789 0.013010383
-0.015840439 0.0063361758 0.013944447
-0.014552015 0.0062365779 0.014293909
-0.013609576 0.0062813428 0.014472425
-0.012584142 0.0062920712 0.014293909
-0.011370703 0.0062022014 0.014314204
-0.010351089 0.0062106531 0.014070511
-0.00941802 0.0062786802 0.013877422
-0.0084120063 0.0063090045 0.013762534
-0.0074210167 0.0063608713 0.013640344
-0.0062989481 0.0062989481 0.013439715
-0.0053050863 0.0063661034 0.013522506
-0.0042205337 0.0063308002 0.013606966
-0.0031469965 0.006293993 0.013611376
-0.0020962013 0.0062886039 0.01377064
-0.0010465253 0.0062791519 0.013993293
0 0.0062663681 0.014242619
0.0010500004 0.0063000028 0.01453492
0.0020918117 0.006275435 0.014640778
0.0030838954 0.0061677909 0.014453501
0.0041364008 0.0062046009 0.014156491
0.0052456465 0.0062947758 0.014187902
0.0062371329 0.0062371329 0.014045894
0.0073595694 0.0063082022 0.013793886
0.0084129814 0.0063097361 0.013257712
0.0094597116 0.0063064746 0.010826856
-0.021249471 0.0074373153 0.006806016
-0.020152427 0.0074245781 0.0095558763
-0.01882977 0.0073226886 0.010838836
-0.017686205 0.0072825551 0.011812776
-0.016952628 0.007416775 0.01249066
-0.015490705 0.0072289957 0.013619959
-0.014693023 0.0073465114 0.014093995
-0.013409404 0.0072204485 0.014196515
-0.012337927 0.007197124 0.014278203
-0.01143996 0.0072799749 0.014284879
-0.010526806 0.0073687648 0.014235884
-0.0093825301 0.0072975238 0.014004499
-0.0083716782 0.0073252185 0.014000356
-0.0073093469 0.0073093469 0.013799429
-0.0062365141 0.0072759334 0.01384154
-0.0052554915 0.0073576886 0.013971835
-0.0042301165 0.0074027036 0.01397112
-0.0031671699 0.0073900628 0.013989896
-0.002108797 0.0073807891 0.013998717
-0.0010502017 0.007351412 0.014416397
0 0.0072643752 0.014416397
0.0010368502 0.007257951 0.014522493
0.0020834354 0.0072920239 0.014632285
0.0031384556 0.007323063 0.014334232
0.0041764686 0.0073088203 0.013972431
0.0051658782 0.0072322297 0.014043331
0.0062917434 0.0073403674 0.013827831
0.0073234276 0.0073234276 0.013026983
0.0084389709 0.0073841 0.01245296
0.0096436432 0.0075006117 0.0065751374
-0.020305365 0.0085496278 0.0073536932
-0.019148991 0.0085106622 0.0099681318
-0.017818952 0.0083853891 0.011014104
-0.016737418 0.0083687091 0.011887252
-0.015764123 0.0084075322 0.013068318
-0.014636893 0.0083639389 0.013826758
-0.013523632 0.0083222352 0.01416719
-0.012576462 0.0083843078 0.014214516
-0.011507799 0.008369308 0.014210701
-0.010269129 0.0082153026 0.014070511
-0.0094012888 0.0083567016 0.014000356
-0.0083230129 0.0083230129 0.01395157
-0.0072859633 0.0083268154 0.013718009
-0.0062651155 0.0083534876 0.013716906
-0.0051766089 0.0082825748 0.01384154
-0.0041601793 0.0083203586 0.01380074
-0.003135931 0.0083624823 0.013831347
-0.0020913847 0.0083655389 0.013874143
-0.0010338754 0.0082710031 0.014025122
0 0.0083953943 0.014030904
0.0010399717 0.0083197737 0.014383793
0.0020940672 0.0083762687 0.014395297
0.0031412346 0.0083766254 0.014086306
0.0041533518 0.0083067035 0.013978392
0.0052622561 0.0084196096 0.014026433
0.0062841345 0.0083788456 0.013254553
0.0073375916 0.0083858194 0.01255247
0.0084975772 0.0084975772 0.0084357858
-0.019081108 0.0095405541 0.0074565113
-0.017842857 0.0094462177 0.0093917847
-0.016793055 0.0094460929 0.010559678
-0.015688358 0.0094130142 0.01166907
-0.014828877 0.0095328484 0.013388544
-0.013574398 0.0093976604 0.013634056
-0.012558977 0.0094192326 0.013684124
-0.011547408 0.0094478792 0.013869762
-0.010459329 0.009413396 0.013904154
-0.0094062751 0.0094062751 0.0139153
-0.0083484128 0.0093919644 0.013951391
-0.0073696286 0.0094752358 0.01371783
-0.0061795698 0.0092693549 0.013691127
-0.0052327183 0.0094188927 0.013744056
-0.0041731256 0.0093895318 0.013684243
-0.003139422 0.0094182659 0.013749838
-0.0020745709 0.0093355682 0.013772547
-0.0010442446 0.0093982005 0.013923496
0 0.0094053624 0.013923496
0.0010400993 0.0093608936 0.013876349
0.002106026 0.0094771162 0.013876349
0.0031460056 0.0094380165 0.013677806
0.0042043356 0.0094597545 0.01351881
0.0052522239 0.0094540026 0.0129821
0.0062768511 0.0094152763 0.012448996
0.0073858411 0.0094960816 0.0084801316
-0.018177245 0.010692497 0.0069153011
-0.017073698 0.010671061 0.008960247
-0.015654536 0.010436357 0.010217458
-0.01469495 0.010496392 0.011650771
-0.01366626 0.010512508 0.012816608
-0.012489504 0.01040792 0.013073385
-0.011508518 0.010462289 0.013399959
-0.010439818 0.010439818 0.013666332
-0.0094506918 0.010500769 0.013691127
-0.0084142247 0.010517781 0.013813555
-0.0073845503 0.010549357 0.013754338
-0.0062596565 0.010432761 0.013716906
-0.0052720262 0.010544052 0.013744056
-0.0041860435 0.010465109 0.013655752
-0.003129544 0.010431813 0.013600558
-0.0021074859 0.010537429 0.013648212
-0.0010430854 0.010430854 0.013682902
0 0.010498549 0.013605535
0.0010557644 0.010557643 0.013511002
0.0020893209 0.010446604 0.013482869
0.0031613624 0.010537874 0.012925863
0.0041838493 0.010459622 0.012537926
0.0052637975 0.010527595 0.011508405
0.0063046375 0.010507729 0.0081296861
-0.016938107 0.011644947 0.0062498152
-0.016016228 0.011745233 0.0077322423
-0.014879049 0.011690681 0.0095460415
-0.01362735 0.011530835 0.010354996
-0.012572763 0.011525032 0.011487901
-0.011596903 0.011596903 0.012244105
-0.010417198 0.011458918 0.013063073
-0.009331611 0.011405302 0.013159126
-0.0083439574 0.011472941 0.013194025
-0.0073008784 0.011472809 0.013110578
-0.006309344 0.01156713 0.013110578
-0.0052165231 0.011476351 0.013241529
-0.0041684597 0.011463263 0.01314503
-0.0031377499 0.011505082 0.012704402
-0.0020906469 0.011498558 0.012685657
-0.001051916 0.011571077 0.012722254
0 0.011457131 0.01243338
0.0010487466 0.011536213 0.012097597
0.0021025934 0.011564263 0.011889756
0.0031478067 0.011541958 0.011619598
0.0042130747 0.011585955 0.0098707676
0.0053015454 0.0116634 0.0060131252
-0.014807203 0.012691888 0.0062681139
-0.013780004 0.012720004 0.0069084466
-0.012701256 0.012701256 0.0084629357
-0.011605454 0.012660495 0.009952575
-0.010509063 0.012610875 0.010483831
-0.0094559751 0.012607967 0.010836691
-0.0084671816 0.012700772 0.011409074
-0.0073664729 0.012628239 0.011569738
-0.0063107195 0.012621439 0.011569738
-0.0052246801 0.012539232 0.011501044
-0.0042239856 0.012671957 0.011501312
-0.0031680586 0.012672234 0.01151216
-0.0020883027 0.012529816 0.011510521
-0.0010607389 0.012728867 0.011428207
0 0.012679905 0.010985643
0.0010576306 0.012691567 0.010560334
0.0021091467 0.01265488 0.0095255077
0.0031472149 0.01258886 0.0077991486
-0.011749966 0.013886323 0.0059914589
-0.010789104 0.014025835 0.0065875351
-0.0095758745 0.013831818 0.0071605146
-0.0086259162 0.014017113 0.0074199438
-0.0074401158 0.013817358 0.0074253678
-0.0063807918 0.013825049 0.0073873997
-0.0053281733 0.01385325 0.007465601
-0.0042470573 0.013802936 0.007471025
-0.0031972465 0.013854735 0.007471025
-0.0021443288 0.013938136 0.0072462857
-0.0010645565 0.013839235 0.0071977675
0 0.013905035 0.0055677891
0 0 0 1 0 0 0 1 0 0 0 1 0 0 0 0 0 949 1 0 0
