ply
format ascii 1.0
comment PCL generated
element vertex 942
property float x
property float y
property float z
element camera 1
property float view_px
property float view_py
property float view_pz
property float x_axisx
property float x_axisy
property float x_axisz
property float y_axisx
property float y_axisy
property float y_axisz
property float z_axisx
property float z_axisy
property float z_axisz
property float focal
property float scalex
property float scaley
property float centerx
property float centery
property int viewportx
property int viewporty
property float k1
property float k2
end_header
-0.014021283 -0.0046737608 0.0053959489
-0.012889969 -0.0046872618 0.0052842796
-0.011403183 -0.0045612734 0.0052943528
-0.010491698 -0.0046629771 0.0052715242
-0.0091859959 -0.004592998 0.0053959489
-0.0081550507 -0.004660029 0.0054908395
-0.0068260855 -0.0045507238 0.0051345825
-0.0045180847 -0.0045180847 0.0050549507
-0.0033619325 -0.0044825766 0.0050101876
-0.0021879119 -0.0043758238 0.0057231784
-0.016634036 -0.0031188815 0.0055098832
-0.015574895 -0.003114979 0.0084841549
-0.014416743 -0.003089302 0.011297882
-0.013497433 -0.0031147923 0.012220174
-0.012284615 -0.0030711538 0.012578487
-0.011360263 -0.0030982534 0.012468457
-0.01027394 -0.003082182 0.012445629
-0.0093173189 -0.0031057729 0.012412906
-0.0083234673 -0.0031213001 0.012547135
-0.0073525091 -0.0031510752 0.012623161
-0.0062925299 -0.0031462649 0.012732923
-0.0051671336 -0.0031002802 0.012839675
-0.0041555287 -0.0031166465 0.012841612
-0.0031181781 -0.0031181781 0.012603104
-0.0020691843 -0.0031037764 0.012563109
-0.0010366749 -0.0031100246 0.012503684
0 -0.003099242 0.012507349
0.0010383822 -0.0031151464 0.010930479
0.0020711352 -0.0031067028 0.0052829385
-0.017806752 -0.0020949119 0.0090037286
-0.016848756 -0.0021060945 0.01159972
-0.015730515 -0.002097402 0.012448758
-0.014638781 -0.0020912543 0.013295203
-0.013529333 -0.0020814359 0.013328165
-0.012571503 -0.0020952506 0.01323989
-0.011479114 -0.0020871116 0.013222367
-0.010433803 -0.0020867607 0.012921751
-0.0093915295 -0.0020870066 0.012809455
-0.0083479816 -0.0020869954 0.012680084
-0.0072758067 -0.0020788019 0.012839675
-0.0062692161 -0.0020897386 0.012892395
-0.0052303183 -0.0020921275 0.012913495
-0.0041755922 -0.0020877961 0.013029963
-0.0031460305 -0.0020973538 0.01285097
-0.0021039716 -0.0021039716 0.012809455
-0.0010412032 -0.0020824063 0.012707949
0 -0.0020952176 0.012665093
0.0010487031 -0.0020974062 0.012535065
0.0020734845 -0.0020734845 0.012085021
0.0031324946 -0.0020883298 0.0091916919
0.0041429116 -0.0020714558 0.0051457286
-0.018824914 -0.0010458286 0.010923803
-0.018005762 -0.0010591624 0.01230371
-0.016715363 -0.0010447102 0.012646645
-0.015807437 -0.0010538291 0.01335606
-0.014745559 -0.0010532542 0.01345259
-0.013458157 -0.0010352428 0.013426095
-0.012568695 -0.0010473913 0.013308287
-0.011512745 -0.0010466132 0.01323989
-0.010330276 -0.0010330277 0.012987107
-0.0094881775 -0.001054242 0.012730777
-0.0083821993 -0.0010477749 0.012657166
-0.0073236725 -0.0010462389 0.012654066
-0.0063475585 -0.0010579264 0.012729913
-0.0052730464 -0.0010546093 0.012751013
-0.0042170929 -0.0010542732 0.013001442
-0.0031738642 -0.0010579547 0.012675166
-0.0020953331 -0.0010476665 0.012803882
-0.001045908 -0.001045908 0.012699008
0 -0.0010373138 0.012975216
0.0010401154 -0.0010401154 0.012975216
0.002085699 -0.0010428495 0.012724847
0.0031257558 -0.0010419186 0.012560934
0.0042063617 -0.0010515904 0.011254072
0.0051489715 -0.0010297943 0.0075796843
-0.019920589 0 0.011018783
-0.019042069 0 0.012418509
-0.017842187 0 0.012950838
-0.016832393 0 0.013536125
-0.015735282 0 0.013572663
-0.014656878 0 0.013680816
-0.013668148 0 0.013692379
-0.012603111 0 0.0136289
-0.011644865 0 0.013551354
-0.010420525 0 0.013311177
-0.0094772344 0 0.01300773
-0.0084383124 0 0.012860775
-0.0073403395 0 0.012889415
-0.0063669668 0 0.012998164
-0.0052328226 0 0.013047785
-0.0041985707 0 0.013047576
-0.0031221071 0 0.012889236
-0.0021083883 0 0.012890041
-0.0010474358 0 0.013044745
0 0 0.013445377
0.0010534724 0 0.013527781
0.0020855838 0 0.013354301
0.0031489967 0 0.01323393
0.0041993023 0 0.012601525
0.0052163606 0 0.011338264
0.0062027168 0 0.0089129508
-0.021068735 0.0010534368 0.010951549
-0.020109152 0.0010583764 0.01211974
-0.018865483 0.0010480824 0.012856692
-0.017665034 0.0010391197 0.013631463
-0.016852813 0.0010533008 0.013572574
-0.015702328 0.0010468218 0.01358974
-0.014550191 0.0010392994 0.013607055
-0.013697419 0.0010536477 0.013577372
-0.012573085 0.0010477571 0.013450086
-0.011670307 0.0010609371 0.01353538
-0.010439998 0.0010439998 0.013296306
-0.0093992986 0.0010443665 0.012897968
-0.0084153637 0.0010519205 0.012751013
-0.0073070284 0.0010438613 0.012839675
-0.0062915892 0.0010485982 0.012729913
-0.0052709123 0.0010541825 0.012860775
-0.0042005084 0.0010501271 0.013058424
-0.0031639864 0.0010546622 0.012860775
-0.0020948453 0.0010474226 0.013116449
-0.001053164 0.001053164 0.013145924
0 0.0010456674 0.013948202
0.001060847 0.001060847 0.014226943
0.0020970404 0.0010485202 0.014124244
0.0031553891 0.0010517965 0.014086276
0.0041892896 0.0010473224 0.014019638
0.0052151242 0.0010430249 0.013385445
0.0062425705 0.0010404284 0.011546671
0.0073334882 0.0010476412 0.0053085685
-0.022167729 0.0021112124 0.0090088546
-0.020984499 0.00209845 0.012098491
-0.020029118 0.0021083283 0.012842536
-0.018875174 0.0020972416 0.013708055
-0.017819179 0.0020963741 0.01387164
-0.01665964 0.002082455 0.013693482
-0.015776215 0.0021034952 0.013924509
-0.014781252 0.0021116075 0.013778806
-0.013608559 0.0020936246 0.013685405
-0.012567116 0.0020945193 0.013522685
-0.011463693 0.0020843078 0.013267398
-0.010362485 0.0020724973 0.013097793
-0.0094299335 0.002095541 0.012815177
-0.0084372312 0.0021093078 0.012668222
-0.0073696938 0.002105627 0.012654066
-0.0063295742 0.0021098582 0.012676805
-0.0052300137 0.0020920055 0.012702227
-0.0041912012 0.0020956006 0.012871414
-0.0031363359 0.0020908907 0.012702227
-0.002091289 0.002091289 0.013087958
-0.0010462641 0.0020925282 0.013186574
0 0.0021081443 0.014113098
0.0010374837 0.0020749674 0.014290959
0.0021010449 0.0021010449 0.014328212
0.0031374334 0.0020916222 0.014297068
0.004156813 0.0020784065 0.01421681
0.0052425126 0.002097005 0.013911217
0.0062736059 0.002091202 0.013466954
0.0072378255 0.0020679501 0.012031943
0.0085245296 0.0021311324 0.0052483976
-0.022210861 0.0031729802 0.01153633
-0.021208275 0.0031812412 0.012403727
-0.020080881 0.0031706654 0.012883276
-0.018918738 0.003153123 0.013631463
-0.017994955 0.0031755804 0.013568819
-0.016702272 0.0031316758 0.0134193
-0.015798816 0.0031597631 0.013258964
-0.014640258 0.003137198 0.013165623
-0.013688364 0.0031588532 0.013082743
-0.012602756 0.0031506889 0.012749344
-0.011588889 0.0031606061 0.012562215
-0.010573838 0.0031721513 0.011963934
-0.0095757209 0.0031919072 0.011341423
-0.0085643884 0.0032116454 0.010641247
-0.0074933367 0.00321143 0.010054469
-0.006425316 0.003212658 0.0095292628
-0.0053232145 0.0031939289 0.010047525
-0.0042842994 0.0032132245 0.010255992
-0.0031746994 0.0031746994 0.011225671
-0.0021249137 0.0031873705 0.01186654
-0.0010529549 0.0031588646 0.012530625
0 0.0031279607 0.012919664
0.0010627717 0.0031883148 0.013388515
0.0021107679 0.0031661519 0.013641447
0.0031695778 0.0031695778 0.013859063
0.0042469855 0.0031852389 0.0138143
0.0052189576 0.0031313745 0.013948053
0.006286677 0.0031433385 0.013602078
0.0073059928 0.0031311398 0.012848169
0.0083127385 0.0031172768 0.011671484
-0.023420263 0.0042582299 0.010647357
-0.022049265 0.0041998597 0.011535168
-0.02114448 0.004228896 0.01226446
-0.020132516 0.0042384244 0.012636751
-0.018949023 0.004210894 0.013092399
-0.017817477 0.0041923472 0.013249844
-0.01682473 0.0042061824 0.013036132
-0.015688797 0.0041836794 0.012759238
-0.014771315 0.0042203758 0.012511611
-0.013793429 0.004244132 0.011829853
-0.012681465 0.0042271549 0.011515886
-0.011801167 0.0042913337 0.010607004
-0.010596768 0.0042387075 0.0093271732
-0.0095930677 0.0042635859 0.0088473558
-0.0085690767 0.0042845383 0.00836429
-0.0074590333 0.0042623049 0.0068841279
-0.0064211511 0.0042807674 0.0068353415
-0.0053221835 0.004257747 0.0071159601
-0.0042878636 0.0042878636 0.00759691
-0.003206091 0.0042747878 0.0087375939
-0.0021488899 0.0042977799 0.0096320808
-0.0010690895 0.0042763581 0.010378629
0 0.0042322273 0.011717528
0.0010558584 0.0042234338 0.012454659
0.0020824308 0.0041648615 0.012577385
0.0031534119 0.0042045494 0.013566673
0.0042137252 0.0042137252 0.013596684
0.0052310368 0.0041848295 0.01385963
0.0063392133 0.0042261421 0.013783306
0.0073536281 0.0042020734 0.013602078
0.0083266981 0.004163349 0.012688369
0.0093741706 0.0041662985 0.008335501
-0.023224061 0.0052781957 0.011046976
-0.022044811 0.0052487641 0.01169768
-0.021212088 0.005303022 0.012222171
-0.019841507 0.0052214488 0.012440711
-0.018773071 0.0052147424 0.012585491
-0.017960921 0.0052826232 0.012569338
-0.016551325 0.005172289 0.012156248
-0.015845552 0.0052818502 0.011586368
-0.014932984 0.005333208 0.011227578
-0.013684511 0.0052632731 0.010793269
-0.012756434 0.0053151809 0.0097951889
-0.011691557 0.0053143441 0.007908076
-0.010703746 0.0053518731 0.0063279867
-0.0096399775 0.005355543 0.0061648488
-0.0086258939 0.0053911838 0.0060685277
-0.0075633726 0.005402409 0.0055088103
-0.0065475325 0.0054562767 0.0055575967
-0.0054214089 0.0054214089 0.0061196089
-0.004295303 0.0053691287 0.0062870681
-0.0032078298 0.005346383 0.0063865185
-0.002135538 0.0053388453 0.0070671737
-0.0010659499 0.0053297495 0.0091633797
0 0.0053806766 0.010108441
0.0010599748 0.0052998737 0.011618674
0.0021181006 0.0052952515 0.012426674
0.0031441778 0.0052402965 0.012909114
0.0041740993 0.0052176239 0.013402462
0.0052869786 0.0052869786 0.013902962
0.0062903864 0.0052419887 0.013902962
0.0073111746 0.0052222675 0.014030486
0.0083420705 0.0052137938 0.013647616
0.0093771983 0.0052095549 0.012587756
0.01082565 0.0054128249 0.0059524775
-0.024218069 0.0063177571 0.010840774
-0.022951391 0.0062594702 0.011687994
-0.02218342 0.00633812 0.01213783
-0.020954397 0.0062863189 0.012423486
-0.019960009 0.0063031605 0.012420535
-0.019038836 0.0063462788 0.012420535
-0.01780601 0.0062844744 0.012103707
-0.016940646 0.0063527417 0.01169005
-0.015983006 0.0063932026 0.011187047
-0.014801956 0.0063436949 0.010604143
-0.013839308 0.006387373 0.0089057982
-0.012851065 0.0064255325 0.007463634
-0.011831939 0.0064537851 0.0053224564
-0.0021630223 0.0064890664 0.0055996478
-0.0010715224 0.0064291344 0.006801337
0 0.0063695274 0.0086888075
0.001074266 0.006445596 0.0097783804
0.0021449756 0.0064349268 0.01110515
0.0031332788 0.0062665576 0.012193173
0.0041281097 0.006192164 0.012755513
0.0052471706 0.0062966049 0.013643652
0.0062268917 0.0062268917 0.014042139
0.0073446343 0.0062954007 0.014203638
0.0083778705 0.0062834024 0.014203042
0.0093966248 0.006264417 0.013080329
0.010416305 0.0062497826 0.011327773
0.01218122 0.006644302 0.0050165355
-0.024131695 0.0073444284 0.011104345
-0.023247773 0.0073970188 0.011896133
-0.021979235 0.007326412 0.012103707
-0.020915793 0.0073205279 0.012263417
-0.020049449 0.0073866392 0.012250215
-0.018915281 0.0073559429 0.012117267
-0.01776801 0.0073162396 0.01192981
-0.017162185 0.0075084558 0.011306643
-0.01561773 0.0072882739 0.010415256
-0.015008635 0.0075043174 0.0087352097
-0.013845876 0.0074554714 0.0058034956
0 0.0074760499 0.0060671568
0.0010555057 0.0073885401 0.00752756
0.0021256236 0.0074396823 0.0097046793
0.0032075895 0.0074843755 0.011376143
0.0042164605 0.0073788059 0.012128025
0.0051677073 0.0072347904 0.012897998
0.0063063735 0.0073574358 0.013623476
0.0073392158 0.0073392158 0.014037013
0.0084038619 0.0073533789 0.014203638
0.0094692018 0.0073649348 0.013738275
0.010440871 0.0073086098 0.012654036
0.011642413 0.0074088085 0.0084327459
-0.025196485 0.0083988281 0.010105014
-0.024229959 0.0084278118 0.01156348
-0.02314491 0.0084163304 0.01196456
-0.022126511 0.0084291473 0.011837274
-0.020996405 0.0083985627 0.012014836
-0.019943224 0.0083971471 0.012064457
-0.019054715 0.008468763 0.01192981
-0.017954594 0.008449221 0.011564851
-0.016860221 0.0084301103 0.010593951
-0.016083041 0.0085776225 0.0089930296
-0.015158055 0.008661746 0.0058730245
0.0010724651 0.0085797207 0.0058555007
0.0021238169 0.0084952675 0.0080369115
0.003190065 0.0085068401 0.010027021
0.0042140684 0.0084281368 0.011838943
0.0052832868 0.0084532592 0.013011515
0.0062658475 0.0083544636 0.013189495
0.0073111374 0.0083555859 0.014076114
0.008404444 0.008404444 0.014339775
0.0094950888 0.0084400792 0.014294297
0.010388579 0.0083108637 0.014137059
0.011479644 0.0083488328 0.012927711
0.013132198 0.0087547991 0.0051723719
-0.025208296 0.0094531104 0.011550397
-0.024274869 0.0094988607 0.011881888
-0.023041911 0.0094262371 0.012249917
-0.022034574 0.0094433883 0.012248456
-0.021185251 0.0095333625 0.012205839
-0.01979408 0.0093761431 0.011816978
-0.019071244 0.0095356219 0.011689097
-0.017978493 0.0095180254 0.010702461
-0.017063016 0.009597946 0.0095789731
-0.016157117 0.0096942699 0.0072930455
0.002156866 0.0097058965 0.0065069199
0.0031827635 0.0095482897 0.0089259744
0.0042635859 0.0095930677 0.011058867
0.0053409138 0.0096136453 0.012833089
0.006252714 0.0093790703 0.013263285
0.0073359222 0.0094318995 0.014213502
0.0084059481 0.0094566904 0.014406621
0.0093618473 0.0093618473 0.014406621
0.010467251 0.0094205262 0.014307946
0.011439488 0.0093595814 0.014146417
0.012485126 0.009363845 0.012865275
-0.026204417 0.010481766 0.011401117
-0.024970232 0.010404263 0.012185544
-0.024092872 0.010475161 0.012330621
-0.023084735 0.010493062 0.012603253
-0.022007702 0.010479858 0.012558252
-0.020942912 0.010471456 0.012336135
-0.020064773 0.010560406 0.011731654
-0.019069016 0.010593898 0.011366397
-0.018024016 0.010602362 0.010258764
-0.017330972 0.010831858 0.0079227686
0.0032350565 0.010783522 0.0070927739
0.004215789 0.010539472 0.010055304
0.005292445 0.01058489 0.011969596
0.0062933015 0.010488835 0.013022095
0.0073133032 0.010447576 0.014062792
0.0083810715 0.010476339 0.014574587
0.0094874399 0.010541599 0.014651448
0.010439818 0.010439818 0.014641017
0.011428085 0.010389169 0.014199197
0.012545072 0.010454225 0.013538867
0.01391733 0.010705638 0.0056773722
-0.026274184 0.01156064 0.012188017
-0.025092719 0.01150083 0.012605339
-0.02422566 0.011586185 0.012673199
-0.023206411 0.011603205 0.012827724
-0.022034386 0.01154182 0.012705803
-0.021093732 0.011601552 0.012558252
-0.02006346 0.011615687 0.011914879
-0.019007487 0.011615687 0.011108607
-0.018092198 0.011706716 0.0082508922
0.0042513511 0.011691215 0.0088697076
0.0052917935 0.011641946 0.011827379
0.0064040534 0.011740765 0.013348162
0.0073111169 0.011488898 0.013978809
0.0084531624 0.011623099 0.014574587
0.0094221029 0.011515903 0.014714569
0.010484225 0.011532648 0.014714569
0.011510445 0.011510445 0.014222175
0.012471139 0.011431878 0.013958484
0.013447574 0.011378717 0.012435943
-0.02709748 0.012506529 0.010603338
-0.026127836 0.01254136 0.012174994
-0.025172692 0.012586346 0.012560964
-0.02403919 0.012542186 0.012623519
-0.023076219 0.012587029 0.012774885
-0.021965064 0.012551465 0.012566954
-0.021047175 0.012628306 0.012371242
-0.020080531 0.01268244 0.01170516
-0.01905873 0.012705821 0.010348022
-0.018307257 0.012922769 0.0071026683
0.0042900504 0.012870152 0.0085135102
0.0052834903 0.012680377 0.011366755
0.0063611786 0.012722357 0.01276508
0.0073715914 0.012637014 0.013836473
0.0083521334 0.012528201 0.014262736
0.0094214259 0.012561901 0.014625043
0.01050236 0.012602832 0.014682263
0.011468737 0.01251135 0.014333308
0.012533846 0.012533846 0.013899982
0.013507587 0.012468542 0.013169646
0.014713399 0.012611485 0.0052482486
-0.027188666 0.013594333 0.01093325
-0.026303716 0.013677932 0.012295723
-0.025090432 0.013590651 0.01271522
-0.023968751 0.013547554 0.01271522
-0.023153407 0.01368156 0.01286447
-0.021870058 0.013538606 0.012675881
-0.021007799 0.01365507 0.012228966
-0.020165714 0.013797593 0.011297673
-0.019170122 0.013845089 0.0098895431
-0.018318253 0.014008075 0.005150497
0.0043306677 0.014074669 0.0066756606
0.0052587031 0.013672628 0.010473639
0.0063815229 0.013826633 0.0125148
0.0073744287 0.013695368 0.013710171
0.0083700046 0.013601257 0.014281273
0.0094091753 0.013591032 0.014527947
0.010444272 0.013577554 0.014429241
0.011511401 0.013604384 0.014262766
0.012518249 0.013561437 0.013994843
0.01363798 0.01363798 0.013518035
0.014457299 0.013424635 0.0097981989
-0.028237214 0.014641518 0.005337745
-0.027384015 0.014745239 0.01102668
-0.026275659 0.014714369 0.012284398
-0.025114605 0.014650187 0.012706995
-0.024239596 0.014754537 0.01271525
-0.023109967 0.014706343 0.012727141
-0.021782598 0.014521731 0.012582868
-0.021087589 0.014761313 0.012261152
-0.020076122 0.014792932 0.011188149
-0.0191707 0.014910545 0.0089749694
0.0052299257 0.014643792 0.010195494
0.0063934154 0.014917969 0.012352288
0.0073750871 0.014750174 0.013542175
0.008330795 0.014578891 0.014160961
0.0094319601 0.014671939 0.014346868
0.010448266 0.014627573 0.014379203
0.011537235 0.014683755 0.014173985
0.0124346 0.014507033 0.014037788
0.013626539 0.014674734 0.013661802
0.01464792 0.01464792 0.011825413
-0.028515358 0.015841866 0.0082812309
-0.027416328 0.015817113 0.011552751
-0.026089329 0.015653597 0.012521237
-0.02511234 0.015695212 0.012717336
-0.024219221 0.015795143 0.012751162
-0.023154726 0.015787315 0.012818605
-0.021953138 0.015680812 0.012569815
-0.020993182 0.015744887 0.012574613
-0.019963291 0.015760493 0.011491477
-0.019406732 0.016172279 0.0078092515
0.0052297567 0.015689271 0.010738283
0.006337638 0.015844095 0.012093455
0.0073586409 0.015768517 0.013217241
0.0083807269 0.015713863 0.013965905
0.0093395477 0.015565913 0.014075816
0.010449149 0.015673723 0.014166683
0.011552941 0.015754011 0.014072269
0.012529949 0.015662435 0.013743281
0.013706061 0.015814686 0.013731897
0.014587771 0.015629753 0.012256205
-0.028574981 0.016933322 0.0082812309
-0.027285645 0.016791165 0.011530548
-0.026079215 0.016690698 0.012521237
-0.024974175 0.016649451 0.01294744
-0.024086775 0.016756017 0.012947619
-0.023192648 0.016867381 0.012947619
-0.021823248 0.016627235 0.012648612
-0.020970467 0.016776375 0.012519419
-0.019997211 0.016839758 0.01146552
-0.019408146 0.017251687 0.0073141158
0.0052380851 0.016761873 0.010502279
0.0063103419 0.016827578 0.012568951
0.0073498269 0.016799605 0.013262242
0.008314616 0.016629232 0.013743758
0.0094038825 0.016718013 0.013959408
0.010518182 0.016829092 0.013959408
0.011479471 0.016697412 0.013907075
0.012583548 0.016778065 0.013619572
0.013573325 0.016705632 0.013565242
0.014725313 0.016828928 0.012468845
-0.02855072 0.017976379 0.0070768893
-0.027300235 0.017850153 0.011492848
-0.026421592 0.017966682 0.012633264
-0.024971614 0.017688228 0.013166428
-0.024141658 0.017843835 0.013253629
-0.022965442 0.017746026 0.013313949
-0.021933436 0.017755639 0.013190001
-0.020923289 0.017784795 0.012653887
-0.020084184 0.017970059 0.012001961
-0.019378765 0.018302169 0.0072927475
0.0043434231 0.018459547 0.0058304369
0.0052786637 0.017947458 0.011083692
0.0063692657 0.018046254 0.012443751
0.0073482175 0.017845672 0.013301313
0.0083658984 0.017777534 0.013717532
0.0093535818 0.017667877 0.013951123
0.010378853 0.017644051 0.013951123
0.011523841 0.017809574 0.013680905
0.012549372 0.017778277 0.013557196
0.013559265 0.017731348 0.013420701
0.014693966 0.017842673 0.011391044
-0.028593566 0.019062376 0.0054813027
-0.027578585 0.019092865 0.01093325
-0.026003789 0.018722728 0.012372971
-0.025189253 0.01889194 0.012947619
-0.024167007 0.018913308 0.013265222
-0.022992382 0.018811949 0.013379097
-0.021918273 0.01878709 0.01325345
-0.021022003 0.018919801 0.012886941
-0.019997602 0.018945096 0.012505889
-0.019243021 0.019243021 0.0094234645
-0.018189397 0.01925936 0.0050598085
0.004335396 0.019509282 0.0074421167
0.0052796104 0.019006597 0.011315405
0.0062958477 0.018887542 0.012901217
0.0073832283 0.018985445 0.013325661
0.0083518308 0.01879162 0.013606697
0.0094249081 0.018849816 0.013733745
0.010480025 0.018864045 0.013747513
0.011533971 0.01887377 0.013502419
0.0124406 0.018660899 0.013434649
0.013568076 0.018786566 0.013149381
0.014694068 0.018892372 0.0090119839
-0.027417392 0.020035787 0.010098308
-0.026402006 0.020065524 0.012018591
-0.024995208 0.019787874 0.012582868
-0.024020178 0.019842755 0.012931198
-0.023083393 0.019935658 0.013200074
-0.022011548 0.01991521 0.013166249
-0.020873588 0.019829908 0.012883991
-0.019964091 0.019964091 0.012448579
-0.019169616 0.020234596 0.010629028
-0.018198682 0.020339703 0.0051798224
0.0042408602 0.020144086 0.01046741
0.0052585993 0.019982679 0.012178689
0.0063298349 0.020044478 0.012915879
0.0073670303 0.019996226 0.013384581
0.0083157914 0.019750005 0.013559997
0.0094550578 0.019960679 0.013618052
0.010413666 0.019785967 0.013595223
0.01148844 0.01984367 0.013446093
0.012566281 0.019896613 0.013150036
0.013534065 0.019780558 0.012633294
0.014838949 0.020138573 0.0061813295
-0.027423551 0.021095039 0.0078389049
-0.026221024 0.020976817 0.011676162
-0.025065128 0.020887608 0.012521237
-0.024087185 0.020945378 0.012931198
-0.023020396 0.020927632 0.013253629
-0.021957794 0.020912183 0.013220519
-0.02106691 0.02106691 0.013154089
-0.019863427 0.02090887 0.012694418
-0.018990982 0.021101091 0.011911035
-0.01841886 0.021669244 0.0071741045
0.0032678379 0.021785587 0.0050368309
0.0042069736 0.021034867 0.01084727
0.0052719656 0.021087863 0.012681156
0.0063020289 0.021006763 0.013125688
0.0072540361 0.020725816 0.01338464
0.008388333 0.020970833 0.013477325
0.0093229469 0.02071766 0.013488859
0.010492155 0.020984311 0.013497472
0.011483026 0.020878229 0.013253778
0.012522387 0.020870646 0.012938082
0.013578316 0.020889716 0.011181027
-0.026251111 0.022050934 0.010534436
-0.025206357 0.022055564 0.01213783
-0.024186186 0.02208304 0.012610644
-0.023117783 0.022066975 0.013010681
-0.022038 0.022038 0.013154984
-0.020817311 0.021858178 0.013044417
-0.019779999 0.021862105 0.012798846
-0.018940384 0.022097114 0.012120128
-0.018358594 0.022678263 0.010332376
-0.017150002 0.022509377 0.0050436258
0.0032398372 0.022678861 0.01013577
0.0041730688 0.021908613 0.011671782
0.005224409 0.021942521 0.012795269
0.0062928214 0.022024876 0.013061047
0.0072658942 0.021797683 0.013308197
0.0082961861 0.021777488 0.013370574
0.0094214724 0.021983437 0.013306648
0.010409854 0.021860695 0.013219774
0.011446074 0.021851597 0.013026297
0.012586523 0.022026416 0.012311578
0.013820265 0.022325044 0.0075891316
-0.026656255 0.023457503 0.0071803629
-0.025131522 0.023037229 0.01160726
-0.024010999 0.022967042 0.012210876
-0.023073234 0.023073234 0.012865752
-0.021963554 0.023009436 0.013127416
-0.02085223 0.022937454 0.013043523
-0.020134402 0.023313517 0.012915581
-0.018822895 0.023005763 0.012523293
-0.017815309 0.023055106 0.011759669
-0.01754776 0.024128169 0.0091897845
0.0022171093 0.024388202 0.0082631409
0.0031661624 0.023218524 0.011025339
0.0041971058 0.02308408 0.012643307
0.0052160998 0.022950839 0.01321277
0.0063277739 0.023201838 0.013401359
0.0072994372 0.022941086 0.013489336
0.0083832163 0.023053845 0.013547063
0.0094382884 0.023071373 0.013384581
0.010393243 0.022865137 0.013253778
0.011480692 0.022961384 0.013020754
0.012678313 0.023243574 0.010937482
-0.025403647 0.024345163 0.010072351
-0.024024421 0.024024421 0.011904776
-0.023056637 0.024104668 0.012713194
-0.022037081 0.024135852 0.012878716
-0.020794595 0.023913786 0.012982279
-0.019981394 0.024188004 0.012900442
-0.018815884 0.024042521 0.012696922
-0.017823156 0.024113681 0.012401819
-0.016938984 0.024349792 0.011716038
-0.016390083 0.025131462 0.0090753138
0.0010912429 0.025098586 0.0074914098
0.0021672468 0.024923339 0.010891885
0.0031432561 0.024098298 0.012189001
0.0042213532 0.024272781 0.012890905
0.0052649779 0.0242189 0.013384581
0.0063020531 0.024157872 0.013459831
0.0073018223 0.023991702 0.013464212
0.0083698696 0.024063375 0.013501793
0.0093591884 0.023917926 0.013219774
0.01042465 0.023976697 0.013039231
0.011546691 0.024143083 0.012389511
0.012802128 0.024537412 0.0060986578
-0.02575428 0.02575428 0.0057607591
-0.024231955 0.025285518 0.011398613
-0.023102744 0.025202993 0.012334049
-0.022121938 0.025282213 0.012804985
-0.021032289 0.025238747 0.012904763
-0.019694306 0.024877017 0.012927115
-0.019022183 0.025362911 0.012840331
-0.017696498 0.024983291 0.012711585
-0.016773032 0.025159547 0.012373984
-0.016207043 0.025931269 0.01161924
-0.015341693 0.026300043 0.0089565814
0 0.026713422 0.0059434474
0.0010715453 0.025717085 0.010857522
0.0020817181 0.024980616 0.012223959
0.0031378663 0.02510293 0.012894809
0.0041696103 0.025017662 0.013368309
0.0052499049 0.025199546 0.01352194
0.0062280996 0.024912398 0.013720036
0.0073284442 0.025126094 0.013547063
0.0082912389 0.024873717 0.013426483
0.009393963 0.025050569 0.012988895
0.010483973 0.025161536 0.012901068
0.011572442 0.025248965 0.010001719
-0.024510548 0.0266419 0.0074644685
-0.023135325 0.026290145 0.01196304
-0.02189268 0.026062714 0.013071388
-0.020816356 0.026020445 0.012916982
-0.019817201 0.026075264 0.012970924
-0.018763216 0.026060026 0.013387948
-0.017839545 0.026234625 0.013365597
-0.016704319 0.0261005 0.013365597
-0.015637178 0.026061963 0.012656897
-0.014848052 0.026514377 0.012324601
-0.014672662 0.028216658 0.0094828308
-0.0011195802 0.027989507 0.0076250136
0 0.026737465 0.010742515
0.0010403449 0.026008623 0.012643307
0.0020799399 0.02599925 0.013401926
0.003141952 0.026182933 0.013554424
0.0042364001 0.026477503 0.013858765
0.0051903822 0.025951913 0.013894826
0.006278994 0.026162477 0.01391995
0.007320086 0.026143165 0.013547063
0.0083605535 0.026126731 0.013330102
0.0094423601 0.02622878 0.012913555
0.010426404 0.026066011 0.011839718
0.011735965 0.026672648 0.0062884986
-0.02319983 0.027417982 0.010557413
-0.022005333 0.027244696 0.012334049
-0.021067085 0.027387211 0.012760252
-0.019871803 0.027192993 0.012939185
-0.018806199 0.027164511 0.013383001
-0.017807782 0.02723543 0.013534218
-0.016744472 0.027209766 0.013671428
-0.015502448 0.02687091 0.013769627
-0.014517079 0.026960289 0.013689369
-0.013584055 0.02716811 0.013203472
-0.012991873 0.028149057 0.010729432
-0.012631992 0.029857434 0.0077016056
-0.0035174782 0.03048481 0.0057539642
-0.002171488 0.028229345 0.010768324
-0.0010390235 0.027014613 0.01181367
0 0.027236182 0.013151079
0.0010358596 0.026932348 0.013474703
0.0020864247 0.027123522 0.013974547
0.003165548 0.027434748 0.013978094
0.0041490858 0.026969058 0.013953954
0.0052111573 0.027098017 0.013979077
0.0062977104 0.027290078 0.013974547
0.0072950758 0.027095996 0.013564408
0.0084103299 0.027333571 0.013094246
0.0095262704 0.027520338 0.012125522
0.010502002 0.027305206 0.0095919669
-0.023445927 0.028774546 0.0069059432
-0.02208337 0.028392904 0.010654539
-0.021089138 0.028470339 0.011862099
-0.01979002 0.028122662 0.012543708
-0.018879682 0.028319526 0.013439536
-0.017637456 0.02801243 0.013589084
-0.016644454 0.028087517 0.013705611
-0.015829099 0.028492378 0.014036089
-0.014545332 0.028051713 0.013973236
-0.013581026 0.028206749 0.013607085
-0.012583278 0.028312378 0.01334697
-0.011279955 0.027687162 0.012674958
-0.010415734 0.028122483 0.010808408
-0.0098706558 0.029611969 0.010152102
-0.00887754 0.029961698 0.0091897845
-0.0078256913 0.030184811 0.008144021
-0.0066247908 0.029811561 0.0081456602
-0.0053532543 0.028907575 0.010024458
-0.0041975561 0.028333504 0.010668486
-0.0031467753 0.028320979 0.012371063
-0.0021073734 0.028449541 0.013291031
-0.0010505939 0.028366035 0.013565838
0 0.027809279 0.013813555
0.0010516889 0.028395602 0.01395005
0.0021055483 0.028424904 0.014235109
0.0031423953 0.028281558 0.01416111
0.0041812523 0.028223453 0.013994098
0.0051847487 0.027997645 0.013931721
0.0062769628 0.028246334 0.013776153
0.0072542746 0.027980775 0.013195425
0.008325249 0.028097715 0.012461066
0.0093785459 0.028135641 0.010769457
-0.022170169 0.029560225 0.0079428554
-0.021047875 0.029467026 0.010848045
-0.019969041 0.029428059 0.012098461
-0.018867709 0.029349772 0.012932718
-0.017713996 0.029175993 0.013504475
-0.016647447 0.029133031 0.013663083
-0.015618512 0.029154558 0.01406464
-0.014660291 0.029320583 0.014104337
-0.013553414 0.029191971 0.013954073
-0.012284183 0.028663093 0.013860255
-0.01145527 0.02915887 0.013836801
-0.010467465 0.029308902 0.013319343
-0.0095148627 0.029601797 0.013205469
-0.0085043218 0.029765127 0.013205469
-0.007361168 0.029444672 0.013066441
-0.0063014338 0.029406691 0.012870431
-0.005335005 0.029876027 0.012946695
-0.0042245737 0.029572016 0.013089776
-0.0031287197 0.029201385 0.013439208
-0.0020877919 0.029229086 0.013906389
-0.0010421417 0.029179968 0.014116585
0 0.029052323 0.014095336
0.0010568009 0.029590426 0.014147639
0.0020947261 0.029326167 0.014156759
0.0031403981 0.029310383 0.014162719
0.0042201942 0.02954136 0.014070809
0.0051975469 0.029106265 0.013802022
0.0062266253 0.029057585 0.013463944
0.0073317927 0.029327171 0.012800753
0.0083997212 0.029399022 0.011352092
0.0095241675 0.029630745 0.0093997121
-0.021155916 0.030676082 0.0098589063
-0.019840855 0.030283412 0.011167496
-0.018891713 0.03043665 0.012286723
-0.017878197 0.030498102 0.013163716
-0.016657142 0.030191069 0.013631642
-0.015581109 0.030123478 0.014016747
-0.014615152 0.030274244 0.014116913
-0.01356603 0.030262684 0.014061004
-0.012538049 0.030300288 0.014133781
-0.011583642 0.030538695 0.014211595
-0.010316051 0.029916547 0.014232665
-0.0093730921 0.030202189 0.014259994
-0.0082999747 0.030087408 0.014254868
-0.0072415341 0.030000642 0.014436513
-0.0062579941 0.030246973 0.0142304
-0.0051960177 0.030136904 0.013969332
-0.0041574175 0.030141275 0.014171839
-0.0031396591 0.030350039 0.014171839
-0.0020967876 0.030403418 0.014171839
-0.0010552758 0.030602997 0.014236212
0 0.030414378 0.014006108
0.0010363011 0.030052735 0.01402238
0.0020970309 0.030406948 0.013954818
0.0031263407 0.030221296 0.014074862
0.0041472004 0.030067204 0.013687432
0.0051744301 0.030011695 0.013516694
0.0062733181 0.030321039 0.012657255
0.0073147449 0.030303946 0.011994809
0.0084609827 0.030671064 0.0098028183
-0.021374317 0.032061476 0.0066930354
-0.019870693 0.031374779 0.0098335445
-0.018875133 0.031458557 0.011167407
-0.017667342 0.03117766 0.012268394
-0.016643398 0.031206371 0.013403356
-0.015852597 0.031705193 0.013836801
-0.014447431 0.030958781 0.014085531
-0.013610158 0.031408057 0.013930351
-0.012443857 0.031109644 0.014084548
-0.011423731 0.031155631 0.014261544
-0.010439986 0.031319961 0.014382094
-0.009388335 0.03129445 0.014267683
-0.0084190657 0.031571496 0.014211595
-0.0073529822 0.031512782 0.014321417
-0.0062995269 0.031497635 0.014171451
-0.0051968894 0.031181337 0.013997495
-0.0041654105 0.031240581 0.014171451
-0.003138171 0.031381711 0.013938606
-0.0020880119 0.031320181 0.014074862
-0.0010409756 0.031229265 0.013807684
0 0.031099847 0.013789117
0.0010435901 0.031307701 0.013758391
0.0020912956 0.031369433 0.013752282
0.0031398127 0.031398129 0.013490051
0.004189488 0.031421158 0.013366282
0.0052555613 0.031533372 0.012546629
0.006226934 0.031134671 0.011773348
0.0073819207 0.031636804 0.0098429918
0.008470132 0.031762995 0.0057422519
-0.020078076 0.03275897 0.0073279142
-0.018869378 0.032497264 0.010061026
-0.017787907 0.032436773 0.010987431
-0.016746188 0.03244574 0.012220502
-0.015564372 0.032166369 0.013099521
-0.014606308 0.032342538 0.013768047
-0.01353807 0.03228309 0.01364702
-0.012391916 0.032012451 0.013770521
-0.011539219 0.03251962 0.013923079
-0.010324361 0.032005522 0.013887405
-0.0093159936 0.032088425 0.013928771
-0.0083294595 0.032276656 0.013864696
-0.0073086149 0.032366727 0.013969332
-0.0062567564 0.032326575 0.01385957
-0.0052129254 0.032320138 0.01383251
-0.0041711866 0.032326698 0.013795465
-0.0031069377 0.032105025 0.013629287
-0.0020741206 0.032148868 0.013664842
-0.0010450337 0.032396048 0.013729841
0 0.032437611 0.013700932
0.0010466144 0.032445047 0.013593674
0.0020733909 0.032137562 0.0134238
0.0031109499 0.032146484 0.012973458
0.0041848035 0.032432228 0.01212889
0.0051904335 0.032180689 0.01167953
0.0063227699 0.032667648 0.010182947
0.0074107321 0.032818958 0.0085487366
-0.019118169 0.033987857 0.0071600378
-0.017774109 0.033457145 0.0095969439
-0.016748749 0.033497497 0.010914534
-0.015664283 0.033417139 0.0117248
-0.014719961 0.033645626 0.012828082
-0.013496726 0.033222709 0.012955964
-0.012543324 0.033448864 0.013563275
-0.011486169 0.033414312 0.013600618
-0.010473033 0.03351371 0.013608217
-0.0093705021 0.033317342 0.013751477
-0.0083224829 0.033289932 0.013826191
-0.0073203729 0.033464562 0.013951629
-0.0062296418 0.033224758 0.013795465
-0.0052258843 0.03344566 0.0137918
-0.0041375505 0.033100404 0.013280004
-0.0031262049 0.033346187 0.013126284
-0.002088059 0.033408944 0.013407946
-0.0010400884 0.033282828 0.013430834
0 0.033333503 0.013386548
0.0010440393 0.033409256 0.012981355
0.0020794279 0.033270847 0.012830198
0.0031356865 0.033447322 0.011902303
0.0041706138 0.033364911 0.011013657
0.0052553611 0.033634312 0.0096752048
0.0063499762 0.03386654 0.0083845258
-0.018088432 0.035112839 0.0051810443
-0.016912477 0.034881983 0.0090425909
-0.015796851 0.034753073 0.0098153055
-0.014552897 0.034303255 0.010829747
-0.0136385 0.034620807 0.011606961
-0.012557561 0.034533292 0.012091845
-0.011453783 0.034361351 0.012684286
-0.010403489 0.034331512 0.012730122
-0.0093839224 0.034407716 0.013107002
-0.0083358716 0.034385473 0.013600618
-0.0073371846 0.034589585 0.013718098
-0.0062327604 0.034280181 0.013453335
-0.0051789531 0.034181092 0.013673991
-0.0041999123 0.034649275 0.013114601
-0.0031394288 0.034533717 0.013022125
-0.0020811961 0.034339733 0.013104886
-0.0010418231 0.03438016 0.012859881
0 0.034255937 0.012614667
0.0010407292 0.034344066 0.011864781
0.0021022218 0.034686662 0.011463612
0.0031188286 0.034307115 0.0099671781
0.0042021 0.034667321 0.0088478625
0.0052476167 0.03463427 0.0061654747
-0.015840929 0.035906106 0.0068905652
-0.014750493 0.035822626 0.0088327527
-0.013712241 0.035862785 0.0098681152
-0.01253236 0.035508353 0.01072681
-0.011564308 0.035744227 0.010927916
-0.01036367 0.035236482 0.011291295
-0.0093551865 0.035341818 0.012074709
-0.0083705857 0.035574991 0.012361974
-0.0072744265 0.035332929 0.012397259
-0.006269373 0.035526447 0.012295008
-0.0052115936 0.035438839 0.012341291
-0.0041715787 0.035458419 0.012355477
-0.0031072448 0.035215441 0.012176275
-0.0021130855 0.035922453 0.012046963
-0.0010403914 0.035373308 0.011647254
0 0.035825811 0.011466324
0.0010479252 0.035629459 0.0099584758
0.0020937652 0.035594005 0.0094516575
0.0031661161 0.035882652 0.0084750652
-0.013722728 0.036945805 0.0066323876
-0.012755546 0.037203673 0.0087437034
-0.011589888 0.036876917 0.0086526573
-0.010458005 0.036603019 0.0094024539
-0.0095171509 0.037011143 0.0099005997
-0.0084319571 0.03688981 0.0099394917
-0.0073838313 0.036919154 0.0095601976
-0.0063627809 0.037116222 0.0093983114
-0.0052742544 0.03691978 0.0091388226
-0.0042251092 0.036969706 0.0092328787
-0.0031732745 0.037021536 0.0090740323
-0.0021213803 0.037124153 0.0084750652
-0.0010589992 0.037064973 0.0082189143
0 0.037267059 0.0082189143
0.0010515278 0.036803473 0.0060969591
0 0 0 1 0 0 0 1 0 0 0 1 0 0 0 0 0 942 1 0 0
