ply
format ascii 1.0
comment PCL generated
element vertex 934
property float x
property float y
property float z
element camera 1
property float view_px
property float view_py
property float view_pz
property float x_axisx
property float x_axisy
property float x_axisz
property float y_axisx
property float y_axisy
property float y_axisz
property float z_axisx
property float z_axisy
property float z_axisz
property float focal
property float scalex
property float scaley
property float centerx
property float centery
property int viewportx
property int viewporty
property float k1
property float k2
end_header
-0.017384339 0.043460846 0.005497545
-0.016494002 0.043984007 0.0063682795
-0.015300705 0.0437163 0.0063121915
-0.014201889 0.043698117 0.0064014196
-0.012910317 0.04303439 0.006208837
-0.012075473 0.043910809 0.0061680675
-0.010776438 0.043105751 0.0065309107
-0.0099160932 0.044071525 0.0064418316
-0.0088006957 0.044003479 0.0064418316
-0.0076117907 0.043495946 0.0064718127
-0.0065770699 0.043847132 0.0064302683
-0.0054923012 0.04393841 0.0053737462
-0.0044002733 0.04400273 0.0054171681
-0.0032891736 0.043855648 0.0053603053
-0.0022043441 0.044086881 0.0051915348
-0.0010982993 0.043931969 0.0050522387
-0.01859398 0.042352956 0.0064513981
-0.017664876 0.042603526 0.0091852248
-0.016531453 0.042361848 0.013185531
-0.015533363 0.04245786 0.013708532
-0.014571244 0.042672928 0.013725877
-0.013436203 0.042375717 0.013702691
-0.01228865 0.041986227 0.013636649
-0.011460825 0.042717621 0.013433993
-0.010295297 0.04221072 0.013507426
-0.0093514537 0.042601071 0.013582677
-0.0082507394 0.04228504 0.013543487
-0.0072638835 0.042545605 0.013613462
-0.0062311674 0.042579643 0.013582677
-0.0051615792 0.042324953 0.01362294
-0.0041427226 0.042462908 0.014336228
-0.0031132961 0.042548385 0.014461607
-0.0020727727 0.042491842 0.014420062
-0.001033727 0.04238281 0.012605041
0 0.042462524 0.0066177547
-0.020859411 0.043804765 0.0054478943
-0.01983724 0.043850739 0.0068750679
-0.018847661 0.043977879 0.013704985
-0.01767271 0.043661993 0.014144421
-0.016549518 0.043442484 0.014173955
-0.015637554 0.043785151 0.014165312
-0.014487751 0.043463256 0.014119834
-0.013460338 0.043487247 0.014123052
-0.012496442 0.043737549 0.014235944
-0.011149817 0.042572029 0.013945609
-0.010359949 0.043511789 0.014095515
-0.0093310494 0.0435449 0.014337182
-0.0083034327 0.043593023 0.014296412
-0.0072637186 0.043582313 0.014068931
-0.0062452126 0.04371649 0.014353901
-0.0051936056 0.04362629 0.014566422
-0.0041562133 0.043640237 0.014914662
-0.0031250501 0.0437507 0.015092999
-0.0020700577 0.043471213 0.015177786
-0.0010412846 0.043733954 0.014915586
0 0.043443732 0.014608979
0.0010394047 0.043654997 0.012913823
0.0020442244 0.042928714 0.0058559477
-0.021801064 0.044640273 0.0056901574
-0.020771597 0.044658937 0.012196332
-0.019769907 0.04474242 0.014003128
-0.018772949 0.04484649 0.014600009
-0.01773707 0.044864357 0.014691234
-0.016655672 0.044762116 0.01468873
-0.015512588 0.044469416 0.014677495
-0.01451873 0.044593241 0.014496624
-0.013440263 0.044456258 0.014481336
-0.012321546 0.044152208 0.014407396
-0.011480878 0.044879798 0.013799667
-0.010265106 0.044139959 0.014068931
-0.0093896957 0.044861883 0.014124006
-0.0083288932 0.044767801 0.014191896
-0.0072736917 0.044681251 0.014205456
-0.0062570302 0.044842049 0.014444053
-0.0052004261 0.044723663 0.014994711
-0.0041345102 0.044445984 0.015110731
-0.003109134 0.044564255 0.015513659
-0.0020906117 0.044948153 0.015623778
-0.001037616 0.044617489 0.015398681
0 0.044197917 0.015296698
0.0010361611 0.044554926 0.014522642
0.0020493865 0.044061806 0.013298035
0.0031111345 0.044592928 0.0059883595
-0.021915976 0.045919187 0.013005465
-0.020838672 0.04584508 0.013914645
-0.019811772 0.045879889 0.014403462
-0.018563015 0.045376264 0.014767319
-0.017752901 0.045948684 0.014811188
-0.016572718 0.045574971 0.014811188
-0.015699213 0.046051029 0.014782369
-0.014519922 0.045634039 0.014694363
-0.013412244 0.045395285 0.014521211
-0.012681009 0.046497036 0.014447391
-0.011423145 0.045692582 0.014022082
-0.010293252 0.04529031 0.014095515
-0.0093059177 0.045495596 0.014191896
-0.0083140526 0.045727286 0.014124006
-0.0072581638 0.045622744 0.014090687
-0.0062858937 0.046096552 0.014424652
-0.0051711504 0.045506127 0.014874279
-0.0041309749 0.045440722 0.015161067
-0.0031121166 0.045644376 0.015621364
-0.0020853225 0.045877095 0.01553458
-0.0010398222 0.045752179 0.015403092
0 0.04564831 0.015200227
0.0010324279 0.045426823 0.014971554
0.0020597456 0.045314401 0.014211982
0.0031068437 0.045567043 0.013180792
0.0040858835 0.044944715 0.0058037937
-0.022885045 0.046810322 0.012233764
-0.021937927 0.047009848 0.013933837
-0.020897113 0.047018506 0.014453888
-0.019666042 0.046577469 0.01468724
-0.018785652 0.046964135 0.015016526
-0.017681139 0.046803016 0.015049607
-0.016700886 0.046971247 0.015038013
-0.015565935 0.046697807 0.014794618
-0.014444724 0.046429474 0.014743656
-0.013529807 0.046833951 0.01451084
-0.012508912 0.046908423 0.014337182
-0.01135405 0.046448387 0.013771087
-0.010449132 0.047021098 0.014068931
-0.0093398904 0.046699453 0.014110953
-0.0083127385 0.046759158 0.014077067
-0.0072973073 0.046911262 0.013975561
-0.0062838034 0.047128528 0.014230877
-0.0052245632 0.047021072 0.014793336
-0.0041468055 0.046651565 0.015248448
-0.0031121708 0.046682566 0.015504539
-0.002066572 0.04649787 0.01552543
-0.0010386884 0.046740979 0.015223891
0 0.046762936 0.015230358
0.0010360222 0.046621002 0.015013278
0.0020643906 0.046448793 0.014799923
0.0031187148 0.046780724 0.014223129
0.0040983334 0.046106253 0.013438046
-0.023820683 0.047641367 0.010829836
-0.022931868 0.047948454 0.013909638
-0.021794586 0.047740523 0.014376521
-0.020750895 0.047727063 0.01468116
-0.019807693 0.047955465 0.014860243
-0.018750979 0.047919169 0.015108913
-0.01761445 0.047662631 0.015123159
-0.016708795 0.04803779 0.015080512
-0.015677797 0.048078574 0.014959246
-0.014474577 0.047559325 0.014743656
-0.013515782 0.047825076 0.01451084
-0.012459629 0.047761913 0.014407396
-0.011493408 0.048063345 0.013771087
-0.010293595 0.047350541 0.014095515
-0.0092538772 0.047297601 0.014110953
-0.0083666099 0.048108008 0.014079392
-0.0072528627 0.04766167 0.014090687
-0.0062333425 0.047788963 0.014346004
-0.0051395078 0.047283474 0.014831066
-0.0041420073 0.047633085 0.015328795
-0.0031162037 0.047781792 0.015504539
-0.0020845281 0.047944143 0.015389681
-0.0010383968 0.047766257 0.015296608
0 0.047758043 0.015248835
0.0010391237 0.047799695 0.015141785
0.0020725341 0.047668282 0.015050262
0.0031034832 0.047586743 0.014954031
0.0041727787 0.047986954 0.014794528
0.0051164906 0.047071714 0.01267755
-0.025587052 0.050107978 0.0057431757
-0.024050275 0.049146213 0.013155729
-0.022904027 0.04893133 0.013976395
-0.021831535 0.048861053 0.014506161
-0.021006254 0.049364701 0.014641047
-0.019873286 0.049160231 0.014682174
-0.018763037 0.048992377 0.01483947
-0.017720498 0.048991963 0.01476717
-0.016709821 0.049085103 0.014600158
-0.015494481 0.048549373 0.014243841
-0.014478057 0.048604906 0.014102757
-0.013517419 0.048870668 0.013616681
-0.012684871 0.049682412 0.013173878
-0.011741826 0.050169621 0.012157679
-0.010429284 0.049017638 0.00926283
-0.0095329359 0.049783111 0.0092605054
-0.0084668994 0.049743034 0.0091109574
-0.0074139661 0.049779486 0.012174308
-0.0063899606 0.050054695 0.012399822
-0.0052388576 0.049245261 0.013317019
-0.0041495394 0.048757091 0.013932467
-0.0031236673 0.048937455 0.014645696
-0.0020880483 0.049069136 0.014873594
-0.0010292575 0.048375104 0.014839321
0 0.048412252 0.015045375
0.0010340416 0.048599955 0.01494661
0.0020622506 0.04846289 0.014827192
0.003111132 0.048741069 0.014869273
0.0041059395 0.048244789 0.014769018
0.0051528704 0.048436984 0.013420075
0.0062951357 0.049311895 0.0077830851
-0.025121259 0.050242517 0.012206316
-0.023943167 0.049968347 0.013531178
-0.022872074 0.049902707 0.014200479
-0.021807386 0.049845453 0.014474183
-0.020927561 0.050226148 0.014524281
-0.01969398 0.049753211 0.014609396
-0.018686794 0.04983145 0.014677405
-0.017728688 0.050057471 0.014506221
-0.016613957 0.04984187 0.014287323
-0.015888339 0.050842684 0.013813049
-0.014800793 0.050745573 0.012461782
-0.013834411 0.051080901 0.0093741119
-0.012549724 0.050198898 0.0083686411
-0.011620562 0.050707906 0.0075687468
-0.010549698 0.050638553 0.007732749
-0.0095301475 0.050827451 0.0065019727
-0.0084949294 0.050969578 0.0070272386
-0.0074147624 0.050844084 0.0075822175
-0.0063775573 0.051020458 0.0076271296
-0.0053096656 0.050972793 0.0087415278
-0.0042648013 0.05117761 0.010214716
-0.0031661601 0.050658561 0.012514681
-0.0020801723 0.049924135 0.013696194
-0.0010393694 0.049889728 0.014226913
0 0.0497039 0.014723957
0.0010451206 0.050165791 0.014743716
0.002069033 0.04965679 0.014743716
0.003102412 0.049638592 0.014715314
0.0041548633 0.049858361 0.014755398
0.0052076615 0.049993552 0.014004201
0.0062224679 0.049779743 0.011617959
-0.026598739 0.052133523 0.0097480416
-0.025144231 0.051336136 0.013069302
-0.023734521 0.050564848 0.013504326
-0.023008853 0.05124699 0.014051497
-0.021970974 0.051265601 0.014111221
-0.020869339 0.051129878 0.014211833
-0.019874195 0.0512545 0.014111221
-0.018795498 0.051165521 0.013867587
-0.017767604 0.051212505 0.013333827
-0.016835423 0.05155848 0.01242727
-0.015832797 0.051720466 0.0097772181
-0.014907309 0.052175581 0.0083842278
-0.013842078 0.052173987 0.0064736605
-0.012747795 0.052053496 0.0053322613
-0.011803434 0.052578934 0.0050806403
-0.0075256494 0.052679542 0.0050832927
-0.0063970755 0.052242782 0.0052734911
-0.0053413655 0.05234538 0.0064774752
-0.0042538443 0.052109588 0.0074422956
-0.0031899072 0.052101817 0.0086542666
-0.0021309953 0.052209381 0.0112032
-0.0010501345 0.051456593 0.013048887
0 0.050768722 0.014208943
0.0010412982 0.05102361 0.014230192
0.0020789457 0.050934169 0.014615059
0.0031056611 0.050725799 0.014705658
0.0041935663 0.051371183 0.014805913
0.005143167 0.050403036 0.014115304
0.0062318654 0.050893568 0.012867332
0.007262595 0.050838161 0.010725081
-0.025989799 0.051979598 0.012108862
-0.024958301 0.051996466 0.013224602
-0.023992678 0.052157998 0.013540596
-0.022829078 0.051884267 0.013876319
-0.021723211 0.051721931 0.013915092
-0.020879915 0.052199792 0.013863623
-0.019723464 0.051903855 0.013653547
-0.018968215 0.052689489 0.013275981
-0.01811572 0.053281531 0.011852801
-0.016796445 0.052488893 0.0093977451
-0.015985787 0.053285956 0.0075071156
-0.015119491 0.053998183 0.0055742562
-0.004270941 0.053386763 0.0051720142
-0.0031778633 0.052964389 0.0064591765
-0.0021251426 0.053128567 0.0077934563
-0.0010654248 0.053271241 0.010861874
0 0.052878127 0.013048738
0.0010331759 0.051658794 0.013931036
0.0020628234 0.051570587 0.014022142
0.0031114309 0.051857185 0.014476657
0.0041516316 0.051895395 0.01472199
0.0051942351 0.051942352 0.014052033
0.0062473915 0.052061599 0.013186306
0.0072205765 0.051575549 0.011861593
-0.02720513 0.053363908 0.011337578
-0.025882145 0.052799579 0.012720466
-0.025057809 0.053247847 0.01338014
-0.023890803 0.052975256 0.013623625
-0.022714382 0.052656066 0.013950884
-0.021956226 0.053322263 0.01382795
-0.020897612 0.053288914 0.013623625
-0.019921688 0.053474005 0.01337263
-0.019051522 0.053979315 0.011707634
-0.018072089 0.054216266 0.009410888
-0.017027188 0.05427416 0.0066922605
-0.016094161 0.054720152 0.0056955218
-0.0021157726 0.053952202 0.0061831474
-0.0010591663 0.05401748 0.0075696707
0 0.054042324 0.010675073
0.0010522105 0.053662732 0.012792766
0.0020820219 0.05309156 0.013467282
0.0030912305 0.052550923 0.014051199
0.0041532451 0.052953873 0.01472199
0.0051756874 0.052792016 0.01406908
0.0061612637 0.052370742 0.013944894
0.0072602453 0.052896071 0.013162106
0.0082597882 0.052656151 0.011238128
-0.0270632 0.054126401 0.012462765
-0.025905669 0.053883791 0.013015032
-0.024990512 0.054146111 0.013341784
-0.023867991 0.053962413 0.013653547
-0.022866607 0.054048344 0.013822317
-0.021861793 0.054133963 0.013340682
-0.020987639 0.054567866 0.013124049
-0.020039337 0.054844499 0.011865944
-0.019110741 0.055208813 0.0094633996
-0.018129028 0.055453494 0.0065743923
-0.017247047 0.056052905 0.0051055849
-0.0010526633 0.054738492 0.0059426427
0 0.054776393 0.0080114007
0.0010648172 0.055370495 0.01081574
0.0020889814 0.054313518 0.012842417
0.0031424938 0.054469895 0.013900429
0.0041705533 0.05421719 0.014198661
0.0051489575 0.053549159 0.014268398
0.0062837405 0.054459084 0.014178842
0.0072507523 0.053862732 0.013995439
0.0082639456 0.053715646 0.012987316
0.0096898125 0.055985585 0.0076267421
-0.027970009 0.054904088 0.011697352
-0.026999613 0.05503767 0.012777984
-0.026126603 0.055388395 0.013262957
-0.024731945 0.05461638 0.013472795
-0.023893632 0.055059236 0.013829082
-0.022921663 0.055220369 0.013364971
-0.02180152 0.05502288 0.012945801
-0.021031601 0.055733744 0.012146741
-0.020094838 0.056054022 0.0097013712
-0.019215463 0.056578863 0.0063268542
-0.018318264 0.057109877 0.0050806403
0 0.05596235 0.0067970157
0.001049362 0.055616181 0.0090969503
0.0021227624 0.056253202 0.011492282
0.0031093839 0.054932449 0.013137877
0.0041174679 0.054556448 0.013887495
0.0051865848 0.054977797 0.014208555
0.006262857 0.055321902 0.014247984
0.0071938392 0.054467637 0.014292449
0.0083284853 0.055176213 0.013908654
0.0092439614 0.054436665 0.012012005
-0.029357856 0.056618724 0.005638063
-0.027929932 0.055859864 0.011956334
-0.027221259 0.056536462 0.012885511
-0.025867762 0.055874366 0.013087332
-0.024835324 0.055879481 0.013360977
-0.023767866 0.055802815 0.013356745
-0.022782739 0.055921275 0.013065666
-0.021961659 0.056472838 0.01246956
-0.021094721 0.056955747 0.011045069
-0.020192616 0.057389542 0.0075860023
0 0.057645615 0.0051704943
0.0010533681 0.056881879 0.0073369443
0.0021185603 0.057201132 0.010731518
0.003149875 0.056697752 0.012786001
0.0041371435 0.055851437 0.013811678
0.0051749116 0.055889051 0.014198661
0.0062597129 0.056337416 0.014268398
0.0072549167 0.055966504 0.014350474
0.0082977181 0.056009598 0.014272779
0.009242014 0.05545209 0.013162106
0.010467656 0.05652535 0.010962307
-0.028911062 0.056789588 0.011014372
-0.027995495 0.057027858 0.013001233
-0.027011575 0.05713987 0.013268977
-0.025914915 0.057012811 0.013411701
-0.024704035 0.056613419 0.013762683
-0.023723878 0.056731012 0.013500959
-0.023159973 0.057899937 0.013074607
-0.021984739 0.057579078 0.01170361
-0.021233691 0.058392651 0.0095368326
-0.020407148 0.059073322 0.0057902932
0.0010724065 0.058982357 0.0067682266
0.0020729094 0.057005011 0.0093141794
0.0031847027 0.058386218 0.012484699
0.0041461498 0.057009563 0.013106555
0.0051511344 0.056662481 0.013928413
0.0061873142 0.056717049 0.01413092
0.007304071 0.057389129 0.014301151
0.0082466286 0.056695569 0.014299721
0.0092894742 0.056769013 0.014039904
0.010351231 0.056931775 0.012869895
-0.029481525 0.058963049 0.011597842
-0.027987637 0.058048431 0.012747556
-0.026920946 0.057983577 0.013117313
-0.02585038 0.057904851 0.01315695
-0.025051555 0.058453627 0.013373256
-0.023857271 0.058087271 0.013352543
-0.023097727 0.058794219 0.012825996
-0.021917757 0.05844735 0.011294365
-0.021246988 0.059491571 0.0078499317
0.0010616551 0.059452686 0.0066149235
0.0021126629 0.059154559 0.0090231299
0.0031789092 0.059339639 0.011665523
0.0041855583 0.058597818 0.013014972
0.0051659876 0.057859063 0.013836086
0.0062170899 0.058026172 0.014027059
0.0072331186 0.057864949 0.01440832
0.0083061308 0.058142912 0.014328659
0.0092656678 0.057653043 0.014233559
0.010364614 0.058041841 0.013131112
0.011392375 0.057997543 0.0074641705
-0.030286381 0.059528403 0.0085350275
-0.02916448 0.059370548 0.011620462
-0.02806581 0.059250038 0.012939662
-0.026941426 0.059063897 0.013154864
-0.026010169 0.059303183 0.013154864
-0.025000973 0.059377309 0.013416916
-0.024005678 0.059492327 0.013195157
-0.022953171 0.059469581 0.012630403
-0.022011468 0.059745412 0.010734797
-0.021190213 0.060392108 0.0068808496
0.0021275056 0.060633909 0.0088943243
0.0031207649 0.059294533 0.011476964
0.0041761422 0.059510022 0.012711495
0.0051910602 0.059178088 0.013892621
0.0061805337 0.058715068 0.014081806
0.0072830054 0.059304468 0.01440832
0.0082728378 0.058943968 0.014283717
0.009304285 0.058927141 0.014376074
0.01037008 0.059109461 0.014039665
0.011445519 0.0593086 0.011529267
-0.030397961 0.060795922 0.0090388954
-0.028953675 0.059975471 0.011435241
-0.028218541 0.060617607 0.013110042
-0.026952336 0.060124442 0.012988567
-0.026008576 0.060339898 0.013050586
-0.024850521 0.060055431 0.013154864
-0.023804642 0.060029097 0.013084143
-0.022959696 0.060530111 0.012546897
-0.022223942 0.061380412 0.010468483
-0.021414213 0.062101223 0.0057757497
0.0021076882 0.061122958 0.0078938305
0.0031283554 0.060481541 0.011384815
0.0042371857 0.061439198 0.013067812
0.0051702261 0.059974626 0.013962358
0.0062373686 0.060294565 0.014460266
0.0073421043 0.060834583 0.014576375
0.0082665486 0.059932478 0.014523059
0.0093531357 0.060275771 0.014648885
0.010326617 0.059894383 0.01427561
0.011322054 0.059698109 0.012465328
-0.030798927 0.062659889 0.0095116198
-0.029379776 0.061907385 0.011418939
-0.027971221 0.061122298 0.013136178
-0.027077332 0.061444718 0.013020605
-0.026121221 0.061646085 0.013156861
-0.024909584 0.061236065 0.013217837
-0.024229715 0.062154483 0.013156861
-0.02284549 0.061267454 0.012546897
-0.022033839 0.061904591 0.010458857
-0.021328242 0.06291832 0.0054777861
0.0020913705 0.061695434 0.0086242557
0.0031304932 0.061566368 0.011401653
0.0041449484 0.061137989 0.013030916
0.005203662 0.061403215 0.014017105
0.0062174038 0.061137807 0.01443103
0.0072035301 0.06071547 0.01453796
0.0083518857 0.061595157 0.014468372
0.0093183098 0.061086703 0.014660835
0.010340412 0.061008435 0.014304578
0.011481179 0.061580874 0.012465328
-0.030459862 0.063020401 0.0089007318
-0.029001944 0.062147021 0.011368901
-0.027995208 0.062211573 0.013082623
-0.026873512 0.062015798 0.012831986
-0.026010945 0.062426265 0.01321438
-0.024987236 0.062468093 0.013282061
-0.024114307 0.062906884 0.01321438
-0.02295245 0.062597595 0.013039321
-0.022127014 0.063220039 0.010675013
-0.021322912 0.06396874 0.0065318048
0.0021156948 0.063470848 0.0092744529
0.003127184 0.062543683 0.012054592
0.004186614 0.062799208 0.013746798
0.0051773498 0.062128197 0.014266163
0.0061865635 0.061865635 0.014504135
0.0072055534 0.061761886 0.014575839
0.0082818074 0.062113553 0.01447311
0.0093317404 0.062211607 0.014641762
0.01045541 0.062732458 0.014309257
0.011444516 0.06242463 0.012465328
-0.030384148 0.063911475 0.0089224577
-0.029218584 0.063654773 0.011286587
-0.028001146 0.063261844 0.013109326
-0.026846416 0.062985823 0.013061285
-0.026357843 0.064313136 0.013282061
-0.024858167 0.063181177 0.013282061
-0.023874266 0.063318707 0.013247937
-0.022851299 0.063360423 0.013109326
-0.02200382 0.063915856 0.01104793
-0.021518545 0.065631561 0.0071246028
0.001091162 0.066560879 0.0064432919
0.0020806752 0.063460588 0.010641187
0.0031466431 0.063981742 0.012500465
0.0041886833 0.063877419 0.013890654
0.0051498199 0.062827803 0.01431334
0.0062283967 0.06332203 0.01453796
0.0072729238 0.063378334 0.014569849
0.0082869446 0.063187949 0.014585257
0.0092724292 0.062846467 0.014648885
0.01042684 0.063603722 0.014305651
0.011349482 0.062938042 0.012426525
-0.030578468 0.065374658 0.0059141517
-0.029381033 0.065058 0.010983348
-0.027998796 0.064293534 0.01289475
-0.027064642 0.064538762 0.013020605
-0.025714993 0.063773185 0.013308913
-0.024908056 0.064345814 0.013308913
-0.024113007 0.065000281 0.013303071
-0.022801712 0.064259373 0.013195395
-0.022047393 0.065092303 0.011444837
-0.021563448 0.066846691 0.0089826286
-0.020303586 0.066253811 0.0053522587
0.0010761702 0.066722557 0.0074060559
0.0020933913 0.064895131 0.011479914
0.0031420272 0.06493523 0.013137132
0.0041434877 0.064224064 0.014081806
0.0051942798 0.064409077 0.014420331
0.0062282276 0.064358354 0.014556259
0.0072297086 0.064034566 0.014576375
0.0083209444 0.064487323 0.014580697
0.0092445528 0.063684702 0.014499605
0.010354257 0.0641964 0.014062703
0.011496291 0.064797282 0.01103133
-0.02934801 0.066033028 0.010353893
-0.02807904 0.065517761 0.012696058
-0.026977787 0.065369256 0.012876898
-0.025837488 0.065110475 0.013344467
-0.024898592 0.06535881 0.013431221
-0.023852112 0.065334044 0.013452172
-0.022884343 0.065532438 0.013356298
-0.022036484 0.066109449 0.012502998
-0.021123299 0.066538393 0.010822684
-0.020375885 0.067562148 0.0068327487
0 0.067313932 0.0059728026
0.0010587141 0.066698991 0.010795832
0.0020957252 0.06601534 0.012671739
0.0031252897 0.065631084 0.013973415
0.0042084022 0.066282332 0.014420331
0.0051953113 0.065460928 0.014639884
0.0062052561 0.065155193 0.014646411
0.0072598355 0.065338522 0.014690638
0.0083028385 0.065384857 0.014629811
0.0093206987 0.065244891 0.01451093
0.010412936 0.065601498 0.012894034
0.011495223 0.065836281 0.0074010491
-0.029192066 0.066724725 0.0083222985
-0.028157435 0.066743553 0.011337787
-0.026775232 0.065908261 0.012661815
-0.026269227 0.067249216 0.013286054
-0.024858698 0.066289864 0.013431221
-0.023847058 0.066357031 0.013659149
-0.022936357 0.06672395 0.013659149
-0.02170725 0.066155426 0.012824208
-0.020851744 0.066725589 0.011564732
-0.020636557 0.069512613 0.010468811
-0.019136863 0.068042181 0.0053575933
0 0.069966666 0.0095080435
0.0010500556 0.067203559 0.012020141
0.0020696262 0.06622804 0.013659775
0.0031314858 0.066805027 0.01424703
0.0041581262 0.066530019 0.014617443
0.0051448359 0.065853901 0.014658332
0.0062657073 0.066834211 0.014637262
0.0072684041 0.066453986 0.014639884
0.0082553206 0.066042565 0.014324903
0.0092650838 0.065885045 0.013959914
0.010476323 0.067048468 0.012461245
-0.028167499 0.067810647 0.010558397
-0.027070835 0.067677088 0.012176901
-0.025972104 0.067527466 0.013286054
-0.024746589 0.067022011 0.013398141
-0.023959342 0.067711182 0.013669729
-0.022894317 0.067642301 0.014049113
-0.021648256 0.067006506 0.013659507
-0.020950574 0.068089366 0.012588769
-0.019880272 0.068011463 0.011438489
-0.019596906 0.070766605 0.0086657405
-0.018174855 0.069492094 0.0052086115
-0.0010936391 0.071086541 0.0073792934
0 0.068418697 0.011411279
0.0010449486 0.067921661 0.01255095
0.0020654427 0.067126893 0.014010638
0.00311202 0.067427099 0.01443857
0.0041576969 0.067562573 0.014586627
0.0051088128 0.066414565 0.014647603
0.0061942809 0.067104712 0.01456511
0.0072465939 0.067289799 0.014377385
0.0083199553 0.067599639 0.01355949
0.0093215564 0.067322358 0.012494236
0.010490861 0.068190597 0.0079515576
-0.028392958 0.069405004 0.0088526607
-0.027081944 0.068746477 0.011444837
-0.025967795 0.068554975 0.013026804
-0.024847744 0.068331294 0.013398141
-0.023825487 0.068368785 0.014064312
-0.022823103 0.068469308 0.01427412
-0.021990405 0.069112703 0.014126837
-0.020501191 0.067653932 0.013648897
-0.019923748 0.069208808 0.012762755
-0.019048182 0.069843337 0.011186689
-0.01876439 0.072849981 0.0077664256
-0.0022295823 0.073576212 0.0072894096
-0.0010644457 0.070253417 0.011435181
0 0.068117395 0.012298912
0.0010408021 0.068692937 0.01357305
0.0020766519 0.068529509 0.014572948
0.003142905 0.069143906 0.014766723
0.0041401577 0.0683126 0.014811724
0.0051633241 0.068155885 0.014790624
0.0061618551 0.067780405 0.014575839
0.0072521283 0.068377212 0.014202952
0.0082786251 0.06829866 0.01273337
0.009402832 0.068954103 0.011035651
-0.02716154 0.069993198 0.010605752
-0.026092388 0.069927603 0.012598068
-0.024803154 0.069242142 0.013216227
-0.023878027 0.069557726 0.014021605
-0.022973752 0.069965519 0.014245242
-0.021710379 0.069266446 0.014243245
-0.02070675 0.069367617 0.014114052
-0.019940821 0.070317633 0.013742983
-0.018618744 0.069303103 0.012428075
-0.017948849 0.070739582 0.011029214
-0.017401416 0.072868429 0.0076503158
-0.0033519906 0.074861124 0.0076300502
-0.0021218772 0.07108289 0.011311054
-0.0010436889 0.069927149 0.012298912
0 0.070507564 0.013549536
0.0010401406 0.06968943 0.014481515
0.0020743688 0.069491357 0.014735937
0.0031042895 0.069329135 0.014907926
0.0041016811 0.06870316 0.014946729
0.0051447004 0.068938985 0.014863342
0.0062084305 0.069327481 0.01443857
0.0072151031 0.06905885 0.013683289
0.0083079878 0.0695794 0.012217849
0.0095207803 0.070876926 0.0071615279
-0.028003626 0.07324025 0.0068496168
-0.026104227 0.071003497 0.011682928
-0.024879429 0.070491716 0.012824565
-0.023888972 0.070628263 0.013676286
-0.02260517 0.069870524 0.014141887
-0.021553999 0.069793902 0.014242887
-0.020904817 0.071076378 0.014295757
-0.019477442 0.069708742 0.013987899
-0.018583018 0.070202515 0.013347775
-0.017644383 0.070577532 0.012327969
-0.016729234 0.071099244 0.010930061
-0.016179824 0.073348537 0.0098561645
-0.01523539 0.074000463 0.0062685609
-0.0056234594 0.076479055 0.0069972575
-0.0043175984 0.073399171 0.0096154809
-0.0031239355 0.070809208 0.011962414
-0.0020845789 0.070875682 0.012872726
-0.0010376101 0.07055749 0.013917238
0 0.070651717 0.01456511
0.0010330415 0.070246823 0.01494801
0.0020926339 0.071149558 0.015342355
0.0030878684 0.069991685 0.015304208
0.0041146665 0.069949329 0.015213132
0.0051708422 0.070323452 0.014852613
0.0061694598 0.069920547 0.01414448
0.0072285533 0.070220232 0.012630492
0.0083954558 0.071361378 0.010427952
-0.026297327 0.072580621 0.010011524
-0.024856161 0.071461469 0.012253463
-0.023804558 0.071413673 0.013561934
-0.022832077 0.071609698 0.014063805
-0.02185758 0.071817763 0.014359564
-0.020616474 0.071126834 0.015188873
-0.019901581 0.072274163 0.014985442
-0.01860448 0.071317174 0.013890445
-0.017497236 0.071018197 0.013346523
-0.016814511 0.072512582 0.012792528
-0.015333647 0.070534781 0.011506796
-0.014640547 0.072156988 0.010711163
-0.013951927 0.074052535 0.0093185902
-0.012827064 0.073755614 0.0074012578
-0.011994842 0.075240366 0.0059209466
-0.010862445 0.074950881 0.0051947832
-0.0099265277 0.076103382 0.0052056313
-0.0088057732 0.075949788 0.0058823228
-0.0076301224 0.075211205 0.0072306991
-0.0064715091 0.074422352 0.010881573
-0.0052347835 0.072240017 0.011582375
-0.0041256933 0.071168207 0.013002217
-0.0031305677 0.072003059 0.01387161
-0.0020889996 0.072070487 0.014576167
-0.0010388611 0.071681418 0.014931351
0 0.071503349 0.015318841
0.001040844 0.071818233 0.015542835
0.0020531875 0.070834972 0.015542835
0.0030968592 0.071227759 0.015440404
0.0041492465 0.071574502 0.015265346
0.0051086079 0.070498794 0.01484555
0.0061928504 0.071217783 0.013933986
0.0072810617 0.071770467 0.011663228
0.0085058706 0.073363133 0.0050811172
-0.025103299 0.073217958 0.01122579
-0.023685597 0.072086595 0.012882978
-0.022806646 0.072566599 0.014028162
-0.021741321 0.072471067 0.014257938
-0.020583808 0.072043329 0.015221089
-0.019627603 0.072312221 0.015149981
-0.018740302 0.072878949 0.014825046
-0.017493952 0.072033919 0.014662474
-0.016471343 0.072062127 0.014162719
-0.015662113 0.07308986 0.013230205
-0.014615055 0.07307528 0.012899995
-0.013334986 0.071803764 0.01259312
-0.012331762 0.071935281 0.012150317
-0.011440956 0.072806083 0.011606693
-0.010385918 0.072701432 0.011212796
-0.0093840742 0.072987244 0.011033475
-0.0082856212 0.072499186 0.01140362
-0.0072161974 0.072161973 0.012720048
-0.0062205088 0.072572604 0.013110965
-0.0052908342 0.074071676 0.013602495
-0.0041941041 0.073396824 0.014357239
-0.003106545 0.07248605 0.015020549
-0.0020923233 0.073231317 0.015166551
-0.0010461111 0.073227778 0.01542908
0 0.072307236 0.015551031
0.0010327172 0.072290197 0.01594469
0.0020377871 0.071322545 0.015877932
0.0031368155 0.073192365 0.015518248
0.0041321227 0.072312146 0.015276074
0.0051295776 0.07181409 0.01456356
0.0062558223 0.072984591 0.012890607
0.0073931767 0.073931769 0.010218561
-0.02530981 0.074874856 0.0082949996
-0.023952616 0.073940679 0.011366904
-0.022760002 0.073452733 0.013085216
-0.021791235 0.073675118 0.014159471
-0.020634999 0.07325425 0.015245438
-0.019626072 0.073339529 0.015343249
-0.018505592 0.072994284 0.01525718
-0.017710835 0.073968776 0.015085876
-0.016615013 0.07372912 0.014858067
-0.015490741 0.07332284 0.014515758
-0.014322371 0.072634876 0.014451534
-0.013610904 0.074336477 0.014524043
-0.0127737 0.075577728 0.014369935
-0.011714661 0.075612813 0.013889134
-0.010380284 0.073700011 0.013353586
-0.0094276043 0.074373327 0.013501763
-0.0084371883 0.074880049 0.014098942
-0.0073366538 0.074414633 0.014380991
-0.0062502678 0.073961504 0.0145818
-0.0051559019 0.073213808 0.014921635
-0.0040883333 0.07256791 0.015185028
-0.0030945917 0.073238671 0.015574872
-0.0020866266 0.074075244 0.015693009
-0.0010368387 0.073615551 0.01566726
0 0.073385589 0.01579839
0.0010280133 0.072988942 0.015989721
0.0020648935 0.073303714 0.01574266
0.0031062986 0.073515728 0.015270174
0.0040732045 0.072299376 0.014995933
0.0051817154 0.073580362 0.013742357
0.0062902486 0.074434608 0.011009187
-0.024122806 0.075514868 0.0089226663
-0.022619665 0.074027993 0.012260646
-0.02171764 0.074460477 0.013838738
-0.020827482 0.074978933 0.014635235
-0.019602787 0.074284241 0.015424043
-0.018672416 0.074689664 0.015319526
-0.01751563 0.074183837 0.015577346
-0.016570413 0.074566856 0.015732199
-0.015514628 0.074470215 0.015571386
-0.014667994 0.075435393 0.015470892
-0.013321969 0.073783211 0.015470028
-0.012311809 0.073870853 0.015430242
-0.011243717 0.073595241 0.015186876
-0.010222809 0.073604226 0.014794976
-0.009242096 0.073936768 0.014792562
-0.0082496991 0.074247286 0.015366942
-0.0072582955 0.074656755 0.014849544
-0.0061813178 0.074175812 0.014931202
-0.0052454798 0.07553491 0.015075177
-0.004156413 0.07481543 0.015685916
-0.003114315 0.074743554 0.01562956
-0.0020630392 0.074269406 0.015585959
-0.0010284685 0.074049726 0.01574266
0 0.073743172 0.015636951
0.0010308089 0.074218236 0.01564908
0.0020461164 0.07366018 0.014908999
0.0031038735 0.074492961 0.014550775
0.0041016852 0.073830336 0.013679445
0.0052163764 0.075115822 0.01156354
0.0063231685 0.075878024 0.0067659318
-0.023138184 0.076776713 0.0088828206
-0.021753429 0.075619064 0.012320787
-0.020922616 0.076367557 0.014141887
-0.019640885 0.075462349 0.014731884
-0.018759165 0.076078847 0.015192896
-0.017453961 0.074949361 0.015126795
-0.016434647 0.074983083 0.015089005
-0.015340589 0.074657537 0.015108764
-0.014401388 0.075092956 0.015548021
-0.013558527 0.076136351 0.015478939
-0.012289144 0.074758969 0.015500069
-0.011507244 0.076366261 0.015312046
-0.010429412 0.076134719 0.014826775
-0.0092947148 0.075390473 0.014845341
-0.0083516343 0.076208666 0.015366942
-0.0073008742 0.076137692 0.014844477
-0.0062315078 0.075816683 0.014849544
-0.0051918961 0.075801685 0.01503861
-0.0041291579 0.075357132 0.015523672
-0.0030501469 0.07422024 0.015514463
-0.0020603349 0.075202227 0.015499294
-0.0010292771 0.075137228 0.015296608
0 0.074971057 0.014987051
0.0010337159 0.075461268 0.014867693
0.0020446191 0.074628599 0.014137954
0.0031028721 0.075503223 0.012794852
0.0041425936 0.075602338 0.011988074
0.0052497773 0.076646753 0.0087768435
-0.023163497 0.07791359 0.0053475201
-0.02180163 0.076824799 0.0087999403
-0.02080914 0.076993823 0.012121141
-0.019639006 0.076488756 0.014001012
-0.018624699 0.076568216 0.01413992
-0.017613238 0.076669388 0.014784783
-0.016440779 0.076038606 0.01482591
-0.015325693 0.075606756 0.014704198
-0.01438493 0.076034635 0.015357196
-0.013376441 0.076142825 0.015386701
-0.012277937 0.075713947 0.015455574
-0.011376868 0.076535299 0.015231371
-0.010219186 0.075621985 0.014798492
-0.0092690084 0.076211855 0.01485768
-0.0082630413 0.07643313 0.015343517
-0.0072292299 0.076423295 0.014752448
-0.0062204669 0.076719098 0.014846653
-0.0051281378 0.075896442 0.014944315
-0.0040870337 0.075610124 0.015246272
-0.0030905218 0.076232873 0.015495092
-0.0020795651 0.076943912 0.015197664
-0.0010307385 0.076274648 0.014960051
0 0.075884424 0.014560014
0.0010295992 0.076190345 0.014104515
0.002051505 0.075905688 0.01272738
0.0031151639 0.076840714 0.011898011
0.0041724099 0.077189587 0.0097356737
-0.022132464 0.079044513 0.0052095354
-0.020888394 0.078331478 0.0087380707
-0.019792845 0.078129649 0.011890024
-0.018700399 0.077918328 0.013580769
-0.017647061 0.077854685 0.014060825
-0.016465969 0.07718423 0.014186203
-0.015497582 0.077487916 0.014486969
-0.014533595 0.077858552 0.014614612
-0.013350183 0.077020295 0.014644116
-0.012398219 0.077488869 0.01510936
-0.011299921 0.077044927 0.015207469
-0.010235561 0.076766714 0.014678329
-0.009283714 0.077364288 0.014730483
-0.0082574077 0.077413194 0.014870822
-0.007200391 0.077147052 0.014657795
-0.0062018489 0.077523112 0.014485389
-0.0052025365 0.078038052 0.014539391
-0.0041592661 0.07798624 0.014883101
-0.003101177 0.07752943 0.014925212
-0.0020813865 0.078051999 0.014642
-0.0010280573 0.077104293 0.014479309
0 0.077688858 0.013724476
0.0010276377 0.077072829 0.012603045
0.0020640066 0.077400252 0.011467278
0.0031299433 0.078248583 0.0099827051
-0.02009082 0.080363281 0.0081038475
-0.018718826 0.079035044 0.0095611811
-0.017534239 0.078388363 0.011642724
-0.016512113 0.078432538 0.013220549
-0.015315431 0.077598184 0.013216585
-0.014435625 0.078364819 0.013753206
-0.013421165 0.078462198 0.013838619
-0.012372456 0.078358889 0.013838619
-0.011351427 0.078428045 0.01397416
-0.01031534 0.078396589 0.013765723
-0.0092315162 0.07795503 0.01394248
-0.0083178524 0.079019599 0.013976485
-0.0072826426 0.079068698 0.013892859
-0.0062051332 0.078598358 0.013932079
-0.0051809992 0.078751191 0.013958067
-0.004120233 0.078284428 0.01407057
-0.0030902398 0.078286082 0.014046639
-0.0020799593 0.079038449 0.01392135
-0.0010310034 0.078356266 0.013513356
0 0.078716159 0.012237906
0.0010375929 0.078857057 0.010381848
0.002075766 0.078879103 0.008733809
-0.018988004 0.081226468 0.0065442026
-0.017942123 0.08126726 0.0080430806
-0.016453775 0.079183795 0.0090011656
-0.01560277 0.080094218 0.011278898
-0.014554641 0.080050528 0.012467355
-0.013365968 0.079167657 0.012782454
-0.012390456 0.079505429 0.013020962
-0.011394258 0.079759806 0.013452053
-0.010282453 0.079174891 0.013189197
-0.0093258535 0.079787858 0.013198644
-0.008280973 0.079704367 0.013198644
-0.0072495309 0.079744838 0.013237238
-0.0062022726 0.079595834 0.012747407
-0.0051666368 0.079566203 0.012801617
-0.0041346187 0.079591408 0.012954593
-0.0031188121 0.080049515 0.012804389
-0.0020903763 0.080479488 0.011848658
-0.0010442395 0.080406442 0.010564446
0 0.08029604 0.0097486675
-0.015759669 0.081950277 0.0064475238
-0.014569627 0.081173636 0.0074647069
-0.013721335 0.082328014 0.007879287
-0.012637368 0.082142889 0.0086981952
-0.011573868 0.082069248 0.0095934272
-0.010431421 0.081365086 0.010554999
-0.009424895 0.081682429 0.010554999
-0.0083326371 0.08124321 0.010567755
-0.0073186136 0.081550263 0.010611832
-0.0063020671 0.081926875 0.010671914
-0.0052408255 0.081756882 0.010671914
-0.0041930135 0.081763759 0.010467738
-0.0031511101 0.081928864 0.010086328
-0.0020984975 0.081841402 0.0098491609
0 0 0 1 0 0 0 1 0 0 0 1 0 0 0 0 0 934 1 0 0
