ply
format ascii 1.0
comment PCL generated
element vertex 915
property float x
property float y
property float z
element camera 1
property float view_px
property float view_py
property float view_pz
property float x_axisx
property float x_axisy
property float x_axisz
property float y_axisx
property float y_axisy
property float y_axisz
property float z_axisx
property float z_axisy
property float z_axisz
property float focal
property float scalex
property float scaley
property float centerx
property float centery
property int viewportx
property int viewporty
property float k1
property float k2
end_header
-0.014021898 -0.10750122 0.005749315
-0.012795474 -0.1070167 0.0067067146
-0.011498122 -0.10578272 0.0069083273
-0.010853638 -0.11094831 0.007235229
-0.0096186958 -0.11061501 0.0073866844
-0.0086675268 -0.11391607 0.0066076517
-0.0070014312 -0.10735528 0.0067107975
-0.0059776204 -0.10998822 0.0067387223
-0.0048050419 -0.11051597 0.0063619912
-0.0036179393 -0.11095014 0.0067488849
-0.0024043892 -0.1106019 0.0070004761
-0.0011794459 -0.10850903 0.0085347891
0 -0.10801186 0.0068805516
0.0011687495 -0.10752496 0.0058813095
-0.014759663 -0.095937811 0.0068134069
-0.013721949 -0.096053652 0.0080660284
-0.012742238 -0.096628644 0.0086363554
-0.01154062 -0.095472403 0.0089954734
-0.010335207 -0.094050393 0.0091439486
-0.00921073 -0.093130723 0.0092666149
-0.0082486011 -0.093827844 0.0097321272
-0.0073118941 -0.095054626 0.010004759
-0.0062772105 -0.095204361 0.010015637
-0.0052356385 -0.095288627 0.010528207
-0.0041943309 -0.095421024 0.010922998
-0.0031882639 -0.096710674 0.010912836
-0.0020695336 -0.094163783 0.010997921
-0.0010268684 -0.093445025 0.010854512
0 -0.094651856 0.010997921
0.001041673 -0.094792247 0.011063367
0.0021182874 -0.096382074 0.010416895
0.0032011063 -0.097100228 0.0094214082
0.0042276243 -0.096178457 0.0058439076
-0.015817497 -0.094904982 0.0072324872
-0.014587808 -0.093778774 0.0086235702
-0.013561595 -0.09388797 0.0095179081
-0.012675595 -0.095066965 0.010198772
-0.011530472 -0.094340235 0.010151416
-0.010680939 -0.096128456 0.0097132623
-0.0093634184 -0.093634196 0.010082692
-0.0084357532 -0.094902225 0.010589838
-0.0073362296 -0.094322957 0.010154247
-0.0062902244 -0.09435337 0.010118783
-0.0052818791 -0.095073834 0.010912836
-0.0041984916 -0.09446606 0.011323184
-0.0031485772 -0.094457321 0.011369884
-0.0021138357 -0.095122606 0.011440575
-0.0010515733 -0.094641596 0.011540562
0 -0.094181433 0.012090147
0.0010350356 -0.093153201 0.012536943
0.0020864713 -0.093891218 0.011876255
0.003135371 -0.094061136 0.011843622
0.0041980157 -0.094455354 0.010789722
0.0051968172 -0.093542717 0.0081757605
0.0063227015 -0.094840527 0.0050217211
-0.01788005 -0.093607321 0.0059242547
-0.016808048 -0.093494765 0.0079667866
-0.015999893 -0.09493269 0.009491086
-0.014932022 -0.094925001 0.010129571
-0.013577322 -0.092952438 0.010316074
-0.012655213 -0.093859501 0.010511518
-0.011512397 -0.09314575 0.01075387
-0.010524781 -0.093670547 0.01054132
-0.0094016101 -0.092971481 0.010884225
-0.0084597655 -0.094114885 0.010749459
-0.0073518017 -0.093472905 0.010935813
-0.0063053588 -0.093529493 0.010538071
-0.0052784444 -0.093956307 0.01096496
-0.0042331056 -0.094186597 0.011444807
-0.0031570399 -0.09365885 0.011320651
-0.002126985 -0.094650827 0.011545062
-0.0010643352 -0.094725832 0.012237459
0 -0.09242709 0.01225543
0.0010589189 -0.09424378 0.012577713
0.002099487 -0.093427174 0.011980146
0.0031575756 -0.093674742 0.012265682
0.0041866824 -0.093153678 0.011726677
0.0051817312 -0.092234813 0.011392534
0.0063328543 -0.093937337 0.0087961257
0.0072539053 -0.092228226 0.0052817762
-0.018064456 -0.093510121 0.0089772344
-0.016744541 -0.092094973 0.010239601
-0.015779795 -0.092574798 0.010560453
-0.014585766 -0.091681957 0.01084283
-0.013750839 -0.093082599 0.011141598
-0.01252545 -0.091853298 0.011481345
-0.01170771 -0.093661681 0.011505753
-0.010494013 -0.092347316 0.010884225
-0.0095078386 -0.092965536 0.011028409
-0.0084632728 -0.093095995 0.010927737
-0.0073919403 -0.092927247 0.011081725
-0.0063569159 -0.093234763 0.010538876
-0.0053264839 -0.093746118 0.010935813
-0.0042410549 -0.093303204 0.011160225
-0.0031469141 -0.092309482 0.011317253
-0.0021217943 -0.093358949 0.011541665
-0.0010542964 -0.092778079 0.012128621
0 -0.092332914 0.012286365
0.0010526886 -0.092636585 0.012629002
0.0020999988 -0.09239994 0.012319088
0.003184252 -0.093404725 0.012841433
0.004187461 -0.092124142 0.012637913
0.0052979016 -0.093243062 0.012308985
0.0062572374 -0.091772817 0.011129975
0.0073290034 -0.09213604 0.0090042651
0.0085856877 -0.094442561 0.005222857
-0.018897183 -0.091336384 0.0084008574
-0.017738888 -0.090781368 0.010603845
-0.016899016 -0.09188839 0.010865182
-0.015877336 -0.092088543 0.011143804
-0.014677571 -0.091210619 0.011658788
-0.013564464 -0.090777569 0.011935294
-0.012809995 -0.092872463 0.011961102
-0.011599816 -0.091744006 0.011634618
-0.010622192 -0.092413075 0.010999382
-0.0094902832 -0.091739409 0.011385262
-0.00841479 -0.09151084 0.011013925
-0.0074266568 -0.092302732 0.011163205
-0.006379894 -0.092508465 0.010653198
-0.0053468393 -0.093035005 0.010979146
-0.004240647 -0.092234075 0.011071771
-0.0031784067 -0.092173792 0.011246562
-0.0021030016 -0.091480568 0.011317253
-0.0010659291 -0.092735834 0.011431724
0 -0.091258764 0.012076586
0.0010529401 -0.09160579 0.012599885
0.0021312435 -0.092709087 0.012577653
0.0031641074 -0.091759115 0.012955874
0.0042120488 -0.091612063 0.013235778
0.0052681961 -0.091666616 0.01269117
0.0063101896 -0.091497749 0.011790842
0.0073907934 -0.091857001 0.011133045
0.0083900085 -0.091241345 0.0090578496
-0.020226656 -0.091552228 0.0071570873
-0.018715035 -0.089416288 0.010725528
-0.018045727 -0.091290146 0.011143804
-0.016902966 -0.090853445 0.011658788
-0.015898038 -0.091148749 0.011680216
-0.014738527 -0.090536661 0.011833757
-0.013649696 -0.09029799 0.012109309
-0.012599945 -0.090299606 0.012109309
-0.0116825 -0.091335915 0.011634618
-0.010494182 -0.090249963 0.010999382
-0.0095595513 -0.091346823 0.011332899
-0.0085583655 -0.092002422 0.010927737
-0.0074363337 -0.091360673 0.011074245
-0.0063942759 -0.091651291 0.010538876
-0.0053531779 -0.092074662 0.010605335
-0.0042809881 -0.092041247 0.010625958
-0.0031889905 -0.09141773 0.010894328
-0.0021334174 -0.09173695 0.011063367
-0.001053663 -0.090615012 0.011484295
0 -0.090671681 0.012156606
0.0010602204 -0.091178954 0.012429953
0.0020921654 -0.089963116 0.012488991
0.003176651 -0.091063991 0.013395548
0.0042101708 -0.090518676 0.013454169
0.0052291914 -0.08994209 0.013302326
0.0063499282 -0.091015637 0.012402952
0.0074363337 -0.091360673 0.012159705
0.0083819432 -0.090105891 0.011595964
0.0094646094 -0.09043961 0.0068742931
-0.021433039 -0.091090418 0.0067448616
-0.020121507 -0.090017267 0.010360092
-0.019099977 -0.090194337 0.010992438
-0.017981993 -0.089909971 0.011756331
-0.016762838 -0.089052573 0.011763304
-0.015701415 -0.088974684 0.011706024
-0.014928813 -0.090639226 0.011706024
-0.01358227 -0.088807151 0.011658788
-0.012753041 -0.090334043 0.011048198
-0.011756675 -0.090847038 0.010617226
-0.010695714 -0.090913564 0.010365903
-0.0096138073 -0.090797074 0.009919852
-0.0085794358 -0.091156505 0.0096988678
-0.0075232056 -0.091353215 0.0089926124
-0.0064104255 -0.090814367 0.008846432
-0.0053848391 -0.091542266 0.0086405873
-0.004296775 -0.091306463 0.0091094375
-0.0032131651 -0.09103968 0.0091094375
-0.002154548 -0.091568291 0.0099509656
-0.0010691722 -0.090879634 0.010242462
0 -0.090464182 0.010777831
0.0010601063 -0.090109035 0.011878282
0.0021380866 -0.090868674 0.012072325
0.0031421313 -0.089027055 0.012943208
0.0041863197 -0.088959292 0.013325751
0.0052861357 -0.089864314 0.01307559
0.0063281259 -0.089648448 0.012871742
0.0073449565 -0.089188755 0.012600005
0.0084014926 -0.089265861 0.01233077
0.0094994986 -0.089717492 0.011666149
0.010832853 -0.092079252 0.0061981976
-0.021138685 -0.088782482 0.0094064772
-0.020188289 -0.089253493 0.010783285
-0.018848857 -0.087961338 0.011298567
-0.017927216 -0.08858154 0.011734903
-0.016946847 -0.088970944 0.011479795
-0.015818473 -0.088583454 0.011148483
-0.014791908 -0.08875145 0.010899603
-0.013721719 -0.088663422 0.010666192
-0.012684328 -0.088790298 0.01046893
-0.011822984 -0.090284608 0.0099773407
-0.010745264 -0.090260215 0.0090386271
-0.0096610859 -0.090170138 0.008554399
-0.0084997676 -0.089247555 0.0078738928
-0.0074706255 -0.089647509 0.0076618493
-0.0063545955 -0.088964336 0.0079664886
-0.0053684674 -0.090190254 0.0074824393
-0.0042977538 -0.090252832 0.0075802803
-0.0032115676 -0.089923903 0.0077070594
-0.0021379741 -0.089794911 0.0082193017
-0.0010728755 -0.090121545 0.0085427463
0 -0.089886218 0.0094447732
0.0010728157 -0.090116523 0.010507345
0.0021373774 -0.089769855 0.011334389
0.0031863262 -0.089217141 0.011902958
0.0042440495 -0.089125045 0.01238203
0.0052479347 -0.088165306 0.012817085
0.0062872902 -0.088022068 0.012697577
0.0073620346 -0.088344418 0.012532204
0.008433423 -0.08855094 0.012576371
0.0094457744 -0.088160567 0.012156397
0.010572856 -0.088812001 0.0108715
-0.021993618 -0.086927161 0.0088589489
-0.021043088 -0.087328821 0.010738373
-0.020114513 -0.087868661 0.010808468
-0.019101979 -0.08808136 0.011329383
-0.018008169 -0.087922238 0.011658788
-0.016795905 -0.087128758 0.01112628
-0.015781628 -0.087325014 0.010899603
-0.015087498 -0.089447312 0.010635972
-0.013822442 -0.08825098 0.010263056
-0.012728622 -0.088039644 0.0098353326
-0.011775717 -0.088853143 0.0086773634
-0.010707662 -0.088873595 0.0079384446
-0.0095633091 -0.088194974 0.0071767271
-0.0087079266 -0.090344742 0.0065345168
-0.0075044474 -0.088981308 0.0062819123
-0.0064741834 -0.08955954 0.0065007508
-0.0054645818 -0.090712063 0.0062853098
-0.0043187691 -0.089614466 0.0064149797
-0.003250249 -0.089923553 0.0065659285
-0.0021475214 -0.089122139 0.0071145594
-0.0010652925 -0.088419281 0.0077121854
0 -0.088910125 0.0083420873
0.0010657104 -0.088453963 0.0092759132
0.0021357001 -0.088631563 0.010617703
0.0031902483 -0.088263541 0.01161769
0.0042695757 -0.088593699 0.012123942
0.0051890691 -0.086138554 0.01255098
0.0063215964 -0.087448753 0.012489885
0.0074024885 -0.087772369 0.012644321
0.0083980039 -0.087129287 0.012663305
0.0094956215 -0.087570734 0.012576371
0.010514279 -0.087268524 0.012171656
0.011903735 -0.089819096 0.0065111518
-0.023625406 -0.088058338 0.0070544481
-0.022152293 -0.086499438 0.0099223256
-0.021253936 -0.087141141 0.010970026
-0.0199952 -0.086295076 0.011065155
-0.018942768 -0.086294837 0.011323035
-0.017968362 -0.086670928 0.011392295
-0.016845265 -0.086331986 0.010820597
-0.016085802 -0.087935716 0.010470331
-0.015045643 -0.088124484 0.0098579824
-0.013878946 -0.087544128 0.0084815919
-0.012957027 -0.08853969 0.0078047216
-0.011858387 -0.088398896 0.0070736408
-0.010618605 -0.087072566 0.0058429837
-0.0097179925 -0.088541716 0.0057396293
-0.0031896762 -0.087184489 0.0054177642
-0.0021563489 -0.08841031 0.0063974559
-0.0010733458 -0.088014357 0.0065249205
0 -0.088548519 0.0074507594
0.001061877 -0.087073922 0.0082975924
0.0021488226 -0.08810173 0.0089179873
0.0032138675 -0.08784572 0.010497093
0.0042461227 -0.087045513 0.011878282
0.0053003426 -0.086925626 0.011957169
0.0063390578 -0.086633794 0.01255098
0.0073672682 -0.086302288 0.012692332
0.0084805116 -0.086925246 0.012878686
0.0095067667 -0.086617216 0.012868702
0.010508131 -0.08616668 0.012539804
0.011510269 -0.085803822 0.01133123
-0.023072395 -0.084948361 0.0095376968
-0.022117982 -0.08531221 0.011099458
-0.021144928 -0.085636958 0.011053681
-0.020113848 -0.085748509 0.011210024
-0.019076681 -0.085845061 0.011439025
-0.01789999 -0.085288182 0.011282802
-0.017014012 -0.086133435 0.010490865
-0.016021993 -0.086518764 0.010412604
-0.014878231 -0.086081192 0.0095517635
-0.01384768 -0.086281694 0.0083170533
-0.012905295 -0.087110735 0.007324785
-0.011764298 -0.086628012 0.005607456
-0.0010792495 -0.087419212 0.0050899088
0 -0.087017685 0.0062620342
0.0010763811 -0.087186858 0.0068916082
0.0021204711 -0.085879073 0.0082066953
0.0031806587 -0.085877784 0.0092533231
0.0042907484 -0.08688765 0.011129737
0.0052679763 -0.085341215 0.012123048
0.0063206456 -0.085328713 0.012131006
0.007409771 -0.085741632 0.012674212
0.008474621 -0.085805535 0.012888074
0.009516255 -0.085646294 0.01293239
0.010658448 -0.086333424 0.012601942
0.011457409 -0.084368192 0.012306452
0.012875904 -0.086912349 0.007211417
-0.02468285 -0.085853383 0.0081585646
-0.023291055 -0.084694743 0.010206252
-0.022122381 -0.08427573 0.011399359
-0.021192158 -0.084768631 0.011630267
-0.020069083 -0.084501401 0.011376888
-0.018886976 -0.083942115 0.011560291
-0.01786801 -0.084084749 0.011252582
-0.016993549 -0.084967747 0.010646731
-0.01599657 -0.085315041 0.0097003579
-0.014891274 -0.085092992 0.0084829628
-0.01382718 -0.085090332 0.0073757172
-0.012950259 -0.086335063 0.0057757199
0.0010856311 -0.086850487 0.0067690611
0.0021485221 -0.085940883 0.0068322122
0.0032369047 -0.086317457 0.0088920295
0.0042282515 -0.084565029 0.0096822977
0.0053306096 -0.085289754 0.011805922
0.0063602906 -0.084803872 0.011902958
0.0074171205 -0.084767088 0.012606949
0.0084328074 -0.08432807 0.013015509
0.0094595235 -0.084084652 0.013300389
0.010502212 -0.084017694 0.012800336
0.011423498 -0.083079986 0.012361795
0.012698526 -0.084656842 0.012143463
-0.024550378 -0.084325209 0.0099086165
-0.023267992 -0.083553247 0.010901988
-0.022265913 -0.083762243 0.01147601
-0.021140125 -0.083503492 0.011455953
-0.020052547 -0.08337637 0.011339933
-0.019127266 -0.08394745 0.01132676
-0.018153923 -0.084362343 0.010767728
-0.017129818 -0.084578469 0.010275841
-0.015813213 -0.083282918 0.009003967
-0.014935213 -0.084277272 0.0073985755
-0.014000896 -0.085082367 0.005659759
0.0021454815 -0.084746517 0.0061110258
0.0032289412 -0.085028782 0.0069061816
0.0042711883 -0.084355965 0.0088193417
0.0052814172 -0.083446398 0.011136204
0.0064261355 -0.084610783 0.011906534
0.0073674936 -0.083147429 0.012230635
0.0084679378 -0.083620884 0.012884259
0.0094645824 -0.083078004 0.01329577
0.010496465 -0.082922079 0.012738138
0.011574984 -0.083129428 0.012324572
0.012624945 -0.083114229 0.01234287
0.013778598 -0.08373148 0.010028452
-0.025647745 -0.083355166 0.008286953
-0.024461616 -0.082956783 0.010108441
-0.023273695 -0.082515828 0.011083454
-0.022329122 -0.082936734 0.01162973
-0.021126181 -0.082392111 0.011440635
-0.020041555 -0.082275853 0.011102498
-0.019077096 -0.082667418 0.010975033
-0.018158419 -0.083315097 0.010414124
-0.016981935 -0.082786933 0.0091554821
-0.016123002 -0.08383961 0.0081045926
-0.014987482 -0.083501682 0.0069492161
0.0032071266 -0.083385296 0.0066282749
0.0042243726 -0.082375266 0.0077624023
0.0053431587 -0.083353274 0.0098466277
0.0064625628 -0.084013321 0.011919886
0.0074346424 -0.082843162 0.012397736
0.0084125791 -0.082022645 0.012802511
0.0094652828 -0.082032457 0.013118118
0.010529543 -0.08213044 0.013066679
0.011584397 -0.08214391 0.012757242
0.012603628 -0.081923589 0.012574732
0.013628019 -0.081768118 0.012217909
-0.026802594 -0.082551986 0.0055500865
-0.025526268 -0.081896782 0.0089065731
-0.024383629 -0.081632152 0.01044783
-0.023451583 -0.082080543 0.011334389
-0.021959035 -0.080516458 0.011659116
-0.021107316 -0.08126317 0.01153332
-0.019973617 -0.080945715 0.011244178
-0.019188276 -0.082083181 0.010933042
-0.018145526 -0.082188554 0.010273784
-0.01684626 -0.081072628 0.0088498592
-0.016165525 -0.082983032 0.0077775419
0.0042701722 -0.08220081 0.0069614053
0.0053246976 -0.082000345 0.0090503097
0.0064382795 -0.082624584 0.011630058
0.0075349193 -0.082884111 0.012340784
0.0084370999 -0.081207082 0.012730986
0.0094675459 -0.081000112 0.01306051
0.010601497 -0.081631534 0.012825698
0.011568075 -0.080976531 0.012568653
0.012649728 -0.081169091 0.012547731
0.013789198 -0.081674486 0.01226607
0.014733086 -0.081031971 0.0091914237
-0.026439724 -0.080376767 0.0072309375
-0.0255093 -0.080779448 0.0093307495
-0.024511768 -0.080995411 0.010551512
-0.023204442 -0.080160797 0.011184186
-0.022222914 -0.080425784 0.011611015
-0.021169681 -0.080444798 0.011482626
-0.020074904 -0.080299616 0.011229038
-0.019197112 -0.081054471 0.010919452
-0.018103011 -0.080931105 0.010127455
-0.016897118 -0.080261312 0.0084962845
-0.016307665 -0.082625508 0.0073394775
0.0043203025 -0.082085751 0.0057473183
0.0053556059 -0.081405215 0.0081205368
0.0063977637 -0.081038341 0.010641843
0.0074147116 -0.080502585 0.012211561
0.0084865093 -0.080621839 0.012526125
0.00948916 -0.080130689 0.012952298
0.0105465 -0.080153398 0.012896031
0.011592512 -0.080093719 0.012376189
0.012613884 -0.079887934 0.012526095
0.013668681 -0.07990922 0.012153924
0.01476502 -0.080152974 0.010106534
-0.026249841 -0.078749523 0.0077750981
-0.02555678 -0.079864942 0.0096828341
-0.024273809 -0.079153724 0.010860711
-0.023175489 -0.079007357 0.011396825
-0.022092244 -0.078900866 0.011533409
-0.021100294 -0.079126105 0.011342853
-0.020130668 -0.079463169 0.011133671
-0.019122859 -0.079678588 0.010765731
-0.018199807 -0.080293268 0.0099743307
-0.017084941 -0.080085658 0.0085496008
-0.016476793 -0.082383968 0.0050859153
0.0054146773 -0.081220165 0.0072994828
0.0063643651 -0.079554565 0.0097934306
0.0074025695 -0.079313248 0.01226908
0.0084692836 -0.079399534 0.012544423
0.009513434 -0.079278626 0.012995899
0.010596838 -0.079476289 0.012969464
0.011570771 -0.078891627 0.012540072
0.012587998 -0.078674994 0.012462437
0.013710726 -0.079100348 0.01204738
0.014796058 -0.079264596 0.011773139
0.015909929 -0.079549648 0.005014956
-0.026538396 -0.078553654 0.0087274015
-0.025786592 -0.079508662 0.0097116232
-0.024339775 -0.078310579 0.01117456
-0.02322804 -0.078130685 0.011408567
-0.022156231 -0.078074344 0.011674762
-0.021167258 -0.078318857 0.011588067
-0.020314958 -0.079121418 0.011312664
-0.019160561 -0.078771204 0.01076746
-0.018049113 -0.07856673 0.0095760226
-0.01730351 -0.080028735 0.007827282
0.0054066223 -0.080018014 0.0072859526
0.0063280202 -0.078045592 0.0099050701
0.0075091333 -0.079382271 0.01209718
0.0084476769 -0.078141011 0.01266858
0.0095392941 -0.078434199 0.013066262
0.010563242 -0.078167997 0.013051867
0.011653773 -0.078398116 0.012802422
0.012669893 -0.078131013 0.012689888
0.01369975 -0.077983201 0.01210618
0.01485053 -0.078495659 0.011877179
0.015602512 -0.076972395 0.0057729781
-0.026897406 -0.078540429 0.0086788237
-0.025527833 -0.077647164 0.0099758506
-0.024537889 -0.077881128 0.010848194
-0.023221202 -0.077052176 0.011371821
-0.022046544 -0.076637983 0.011738271
-0.021225773 -0.077474073 0.011447579
-0.020282982 -0.077929355 0.011183947
-0.019075217 -0.077360608 0.010667562
-0.017986821 -0.077237524 0.0095350742
-0.017088696 -0.077967174 0.0077474117
0.0053817336 -0.078573316 0.0059587955
0.0064603854 -0.07860136 0.010051489
0.0074629295 -0.077827699 0.012257159
0.0085449889 -0.077973023 0.012806803
0.0094647305 -0.076769486 0.013441086
0.010563738 -0.07711529 0.013441086
0.011637842 -0.077232964 0.013009995
0.012748908 -0.077555865 0.012783825
0.013899907 -0.078053325 0.012311041
0.014951123 -0.077959433 0.012075663
0.015909757 -0.077427492 0.0060653687
-0.026744442 -0.077023983 0.0079048276
-0.025646828 -0.076940484 0.0097576082
-0.024306087 -0.076088615 0.010810435
-0.023326281 -0.076340556 0.011449426
-0.022155616 -0.075962111 0.011867553
-0.021232666 -0.076437593 0.011814952
-0.020241749 -0.076705568 0.011563212
-0.019268103 -0.077072412 0.011176884
-0.017945774 -0.076005623 0.010073572
-0.017124008 -0.077058032 0.0078686774
0.0054555028 -0.078559242 0.0059377849
0.0063289292 -0.075947151 0.010528743
0.0074947649 -0.077089004 0.012623966
0.0084916167 -0.076424547 0.013188809
0.0094904816 -0.075923853 0.013589799
0.010600766 -0.076325513 0.013489634
0.011460158 -0.075011939 0.01319471
0.012704111 -0.076224662 0.012825698
0.013736014 -0.076076388 0.012439609
0.014913174 -0.076696321 0.011453241
0.015884345 -0.076244853 0.0060914755
-0.026800925 -0.076114625 0.0079069734
-0.025621938 -0.075798236 0.0096010268
-0.024404813 -0.07533659 0.010821402
-0.023247989 -0.0750276 0.01159972
-0.022265915 -0.075279996 0.012102813
-0.021003181 -0.074561298 0.012061805
-0.020373559 -0.076132767 0.011762679
-0.019139323 -0.075493999 0.011419594
-0.017990245 -0.075135723 0.010889739
-0.017382894 -0.077136584 0.0081154108
0.0054599671 -0.077531531 0.0059016645
0.006373811 -0.075423427 0.011526734
0.0074480064 -0.075544059 0.012774527
0.0084251836 -0.074773498 0.013460338
0.0094967503 -0.074918807 0.013738245
0.010552538 -0.074923024 0.013682097
0.011554241 -0.074577369 0.013253182
0.012713209 -0.075219817 0.012864918
0.01375444 -0.075120397 0.01234585
0.014873425 -0.075429514 0.011065722
0.015875917 -0.075146005 0.0051063001
-0.026795853 -0.075028382 0.0072461963
-0.025732141 -0.075052075 0.0090844333
-0.024431761 -0.074357532 0.010360301
-0.02325394 -0.073989809 0.011438966
-0.022221243 -0.074070804 0.011867553
-0.021258095 -0.074403338 0.012061805
-0.020196436 -0.07440792 0.012003392
-0.019144248 -0.074449852 0.011705846
-0.018076474 -0.074432537 0.01104328
-0.017270282 -0.075557478 0.009116888
-0.01620231 -0.075610779 0.0056552291
0.0053818221 -0.075345516 0.0072633326
0.0062987022 -0.07348486 0.012065649
0.0074028452 -0.074028455 0.013040423
0.0085104527 -0.074466459 0.01337865
0.0094662197 -0.073626153 0.013850302
0.010561849 -0.073932946 0.013681203
0.011606067 -0.073856793 0.0133439
0.01260697 -0.073540658 0.012730956
0.013751728 -0.074047767 0.012510449
0.014964653 -0.074823268 0.010532558
-0.02674114 -0.073805541 0.0054148138
-0.025639307 -0.073713005 0.0080857873
-0.024407538 -0.073222607 0.0098092854
-0.023241278 -0.072893098 0.011211216
-0.022202866 -0.072952271 0.01159972
-0.021169817 -0.073035866 0.012030125
-0.02005782 -0.072841555 0.012003392
-0.018951328 -0.072646759 0.011737525
-0.018006518 -0.073085278 0.011072546
-0.016699232 -0.072015435 0.010299116
-0.016611751 -0.076414056 0.0071124732
0.005419841 -0.074793808 0.010766983
0.0063727349 -0.073286451 0.012424171
0.0074042846 -0.07298509 0.013388276
0.0084539643 -0.072915442 0.013552636
0.0094091156 -0.072136559 0.013807118
0.010637784 -0.073400714 0.013641775
0.01153894 -0.072380625 0.013449401
0.012654806 -0.072765134 0.012440056
0.013759082 -0.073028974 0.011811256
0.014743958 -0.072666653 0.0092497468
-0.025554882 -0.072405502 0.0076754391
-0.024518428 -0.072489269 0.0094673038
-0.023467489 -0.072535872 0.010713249
-0.022118786 -0.071622737 0.011535615
-0.021088541 -0.071701042 0.011752516
-0.020027354 -0.07167685 0.011932433
-0.019039188 -0.071925826 0.011824757
-0.018032374 -0.072129495 0.011434346
-0.016779209 -0.071311638 0.010958046
-0.016269032 -0.07375294 0.0085817277
-0.015001568 -0.072864763 0.0053493679
0.0043353909 -0.07370165 0.0058768392
0.005281141 -0.071823522 0.011501908
0.0063454518 -0.071915127 0.013253123
0.0074195643 -0.072075769 0.013655573
0.0083843973 -0.071267374 0.013650298
0.0095168771 -0.0719053 0.013850302
0.010534037 -0.071631454 0.013676733
0.011560923 -0.071467526 0.013197958
0.012682418 -0.071867041 0.011926621
0.0138226 -0.072302833 0.01116091
0.015122685 -0.073453039 0.0051980615
-0.025726698 -0.071820371 0.0056575537
-0.024687262 -0.071915068 0.0092096329
-0.023323841 -0.071031705 0.010351777
-0.022148017 -0.070662722 0.011649102
-0.021273762 -0.071267106 0.011973292
-0.020034412 -0.070647664 0.012301952
-0.018964797 -0.070591196 0.012044847
-0.018199105 -0.071725883 0.011880279
-0.01695626 -0.071004339 0.011202753
-0.015924133 -0.071127795 0.010637194
-0.015607654 -0.074693777 0.0077544749
0.0043669962 -0.073147193 0.011626005
0.005280301 -0.070756033 0.013140231
0.0063365102 -0.070757702 0.013549089
0.0073148571 -0.070013635 0.013806373
0.0084383413 -0.070671111 0.01372391
0.009474786 -0.070534527 0.013764352
0.010579238 -0.070880897 0.013598502
0.011502841 -0.070062764 0.013156652
0.012692668 -0.070867397 0.011389494
0.013853271 -0.071397625 0.010565013
-0.024545252 -0.070434198 0.0079635978
-0.023608146 -0.070824437 0.0097989142
-0.022202374 -0.069778889 0.011192769
-0.021049203 -0.069462366 0.011682302
-0.019959146 -0.069331765 0.012039542
-0.019069819 -0.069922671 0.0120368
-0.017917268 -0.069561154 0.01203838
-0.016732266 -0.069020599 0.011729449
-0.015715932 -0.069150105 0.01079604
-0.015065128 -0.071021318 0.010412693
-0.014154354 -0.071860567 0.0071003437
0.0033787941 -0.074333474 0.010697603
0.0041343826 -0.068217307 0.012861699
0.00528003 -0.069696397 0.013244033
0.0062683299 -0.068951629 0.013601989
0.0073902402 -0.069679409 0.013563007
0.008437423 -0.069608741 0.013384312
0.0094764521 -0.069493987 0.013698429
0.010528783 -0.069489971 0.013530761
0.011634507 -0.069807045 0.011894822
0.012748311 -0.070115708 0.011099905
-0.024842478 -0.070207 0.0063260794
-0.023481352 -0.069376722 0.0089082122
-0.02235131 -0.069182627 0.010606021
-0.021191025 -0.068870835 0.01143685
-0.020001356 -0.068425693 0.011605799
-0.018908573 -0.068280965 0.011824757
-0.0179152 -0.068499289 0.011991829
-0.016796663 -0.06823644 0.011693001
-0.015685203 -0.06796921 0.011254072
-0.014591971 -0.067748442 0.011073023
-0.013972308 -0.069861539 0.01016596
-0.013111461 -0.071020417 0.0070950389
0.0023430178 -0.076148078 0.010362178
0.0031744912 -0.068780646 0.012575924
0.004226306 -0.06867747 0.013069481
0.0052505401 -0.068257026 0.013444453
0.0062628849 -0.067847922 0.013491243
0.0073856036 -0.068580605 0.013563007
0.0084460806 -0.068624407 0.013542175
0.0095468387 -0.068949394 0.013670802
0.010474014 -0.068081096 0.013381928
0.011642452 -0.068796307 0.011460215
0.012927372 -0.070023268 0.0058805048
-0.023650596 -0.068801738 0.0076120496
-0.022195918 -0.0676447 0.0095856786
-0.02137012 -0.068384387 0.010853022
-0.020214889 -0.068092257 0.011492997
-0.018969042 -0.067445487 0.011855364
-0.017919159 -0.067460366 0.012187868
-0.016655974 -0.066623896 0.012147933
-0.015731068 -0.067119226 0.011954188
-0.014902661 -0.068126447 0.011804789
-0.013295606 -0.065455288 0.011296451
-0.012761287 -0.068060197 0.010662049
-0.012354108 -0.071878448 0.0085889399
-0.010834461 -0.069340557 0.0052922666
0.0011443439 -0.073238008 0.0104357
0.0020643277 -0.066058487 0.012432277
0.0031201062 -0.066562273 0.013049245
0.0042115902 -0.067385443 0.01322934
0.0052550114 -0.067264147 0.013391912
0.0063235024 -0.067450695 0.013423026
0.0073754415 -0.067432605 0.01346907
0.0083800508 -0.067040406 0.013374448
0.0094660753 -0.067314319 0.013569683
0.010640645 -0.068100132 0.011795491
0.011712568 -0.068145849 0.010717124
-0.023777489 -0.068090081 0.0050776005
-0.022556921 -0.06767077 0.0082421303
-0.021378376 -0.067341886 0.010100961
-0.020064943 -0.066531129 0.010695845
-0.019161586 -0.067065559 0.011447817
-0.018063176 -0.06694001 0.011695445
-0.016754858 -0.065972254 0.011896402
-0.015790422 -0.066319771 0.011827499
-0.014637897 -0.065870538 0.011826009
-0.013791456 -0.066835515 0.011593342
-0.012459891 -0.065414429 0.01137042
-0.011601857 -0.066446997 0.01112327
-0.010921149 -0.068803236 0.0099932253
-0.010218191 -0.07152734 0.0073443353
-0.0088987891 -0.070077971 0.0054892004
-0.0022123349 -0.069688551 0.0050691664
-0.0011820712 -0.074470483 0.0087457001
0 -0.068562381 0.01124388
0.001054558 -0.066437155 0.012751222
0.0020911475 -0.065871149 0.012975723
0.0031296262 -0.065722153 0.013407409
0.0041686501 -0.065656245 0.013437152
0.0052416874 -0.066045262 0.013433367
0.0063212528 -0.066373155 0.01338625
0.0074415319 -0.066973791 0.013272703
0.0084329164 -0.066409215 0.013143688
0.0094448077 -0.066113658 0.012701809
0.010639343 -0.067027867 0.011021346
-0.022442924 -0.066260062 0.0069130361
-0.021232443 -0.065820575 0.0087992549
-0.020225821 -0.066000052 0.01026535
-0.01906161 -0.065656662 0.010718614
-0.017889926 -0.065245613 0.011452407
-0.01689418 -0.065464951 0.011897773
-0.015845209 -0.065493539 0.012046427
-0.014785111 -0.065476924 0.011959702
-0.013924328 -0.066408336 0.011976391
-0.012770365 -0.065980218 0.011860341
-0.011569174 -0.065208077 0.011846006
-0.010425939 -0.064640827 0.011491477
-0.0095438305 -0.065746397 0.011363029
-0.00875133 -0.067822807 0.010379463
-0.007919658 -0.070145547 0.010442913
-0.0068557858 -0.070843123 0.0095978379
-0.0058609624 -0.072675943 0.0091823339
-0.0046561216 -0.072169885 0.0098857284
-0.0033943725 -0.070150368 0.010630131
-0.0021578644 -0.066893801 0.011422068
-0.0010291104 -0.06380485 0.012185425
0 -0.064492442 0.01283437
0.0010540563 -0.065351494 0.012978524
0.0021000193 -0.065100603 0.013193011
0.0031450999 -0.064998738 0.013406098
0.0041967514 -0.065049648 0.013465047
0.0052524223 -0.06513004 0.013437152
0.006342099 -0.065535024 0.013312727
0.0073920744 -0.065472662 0.013049245
0.0084289024 -0.065323994 0.012687266
0.0095091313 -0.06550736 0.010956764
0.010634964 -0.065936781 0.0089918971
-0.021437868 -0.065385506 0.0074291229
-0.020345517 -0.065319814 0.0089794695
-0.019043826 -0.064537406 0.010096163
-0.017934514 -0.064353257 0.010534614
-0.016861005 -0.064282574 0.01109302
-0.015913498 -0.064714894 0.01148051
-0.014745114 -0.064246573 0.011909455
-0.013634277 -0.063976221 0.011958718
-0.012634167 -0.064223684 0.011953384
-0.011663659 -0.064680293 0.0119569
-0.010559414 -0.064412422 0.011828959
-0.0093575818 -0.063423611 0.011919111
-0.0083978353 -0.064033493 0.011608094
-0.0073340978 -0.063911423 0.011528522
-0.0062996382 -0.064046323 0.01145941
-0.0051555457 -0.06289766 0.011691391
-0.0041558933 -0.063377373 0.01184997
-0.0031122852 -0.063283131 0.011670768
-0.0020833272 -0.063541479 0.011957377
-0.0010635543 -0.06487681 0.012717068
0 -0.0642078 0.012824744
0.0010509561 -0.06410832 0.012898356
0.0021241959 -0.064787969 0.01286146
0.003175576 -0.064570047 0.013379633
0.0042342516 -0.064572334 0.013379633
0.0052369158 -0.063890375 0.013360232
0.0064019798 -0.065086797 0.012710899
0.0073686922 -0.064212888 0.01246348
0.0084494241 -0.064426854 0.010699242
0.0096005658 -0.065070502 0.009731859
-0.021539729 -0.064619191 0.0051141977
-0.020245444 -0.063932978 0.0077109337
-0.019182058 -0.063940197 0.00870803
-0.018011803 -0.063571073 0.0099974275
-0.017085107 -0.064069144 0.010161608
-0.016005244 -0.064020976 0.010914892
-0.01473284 -0.063140742 0.011373937
-0.01377251 -0.063565433 0.011633754
-0.012693804 -0.063469015 0.011794984
-0.011484299 -0.062641636 0.011794984
-0.010421651 -0.062529914 0.011718333
-0.0094793215 -0.063195474 0.011958092
-0.0085109062 -0.063831799 0.011608094
-0.0073633976 -0.063114837 0.011528522
-0.0063497201 -0.063497201 0.011398971
-0.0053241714 -0.063890055 0.011665046
-0.0042428118 -0.063642174 0.011759192
-0.0032000858 -0.064001717 0.011493117
-0.0021082177 -0.063246526 0.011877745
-0.0010533346 -0.063200071 0.012441903
0 -0.063287102 0.012439311
0.0010524903 -0.063149422 0.012641519
0.0021115944 -0.063347831 0.012556255
0.003158841 -0.063176826 0.012966573
0.0042083217 -0.063124821 0.012975723
0.0052011665 -0.062414002 0.012575924
0.0063421228 -0.063421227 0.011170357
0.0074448516 -0.063813016 0.01049006
0.0085205529 -0.063904144 0.0094111264
0.0096844146 -0.064562768 0.0056020916
-0.02043483 -0.063455522 0.0057771504
-0.019240005 -0.063064463 0.0076244175
-0.018050108 -0.062644497 0.0088600516
-0.016880106 -0.062245391 0.0098830462
-0.015856437 -0.062368654 0.010405272
-0.014872395 -0.062676519 0.010914892
-0.013679542 -0.062084075 0.011216372
-0.01250306 -0.061473377 0.01148051
-0.011658282 -0.062530786 0.011498928
-0.010477906 -0.06181965 0.011608094
-0.0094583444 -0.062004708 0.011911124
-0.0084445234 -0.06227836 0.011775881
-0.0073432778 -0.06189334 0.011528522
-0.0062955739 -0.061906479 0.011398971
-0.0052766474 -0.062264442 0.011691391
-0.0042202277 -0.062248357 0.011829942
-0.0031406274 -0.061765675 0.011490017
-0.0021287703 -0.062798724 0.011865228
-0.0010519685 -0.062066142 0.011912495
0 -0.062397324 0.012432277
0.001058785 -0.062468316 0.012294829
0.0020888371 -0.061620697 0.012264073
0.0031846014 -0.062630497 0.012398362
0.0042248121 -0.062315978 0.012383342
0.0052265828 -0.061673682 0.011002272
0.0062944884 -0.061895803 0.010300756
0.0074066073 -0.062427118 0.0091967881
0.0085526006 -0.063075431 0.0056789517
-0.019306563 -0.062210042 0.0056759417
-0.018098583 -0.06174811 0.0075869262
-0.017062692 -0.061852258 0.008583039
-0.015929949 -0.061595801 0.0099188387
-0.014741777 -0.06107308 0.010118037
-0.013736184 -0.061284516 0.010516346
-0.012823839 -0.06198189 0.011052817
-0.011622639 -0.061283011 0.011103988
-0.010613166 -0.061556365 0.011327237
-0.0094709601 -0.061035082 0.011665642
-0.0084306533 -0.061122235 0.011530817
-0.0073644891 -0.061020054 0.011351496
-0.0063376501 -0.061263956 0.011282325
-0.005229359 -0.060660571 0.011021823
-0.0042253588 -0.061267704 0.011530966
-0.0031723457 -0.061332017 0.011422276
-0.0021292912 -0.061749447 0.011532843
-0.0010508968 -0.060952019 0.011585891
0 -0.061116707 0.011607975
0.0010513796 -0.060980022 0.01139304
0.0020859642 -0.060492966 0.011014253
0.003149898 -0.060898032 0.010969341
0.0041782921 -0.060585238 0.010643363
0.0052447459 -0.060839057 0.010267675
0.0064020911 -0.061886884 0.0090427697
0.0074493811 -0.061723445 0.0054389834
-0.018201325 -0.06102797 0.005477339
-0.017148795 -0.061092582 0.0071447492
-0.015980793 -0.060727011 0.0079352558
-0.014890548 -0.060625799 0.0094111562
-0.013685327 -0.060004897 0.0099438429
-0.012715396 -0.060398132 0.010378957
-0.011579602 -0.060003392 0.010370523
-0.010511293 -0.059914373 0.010684133
-0.0094737504 -0.060000423 0.010842353
-0.008430724 -0.060068905 0.010792375
-0.007430457 -0.060505148 0.010830522
-0.0063413307 -0.060242642 0.010913134
-0.0052677188 -0.060051993 0.011155903
-0.0042280541 -0.060249768 0.011068165
-0.0031709275 -0.060247622 0.011167139
-0.0021034805 -0.059949189 0.011422276
-0.0010606237 -0.060455546 0.01126498
0 -0.060414437 0.011274457
0.0010616499 -0.06051404 0.010701925
0.0020889926 -0.059536293 0.01043734
0.0031453934 -0.059762474 0.010178506
0.0041985968 -0.059830002 0.009257853
0.0053479993 -0.060967192 0.0081448555
-0.016059639 -0.059955988 0.0059214234
-0.01491682 -0.059667278 0.0072406828
-0.013836 -0.059601232 0.0080704093
-0.012613321 -0.058862165 0.0090066493
-0.011680554 -0.059464637 0.0091995597
-0.010654381 -0.059664536 0.009770304
-0.0094862655 -0.059025656 0.010255933
-0.008525895 -0.059681263 0.010255933
-0.0073176473 -0.058541179 0.010403514
-0.0063880864 -0.059622139 0.01041773
-0.0052994317 -0.059353638 0.010810256
-0.004284346 -0.059980847 0.010779321
-0.0031863365 -0.059478279 0.01063168
-0.0021170108 -0.059276298 0.010518402
-0.001058515 -0.059276845 0.010403514
0 -0.059053835 0.01040262
0.0010656407 -0.05967588 0.0095646083
0.0021243778 -0.059482574 0.0092760026
0.003226734 -0.060232371 0.0082869232
0.0042655063 -0.059717089 0.0072801411
-0.012903813 -0.059142482 0.0060126185
-0.011735008 -0.05867504 0.0064793527
-0.01063385 -0.058486179 0.0065531731
-0.0097139711 -0.05936316 0.0066732466
-0.0085824262 -0.05900418 0.0066732466
-0.0075154644 -0.059050079 0.0066685081
-0.0064518689 -0.059142131 0.0069207251
-0.0053320401 -0.058652446 0.0072133541
-0.0042954693 -0.059062701 0.0071513355
-0.003236712 -0.059339721 0.007196635
-0.0021491426 -0.059101421 0.0066613853
-0.0010701715 -0.05885943 0.0065037608
0 -0.05892938 0.0069429874
0.0010826756 -0.059547164 0.0064712167
0 0 0 1 0 0 0 1 0 0 0 1 0 0 0 0 0 915 1 0 0
