ply
format ascii 1.0
comment PCL generated
element vertex 1021
property float x
property float y
property float z
element camera 1
property float view_px
property float view_py
property float view_pz
property float x_axisx
property float x_axisy
property float x_axisz
property float y_axisx
property float y_axisy
property float y_axisz
property float z_axisx
property float z_axisy
property float z_axisz
property float focal
property float scalex
property float scaley
property float centerx
property float centery
property int viewportx
property int viewporty
property float k1
property float k2
end_header
-0.0021324558 0.087430693 0.0050399601
-0.0010662376 0.087431483 0.0051944554
-0.017159579 0.08901532 0.0059345961
-0.01612887 0.089246415 0.0062911212
-0.014932956 0.088531099 0.0063388646
-0.013682807 0.087359458 0.006220758
-0.012780184 0.088396274 0.0062570274
-0.011751426 0.088669859 0.0062695742
-0.010750636 0.089230284 0.0063388646
-0.0096250875 0.088764705 0.0062570274
-0.0085493838 0.088699855 0.0070774853
-0.0074572284 0.088421427 0.0063926876
-0.0064200973 0.088811353 0.0061172545
-0.005381301 0.0893296 0.0061364174
-0.0042762621 0.088732444 0.0063152611
-0.0032128158 0.088887908 0.0065109134
-0.0021341478 0.088567138 0.0068788826
-0.0010633223 0.088255756 0.0066305399
0 0.088464141 0.0065369308
0.0010541279 0.087492622 0.0052600801
-0.018681454 0.087180123 0.0052677393
-0.017464008 0.086292751 0.0076660812
-0.016472682 0.086481586 0.013789594
-0.015476772 0.086669922 0.013809592
-0.014256706 0.085540242 0.014061451
-0.013337135 0.086178415 0.014048904
-0.012362227 0.086535595 0.014570564
-0.011201585 0.085539378 0.014951408
-0.010302614 0.086541966 0.01473397
-0.0092793247 0.086607032 0.014659822
-0.0082362974 0.086481124 0.014565945
-0.0072300555 0.086760662 0.014748484
-0.0061498163 0.086097434 0.014994323
-0.0051241205 0.08608523 0.015082717
-0.004103703 0.086177766 0.01540041
-0.0030789159 0.086209647 0.01540041
-0.0020519253 0.086180866 0.015311092
-0.0010300296 0.08652249 0.014719397
0 0.086728275 0.013477504
0.0010242413 0.086036272 0.0089594126
0.0020644567 0.086707182 0.0070432127
-0.018752471 0.088553339 0.013303369
-0.017676046 0.088380232 0.014731109
-0.016529212 0.08781144 0.01473099
-0.015411741 0.087333195 0.014605671
-0.01446732 0.087837301 0.014927715
-0.013417199 0.087727845 0.014899701
-0.012248672 0.086761422 0.015702426
-0.01129496 0.087279238 0.015558094
-0.01036121 0.088070296 0.015130252
-0.0092252623 0.087127484 0.014903992
-0.0082459711 0.087613441 0.014624447
-0.0071867444 0.087267615 0.015017837
-0.006183207 0.087595433 0.015198916
-0.0051677516 0.087851778 0.015372634
-0.0041061621 0.08725594 0.015848398
-0.0030848749 0.087404788 0.015944481
-0.0020684232 0.087907985 0.016093552
-0.0010314177 0.087670505 0.0157758
0 0.088050991 0.015622377
0.001027362 0.087325767 0.015016645
0.0020384823 0.0866355 0.013449758
0.0030984732 0.087790072 0.0084706843
0.0042197187 0.089669019 0.0055166185
-0.020758815 0.089262903 0.0053312182
-0.019718641 0.0892528 0.014164835
-0.018659292 0.089149959 0.014835864
-0.017636655 0.089220718 0.015180051
-0.016496953 0.088671118 0.015540808
-0.015454812 0.088607587 0.015130252
-0.014333989 0.088051639 0.015736252
-0.013267827 0.087771781 0.015720606
-0.012352537 0.088526517 0.01571238
-0.011376377 0.088942587 0.015543401
-0.010212296 0.087825745 0.015073299
-0.0092430813 0.088322781 0.014919639
-0.0082527259 0.088716805 0.01460287
-0.0072181216 0.088679776 0.015017837
-0.0062190313 0.089139454 0.015198916
-0.0051734569 0.088983461 0.015372634
-0.0041105021 0.088375792 0.015901625
-0.003082047 0.088352017 0.016328454
-0.002069751 0.088999301 0.016330004
-0.0010253467 0.088179819 0.01624316
0 0.089231066 0.016177028
0.0010282081 0.088425897 0.016126245
0.0020560401 0.088409722 0.015593082
0.0030639847 0.087834232 0.014544368
0.0040654368 0.087406889 0.0086943507
0.0054756743 0.094181597 0.0064864457
-0.021725386 0.090005174 0.006690681
-0.020731457 0.090181842 0.014191031
-0.01959992 0.089747004 0.015149057
-0.018566104 0.089736171 0.015237719
-0.017407954 0.089087762 0.015713096
-0.016461775 0.089510895 0.015847385
-0.01536646 0.089125469 0.015482575
-0.014482492 0.089998342 0.01574257
-0.013328338 0.089197338 0.015726924
-0.012465517 0.090374999 0.01580143
-0.011223093 0.088764466 0.015601486
-0.010402993 0.090506047 0.015073299
-0.0092710126 0.089619793 0.014976591
-0.0081860367 0.089023151 0.014624447
-0.0072235693 0.089778647 0.014981776
-0.0061747138 0.089533351 0.01519528
-0.0051889573 0.090287864 0.01549086
-0.0041510393 0.0902851 0.016034722
-0.0030872477 0.089530185 0.016543716
-0.0020591493 0.089572996 0.016655415
-0.0010363166 0.09015955 0.016592175
0 0.088692836 0.016606718
0.0010187399 0.088630363 0.016613811
0.0020509269 0.089215323 0.016442835
0.0030363062 0.088052884 0.01614514
0.0041031372 0.089243226 0.014633089
0.0051287832 0.089240834 0.00824067
0.0064857015 0.094042666 0.005870074
-0.02350527 0.094021082 0.0053755343
-0.021619163 0.09059459 0.013117373
-0.020520812 0.090291567 0.015134931
-0.019614581 0.090846471 0.01543507
-0.018482544 0.090359107 0.015913486
-0.017514197 0.090661727 0.016241997
-0.016584588 0.091215238 0.016102582
-0.015414693 0.090432867 0.016058296
-0.014462447 0.090906806 0.016058296
-0.013386389 0.090615556 0.015869886
-0.012341158 0.090501823 0.015958548
-0.011440539 0.09152431 0.01576519
-0.010304101 0.090676084 0.015240014
-0.0092238467 0.090188727 0.015050292
-0.0082289223 0.090518147 0.014726162
-0.0071614501 0.090029657 0.015051335
-0.0061925715 0.090824381 0.01519528
-0.0051314672 0.090313822 0.015329778
-0.0040971856 0.090138078 0.015946418
-0.003067951 0.089993231 0.016382635
-0.002067365 0.090964049 0.016586035
-0.0010250567 0.090204991 0.016660631
0 0.090430602 0.017068952
0.0010250567 0.090204991 0.017058551
0.002050095 0.090204179 0.016985744
0.0030938552 0.090753086 0.016609579
0.0040743188 0.089635007 0.016408145
0.0051523088 0.090680636 0.014588654
0.0064083626 0.09398932 0.0082119107
-0.022645615 0.09161181 0.011780173
-0.021708908 0.092004411 0.014946014
-0.020609895 0.091714025 0.015351385
-0.019602003 0.091819905 0.016080797
-0.018514561 0.091544218 0.016429633
-0.017579792 0.092035383 0.016562074
-0.016383637 0.091133974 0.01635778
-0.015593939 0.092524037 0.016186625
-0.014471486 0.091997303 0.016127408
-0.013315923 0.091162853 0.016034722
-0.012313953 0.091328479 0.015962571
-0.011291181 0.091355912 0.01576519
-0.010310573 0.091764092 0.015199542
-0.0093100304 0.092065856 0.015086353
-0.0082983775 0.092319444 0.014726162
-0.0072280779 0.091899842 0.015017837
-0.0062089469 0.092099376 0.015161783
-0.0051662573 0.09195938 0.015273511
-0.0041088336 0.091421552 0.015873224
-0.0031131152 0.092355751 0.01629287
-0.0020555616 0.091472492 0.016512841
-0.0010229689 0.091044232 0.016747385
0 0.091902658 0.017122746
0.001024695 0.091197848 0.017075866
0.0020606804 0.091700271 0.017054051
0.0031207933 0.09258353 0.017034262
0.0040809796 0.09080179 0.016649276
0.0051778629 0.092165954 0.016408145
0.0061875219 0.091781579 0.01449725
0.0075850869 0.096438959 0.0072561502
-0.024104575 0.094322257 0.0096750557
-0.022654498 0.092677504 0.013741016
-0.021718584 0.093079649 0.01503861
-0.020612016 0.092754081 0.015355468
-0.019508036 0.092406489 0.016126424
-0.018676952 0.093384765 0.016303957
-0.017494664 0.092618816 0.016367406
-0.016461473 0.092595786 0.016081244
-0.015460805 0.092764832 0.015215755
-0.014444644 0.092858426 0.014848709
-0.013540725 0.093743488 0.014311582
-0.01256642 0.094248161 0.013725162
-0.011589345 0.094821915 0.013010293
-0.010515016 0.094635151 0.010844886
-0.0095454101 0.095454104 0.0088291764
-0.0084519302 0.09508422 0.00905931
-0.0074207499 0.095409647 0.0097606182
-0.0063897972 0.095846966 0.011116654
-0.0053294664 0.095930405 0.013605833
-0.0042444146 0.095499329 0.014606416
-0.0031100295 0.093300894 0.015051335
-0.0020562515 0.092531323 0.015425801
-0.0010334889 0.093014009 0.016150206
0 0.091948844 0.016419739
0.0010251011 0.092259102 0.016613811
0.0020512547 0.092306465 0.016985744
0.0030912913 0.09273874 0.016613811
0.0041249674 0.092811763 0.016620398
0.0051319799 0.092375644 0.016485661
0.0061292662 0.091938995 0.015803069
0.0072417161 0.093107782 0.0085568726
0.0087459851 0.098392338 0.0052245259
-0.025911976 0.098249577 0.0053726137
-0.024057517 0.095184088 0.011555433
-0.022776883 0.094213471 0.014699847
-0.021502433 0.093177207 0.01510933
-0.020615207 0.093799196 0.015520781
-0.019610409 0.093923539 0.016073614
-0.018479815 0.093425743 0.016254932
-0.017398419 0.093132719 0.016187221
-0.016349018 0.092985034 0.015158236
-0.015556776 0.094377778 0.014364034
-0.014921051 0.096986838 0.013596326
-0.013738946 0.096172623 0.010835379
-0.012523294 0.094968326 0.0084583163
-0.011677914 0.096608207 0.0068840086
-0.01065796 0.096987434 0.0056731999
-0.009565956 0.096722454 0.005348146
-0.0085558137 0.097322382 0.0052770972
-0.0074845897 0.097299673 0.0052185059
-0.0063720928 0.096643411 0.0053519011
-0.0053319507 0.09704151 0.006396383
-0.0042480766 0.096643746 0.0083197355
-0.0031497371 0.095542029 0.011116654
-0.0021337459 0.097085439 0.013582677
-0.0010464295 0.095225081 0.014646739
0 0.094413787 0.015760213
0.0010206255 0.092876919 0.016355544
0.0020660853 0.094006881 0.016568005
0.0030985465 0.093989246 0.017045647
0.0040820823 0.092867374 0.017105758
0.0050926567 0.092686355 0.016635984
0.0061948127 0.09395466 0.016458482
0.0071878862 0.093442522 0.014683247
0.0084882844 0.096554235 0.0073248744
-0.025112038 0.09626282 0.011181414
-0.02384389 0.09537556 0.013847619
-0.022684911 0.094864175 0.015198231
-0.021678967 0.094974525 0.015584022
-0.020769035 0.095537573 0.015843511
-0.019753166 0.09564691 0.016165465
-0.018531775 0.094717972 0.016019374
-0.017683711 0.095700085 0.015455961
-0.016684072 0.095933422 0.013970822
-0.015890388 0.097461052 0.012366027
-0.014741676 0.096873872 0.0091441274
-0.013679757 0.096810587 0.0071195662
-0.012832973 0.098386131 0.0058258176
-0.0117526 0.098294474 0.0050549209
-0.0042493343 0.09773469 0.0051101446
-0.0031822536 0.097589113 0.0056021512
-0.0020859987 0.095955938 0.0089342892
-0.0010512091 0.096711233 0.011474401
0 0.09799628 0.014376342
0.001029341 0.094699383 0.015298307
0.0020396484 0.093823828 0.016023815
0.0030890198 0.094729938 0.016373128
0.0040972158 0.094235964 0.01701957
0.005123165 0.094266243 0.017006338
0.0061540152 0.094361566 0.016569406
0.0071544526 0.094029948 0.015840024
0.0082308128 0.094654351 0.011565328
0.0098596523 0.10078757 0.0065852702
-0.026850186 0.099882692 0.0054698586
-0.025017198 0.096941642 0.011910468
-0.023656273 0.095653631 0.01436305
-0.022720778 0.096046932 0.015240043
-0.021617282 0.09573368 0.015604943
-0.020577332 0.095684595 0.015663624
-0.019539451 0.095640466 0.015604943
-0.018667946 0.096451059 0.015328467
-0.017801134 0.097382672 0.014153481
-0.016993981 0.09877751 0.011016518
-0.01593332 0.098786578 0.0086759925
-0.014923896 0.099137314 0.006521821
-0.013774124 0.098537967 0.0059946775
-0.012865832 0.099710204 0.0051177144
-0.0021141933 0.098309986 0.0052284896
-0.001045406 0.09722276 0.0082809031
0 0.096681744 0.010962129
0.0010644111 0.098990239 0.013375163
0.0020713131 0.096316062 0.015384644
0.0030942734 0.095922478 0.016338468
0.004082853 0.094926335 0.016620398
0.0051090713 0.095028736 0.016637683
0.0061356742 0.095102958 0.016635984
0.0071513597 0.095010921 0.016458482
0.0082453005 0.095851623 0.015446514
0.0093401587 0.096514978 0.0095409453
-0.02594367 0.097548202 0.011901826
-0.024758773 0.096971862 0.01398012
-0.023573693 0.09634465 0.014720768
-0.022729089 0.097115204 0.015240043
-0.02157546 0.096575864 0.015542805
-0.020412996 0.095941089 0.015430987
-0.019670602 0.097317718 0.014838934
-0.018901 0.098705225 0.014050007
-0.017869933 0.098810218 0.01146996
-0.017000714 0.099879198 0.0086759925
-0.015911156 0.099709913 0.0065746605
-0.014858332 0.099763088 0.0057427287
-0.014014853 0.10133817 0.0053409636
-0.0010676205 0.10035633 0.0052804947
0 0.099067718 0.0089416504
0.0010439958 0.098135613 0.011462808
0.0020933154 0.098385826 0.013655603
0.0031356527 0.098250456 0.015812844
0.0040858146 0.096016645 0.016458482
0.0051006027 0.095891342 0.016721219
0.0062002935 0.097137935 0.016766071
0.00718936 0.096542835 0.016717672
0.008206551 0.096426979 0.016339809
0.0092447232 0.096556008 0.015156478
0.01073301 0.1008903 0.007381916
-0.027567307 0.1007267 0.0061661005
-0.026026921 0.0989023 0.013847798
-0.024582934 0.097307451 0.014388502
-0.023830296 0.098429479 0.014983267
-0.022679923 0.097936034 0.015355468
-0.021628125 0.097841516 0.015246153
-0.020563968 0.097678848 0.01503861
-0.019965891 0.09982945 0.014050007
-0.018888315 0.099688329 0.011635065
-0.018041335 0.10081923 0.0089685917
-0.016888784 0.10027716 0.0061500669
-0.016020548 0.10146347 0.0055439174
-0.015113995 0.10255925 0.0052210093
0 0.10171133 0.0058166087
0.0010517769 0.099918805 0.0092903078
0.0021068573 0.10007572 0.011657655
0.0031837313 0.10081816 0.014355004
0.0041350215 0.098206766 0.016241223
0.0050669038 0.09627118 0.016659141
0.0062096398 0.0983193 0.016856372
0.0071670711 0.097267389 0.016688019
0.0082603283 0.098091394 0.01667279
0.0092160683 0.097280726 0.016235441
0.010325498 0.098092236 0.01392433
0.01192945 0.10302706 0.0063536465
-0.026811779 0.09899734 0.0119811
-0.025814021 0.099125832 0.014541507
-0.024929933 0.099719733 0.014916211
-0.023639878 0.098670796 0.015522391
-0.02267888 0.098962389 0.015601993
-0.021567449 0.098594047 0.015375882
-0.020811778 0.099896535 0.014371216
-0.019880371 0.10044819 0.013117343
-0.018981097 0.10123253 0.0098027885
-0.017997934 0.10163539 0.0068367124
-0.016993966 0.1019638 0.0055590868
-0.016099503 0.10303682 0.0052323639
0.0010639901 0.10214305 0.0073697567
0.0021157474 0.10155588 0.010374248
0.003129462 0.10014278 0.012281209
0.0042002774 0.10080666 0.015094399
0.0051265922 0.098430574 0.016679138
0.0061374824 0.098199718 0.016752839
0.0071817003 0.098491892 0.016737193
0.0081783645 0.098140374 0.016733646
0.0092092678 0.098232195 0.016400665
0.010307224 0.09894935 0.015777588
0.011553701 0.1008323 0.0077373385
-0.028274689 0.10157943 0.0060863197
-0.026881134 0.10028731 0.014725447
-0.025774227 0.100004 0.015601993
-0.024827752 0.1003455 0.015671134
-0.023704018 0.099969111 0.015552402
-0.02266339 0.099924952 0.015590847
-0.021695629 0.10021314 0.015099674
-0.020863872 0.10118978 0.013962835
-0.020013031 0.10217178 0.011664242
-0.019067274 0.10275143 0.0085078776
-0.01811452 0.10335932 0.0063069761
-0.017196519 0.10425389 0.0057005286
-0.015877156 0.10267227 0.0050773025
0.0010645097 0.10325745 0.0064570904
0.0021143048 0.10254378 0.0092368126
0.0031420784 0.10159387 0.011882573
0.0042066542 0.10201136 0.014518619
0.005114784 0.09922681 0.016633689
0.0061677592 0.099712111 0.016937435
0.0071655824 0.099294499 0.017248899
0.0082429079 0.099945255 0.017050147
0.0092445463 0.099635661 0.016798735
0.010236782 0.099296786 0.01643002
0.011360763 0.10018127 0.015323758
0.012888142 0.10417915 0.0060358942
-0.027910652 0.10130532 0.011164188
-0.027065517 0.10201617 0.015529782
-0.025771283 0.10102342 0.015245885
-0.024819197 0.10134505 0.015693724
-0.023699947 0.10098238 0.015583724
-0.022435719 0.099940926 0.015620768
-0.021762682 0.10155918 0.015529782
-0.020967845 0.10274243 0.013706595
-0.020027399 0.10329921 0.010396987
-0.019088281 0.10392509 0.0074041784
-0.018139329 0.10456789 0.0059860945
-0.016950876 0.1038241 0.005641669
-0.016001202 0.10454119 0.0051873028
0.0010665035 0.10451734 0.0055375695
0.0020973359 0.10276945 0.007964164
0.0031646122 0.10337733 0.010950238
0.0041672811 0.10209838 0.013772637
0.0052495287 0.10289077 0.015888453
0.0061823349 0.10097814 0.016733646
0.0071680946 0.10035332 0.016856372
0.0082083261 0.10055199 0.016872346
0.0092067271 0.10025103 0.016749293
0.010289514 0.10083724 0.016618043
0.011354234 0.1011559 0.015983224
0.01236997 0.10102142 0.0075542331
-0.028248549 0.10357802 0.013218641
-0.026940824 0.10258238 0.015175521
-0.025616068 0.10143963 0.015206963
-0.024823282 0.10239604 0.015521795
-0.023635948 0.10173734 0.015449554
-0.022495557 0.10123001 0.015558004
-0.021832017 0.10292237 0.015459687
-0.020915505 0.10353176 0.013517201
-0.020204537 0.10527627 0.0095848739
-0.019124061 0.10518233 0.0072430968
-0.01802527 0.10497069 0.0060948431
-0.017034739 0.10540245 0.0056318045
-0.016046939 0.10590981 0.0053138435
0.0010656478 0.10549914 0.0054833889
0.0021386165 0.10586151 0.0076998174
0.0030929933 0.10206878 0.010332763
0.0041570505 0.102887 0.012752801
0.0052023903 0.10300733 0.016113251
0.0061421725 0.10134585 0.01673606
0.0071585509 0.10124236 0.016856372
0.0082916226 0.10260883 0.016872346
0.0091752904 0.10092819 0.016752839
0.010266387 0.10163724 0.016749293
0.011310552 0.10179497 0.016168922
0.012323748 0.10167094 0.0086669922
-0.027814513 0.10301671 0.013236046
-0.026756268 0.10290873 0.015075773
-0.02579893 0.10319572 0.01519981
-0.024669901 0.10279126 0.015268415
-0.023812337 0.1035319 0.015217751
-0.022803415 0.10365189 0.015338421
-0.021705126 0.10335775 0.015155822
-0.020844202 0.10422102 0.012892336
-0.020284798 0.1067621 0.0093485415
-0.019083099 0.10601723 0.0069206357
-0.018166455 0.1068615 0.0059066117
-0.016976546 0.10610342 0.0053691268
-0.016008297 0.10672197 0.0051701069
0.0010587536 0.10587537 0.0054833889
0.00211039 0.10551951 0.0073697567
0.0031344828 0.10448276 0.009878844
0.0041946042 0.10486511 0.013651669
0.0051978654 0.10395732 0.016072422
0.0061538373 0.10256396 0.01673606
0.0071812728 0.10258961 0.016726851
0.0082285721 0.10285716 0.016872346
0.0092864875 0.1031832 0.016765416
0.010328389 0.10328389 0.016749293
0.011225877 0.10205343 0.016168922
0.012409492 0.10341244 0.0096483529
-0.028049823 0.10492712 0.01370582
-0.026743596 0.10388859 0.015154123
-0.025739491 0.10398754 0.015190065
-0.024798444 0.10436012 0.015259743
-0.023822753 0.10461295 0.01539889
-0.022635426 0.10391719 0.015374362
-0.021753095 0.10462203 0.01520884
-0.020820109 0.10514156 0.013447523
-0.020497261 0.10895912 0.010326177
-0.01903783 0.10682338 0.0069133341
-0.018163778 0.10791421 0.0059066117
-0.016944794 0.10696401 0.005395472
-0.015959861 0.10746306 0.005025506
0.0010551132 0.10656644 0.0057631135
0.002155375 0.10884643 0.0079939365
0.0031264243 0.10525629 0.010374248
0.0041720271 0.10534368 0.013812661
0.0052267187 0.10557973 0.015918493
0.0062016323 0.10439415 0.016781092
0.0071869637 0.10369762 0.017081827
0.008215202 0.10371693 0.017293632
0.0092916442 0.1042729 0.016887993
0.010260234 0.10362837 0.016775638
0.011380475 0.10449345 0.016311437
0.012422025 0.10455205 0.0096189976
-0.027966321 0.10565054 0.012806386
-0.026756855 0.1049692 0.015027821
-0.025793508 0.10523751 0.015031457
-0.024727089 0.10509013 0.015190393
-0.023752971 0.10533926 0.015371203
-0.022650534 0.10501612 0.01544404
-0.021645991 0.10513768 0.015338421
-0.021074483 0.10747987 0.014250278
-0.020146403 0.10815438 0.010734528
-0.019015884 0.10775668 0.007383436
-0.017985374 0.10791223 0.0061144531
-0.017122699 0.1091572 0.0055068731
-0.01606993 0.10927553 0.0051391423
-0.014889925 0.10848374 0.0051553547
0 0.10857022 0.0051749945
0.0010557253 0.10768398 0.0064783096
0.0021618898 0.11025638 0.0090220571
0.0030921246 0.10513224 0.012061864
0.0041499259 0.10582311 0.014334172
0.0052457601 0.10701351 0.015691876
0.0060869884 0.1034788 0.016377658
0.0071702763 0.10448117 0.016637027
0.0082320478 0.10495862 0.016723067
0.009265909 0.10501364 0.016463399
0.01028602 0.10491741 0.016395241
0.011315875 0.10492902 0.015942901
0.012301943 0.10456652 0.0088062584
-0.028151635 0.10739327 0.012360275
-0.026785273 0.10611089 0.014717788
-0.025720594 0.10596885 0.014971197
-0.024657104 0.10582007 0.015054554
-0.023475669 0.10513017 0.015293956
-0.022590261 0.10576349 0.015276641
-0.021673886 0.10630525 0.015120715
-0.020947427 0.10787925 0.014637887
-0.019811545 0.10739943 0.012693077
-0.01965647 0.1124787 0.0078758299
-0.018021723 0.10919043 0.0063918233
-0.017051058 0.10976619 0.0054363608
-0.015849618 0.10883405 0.0053212345
-0.014803322 0.10891015 0.0050683618
-0.0010614682 0.10933121 0.0052537322
0 0.10934979 0.0057332814
0.0010788286 0.11111934 0.0072612464
0.002106502 0.10848485 0.009878844
0.003137918 0.10773518 0.013064802
0.0042031724 0.10823169 0.01512897
0.0051853345 0.10681789 0.015691519
0.0062059043 0.1065347 0.016321748
0.0071448912 0.10513197 0.016445547
0.0081812888 0.1053341 0.0163773
0.0092385588 0.10573018 0.016013712
0.010210775 0.10517099 0.015806109
0.011335701 0.10614338 0.015641749
0.012448965 0.10685362 0.0073096454
-0.027910456 0.10750694 0.0096519291
-0.026877826 0.1075113 0.014030337
-0.025507726 0.10611214 0.014992803
-0.02476381 0.10730984 0.015105665
-0.023611914 0.10676692 0.015190393
-0.022631058 0.10698318 0.015276641
-0.021756085 0.10774442 0.015204459
-0.02068012 0.10753663 0.014891237
-0.019676354 0.10770214 0.013835132
-0.018985551 0.10969429 0.010700822
-0.018351628 0.11226878 0.0073111951
-0.016824676 0.10936039 0.0064670742
-0.015924063 0.11040684 0.0055068731
-0.014826562 0.11014018 0.0053478777
-0.013767076 0.11013661 0.0051080585
-0.0021270602 0.11060712 0.0054613352
-0.0010604117 0.11028281 0.0058235526
0 0.10997012 0.0065101981
0.0010766403 0.1119706 0.0090008378
0.0020774894 0.10802944 0.012179732
0.0031423897 0.10893618 0.014179945
0.0041189538 0.1070928 0.01544559
0.0051627192 0.10738456 0.015973926
0.0061738207 0.10701289 0.016129255
0.0070930626 0.10538264 0.016294032
0.0082452474 0.10718821 0.016129255
0.0091857025 0.1061459 0.015689522
0.010265946 0.10676584 0.015506208
0.011383994 0.10763048 0.015037864
0.012624055 0.10940848 0.0054792464
-0.026918089 0.10870767 0.012619764
-0.025524573 0.1072032 0.014717788
-0.024923947 0.10904226 0.015078545
-0.023749219 0.10842034 0.015226722
-0.022806434 0.10884888 0.015276641
-0.021958048 0.10979024 0.015229076
-0.020349402 0.10683436 0.015123457
-0.01979756 0.10940757 0.014857829
-0.018858364 0.11000713 0.012858629
-0.018043907 0.11144765 0.0087412
-0.016908702 0.11096335 0.0069743693
-0.015821515 0.1107506 0.0064148605
-0.01481256 0.1110942 0.005594492
-0.013817677 0.11160431 0.0052597225
-0.012784714 0.11186625 0.0050958991
-0.0053423806 0.11219 0.0050107837
-0.0042867558 0.11252733 0.0055023432
-0.0031599309 0.11059758 0.0057734251
-0.0021172673 0.11115654 0.0058676302
-0.0010602943 0.1113309 0.0068734288
0 0.11498488 0.0082247257
0.0010598226 0.11128137 0.010875762
0.0020776349 0.10907583 0.013510019
0.0030879213 0.10807724 0.015179098
0.0041440367 0.10878097 0.015548855
0.0051737176 0.10864807 0.015961111
0.0061481106 0.10759194 0.016079128
0.0071787154 0.10768073 0.016182661
0.0081972815 0.10758932 0.015813857
0.009137108 0.10659959 0.015599817
0.010341629 0.10858711 0.015254587
0.011396495 0.10878473 0.01031664
-0.027290046 0.11125942 0.0096212626
-0.025764827 0.10924286 0.01384151
-0.02468127 0.10900894 0.015019923
-0.023796892 0.10967262 0.015227318
-0.022749685 0.10961212 0.015452653
-0.02151189 0.10858382 0.015468061
-0.020739578 0.10991976 0.015315831
-0.019755179 0.11021311 0.015345305
-0.018623117 0.10966947 0.014725626
-0.018070849 0.11267705 0.012256682
-0.017073574 0.11311242 0.0085318387
-0.016189048 0.1144026 0.0076123774
-0.01480509 0.11209568 0.0068132579
-0.013840569 0.11285387 0.006177187
-0.01273725 0.11251238 0.0055939257
-0.011745946 0.1131882 0.0053396225
-0.010603953 0.1124019 0.0053583682
-0.0095515111 0.11249558 0.0053042173
-0.0084680254 0.11220133 0.0054756403
-0.0074671875 0.11307456 0.0054756403
-0.0063458798 0.11211054 0.0056267381
-0.0052878135 0.11210165 0.0057734251
-0.0042388495 0.11232951 0.0059924722
-0.0031712451 0.11205066 0.0064248443
-0.0021449612 0.11368294 0.0070865452
-0.0010835709 0.11485852 0.0082450807
0 0.11204111 0.010692716
0.0010341194 0.10961665 0.012946397
0.0020624446 0.10930956 0.014734119
0.0031150167 0.11006392 0.015383065
0.0042016003 0.1113424 0.015676528
0.0050942064 0.10799717 0.016134679
0.0061563454 0.1087621 0.016119748
0.0072064698 0.10912654 0.016119748
0.0082134465 0.10882816 0.015552789
0.0092858085 0.10936619 0.015301406
0.01028871 0.10906032 0.014363289
0.011631876 0.11208899 0.0052200258
-0.026044331 0.11146974 0.010787725
-0.02479724 0.11055437 0.014301986
-0.023820026 0.11081491 0.015182912
-0.022705827 0.11043289 0.015452683
-0.021507202 0.10958432 0.015677065
-0.02064082 0.11042839 0.015688986
-0.019491378 0.10976724 0.015448838
-0.018675124 0.11101324 0.015240669
-0.017560374 0.11052706 0.014574379
-0.016890638 0.11295614 0.012019962
-0.015798433 0.11269549 0.0090382695
-0.015050578 0.11502942 0.0082374513
-0.013940661 0.11474237 0.0070955455
-0.012645262 0.11275359 0.0062710345
-0.011714038 0.11394566 0.0061533749
-0.010528469 0.11265463 0.0061117709
-0.0096144816 0.11430551 0.0056736767
-0.0084891496 0.11354238 0.0057533979
-0.0074394615 0.11371749 0.0060218871
-0.0063960063 0.11406212 0.0060257912
-0.005307205 0.1135742 0.006387502
-0.0043052486 0.1151654 0.0067882836
-0.0032376612 0.11547659 0.0072544217
-0.0021304341 0.11397823 0.0084257126
-0.0010559194 0.11298338 0.010855675
0 0.11042478 0.013082862
0.0010414879 0.11143921 0.014722079
0.0020684672 0.110663 0.015708804
0.0031056595 0.11076853 0.015582412
0.004156345 0.11118223 0.015971035
0.0051346272 0.10988104 0.016222984
0.0061557014 0.10977668 0.016114861
0.0071694227 0.10958976 0.016005754
0.0082766619 0.11070035 0.015459329
0.0092196194 0.10961104 0.014792174
0.010473704 0.11206864 0.0083844662
-0.026050111 0.11253648 0.0091296434
-0.024905877 0.11207645 0.012734264
-0.023786224 0.11169183 0.014817268
-0.022527399 0.11058906 0.015471905
-0.021644391 0.11131401 0.015641183
-0.020704361 0.11180355 0.01588133
-0.019608801 0.11146056 0.01588133
-0.018574523 0.11144715 0.015869409
-0.017668381 0.11224619 0.015338093
-0.016243836 0.10964589 0.014749289
-0.015992392 0.11514522 0.012588233
-0.014726516 0.11360455 0.0092433691
-0.0137889 0.11455395 0.0084880292
-0.012845651 0.11561087 0.0076638758
-0.011689228 0.11476697 0.0073693395
-0.010780821 0.11643287 0.0068161786
-0.0096598407 0.1159181 0.0066482723
-0.0085709421 0.11570772 0.0068763793
-0.0075753001 0.11687606 0.0070336163
-0.0064315558 0.11576801 0.0070780516
-0.0053462624 0.11547928 0.0075390637
-0.0042618173 0.11506908 0.00805673
-0.0031611084 0.11379991 0.0088202357
-0.0021141472 0.11416396 0.011986226
-0.0010312989 0.11138029 0.013428122
0 0.11263308 0.014790714
0.0010470165 0.11307778 0.015651435
0.0020334995 0.10980897 0.015966624
0.0031038905 0.11174007 0.015696436
0.0041358466 0.11166786 0.016110957
0.0051620202 0.11149964 0.016154289
0.0061363066 0.11045352 0.015666306
0.0072230273 0.11144099 0.015267491
0.0081674205 0.11026018 0.015049338
0.0093192542 0.11183106 0.011892945
-0.025207359 0.11448342 0.0097619593
-0.023660466 0.11213003 0.013829559
-0.022788504 0.11290669 0.015352249
-0.021417301 0.11116599 0.015513003
-0.020444514 0.11142261 0.015886158
-0.019759471 0.11335697 0.015939176
-0.018552236 0.11234411 0.016091049
-0.017271521 0.11074092 0.016042739
-0.016672848 0.11358377 0.015904993
-0.015159513 0.11015913 0.015332997
-0.014483451 0.11276401 0.013673514
-0.013913976 0.11666334 0.011228204
-0.012615261 0.11458862 0.0087952316
-0.011610045 0.115045 0.0085107088
-0.010461129 0.11402632 0.0081862807
-0.0094727064 0.11472501 0.008044064
-0.0084963599 0.1157629 0.0083159208
-0.0074074632 0.11534479 0.0083842278
-0.0062972582 0.11440019 0.0084284544
-0.0052772961 0.11504506 0.0087579191
-0.0042099464 0.11472104 0.010327131
-0.0031344043 0.11388336 0.013245821
-0.0020669249 0.11264741 0.014559716
-0.0010427079 0.11365516 0.015297711
0 0.11196259 0.015924037
0.0010331774 0.11261634 0.016216904
0.0020664544 0.11262177 0.016599953
0.0030999894 0.11263295 0.016704232
0.0040788786 0.11114944 0.016396612
0.0050899349 0.11096059 0.016520381
0.0061553735 0.11182263 0.015744567
0.0071682334 0.11161964 0.015243441
0.0082342597 0.11219179 0.014494896
0.0095055271 0.1151225 0.0067422986
-0.025446339 0.11662906 0.0056275725
-0.024173368 0.11561176 0.011141628
-0.022531215 0.11265608 0.014201373
-0.021663886 0.11347749 0.015260637
-0.020674653 0.1137106 0.015936881
-0.01920571 0.11119095 0.016053557
-0.018647237 0.11395534 0.016266733
-0.017618062 0.11399923 0.016579241
-0.016182857 0.11125714 0.016610593
-0.015496236 0.11363906 0.01651907
-0.014726791 0.1157105 0.016147226
-0.013104526 0.11088446 0.015948802
-0.012231356 0.11212076 0.01407668
-0.011485646 0.11485646 0.012013555
-0.010503848 0.11554233 0.010010898
-0.0094867824 0.11594957 0.0095194578
-0.0084378151 0.11601996 0.0097528994
-0.0073739458 0.11587629 0.011421114
-0.0063239383 0.11593887 0.0122509
-0.0051587117 0.11349165 0.013564736
-0.004085924 0.11236291 0.014959157
-0.0031546329 0.11566987 0.015489042
-0.0020830124 0.11456568 0.016138852
-0.0010294627 0.11324089 0.016060412
0 0.11403021 0.016346514
0.0010255235 0.11280759 0.016745955
0.0020621999 0.11342099 0.016880125
0.0030697968 0.11255922 0.017029285
0.0040642894 0.11176796 0.016637027
0.0051128562 0.11248285 0.016447574
0.0061712102 0.11313885 0.015646189
0.0071496824 0.11235216 0.015150547
0.0082967384 0.11408015 0.010529041
-0.024070205 0.1161649 0.0094187856
-0.022626521 0.11416109 0.013230652
-0.021726424 0.11483967 0.014868796
-0.020485362 0.11369376 0.016012579
-0.019495632 0.11389554 0.016297311
-0.018562391 0.11446809 0.016742706
-0.017499991 0.11426465 0.016986877
-0.016696669 0.11583314 0.017060935
-0.015330416 0.11344508 0.01703608
-0.014183807 0.11245733 0.017327547
-0.01367711 0.11678148 0.016870499
-0.012637921 0.11690076 0.016870499
-0.011487975 0.11592411 0.016595155
-0.010298579 0.11431423 0.016633332
-0.0092237648 0.11375977 0.016103685
-0.0081743989 0.11341979 0.014661491
-0.0071788183 0.11383555 0.014657587
-0.0062289387 0.11523537 0.015861958
-0.0052861241 0.11735196 0.01641795
-0.004174958 0.11585508 0.016637832
-0.0031145371 0.11523787 0.016873389
-0.0020374926 0.11308084 0.016799361
-0.0010351478 0.11490141 0.016859204
0 0.11422347 0.017063975
0.0010382031 0.11524054 0.017174423
0.0020589966 0.11427432 0.017143935
0.0030611297 0.1132618 0.017029285
0.0040842439 0.11333776 0.016617149
0.0051225023 0.11371956 0.016187489
0.0061827614 0.11438109 0.015438229
0.0073017757 0.1157853 0.01262632
0.0084812799 0.11767776 0.0052797794
-0.023094386 0.11757142 0.009909749
-0.021565869 0.11501797 0.013023406
-0.020439306 0.11446012 0.015412778
-0.019549925 0.11524165 0.016129822
-0.018440599 0.11474151 0.016786367
-0.017337101 0.11422089 0.017106622
-0.016300052 0.11410037 0.01732567
-0.015335482 0.11450493 0.017646939
-0.014476169 0.11580935 0.017908901
-0.013181515 0.11356382 0.017808884
-0.012242386 0.11426227 0.017922223
-0.01125457 0.11459199 0.017669827
-0.01025964 0.11490798 0.01762864
-0.0092526749 0.1151444 0.017589778
-0.0083269197 0.11657688 0.017213792
-0.0072107548 0.11537208 0.016953111
-0.0061981403 0.11569862 0.0169397
-0.0051514837 0.11539324 0.017240673
-0.0041013318 0.11483729 0.017159164
-0.003102307 0.11581947 0.017151445
-0.0020816221 0.11657085 0.017085195
-0.0010351833 0.11594053 0.017205834
0 0.11504648 0.017117441
0.00103442 0.11585503 0.017104983
0.0020204396 0.11314461 0.016716361
0.0030942042 0.11551696 0.016507
0.0040689213 0.11392979 0.016088098
0.0051441449 0.11522885 0.015567034
0.0061597433 0.11498187 0.012882054
0.007380893 0.11809429 0.0075213313
-0.021903837 0.1178635 0.0098001659
-0.020547936 0.11609584 0.013065457
-0.019517168 0.11607579 0.015530765
-0.018626995 0.11693614 0.016296685
-0.017493274 0.11627882 0.017008305
-0.016412351 0.11591223 0.017220885
-0.01529384 0.1152136 0.017706871
-0.014404349 0.11626367 0.017966032
-0.013266719 0.1153184 0.017860115
-0.012311841 0.11593651 0.017973453
-0.011325319 0.11634192 0.017716885
-0.010134463 0.11451944 0.017707467
-0.0092814984 0.11653437 0.017589778
-0.0082398327 0.11638763 0.017209888
-0.0072113974 0.11641256 0.016949207
-0.0062444457 0.11760373 0.016915172
-0.0051311129 0.11596316 0.017238319
-0.0041115694 0.11615183 0.01703313
-0.0031143692 0.11730791 0.01703313
-0.0020559735 0.1161625 0.016961098
-0.0010266461 0.11601101 0.017013162
0 0.11552066 0.01715225
0.0010163186 0.114844 0.016701847
0.0020558562 0.11615586 0.016463131
0.0031048635 0.11694986 0.016285539
0.0040761288 0.11515064 0.015567034
0.0051184981 0.11567806 0.014286995
0.0062747207 0.11817391 0.0077835321
-0.020912861 0.11920331 0.009860903
-0.01957562 0.11745371 0.012712032
-0.018586319 0.11771335 0.015591502
-0.017482808 0.11723765 0.016373217
-0.016378157 0.11669437 0.016842216
-0.015338316 0.1165712 0.01755324
-0.014306292 0.11649409 0.017860115
-0.013309071 0.11671031 0.017874688
-0.012261565 0.11648487 0.017923146
-0.011212141 0.11619855 0.017665386
-0.010283755 0.11723481 0.017707467
-0.0092363646 0.11699395 0.017554671
-0.0081795482 0.11655857 0.017169386
-0.0072620744 0.11826807 0.016949207
-0.0061650616 0.11713617 0.016910851
-0.0051248143 0.11684577 0.016915172
-0.0041159079 0.11730336 0.016939282
-0.0030672904 0.11655704 0.016871393
-0.0020427788 0.11643839 0.016799361
-0.0010269692 0.11707448 0.01686725
0 0.11679404 0.016808152
0.0010245063 0.11679371 0.0164105
0.0020479392 0.11673253 0.016172469
0.0030660592 0.11651025 0.015604705
0.0041189571 0.11739027 0.014267594
0.0051846234 0.11820942 0.0086269379
-0.021136714 0.12153611 0.0075981021
-0.01989861 0.12043895 0.010953456
-0.018487638 0.11811547 0.0148682
-0.017424483 0.1178715 0.01633209
-0.016550982 0.11896019 0.016795844
-0.015431845 0.1183108 0.017860115
-0.014331282 0.11772124 0.0181894
-0.013351297 0.11810762 0.018038779
-0.012251355 0.11740881 0.018084675
-0.01127304 0.11785451 0.017989904
-0.010284576 0.11827262 0.017957509
-0.0092112776 0.11769967 0.017843574
-0.0082599195 0.11873634 0.017823219
-0.0071674497 0.11775096 0.017826974
-0.0061384854 0.1176543 0.017733425
-0.0051624444 0.11873622 0.017816544
-0.004108733 0.11812607 0.017383814
-0.0030786232 0.11801389 0.017064631
-0.0020485776 0.1177932 0.017311782
-0.0010267004 0.11807054 0.01736325
0 0.11813826 0.017243505
0.0010326192 0.1187512 0.016548067
0.0020486948 0.11779995 0.015935421
0.003088644 0.11839802 0.0148637
0.0041949912 0.12060599 0.01129967
0.0051876414 0.11931575 0.0055994987
-0.021402275 0.12413321 0.0069513619
-0.019953186 0.12181945 0.010134488
-0.018676497 0.12035966 0.012606293
-0.017554149 0.11978126 0.016262412
-0.016195411 0.11741674 0.016913921
-0.015324135 0.11850665 0.018060684
-0.014399591 0.1193109 0.018250436
-0.013305887 0.11872946 0.018250436
-0.012259358 0.11850712 0.018271476
-0.011356335 0.11975772 0.018291622
-0.010162394 0.11788377 0.018192649
-0.0091998754 0.11857618 0.018081427
-0.0082703466 0.11992002 0.018036485
-0.0071762027 0.11891993 0.018036515
-0.0061684772 0.11925723 0.017874718
-0.0051464159 0.11939686 0.017963678
-0.0040907711 0.11863236 0.017941475
-0.0030806137 0.11911707 0.017886788
-0.0020520152 0.11901689 0.017499626
-0.0010268363 0.11911302 0.017085195
0 0.11936472 0.016961098
0.0010258993 0.11900432 0.016240746
0.0020665387 0.11985924 0.015339196
0.0031306834 0.1210531 0.013227135
0.004167133 0.12084686 0.01016438
-0.020097559 0.12375866 0.0076978803
-0.018940782 0.12311509 0.011139512
-0.017916162 0.12330535 0.015933067
-0.016617784 0.12151755 0.016836971
-0.015466513 0.12063881 0.018218726
-0.014203239 0.1186985 0.018192649
-0.013428523 0.12085671 0.01828742
-0.01222727 0.11921589 0.01828742
-0.011176253 0.11887469 0.01837045
-0.010143292 0.11867653 0.018271476
-0.0092358319 0.12006582 0.018155664
-0.0082343724 0.12042769 0.018153012
-0.0072590448 0.12132975 0.018188238
-0.0061453795 0.11983491 0.01794365
-0.0051224818 0.11986608 0.01794365
-0.0041217343 0.12056073 0.017962039
-0.003098561 0.12084389 0.017907351
-0.0020710041 0.12115375 0.017520189
-0.0010344576 0.12103155 0.017113537
0 0.12134002 0.01686725
0.0010596812 0.1239827 0.016078383
0.0020933601 0.12246156 0.014898181
0.0031375366 0.12236393 0.011484355
0.0042802086 0.1251961 0.0059633851
-0.019402336 0.12719309 0.01044172
-0.018109709 0.12570268 0.011609972
-0.016897373 0.12461812 0.016096979
-0.015709437 0.12358092 0.016867548
-0.014657635 0.12354293 0.017798781
-0.013650473 0.1239043 0.01821667
-0.012407022 0.12200238 0.018259883
-0.011519195 0.12356954 0.018271476
-0.010344 0.1220592 0.018192649
-0.0093132649 0.12210726 0.018155664
-0.0083036553 0.12247892 0.018135905
-0.0072574154 0.12233929 0.018221974
-0.0062131551 0.12219205 0.018219024
-0.0051991376 0.12269966 0.018239319
-0.0041909982 0.12363444 0.018117487
-0.0031578739 0.12420971 0.018029243
-0.0020926469 0.12346617 0.017935693
-0.0010486719 0.12374328 0.017151862
0 0.12419221 0.016752481
0.0010638192 0.12553066 0.015271425
0.002151832 0.12695809 0.011840433
0.0032475272 0.12773608 0.010562301
-0.019506868 0.12896207 0.0073235631
-0.018303888 0.12812722 0.0098106265
-0.017068099 0.12694399 0.011035591
-0.01616309 0.12822719 0.01606518
-0.015278162 0.12986436 0.016599268
-0.01384623 0.12674627 0.016829699
-0.012919456 0.12811793 0.017425984
-0.011776779 0.12740335 0.018271476
-0.01054847 0.12552679 0.018271476
-0.009663472 0.12777258 0.018196553
-0.0086542154 0.12873146 0.018153042
-0.0074774553 0.12711674 0.018221974
-0.006450159 0.12792817 0.018219024
-0.0053571863 0.12750104 0.018234015
-0.0043076002 0.1281511 0.017113537
-0.0032132319 0.1274582 0.017099798
-0.00216229 0.12865625 0.01700595
-0.0010844271 0.12904683 0.016847432
0 0.1279553 0.015271425
0.0010732644 0.12771846 0.0118092
0.002134471 0.12700102 0.010656029
0 0 0 1 0 0 0 1 0 0 0 1 0 0 0 0 0 1021 1 0 0
