ply
format ascii 1.0
comment PCL generated
element vertex 1272
property float x
property float y
property float z
element camera 0
property float view_px
property float view_py
property float view_pz
property float x_axisx
property float x_axisy
property float x_axisz
property float y_axisx
property float y_axisy
property float y_axisz
property float z_axisx
property float z_axisy
property float z_axisz
property float focal
property float scalex
property float scaley
property float centerx
property float centery
property int viewportx
property int viewporty
property float k1
property float k2
end_header
0.031360146 -0.10705705 0.0079708993
0.032104746 -0.10594566 0.0070350766
0.034327187 -0.10962553 0.0065199137
0.037852325 -0.11021706 0.0051751435
0.039335515 -0.11126332 0.0073171854
0.038797371 -0.10669278 0.0076288879
0.040606018 -0.10864853 0.0081587434
0.041470371 -0.10804123 0.0085423887
0.041906361 -0.10637769 0.0083144903
0.04309351 -0.10665645 0.0066415071
0.044426054 -0.10727266 0.0065723956
0.045763236 -0.10787048 0.0066415071
0.048139844 -0.1108336 0.007265985
0.047610257 -0.10712308 0.0090127289
0.047853585 -0.10527788 0.009398073
0.049618408 -0.10678744 0.010439068
0.050885133 -0.10718358 0.0091536045
0.052241299 -0.10774769 0.0091158748
0.053985678 -0.10907312 0.0086863637
0.053250082 -0.10543516 0.0088912249
0.054056507 -0.10493322 0.010503531
0.056574892 -0.10770989 0.009652555
0.056867469 -0.10622415 0.010031402
0.058990497 -0.10814925 0.010849148
0.060015567 -0.10802802 0.010041714
0.060883507 -0.10763334 0.0086499155
0.062301386 -0.10820767 0.0078808963
0.062727436 -0.10706924 0.007692486
0.064057045 -0.10748555 0.007692486
0.06581974 -0.10860258 0.0063737035
-0.066338174 -0.10657609 0.0057679713
-0.064467043 -0.10708084 0.0053063929
-0.059691414 -0.10635924 0.0052483976
-0.057145894 -0.105666 0.0054949224
-0.050471805 -0.10523908 0.0050973594
-0.049549393 -0.10556174 0.0057566762
-0.04877121 -0.10621285 0.0067245662
-0.047010534 -0.10470528 0.0075924695
-0.047108758 -0.10736414 0.0067689717
-0.046175566 -0.10774297 0.0059297085
-0.044492673 -0.10634833 0.0059297085
-0.043997779 -0.10779456 0.0061832368
-0.042388063 -0.10651359 0.0069731176
-0.041523382 -0.10708661 0.0074140728
-0.040203817 -0.10648578 0.007632345
-0.038598835 -0.10507461 0.0080221295
-0.037749249 -0.10569789 0.0088223815
-0.037033308 -0.10674306 0.0074983537
-0.035214745 -0.10457712 0.0074983537
-0.034943938 -0.1070158 0.0065370798
0.02646804 -0.10807783 0.0070860684
0.027125021 -0.10633008 0.0078220367
0.028316444 -0.10673121 0.0084925294
0.029282887 -0.10628603 0.0096787512
0.030302977 -0.10606042 0.010100394
0.031739764 -0.10725851 0.010849893
0.032234926 -0.10530075 0.011018723
0.033845376 -0.10699505 0.010881841
0.034259945 -0.10492108 0.0098155439
0.035795294 -0.10630117 0.010529399
0.037133649 -0.10703228 0.0094109476
0.037792623 -0.10581934 0.0095293224
0.039609846 -0.10782681 0.0088682771
0.04089785 -0.10832403 0.010666072
0.040927276 -0.10554929 0.0093777776
0.042422555 -0.10660027 0.0089564919
0.042932026 -0.10518347 0.0083524883
0.04377988 -0.10464458 0.0066487789
0.045200583 -0.10546802 0.0071747601
0.047222737 -0.10762391 0.0080526173
0.048902046 -0.10891819 0.010105491
0.049078528 -0.10688212 0.0097788572
0.049687471 -0.10585591 0.0097445548
0.051705252 -0.10781095 0.0089265704
0.052443467 -0.10707208 0.0089265704
0.052509475 -0.10501895 0.0093150437
0.054906156 -0.10761606 0.0089864433
0.05482481 -0.10534963 0.01128307
0.055485897 -0.10456957 0.011347234
0.057201933 -0.10576961 0.0090813637
0.059135154 -0.10731935 0.0088204145
0.059436351 -0.10590477 0.0088204145
0.061618198 -0.10783184 0.0065510869
0.061808538 -0.10626731 0.0067067146
0.062508039 -0.10561702 0.0061748624
0.065594643 -0.10895381 0.0062143803
-0.064074241 -0.10534239 0.0050818026
-0.057960089 -0.1060779 0.0068508089
-0.057168163 -0.10664061 0.0063450038
-0.055704661 -0.10594808 0.0068500042
-0.054681398 -0.1060819 0.0068604648
-0.053525355 -0.10595835 0.0073340833
-0.051540904 -0.10415558 0.0061219335
-0.051665444 -0.10662868 0.0061148107
-0.050013702 -0.10546368 0.0057071149
-0.048920874 -0.10545166 0.00564152
-0.048268758 -0.10641067 0.0056665838
-0.047350984 -0.106815 0.0067689717
-0.045055475 -0.10405669 0.0075463355
-0.044970114 -0.1063927 0.0080020428
-0.043614715 -0.10576569 0.0087332428
-0.042159151 -0.10485737 0.0085619986
-0.041459624 -0.10583114 0.010629505
-0.039829325 -0.10441741 0.011086315
-0.03893115 -0.10489783 0.010656059
-0.037729479 -0.10456455 0.011456311
-0.036636818 -0.10452269 0.010642529
-0.036028225 -0.10590115 0.010349274
-0.034931783 -0.10588696 0.0072050989
-0.032826103 -0.10271393 0.0064182878
0.024615763 -0.1038143 0.0061030984
0.026176546 -0.10579687 0.0064564347
0.026824124 -0.10407759 0.0088200271
0.028123552 -0.10492248 0.0084897578
0.029888786 -0.10737823 0.010354161
0.030139893 -0.1044132 0.011776924
0.0314168 -0.10508378 0.012479186
0.03210444 -0.10380435 0.012874961
0.033273064 -0.10411248 0.014236838
0.034090485 -0.10333677 0.011863559
0.035657868 -0.10481253 0.012217432
0.035614777 -0.10160687 0.011362374
0.037805941 -0.10477646 0.0090709031
0.039056536 -0.10523567 0.010397553
0.039938509 -0.10470366 0.0097539127
0.041298177 -0.10541903 0.0090709031
0.042432941 -0.10553834 0.010114282
0.042994242 -0.10426104 0.0093302727
0.045477815 -0.10759384 0.0090601444
0.045813128 -0.10580651 0.010793835
0.045838002 -0.103402 0.0097673833
0.04716691 -0.10398159 0.01005131
0.048563015 -0.10468026 0.010105491
0.048978861 -0.10328151 0.010886431
0.051394261 -0.10606901 0.010446995
0.051896881 -0.10487495 0.010446995
0.053464804 -0.10583849 0.010446995
0.053757835 -0.10429019 0.01133728
0.05512581 -0.10484713 0.011726409
0.055985056 -0.10443366 0.01117149
0.05673591 -0.10383742 0.010126323
0.058429353 -0.10495643 0.0080986321
0.059957754 -0.10574367 0.0080094039
0.060748756 -0.10522552 0.0068352222
0.062623002 -0.10656896 0.0056888759
-0.05780248 -0.10469883 0.0057855546
-0.056928009 -0.10509786 0.0063450038
-0.055288799 -0.10407303 0.0068770349
-0.054794516 -0.10520547 0.0071135163
-0.053388119 -0.10459713 0.0071135163
-0.052140914 -0.10428183 0.0070415437
-0.05042645 -0.1029987 0.0071187019
-0.049361523 -0.10301535 0.0079819858
-0.049200408 -0.10496086 0.0079819858
-0.049105305 -0.10713884 0.0080993176
-0.045785248 -0.10221823 0.0081516206
-0.045563985 -0.10414625 0.0082837343
-0.044668939 -0.10459068 0.0097970068
-0.042817883 -0.10276292 0.010343432
-0.041945864 -0.10325135 0.011882931
-0.040801022 -0.10307626 0.011189401
-0.03941267 -0.10225989 0.011614025
-0.039165813 -0.10444218 0.011700302
-0.036969226 -0.10140131 0.012229294
-0.036766056 -0.10381003 0.011803567
-0.035947215 -0.10457372 0.011803567
-0.033771202 -0.10131361 0.0085707903
-0.033412892 -0.10347218 0.0065913498
0.023111891 -0.10565435 0.0057933629
0.023206418 -0.10126437 0.0069941282
0.025020529 -0.10443351 0.0081524253
0.025577722 -0.10231089 0.0083518624
0.026604109 -0.10215978 0.0096391141
0.028556461 -0.10543924 0.010089368
0.028992016 -0.10308272 0.011019289
0.030291159 -0.1038554 0.012874961
0.03094922 -0.10245258 0.012874961
0.032168772 -0.10294006 0.0145441
0.033174623 -0.1027343 0.0145441
0.034673508 -0.10402052 0.012874961
0.035406962 -0.10300208 0.01244396
0.037183944 -0.10498995 0.01219514
0.037817001 -0.10372663 0.010077894
0.038974442 -0.10393184 0.012180924
0.039639905 -0.10284948 0.0092451274
0.04239618 -0.10710613 0.010512412
0.04196658 -0.10330235 0.010237247
0.042666808 -0.10240034 0.010732532
0.043715857 -0.10235908 0.011247247
0.044877753 -0.10257772 0.011872768
0.046766575 -0.1044091 0.011531174
0.047315411 -0.10323363 0.011742532
0.048595682 -0.10367078 0.010499239
0.050356288 -0.10509138 0.011084825
0.050390456 -0.10292518 0.010959446
0.052429251 -0.1048585 0.0099265873
0.053287148 -0.10439932 0.0095175207
0.052999325 -0.1017587 0.010359526
0.054745637 -0.1030506 0.0096042752
0.056866832 -0.10498492 0.010157049
0.055885702 -0.10122693 0.01098457
0.057928778 -0.1029845 0.0089718997
0.06033719 -0.10531582 0.0080986321
0.061286133 -0.10506194 0.0068352222
-0.057868894 -0.10372727 0.006993264
-0.05624349 -0.10275253 0.0068508089
-0.055556763 -0.10348809 0.0069112182
-0.054448113 -0.10345141 0.0071476996
-0.053287953 -0.10331339 0.006891638
-0.052348159 -0.10360573 0.00693959
-0.050953209 -0.10299053 0.0070393085
-0.050284032 -0.10384746 0.0079846978
-0.049315445 -0.10411038 0.0082207918
-0.046490517 -0.10037725 0.01025039
-0.046896726 -0.10360905 0.008215636
-0.045443211 -0.10278822 0.010581046
-0.043871008 -0.10165232 0.011706918
-0.043200843 -0.10260201 0.011131614
-0.041858785 -0.10196371 0.013407201
-0.041050598 -0.10262649 0.012733519
-0.039810777 -0.10221686 0.012212187
-0.03888353 -0.10260932 0.012533009
-0.037556838 -0.10193999 0.012202144
-0.036945485 -0.10323003 0.012076944
-0.035588805 -0.10245263 0.012076944
-0.034477208 -0.10235421 0.010681748
-0.034007497 -0.10421652 0.0075873435
-0.031890415 -0.10098631 0.0061640143
0.018618731 -0.10404585 0.0075495541
0.01928091 -0.10176037 0.0085953772
0.020640355 -0.10320177 0.0051009655
0.021885362 -0.10395547 0.0070056617
0.022681972 -0.10260892 0.0075114667
0.023927176 -0.1033219 0.0077422261
0.025161315 -0.10392717 0.010452509
0.025825229 -0.10222486 0.011672288
0.027146105 -0.10315519 0.012607336
0.027949074 -0.10212161 0.011977941
0.029109018 -0.10242061 0.012631804
0.030459004 -0.10334305 0.013604701
0.031098761 -0.10187525 0.013911426
0.0323679 -0.10249835 0.015117139
0.033477504 -0.10259235 0.015364707
0.033788271 -0.10030892 0.014646143
0.03573712 -0.10287958 0.012572259
0.03699775 -0.10337607 0.01233241
0.036594797 -0.099328741 0.012343824
0.039057992 -0.1030697 0.011851966
0.039871991 -0.10237402 0.010687262
0.041232426 -0.10308106 0.01087594
0.04263271 -0.10384891 0.009961307
0.043255165 -0.10273102 0.010769665
0.043827441 -0.10155138 0.010732532
0.045428339 -0.10275458 0.011640012
0.045394737 -0.10029069 0.01318121
0.047832385 -0.10327446 0.013238758
0.048349462 -0.10207108 0.012144446
0.049207352 -0.10162388 0.012475461
0.050859023 -0.10280015 0.010959446
0.051290337 -0.10151213 0.009475261
0.052589417 -0.10195908 0.009475261
0.053258505 -0.10119116 0.0095175207
0.055547755 -0.1034713 0.0089182556
0.055980284 -0.10227168 0.0095866621
0.057610065 -0.10326333 0.009447217
0.05886301 -0.10355529 0.0075429678
0.059144951 -0.10215946 0.006860882
-0.058142193 -0.10121048 0.0059862137
-0.057804026 -0.10252035 0.0074031353
-0.056620497 -0.10235244 0.0071476996
-0.054959491 -0.10129789 0.0077416003
-0.053853542 -0.10124465 0.0090712607
-0.05314118 -0.10194431 0.0098184347
-0.051794086 -0.10143009 0.0074259937
-0.051627181 -0.10325436 0.0079220831
-0.049573738 -0.10130285 0.0086091161
-0.04852755 -0.10136866 0.01119417
-0.047378417 -0.10121753 0.010857224
-0.046117961 -0.10081601 0.011840373
-0.044421762 -0.09942013 0.011840373
-0.044716261 -0.10252021 0.011661917
-0.042851411 -0.10070082 0.013242394
-0.042011052 -0.10125741 0.014102191
-0.041113801 -0.10170256 0.012772858
-0.039741006 -0.10096363 0.012250721
-0.038590062 -0.10076294 0.012489349
-0.038049672 -0.10219055 0.011607945
-0.036473248 -0.1008378 0.011364609
-0.035528541 -0.10120251 0.011804849
-0.034842938 -0.10235114 0.01081121
-0.033666778 -0.10208636 0.0098145604
-0.032776643 -0.10270014 0.007503897
-0.031758282 -0.10294063 0.0067674518
-0.030281959 -0.10166086 0.0061016381
-0.029603405 -0.1030637 0.0061394274
-0.028545322 -0.10320232 0.006526202
-0.026912391 -0.10119059 0.0064508915
-0.026343085 -0.10317709 0.0051196814
-0.025013141 -0.10222761 0.005705446
0.002184489 -0.10267098 0.0062976182
0.0032195244 -0.10087843 0.0064225197
0.0043669236 -0.1026227 0.0060046017
0.015036067 -0.10095645 0.0075495541
0.016057082 -0.10062438 0.0077604949
0.017358495 -0.10198116 0.0077659786
0.018222814 -0.10076144 0.010842234
0.01974427 -0.10310896 0.0086307526
0.021095762 -0.10436851 0.010521829
0.021483745 -0.10097361 0.008918494
0.022535283 -0.10087222 0.0082998276
0.024126999 -0.1030881 0.0088383853
0.024362935 -0.099570252 0.01130715
0.026129758 -0.10234155 0.012015551
0.026693171 -0.10036632 0.01226905
0.028003158 -0.10124218 0.011677682
0.029397104 -0.10234547 0.012924701
0.030034887 -0.1008314 0.012931406
0.031033654 -0.10059184 0.013643801
0.032728687 -0.10254989 0.013682246
0.033622738 -0.10195282 0.015591621
0.03439223 -0.10102718 0.013432652
0.035870235 -0.10217583 0.013345242
0.036443073 -0.10075438 0.012442112
0.036757957 -0.098721378 0.012866825
0.039011557 -0.10186351 0.012495995
0.039476331 -0.10029121 0.012443364
0.040990271 -0.10139698 0.01126346
0.043149538 -0.10400146 0.011022687
0.04314917 -0.10140055 0.011844814
0.044273093 -0.10150416 0.011664569
0.044848341 -0.10037486 0.011640012
0.046057038 -0.10068282 0.012084126
0.0475602 -0.10160588 0.013238758
0.048161123 -0.10060323 0.013532281
0.048968617 -0.1000663 0.013952762
0.050180309 -0.10036062 0.013952762
0.050571539 -0.099035934 0.013619632
0.05299389 -0.10166175 0.011230141
0.054681424 -0.10280108 0.011230141
0.055767629 -0.1027874 0.0086942911
0.056112166 -0.10143353 0.0064845979
0.05766362 -0.10227133 0.0066206753
0.05771634 -0.10046918 0.0057955086
0.060549475 -0.10348456 0.0050257444
-0.058431435 -0.10063192 0.0052447021
-0.057101902 -0.10019768 0.0068383217
-0.056035545 -0.10021742 0.0074104369
-0.055323143 -0.10088338 0.0076691806
-0.054560948 -0.10148336 0.0080914199
-0.053944658 -0.10238477 0.0090434849
-0.052923866 -0.10253999 0.0086709559
-0.050923277 -0.10076308 0.0097113252
-0.049326655 -0.099725626 0.011120558
-0.04817953 -0.099571019 0.011230409
-0.047674607 -0.10076679 0.011574835
-0.045167912 -0.097688735 0.013320893
-0.04483572 -0.099279098 0.012307316
-0.044435505 -0.10079273 0.012555033
-0.043198869 -0.10043737 0.013090879
-0.041305471 -0.098497659 0.013771802
-0.040621772 -0.099416442 0.01279369
-0.039765041 -0.099949963 0.012256533
-0.038668796 -0.099894397 0.012202799
-0.037463754 -0.099546544 0.012364626
-0.036640231 -0.10022181 0.011777192
-0.035569593 -0.10024159 0.012076944
-0.034339171 -0.099798217 0.012156785
-0.033523772 -0.10057131 0.010235935
-0.032796487 -0.10166911 0.009278506
-0.03146654 -0.10090994 0.0090334117
-0.030623851 -0.10171494 0.008924365
-0.029101307 -0.10023783 0.008924365
-0.027972383 -0.10005506 0.0090711713
-0.027220698 -0.101261 0.0072618127
-0.025836829 -0.10011771 0.007170707
-0.025084244 -0.10142759 0.0063842833
-0.0010684498 -0.09936583 0.0051037073
0 -0.09942136 0.005409658
0.0010905433 -0.10142054 0.010373145
0.0021174003 -0.098459117 0.01103285
0.003238769 -0.10040184 0.0093291104
0.0043543782 -0.10123929 0.0085434318
0.0054196659 -0.1008058 0.0074646175
0.014170779 -0.10137558 0.0074191689
0.015241338 -0.10124603 0.0081726313
0.016331274 -0.1012539 0.0098079741
0.016918017 -0.098335966 0.010978907
0.018363031 -0.10045658 0.011661887
0.019567221 -0.10109732 0.010521829
0.020184228 -0.098796487 0.010959893
0.021346133 -0.099259526 0.0097219646
0.023138152 -0.10246896 0.0096900463
0.023074362 -0.097541623 0.0097911656
0.024958767 -0.10092023 0.0097911656
0.025520928 -0.098893605 0.012075007
0.026580455 -0.098879293 0.01226905
0.028004747 -0.10017083 0.011871725
0.029299719 -0.10092126 0.012509733
0.030185847 -0.10026014 0.012465805
0.031009534 -0.099444367 0.012256205
0.031922199 -0.09895882 0.013252258
0.033171277 -0.099513829 0.014378726
0.034833711 -0.10123548 0.013243198
0.035237476 -0.099305615 0.015469164
0.036769029 -0.10057411 0.01357463
0.037933912 -0.10079583 0.013162673
0.038547393 -0.099580765 0.013142675
0.039657798 -0.099680409 0.014022231
0.041028529 -0.10041192 0.011278659
0.041489944 -0.098937556 0.011672497
0.043711957 -0.10163031 0.01171574
0.044457313 -0.10084219 0.012509286
0.045716655 -0.10122973 0.012714058
0.046232149 -0.099990465 0.013265222
0.047362801 -0.10010774 0.014195412
0.047948394 -0.099093348 0.014009297
0.049904957 -0.1008948 0.014439702
0.050820664 -0.10056004 0.014220953
0.051952656 -0.10065828 0.013619632
0.053401399 -0.10135368 0.011143446
0.054404713 -0.10119276 0.010931432
0.055040587 -0.10036813 0.0086942911
0.056905687 -0.10177363 0.0065547526
0.056639869 -0.099386945 0.0065576732
0.060110353 -0.10352338 0.0052525103
-0.057719957 -0.10019314 0.0062254071
-0.056780089 -0.10045708 0.0071903169
-0.055380117 -0.099901393 0.0081031621
-0.054428246 -0.10014797 0.0083787143
-0.053248148 -0.099976122 0.0090869367
-0.052649386 -0.10091133 0.01012677
-0.049940839 -0.097756535 0.011120558
-0.050290588 -0.10058118 0.012189299
-0.048381101 -0.09891247 0.012730092
-0.046985541 -0.098242499 0.012701631
-0.046305533 -0.099072307 0.013239205
-0.045453478 -0.099564761 0.013887793
-0.044042669 -0.098827451 0.012927085
-0.043108802 -0.099150248 0.012974888
-0.041761685 -0.098514743 0.013366669
-0.040679853 -0.09848807 0.012772858
-0.039893992 -0.099195875 0.012202799
-0.038361676 -0.098035395 0.012772858
-0.0377515 -0.099232517 0.012603611
-0.036849476 -0.099710353 0.012772858
-0.035426755 -0.0987655 0.012574583
-0.03459299 -0.099454843 0.012675554
-0.033586159 -0.099675052 0.011315554
-0.032243665 -0.098880574 0.010738611
-0.031793151 -0.10086104 0.0098384023
-0.030494502 -0.10019622 0.010163695
-0.028915487 -0.098526843 0.011049092
-0.027978428 -0.099000588 0.011283249
-0.026826316 -0.098720841 0.008924365
-0.026064526 -0.099914022 0.0083029568
-0.025118439 -0.10047375 0.0077829361
-0.017152455 -0.098626614 0.0072053373
-0.016158508 -0.099105522 0.008559823
-0.015537377 -0.10210276 0.007845521
-0.014032618 -0.099307761 0.0075152814
-0.0128679 -0.098653905 0.0055672526
-0.011882632 -0.099382021 0.0061582923
-0.01078049 -0.09918052 0.0064648092
-0.0098035103 -0.10021367 0.0062684417
-0.0087783616 -0.10095116 0.0062805414
-0.0076597808 -0.10067141 0.0069641769
-0.0065041045 -0.099729605 0.005474925
-0.0054137274 -0.099612594 0.0051441491
-0.0044128615 -0.10149582 0.0055330694
-0.0032831531 -0.10068336 0.0062067211
-0.0021724002 -0.099930406 0.0067815781
-0.0010695711 -0.098400541 0.0095158517
0 -0.10025962 0.010893703
0.0010618459 -0.09768983 0.01199168
0.0021596835 -0.099345446 0.012274474
0.0032330598 -0.099147171 0.011723876
0.0042060753 -0.096739739 0.010965675
0.0054318504 -0.099946052 0.0076438785
0.0066053523 -0.10128208 0.0054995716
0.013053937 -0.10008018 0.0069902241
0.014059642 -0.099499017 0.0079189837
0.015252189 -0.10022867 0.0096743703
0.016106844 -0.098788649 0.01125437
0.017406121 -0.1000852 0.012594551
0.01833272 -0.099212363 0.012710571
0.019175077 -0.09800595 0.012921095
0.020436643 -0.098956376 0.012072891
0.021759056 -0.10009166 0.012347996
0.022355696 -0.097939245 0.012052715
0.023808908 -0.09956453 0.012484133
0.024638094 -0.098552376 0.013147295
0.026044594 -0.099837609 0.014107317
0.026522331 -0.097602174 0.014400184
0.027606821 -0.097685672 0.013425678
0.028821029 -0.098204985 0.013447791
0.03032518 -0.099639878 0.013454288
0.031060852 -0.098537877 0.013498187
0.032266781 -0.098951459 0.014085323
0.033097539 -0.098224953 0.015041023
0.034496304 -0.099176869 0.01454851
0.034967404 -0.097484887 0.016030192
0.036986396 -0.10008084 0.014875531
0.037061416 -0.097418584 0.016040087
0.038839038 -0.099255331 0.01518774
0.040003486 -0.099468119 0.01642552
0.039508387 -0.09565188 0.017217308
0.041434072 -0.097741909 0.016838402
0.041836027 -0.096222863 0.016694307
0.044132371 -0.099028729 0.014631391
0.045292091 -0.099211246 0.012760788
0.046290282 -0.099039674 0.01352796
0.046281006 -0.096769385 0.01373592
0.048040856 -0.098216861 0.01472953
0.048897021 -0.097794041 0.013662189
0.049860366 -0.097599015 0.013952762
0.051485002 -0.098679595 0.012719095
0.052531119 -0.098629862 0.010184109
0.053679097 -0.098769538 0.008801043
0.056375604 -0.10169717 0.0088140368
0.055673428 -0.098499142 0.0060804188
-0.057181593 -0.10006779 0.0070498288
-0.055749796 -0.099475123 0.0081031621
-0.053961635 -0.098210171 0.008046031
-0.053068411 -0.098555624 0.0092650056
-0.050911684 -0.096520074 0.010972589
-0.050284132 -0.097358644 0.013009548
-0.049665272 -0.098250866 0.013345122
-0.048292723 -0.097658619 0.013981044
-0.046971776 -0.097146183 0.014354229
-0.045931228 -0.097203299 0.015667439
-0.044379923 -0.0961565 0.014234066
-0.043484222 -0.096513763 0.013014793
-0.042956859 -0.097726859 0.01346609
-0.041742627 -0.097399466 0.012830347
-0.041192215 -0.098644517 0.011688828
-0.039646015 -0.097507767 0.01181969
-0.038435675 -0.097156852 0.011688828
-0.037498176 -0.097495265 0.011964947
-0.036277078 -0.097094536 0.011964947
-0.035520211 -0.097949676 0.011879832
-0.034666691 -0.0985834 0.012282073
-0.033139322 -0.097279944 0.012095422
-0.032067195 -0.097270496 0.012033254
-0.031337366 -0.098334491 0.011294186
-0.029898124 -0.097168908 0.011576682
-0.029065695 -0.097962156 0.011078477
-0.028143223 -0.098501287 0.011459708
-0.026570819 -0.096717782 0.011339366
-0.026169814 -0.099227212 0.0095258057
-0.025204413 -0.099721804 0.0074819922
-0.018268947 -0.097792596 0.0079650283
-0.017227354 -0.097980574 0.0092602968
-0.016304534 -0.098914184 0.009890914
-0.014880287 -0.096721873 0.010341525
-0.014027106 -0.098189741 0.0085884035
-0.013220063 -0.10025215 0.0094590485
-0.011981924 -0.099123195 0.0088729858
-0.010877882 -0.098988734 0.008141011
-0.0097066555 -0.098145083 0.0075604618
-0.0085776895 -0.097571217 0.0083426833
-0.0075923684 -0.098700792 0.0090566874
-0.0064227441 -0.097411625 0.0085249543
-0.0053795124 -0.097907133 0.0083819628
-0.004365081 -0.0993056 0.0077594817
-0.0032571126 -0.098799087 0.0092446804
-0.0021302975 -0.096928537 0.0093140602
-0.0010759197 -0.097908698 0.010953158
0 -0.095679857 0.012538761
0.0010699147 -0.097362235 0.013713419
0.0021839265 -0.099368662 0.014243156
0.0031772053 -0.096375234 0.01428473
0.0042768521 -0.097298391 0.011695415
0.0053289779 -0.096987411 0.0087631345
0.0065368884 -0.099142812 0.0074405074
0.0076106787 -0.098938823 0.0060415268
0.012053187 -0.099712737 0.0051519573
0.012992561 -0.098526925 0.006200254
0.014193975 -0.099357828 0.0076036453
0.015173119 -0.09862528 0.0098079741
0.016086178 -0.097589485 0.01125437
0.017511576 -0.099597096 0.012594551
0.018127561 -0.097035773 0.012921095
0.019353339 -0.097841896 0.012921095
0.020580886 -0.098571613 0.012347996
0.021363469 -0.097203784 0.01234135
0.022846647 -0.099002138 0.010657698
0.023756504 -0.098265544 0.0098672509
0.024073899 -0.095248908 0.0099383593
0.025699722 -0.09744478 0.013118356
0.027082682 -0.098580964 0.013940394
0.027822329 -0.097378157 0.012608558
0.029195445 -0.09839946 0.013270229
0.030107401 -0.097849056 0.013832927
0.030903937 -0.096974425 0.013736576
0.032456782 -0.098452248 0.013876826
0.033150349 -0.097312309 0.015913785
0.034283526 -0.097493783 0.015913785
0.035709914 -0.098472804 0.016194761
0.03631334 -0.097191595 0.01613161
0.037485737 -0.097462922 0.016829312
0.038947415 -0.098450415 0.016557992
0.038824394 -0.095487021 0.018921852
0.039876137 -0.095492855 0.018120438
0.041394062 -0.096586145 0.018120438
0.042298824 -0.096229829 0.017267346
0.043142207 -0.095754661 0.016498297
0.044551332 -0.096527882 0.012337953
0.046630472 -0.098683089 0.012772053
0.047926404 -0.099120528 0.013411015
0.048218254 -0.097508028 0.01322183
0.049621787 -0.098164842 0.012635946
0.051053166 -0.09884762 0.012802362
0.050392956 -0.095536649 0.012195677
0.052958485 -0.098351479 0.011829913
0.053279955 -0.096969523 0.010664493
0.054934323 -0.098020069 0.008983314
-0.05712289 -0.098866545 0.0065139532
-0.05458409 -0.096324869 0.0083165467
-0.054338649 -0.097809568 0.0096008182
-0.052859232 -0.097088389 0.012739509
-0.051191125 -0.095983364 0.013252765
-0.050616398 -0.09692502 0.014202297
-0.04834557 -0.094589159 0.014877826
-0.047972474 -0.095944948 0.014479697
-0.047272637 -0.096694037 0.014821619
-0.045373093 -0.094966948 0.015686601
-0.044647139 -0.095672444 0.014760286
-0.044308279 -0.097262077 0.013606399
-0.043067385 -0.096901625 0.01303038
-0.042319205 -0.097659707 0.012484521
-0.040865306 -0.096786253 0.012332112
-0.039840363 -0.096908987 0.011354774
-0.038778342 -0.096945867 0.011354774
-0.037852213 -0.097334266 0.012332112
-0.036159404 -0.095716067 0.011879832
-0.035198722 -0.095996521 0.011941999
-0.034341723 -0.096586101 0.012655467
-0.033306003 -0.096694849 0.012282073
-0.032027405 -0.096082218 0.01208508
-0.03116313 -0.096713163 0.011960596
-0.030048747 -0.096585266 0.011576682
-0.029485153 -0.098283842 0.011576682
-0.027758516 -0.09608718 0.011515826
-0.026827034 -0.096577324 0.011006951
-0.025820404 -0.096826524 0.0096677542
-0.025019852 -0.097903773 0.0078852773
-0.019177599 -0.095888004 0.007479459
-0.018392941 -0.097374395 0.0091936886
-0.017342184 -0.097549789 0.0099132955
-0.016253551 -0.09752132 0.010893106
-0.014959038 -0.096165247 0.01051116
-0.014074841 -0.097441211 0.0098785162
-0.012913208 -0.096849069 0.0097436309
-0.01208518 -0.098878756 0.0084848702
-0.010999702 -0.098997325 0.0093889236
-0.0097257942 -0.097257957 0.0083267689
-0.0087279044 -0.098188929 0.0095490515
-0.0076006167 -0.097722217 0.0095490515
-0.0064775925 -0.097163893 0.0090223849
-0.0054172054 -0.097509705 0.0085796118
-0.0042981892 -0.096709266 0.0086647272
-0.0032356658 -0.097069979 0.0089429617
-0.0021789151 -0.098051183 0.010383666
-0.0010731675 -0.09658508 0.011377811
0 -0.096735276 0.012106627
0.00106591 -0.095931903 0.012942016
0.0021457211 -0.096557453 0.014116675
0.0032094321 -0.096282974 0.014267623
0.0043048514 -0.096859165 0.01362583
0.0052515427 -0.094527774 0.012398422
0.0065885861 -0.0988288 0.0086886585
0.0077904761 -0.10016327 0.0068388581
0.0086089503 -0.096850693 0.0062692463
0.011935383 -0.097653143 0.0067809224
0.013009538 -0.097571544 0.0068876445
0.014028464 -0.097120136 0.0089927614
0.014957374 -0.096154548 0.0099213421
0.016142087 -0.096852526 0.010660738
0.016871393 -0.094901592 0.012461245
0.018528339 -0.098091207 0.012347996
0.019292064 -0.096460335 0.011514425
0.020481292 -0.097016647 0.011685312
0.02133216 -0.095994726 0.011514425
0.022777814 -0.097619213 0.011482507
0.023571918 -0.096430577 0.0098672509
0.024521232 -0.095952645 0.010419369
0.025911622 -0.097168587 0.014620215
0.02660585 -0.095781058 0.013940394
0.027743081 -0.096033745 0.013456345
0.028667767 -0.095559224 0.013666004
0.030002216 -0.096435703 0.013876826
0.031101178 -0.096520901 0.013498187
0.032105722 -0.096317165 0.014345407
0.033666428 -0.097741239 0.015386134
0.034996483 -0.098427616 0.015464872
0.035167411 -0.09591113 0.0164648
0.036604866 -0.09689524 0.016849309
0.037514061 -0.096464738 0.01791954
0.037568722 -0.09392181 0.018930852
0.039274786 -0.095533259 0.018642157
0.040397119 -0.095677391 0.017677695
0.041180562 -0.095032074 0.016901404
0.04246347 -0.095542818 0.016106397
0.043155491 -0.094731562 0.015975296
0.044816155 -0.096034624 0.012020528
0.046675645 -0.09769322 0.012052536
0.04742879 -0.097013444 0.012675881
0.048430167 -0.096860334 0.012887388
0.049618252 -0.097079188 0.012487888
0.050483063 -0.096669704 0.013168395
0.051803719 -0.097131982 0.012742251
0.052106705 -0.095706202 0.011890233
0.053697944 -0.0966563 0.010664493
0.054945376 -0.09696243 0.0071869791
-0.056419015 -0.096563309 0.0053791106
-0.055549551 -0.096939407 0.0090391934
-0.053885665 -0.095916472 0.011603057
-0.052469999 -0.095302649 0.012840331
-0.051677719 -0.095819101 0.012932926
-0.050462369 -0.095556401 0.014073372
-0.048936944 -0.094682343 0.014704347
-0.048277285 -0.095481731 0.014570206
-0.046985075 -0.095037989 0.015821546
-0.045954447 -0.095115013 0.015811741
-0.045036245 -0.095433943 0.016013622
-0.043387085 -0.094181709 0.015410364
-0.043192007 -0.096102215 0.013971299
-0.042219076 -0.096346095 0.013325185
-0.041132376 -0.09633635 0.011998057
-0.039832909 -0.095814288 0.011274189
-0.038726274 -0.095739961 0.011688828
-0.037807893 -0.096140064 0.012148947
-0.036975157 -0.096787907 0.011271328
-0.035485581 -0.095703535 0.012128055
-0.034430169 -0.0957589 0.014127851
-0.033349406 -0.095745064 0.012452245
-0.032112051 -0.095265746 0.012343287
-0.031284682 -0.096011601 0.01146239
-0.030453755 -0.096799433 0.011807472
-0.028982844 -0.095536038 0.01123333
-0.028075956 -0.096106157 0.011006951
-0.026872465 -0.095665976 0.0099788904
-0.025782779 -0.09561114 0.0089300871
-0.025346143 -0.098078549 0.0067836046
-0.019482139 -0.096328363 0.0083131492
-0.018390592 -0.096280158 0.0093393326
-0.017036432 -0.094765149 0.011579067
-0.016388893 -0.097240761 0.010695159
-0.015200183 -0.096629731 0.01051116
-0.013929207 -0.095361494 0.010142952
-0.012983624 -0.096295208 0.0076604784
-0.012240184 -0.099034213 0.0073705316
-0.010680676 -0.095058024 0.0077943504
-0.0097770309 -0.096683979 0.0088843703
-0.0086263902 -0.095968582 0.0097189844
-0.0074767759 -0.095061861 0.010582805
-0.0065845978 -0.097671531 0.0096630454
-0.0054177106 -0.096435249 0.0086200237
-0.0043742806 -0.097327739 0.0094082952
-0.0032513172 -0.096455745 0.0086647272
-0.0021624586 -0.096229404 0.010383666
-0.0010782629 -0.095965393 0.010577977
0 -0.095250539 0.011673272
0.0010657638 -0.094852969 0.012726992
0.0021806713 -0.097039871 0.01332593
0.0031995361 -0.09491957 0.014845759
0.004186206 -0.093143083 0.014845759
0.0052638627 -0.093696758 0.014310092
0.0065324637 -0.096898206 0.011888921
0.0075888359 -0.096486628 0.0085149407
0.0088377651 -0.098320127 0.0065924227
0.0098080933 -0.096991144 0.0061506927
0.010868109 -0.096726172 0.0059987903
0.012020278 -0.097254969 0.0060228109
0.01320423 -0.09793137 0.0073656142
0.014117136 -0.096648082 0.0084837973
0.015006141 -0.095396176 0.00980708
0.01604004 -0.095170908 0.0119735
0.017228654 -0.095834382 0.011944622
0.018660523 -0.097693317 0.012363166
0.019149266 -0.094682485 0.011938632
0.020416493 -0.095635146 0.011205107
0.02178699 -0.096952103 0.01234135
0.022487836 -0.095305584 0.011966825
0.0237845 -0.096219108 0.012298346
0.024892362 -0.096322611 0.012053758
0.026179219 -0.097081266 0.014381826
0.02698683 -0.096073106 0.014583766
0.027703751 -0.09483207 0.014583766
0.029002087 -0.095599465 0.013612121
0.030192712 -0.095969684 0.013744652
0.031546392 -0.096814781 0.014345407
0.031932186 -0.09473215 0.014345407
0.032979596 -0.094683349 0.014948487
0.034033306 -0.094655126 0.015853941
0.035180159 -0.094879813 0.015391082
0.03632576 -0.09508802 0.015935451
0.037174821 -0.094530255 0.016697347
0.03787674 -0.093639724 0.017540425
0.039299928 -0.094532259 0.01841253
0.039877959 -0.09339837 0.017677695
0.041343268 -0.094347455 0.016863644
0.042625688 -0.094842151 0.016298175
0.044183534 -0.095910594 0.015975296
0.045180481 -0.095739588 0.012369543
0.045750819 -0.094693549 0.011950076
0.047576163 -0.096233599 0.012343735
0.048756517 -0.096429549 0.012524486
0.049883798 -0.0965143 0.011961043
0.050643019 -0.095898479 0.011515111
0.052250907 -0.096881889 0.010576695
0.052438147 -0.095244795 0.010403812
0.054638959 -0.097257338 0.0063597262
0.057164136 -0.099757023 0.0062015951
-0.056460585 -0.095548682 0.0073886216
-0.054327659 -0.093741842 0.01164937
-0.053694949 -0.094503105 0.011421204
-0.052323442 -0.09396863 0.012169868
-0.051170863 -0.093813248 0.012840331
-0.050363507 -0.094297633 0.013774306
-0.04888349 -0.093516238 0.014704347
-0.047767024 -0.093411066 0.015425771
-0.047111176 -0.094222352 0.015962183
-0.045379944 -0.092870578 0.016402841
-0.04425111 -0.092716612 0.016056657
-0.043659978 -0.093709216 0.014626771
-0.042813908 -0.094190605 0.013822556
-0.041822668 -0.094369091 0.01291734
-0.040552262 -0.0939105 0.012853891
-0.039787911 -0.094630696 0.012657285
-0.039494012 -0.09654092 0.011354774
-0.037875455 -0.095229715 0.011603534
-0.036340754 -0.094058424 0.013431519
-0.035063431 -0.093502484 0.01320377
-0.034613505 -0.095187135 0.013861299
-0.032733653 -0.092921332 0.012533635
-0.032342713 -0.094871953 0.011272639
-0.031616352 -0.095939271 0.012095422
-0.030271776 -0.095139861 0.011715412
-0.02903978 -0.094648167 0.011097163
-0.028410567 -0.09615884 0.011013776
-0.026934139 -0.094808169 0.0098640621
-0.025988946 -0.095292799 0.0086108446
-0.025236392 -0.096556626 0.0067660809
-0.020363946 -0.09431722 0.0066258907
-0.019488113 -0.095275216 0.0091779232
-0.018477149 -0.095646419 0.010695159
-0.01725677 -0.094912231 0.011946917
-0.016061882 -0.094229706 0.011093915
-0.014918226 -0.093771704 0.010723054
-0.01421588 -0.096230574 0.0088793933
-0.01309047 -0.095996782 0.0087899566
-0.011895646 -0.095165171 0.0087237954
-0.010859551 -0.095564045 0.0090170801
-0.0096562654 -0.09441682 0.0096074343
-0.0084551759 -0.093006931 0.010270953
-0.0075678299 -0.095138431 0.01067698
-0.0064344434 -0.094371833 0.010604173
-0.0053678695 -0.094474502 0.010270953
-0.0043646777 -0.096022911 0.0094082952
-0.0032153369 -0.09431655 0.0090223849
-0.0021351336 -0.093945876 0.0099071264
-0.0010856205 -0.0955346 0.010254025
0 -0.094350517 0.011109799
0.0011077735 -0.097484067 0.012035668
0.0022044508 -0.096995831 0.013953328
0.003226056 -0.094630972 0.01460588
0.0042708293 -0.093958244 0.014055073
0.0053589372 -0.094317295 0.014553726
0.0062604528 -0.091819972 0.014079928
0.0075344858 -0.094719246 0.011997163
0.0087157227 -0.095872954 0.0096601546
0.0097286021 -0.095124111 0.0081487596
0.010954805 -0.09640228 0.0073656142
0.012061317 -0.09649054 0.007789284
0.013026182 -0.095525332 0.0076454282
0.014286295 -0.096707225 0.0072256625
0.01496072 -0.094038814 0.008371681
0.016310938 -0.095690832 0.0098985434
0.017100625 -0.09405344 0.010823697
0.018009834 -0.093227372 0.010823697
0.01947419 -0.095207155 0.012566775
0.020481493 -0.094861649 0.01148662
0.02101212 -0.092453331 0.013469875
0.02251965 -0.094368048 0.011475682
0.024078282 -0.096313126 0.012701541
0.024622371 -0.094207324 0.011273026
0.026185844 -0.09601476 0.012053758
0.026990609 -0.095006935 0.014381826
0.027872829 -0.094338804 0.014277995
0.028633866 -0.09332519 0.013612121
0.029669568 -0.093247212 0.014620215
0.031264924 -0.09487287 0.013744652
0.032335587 -0.094851047 0.014948487
0.033449735 -0.094954088 0.015509129
0.034277231 -0.094262376 0.014468431
0.035768617 -0.095382981 0.014510155
0.036094584 -0.093421273 0.015339047
0.03683709 -0.092618965 0.01518622
0.038364269 -0.093779325 0.016619265
0.038589731 -0.091780975 0.017784566
0.039668977 -0.091864996 0.016848594
0.04163539 -0.093946517 0.016706973
0.042474888 -0.093444757 0.015508324
0.044366956 -0.095226631 0.014226586
0.045515075 -0.095364913 0.012020528
0.046146508 -0.094439365 0.011179894
0.048108999 -0.096217997 0.010680884
0.048502229 -0.094848797 0.011814624
0.049340829 -0.094391145 0.010992229
0.05074168 -0.095005699 0.011483699
0.052743696 -0.096696772 0.011483699
0.052705891 -0.094655484 0.0097322762
0.056142215 -0.098810293 0.0069379508
-0.05806553 -0.095315121 0.006888181
-0.055917908 -0.093554959 0.0075923502
-0.054412879 -0.092821971 0.010249525
-0.053778756 -0.093575031 0.011570394
-0.052553292 -0.093308911 0.013157129
-0.051711351 -0.093726821 0.012926698
-0.050592553 -0.093650043 0.013774306
-0.048870564 -0.092429101 0.014116496
-0.048098158 -0.092989765 0.011673272
-0.046708003 -0.092354462 0.015678227
-0.045367703 -0.091790468 0.015745908
-0.045366816 -0.093974113 0.016013622
-0.044095766 -0.093569063 0.015225768
-0.042641543 -0.092745356 0.014589459
-0.042297699 -0.094356403 0.0138596
-0.041055705 -0.093995951 0.013884991
-0.039878771 -0.093768999 0.012332112
-0.038497388 -0.093035355 0.011688828
-0.037338231 -0.092812181 0.012148947
-0.036161747 -0.092531532 0.012213051
-0.035567664 -0.093769297 0.013861299
-0.033644926 -0.091472141 0.014264703
-0.032944031 -0.092455819 0.012272954
-0.032272153 -0.093589239 0.01148808
-0.030962301 -0.092886902 0.011732191
-0.030468928 -0.094671309 0.010534257
-0.029245898 -0.094236784 0.010771036
-0.027919786 -0.093423903 0.010712445
-0.027150352 -0.094483219 0.009740591
-0.026173772 -0.094879925 0.0069426
-0.025112702 -0.09499152 0.0052188337
-0.020571321 -0.094194993 0.0069821179
-0.019273262 -0.093154103 0.0090051293
-0.018066786 -0.092459433 0.011181623
-0.017126685 -0.093126349 0.011847913
-0.016089009 -0.093316257 0.012929082
-0.015061059 -0.093593717 0.011116028
-0.014077748 -0.094212621 0.0087899566
-0.013093724 -0.094929501 0.0087266564
-0.012306092 -0.097330004 0.0080840588
-0.010924781 -0.095045596 0.0082428753
-0.0096655926 -0.093434066 0.0096029043
-0.0086573642 -0.09414883 0.0099011362
-0.0075167329 -0.093422249 0.010835439
-0.0064524575 -0.093560636 0.011187285
-0.0054469309 -0.094776593 0.010983437
-0.0043395497 -0.094385199 0.0091784596
-0.0032588411 -0.09450639 0.0087241828
-0.0021629408 -0.094087929 0.0093140602
-0.0010864851 -0.094524197 0.0093454719
0 -0.093684725 0.010169834
0.0011005466 -0.095747545 0.01082328
0.0021354142 -0.092890516 0.012586474
0.0032363194 -0.093853265 0.014084607
0.0042923624 -0.093358882 0.014055073
0.0053081135 -0.092361175 0.014512867
0.006357017 -0.092176743 0.014578581
0.0074904608 -0.093095727 0.013824224
0.0086425906 -0.093988165 0.013398319
0.0097658457 -0.094403185 0.0099604726
0.010723452 -0.093294032 0.0081250966
0.01199685 -0.094884187 0.0078839362
0.013101585 -0.094986491 0.007294476
0.013977104 -0.093539082 0.0076953471
0.015227793 -0.094629854 0.0077850223
0.016312294 -0.094611309 0.0090426803
0.017102869 -0.092996858 0.010900944
0.018331937 -0.093816385 0.011363953
0.019432908 -0.093925722 0.013512641
0.020028513 -0.091709502 0.012711674
0.021489635 -0.093479916 0.012711674
0.022610098 -0.093670405 0.012794077
0.023496563 -0.092918225 0.012622863
0.02469402 -0.09340781 0.010626316
0.025577063 -0.092716858 0.01188767
0.02699721 -0.093950287 0.012066334
0.028038831 -0.093822241 0.013267636
0.028947324 -0.093274705 0.013772428
0.029789845 -0.092561305 0.012933314
0.031382855 -0.094148561 0.012887388
0.032232933 -0.093475506 0.013899565
0.033165045 -0.093076095 0.013468266
0.034487002 -0.093761533 0.013997555
0.034693565 -0.091464847 0.014571726
0.036317199 -0.092929304 0.015541673
0.037568867 -0.093385473 0.016591817
0.038153376 -0.092203997 0.017005622
0.039338652 -0.092498988 0.017556906
0.04052591 -0.092782997 0.017069161
0.040708497 -0.090811267 0.016587615
0.042501595 -0.09244097 0.014484257
0.044183273 -0.093754746 0.014478594
0.045376774 -0.093994744 0.013389975
0.047426514 -0.095955968 0.011600971
0.046655871 -0.092251383 0.010918707
0.048223421 -0.093231939 0.011523902
0.050229665 -0.094999582 0.0097306967
0.050926406 -0.094268024 0.0097306967
0.05222832 -0.094663829 0.0093949139
0.053356271 -0.094734609 0.0082668066
0.053911828 -0.093806572 0.0067594945
-0.057534169 -0.093357332 0.007129997
-0.056007836 -0.092628345 0.0078218579
-0.055080149 -0.092880256 0.010933995
-0.054128624 -0.093101226 0.012378573
-0.053084716 -0.093169093 0.012731582
-0.0518457 -0.09289021 0.013076454
-0.05049587 -0.092396699 0.013479799
-0.048958164 -0.091530479 0.011513621
-0.04885067 -0.093359053 0.011513621
-0.046890944 -0.091650486 0.014947116
-0.045882907 -0.091765814 0.012201965
-0.045265477 -0.092686452 0.014340311
-0.043994289 -0.092280701 0.014365852
-0.042950526 -0.092343636 0.014152318
-0.041675944 -0.091900796 0.014035553
-0.041011315 -0.092815079 0.013893723
-0.039888222 -0.092713162 0.012275547
-0.038517125 -0.092013136 0.013212174
-0.037188992 -0.091378666 0.013775021
-0.036232818 -0.091647722 0.014388055
-0.035121195 -0.091527961 0.015581965
-0.033981711 -0.091325842 0.015649766
-0.033745959 -0.093617812 0.014744669
-0.031944498 -0.091574222 0.013945043
-0.031323113 -0.09288922 0.012732625
-0.030229811 -0.092848703 0.012338698
-0.029159758 -0.092879228 0.011097163
-0.027989836 -0.092581771 0.01025489
-0.027188126 -0.093527153 0.0092029274
-0.026035849 -0.093295127 0.0065635145
-0.020491412 -0.092750601 0.0078336
-0.019070942 -0.091116726 0.0097256005
-0.01843556 -0.09326224 0.011812896
-0.017016383 -0.091463059 0.013115138
-0.015889103 -0.091097519 0.012636662
-0.015257336 -0.093723632 0.011554211
-0.013833272 -0.091512419 0.0093824863
-0.01294174 -0.092749141 0.0082167685
-0.011997801 -0.093800992 0.0079914629
-0.010807059 -0.09294071 0.0075444281
-0.0097596245 -0.093258642 0.0091504455
-0.0085855443 -0.092294596 0.011205941
-0.007542728 -0.092667803 0.011456847
-0.0064633009 -0.092640646 0.011143297
-0.0053808959 -0.092551418 0.01099667
-0.0043179467 -0.092835851 0.010835439
-0.0032542653 -0.093288943 0.0091369152
-0.0021678736 -0.093218558 0.0089661777
-0.0010788793 -0.092783622 0.0089216828
0 -0.094147615 0.0096724629
0.0010714277 -0.092142776 0.011035532
0.002165966 -0.093136534 0.011448592
0.0032396009 -0.092868559 0.013180077
0.0042373533 -0.091103099 0.01351738
0.0053683785 -0.092336111 0.012969136
0.0064232447 -0.092066512 0.01385805
0.0073124156 -0.089838251 0.013447732
0.0085736234 -0.092166446 0.013481557
0.009739778 -0.093068995 0.012476385
0.010675948 -0.091813155 0.011637658
0.011821468 -0.092422396 0.01102373
0.013205595 -0.094640099 0.008705616
0.014093532 -0.093234137 0.0070407093
0.015428326 -0.094774 0.0077315271
0.016437773 -0.094243228 0.008705616
0.017110739 -0.09197022 0.0099325478
0.018363668 -0.092898555 0.01089099
0.019281054 -0.092120595 0.012765586
0.020344324 -0.09208484 0.012369215
0.021425687 -0.092130452 0.013566554
0.022221675 -0.091003045 0.013226032
0.023870116 -0.093310453 0.012278587
0.024891542 -0.09307272 0.012393773
0.026025852 -0.093259305 0.011810422
0.026822187 -0.092268318 0.011212558
0.028336326 -0.093727849 0.012093365
0.028812848 -0.091774255 0.012192637
0.030111574 -0.092485547 0.012428522
0.030981669 -0.091876671 0.012570262
0.031896342 -0.091436177 0.013374448
0.033384781 -0.092615843 0.013757914
0.034196615 -0.091903403 0.013550222
0.035242766 -0.09184479 0.014475942
0.036412589 -0.092102431 0.016498148
0.036752429 -0.090305969 0.016813725
0.038435888 -0.09181907 0.017529458
0.03954773 -0.091921747 0.017891645
0.040165465 -0.090900794 0.017984182
0.041303318 -0.091079108 0.016439945
0.042585049 -0.09155786 0.015229583
0.043381434 -0.0909952 0.013638735
0.045414921 -0.092992455 0.013389975
0.045938995 -0.091877989 0.012730241
0.048082776 -0.093979977 0.011413842
0.049002662 -0.093649529 0.011901081
0.049677577 -0.092875466 0.011052817
0.050971854 -0.093267649 0.0095927119
0.052092947 -0.0933332 0.0089076757
0.052986104 -0.092996016 0.0082266033
0.053643402 -0.092266649 0.0055579543
-0.058557305 -0.092173539 0.0066322982
-0.056713529 -0.09095566 0.008420974
-0.056199078 -0.091863878 0.0080794096
-0.055316146 -0.092193581 0.01027751
-0.054158844 -0.092070036 0.011005908
-0.052481778 -0.091039822 0.01125899
-0.051209327 -0.090683185 0.012152493
-0.050660595 -0.091620229 0.011544019
-0.049549975 -0.09155973 0.011016786
-0.047805525 -0.090299323 0.012307465
-0.047115549 -0.091018677 0.011730731
-0.046176467 -0.091279067 0.01264143
-0.044647947 -0.090358943 0.014062434
-0.043573711 -0.090335742 0.01350069
-0.042692091 -0.090720691 0.013731122
-0.041780416 -0.091059886 0.013731122
-0.040815454 -0.091297731 0.013731122
-0.039688662 -0.091176651 0.013765246
-0.038716327 -0.091413558 0.012461871
-0.037713286 -0.091589406 0.012820542
-0.036631145 -0.091577865 0.014388055
-0.035068404 -0.09032771 0.015474647
-0.034362406 -0.091275133 0.015542448
-0.032931611 -0.09029635 0.014904141
-0.032048181 -0.090803176 0.01450181
-0.031332139 -0.091835581 0.014247894
-0.029775342 -0.090389431 0.011751741
-0.028848402 -0.090819038 0.010050714
-0.028377064 -0.092771173 0.0094076693
-0.026826916 -0.091211513 0.008303225
-0.026456377 -0.093699671 0.0059662163
-0.021913193 -0.093131073 0.0067823529
-0.020525634 -0.091825202 0.0096378922
-0.019411016 -0.091663137 0.011078566
-0.018263627 -0.091318138 0.012560517
-0.017183363 -0.091286615 0.012738824
-0.016041156 -0.090899885 0.012911201
-0.014958021 -0.090816565 0.011635482
-0.014079805 -0.092060268 0.0093568265
-0.013075695 -0.092619509 0.0087899268
-0.011925884 -0.092154562 0.0086313486
-0.010735662 -0.091253132 0.0084324777
-0.0097941272 -0.092500091 0.010739535
-0.0084644649 -0.089934938 0.011850893
-0.0075411559 -0.091571175 0.011779547
-0.0063674864 -0.090206057 0.01099667
-0.0053213229 -0.090462491 0.010545194
-0.0043194382 -0.091788061 0.010122746
-0.0032124494 -0.091019407 0.0095124841
-0.0021623014 -0.091897815 0.0092925727
-0.0010900474 -0.092654034 0.0087644458
0 -0.091873564 0.008782655
0.0010803852 -0.091832735 0.0092386901
0.0021881866 -0.092997931 0.011482716
0.0031961671 -0.090558074 0.011715204
0.0043187225 -0.091772854 0.012009025
0.0053627724 -0.091167137 0.013028949
0.0063639083 -0.090155371 0.014113754
0.0074610063 -0.090597935 0.013282746
0.0084692352 -0.089985624 0.013914943
0.0096003916 -0.090670362 0.013224602
0.010686173 -0.090832472 0.012542486
0.011708799 -0.090477087 0.012510806
0.012907571 -0.09142863 0.011689126
0.014303776 -0.093524687 0.0076904893
0.015224235 -0.092432857 0.0090426803
0.016462257 -0.093286119 0.0083160102
0.017624866 -0.093632102 0.0085903406
0.01835987 -0.091799341 0.01056385
0.019014172 -0.089789152 0.013335913
0.020356964 -0.09107063 0.013389826
0.021331765 -0.090659998 0.013778746
0.022320563 -0.090345137 0.013226032
0.023963518 -0.092586324 0.012592226
0.024574142 -0.090817481 0.012307078
0.026067689 -0.092323072 0.011695653
0.026846264 -0.091277294 0.011106938
0.028083015 -0.091809861 0.012170613
0.029206738 -0.091947131 0.011780262
0.030008601 -0.091097534 0.012428522
0.030833518 -0.090374105 0.012775481
0.032280169 -0.091460481 0.013239324
0.033486556 -0.091817975 0.013735503
0.034255847 -0.090992101 0.013852924
0.035386223 -0.091146335 0.014227211
0.035810653 -0.089526631 0.014902383
0.03695203 -0.089740649 0.015961468
0.038202994 -0.090201519 0.01598385
0.038673259 -0.088843971 0.016611099
0.040217418 -0.089960016 0.016535372
0.04191009 -0.091342501 0.016166031
0.042817932 -0.090988107 0.016183048
0.043551814 -0.090290338 0.013638735
0.044817399 -0.090701878 0.01543206
0.046150964 -0.091228649 0.013697654
0.04693551 -0.090670876 0.012694627
0.048555199 -0.091715373 0.012553602
0.050065268 -0.092511907 0.011052817
0.051028207 -0.092285052 0.0092125535
0.052548561 -0.093054749 0.0091020167
0.053221732 -0.092323422 0.0078759491
0.055183053 -0.093811192 0.0053339303
-0.058052905 -0.090304516 0.006888181
-0.057036564 -0.090397574 0.0084110498
-0.056513321 -0.09129075 0.0087670088
-0.055361807 -0.091184154 0.0098343194
-0.054070327 -0.090838149 0.0099638402
-0.053222135 -0.091237947 0.0099638402
-0.05137996 -0.089914933 0.0099642277
-0.051126119 -0.091374338 0.010095626
-0.049738389 -0.090826616 0.010722369
-0.048558101 -0.090641782 0.010205626
-0.047227863 -0.090162285 0.011526406
-0.046429235 -0.090698972 0.012044817
-0.045303561 -0.090607122 0.013465822
-0.043914437 -0.089971043 0.01324147
-0.04307932 -0.090466574 0.012990683
-0.042039976 -0.090547644 0.013118446
-0.04086753 -0.090338744 0.013731122
-0.039712965 -0.090159163 0.012740612
-0.038607355 -0.090083838 0.013212174
-0.037332673 -0.089598417 0.013833702
-0.036192585 -0.089416981 0.014388055
-0.035256792 -0.08974456 0.015143871
-0.033770479 -0.088647507 0.015542448
-0.033027489 -0.089493841 0.015018672
-0.032125007 -0.089950018 0.014738023
-0.030937066 -0.089610815 0.014887661
-0.029967025 -0.089901075 0.011434227
-0.029091218 -0.090506017 0.010712445
-0.027734835 -0.089604855 0.0094076693
-0.027039966 -0.090854287 0.0076988339
-0.021700142 -0.091140598 0.0090474486
-0.020494087 -0.090605438 0.01156348
-0.019187953 -0.089543782 0.013466209
-0.01814615 -0.089663327 0.013239205
-0.017215889 -0.090383425 0.013360113
-0.015814895 -0.08856342 0.012636662
-0.015080799 -0.090484798 0.011230052
-0.014016359 -0.090567246 0.0090260208
-0.013052954 -0.091370687 0.0096145272
-0.012024431 -0.09182293 0.0087899268
-0.011007749 -0.092465103 0.0095192194
-0.0095499391 -0.089132778 0.010872245
-0.0085365195 -0.089633457 0.012191176
-0.0073749819 -0.088499784 0.01296854
-0.0064090122 -0.08972618 0.012280047
-0.005348776 -0.089859441 0.010527402
-0.0043624374 -0.091611184 0.010581642
-0.0031838201 -0.089146964 0.0097278357
-0.0021376163 -0.089779884 0.010177463
-0.0010784251 -0.090587713 0.0089749098
0 -0.090753399 0.010392278
0.001079917 -0.090713032 0.01060456
0.0021712719 -0.091193423 0.011494488
0.0032090615 -0.089853726 0.010609537
0.0043168482 -0.090653822 0.013862371
