ply
format ascii 1.0
comment PCL generated
element vertex 1299
property float x
property float y
property float z
element camera 0
property float view_px
property float view_py
property float view_pz
property float x_axisx
property float x_axisy
property float x_axisz
property float y_axisx
property float y_axisy
property float y_axisz
property float z_axisx
property float z_axisy
property float z_axisz
property float focal
property float scalex
property float scaley
property float centerx
property float centery
property int viewportx
property int viewporty
property float k1
property float k2
end_header
-0.057873964 0.066447884 0.00671345
-0.057349268 0.067087829 0.0074248314
-0.056095362 0.066882938 0.0085106492
-0.05420126 0.065891728 0.0094200075
-0.053145658 0.065900616 0.011501849
-0.052593607 0.066547021 0.012523949
-0.050575998 0.065327331 0.013151467
-0.049885333 0.06580618 0.015087396
-0.048975322 0.066010214 0.015459716
-0.047392882 0.065296859 0.015861243
-0.046602536 0.065667219 0.015243977
-0.045550194 0.065677024 0.015252948
-0.044275749 0.065359443 0.01402241
-0.042942367 0.064937234 0.014792264
-0.042140305 0.065317474 0.015393615
-0.041155085 0.065426037 0.016105264
-0.039899439 0.065099083 0.016382635
-0.03876058 0.064950161 0.018180966
-0.037669469 0.0648752 0.015708715
-0.036897816 0.06536185 0.014742553
-0.036114439 0.065855749 0.014640301
-0.034773983 0.065332942 0.013001651
-0.034203578 0.066269435 0.01188001
-0.032857955 0.065715909 0.011521071
-0.031748015 0.065612569 0.010550976
-0.031233821 0.066775754 0.0092880726
-0.029953301 0.066325173 0.0075668991
-0.029156214 0.066951305 0.0074005425
-0.028223148 0.067301355 0.0074005425
-0.026762959 0.066372134 0.0088180006
-0.025167907 0.065017097 0.013184279
-0.024135146 0.06505996 0.015211523
-0.023155136 0.065255389 0.016627431
-0.022085302 0.065204225 0.015692055
-0.020965232 0.064992219 0.015345961
-0.01992048 0.065003671 0.014914811
-0.019190552 0.066100791 0.013661742
-0.018272696 0.066641599 0.011451215
-0.017018452 0.065946504 0.011020392
-0.016170369 0.066837527 0.01130271
-0.014694901 0.065077424 0.011978656
-0.013700411 0.065340422 0.015540153
-0.012774701 0.066002622 0.016615778
-0.011561222 0.065163262 0.016615778
-0.010466902 0.064894795 0.016727269
-0.0095405774 0.065723985 0.014072537
-0.0084361313 0.065380022 0.013428628
-0.0074059917 0.065595925 0.01211375
-0.0064002997 0.066136435 0.011751652
-0.0053283395 0.066071413 0.011600375
-0.0042524254 0.065912597 0.011690885
-0.0031995096 0.066123202 0.012047768
-0.0021291829 0.066004671 0.013592005
-0.0010494166 0.065063834 0.016353965
0 0.065086447 0.017480552
0.0010462834 0.064869568 0.017663896
0.0020860401 0.064667247 0.018077552
0.0031243123 0.064569123 0.018545777
0.0042389287 0.065703399 0.015428126
0.0053313519 0.066108771 0.014831632
0.0062900437 0.064997122 0.01554504
0.0074540689 0.066021755 0.013645917
0.0087383166 0.067721955 0.012107581
0.0096907588 0.066758566 0.011575848
0.010743393 0.06660904 0.01193732
0.011638082 0.065596461 0.012661427
0.01268002 0.065513439 0.012995034
0.013762263 0.065635405 0.0139018
0.014779209 0.065450788 0.014657438
0.015827145 0.065418869 0.015458792
0.016526183 0.064038962 0.016824007
0.017854104 0.065114968 0.017361343
0.018670451 0.064309336 0.016280949
0.020064572 0.065473869 0.016387641
0.021095226 0.065395206 0.015830427
0.022143433 0.06537585 0.015599459
0.023565477 0.066411801 0.015785843
0.024108857 0.06498909 0.016027272
0.025302162 0.065363921 0.016405493
0.026229203 0.065048426 0.017145485
0.027367949 0.065262035 0.017429948
0.028138401 0.064614102 0.017371207
0.029222816 0.064707667 0.018271118
0.030369313 0.064927496 0.018277586
0.031208998 0.064498596 0.019430846
0.032310382 0.064620763 0.018272102
0.033428933 0.06476856 0.018272102
0.034599576 0.065005265 0.019037306
0.035344787 0.064452261 0.019040674
0.036488097 0.064636059 0.017114669
0.037829358 0.065150566 0.01708439
0.03895374 0.065273829 0.017191142
0.039915394 0.065125115 0.015431911
0.041328184 0.065701216 0.014796138
0.042329788 0.065611176 0.013650119
0.043394621 0.065621138 0.013263971
0.044353787 0.065474637 0.01356709
0.04566098 0.065836765 0.011435986
0.047185037 0.066488013 0.0082241893
-0.057713646 0.067332588 0.00522995
-0.057498693 0.068347506 0.0063925087
-0.05620791 0.068098046 0.0072687268
-0.054592375 0.067437641 0.0084524751
-0.053556107 0.067480691 0.0096400976
-0.05226326 0.067195624 0.011443287
-0.051168527 0.067158699 0.012527734
-0.050265878 0.067377672 0.013473868
-0.048543938 0.066484086 0.014544338
-0.047361568 0.066306189 0.015081674
-0.04704079 0.06735386 0.01556161
-0.045041088 0.065990433 0.015717
-0.044548422 0.066822633 0.015944391
-0.043528125 0.066884674 0.016120613
-0.041980531 0.066119336 0.01555869
-0.040971186 0.066184223 0.01606515
-0.040080335 0.066448979 0.016957521
-0.038890183 0.066218421 0.017174631
-0.037676822 0.065934442 0.016134232
-0.03687755 0.066379592 0.016139686
-0.035759967 0.066261113 0.01463899
-0.034875717 0.066580914 0.014861435
-0.0336161 0.066181697 0.012212306
-0.032934859 0.066932134 0.010097593
-0.03212883 0.067470543 0.0098297596
-0.030993735 0.067331217 0.0085507929
-0.030222915 0.068001561 0.0073985755
-0.029223038 0.068187088 0.0077610612
-0.028003011 0.067853451 0.0079002678
-0.026764818 0.067447342 0.0093767047
-0.025306981 0.066430829 0.015557826
-0.024048518 0.065872028 0.016422331
-0.023151625 0.066297837 0.017139852
-0.021999851 0.065999553 0.017018855
-0.020883862 0.065784171 0.015679598
-0.020014642 0.06636434 0.015321016
-0.019108515 0.066879801 0.013856143
-0.018094892 0.067057543 0.011815012
-0.017152568 0.067538239 0.011321247
-0.015887029 0.06672553 0.012333453
-0.014859542 0.06686794 0.013437122
-0.013665453 0.066224888 0.01588884
-0.012594995 0.066123724 0.016615778
-0.011535624 0.066067673 0.016276032
-0.010516506 0.06625399 0.016465753
-0.009435053 0.066045374 0.015548855
-0.0083370442 0.065654226 0.013442159
-0.0074394243 0.066954821 0.011805981
-0.0063548591 0.066726021 0.011358887
-0.0053741899 0.067714795 0.011274099
-0.0042471904 0.06689325 0.01139915
-0.0031350472 0.06583599 0.011274099
-0.0021329487 0.067187883 0.013920277
-0.0010537148 0.066384032 0.01558429
0 0.066262804 0.016353965
0.0010560639 0.066532023 0.017480552
0.0020921112 0.065901503 0.017974526
0.0031384802 0.065908089 0.017173409
0.0041573271 0.0654779 0.017758667
0.0052504204 0.0661553 0.015847564
0.0063299253 0.066464216 0.014909148
0.0074225613 0.066803053 0.014860928
0.0084632682 0.066648237 0.012309492
0.009811718 0.06868203 0.011424452
0.010723644 0.067558959 0.011359215
0.011711802 0.06707669 0.012188703
0.012749606 0.066935435 0.012294352
0.01380163 0.066884823 0.013539284
0.014723015 0.066253573 0.014479131
0.015736248 0.066092245 0.016120851
0.016803006 0.066161841 0.016737014
0.017696919 0.0655827 0.017053068
0.019309975 0.067584917 0.017057121
0.019778008 0.065579705 0.016983479
0.021090813 0.06643606 0.015935242
0.022537975 0.067613922 0.015599459
0.023424199 0.067078389 0.015236408
0.02439845 0.066830538 0.015563965
0.025356045 0.06655962 0.017070234
0.02593969 0.065368019 0.016867071
0.027527906 0.066702239 0.017392725
0.028228329 0.065866098 0.01749742
0.0293009 0.065927029 0.017852366
0.030511118 0.066282772 0.017852366
0.031417016 0.065975733 0.017858833
0.032616496 0.066285141 0.017357111
0.033591121 0.066132523 0.017557263
0.034178361 0.0652496 0.018635154
0.035492629 0.065765753 0.017635107
0.037014071 0.066625327 0.016656607
0.037527792 0.065673642 0.017036825
0.038996711 0.066399805 0.016812414
0.040381145 0.066947684 0.016610533
0.040681239 0.065715849 0.014860392
0.042426493 0.066821732 0.014433295
0.043351218 0.066612847 0.013665527
0.044485517 0.066728272 0.01356709
0.045435145 0.066567771 0.011663556
0.047209412 0.067595296 0.0091458857
-0.057109781 0.068962753 0.0062075853
-0.056366622 0.069374308 0.0063970685
-0.054894522 0.068887241 0.0070336163
-0.053562578 0.068560101 0.0092205107
-0.052091017 0.068037249 0.0099652112
-0.051410168 0.068546891 0.011677861
-0.049650751 0.067609534 0.013207555
-0.048696004 0.067750961 0.013473868
-0.047583126 0.06767378 0.014248401
-0.046438102 0.06754633 0.015072614
-0.045881178 0.068288267 0.015461177
-0.044596761 0.067956969 0.014837891
-0.043327246 0.067632772 0.015292615
-0.042323951 0.06771832 0.014756233
-0.040955473 0.067208983 0.015633583
-0.039814383 0.067055807 0.016373008
-0.039019462 0.067493118 0.016393989
-0.037746556 0.067104995 0.01668644
-0.036699623 0.067107879 0.016094565
-0.035925739 0.067624919 0.014587075
-0.034771208 0.067435071 0.014765859
-0.033787556 0.067575112 0.012693375
-0.033247877 0.068640776 0.010595888
-0.031981356 0.068226896 0.0096392035
-0.031150736 0.068746448 0.0068880916
-0.030239867 0.069119692 0.006652385
-0.029161492 0.069123536 0.0068945289
-0.028345283 0.069773011 0.0079002678
-0.02657271 0.068026133 0.01341328
-0.025220767 0.067255378 0.017133176
-0.023981171 0.066730209 0.017419845
-0.023114916 0.06724339 0.018551201
-0.021884028 0.066694178 0.017668903
-0.020883014 0.066825651 0.016422331
-0.01999777 0.067360908 0.015540719
-0.019129284 0.068015233 0.013804138
-0.018051084 0.067957021 0.012148857
-0.01686101 0.067444041 0.012397975
-0.015986484 0.068209 0.013377517
-0.0149094 0.068157256 0.015651166
-0.013584283 0.066876471 0.016726792
-0.012600958 0.067205109 0.016683131
-0.01144708 0.066601194 0.016604006
-0.01042516 0.066721022 0.016945571
-0.0095175412 0.067680299 0.015905917
-0.00840702 0.06725616 0.014296591
-0.0074483445 0.068099149 0.012503088
-0.0063375896 0.067600958 0.011446923
-0.0053386968 0.068335317 0.0115982
-0.0042652944 0.068244711 0.011446923
-0.0031349175 0.066878244 0.010688215
-0.0021253796 0.068012148 0.013395846
-0.001049875 0.067192003 0.01558429
0 0.067041919 0.015719831
0.0010504771 0.067230538 0.017799258
0.0021189977 0.067807928 0.017967284
0.003182241 0.067887805 0.018690884
0.004187989 0.067007825 0.019031167
0.0052228016 0.066851862 0.019060582
0.0063852705 0.068109557 0.018165112
0.0073421504 0.067128234 0.016247511
0.0084209852 0.067367882 0.013961673
0.009472576 0.067360543 0.01303035
0.010845898 0.069413744 0.010916889
0.011801947 0.06866587 0.011627525
0.012847951 0.068522409 0.012294352
0.013762654 0.067754604 0.013288051
0.014789774 0.067610398 0.014288723
0.015709408 0.067026809 0.016458809
0.016715657 0.066862628 0.016737014
0.017833255 0.067136958 0.017071456
0.018917073 0.067260705 0.017321557
0.020010341 0.067403257 0.01616618
0.02125947 0.068030305 0.016442776
0.021968629 0.066952012 0.015935242
0.023428388 0.068155311 0.014232725
0.024445724 0.068022884 0.015941799
0.025386654 0.067697741 0.01695019
0.026251199 0.067203067 0.017392725
0.027342325 0.067304187 0.019215018
0.028314775 0.067116506 0.018631637
0.029282887 0.066932313 0.017976016
0.030454084 0.067209013 0.019158065
0.031439148 0.067070179 0.018704504
0.032527644 0.067153849 0.017276615
0.033411093 0.066822186 0.017454088
0.034691993 0.067281447 0.017715454
0.035872698 0.067525081 0.016839415
0.037037645 0.067725979 0.015617877
0.037660193 0.066951461 0.014917403
0.039534159 0.068383411 0.016520202
0.039821215 0.06706731 0.014466494
0.041044295 0.067354746 0.014241725
0.042479739 0.067967586 0.013855577
0.043427944 0.067789957 0.013616025
0.044760257 0.068206102 0.012877047
0.045703534 0.068023868 0.0097012222
0.047217686 0.068680272 0.006842047
-0.056158584 0.07019823 0.0055672228
-0.054992069 0.070087925 0.0069207251
-0.05367028 0.069771364 0.0094967782
-0.052770592 0.070001811 0.0096908212
-0.050997216 0.069058731 0.011003822
-0.050142907 0.069346569 0.012254059
-0.048789911 0.068942264 0.012879938
-0.047836535 0.069097213 0.01317969
-0.046994004 0.06942296 0.014141113
-0.045878794 0.069351666 0.014207572
-0.044164561 0.068349913 0.014160365
-0.043619737 0.069153242 0.013733894
-0.042297903 0.068734095 0.014307082
-0.041294675 0.068824463 0.015633583
-0.040176876 0.068723597 0.016341299
-0.038820192 0.06819763 0.016873538
-0.037841909 0.068325676 0.016155899
-0.036947653 0.068617068 0.01607725
-0.035840355 0.068518318 0.014861435
-0.035054579 0.0690469 0.013254404
-0.03436764 0.069809265 0.011179298
-0.033162337 0.069533929 0.0092130005
-0.032471243 0.070354365 0.0075377822
-0.031500679 0.070604965 0.0066951811
-0.030147344 0.069984905 0.0066283643
-0.029270075 0.070464991 0.0068945289
-0.028395096 0.070987739 0.0089648068
-0.026104262 0.067871079 0.013143033
-0.02507391 0.067908511 0.01720807
-0.023843251 0.067383096 0.018738449
-0.023075452 0.068177469 0.019075006
-0.022062263 0.068287954 0.018442929
-0.02092653 0.068011217 0.016489297
-0.019979652 0.06835144 0.015185505
-0.019033035 0.068730406 0.013826162
-0.018118631 0.069277115 0.012651116
-0.016801475 0.068255983 0.012651116
-0.015926985 0.069016933 0.014597625
-0.014669445 0.068108134 0.017165422
-0.013740049 0.068700239 0.017369092
-0.012797426 0.069319397 0.01775831
-0.011584213 0.068452165 0.017787188
-0.010525758 0.06841743 0.017600834
-0.0095928693 0.069281839 0.016972542
-0.0085539138 0.069500551 0.014990121
-0.0071909903 0.066773482 0.012503088
-0.0063643479 0.068947107 0.011865705
-0.0053149345 0.069094151 0.011682987
-0.0042284722 0.068712674 0.012035549
-0.0031974216 0.069277465 0.012045264
-0.0021104615 0.06859 0.014032781
-0.001067398 0.069380865 0.015966147
0 0.067960978 0.016235143
0.0010550598 0.068578891 0.016773194
0.0021340542 0.069356762 0.017848939
0.0031501167 0.068252526 0.017984748
0.0042335275 0.068794824 0.017848939
0.0052345921 0.068049699 0.018209547
0.0062455535 0.067660168 0.017911762
0.0074003465 0.068717502 0.016157746
0.00839746 0.068229362 0.01510188
0.0095208446 0.068761654 0.013350159
0.010637069 0.069140956 0.013063699
0.011843639 0.069985144 0.012294352
0.012830635 0.069499269 0.012037724
0.013806519 0.069032595 0.013276011
0.014802498 0.068725884 0.014288723
0.015766397 0.068321057 0.016196102
0.016841887 0.068420164 0.016679138
0.017854886 0.068268679 0.017059267
0.018932384 0.068366945 0.017053068
0.020164702 0.068984509 0.016724288
0.020886855 0.067882277 0.016373008
0.022290725 0.068995096 0.013747543
0.023634721 0.069829859 0.013400584
0.024123808 0.068175979 0.015120715
0.025399789 0.068791099 0.01669246
0.026246931 0.068242021 0.017799109
0.027111437 0.067778595 0.018914968
0.028486922 0.068579629 0.018580347
0.029286569 0.067986675 0.017733514
0.030200193 0.067690082 0.017453104
0.031515095 0.068282709 0.017812222
0.032987464 0.069167256 0.017715156
0.033774365 0.068604179 0.016471177
0.035165437 0.069265254 0.015988082
0.03560381 0.068066105 0.015810311
0.036899377 0.068527415 0.014911592
0.038409516 0.069350518 0.015412986
0.038993169 0.06850151 0.015226692
0.040042527 0.068493791 0.013722628
0.041822717 0.069704525 0.013447225
0.042575818 0.069185704 0.013055861
0.043511715 0.068981983 0.010557503
0.045185387 0.069929764 0.0085394979
0.045937989 0.06944114 0.0075939298
0.047207255 0.069737993 0.0051430166
-0.054672148 0.070752189 0.0054413676
-0.053667121 0.070840597 0.0074535012
-0.05291668 0.071275532 0.0080520511
-0.051470421 0.070771828 0.008913666
-0.050221495 0.070523798 0.011493981
-0.048930194 0.070204191 0.011939347
-0.047973763 0.070361517 0.011142462
-0.047541302 0.071311951 0.012791306
-0.045338489 0.069589302 0.013247281
-0.044531688 0.069978364 0.013886034
-0.043408651 0.069877334 0.013722539
-0.042175833 0.069590129 0.014168829
-0.041290045 0.069875456 0.014516741
-0.039728526 0.069002174 0.014743924
-0.03889795 0.069385529 0.014714181
-0.038094457 0.069839835 0.014736176
-0.037050512 0.06986668 0.01492852
-0.036101349 0.070079081 0.014133483
-0.035216812 0.070433624 0.01316765
-0.034022 0.070170373 0.010299206
-0.033470906 0.071260631 0.0080018938
-0.032636568 0.071800448 0.0063315034
-0.031549096 0.071801387 0.0054419637
-0.02942702 0.071932711 0.006675452
-0.027790643 0.07054548 0.0089648068
-0.026281547 0.069383278 0.016974539
-0.025036564 0.068850555 0.018741131
-0.023844829 0.068424284 0.019480079
-0.023030596 0.069091789 0.019629717
-0.021754466 0.068371177 0.019423217
-0.020706695 0.068332091 0.016459972
-0.020305119 0.070533574 0.013370335
-0.019088211 0.069990106 0.013826162
-0.018025585 0.069981679 0.012915373
-0.016598569 0.0684691 0.013826162
-0.015688879 0.069031067 0.015506417
-0.014688857 0.069247462 0.016994804
-0.013729106 0.069701612 0.017187387
-0.012541204 0.068976618 0.017879099
-0.011537923 0.069227539 0.016829073
-0.010647266 0.070271961 0.017022103
-0.0094634602 0.069398709 0.016107827
-0.008546656 0.070509911 0.014686018
-0.0074891918 0.070612378 0.012503088
-0.0063589239 0.069948167 0.011366159
-0.0053480081 0.070593707 0.011470944
-0.0042792461 0.070607558 0.012904704
-0.0031775574 0.069906265 0.012613773
-0.0021223745 0.070038356 0.015142858
-0.0010594523 0.069923848 0.016040772
0 0.069423757 0.015966147
0.0010533759 0.069522806 0.015907317
0.002096144 0.069172755 0.016164482
0.0031864007 0.070100822 0.015954554
0.0042912778 0.070806086 0.014550388
0.0052201734 0.068906292 0.015674829
0.0062954002 0.069249399 0.016543329
0.0074213995 0.069973193 0.016790569
0.0084172124 0.069442004 0.016030878
0.0094742868 0.069478102 0.015667468
0.010448792 0.06896203 0.015667468
0.011611354 0.069668122 0.014595747
0.012944595 0.071195267 0.014288723
0.0139003 0.070570752 0.014288723
0.014749464 0.069533184 0.015703142
0.015910726 0.07000719 0.01700145
0.016607227 0.068504803 0.017001688
0.017743552 0.068886735 0.017327756
0.018980026 0.06959343 0.017358571
0.019913472 0.069173113 0.017087936
0.021272734 0.070200026 0.01594308
0.022565747 0.070920914 0.01575315
0.023129718 0.069389157 0.015167207
0.024194349 0.069427259 0.01695019
0.025062509 0.068921901 0.017702281
0.026024839 0.068705574 0.01813677
0.027263023 0.069206133 0.018914968
0.028086629 0.068656199 0.018772304
0.029599292 0.069769762 0.017686516
0.030539745 0.069504246 0.016568244
0.031520605 0.069345325 0.016113102
0.032494619 0.069182083 0.014945626
0.034254227 0.070649341 0.012278378
0.03467264 0.069345281 0.010858774
0.036403023 0.070664689 0.013706744
0.037360996 0.070452161 0.01225248
0.037982274 0.069634169 0.013862371
0.039345741 0.07018429 0.013366491
0.040429592 0.070219815 0.012189776
0.041378796 0.070025653 0.012006193
0.04289908 0.070783481 0.0098710656
0.043965738 0.070774116 0.0078947246
0.044858426 0.070491806 0.0065663755
-0.054341085 0.072817057 0.0054413676
-0.052632298 0.071966618 0.0056370199
-0.05181396 0.07232365 0.0076857507
-0.04976907 0.070947401 0.0084607303
-0.04907833 0.071483657 0.010371178
-0.048347298 0.071983755 0.010769844
-0.046833079 0.071314007 0.011142462
-0.045742087 0.071272559 0.011722773
-0.044473674 0.070946097 0.012460768
-0.04322201 0.070631094 0.013252258
-0.042618569 0.071386106 0.013275892
-0.040995684 0.070428483 0.013360679
-0.039931025 0.070404701 0.013566941
-0.038917806 0.070472784 0.013566941
-0.038389705 0.071447514 0.013538629
-0.037130009 0.071077451 0.013143182
-0.036437307 0.071802929 0.012516141
-0.034983106 0.07102631 0.011530131
-0.034273077 0.071759254 0.0098709464
-0.03347604 0.072351433 0.006208688
-0.032364357 0.0722804 0.0056038201
-0.028998798 0.07195998 0.0064060986
-0.027643697 0.071235687 0.0099309087
-0.026527563 0.071093865 0.0169698
-0.024927061 0.06958805 0.019561857
-0.024046501 0.070048504 0.019417465
-0.022976395 0.069973573 0.020542473
-0.021765871 0.069443494 0.018847823
-0.021061132 0.070554793 0.016538024
-0.020228444 0.071331881 0.014514625
-0.019074021 0.070997752 0.014219522
-0.018052015 0.071146175 0.014039248
-0.016676476 0.069832742 0.016201377
-0.015771788 0.070447318 0.016638339
-0.014665254 0.070183717 0.017938733
-0.013581346 0.069996171 0.018059522
-0.012377442 0.069107391 0.018059522
-0.011360006 0.069192775 0.017034531
-0.010484849 0.070248492 0.016589999
-0.0094066067 0.070026964 0.016107827
-0.0084210252 0.070526086 0.015390754
-0.007365365 0.070497066 0.012336254
-0.0064050602 0.071523175 0.011974663
-0.0053344211 0.071481243 0.013710409
-0.0043058991 0.072123811 0.013348818
-0.0031436186 0.070207484 0.013857752
-0.0021251247 0.071191676 0.015272111
-0.0010557163 0.070732996 0.015886635
0 0.071039423 0.015834272
0.001045974 0.070080258 0.015907317
0.0021091281 0.070655786 0.015954554
0.003183489 0.071097925 0.015968412
0.0042075189 0.070475936 0.015199006
0.005261058 0.070498183 0.014103651
0.0064072246 0.071547344 0.014550388
0.0073851477 0.070686415 0.014595777
0.0084955813 0.071150497 0.014280587
0.0094125587 0.070071273 0.015167862
0.010388658 0.069604009 0.016046762
0.011539211 0.070284292 0.016479641
0.012664534 0.070710324 0.017078727
0.013693085 0.070572056 0.014928907
0.014921049 0.071407877 0.016679138
0.015854722 0.070817754 0.017452568
0.016804351 0.070368223 0.017007887
0.017805848 0.07017599 0.01780349
0.018933436 0.070474461 0.018063396
0.019896308 0.070160665 0.017522067
0.021260548 0.071222842 0.016454667
0.022285488 0.071101323 0.016471863
0.023202302 0.07066156 0.016373008
0.024518786 0.071424291 0.017901093
0.025105719 0.0700868 0.017770559
0.025888307 0.069380663 0.01813677
0.027094444 0.0698203 0.01913926
0.028025096 0.069543757 0.018482149
0.029179176 0.069821604 0.015915066
0.030551815 0.070585229 0.016169459
0.031513326 0.070379764 0.014998615
0.033191636 0.07173676 0.012595832
0.033912405 0.0710041 0.01020053
0.035388596 0.071849577 0.0096103847
0.036875375 0.072666183 0.010462701
0.037088066 0.070997164 0.010953575
0.038053297 0.070821419 0.011837751
0.039513882 0.071552165 0.011990309
0.039844565 0.070252262 0.01146549
0.041635368 0.071527429 0.0097958148
0.043027926 0.072071783 0.006621182
0.044424053 0.072595403 0.0059069991
-0.051489264 0.072943121 0.0058306158
-0.050725609 0.073390238 0.0077161491
-0.049239803 0.072789274 0.0086753666
-0.048029274 0.072577566 0.010861337
-0.046903502 0.072487228 0.011104494
-0.045690119 0.072254144 0.012549162
-0.044254724 0.071650505 0.012197167
-0.043491364 0.072132014 0.0122765
-0.042448115 0.072161801 0.012587309
-0.041184384 0.071808673 0.012613058
-0.040308256 0.072130561 0.012084901
-0.039240874 0.072118357 0.012725711
-0.038085233 0.071938775 0.012634039
-0.037190355 0.072255544 0.012309134
-0.036045678 0.072091356 0.01149258
-0.035344522 0.072831139 0.010265231
-0.034427859 0.073159203 0.0086946487
-0.033016447 0.072423168 0.0057083964
-0.029179674 0.073489547 0.0055489838
-0.028055096 0.073374867 0.01189968
-0.026260225 0.071427815 0.01531902
-0.024998965 0.070830405 0.019561857
-0.023858603 0.070538476 0.021164238
-0.022820419 0.070535839 0.021463275
-0.02153887 0.069744915 0.020171404
-0.020807553 0.070745684 0.017944962
-0.020150572 0.072117835 0.014117271
-0.019070536 0.072044253 0.014739811
-0.018015016 0.072060063 0.014739811
-0.016840719 0.071573049 0.016450644
-0.015853632 0.071869805 0.017537713
-0.014450658 0.07018891 0.019116402
-0.013721841 0.071775787 0.018849224
-0.012655741 0.071715862 0.017951727
-0.011560262 0.071463443 0.017784864
-0.010390409 0.070654787 0.016612649
-0.009497406 0.071758181 0.016107827
-0.0084411334 0.071749635 0.015472591
-0.0073434124 0.071336009 0.014929175
-0.0064208256 0.072769359 0.014059961
-0.0053535718 0.072808579 0.015867829
-0.0042031482 0.071453519 0.015000224
-0.0031919214 0.072350219 0.015624046
-0.0021131923 0.071848541 0.015951008
-0.0010546822 0.071718387 0.016990244
0 0.071469255 0.016786784
0.0010421185 0.070864059 0.016356766
0.0021186024 0.072032481 0.016429812
0.0031645107 0.071728908 0.016234279
0.004260133 0.072422259 0.013437957
0.0053157038 0.072293572 0.01369831
0.0063569923 0.072045915 0.013634771
0.007432607 0.072202474 0.014108926
0.0084853675 0.072125629 0.01473847
0.009454676 0.071435332 0.016039461
0.010494374 0.071361743 0.016619414
0.011473671 0.070928149 0.018226177
0.012499995 0.070833303 0.018594682
0.013635143 0.071322292 0.017310828
0.01464579 0.071136691 0.018072844
0.015737394 0.071342848 0.018167973
0.016782092 0.071323894 0.018506199
0.017738318 0.070953272 0.018384725
0.018843532 0.071186684 0.018551588
0.020075273 0.071848348 0.017697632
0.020915624 0.071113124 0.017549545
0.021971287 0.071145117 0.016732484
0.023236392 0.071821578 0.016805321
0.024060139 0.071134329 0.017387152
0.025353255 0.071834221 0.016892284
0.026174726 0.071195252 0.017074853
0.027072459 0.070804894 0.017320752
0.028214468 0.071058661 0.015645832
0.029541722 0.071744181 0.015377551
0.030495878 0.071507573 0.014712036
0.032014836 0.072566964 0.013050437
0.033090767 0.072586201 0.0099778771
0.034289788 0.072865799 0.008684665
0.035565969 0.073287457 0.0095090866
0.036322672 0.072645344 0.0096063912
0.037924014 0.073680945 0.010094285
0.038690958 0.073082924 0.010437012
0.03898615 0.071650214 0.011351317
0.040494751 0.072464287 0.009759903
0.041996498 0.073224664 0.0066577196
0.043304782 0.073618136 0.0055950582
-0.051016197 0.07489612 0.0063627064
-0.049378883 0.074068323 0.0080851614
-0.048383106 0.074187428 0.0084065795
-0.047296897 0.074170135 0.011130124
-0.045165155 0.072474316 0.011584371
-0.0447938 0.073589817 0.011475325
-0.043576408 0.073335901 0.011760622
-0.042476077 0.073271237 0.012245953
-0.04141235 0.073268004 0.012245953
-0.040296186 0.073169388 0.012245953
-0.039348677 0.073379964 0.012230992
-0.038532786 0.073854513 0.010007739
-0.036864895 0.07267651 0.010815948
-0.036146834 0.073356807 0.0096987784
-0.035612546 0.074462593 0.0093795359
-0.03423728 0.073824137 0.007788986
-0.033333402 0.074193694 0.0057083964
-0.02917245 0.074551813 0.006116569
-0.027440108 0.072821826 0.012252271
-0.026445765 0.072990306 0.014776915
-0.024941098 0.071705662 0.019338429
-0.023919083 0.071757242 0.020650208
-0.022985196 0.072089933 0.020776898
-0.021812215 0.071668707 0.019396961
-0.021007774 0.072476827 0.018450469
-0.02005668 0.072837412 0.015222758
-0.019085312 0.073160373 0.016035497
-0.01780954 0.072285786 0.015261054
-0.016936516 0.073038727 0.015999973
-0.015605661 0.071786039 0.018297672
-0.014638025 0.072144553 0.019440442
-0.013825446 0.073381215 0.019116402
-0.012233892 0.07034488 0.018338442
-0.011484099 0.072036624 0.01653561
-0.010492415 0.072397664 0.0165115
-0.0094858892 0.072725154 0.015495151
-0.0084880879 0.073209763 0.015107483
-0.0073576029 0.072524942 0.015934587
-0.0062624249 0.072017886 0.015503436
-0.005189721 0.071618147 0.016215384
-0.0042153406 0.072714619 0.015867829
-0.0031552631 0.072571054 0.015187621
-0.0021017382 0.072509967 0.015304357
-0.0010662011 0.073567882 0.017005354
0 0.072456948 0.015585572
0.0010386207 0.071664833 0.015881509
0.0020928453 0.072203159 0.015954554
0.0032068174 0.073756799 0.014059663
0.0043201293 0.074522227 0.012646854
0.0053315181 0.073574953 0.012150407
0.0063395696 0.072905049 0.011953384
0.0074669467 0.073602766 0.012736797
0.0084462753 0.072849125 0.014370948
0.0094123594 0.072161421 0.01663962
0.010437151 0.072016343 0.017961919
0.011490045 0.072073922 0.018802971
0.012589939 0.072392151 0.018778533
0.013533447 0.071831375 0.018778533
0.014660725 0.072256431 0.018656462
0.01564079 0.071947627 0.018874913
0.016587794 0.071534865 0.019125074
0.017744223 0.072020665 0.018506199
0.019026965 0.072936699 0.018505156
0.019813769 0.071955264 0.017466128
0.021139808 0.07293234 0.01719588
0.02207811 0.072542362 0.016732484
0.023040637 0.072263822 0.016805321
0.024272315 0.072816946 0.017388731
0.025240537 0.072566546 0.015968502
0.026307823 0.072609589 0.015603006
0.027430754 0.072797 0.015436441
0.02841809 0.072624005 0.015269905
0.02918205 0.071912907 0.014104754
0.030782221 0.073240452 0.013292938
0.031796657 0.073132314 0.011611491
0.033279538 0.074073806 0.007904321
0.034785505 0.075006247 0.0062354505
0.035545349 0.074322097 0.0077648163
0.036611013 0.074298814 0.0086126029
0.037501872 0.07393226 0.008467108
0.038177256 0.073173076 0.0088270009
0.039384104 0.073446028 0.0088270009
0.041055504 0.074548148 0.0062036812
-0.050577145 0.075327657 0.0063713491
-0.049888182 0.075916797 0.0076131821
-0.048413999 0.075310662 0.0080851614
-0.046546776 0.074051686 0.0096159875
-0.045737047 0.074455656 0.0096489191
-0.045118887 0.075198144 0.0096489191
-0.043923292 0.07499098 0.010277361
-0.043017823 0.075281188 0.010136217
-0.041590914 0.074650362 0.0093668401
-0.040186178 0.074027166 0.0087331831
-0.039746087 0.07519529 0.0097995698
-0.038172055 0.074223444 0.008738786
-0.037264168 0.074528337 0.009460628
-0.036514286 0.07517647 0.0091996789
-0.035234127 0.074739054 0.0089503527
-0.034211438 0.074837521 0.0070205927
-0.033493944 0.075631484 0.0055535138
-0.02900972 0.075210385 0.0062657595
-0.027568847 0.074223816 0.01374653
-0.026602516 0.074487038 0.017184377
-0.024933498 0.072722703 0.021107078
-0.0238249 0.072510563 0.020387352
-0.022660188 0.072100602 0.021038949
-0.022009624 0.073365413 0.020834655
-0.021166911 0.074084193 0.018904269
-0.019807713 0.072975785 0.017074496
-0.018920673 0.073580392 0.016245931
-0.017965274 0.073974654 0.015709102
-0.01671621 0.073133416 0.016759932
-0.015668416 0.073119268 0.01817131
-0.014973897 0.074869484 0.018825769
-0.013292843 0.071576849 0.017233163
-0.012513313 0.072994329 0.016858995
-0.011623899 0.073970266 0.015556395
-0.010537831 0.073764816 0.015021086
-0.009386776 0.073008262 0.014416337
-0.0084600104 0.074025087 0.015712231
-0.0074108327 0.074108325 0.014939249
-0.006297261 0.073468044 0.014411658
-0.0052439882 0.073415838 0.016335726
-0.0042097201 0.073670104 0.016065478
-0.0031151937 0.072687849 0.014283866
-0.0021087804 0.073807314 0.014622658
-0.0010400448 0.072803132 0.015474498
0 0.073661052 0.015768856
0.0010500152 0.073501065 0.016097039
0.0021003718 0.073513009 0.015585572
0.0032514124 0.075866289 0.013184845
0.0042575276 0.07450673 0.012027413
0.0053409827 0.074773759 0.010944247
0.006442477 0.075162232 0.011456937
0.0074230232 0.074230231 0.01218912
0.0084475195 0.073915794 0.014035791
0.0093148993 0.072449215 0.016639382
0.010444762 0.073113337 0.018271267
0.011454824 0.072894342 0.019328892
0.012511152 0.072981723 0.019559771
0.013523846 0.072820708 0.019510686
0.014643628 0.073218137 0.020146161
0.015643207 0.073001631 0.020081669
0.016599059 0.072620876 0.020491838
0.017887741 0.073655404 0.020491838
0.01887531 0.073403984 0.018740267
0.019942228 0.07347136 0.017466128
0.021330085 0.074655294 0.016952336
0.022082683 0.073608935 0.016864538
0.023187967 0.073779896 0.016952336
0.024420729 0.074323952 0.016805321
0.025152227 0.073360659 0.016283125
0.026482617 0.07415133 0.014600098
0.027431704 0.073854588 0.014254034
0.028059885 0.072747841 0.014150977
0.02959764 0.0739941 0.012745708
0.030604254 0.073872335 0.011611491
0.032291871 0.075347699 0.0091454983
0.03351808 0.075685985 0.0068380237
0.034207609 0.074829139 0.0060970187
0.035325002 0.074931823 0.0062354505
0.036605865 0.075365014 0.0063518286
0.037245318 0.074490637 0.0069119334
0.038286209 0.074445404 0.0069622397
0.040075846 0.075819165 0.0061195195
-0.049713463 0.076731645 0.0063713491
-0.048092816 0.075879768 0.0082185268
-0.047288742 0.076306827 0.0080851614
-0.046623964 0.076983757 0.0084317029
-0.044821404 0.075769514 0.0081593096
-0.044005126 0.076203994 0.0071523488
-0.043647289 0.077473938 0.008151114
-0.042190954 0.076809175 0.0068284869
-0.041111823 0.076814197 0.0066856742
-0.039556693 0.075906083 0.0081965327
-0.038592916 0.076113805 0.0072774589
-0.037420038 0.07590922 0.0075628757
-0.036254697 0.07570833 0.0085315704
-0.035339627 0.076033749 0.0058077872
-0.034936205 0.077514701 0.0056830347
-0.028919745 0.076048218 0.0084325969
-0.027501037 0.075098984 0.014211982
-0.026131278 0.074212827 0.017204136
-0.024882609 0.073611051 0.018840075
-0.023875413 0.073702358 0.020279735
-0.022678232 0.073188841 0.020747125
-0.022185333 0.07500755 0.020321399
-0.020763323 0.073709801 0.018934041
-0.019838011 0.074131511 0.018038332
-0.018783052 0.0740887 0.018417031
-0.017898466 0.07475242 0.018496186
-0.016698521 0.074099682 0.018351674
-0.01599111 0.07569126 0.018825769
-0.014569337 0.073887348 0.019023716
-0.013372199 0.073032774 0.017834038
-0.012639035 0.074780963 0.017649084
-0.011549619 0.074547544 0.016858995
-0.010509925 0.07462047 0.015331924
-0.0093789864 0.073989779 0.014939249
-0.0084794462 0.075255081 0.015928924
-0.0073643867 0.074695922 0.014939249
-0.0062571117 0.074042484 0.014588237
-0.0052807694 0.074986927 0.015659004
-0.004230014 0.075082749 0.0149737
-0.0031248496 0.073954776 0.014096767
-0.0021332148 0.075729124 0.014880866
-0.001063255 0.075491108 0.016135991
0 0.074979819 0.016135991
0.0010498067 0.074536271 0.016135991
0.002107159 0.074804142 0.017089099
0.0031844648 0.075365663 0.014672428
0.0042645936 0.075696535 0.010916114
0.005414342 0.076883659 0.010498852
0.0063939816 0.075662114 0.01072219
0.007450107 0.075565368 0.010526896
0.0084544765 0.075033471 0.013703227
0.0093444129 0.073717035 0.016000509
0.010460109 0.074266776 0.017608672
0.011414285 0.073674023 0.019361943
0.012511572 0.074026801 0.019167632
0.013492332 0.073688887 0.019514889
0.014661739 0.07435596 0.020065904
0.015511441 0.073420815 0.020820081
0.016698521 0.074099682 0.020850748
0.017436525 0.07282313 0.020850748
0.019126367 0.075442895 0.018648624
0.020002093 0.074744657 0.017670065
0.021029565 0.074654959 0.016952336
0.022316279 0.075450271 0.016714483
0.023455055 0.075695857 0.015608549
0.023985704 0.074042819 0.015129954
0.025229258 0.074636556 0.013099223
0.026672089 0.075748727 0.013078153
0.027449632 0.074958608 0.012865305
0.028754765 0.075614378 0.010660261
0.029325109 0.074360095 0.010522693
0.030796172 0.075397521 0.0097537041
0.032332037 0.076519147 0.0068380237
0.033739526 0.07727439 0.0062043667
0.034403764 0.076333344 0.0056931078
0.035487734 0.076352395 0.0060970187
0.036545582 0.076315768 0.0068129301
0.03751215 0.07609608 0.0061421692
-0.048550021 0.077680029 0.0064371824
-0.047767278 0.078164637 0.0072627366
-0.045965027 0.076964691 0.0085840821
-0.045158215 0.077414081 0.0078787208
-0.044632547 0.078379102 0.0056016147
-0.04333235 0.077998228 0.0051576197
-0.02889758 0.077060208 0.0088780522
-0.027297653 0.075593501 0.013566107
-0.02622932 0.075540438 0.01734373
-0.024896314 0.074688941 0.018630892
-0.023776913 0.074432068 0.018241346
-0.022636803 0.074084081 0.018582046
-0.021793153 0.074719377 0.019300938
-0.020967737 0.075483851 0.019018263
-0.019610761 0.074314453 0.018563569
-0.018741481 0.074965924 0.019000292
-0.017764337 0.075237192 0.018113106
-0.016852489 0.075836197 0.018582076
-0.015782695 0.075756937 0.01859656
-0.01458067 0.074986301 0.018014729
-0.013601898 0.075333588 0.015709102
-0.012670279 0.076021671 0.016487688
-0.011629748 0.076121986 0.014738053
-0.010547372 0.075941078 0.014832467
-0.0094148852 0.075319082 0.01458621
-0.008437857 0.075940713 0.014641464
-0.0073918607 0.076030567 0.014142305
-0.0062515233 0.075018279 0.013765931
-0.0053597922 0.077181011 0.01396066
-0.0041835369 0.075303659 0.014189601
-0.0031902872 0.07656689 0.013757437
-0.002113448 0.076084122 0.014096767
-0.0010552934 0.075981118 0.015255928
0 0.075523347 0.015255928
0.0010353697 0.074546613 0.017081022
0.0020864434 0.075111955 0.015638262
0.0031677836 0.076026805 0.014504761
0.0042507458 0.076513425 0.010944247
0.0053879954 0.077587135 0.0099797547
0.0064344173 0.077213004 0.01072219
0.007550207 0.077659264 0.010148913
0.0084983362 0.076485023 0.013690561
0.0095109995 0.076087996 0.01563701
0.010465181 0.075349309 0.018009961
0.011454879 0.07497739 0.019361943
0.012677477 0.076064862 0.018863201
0.013547316 0.075031288 0.019757897
0.014542885 0.074791975 0.020065904
0.015652262 0.07513085 0.020927489
0.01650901 0.074290544 0.02021417
0.017668523 0.074831389 0.019870669
0.019138606 0.076554425 0.018166572
0.019933088 0.075535908 0.016599923
0.02122787 0.07642033 0.01571396
0.022451378 0.07697615 0.015134484
0.023274867 0.076172292 0.013605565
0.02423856 0.075877227 0.01297164
0.025504488 0.076513462 0.012026489
0.026668072 0.076804042 0.010730684
0.027602846 0.07643865 0.0098572075
0.028666385 0.076443687 0.010338187
0.029847223 0.076750003 0.0085902214
0.030965177 0.076879054 0.0050956309
0.032283999 0.07748159 0.0055843294
0.033532083 0.077880964 0.0053646564
0.034365982 0.077323459 0.0051833987
0.035022426 0.076412566 0.0051833987
0.036631532 0.077572651 0.0055941641
-0.028676491 0.077532738 0.0095176697
-0.027477171 0.077147447 0.013830125
-0.026213368 0.076543041 0.017321229
-0.02508807 0.076309554 0.017642736
-0.024042008 0.076307245 0.017842859
-0.022974785 0.076234519 0.018170923
-0.021769783 0.075675912 0.018289506
-0.021157473 0.077224784 0.018370539
-0.019344883 0.074325077 0.018380404
-0.018698759 0.075833865 0.018938452
-0.017552789 0.075373746 0.018759102
-0.01660631 0.075766303 0.019229949
-0.015909757 0.077427492 0.018363744
-0.014649818 0.076388344 0.015782058
-0.013634129 0.076560885 0.01527977
-0.012651056 0.076960593 0.016420305
-0.011774379 0.078139067 0.014890432
-0.010431811 0.076152228 0.014426857
-0.0095294984 0.077294827 0.014426857
-0.0084183253 0.076817222 0.014716327
-0.007427664 0.077459924 0.01430133
-0.0063369498 0.077099562 0.01396066
-0.0053028595 0.077421755 0.015521944
-0.0042198505 0.077012278 0.01396066
-0.0031376022 0.076348327 0.01348123
-0.0021218788 0.077448577 0.013521314
-0.0010496118 0.076621667 0.013957471
0 0.076184012 0.014260113
0.0010391145 0.075855367 0.01523152
0.0020837288 0.0760561 0.014887542
0.0031730523 0.077210948 0.013952613
0.0042349659 0.077288136 0.01271373
0.0053931298 0.078739703 0.01072219
0.0064449105 0.078413084 0.01072219
0.0075238049 0.078462541 0.010148913
0.0085022878 0.07758338 0.012271523
0.0094102174 0.076327331 0.016167551
0.01050617 0.076695047 0.017190099
0.011616736 0.077092886 0.018182427
0.012445997 0.07571315 0.018710941
0.013523454 0.075939402 0.01916793
0.014685068 0.076572143 0.020159572
0.015604043 0.075939678 0.019708693
0.016679198 0.076098837 0.020478308
0.017678108 0.07591188 0.020284355
0.018745143 0.076021977 0.017881751
0.019991534 0.076809585 0.016167611
0.021436663 0.078243829 0.013508558
0.021938354 0.0762619 0.013457179
0.023384603 0.07759437 0.012306213
0.024334028 0.077234089 0.012304187
0.025510589 0.077594712 0.011809409
0.026463334 0.077272937 0.011295974
0.027593903 0.077475198 0.010557681
0.028708814 0.077620126 0.0098582804
-0.030053809 0.079427928 0.0060201585
-0.028663807 0.078560062 0.011915863
-0.027522575 0.078333482 0.013750553
-0.026068611 0.077163093 0.014839649
-0.025171772 0.077612966 0.016617268
-0.024098827 0.077535354 0.016652673
-0.023051541 0.077537008 0.016658157
-0.022095874 0.077861652 0.016817361
-0.021184027 0.078380905 0.016668022
-0.019666318 0.076595135 0.016668022
-0.018660279 0.076714486 0.017767936
-0.017638698 0.076780215 0.017915756
-0.016567312 0.076623827 0.018224269
-0.015960218 0.078737088 0.017571598
-0.014490634 0.076593354 0.015381396
-0.013743377 0.078231536 0.014644533
-0.012724551 0.078468069 0.017333508
-0.011569384 0.077830404 0.014887929
-0.010378627 0.076801844 0.014641464
-0.0095835319 0.078797936 0.014759839
-0.0085306428 0.078908451 0.014639437
-0.0074453475 0.078707963 0.014017791
-0.0063326969 0.078103267 0.01396066
-0.0051644095 0.076433271 0.015043586
-0.0041129342 0.076089285 0.014877081
-0.0031757799 0.078335911 0.013867825
-0.0021007902 0.07772924 0.013756126
-0.0010681523 0.079043269 0.014529735
0 0.078582063 0.014564276
0.0010725292 0.079367161 0.014564276
0.0021372442 0.079078041 0.014937878
0.003149339 0.077683702 0.014977694
0.0042335643 0.078320943 0.013952613
0.0053403736 0.07903754 0.011066228
0.0064312574 0.079318844 0.0092942119
0.007564107 0.079963416 0.0083995163
0.0084169842 0.077857107 0.01173687
0.0094540548 0.077733345 0.015056998
0.01049491 0.077662341 0.016167551
0.011506091 0.077404611 0.017890185
0.012538282 0.077319406 0.018431991
0.013497974 0.076834626 0.018614799
0.014644994 0.07740926 0.020019919
0.015629474 0.07710541 0.019490033
0.016825173 0.077816427 0.019569248
0.017439092 0.075911343 0.020739734
0.018799366 0.077286288 0.019451052
0.020009983 0.077933617 0.016599923
0.02112893 0.07817705 0.013508558
0.022598853 0.079634055 0.012046635
0.023719339 0.079783231 0.010584414
0.024447167 0.078656107 0.010785192
0.025599847 0.078932866 0.010321766
0.026608715 0.078761794 0.010296762
0.027853947 0.079276621 0.0062532723
-0.030221157 0.08094953 0.0080189705
-0.028854406 0.080151126 0.01234138
-0.027497804 0.079320587 0.013750553
-0.026362002 0.079086006 0.014349878
-0.025375862 0.079299569 0.016840369
-0.023999941 0.078260675 0.01688087
-0.023095179 0.078733571 0.014563233
-0.022168914 0.07917469 0.014573872
-0.021137407 0.079265282 0.015696079
-0.020156831 0.079566434 0.014400959
-0.018929951 0.078874797 0.016183376
-0.018003343 0.079426512 0.016183376
-0.016965171 0.079524241 0.016278207
-0.015852435 0.079262175 0.014735222
-0.014655183 0.078509912 0.013366014
-0.013794048 0.079581045 0.014735222
-0.012810127 0.080063298 0.018209785
-0.011353959 0.077413365 0.015318483
-0.010321836 0.077413775 0.014950842
-0.0094897067 0.079080895 0.015947849
-0.008487978 0.079574801 0.01430133
-0.0073354566 0.078594178 0.01359129
-0.0063143875 0.078929849 0.013867825
-0.0052513769 0.07877066 0.015892595
-0.0041758064 0.078296371 0.014893711
-0.0031135827 0.077839568 0.015504897
-0.0021350842 0.08006566 0.014765382
-0.0010653343 0.079900078 0.014678359
0 0.07972952 0.013503522
0.0010650946 0.079882093 0.014370382
0.0021087148 0.079076804 0.014909565
0.0031592487 0.078981221 0.015037626
0.0042359745 0.079424523 0.01428616
0.0052762465 0.079143703 0.013613522
0.0064484989 0.080606245 0.010079116
0.0075636404 0.081039011 0.0089702904
0.0084731178 0.079435483 0.0095300078
0.0094115157 0.078429304 0.013773471
0.010480606 0.078604549 0.015078217
0.011473239 0.078226633 0.016240388
0.012628973 0.078931086 0.017429441
0.01354486 0.078143433 0.017400861
0.01457049 0.078056201 0.018400669
0.015720375 0.078601874 0.019342005
0.016607778 0.077848956 0.020386428
0.017702032 0.078097202 0.020545781
0.018949348 0.078955628 0.01937446
0.019746209 0.07794556 0.016599923
0.021200856 0.079503216 0.013457179
0.022558548 0.080566242 0.012040168
0.023438804 0.079905011 0.0095610917
0.024711447 0.080580808 0.007263422
0.025849694 0.080780298 0.0068430603
-0.029795809 0.080874339 0.0097070038
-0.02852823 0.080301687 0.012827188
-0.027609674 0.080705203 0.013144583
-0.026384419 0.080208629 0.015325457
-0.025380131 0.080370419 0.016588211
-0.024551662 0.081127226 0.016588211
-0.023053104 0.079637997 0.014789343
-0.022163866 0.080212086 0.014944106
-0.021270201 0.080826767 0.014463365
-0.020130614 0.080522455 0.014774889
-0.018919189 0.07988102 0.014890224
-0.017786574 0.079516441 0.014482796
-0.016761122 0.079615325 0.014772773
-0.015934119 0.080732867 0.013891131
-0.014761668 0.080134772 0.013456672
-0.013834472 0.080878451 0.013456672
-0.012528378 0.079346396 0.014210105
-0.011427177 0.078951411 0.013919502
-0.010272821 0.078073449 0.014085054
-0.0095312018 0.080485709 0.015255421
-0.0084860297 0.080617286 0.014235288
-0.007319957 0.079473823 0.013112932
-0.006350325 0.080437452 0.013483137
-0.0052861227 0.080349065 0.016536921
-0.004194031 0.07968659 0.015490949
-0.0031134221 0.078873359 0.015490949
-0.0021048789 0.079985403 0.014765382
-0.0010552645 0.080200098 0.014084995
0 0.080596425 0.013503522
0.00104562 0.079467118 0.015243083
0.0021142238 0.080340505 0.015605897
0.003167334 0.080239132 0.016409427
0.0041803736 0.079427101 0.015361041
0.0052229287 0.079388522 0.014074832
0.0064836564 0.082126312 0.010335565
0.0075467802 0.081936471 0.009134382
0.0085602971 0.081322819 0.0090352595
0.0094859255 0.080103375 0.0099256039
0.0105465 0.080153398 0.014341295
0.011570775 0.079943538 0.015444756
0.012598795 0.079792365 0.016900569
0.013616532 0.079604343 0.016825527
0.014609123 0.07930667 0.01743418
0.015572245 0.078899376 0.018573016
0.016575323 0.078732781 0.018413365
0.017738752 0.079302654 0.018743724
0.018599255 0.078530192 0.016231328
0.01997599 0.07990396 0.01486519
0.021382682 0.081254199 0.011054695
0.022408847 0.081098683 0.0093740523
0.023641342 0.081670098 0.0073410869
0.025187187 0.083227225 0.0067942142
-0.031457115 0.083524056 0.0053931177
-0.02954128 0.081238516 0.0097070038
-0.028576432 0.081495747 0.013815284
-0.027537955 0.081554718 0.01321575
-0.026000265 0.080080815 0.015600294
-0.025181977 0.080792181 0.015615523
-0.024265382 0.081236281 0.016588211
-0.023393707 0.081877977 0.014761031
-0.022338266 0.081906974 0.015054613
-0.021250846 0.081815757 0.015124321
-0.019986119 0.080996379 0.014826655
-0.018997695 0.081267923 0.015097231
-0.017975684 0.081419274 0.014876813
-0.016948689 0.081565566 0.014482796
-0.016136805 0.082835592 0.013340503
-0.014843673 0.081640199 0.013176143
-0.013911343 0.08239796 0.012698561
-0.012715084 0.081588462 0.013340503
-0.011173693 0.07821586 0.013692319
-0.010361466 0.079783291 0.013919502
-0.0095817624 0.0819773 0.014960825
-0.0083925603 0.080778398 0.014163196
-0.0072486927 0.079735622 0.013416827
-0.0063362615 0.081315354 0.01412645
-0.005314819 0.081848219 0.016522139
-0.0041456353 0.079803482 0.015106022
-0.003138571 0.080556661 0.015671283
-0.0021003156 0.08086215 0.015382618
-0.0010531611 0.081093408 0.015396953
0 0.081319571 0.014938653
0.0010421439 0.080245085 0.015422255
0.0021361213 0.082240671 0.017787963
0.0030909705 0.079334907 0.019394606
0.0041791643 0.080448911 0.015542865
0.0053085326 0.081751406 0.013586372
0.0064343279 0.082573876 0.011287481
0.0076065804 0.083672382 0.009288311
0.0085204318 0.082009152 0.0097124279
0.0096000796 0.082134016 0.0095300078
0.010756531 0.082825288 0.0093097389
0.011666835 0.081667848 0.011951655
0.012636082 0.081081532 0.013914138
0.01366472 0.080937184 0.014808357
0.014647634 0.080561988 0.015342832
0.015645852 0.080315374 0.017270327
0.016836688 0.081026562 0.017644495
0.017567862 0.079572082 0.016916126
0.018816805 0.080494113 0.015210778
0.020019075 0.081129931 0.012018085
0.021220945 0.081700638 0.011365652
0.022563042 0.082731158 0.008466661
0.023938267 0.083783939 0.0072554946
0.02433138 0.081457227 0.0054494143
-0.029943839 0.083414979 0.0097853243
-0.028885627 0.083447367 0.012935668
-0.027071709 0.081215128 0.013506323
-0.026249519 0.081898496 0.014589906
-0.025069892 0.08147715 0.016588211
-0.023975104 0.081306875 0.016232461
-0.02320007 0.082254797 0.015970796
-0.022047969 0.081892453 0.015812188
-0.021105858 0.082312845 0.015132517
-0.020219889 0.083007962 0.015132517
-0.018974856 0.082224376 0.015357494
-0.017854474 0.081920527 0.015231818
-0.017018296 0.082964189 0.013986528
-0.01606469 0.083536386 0.013179302
-0.014849314 0.082731888 0.012264073
-0.01396318 0.083779082 0.01243335
-0.012750791 0.082880147 0.013557434
-0.011714041 0.0830632 0.012543142
-0.010630656 0.082919121 0.013885289
-0.0094814384 0.082172468 0.013818592
-0.0084513528 0.082400694 0.013730586
-0.0074157929 0.082633123 0.013768882
-0.0063620289 0.082706377 0.013416827
-0.0053383708 0.083278589 0.013943493
-0.004197801 0.081857115 0.014925569
-0.0031512897 0.081933536 0.015396953
-0.002121958 0.082756355 0.015396953
-0.0010546446 0.082262278 0.015568852
0 0.081814378 0.015244633
0.0010439318 0.08142668 0.015244633
0.0020860492 0.081355922 0.018508822
0.003130463 0.081392035 0.019394606
0.0041913376 0.081731081 0.016233891
0.0052276598 0.081551492 0.013586372
0.0064036786 0.083247826 0.011625081
0.0075561171 0.084196731 0.0098275542
0.0085327318 0.083194129 0.0096064508
0.0096106799 0.083292559 0.0088058412
0.010667153 0.083203793 0.0089026392
0.011756818 0.083366528 0.0089488626
0.012810375 0.083267435 0.01045844
0.013802209 0.082813255 0.011197031
0.014860199 0.082792535 0.013432682
0.015838616 0.082360797 0.013742924
0.016656611 0.08120098 0.014073282
0.017642017 0.080945723 0.014671892
0.019220233 0.083287679 0.012018085
0.01995977 0.081940107 0.010324478
0.021411913 0.083506458 0.0087833405
0.022468442 0.083454214 0.0079481602
0.023566885 0.083555318 0.0053783655
-0.031368893 0.08545319 0.0052134097
-0.030131955 0.085015155 0.009327352
-0.028570671 0.083595663 0.013815284
-0.02747185 0.083472162 0.014183164
-0.026310312 0.083140582 0.015695542
-0.025076725 0.082544222 0.015615523
-0.023989918 0.082400151 0.015970796
