ply
format ascii 1.0
comment PCL generated
element vertex 1266
property float x
property float y
property float z
element camera 0
property float view_px
property float view_py
property float view_pz
property float x_axisx
property float x_axisy
property float x_axisz
property float y_axisx
property float y_axisy
property float y_axisz
property float z_axisx
property float z_axisy
property float z_axisz
property float focal
property float scalex
property float scaley
property float centerx
property float centery
property int viewportx
property int viewporty
property float k1
property float k2
end_header
0.01394626 -0.055785041 0.010643303
0.01509733 -0.056075796 0.01124382
0.016257659 -0.056359883 0.0092342496
0.017352419 -0.056395363 0.011121988
0.018052001 -0.055217881 0.011873335
0.019551108 -0.056480978 0.012366474
0.020616578 -0.05642432 0.012297809
0.021275109 -0.055315282 0.013036877
0.022214321 -0.055006888 0.013475448
0.023789771 -0.05623037 0.013475448
0.024624713 -0.055673264 0.013427347
0.026119005 -0.056591175 0.01104486
0.02701311 -0.056187268 0.011296898
0.02787745 -0.0557549 0.0098007917
0.029003605 -0.055858795 0.011296898
0.030182539 -0.056053285 0.013141513
0.031015424 -0.05561386 0.012428105
0.032133404 -0.055697899 0.012512356
0.033445034 -0.056101348 0.013017118
0.034035042 -0.055306941 0.012722671
0.035901099 -0.056571428 0.012792349
0.036411934 -0.055688839 0.013460785
0.036935225 -0.054875195 0.012959599
0.038908109 -0.056200605 0.014201164
0.039351728 -0.055305127 0.013650715
0.040692005 -0.055683795 0.013504535
0.042055845 -0.056074459 0.013730198
0.04270263 -0.055513423 0.014182389
0.043167468 -0.054748982 0.013844907
0.044613328 -0.055235546 0.014037222
0.046504013 -0.056237411 0.014506221
0.047128588 -0.055697426 0.013814032
0.048186671 -0.055682376 0.01330018
0.050003868 -0.05652611 0.01317063
0.051364429 -0.05682873 0.01303798
0.0511222 -0.055382382 0.0099315345
0.052248377 -0.055447262 0.0069355667
-0.066735364 -0.055795144 0.005485028
-0.064498596 -0.054823808 0.0062823594
-0.064018384 -0.055337925 0.0068777204
-0.063295804 -0.055656649 0.0065018535
-0.061594512 -0.055110879 0.0073133707
-0.061983895 -0.056449618 0.006108433
-0.060070086 -0.055701353 0.0081329048
-0.058369279 -0.05512654 0.0091074407
-0.057389528 -0.055223886 0.012068987
-0.055497937 -0.054430667 0.012270987
-0.054649621 -0.054649621 0.01356101
-0.054014631 -0.055094924 0.014602542
-0.052441221 -0.054581679 0.015703946
-0.051345736 -0.054554842 0.016654283
-0.050815735 -0.055140477 0.017160237
-0.048855674 -0.054166075 0.017777711
-0.048207156 -0.054634776 0.017012954
-0.047042802 -0.054526888 0.016573638
-0.045253906 -0.053673238 0.015750796
-0.044915352 -0.054540068 0.015247464
-0.044081528 -0.054833118 0.01339227
-0.043245696 -0.055138264 0.012944132
-0.041923467 -0.054822993 0.012944132
-0.040752828 -0.054694586 0.013300747
-0.039620373 -0.054611865 0.010989755
-0.039050467 -0.0553215 0.011080831
-0.037760939 -0.055023085 0.011749625
-0.036833234 -0.055249855 0.011587769
-0.035600055 -0.055018269 0.010617435
-0.034667049 -0.055250607 0.011548072
-0.03321626 -0.054646108 0.011498004
-0.03237877 -0.05504391 0.010567933
-0.031028695 -0.054567706 0.010091096
-0.030474203 -0.055506587 0.006462276
-0.022733806 -0.055210672 0.0057463348
-0.021986229 -0.056064889 0.0061437786
-0.020888269 -0.056068514 0.0074061155
-0.01953662 -0.055353761 0.0075563788
-0.018446043 -0.055338133 0.0076524019
-0.017716669 -0.056471884 0.007556349
-0.016003495 -0.054411884 0.0071419775
-0.014944695 -0.054441389 0.0067363381
-0.014342055 -0.056264985 0.006436497
-0.012693527 -0.053947493 0.0067307651
-0.012001694 -0.055644222 0.0058845282
-0.010878078 -0.0554782 0.006439656
-0.0096792728 -0.054849219 0.0061847568
-0.0088703344 -0.056548383 0.0052874684
-0.007656489 -0.055782992 0.005926609
-0.006507447 -0.0553133 0.0067833066
-0.0055470429 -0.056579839 0.0091928244
-0.0042865495 -0.054653507 0.010483146
-0.0032178846 -0.05470404 0.011495978
-0.0021627091 -0.055149082 0.011276096
-0.0010703561 -0.054588161 0.011178464
0 -0.054070089 0.0096690655
0.0010868687 -0.055430304 0.0079027414
0.0087401941 -0.055718739 0.00554654
0.0097614527 -0.055314902 0.0085532665
0.010580579 -0.053960953 0.010906637
0.011659169 -0.054056149 0.013139784
0.013238384 -0.056263138 0.013136923
0.013787203 -0.054088261 0.011373758
0.014949773 -0.054459892 0.012687981
0.01640152 -0.055765167 0.010629147
0.017004946 -0.054203264 0.011293083
0.018274477 -0.054823432 0.012309134
0.019698683 -0.055812936 0.012427539
0.020398092 -0.054752775 0.014125019
0.021129593 -0.053880464 0.014904559
0.02253719 -0.05473318 0.015160233
0.023188733 -0.053755697 0.014830589
0.024707487 -0.054786168 0.01218456
0.026128694 -0.055523474 0.010242581
0.02674091 -0.054551456 0.010450989
0.028377453 -0.055663466 0.0093559623
0.029030677 -0.054835722 0.012421697
0.030058578 -0.054749552 0.011596024
0.031040944 -0.054589245 0.012300193
0.032232195 -0.054794729 0.012782097
0.033092871 -0.05444311 0.013153732
0.034337107 -0.05472476 0.012918711
0.035337456 -0.054612435 0.013586581
0.036159031 -0.054238547 0.015007943
0.037550032 -0.054715764 0.014746726
0.037818551 -0.053576287 0.016521215
0.039486658 -0.054427553 0.015659869
0.041116673 -0.055182904 0.015212625
0.041183848 -0.053855803 0.014138579
0.042607676 -0.054324791 0.014341682
0.043247614 -0.053795811 0.014037281
0.044321567 -0.053819042 0.014767677
0.045631494 -0.054121077 0.014139473
0.047127463 -0.054625016 0.014403462
0.047663435 -0.054018557 0.013332874
0.049519137 -0.054901652 0.012991637
0.05025946 -0.05453686 0.012803882
0.052735325 -0.056031283 0.010751307
0.053715177 -0.055907637 0.0058611929
-0.063103184 -0.0543993 0.0050943196
-0.062504537 -0.054828543 0.0057440996
-0.061177202 -0.054622501 0.006549865
-0.059135519 -0.053759564 0.0083607733
-0.05877893 -0.054424934 0.010688037
-0.057050966 -0.053821668 0.01265192
-0.054940749 -0.052827645 0.013007194
-0.054595925 -0.053525418 0.013712406
-0.052806247 -0.052806247 0.015797645
-0.052127648 -0.053191483 0.015797645
-0.051231693 -0.053366348 0.01681757
-0.049811631 -0.0529911 0.017307043
-0.048477992 -0.052693471 0.01718986
-0.047989246 -0.053321384 0.016689569
-0.046782013 -0.053161379 0.016568303
-0.045888696 -0.05335895 0.015451998
-0.045255207 -0.053875245 0.015477508
-0.04415185 -0.053843718 0.014481604
-0.042758062 -0.053447582 0.01339227
-0.041675664 -0.053430341 0.012976587
-0.041060664 -0.054027192 0.013471246
-0.040029399 -0.054093782 0.012976587
-0.038322691 -0.053225964 0.011792392
-0.037683979 -0.05383426 0.012172937
-0.037080336 -0.054529905 0.011496991
-0.035137422 -0.053238522 0.012511194
-0.034303315 -0.053598929 0.012592793
-0.033069432 -0.05333779 0.012647063
-0.032015886 -0.053359814 0.011498004
-0.031223796 -0.053834133 0.0098031461
-0.030701647 -0.054824371 0.0055735707
-0.025279216 -0.054954816 0.0051901639
-0.023978772 -0.054497212 0.0058442652
-0.022567015 -0.053730991 0.0081527233
-0.022042597 -0.055106495 0.0087105036
-0.020498578 -0.053943627 0.0088995695
-0.019129239 -0.053136777 0.0082471669
-0.018475402 -0.05433942 0.0087493062
-0.017174665 -0.053670827 0.008481741
-0.016142689 -0.053808961 0.0080881119
-0.015179597 -0.05421285 0.0081571639
-0.014141321 -0.054389697 0.0094388425
-0.013114766 -0.05464486 0.008151114
-0.011932902 -0.054240469 0.0084800124
-0.010786493 -0.053932469 0.010103047
-0.0097399857 -0.054111037 0.010103047
-0.008591434 -0.053696465 0.009808898
-0.0076398109 -0.054570079 0.0096135437
-0.0065435898 -0.054529916 0.011471719
-0.0053917682 -0.053917684 0.012114823
-0.0042929635 -0.053662047 0.012145311
-0.0032299564 -0.053832609 0.012114823
-0.0021522483 -0.053806212 0.012883067
-0.001081398 -0.054069899 0.011978179
0 -0.05425461 0.0099556446
0.0010685106 -0.053425532 0.0079599619
0.0021664063 -0.054160159 0.007286489
0.0086228903 -0.053893067 0.0078587532
0.0097508747 -0.054171529 0.010142773
0.01064556 -0.053227801 0.012126297
0.011870365 -0.053956203 0.013735652
0.012858581 -0.053577423 0.013887763
0.013844941 -0.053249776 0.013261914
0.015200761 -0.054288436 0.012562901
0.016002111 -0.053340375 0.013459176
0.017091477 -0.053410865 0.011083066
0.018173268 -0.053450789 0.012370199
0.019327255 -0.053686824 0.012427539
0.020085184 -0.052855745 0.012581229
0.021521688 -0.053804222 0.013692528
0.022408405 -0.053353347 0.013605177
0.023387311 -0.053152982 0.013965368
0.024695689 -0.05368628 0.013728857
0.025975885 -0.054116428 0.011640191
0.026993761 -0.053987522 0.01104632
0.028078541 -0.053997196 0.010050207
0.029368911 -0.054386869 0.011052638
0.030230118 -0.053982355 0.011150986
0.030908776 -0.053290997 0.011926383
0.031588696 -0.052647825 0.012257576
0.033460289 -0.053968206 0.013153732
0.033776402 -0.052775629 0.013394535
0.035404082 -0.053642552 0.014696628
0.036344428 -0.053447686 0.016895473
0.036696628 -0.052423753 0.017723262
0.037745595 -0.052424442 0.017021924
0.038861241 -0.052515194 0.017721921
0.040518165 -0.053313375 0.015126973
0.041196525 -0.052816059 0.01372546
0.042770103 -0.053462632 0.013873041
0.043801401 -0.053416342 0.013966978
0.045174327 -0.053778958 0.013407558
0.045945611 -0.05342513 0.013475746
0.047147229 -0.053576402 0.014403462
0.047897246 -0.053219162 0.013397336
0.049523264 -0.053829636 0.012991637
0.050376549 -0.053592078 0.012554735
0.052134339 -0.054306604 0.010751307
0.052466102 -0.05353684 0.0058313906
-0.062789649 -0.053977065 0.0062266588
-0.061057854 -0.053425621 0.0083188713
-0.059657838 -0.053149708 0.010859251
-0.057730801 -0.052385353 0.012066483
-0.056024905 -0.051796611 0.012972891
-0.055921704 -0.052695453 0.014087051
-0.054820534 -0.052670706 0.015546232
-0.05324854 -0.052183568 0.015837163
-0.051996108 -0.051996108 0.016075134
-0.050655719 -0.051711045 0.017274022
-0.049586449 -0.051696509 0.016852289
-0.049244959 -0.052456584 0.016866475
-0.04791978 -0.05217931 0.016250312
-0.046952289 -0.052287776 0.015805453
-0.046140604 -0.052578826 0.015477508
-0.044672176 -0.052117534 0.015477508
-0.043780047 -0.052322492 0.013879895
-0.043127511 -0.052831203 0.013290256
-0.041765776 -0.05247495 0.013533831
-0.041196711 -0.053122073 0.013298422
-0.039680239 -0.0525495 0.013622582
-0.038377684 -0.052236293 0.013524473
-0.038140666 -0.053396929 0.013022929
-0.036398485 -0.05245664 0.014681309
-0.034994785 -0.051961955 0.012577623
-0.034309842 -0.052536942 0.012772143
-0.033064485 -0.052263211 0.012647063
-0.032081719 -0.052400142 0.010709941
-0.03175671 -0.053657882 0.0086962581
-0.030585853 -0.053525243 0.0059439838
-0.029423472 -0.053398151 0.0055471659
-0.02495891 -0.053173326 0.006220907
-0.023528699 -0.052404828 0.0077539682
-0.022608144 -0.052752335 0.010572463
-0.02170595 -0.053179577 0.011490166
-0.020411771 -0.052640881 0.011072189
-0.019473528 -0.053011272 0.0113976
-0.018418316 -0.053088088 0.011388808
-0.017152799 -0.052530441 0.010308802
-0.016502324 -0.053907592 0.0088590682
-0.015099536 -0.052848376 0.011152625
-0.014197527 -0.053513754 0.011152625
-0.012946707 -0.052865718 0.010908246
-0.0117848 -0.052495927 0.011042088
-0.010652433 -0.05219692 0.011789382
-0.0097587463 -0.053130955 0.011789382
-0.0085170809 -0.052167118 0.010685474
-0.0075150589 -0.052605413 0.011160374
-0.0064631593 -0.052782468 0.012145311
-0.0053619416 -0.052547026 0.012450665
-0.0043748845 -0.053592335 0.012450665
-0.0032579938 -0.053213898 0.013164878
-0.0021257901 -0.052081857 0.014488816
-0.0010788224 -0.052862298 0.012958586
0 -0.051323295 0.011178464
0.0010770672 -0.052776292 0.010148257
0.0022018063 -0.053944252 0.0083573759
0.0032790552 -0.053557899 0.0055299401
0.0076938178 -0.053856723 0.00554654
0.0086482698 -0.052970648 0.0086074769
0.0096765161 -0.052683253 0.010002553
0.010708702 -0.05247264 0.011683643
0.011933873 -0.053159982 0.013776273
0.012855236 -0.052492213 0.013744771
0.013784671 -0.051957607 0.014004618
0.015080059 -0.052780207 0.013459176
0.015923519 -0.052016824 0.013021886
0.017340515 -0.053105325 0.011100978
0.017940305 -0.051710293 0.011992663
0.019410405 -0.052839436 0.012430966
0.020257849 -0.052243926 0.012767851
0.021314241 -0.052219894 0.01302743
0.022391099 -0.052245896 0.01332432
0.023559278 -0.052472938 0.013505042
0.024312666 -0.051796548 0.013011038
0.025899673 -0.052878499 0.011859179
0.026906814 -0.052737355 0.011640191
0.027696053 -0.052196402 0.010801464
0.029157707 -0.052915834 0.011678725
0.030004298 -0.05250752 0.012644857
0.031065203 -0.052489478 0.01239419
0.03225917 -0.052689973 0.013394535
0.033171114 -0.052431755 0.014163256
0.034053065 -0.052143753 0.013977975
0.035183892 -0.052242748 0.015504777
0.035235848 -0.050781075 0.018909246
0.0369462 -0.051724676 0.019516796
0.038214918 -0.052014749 0.018853009
0.03852734 -0.05102269 0.019189239
0.040404473 -0.052100498 0.01535362
0.041735236 -0.052436575 0.014320999
0.043202195 -0.052922688 0.013314307
0.044142947 -0.052756201 0.012147158
0.045278959 -0.052825451 0.012584984
0.045796424 -0.052186623 0.011974603
0.046579022 -0.051872093 0.012155354
0.048374511 -0.052674461 0.01335901
0.048877068 -0.052064702 0.012788832
0.050405826 -0.052550752 0.011544883
0.051125925 -0.052191049 0.0081822872
0.053206075 -0.053206075 0.0063347518
-0.06344983 -0.052510198 0.0055896044
-0.061448146 -0.051745806 0.0071695745
-0.061018672 -0.05230172 0.011578649
-0.059091385 -0.051570661 0.012287468
-0.058156021 -0.051694237 0.013391763
-0.057049826 -0.051667769 0.013967961
-0.054879699 -0.050658185 0.01509285
-0.054417003 -0.051215999 0.016075134
-0.0535556 -0.051413372 0.016893417
-0.051681593 -0.05062687 0.017196566
-0.050713927 -0.050713927 0.01834783
-0.05010131 -0.051167294 0.017986596
-0.048584353 -0.050696716 0.01780951
-0.04859997 -0.051839966 0.015273899
-0.047985666 -0.052347999 0.015678883
-0.045797009 -0.051122241 0.015395492
-0.044655032 -0.05103432 0.014160573
-0.044427641 -0.052012842 0.013709962
-0.042708918 -0.051250704 0.013298422
-0.041684136 -0.051303551 0.013298422
-0.041385274 -0.052276134 0.013490021
-0.039656308 -0.051446017 0.01372543
-0.038640872 -0.051521167 0.013803273
-0.037421569 -0.051321011 0.013471276
-0.035828818 -0.050581858 0.013428003
-0.035353631 -0.05142346 0.012577623
-0.033545602 -0.050318405 0.012608975
-0.033259559 -0.051498666 0.011879325
-0.032745104 -0.05239217 0.011137843
-0.031435173 -0.05203063 0.009245038
-0.030589877 -0.052439786 0.0052368343
-0.030099286 -0.053509839 0.0050165355
-0.024627138 -0.051395763 0.0077539682
-0.023837602 -0.052009314 0.0094177723
-0.02247268 -0.051366121 0.011852205
-0.021448784 -0.051477082 0.012259185
-0.020231716 -0.051111702 0.01263985
-0.019292086 -0.051445566 0.012509227
-0.018182162 -0.051337868 0.011981994
-0.017395049 -0.052185148 0.011000246
-0.016191442 -0.051812612 0.01071015
-0.015042206 -0.051573277 0.01071015
-0.014155354 -0.052265923 0.011475891
-0.012824218 -0.051296871 0.011883914
-0.011664498 -0.050899629 0.011901259
-0.010760318 -0.051649526 0.013162404
-0.0096559813 -0.05149857 0.013162404
-0.0085748285 -0.051448967 0.011991292
-0.0074978126 -0.05141357 0.011009783
-0.0064305854 -0.051444683 0.013029248
-0.0054655476 -0.052469257 0.012116164
-0.0042524515 -0.051029414 0.012152314
-0.0032012125 -0.0512194 0.012152314
-0.0021655345 -0.051972829 0.01279372
-0.0010617696 -0.050964937 0.012660295
0 -0.050671589 0.011243433
0.0010884076 -0.052243561 0.010094285
0.0021732838 -0.05215881 0.0091047585
0.0033145426 -0.053032681 0.0075327456
0.0076393369 -0.052384023 0.0060227215
0.0086939503 -0.052163698 0.0078821182
0.0096548917 -0.051492758 0.0099821687
0.010801473 -0.05184707 0.01178813
0.011717089 -0.051129118 0.013647705
0.0128598 -0.0514392 0.01359266
0.013850929 -0.051141892 0.013654649
0.014846534 -0.0509024 0.013308644
0.015976368 -0.051124372 0.013650686
0.016815281 -0.05044584 0.011517435
0.018326122 -0.051744342 0.012138575
0.019491309 -0.05197683 0.012140065
0.020209884 -0.051056549 0.01235944
0.021500787 -0.051601887 0.012548476
0.022584409 -0.051621504 0.01332432
0.023558317 -0.051399961 0.013657123
0.024653552 -0.051450886 0.013028949
0.025636157 -0.051272314 0.013028532
0.026195768 -0.050295871 0.013426185
0.02795719 -0.051613275 0.011661381
0.028735807 -0.051085878 0.012858808
0.029822126 -0.051123645 0.013646901
0.031139228 -0.051540788 0.013646901
0.032026049 -0.051241677 0.013836324
0.032791745 -0.050774314 0.013756752
0.034084417 -0.051126625 0.014148682
0.034877736 -0.050731253 0.017648071
0.035793949 -0.050532635 0.018963039
0.037394129 -0.051283374 0.019762069
0.037789907 -0.050386544 0.01947543
0.038768511 -0.050294284 0.016697198
0.040567603 -0.051243287 0.014101237
0.040854543 -0.050282512 0.012907177
0.043027014 -0.051632416 0.011136353
0.044101674 -0.051631223 0.012203336
0.04538592 -0.051869623 0.012182295
0.046508864 -0.051916871 0.012428731
0.047768522 -0.052111115 0.012457281
0.048754301 -0.052004583 0.012064695
0.049223512 -0.051363666 0.010965765
0.050084356 -0.051149979 0.0078365505
0.052329846 -0.052329846 0.0055862069
-0.062379867 -0.050549198 0.0067219436
-0.061318811 -0.050561126 0.0085842013
-0.059682522 -0.050090689 0.012605608
-0.058652949 -0.050121609 0.013130605
-0.057430513 -0.049985815 0.013603508
-0.05660164 -0.050193906 0.014171392
-0.055960499 -0.050579682 0.014811784
-0.054674745 -0.050386529 0.015437782
-0.053282574 -0.050085615 0.016500711
-0.052265026 -0.050131761 0.015896618
-0.051380891 -0.050310459 0.016059548
-0.049496654 -0.049496654 0.01688394
-0.048598394 -0.049654879 0.016541123
-0.048725069 -0.050890625 0.015579879
-0.046799622 -0.049990505 0.01513502
-0.046317775 -0.050626405 0.014799118
-0.045105614 -0.050475329 0.013904184
-0.043514207 -0.049882136 0.013607085
-0.04363488 -0.051270988 0.013193488
-0.041851383 -0.050436284 0.01331538
-0.040868051 -0.050547324 0.013271332
-0.039451383 -0.050113916 0.013393223
-0.038867079 -0.050743129 0.014325887
-0.03721495 -0.049974363 0.012598187
-0.035984904 -0.049743839 0.012840182
-0.035501346 -0.050562523 0.012608975
-0.034990691 -0.051392578 0.012608975
-0.033447057 -0.050710052 0.012867004
-0.03197559 -0.050095089 0.010629624
-0.031514399 -0.05107506 0.0081523061
-0.030563267 -0.051302627 0.0059439838
-0.026457559 -0.05181272 0.0067561865
-0.02471637 -0.050507363 0.0090534985
-0.023811301 -0.050869603 0.012984812
-0.022444952 -0.050233938 0.013991475
-0.0213365 -0.050140776 0.014151812
-0.020285897 -0.050180905 0.014365017
-0.019148534 -0.049998954 0.013227135
-0.018305764 -0.050610054 0.011911511
-0.017167771 -0.050430324 0.01093775
-0.01624701 -0.050907299 0.010755777
-0.015245724 -0.051182073 0.010888577
-0.013792818 -0.049866345 0.011832356
-0.012793829 -0.050109163 0.012977839
-0.011847704 -0.050622009 0.013633639
-0.010695056 -0.050266765 0.014506251
-0.0097650615 -0.050995324 0.013985455
-0.0086839003 -0.051017914 0.013294935
-0.0074563511 -0.050064072 0.013081849
-0.0064662565 -0.050652344 0.013166994
-0.0054229428 -0.050975665 0.01282987
-0.0042948741 -0.050464772 0.012212455
-0.0032517461 -0.050944023 0.012212455
-0.0021540569 -0.050620336 0.013033569
-0.0010810959 -0.050811503 0.013905257
0 -0.049983393 0.014485687
0.0010599608 -0.049818158 0.014678776
0.0021604761 -0.050771188 0.014420331
0.003251201 -0.050935484 0.0089579523
0.0042776763 -0.050262697 0.0079196393
0.0055364822 -0.052042935 0.0053690374
0.0066453703 -0.0520554 0.0071667433
0.0076123271 -0.051111337 0.0074669719
0.0086538689 -0.05084148 0.0077941716
0.0096005034 -0.050135963 0.009894222
0.010768309 -0.050611056 0.011556506
0.011926946 -0.050960589 0.012663454
0.012915862 -0.050587125 0.013109803
0.013758196 -0.049741175 0.013890713
0.015061856 -0.050564803 0.013970613
0.015990116 -0.050102361 0.01419124
0.017252002 -0.050677754 0.012174189
0.018235819 -0.050416678 0.012073189
0.019478492 -0.050860513 0.011167794
0.020443358 -0.05057041 0.012131482
0.021542147 -0.050624046 0.01243791
0.022592274 -0.05056366 0.014020532
0.023094263 -0.049337745 0.01332432
0.024532812 -0.050132263 0.013444096
0.025742294 -0.050411992 0.01386112
0.026706593 -0.050208393 0.01383543
0.027635377 -0.049956258 0.013707072
0.028548412 -0.049695384 0.013626099
0.02982405 -0.0500618 0.013532162
0.030780448 -0.049885549 0.013300389
0.032073423 -0.050248362 0.013673067
0.033048369 -0.050105587 0.01406765
0.033771727 -0.049602222 0.014212579
0.034575172 -0.049243428 0.01696676
0.035991061 -0.049752347 0.019309938
0.036602583 -0.049152043 0.019739211
0.03840021 -0.050133612 0.016783059
0.039391138 -0.050037391 0.015010446
0.04007763 -0.049569704 0.013580829
0.041849032 -0.050433449 0.010989219
0.043167245 -0.050721511 0.010769963
0.044218197 -0.050689153 0.011176169
0.045743112 -0.051188719 0.010573179
0.04648608 -0.050810367 0.011012316
0.047779694 -0.051037401 0.0097461343
0.047964036 -0.050095771 0.0094104111
0.049428709 -0.050503246 0.0071290731
0.050901715 -0.050901715 0.0059639812
-0.064317159 -0.050145581 0.0062043369
-0.063152015 -0.050086077 0.0097702146
-0.06112067 -0.049325455 0.013008982
-0.060112584 -0.049378194 0.013037622
-0.058979761 -0.049328528 0.013020992
-0.0578552 -0.04928406 0.014108986
-0.056496643 -0.049034823 0.014171392
-0.055738859 -0.049307451 0.014155895
-0.054190595 -0.048877791 0.015456229
-0.052985027 -0.048746228 0.015907794
-0.052406494 -0.049197935 0.015570521
-0.051020086 -0.048894249 0.0156537
-0.049550246 -0.048495989 0.015929699
-0.049116019 -0.049116019 0.016419798
-0.047557712 -0.04861455 0.0156537
-0.047236819 -0.049383949 0.014952034
-0.046017509 -0.049228035 0.015744597
-0.044609785 -0.048858337 0.014315516
-0.04406026 -0.049433462 0.014299095
-0.042940792 -0.049381912 0.014565557
-0.041832704 -0.049341138 0.014437407
-0.040590908 -0.049136363 0.01470083
-0.03981078 -0.049494483 0.014693618
-0.038309049 -0.048950452 0.013459355
-0.037658546 -0.049494091 0.012236089
-0.036444604 -0.049307406 0.012029678
-0.035471611 -0.049445279 0.011883855
-0.034813225 -0.050044011 0.01213935
-0.033626977 -0.049898092 0.012050301
-0.032341722 -0.049590643 0.010611683
-0.031348173 -0.049724687 0.0093768239
-0.03023527 -0.049672231 0.0064688325
-0.02658122 -0.050947342 0.0075757205
-0.024634412 -0.049268823 0.014026821
-0.023775529 -0.049712472 0.014410138
-0.022442479 -0.049159717 0.014234543
-0.02157372 -0.049619559 0.014940262
-0.020328494 -0.049216352 0.014679939
-0.019269478 -0.049244225 0.014234543
-0.018089794 -0.048948854 0.013008565
-0.01734701 -0.049872655 0.011017859
-0.016373336 -0.050211564 0.010888577
-0.014956837 -0.049143896 0.010928214
-0.014039979 -0.049679928 0.012422055
-0.012976237 -0.049742244 0.013470352
-0.011698564 -0.048921268 0.014092922
-0.010693276 -0.049189072 0.014490336
-0.0096561257 -0.049353532 0.014506251
-0.0085352212 -0.049077522 0.013565719
-0.0076976079 -0.050584279 0.012779862
-0.0064582983 -0.049513623 0.01222381
-0.0053354572 -0.049086209 0.012617648
-0.0043460182 -0.049979214 0.010995328
-0.0032248746 -0.04944808 0.012212455
-0.0021497074 -0.049443271 0.012083083
-0.0010680186 -0.049128857 0.014663577
0 -0.048365504 0.016389906
0.0010614764 -0.048827916 0.016798913
0.0021289904 -0.04896678 0.015169919
0.0032481356 -0.049804747 0.011937052
0.0042701806 -0.049107078 0.0088132024
0.0055471556 -0.051033832 0.0079351068
0.0065698675 -0.050368987 0.0074597299
0.0077060875 -0.050640006 0.0070402026
0.008708193 -0.050072111 0.0077941716
0.0095449351 -0.048785225 0.009614259
0.010862838 -0.049969058 0.01040861
0.011773166 -0.049233243 0.011439741
0.012918836 -0.04952221 0.01203686
0.014158829 -0.050100472 0.012718081
0.014977179 -0.049210731 0.012960941
0.015735 -0.048254006 0.012960941
0.016959626 -0.048758928 0.012386888
0.018270876 -0.049438845 0.012733787
0.019510211 -0.049859431 0.010291725
0.020757321 -0.050254565 0.011963248
0.021357123 -0.049121387 0.012027323
0.022554271 -0.049404595 0.013028532
0.023565277 -0.049272858 0.013783693
0.024329783 -0.048659567 0.014073998
0.025765613 -0.049384095 0.01386112
0.026745962 -0.049212568 0.014318794
0.02747824 -0.048615351 0.014458984
0.028789924 -0.0490495 0.014085621
0.029998383 -0.049283061 0.013812423
0.030638542 -0.048599064 0.013173312
0.031977456 -0.049032103 0.013566971
0.032999747 -0.048967369 0.014548481
0.033190049 -0.047710698 0.014704406
0.034780268 -0.048481591 0.01696676
0.035582643 -0.048141222 0.019488186
0.036900263 -0.048497491 0.017446846
0.038471952 -0.04915861 0.017094493
0.039174687 -0.048703663 0.014530361
0.04091404 -0.049527526 0.01318267
0.042533442 -0.050167654 0.011028826
0.043309703 -0.049806163 0.010650426
0.043991078 -0.049355842 0.010569423
0.044921033 -0.049199227 0.010297775
0.046242844 -0.049469091 0.010147572
0.04789127 -0.050068147 0.0095415711
0.048779503 -0.049863491 0.0088689625
0.050173588 -0.050173588 0.0075343549
-0.064919904 -0.048689932 0.0057735741
-0.064433888 -0.049144492 0.0082353055
-0.06289807 -0.048800226 0.011048228
-0.060692932 -0.047915477 0.012811244
-0.059735924 -0.048002087 0.012988389
-0.059091777 -0.048347816 0.013020992
-0.057780348 -0.048150294 0.013420254
-0.056887943 -0.048301086 0.013469487
-0.055051148 -0.04764042 0.013826013
-0.054496814 -0.048085429 0.014155895
-0.053333409 -0.048000071 0.014811784
-0.052314889 -0.04804429 0.015045881
-0.0511324 -0.04793663 0.015086204
-0.050146684 -0.048012786 0.015267551
-0.048586853 -0.047530621 0.016099185
-0.047950275 -0.047950275 0.015151799
-0.04757062 -0.048651773 0.014831334
-0.045740116 -0.047867566 0.014657378
-0.044849984 -0.048053555 0.013904184
-0.04431472 -0.048638105 0.014007062
-0.04240283 -0.047703188 0.014839679
-0.041891381 -0.048336212 0.014839679
-0.040437158 -0.047886107 0.014957696
-0.039176665 -0.047647294 0.014932454
-0.038111139 -0.047638927 0.013600081
-0.037546497 -0.04827407 0.01301837
-0.036309015 -0.048056051 0.012209684
-0.035509404 -0.048421919 0.012378722
-0.03406138 -0.047898814 0.01404357
-0.033068892 -0.04800323 0.012050301
-0.032715123 -0.049072687 0.010629624
-0.031367447 -0.048673622 0.0093768239
-0.030824255 -0.049538985 0.0057878494
-0.027569883 -0.049625788 0.0059148073
-0.026147353 -0.049026288 0.010892957
-0.024660785 -0.048249364 0.014132023
-0.023510646 -0.048089962 0.01587683
-0.022335665 -0.047862142 0.015525341
-0.021335267 -0.048004355 0.014949739
-0.020438837 -0.048407774 0.014727056
-0.019119067 -0.047797672 0.014447749
-0.018373771 -0.048636455 0.011911511
-0.017447777 -0.049071878 0.011604667
-0.016264394 -0.048793186 0.011063486
-0.01511533 -0.04858499 0.011784375
-0.01399904 -0.048458219 0.011909127
-0.012722591 -0.047709718 0.013444811
-0.011788462 -0.048225533 0.013633639
-0.010803494 -0.048615728 0.014000058
-0.0096670128 -0.048335068 0.014086515
-0.0086389091 -0.048593868 0.012852013
-0.0075017186 -0.048225336 0.011517167
-0.0064492049 -0.048369043 0.011611879
-0.0053911819 -0.04852064 0.010939032
-0.0042961002 -0.04833113 0.011981934
-0.0032292341 -0.048438516 0.011122078
-0.0021664286 -0.048744649 0.012702137
-0.0010694697 -0.048126139 0.01443103
0 -0.047807265 0.015781164
0.0010598353 -0.047692593 0.016391426
0.0020961412 -0.047163181 0.016391426
0.0032063306 -0.048094962 0.015822083
0.0043445728 -0.048876446 0.014130294
0.0053781555 -0.048403401 0.010581851
0.0064103086 -0.048077319 0.0089169741
0.0078163929 -0.050248243 0.0085251927
0.0086970674 -0.048921004 0.0084022284
0.0097144451 -0.048572231 0.0084344745
0.010795619 -0.048580289 0.0097816885
0.011738491 -0.048021104 0.010500014
0.012969702 -0.048636384 0.010477304
0.013795128 -0.047752369 0.012611866
0.014865231 -0.047781099 0.012386888
0.016021887 -0.048065659 0.012843281
0.016907226 -0.047551576 0.012694061
0.018162791 -0.048077978 0.011972725
0.019594127 -0.048985325 0.011337221
0.01995584 -0.047263835 0.012239456
0.021367947 -0.048077885 0.010803849
0.022697825 -0.048638199 0.0132671
0.023267061 -0.04759172 0.013312072
0.024560604 -0.048053358 0.014056087
0.025414262 -0.047651745 0.014095962
0.026416285 -0.047549315 0.014318794
0.027880533 -0.048254773 0.014290959
0.028946515 -0.048244193 0.013821095
0.029867979 -0.048002113 0.013991684
0.030843399 -0.047860447 0.013720244
0.031913877 -0.047870819 0.014259756
0.032902207 -0.047761269 0.014673293
0.03440157 -0.048377208 0.015134692
0.034518939 -0.047071282 0.017314702
0.03626385 -0.047996275 0.019085407
0.036790114 -0.047301579 0.017277718
0.037937324 -0.04742166 0.016159654
0.03933071 -0.047834646 0.013877064
0.041209679 -0.048800938 0.013321638
0.041839633 -0.048276503 0.012200117
0.043133624 -0.048525333 0.011689782
0.044119466 -0.048423804 0.011088312
0.045141067 -0.048365429 0.010453075
0.046449989 -0.048610456 0.010494381
0.047787946 -0.048874039 0.0094744563
0.048069511 -0.048069511 0.0083746612
0.050176416 -0.049085625 0.006406039
-0.065056048 -0.047707766 0.0057735741
-0.063336693 -0.04723414 0.0084516108
-0.061523221 -0.046672788 0.0097166896
-0.061519969 -0.047489099 0.012779683
-0.060162161 -0.047270268 0.013111085
-0.058760911 -0.047008727 0.012634248
-0.058577716 -0.047729988 0.012915432
-0.057371479 -0.047629151 0.012639523
-0.055653665 -0.047091562 0.012779862
-0.055042073 -0.047487278 0.013467371
-0.053510237 -0.047089007 0.014145941
-0.052340843 -0.046999943 0.01480183
-0.051218476 -0.046950269 0.014821917
-0.050069731 -0.046873789 0.015225619
-0.049134649 -0.046998359 0.015227228
-0.048017502 -0.046950445 0.014878213
-0.046865102 -0.046865102 0.014775038
-0.04593654 -0.04700483 0.013832569
-0.045586288 -0.047757059 0.014010489
-0.043513414 -0.046697319 0.014337748
-0.042793132 -0.047072444 0.014713675
-0.041575752 -0.046905976 0.014841497
-0.040599506 -0.047009956 0.015333802
-0.039305694 -0.046741903 0.01416862
-0.038369283 -0.046895791 0.013600081
-0.037427824 -0.047052123 0.01301837
-0.036614608 -0.04738361 0.013326824
-0.035411451 -0.047215264 0.012721479
-0.034298822 -0.047160879 0.012488574
-0.033531275 -0.047592774 0.011421204
-0.032158323 -0.047165535 0.010629624
-0.031426862 -0.047682133 0.0079418123
-0.030910563 -0.04857374 0.0056180358
-0.02853292 -0.048286479 0.0051638186
-0.027724123 -0.048794452 0.0071170926
-0.025797304 -0.047295056 0.010943443
-0.024616042 -0.047091559 0.014942527
-0.023410574 -0.046821147 0.01608938
-0.022446016 -0.047029745 0.015199214
-0.021134084 -0.046494987 0.015199214
-0.020103948 -0.04655651 0.015131831
-0.019228939 -0.047004074 0.013360977
-0.018346895 -0.047486082 0.01246047
-0.017058183 -0.046910003 0.0125736
-0.016345171 -0.047945835 0.011436701
-0.01523905 -0.047894157 0.012203217
-0.013824903 -0.046791982 0.012850851
-0.012923826 -0.047387362 0.013961524
-0.011861678 -0.047446713 0.014386386
-0.010658012 -0.046895251 0.0149737
-0.0096396739 -0.047127295 0.014877915
-0.0087256338 -0.047990985 0.013912827
-0.0074656005 -0.046926633 0.012653947
-0.0064815213 -0.047531154 0.011903167
-0.0054178145 -0.047676768 0.010945499
-0.0043069776 -0.047376756 0.010812283
-0.003213757 -0.0471351 0.010149151
-0.0021535687 -0.04737851 0.011816025
-0.001062854 -0.046765573 0.013631701
0 -0.047320422 0.015490651
0.0010506714 -0.046229541 0.015604526
0.0021173244 -0.046581134 0.016084343
0.0031755737 -0.046575081 0.016578764
0.0042839469 -0.047123417 0.014921933
0.0054584197 -0.048034094 0.014455706
0.0064771576 -0.047499154 0.012554526
0.0075771669 -0.047627904 0.0096300542
0.0088880369 -0.048884202 0.0092377663
0.0098534524 -0.048172433 0.0089620948
0.010756169 -0.047327146 0.0089738667
0.011800364 -0.047201455 0.0093807876
0.012909287 -0.047334053 0.010480225
0.013906017 -0.047066521 0.011938691
0.01498549 -0.047097251 0.012347162
0.016039001 -0.047047734 0.013502836
0.016971944 -0.046672843 0.012936264
0.018327337 -0.047435455 0.013276726
0.019116679 -0.046729662 0.012581974
0.020253489 -0.046902817 0.012313366
0.021618368 -0.047560409 0.012376517
0.022283318 -0.046688855 0.0132671
0.023869915 -0.04773983 0.013657123
0.024503309 -0.046875894 0.014049321
0.025684044 -0.047087412 0.014007509
0.026647341 -0.046899319 0.014458984
0.027855137 -0.047139462 0.015110582
0.028647467 -0.046684757 0.013952821
0.029845674 -0.046900343 0.013552397
0.030460881 -0.046216507 0.014554799
0.0319915 -0.046920866 0.014351934
0.033031087 -0.046882827 0.015220314
0.033757467 -0.046416514 0.016382813
0.035068579 -0.046758108 0.017659932
0.036509886 -0.047248084 0.018338203
0.036620516 -0.046037219 0.017094493
0.038132396 -0.046606265 0.015093327
0.039468713 -0.046935767 0.013518512
0.040374793 -0.046749759 0.012800574
0.041714564 -0.047062587 0.012227565
0.042718343 -0.046990179 0.011629075
0.04415619 -0.047387127 0.011786163
0.04514068 -0.047290236 0.010995716
0.046472978 -0.047553744 0.010837227
0.04795203 -0.04795203 0.0089102983
0.048540641 -0.047461957 0.0060346425
-0.065393351 -0.046865236 0.0060593784
-0.063601092 -0.046353336 0.0098791718
-0.062792346 -0.046552945 0.010363936
-0.062049411 -0.046809204 0.011910141
-0.060110766 -0.046156481 0.01115033
-0.059123304 -0.046223674 0.010539711
-0.058148652 -0.046303555 0.011169761
-0.057144523 -0.046362538 0.010970384
-0.056049816 -0.046348888 0.009788543
-0.054780565 -0.046187535 0.012471348
-0.053551473 -0.046054266 0.012704879
-0.052537542 -0.046104375 0.013816059
-0.051133797 -0.045807358 0.014645547
-0.050377347 -0.04608991 0.014857411
-0.049571607 -0.046338677 0.015501618
-0.047563903 -0.04544995 0.015180796
-0.047209013 -0.046136085 0.014659911
-0.046290908 -0.046290908 0.015092403
-0.044476487 -0.045535453 0.014600664
-0.04382173 -0.045959372 0.014444977
-0.042891394 -0.04610825 0.015113115
-0.041657422 -0.04592998 0.015617162
-0.040261693 -0.045559283 0.014807314
-0.039662402 -0.046094138 0.014831156
-0.03837299 -0.045834407 0.01401335
-0.037179902 -0.045678169 0.013085306
-0.036455955 -0.046106059 0.013387352
-0.035277341 -0.045967445 0.013700843
-0.034563262 -0.046444383 0.012587965
-0.032813173 -0.045515046 0.012682498
-0.032177795 -0.046121508 0.010014594
-0.031636927 -0.046909928 0.0066032708
-0.030517481 -0.046866134 0.0055817962
-0.029659571 -0.047235612 0.0052715838
-0.028524825 -0.047175672 0.0060225725
-0.026985765 -0.046415515 0.0074365735
-0.025902979 -0.046409503 0.011509478
-0.024544677 -0.045887873 0.015586764
-0.023544697 -0.046019182 0.015208691
-0.022482546 -0.046035688 0.015552104
-0.021297185 -0.045788947 0.015831351
-0.020211745 -0.045742366 0.015131831
-0.01931913 -0.046151254 0.013137609
-0.018321957 -0.046343774 0.0130907
-0.017224625 -0.046291176 0.012023509
-0.016285945 -0.046686377 0.011650294
-0.014884328 -0.045716152 0.011960924
-0.014005067 -0.046324454 0.012015462
-0.01292657 -0.046320211 0.013310939
-0.011682204 -0.045666799 0.014369071
-0.010742089 -0.046190981 0.0149737
-0.0096308067 -0.046013858 0.015051097
-0.0086023854 -0.046237823 0.014192849
-0.0076258774 -0.046844676 0.013600528
-0.0064796256 -0.046437319 0.013024688
-0.0053971433 -0.046415433 0.010945499
-0.0043057101 -0.046286386 0.010796338
-0.0032240781 -0.046211787 0.01113224
-0.0021586337 -0.046410624 0.011346161
-0.001070051 -0.046012193 0.012066275
0 -0.045785535 0.014122874
0.0010645341 -0.045774963 0.015918076
0.0021318372 -0.045834497 0.015996397
0.0031527835 -0.045189898 0.015996397
0.00423175 -0.045491312 0.014434487
0.0053071198 -0.045641232 0.01454404
0.0062919473 -0.045092288 0.01353842
0.0075083408 -0.046122663 0.012079865
0.0085868677 -0.046154417 0.010711968
0.0097502721 -0.046584636 0.010374397
0.01093179 -0.047006696 0.0093807876
0.011826864 -0.046232291 0.0096686482
0.012940386 -0.04636972 0.0098070502
0.014025548 -0.046392195 0.011208475
0.014929285 -0.045854233 0.012005836
0.015824294 -0.045362972 0.013173461
0.01699491 -0.045673825 0.013328224
0.018094387 -0.045768153 0.013640225
0.019364918 -0.046260636 0.013668686
0.020365927 -0.046091307 0.013604581
0.021394067 -0.045997247 0.013082176
0.022594431 -0.046264786 0.013082176
0.023897622 -0.046708986 0.010993063
0.024445837 -0.045703083 0.013081044
0.025751924 -0.046138864 0.01383543
0.026690781 -0.045908142 0.014618933
0.027662819 -0.045750044 0.014609605
0.02896871 -0.046135355 0.014970869
0.029848572 -0.045838878 0.015012771
0.030635618 -0.045425225 0.015156418
0.031836811 -0.045632761 0.015917331
0.032912489 -0.045652807 0.016024798
0.033789687 -0.045404892 0.015468627
0.035193592 -0.045858316 0.014653504
0.035965055 -0.045485217 0.015876025
0.036968511 -0.045418456 0.014096409
0.038903411 -0.046467964 0.013967603
0.039590921 -0.046011068 0.014401555
0.040339675 -0.045647528 0.013839513
0.041728023 -0.046007819 0.013533711
0.042669382 -0.045869585 0.012762576
0.043777216 -0.04591269 0.012713701
0.044965267 -0.046035867 0.011091977
0.04550289 -0.04550289 0.01057741
0.047330994 -0.046255291 0.0089384615
0.048640281 -0.046478488 0.0079852343
0.050807364 -0.047493841 0.0050850213
-0.067620769 -0.046558563 0.0050914586
-0.064827166 -0.045379017 0.0060593784
-0.06446705 -0.045891799 0.0070869327
-0.0637554 -0.046167705 0.0088144541
-0.062181745 -0.045818131 0.0092926323
-0.060883049 -0.045662288 0.0095439255
-0.058903929 -0.044981182 0.010056376
-0.058510929 -0.0455085 0.010539711
-0.057235751 -0.045356635 0.010663509
-0.056386419 -0.045542877 0.01056549
-0.055113818 -0.045387849 0.010846466
-0.05394445 -0.04531334 0.011995524
-0.052831352 -0.045284018 0.01280418
-0.051615275 -0.045163367 0.013580501
-0.050396062 -0.045034781 0.014864266
-0.048722532 -0.044485793 0.015634477
-0.048170168 -0.044958822 0.014442205
-0.047611177 -0.045447033 0.014313668
-0.045657314 -0.044595517 0.01501739
-0.044898428 -0.044898428 0.0141325
-0.044149734 -0.045226555 0.013820171
-0.042658757 -0.044791695 0.014381289
-0.04170122 -0.044909008 0.014488906
-0.040540595 -0.044808026 0.014496237
-0.039207991 -0.044506367 0.01448217
-0.038530853 -0.044952665 0.013885647
-0.037424307 -0.044909168 0.013741046
-0.036292884 -0.04483239 0.013731092
-0.035436127 -0.045100529 0.012746274
-0.034179594 -0.044860717 0.01229617
-0.033078529 -0.044816073 0.0115197
-0.032541793 -0.045558508 0.0087856054
-0.031553987 -0.045698877 0.0066032708
-0.030662665 -0.045993999 0.0054729581
-0.029608514 -0.04605769 0.0055413246
-0.028411135 -0.04589491 0.0062705278
-0.027250059 -0.0457801 0.010230005
-0.025991116 -0.045484453 0.013460189
-0.024378434 -0.044517141 0.015032619
-0.023610812 -0.045075186 0.015336484
-0.022194661 -0.044389322 0.017028183
-0.021277327 -0.044682387 0.016605854
-0.020420754 -0.045140617 0.015131831
-0.019518299 -0.045542702 0.013734221
-0.01829998 -0.045211717 0.01246047
-0.017389113 -0.045646422 0.012296647
-0.016038423 -0.044907589 0.012162775
-0.015047747 -0.045143239 0.012378871
-0.014068625 -0.045452483 0.01307556
-0.012737934 -0.044582769 0.013991147
-0.011605919 -0.044313513 0.014369071
-0.01073824 -0.045100611 0.015117586
-0.0096027795 -0.044812974 0.015117586
-0.0085653551 -0.044968113 0.013764352
-0.0074377353 -0.044626415 0.012075037
-0.0064260275 -0.044982195 0.011440933
-0.0054006828 -0.04536574 0.011239678
-0.0043095089 -0.045249846 0.011594713
-0.0032238334 -0.045133669 0.011116296
-0.0021539854 -0.045233697 0.011339694
-0.0010636615 -0.044673786 0.012066275
0 -0.044946451 0.013299257
0.0010773666 -0.045249399 0.014347613
0.0021148112 -0.044411033 0.014842957
0.0032029124 -0.044840775 0.014347613
0.0042694872 -0.044829618 0.014434487
0.0052239243 -0.043880969 0.014842957
0.0063703642 -0.044592552 0.014633149
0.0074708411 -0.044825047 0.014145702
0.0084557356 -0.044392616 0.013811916
0.0096988128 -0.04526113 0.011869401
0.010863731 -0.045627672 0.010477304
0.011956664 -0.045652717 0.010311067
0.012998337 -0.04549418 0.0095691979
0.013940192 -0.045037545 0.010711849
0.014923869 -0.044771608 0.010704905
0.016052058 -0.044945765 0.012471348
0.01690145 -0.044366308 0.013328224
0.01810737 -0.044735856 0.01397419
0.019071206 -0.044499487 0.014444441
0.020197475 -0.044647053 0.014574289
0.021363331 -0.044862997 0.012628764
0.02283054 -0.045661081 0.013082176
0.023720047 -0.045283727 0.011814177
0.024764156 -0.0452215 0.013081044
0.02586036 -0.045255631 0.013582498
0.026626648 -0.044732768 0.014906824
0.027704671 -0.0447537 0.014528304
0.028729603 -0.044690493 0.014554799
0.029659888 -0.044489831 0.014596701
0.03078044 -0.044578567 0.014958858
0.032050136 -0.044870194 0.014585882
0.032844238 -0.044498641 0.01550889
0.034315005 -0.045038443 0.015369505
0.034801882 -0.044293303 0.014080167
0.03613469 -0.044636969 0.013891429
0.037663244 -0.045195896 0.013778865
0.038100317 -0.044450372 0.012818485
0.039737526 -0.045107462 0.013068289
0.040760837 -0.045051452 0.014099032
0.041277498 -0.04445269 0.013693035
0.042243589 -0.044355769 0.01316151
0.043793548 -0.044861682 0.013148785
0.045161877 -0.045161877 0.012787431
0.046059202 -0.044988062 0.010890126
0.047062125 -0.04492294 0.009598434
0.048821043 -0.045566306 0.0068845451
0.050981287 -0.046548132 0.0050850213
-0.066099711 -0.045168135 0.0050234199
-0.064759433 -0.045002319 0.0067867041
-0.062827781 -0.04441274 0.0070869327
-0.061564088 -0.044282943 0.0088907778
-0.060807541 -0.044519808 0.0091755986
-0.059312113 -0.044214487 0.0099325776
-0.058295194 -0.044261165 0.0097917914
-0.057616729 -0.044571437 0.010163128
-0.055690557 -0.043909866 0.010152608
-0.055370186 -0.044513285 0.010741651
-0.053795565 -0.044112366 0.010555744
-0.052363798 -0.043814611 0.012527794
-0.052035972 -0.044447396 0.011802524
-0.050046373 -0.043657474 0.013077766
-0.049089715 -0.043753877 0.013077766
-0.048543163 -0.044228215 0.013128012
-0.046949361 -0.043748271 0.013624549
-0.046050146 -0.043908279 0.01298818
-0.045178413 -0.04410274 0.013831288
-0.043562204 -0.043562204 0.013820171
-0.042807221 -0.043877404 0.01416862
-0.041556418 -0.043687519 0.014488906
-0.040413223 -0.043603741 0.014496237
-0.039441459 -0.0437054 0.014199257
-0.038575459 -0.043933168 0.013819486
-0.037199073 -0.043576058 0.013669759
-0.036672041 -0.044222165 0.013914287
-0.035283569 -0.043837164 0.012851417
-0.034455333 -0.044145893 0.012002289
-0.033795651 -0.044697475 0.0099941194
-0.032110941 -0.043884955 0.00631091
-0.031865571 -0.045051325 0.0053519011
-0.030741656 -0.045014571 0.00501737
-0.029451037 -0.044721946 0.0063208938
-0.028495513 -0.044935234 0.0065186024
-0.027064808 -0.044386286 0.010378361
-0.025659168 -0.043834414 0.013572246
-0.024752384 -0.044123814 0.01546523
-0.023496928 -0.043789733 0.016254097
-0.022186348 -0.043316208 0.017104536
-0.021236729 -0.0435353 0.015991241
-0.020432891 -0.044092029 0.015249103
-0.01935314 -0.044082157 0.01359722
-0.018389151 -0.044350307 0.01246047
-0.017153068 -0.043954737 0.012406737
-0.016156189 -0.044160251 0.012152672
-0.015153447 -0.044377957 0.012804806
-0.013707323 -0.043230791 0.013949007
-0.012811045 -0.043771073 0.013753533
-0.011843008 -0.044142123 0.014603496
-0.010625781 -0.043565702 0.015352011
-0.009629258 -0.043866623 0.01464206
-0.0086408136 -0.044284169 0.014204741
-0.0075334664 -0.044124592 0.013063729
-0.0063818246 -0.043609135 0.011186361
-0.0053329244 -0.043729983 0.01092419
-0.004317651 -0.044255923 0.010626763
-0.0032610544 -0.044567745 0.010103285
-0.0021533251 -0.04414317 0.011113614
-0.0010772184 -0.044165958 0.011514187
0 -0.044250656 0.011150151
0.0010610836 -0.043504428 0.013101101
0.0021558728 -0.044195395 0.012820452
0.0032330311 -0.044184763 0.014031589
0.0042916909 -0.043989833 0.014413148
0.0053541525 -0.043904055 0.014911443
0.0063679959 -0.043514639 0.015547872
0.0074383696 -0.043567594 0.014477998
0.0085447505 -0.043791845 0.014078557
0.0095277419 -0.043404162 0.012803227
0.010760399 -0.044117637 0.011528343
0.011804323 -0.043997932 0.010659218
0.013081701 -0.044695817 0.011140853
0.013820815 -0.043588728 0.0096977651
0.015138171 -0.044333216 0.010704905
0.016068902 -0.043921664 0.013173461
0.016849533 -0.04317693 0.013328224
0.01822946 -0.043965168 0.01397419
0.019069547 -0.043436192 0.015374333
0.020208405 -0.043607611 0.013955325
0.021563878 -0.044205952 0.013397574
0.022420412 -0.043773185 0.0132671
0.023872687 -0.04449001 0.012014449
0.024827598 -0.044257894 0.013769507
0.025813207 -0.044097565 0.014095962
0.026591077 -0.043609366 0.014922738
0.027604733 -0.043530542 0.014878333
0.028612755 -0.043449 0.014465243
0.029948717 -0.04385348 0.014573872
0.030656708 -0.043342244 0.014878333
0.031706266 -0.043331899 0.013951838
0.03310759 -0.043787457 0.014356941
0.03381487 -0.043325301 0.013951838
0.035080079 -0.043584343 0.012258291
0.036339127 -0.043820713 0.011774123
0.037215993 -0.04359588 0.011585385
0.03887561 -0.044275004 0.011103153
0.03927831 -0.043524615 0.012156218
0.040560089 -0.043762203 0.013653249
0.041370403 -0.043491967 0.013347447
0.042828951 -0.043899678 0.013551056
0.044358879 -0.044358879 0.013558358
0.045297503 -0.044218991 0.013145357
0.045863412 -0.043730233 0.0130983
0.046856504 -0.043661747 0.0094435811
0.048206791 -0.043921743 0.0073997676
-0.063847378 -0.043286353 0.0056790709
-0.063532829 -0.043815739 0.0062178373
-0.062507138 -0.04386466 0.0092896819
-0.0606374 -0.043312427 0.0085014403
-0.059449028 -0.043235656 0.0093591213
-0.058069255 -0.043014258 0.0093591213
-0.057044316 -0.043052316 0.0094982982
-0.056467745 -0.043436725 0.0097402632
-0.05476376 -0.042951968 0.010316998
-0.054091819 -0.043273453 0.0106996
-0.05340372 -0.043594874 0.011615932
-0.051117681 -0.042598069 0.01225543
-0.050545905 -0.04301779 0.01276499
-0.049587108 -0.043119222 0.013739318
-0.047855139 -0.042537898 0.013742954
-0.047112249 -0.042829316 0.013163835
-0.046681553 -0.043424699 0.013870478
-0.044434335 -0.042318411 0.014389217
-0.043976396 -0.042903796 0.014499903
-0.043015871 -0.043015871 0.01517871
-0.041635036 -0.0427026 0.014952302
-0.040751494 -0.042896308 0.014519364
-0.039596565 -0.042807091 0.014039695
-0.038452342 -0.042724825 0.013748199
-0.037248518 -0.042569734 0.013685137
-0.036362555 -0.042779475 0.013418645
-0.035432037 -0.042947922 0.01273483
-0.034969054 -0.043711316 0.010834217
-0.033504024 -0.043230999 0.0081987977
-0.032688901 -0.043585196 0.0058351457
-0.032057788 -0.044217635 0.00501737
-0.029911138 -0.044312794 0.0059317052
-0.028855247 -0.044392686 0.0067106783
-0.026532615 -0.042452179 0.0099891722
-0.025790581 -0.042984299 0.013100177
-0.024406087 -0.042445365 0.016281843
-0.023393508 -0.042533651 0.017266572
-0.022308955 -0.042493246 0.017333031
-0.021250522 -0.042501044 0.016169041
-0.020248003 -0.042627372 0.014799654
-0.019465992 -0.043257762 0.012968957
-0.018181462 -0.042779911 0.01315105
-0.017342631 -0.043356575 0.012417614
-0.016333938 -0.043557163 0.013058871
-0.01483126 -0.042375028 0.014480561
-0.013941737 -0.042897649 0.014549524
-0.012901584 -0.04300528 0.014549524
-0.011801274 -0.04291372 0.016512692
-0.010727308 -0.042909231 0.015717745
-0.0096343989 -0.042819552 0.015466601
-0.008556596 -0.042782977 0.015145689
-0.0076270779 -0.0435833 0.012700856
-0.0064576785 -0.043051191 0.011419594
-0.0053997827 -0.043198261 0.010433823
-0.0043548923 -0.043548919 0.010403782
-0.0032595054 -0.043460071 0.010379165
-0.0021405169 -0.042810336 0.011410892
-0.0010707538 -0.042830151 0.011696756
0 -0.042682242 0.011594892
0.0010757896 -0.043031581 0.011594892
0.0021526513 -0.043053024 0.013221323
0.003214366 -0.042858213 0.013509274
0.0042947079 -0.042947076 0.013040721
0.0054149497 -0.043319598 0.014359862
0.0063910671 -0.042607114 0.015192688
0.0074809995 -0.042748567 0.014647305
0.0085255373 -0.042627685 0.014199078
0.0095819905 -0.042586625 0.01406008
0.01061631 -0.04246524 0.012305319
0.011804609 -0.04292585 0.012378573
0.01294161 -0.043138701 0.0098308027
0.014143551 -0.043518618 0.0098378062
0.01501717 -0.042906202 0.011970073
0.016021993 -0.04272531 0.014003128
0.01706812 -0.042670298 0.014041245
0.01793826 -0.042207666 0.016121924
0.019059042 -0.042353425 0.015433252
0.020424182 -0.042998273 0.01533553
0.021260219 -0.042520437 0.014844656
0.022358578 -0.042587765 0.013547778
0.023516126 -0.042756591 0.013001412
0.024583023 -0.042753082 0.014326423
0.025760056 -0.042933427 0.013759494
0.026640102 -0.042624161 0.014910132
0.027485685 -0.04228567 0.015109479
0.028577397 -0.042336881 0.014970869
0.02982061 -0.04260087 0.014957339
0.031103089 -0.042900812 0.015513927
0.032024559 -0.042699408 0.014284223
0.033095211 -0.042703494 0.014026046
0.034361333 -0.042951666 0.013063461
0.035078835 -0.042519797 0.011291891
