ply
format ascii 1.0
comment PCL generated
element vertex 1299
property float x
property float y
property float z
element camera 0
property float view_px
property float view_py
property float view_pz
property float x_axisx
property float x_axisy
property float x_axisz
property float y_axisx
property float y_axisy
property float y_axisz
property float z_axisx
property float z_axisy
property float z_axisz
property float focal
property float scalex
property float scaley
property float centerx
property float centery
property int viewportx
property int viewporty
property float k1
property float k2
end_header
0.018011443 0.01907094 0.01317817
0.01939418 0.01939418 0.012870461
0.020190665 0.019127999 0.013628662
0.021332275 0.019199047 0.013946801
0.02255827 0.019335659 0.015157253
0.023235913 0.019011201 0.015622675
0.024284499 0.019005258 0.015112996
0.025393559 0.019045169 0.014790565
0.026485594 0.019069627 0.014236838
0.027681313 0.019163987 0.013842702
0.028692022 0.019128013 0.014801055
0.029642416 0.01905584 0.014801055
0.030769648 0.019098401 0.01513648
0.031733729 0.019040236 0.015429944
0.032854978 0.019077083 0.015871674
0.03386933 0.019051498 0.016440213
0.03485861 0.019013787 0.018305004
0.035954945 0.019034971 0.017167628
0.036908962 0.018981751 0.017664135
0.037155785 0.018577892 0.018078774
0.038565286 0.018761488 0.017515153
0.040315062 0.019096607 0.017376989
0.040727738 0.018797418 0.0142802
0.042702552 0.019216148 0.013166845
0.043808863 0.019233158 0.011630237
0.044840436 0.019217329 0.012254834
0.046276264 0.019371459 0.011543691
0.046846889 0.019164635 0.012057334
0.047664195 0.019065676 0.012368709
0.049194116 0.019249871 0.012530416
0.049834032 0.019085374 0.012371033
0.05202328 0.019508729 0.0099482834
0.053274948 0.01957039 0.0060561299
0.054164335 0.01949916 0.0050821304
-0.065476194 0.020734128 0.0050131083
-0.06425187 0.020691281 0.0068407655
-0.062017716 0.020316148 0.0096208155
-0.061131399 0.020377135 0.01099813
-0.060059406 0.020377299 0.01175186
-0.058595426 0.020242058 0.010876328
-0.058070771 0.020432308 0.011665881
-0.056700453 0.020326579 0.012657553
-0.055601429 0.020315908 0.012531161
-0.054383006 0.020260336 0.012962162
-0.053009864 0.020143749 0.014066011
-0.051766988 0.020072915 0.014568508
-0.050917216 0.020154731 0.016153783
-0.049697578 0.020090509 0.017006755
-0.04835071 0.019970946 0.016920388
-0.047468111 0.02004209 0.016656727
-0.046700358 0.020166066 0.016450614
-0.045567896 0.020134652 0.01573509
-0.044479143 0.020121517 0.015520424
-0.043374099 0.020100191 0.015707314
-0.042736463 0.02029982 0.015351623
-0.041619111 0.020275978 0.014724851
-0.040243637 0.020121818 0.014852732
-0.039483152 0.020275133 0.014898956
-0.038199779 0.020160995 0.015873015
-0.036841027 0.019999415 0.015244067
-0.036324304 0.020298876 0.015166402
-0.035293303 0.020320389 0.015537232
-0.034442469 0.020450218 0.014408678
-0.0336475 0.020622661 0.013529092
-0.031963315 0.020243434 0.013415903
-0.030884147 0.020234441 0.012128562
-0.030117063 0.020436579 0.010741353
-0.029033285 0.020430829 0.0073675811
-0.028204355 0.020610876 0.0065531433
-0.027123868 0.02061414 0.0064480305
-0.026076438 0.020643847 0.0059323311
-0.024876093 0.020549815 0.0083285868
-0.023424566 0.020230308 0.011070579
-0.022295106 0.020171763 0.012061507
-0.021365102 0.020296849 0.013389915
-0.020129392 0.020129392 0.01361686
-0.019046953 0.020105118 0.013905615
-0.018077645 0.020204429 0.013660967
-0.017026713 0.020219222 0.01246646
-0.016185934 0.020502184 0.010296881
-0.01521135 0.020643976 0.010248303
-0.013842702 0.020231642 0.010296881
-0.012822706 0.02030262 0.012360364
-0.01167998 0.020174513 0.013581276
-0.01053179 0.020010401 0.012573361
-0.0096090529 0.02028578 0.013740957
-0.0085910363 0.020403711 0.012376577
-0.0074343826 0.020179039 0.011529148
-0.0064072995 0.020289782 0.011012614
-0.0053289412 0.020249978 0.011965483
-0.0042454889 0.020166073 0.012138903
-0.0031827246 0.020157257 0.01119259
-0.0021351271 0.020283706 0.012239873
-0.0010604473 0.020148499 0.012931526
0 0.020297846 0.014084637
0.0010428452 0.019814059 0.014420599
0.0021041867 0.019989774 0.014309406
0.0032738997 0.020734698 0.012101948
0.0042915326 0.020384779 0.0087513328
0.0054023284 0.020528849 0.0077362359
0.006553825 0.02075378 0.0072691143
0.007552037 0.020498386 0.007815063
0.008550602 0.020307681 0.0070900619
0.0097241383 0.020528737 0.0088333189
0.010592069 0.020124931 0.01091519
0.011706769 0.020220784 0.0120489
0.012762071 0.020206612 0.012639314
0.013725578 0.020060461 0.012490213
0.014958254 0.020300487 0.013237715
0.015859094 0.020088185 0.014147729
0.016941026 0.020117467 0.013158113
0.018091094 0.020219458 0.013108164
0.019175092 0.020240376 0.012459248
0.020471547 0.020471547 0.01180023
0.021498932 0.020423986 0.012356639
0.022295106 0.020171763 0.014407337
0.023191765 0.020029252 0.015717506
0.024414571 0.020168558 0.016688943
0.025289956 0.020021217 0.015293807
0.026446076 0.020099018 0.014909595
0.027400007 0.020023081 0.014994144
0.028431127 0.020007089 0.014404774
0.029849969 0.020255337 0.014362782
0.030702695 0.020115558 0.015397936
0.031895898 0.020200737 0.015507728
0.032847445 0.020132303 0.015448987
0.033978134 0.020174516 0.015829861
0.034588199 0.019914418 0.016741782
0.035855908 0.020037126 0.016943455
0.036424793 0.019773459 0.017683774
0.037690941 0.019892443 0.017683774
0.038993962 0.020023925 0.017683774
0.039824288 0.019912144 0.017930746
0.041155729 0.020050228 0.014147848
0.042574037 0.020222669 0.013838142
0.043446139 0.020133575 0.012254834
0.04519913 0.020447226 0.012053967
0.046312649 0.020463729 0.012092561
0.047166541 0.020367371 0.012329221
0.048010118 0.020270938 0.012322903
0.048926879 0.020208929 0.01205942
0.05045953 0.020398535 0.0094494522
0.051718377 0.020471858 0.005577594
0.053085234 0.020584071 0.006318748
-0.06550815 0.021836048 0.0056538582
-0.063650593 0.02157647 0.0071225762
-0.062331937 0.02149377 0.0098496079
-0.061388735 0.021539906 0.011456728
-0.060075879 0.021455672 0.01109606
-0.059145913 0.021507604 0.0098178983
-0.058057316 0.021502709 0.010473698
-0.057080854 0.021539945 0.010251582
-0.055415779 0.02131376 0.011136591
-0.054709252 0.021454608 0.012886047
-0.053106248 0.021242499 0.013180465
-0.05223174 0.021319078 0.014177978
-0.050350949 0.020979561 0.016009986
-0.049700148 0.021148998 0.016427487
-0.048715055 0.021180458 0.016920388
-0.047168288 0.020963682 0.016582429
-0.046915825 0.021325376 0.016304195
-0.046187315 0.021482471 0.0158678
-0.044504318 0.021192532 0.015543312
-0.043937691 0.021433018 0.015543312
-0.042636782 0.021318391 0.014868647
-0.041280791 0.021169636 0.014759183
-0.040600486 0.021368677 0.014838427
-0.039346013 0.021268114 0.015082628
-0.037852347 0.021029081 0.015166402
-0.037267629 0.021295788 0.014436275
-0.036148675 0.021263925 0.014383137
-0.035036676 0.021234348 0.013163567
-0.034133319 0.021333324 0.013298094
-0.032930057 0.021245198 0.013114005
-0.032227267 0.021484844 0.012128562
-0.031352486 0.021622403 0.011288226
-0.029960325 0.021400232 0.0087200105
-0.029346401 0.021738073 0.0066846907
-0.028433211 0.021871701 0.0061539412
-0.026889617 0.021511693 0.0064122677
-0.02460319 0.021394076 0.010680914
-0.023366878 0.021242617 0.011517435
-0.022392021 0.021325734 0.013662368
-0.021379543 0.021379543 0.01431635
-0.020078404 0.021135161 0.014128089
-0.01902712 0.021141244 0.013463795
-0.01814165 0.021343118 0.013396978
-0.017186267 0.021482835 0.010195792
-0.01638845 0.021851264 0.010296881
-0.015026307 0.021466153 0.010561317
-0.013858429 0.02132066 0.011013925
-0.012889082 0.021481803 0.012689233
-0.011540615 0.020982936 0.014125943
-0.010634615 0.02126923 0.013644755
-0.0095432261 0.021207169 0.014362872
-0.0085544344 0.021386085 0.011472821
-0.0074104625 0.021172751 0.011437893
-0.0064116358 0.021372119 0.010706365
-0.0053675706 0.021470282 0.011149585
-0.0042537418 0.021268709 0.011300445
-0.0032015203 0.02134347 0.01119259
-0.0021386431 0.02138643 0.011951745
-0.0010669564 0.02133913 0.012817591
0 0.021017645 0.015009135
0.0010473469 0.020946937 0.015254259
0.0021074628 0.021074628 0.015953988
0.0031845297 0.021230198 0.015009135
0.0043146382 0.021573192 0.010527968
0.005392842 0.021571368 0.0085739791
0.0064839767 0.021613255 0.0078250468
0.0076223002 0.021778001 0.0075518191
0.0087034861 0.021758715 0.0073632896
0.0096248714 0.021388605 0.0092276931
0.010645574 0.021291148 0.010800511
0.011735481 0.021337239 0.0120489
0.012737146 0.021228574 0.012160242
0.013761101 0.021170925 0.012160242
0.014902757 0.021289652 0.013385683
0.015930196 0.021240262 0.013653517
0.016932154 0.021165192 0.013385683
0.01803511 0.021217776 0.013878077
0.019280085 0.021422317 0.012390494
0.020295693 0.021363886 0.012960911
0.021313854 0.021313854 0.013228416
0.022301344 0.021239374 0.014407337
0.023550153 0.02140923 0.014740378
0.024247998 0.021085216 0.015968889
0.025421118 0.021184266 0.015980154
0.026567476 0.021253981 0.015827537
0.027407752 0.021082886 0.0156174
0.028885402 0.021396592 0.015479267
0.029739192 0.02124228 0.01535061
0.030595053 0.021100035 0.01535061
0.031953983 0.021302655 0.01544705
0.032627016 0.021049686 0.015697122
0.033764228 0.021102641 0.015926182
0.035088751 0.021265911 0.016868174
0.035566863 0.020921683 0.019073099
0.036847197 0.021055542 0.019405931
0.037749719 0.020972066 0.019779116
0.038955607 0.021057082 0.019710958
0.040003795 0.021054627 0.018282175
0.041533731 0.021299347 0.015214711
0.04250589 0.021252945 0.011860073
0.043880563 0.021405151 0.010687143
0.044771418 0.021319723 0.010325879
0.045645744 0.021230577 0.010325879
0.047448538 0.021567516 0.010325879
0.048039757 0.021351002 0.0094243288
0.048940487 0.021278471 0.0090481043
0.050558664 0.021514324 0.007850647
0.051381305 0.021408876 0.0065747499
-0.064936303 0.022727707 0.005520016
-0.064115345 0.022820717 0.0065559149
-0.063047655 0.022827599 0.0092970431
-0.061326068 0.022593815 0.0108549
-0.059990682 0.022496505 0.0099383891
-0.059042279 0.022543415 0.0095136762
-0.058529064 0.022761302 0.0097199678
-0.05729124 0.022700304 0.0093728602
-0.055760495 0.022518663 0.0099934042
-0.054308057 0.022362141 0.010640025
-0.053912256 0.022643147 0.012574017
-0.052254781 0.022394907 0.013185352
-0.050997563 0.022311434 0.014639467
-0.050290789 0.022470353 0.016153783
-0.048475165 0.022129966 0.016473562
-0.047625244 0.022225112 0.015879095
-0.046763424 0.022318907 0.016970485
-0.045762334 0.022349047 0.016404659
-0.044587716 0.022293858 0.015217781
-0.043802988 0.022435676 0.015758336
-0.042120006 0.022113005 0.015794128
-0.04155447 0.022375483 0.014838427
-0.040417977 0.02233625 0.015113264
-0.039071817 0.022175895 0.015639216
-0.038279846 0.022329912 0.015160561
-0.037012376 0.022207426 0.014840543
-0.036121398 0.022310276 0.015113264
-0.035402719 0.022529004 0.014264524
-0.03435624 0.022546284 0.013575554
-0.033123489 0.022438491 0.01317817
-0.032285109 0.022599576 0.0115228
-0.031063182 0.022494029 0.010840207
-0.03046336 0.022847522 0.0085370243
-0.029521469 0.022961142 0.006834507
-0.028277926 0.022839865 0.0052832067
-0.0272402 0.022881769 0.0055672526
-0.026156027 0.022886524 0.0068457723
-0.024563702 0.022427728 0.010816842
-0.023279632 0.022221468 0.012613535
-0.022210391 0.022210391 0.014283895
-0.021093417 0.022148088 0.014390051
-0.020094335 0.022209529 0.013657779
-0.019144043 0.022334719 0.013013214
-0.01806901 0.022320541 0.012981117
-0.017266819 0.022662701 0.010134131
-0.016118012 0.022565218 0.010299742
-0.01501587 0.022523805 0.010296881
-0.013975335 0.022575542 0.011398315
-0.012646413 0.022131225 0.013721317
-0.011644932 0.022231236 0.014071137
-0.010719697 0.022511365 0.014071137
-0.0095020123 0.022171363 0.013055652
-0.0085582118 0.022465305 0.012231171
-0.0074367914 0.022310374 0.011221588
-0.0063808607 0.022333013 0.010272264
-0.0053376593 0.022418169 0.010146379
-0.0042712218 0.022423914 0.01138857
-0.0031923431 0.022346402 0.011421263
-0.0021316716 0.022382554 0.011978835
-0.0010624968 0.022312434 0.012931526
0 0.022151385 0.016706407
0.0010568948 0.022194792 0.016406894
0.0020972074 0.022020679 0.017373174
0.0031782775 0.022247942 0.015266418
0.0043038577 0.022595255 0.013478369
0.0053340057 0.022402825 0.010440201
0.0064553842 0.022593845 0.0074097514
0.0075906417 0.022771925 0.0078174174
0.0086546447 0.022718444 0.0068458915
0.00966857 0.022559999 0.0089171529
0.010624127 0.022310667 0.010414302
0.011806295 0.022539293 0.011492223
0.012837771 0.022466101 0.012067914
0.013816309 0.022318654 0.012458593
0.014876148 0.022314223 0.013055712
0.015992055 0.022388877 0.013505399
0.016820962 0.022077512 0.014045745
0.017951107 0.022174899 0.013948828
0.019128714 0.022316834 0.013643146
0.020103579 0.022219747 0.013846219
0.021371953 0.022440553 0.013643146
0.02260242 0.02260242 0.014509946
0.023347851 0.022286586 0.014697403
0.024158223 0.022057509 0.015441239
0.025309931 0.022146191 0.016039848
0.026384814 0.022163242 0.01613462
0.02755435 0.022255437 0.015827537
0.028650438 0.022283675 0.015978336
0.029398648 0.022048986 0.015876591
0.030517193 0.022098657 0.015876383
0.031762294 0.022233607 0.015876591
0.032481723 0.022003748 0.016760677
0.03401633 0.022323217 0.016028464
0.034187112 0.021755436 0.01729098
0.035857346 0.022147184 0.019004941
0.036534671 0.021920804 0.019215494
0.037755851 0.022024248 0.019285113
0.038656779 0.021940334 0.017702013
0.04071974 0.022503015 0.017580479
0.041067567 0.022113306 0.014416575
0.043087028 0.022620691 0.012920976
0.044230163 0.022654474 0.012742341
0.044770852 0.022385426 0.010136157
0.046355907 0.022638932 0.0088666677
0.046912566 0.02239009 0.010333955
0.048534725 0.022649538 0.0085192323
0.05070135 0.023146268 0.0075419247
0.051018447 0.022795476 0.0061886311
-0.064807035 0.024165334 0.0059827864
-0.062186651 0.023588039 0.0077120364
-0.061555084 0.023758102 0.0096877515
-0.0605467 0.023786202 0.0088298917
-0.059273373 0.023709347 0.0087706149
-0.058664717 0.02390044 0.0087706149
-0.056925412 0.023629416 0.009073168
-0.056048274 0.023712732 0.0098178983
-0.054953896 0.023705602 0.010151446
-0.053427871 0.023508262 0.010868222
-0.05231303 0.023487484 0.012521774
-0.051678523 0.02368599 0.013237596
-0.0493889 0.023118209 0.01451844
-0.048538312 0.023213975 0.014717907
-0.047975611 0.023454741 0.015244365
-0.046549533 0.023274766 0.0156295
-0.045628726 0.023344928 0.014644474
-0.045243032 0.02369873 0.014945567
-0.043211136 0.02318646 0.015114605
-0.04233494 0.023284217 0.015566647
-0.041582037 0.023456534 0.0146752
-0.040525466 0.023462111 0.01636681
-0.039347019 0.023395523 0.015411735
-0.037855618 0.023133989 0.015555412
-0.036846116 0.023160417 0.015060097
-0.036256853 0.023460316 0.014517844
-0.035271857 0.023514573 0.013798982
-0.034124441 0.023460554 0.013575852
-0.03327338 0.023613365 0.012671828
-0.032060418 0.023510972 0.011481822
-0.031372499 0.023799827 0.0099692047
-0.030564733 0.024015147 0.0079898536
-0.029222304 0.023810765 0.0057713687
-0.028097231 0.023774579 0.0052866638
-0.02736873 0.02408448 0.0053161681
-0.026019804 0.023851488 0.0081311464
-0.024595372 0.023526007 0.011319906
-0.023332695 0.023332695 0.014198959
-0.022115493 0.02316861 0.014829427
-0.021236535 0.023360189 0.014559209
-0.020149425 0.02333091 0.014591813
-0.01907908 0.023318876 0.013440371
-0.018216535 0.023574341 0.011957824
-0.017124349 0.023545979 0.011490136
-0.016206205 0.023769099 0.011428475
-0.015139935 0.023791324 0.011092514
-0.013764623 0.023293978 0.013326526
-0.012770329 0.023412269 0.014024049
-0.011767894 0.023535788 0.015871376
-0.010516191 0.023135619 0.015816569
-0.0095023829 0.023228047 0.014659345
-0.0086179376 0.023699326 0.013246179
-0.0074792597 0.023506245 0.011529148
-0.006432239 0.023584874 0.0099612772
-0.0053491197 0.023536127 0.010935098
-0.0042901314 0.023595721 0.011281043
-0.0032052486 0.023505157 0.011199206
-0.0021363785 0.023500163 0.012217641
-0.0010575447 0.023265984 0.013108939
0 0.023545999 0.017150164
0.0010439069 0.022965951 0.016406894
0.0020892553 0.022981808 0.017008126
0.0031696327 0.023243973 0.016406894
0.0042075771 0.023141675 0.014454395
0.0053695142 0.023625862 0.012234092
0.0064421007 0.023621036 0.0092759728
0.007461363 0.023449996 0.0084407628
0.0087333499 0.02401671 0.0079810917
0.0097412299 0.023811895 0.0090201795
0.010672004 0.023478409 0.0095952749
0.011737768 0.023475535 0.010411769
0.012862342 0.023580961 0.011492223
0.013768578 0.02330067 0.011765748
0.01496275 0.023512892 0.012828141
0.015907779 0.023331409 0.013444573
0.01700657 0.023384035 0.013444573
0.018052116 0.02336156 0.014426291
0.019015582 0.023241267 0.015123785
0.020172533 0.023357669 0.013850391
0.02160868 0.023769548 0.014383018
0.022070805 0.023121795 0.014591664
0.02335543 0.02335543 0.014604241
0.024497513 0.023432402 0.014482349
0.025366357 0.023252493 0.015646309
0.026432943 0.023260988 0.015980154
0.027387969 0.023174435 0.016041994
0.028476043 0.023202701 0.016368151
0.029605599 0.023261542 0.016276449
0.030687464 0.023280144 0.016410649
0.031579565 0.023158347 0.016904682
0.032558311 0.023105895 0.017330527
0.033213604 0.022834351 0.01742959
0.034448881 0.022965919 0.017800868
0.035456553 0.022942474 0.018222898
0.03656378 0.022982948 0.018222898
0.037447397 0.02288452 0.017702013
0.039207947 0.023312831 0.01837796
0.039836802 0.02306341 0.017134935
0.041556042 0.02344187 0.014075547
0.042943187 0.023618752 0.013799548
0.044142354 0.023686139 0.012742341
0.045454115 0.023809299 0.010151118
0.046508554 0.023795074 0.010719359
0.047524143 0.023762072 0.010111988
0.048806015 0.023860717 0.0077622831
0.049620654 0.023731615 0.0071295202
-0.062652789 0.025280951 0.0081904531
-0.060599148 0.024888936 0.0073902309
-0.059298389 0.024797508 0.0080151856
-0.057809617 0.024622615 0.0090090036
-0.057064701 0.024763929 0.0088792443
-0.056498867 0.024989884 0.009303689
-0.054699935 0.024668599 0.010384262
-0.053749707 0.024724865 0.01116392
-0.05264334 0.024710141 0.011732489
-0.051021498 0.024447802 0.013050079
-0.050018597 0.024477188 0.013507009
-0.049163107 0.024581553 0.014960706
-0.047536127 0.024296243 0.015244365
-0.046969078 0.024552019 0.015121579
-0.045890477 0.024546068 0.014734924
-0.044456113 0.024345014 0.014945567
-0.043470807 0.024386063 0.014724553
-0.042261221 0.024300205 0.015409201
-0.041363601 0.02439392 0.015368283
-0.040423114 0.024466623 0.016407728
-0.039123993 0.024320319 0.016196996
-0.038096998 0.02433975 0.016594291
-0.037169985 0.024425993 0.015060097
-0.036212623 0.024496773 0.014411151
-0.035078745 0.024448825 0.013211578
-0.034459505 0.024767771 0.012417763
-0.032764502 0.024309145 0.011963904
-0.032015882 0.024545509 0.01052922
-0.031255435 0.024788795 0.0091771781
-0.03045675 0.025018046 0.0067845881
-0.029444532 0.02508238 0.0053811073
-0.028415514 0.0251368 0.005451113
-0.027311744 0.025126804 0.0057894289
-0.025880538 0.024802184 0.0084890127
-0.024166999 0.024166999 0.013886243
-0.023211757 0.024266837 0.015242636
-0.022347303 0.024475617 0.015304714
-0.021160606 0.024334699 0.014834672
-0.019957133 0.024158636 0.014502048
-0.019142089 0.024459338 0.013667017
-0.018219156 0.024649449 0.01199457
-0.017160879 0.024668766 0.010835886
-0.016317997 0.025020931 0.010761946
-0.01493851 0.024541838 0.011992395
-0.013835464 0.024478128 0.012940228
-0.012864922 0.024657769 0.014436901
-0.011605596 0.024266247 0.016203731
-0.010546971 0.024258034 0.016100287
-0.0095815696 0.024486234 0.015816569
-0.0084726065 0.024358744 0.013246179
-0.0074449787 0.024462074 0.011947364
-0.0064558061 0.024747258 0.0098828375
-0.0053751534 0.024725707 0.0098822713
-0.0042853905 0.024640996 0.010624111
-0.0032155735 0.024652733 0.011216164
-0.0021310875 0.024507506 0.011326611
-0.0010642145 0.024476934 0.012527943
0 0.02428519 0.014725596
0.0010523439 0.02420391 0.015401334
0.0021187908 0.024366096 0.01637578
0.0031218897 0.023934489 0.01637578
0.0042457022 0.024412787 0.015223145
0.005413197 0.024900708 0.014832258
0.0064013903 0.024538664 0.012116641
0.0074743768 0.024558667 0.010227799
0.0086668804 0.024917282 0.0097559988
0.0098411962 0.025149727 0.0095718205
0.010787353 0.024810912 0.0092028379
0.011787666 0.024646938 0.0095945895
0.012737142 0.024412856 0.010344714
0.013860774 0.024522908 0.011033028
0.014813306 0.024336146 0.013005674
0.015833467 0.024277983 0.013105303
0.017035333 0.024488293 0.013653517
0.017901735 0.024219997 0.01504302
0.019124575 0.024436958 0.01504302
0.020058801 0.024281707 0.013948828
0.021075489 0.024236813 0.014461279
0.022300066 0.024423882 0.014383018
0.023564788 0.024635915 0.01397866
0.024350114 0.024350114 0.01431033
0.025559694 0.024494708 0.015498877
0.026442919 0.024327487 0.016206503
0.027300436 0.024150386 0.016206503
0.028521266 0.024295893 0.016412765
0.029774908 0.024457961 0.016412765
0.030493023 0.024184123 0.016397595
0.031762742 0.024351437 0.016744614
0.032717463 0.024274245 0.017752618
0.033593457 0.024145298 0.017148435
0.03482648 0.024273003 0.018407226
0.035748597 0.024182875 0.018852025
0.03700443 0.024317198 0.017942727
0.037952941 0.024247713 0.017410696
0.038540859 0.02395783 0.017874926
0.039994773 0.024207361 0.015404642
0.041550275 0.024504008 0.01422739
0.04247202 0.024421412 0.013844281
0.044141192 0.024762133 0.012264192
0.045040961 0.024665289 0.010719359
0.045437608 0.024303839 0.010293931
0.04719007 0.024667537 0.0096766949
0.048573311 0.024826359 0.007850647
0.049271606 0.024635803 0.0052718222
-0.061836623 0.026036473 0.0055313408
-0.060701843 0.026015075 0.0060394704
-0.059283238 0.025869049 0.0072786808
-0.058198702 0.025866088 0.0077689886
-0.057411481 0.025997652 0.0088298917
-0.056060731 0.025874184 0.0093330145
-0.054685894 0.025734538 0.010098517
-0.053738941 0.02579469 0.010503829
-0.052437399 0.025683625 0.010987669
-0.051202696 0.025601348 0.012233943
-0.049781237 0.025420206 0.013733149
-0.048744332 0.025431825 0.01376611
-0.047964759 0.025581203 0.013440698
-0.047156624 0.025721796 0.014208615
-0.045313932 0.025291497 0.014226943
-0.044523407 0.025441946 0.013872206
-0.043839376 0.025662074 0.014867932
-0.042354424 0.025412655 0.015499204
-0.041631665 0.025619486 0.015114844
-0.040170878 0.02537108 0.016407728
-0.039145228 0.025391497 0.016098976
-0.03814603 0.025430687 0.016643763
-0.037177321 0.02549302 0.016098976
-0.035953727 0.025379101 0.014442563
-0.035321873 0.025688635 0.013734996
-0.033736128 0.025302095 0.012563974
-0.033055086 0.025591034 0.011097312
-0.032320775 0.02585662 0.0086985528
-0.031050188 0.025696706 0.0068573356
-0.03036561 0.026027665 0.0050875247
-0.028392423 0.02620839 0.0053811073
-0.027228791 0.026139639 0.0065702498
-0.025819898 0.025819898 0.012085736
-0.024287861 0.025343854 0.013945639
-0.023481127 0.025615774 0.015366018
-0.022232987 0.025409129 0.015565842
-0.021184266 0.025421118 0.014840633
-0.020137887 0.025437331 0.014591813
-0.019207152 0.025609536 0.013930559
-0.018213393 0.025713027 0.011719823
-0.017259574 0.025889359 0.01108852
-0.015991729 0.025586765 0.011277616
-0.014919295 0.025575934 0.012365222
-0.01387061 0.02560728 0.013848931
-0.012671764 0.025343528 0.015124321
-0.011650078 0.025418352 0.015816569
-0.010569159 0.025365982 0.016091406
-0.0094514675 0.025203913 0.014997721
-0.0085268654 0.025580596 0.012152731
-0.0074196076 0.025438655 0.011367679
-0.0064628948 0.025851579 0.0095712841
-0.0053688893 0.025770668 0.0093389452
-0.0042769727 0.025661835 0.010391772
-0.0032032346 0.025625877 0.011192679
-0.0021434354 0.025721226 0.011243939
-0.0010647282 0.025553476 0.01350683
0 0.025385566 0.01408729
0.0010677107 0.025625056 0.016154766
0.0021025341 0.025230406 0.017393649
0.0031648902 0.025319122 0.017106622
0.0042180573 0.025308343 0.015670866
0.0052063894 0.024990669 0.01575622
0.006370876 0.025483504 0.015351623
0.0074984175 0.02570886 0.013481677
0.0084202494 0.025260746 0.011919528
0.009720915 0.02592244 0.010983497
0.010937285 0.026249485 0.0094694793
0.011765193 0.025669513 0.009183228
0.012870342 0.025740683 0.0095617473
0.013919642 0.025697801 0.0103513
0.014854573 0.025464982 0.012377858
0.015944285 0.025510857 0.013142407
0.01678179 0.025172684 0.014140606
0.017996296 0.025406536 0.015044242
0.018995916 0.025327889 0.015475929
0.020120559 0.025415443 0.015576929
0.021153869 0.025384644 0.014461279
0.022550821 0.025772367 0.013102502
0.023356782 0.025480127 0.011970192
0.024458369 0.025521776 0.011852652
0.02550639 0.02550639 0.013119042
0.026369205 0.025314435 0.015163153
0.027433848 0.025323551 0.015493631
0.028663041 0.025478259 0.016368151
0.029719567 0.025473915 0.016318738
0.030280843 0.025060007 0.016318738
0.031687107 0.025349684 0.016880542
0.032673195 0.025295377 0.017663091
0.033718653 0.02528899 0.017364025
0.034645263 0.025196554 0.01840958
0.035817634 0.025283035 0.017519504
0.037069086 0.025418801 0.017087102
0.037980165 0.025320111 0.017356187
0.039172135 0.025408952 0.016676039
0.040442582 0.025542684 0.015300184
0.041116614 0.025302533 0.014416575
0.042938273 0.025762964 0.014491618
0.043568779 0.025503675 0.013758361
0.044447135 0.025398362 0.011788368
0.045951497 0.025647348 0.010758489
0.046318062 0.025264397 0.010383904
0.048310436 0.025765564 0.0082360506
0.050463345 0.0263287 0.0057299733
-0.059496529 0.027043877 0.0060394704
-0.058229063 0.026957899 0.0067980587
-0.056923237 0.026850583 0.0086543262
-0.055832643 0.026842618 0.0088792443
-0.055065628 0.026992956 0.0097328126
-0.053549703 0.026774852 0.01040256
-0.052213442 0.026639514 0.010523379
-0.05158655 0.026867995 0.011612415
-0.04970273 0.026437623 0.012677729
-0.048748117 0.026493542 0.013065934
-0.048237845 0.026798801 0.013065934
-0.04644949 0.026391756 0.013231367
-0.045973193 0.0267286 0.01382789
-0.044936132 0.026747698 0.013687968
-0.043601919 0.026586536 0.014183283
-0.042648382 0.02665524 0.014724553
-0.041422222 0.026552707 0.015085161
-0.040095735 0.026378773 0.015723079
-0.03937025 0.026601519 0.015723079
-0.03808789 0.026449924 0.016098976
-0.037023157 0.026445115 0.015049547
-0.036127653 0.026564453 0.013989955
-0.03510436 0.026594214 0.013498455
-0.03416197 0.02668904 0.011621624
-0.033334099 0.026882337 0.009444505
-0.032228481 0.026857071 0.0082663
-0.031425688 0.02709111 0.005112499
-0.027177582 0.027177582 0.0068744719
-0.025471896 0.026533226 0.013180286
-0.024421113 0.026544688 0.014336318
-0.02340403 0.02659549 0.017053545
-0.022149205 0.0263681 0.016590416
-0.020988973 0.026236219 0.015238672
-0.020159077 0.026525101 0.014908761
-0.01908057 0.026500793 0.012470961
-0.018280907 0.026883688 0.011719823
-0.017080845 0.02668882 0.011795789
-0.015957365 0.026595607 0.012241602
-0.01506688 0.026905144 0.012365222
-0.013799704 0.026537893 0.014119565
-0.012883709 0.026841061 0.014768243
-0.011689122 0.026566187 0.014941126
-0.010509752 0.026274381 0.015816569
-0.0094806906 0.026335254 0.013602525
-0.0085805692 0.026814278 0.012301385
-0.0073447898 0.026231393 0.011805654
-0.0064429245 0.026845518 0.0096656382
-0.0052816607 0.026408304 0.0095475018
-0.0042651235 0.026657021 0.0096342564
-0.0032166212 0.026805177 0.011216223
-0.0021274078 0.026592597 0.012753427
-0.0010674869 0.026687173 0.013804227
0 0.02680745 0.01433593
0.0010511165 0.026277913 0.014384687
0.0021313026 0.026641283 0.016263545
0.0032246539 0.026872117 0.015451521
0.0042371307 0.026482066 0.015036851
0.0052697943 0.026348973 0.014832258
0.0063786665 0.026577778 0.014046222
0.0074052722 0.026447402 0.014005989
0.0084754284 0.026485715 0.013464361
0.0096132038 0.026703345 0.011129737
0.010680706 0.026701767 0.010102749
0.012025047 0.027329655 0.0089165866
0.012919477 0.026915578 0.0095275342
0.013976825 0.026878512 0.01003322
0.015053257 0.026880817 0.012044638
0.015882563 0.026470939 0.014171302
0.016961174 0.026501834 0.014917433
0.01809692 0.026613118 0.015437514
0.018930648 0.026292568 0.015625626
0.020326549 0.026745459 0.015368283
0.021341505 0.026676884 0.014304757
0.022547392 0.026842134 0.012840688
0.023587177 0.026803611 0.011497289
0.024729941 0.02688037 0.011914164
0.025606027 0.026672946 0.012969732
0.026409237 0.026409237 0.014447987
0.027417051 0.02636255 0.015163153
0.02843081 0.026324823 0.015922934
0.029677657 0.02649791 0.015730798
0.030631818 0.026406739 0.016410649
0.031769685 0.02647474 0.016744614
0.032781102 0.026436372 0.01678139
0.033564068 0.026221929 0.017030507
0.034732081 0.026312184 0.017170429
0.035649333 0.026212746 0.017448694
0.036653947 0.026181391 0.016261935
0.038135894 0.02648326 0.015878707
0.039255898 0.026524255 0.016333312
0.040035877 0.026339393 0.015300184
0.041632462 0.026687477 0.014416575
0.042490937 0.026556838 0.015025765
0.04311293 0.026288372 0.014230072
0.045114078 0.026853619 0.013119042
0.046163131 0.026839031 0.013264269
0.046678398 0.026521817 0.011053205
0.048338536 0.026854742 0.0096769929
0.050063603 0.027208479 0.0063994229
-0.058757283 0.028290542 0.005490005
-0.057310794 0.028114729 0.0069641471
-0.056881353 0.028440677 0.0076570809
-0.054847695 0.027961569 0.0078898966
-0.053598695 0.02787132 0.0093346536
-0.052986585 0.02811533 0.010098517
-0.051389977 0.027836237 0.011781514
-0.050464682 0.027916633 0.012217492
-0.04931609 0.027874311 0.011603117
-0.047941856 0.027699737 0.011541218
-0.047136802 0.027853565 0.011765927
-0.046231326 0.027953824 0.012957245
-0.044784203 0.027723553 0.0136033
-0.043709233 0.027718049 0.013320565
-0.042624727 0.027706074 0.014969945
-0.041299976 0.027533317 0.014738947
-0.040358745 0.027613878 0.01481241
-0.039050203 0.027440682 0.015679747
-0.038156066 0.027557161 0.01481241
-0.036979139 0.027470216 0.0134736
-0.035954989 0.027494989 0.013344377
-0.034930728 0.027521182 0.011338741
-0.034368146 0.027924119 0.0097507834
-0.03345672 0.028060475 0.0089331269
-0.032605663 0.028258242 0.0053794682
-0.028588856 0.028588856 0.0058527589
-0.026707185 0.027775472 0.0094996989
-0.025599062 0.027732316 0.013363749
-0.024291502 0.027459959 0.01526612
-0.023237256 0.027462212 0.016617566
-0.022163562 0.0274406 0.016617566
-0.021009959 0.027312947 0.01562506
-0.02018822 0.027625984 0.014908761
-0.0192734 0.027839357 0.012629956
-0.018172598 0.027793385 0.012493402
-0.017195841 0.027943242 0.012253404
-0.016121743 0.027944356 0.011633873
-0.014833779 0.027548445 0.013108939
-0.013796725 0.027593451 0.014768243
-0.01291232 0.027976694 0.015552282
-0.011641103 0.027515335 0.015839368
-0.010588379 0.027529785 0.016195446
-0.0095897792 0.027703807 0.014997721
-0.0085057188 0.027643586 0.012985319
-0.0075080087 0.02788689 0.011805654
-0.006388606 0.027683958 0.010243863
-0.0052884272 0.027499821 0.0094385445
-0.0042707743 0.027760033 0.0094385445
-0.0032413006 0.02809127 0.011223406
-0.0021343718 0.027746832 0.011288911
-0.0010640926 0.027666407 0.011492014
0 0.027532021 0.012475044
0.0010500978 0.027302541 0.012475044
0.0021455674 0.027892375 0.013749063
0.0032102694 0.027822334 0.013187647
0.0042683408 0.027744213 0.01421383
0.0053675221 0.027911117 0.014403075
0.0063385949 0.027467245 0.014046222
0.0074045234 0.027502516 0.014046222
0.0084779784 0.02755343 0.014879227
0.0095311971 0.027534571 0.013174593
0.010621834 0.027616769 0.012204647
0.01184383 0.02799451 0.010102749
0.01299771 0.028161706 0.0096312761
0.013943776 0.027887553 0.0095617473
0.014918913 0.027706552 0.011673331
0.01590832 0.02757442 0.012989014
0.016946811 0.027538566 0.014558345
0.017951434 0.027455134 0.015302271
0.01889592 0.027294107 0.015123785
0.020247115 0.027706577 0.015272886
0.021184981 0.027540477 0.013866514
0.022464709 0.027813448 0.011475563
0.023654284 0.027955065 0.011080414
0.024508066 0.02770477 0.011014611
0.02575358 0.027899712 0.012525916
0.026743624 0.027813369 0.013598025
0.027641628 0.027641628 0.014957964
0.028570563 0.027512394 0.016031712
0.029535307 0.027425643 0.016124964
0.030086672 0.026974257 0.015714556
0.031586282 0.027374776 0.016425818
0.032540847 0.027292321 0.016425818
0.033877086 0.027525133 0.016486526
0.035140853 0.027686734 0.016187757
0.036023013 0.027547009 0.015522987
0.036762737 0.027309462 0.014949858
0.038559686 0.027848663 0.015171915
0.039204888 0.027549379 0.015751272
0.039960522 0.027341409 0.014098346
0.041455861 0.027637241 0.014989167
0.042234808 0.027452627 0.015197098
0.043711714 0.027719622 0.014746726
0.044679992 0.027659044 0.013119042
0.045939956 0.027777648 0.012656778
0.046857368 0.027688444 0.010245621
0.047628932 0.027518937 0.0094366372
0.049880579 0.02819337 0.0057394207
-0.05651762 0.029345687 0.0059875548
-0.054860346 0.029043714 0.0069271922
-0.054202747 0.029269483 0.008027494
-0.053010523 0.029209882 0.0094220042
-0.052007906 0.02925445 0.010683149
-0.050584272 0.029059051 0.011410445
-0.048701964 0.028585937 0.011826426
-0.048189778 0.028913867 0.011826426
-0.047525592 0.029163433 0.012303323
-0.046197783 0.02900791 0.013374686
-0.044665083 0.028713267 0.013810188
-0.043684732 0.028767994 0.013933927
-0.042448267 0.028652582 0.014969945
-0.041297957 0.028590893 0.013800174
-0.040370561 0.028684346 0.013924778
-0.039052784 0.028497977 0.014728606
-0.038485758 0.02886432 0.013856024
-0.037297636 0.028772462 0.013440579
-0.036126353 0.028688576 0.012213111
-0.035277158 0.02886313 0.011255294
-0.034290712 0.028932789 0.0087945163
-0.033629872 0.029290533 0.0069466233
-0.028142195 0.029224589 0.0050275922
-0.026654225 0.028786562 0.012000859
-0.025508866 0.028697476 0.014844924
-0.024228839 0.028442549 0.017366111
-0.023233438 0.028513765 0.016915381
-0.022046369 0.028345332 0.016919941
-0.02111952 0.028511355 0.016652346
-0.02034308 0.028908588 0.01334399
-0.019335868 0.029003803 0.01109615
-0.018140674 0.02881166 0.011315614
-0.017105477 0.028865492 0.01134035
-0.015881078 0.028585942 0.012943566
-0.014949652 0.028831474 0.01429987
-0.013923299 0.028917622 0.014857322
-0.012619034 0.028392829 0.015010834
-0.011615772 0.02851144 0.014579922
-0.010637113 0.028720206 0.014579922
-0.0095947683 0.028784307 0.014106154
-0.0085894726 0.02898947 0.012425065
-0.0075042164 0.028944837 0.011475444
-0.006418576 0.028883593 0.0088584125
-0.0053657247 0.028974917 0.0086417198
-0.0043111937 0.02910056 0.0086778104
-0.003227808 0.029050274 0.010216773
-0.0021537307 0.029075366 0.011236757
-0.0010614229 0.028658418 0.011483252
0 0.028737349 0.012597442
0.0010679932 0.028835818 0.012818605
0.0021145521 0.028546454 0.014149636
0.0032086449 0.028877806 0.012245059
0.0042987838 0.029016791 0.013771951
0.0053356132 0.028812313 0.013283491
0.006378063 0.028701285 0.013576806
0.0074492884 0.02873297 0.013840258
0.0085130762 0.028731631 0.014599115
0.0095334593 0.02860038 0.01298508
0.010578119 0.028560923 0.013054609
0.011568944 0.0283965 0.013851404
0.012912381 0.029052859 0.012333035
0.014116174 0.029318208 0.012470126
0.014930926 0.028795358 0.012655079
0.015922114 0.028659808 0.014293969
0.016853567 0.028440395 0.014901161
0.017937114 0.028488357 0.014943182
0.019073315 0.028609974 0.015121073
0.019977069 0.028388465 0.015031606
0.0212775 0.028724626 0.012463868
0.02239212 0.02878987 0.011475563
0.023268184 0.02855641 0.010951608
0.024642337 0.028927961 0.0097832978
0.025658987 0.028866362 0.011554509
0.026352149 0.02846032 0.01397565
0.027545542 0.028604986 0.015299767
0.028306928 0.028306928 0.016694337
0.029365629 0.028316857 0.016463667
0.030688824 0.028572354 0.016133606
0.031657543 0.028491791 0.015701503
0.032763034 0.028535547 0.015227377
0.034055896 0.028734664 0.014745712
0.035151102 0.028759994 0.015063465
0.036175817 0.028727857 0.013088822
0.037749454 0.02912101 0.012836695
0.038008038 0.028506031 0.013711452
0.039283652 0.028666448 0.013711452
0.040596109 0.028844604 0.013617426
0.041007493 0.028389802 0.013598144
0.0425984 0.028753921 0.014812499
0.043687213 0.028769627 0.014102966
0.044614259 0.028680595 0.012193024
0.045911662 0.028828254 0.011685163
0.047501642 0.029148737 0.0095962286
0.04795853 0.028775118 0.0071027279
0.049627796 0.029129358 0.0052756667
-0.05412722 0.030311242 0.0062669218
-0.053013422 0.030293385 0.0071660876
-0.052054223 0.030364964 0.0080736279
-0.049979459 0.029774996 0.0102036
-0.049283061 0.029998383 0.011418611
-0.048494454 0.030174324 0.011567563
-0.047161061 0.030011585 0.012272835
-0.046278387 0.030134764 0.012853205
-0.045003075 0.03000205 0.013541013
-0.043334957 0.029594604 0.014095217
-0.042753395 0.029927377 0.013301879
-0.041293316 0.029646484 0.013548076
-0.040269371 0.029672168 0.013672441
-0.039308365 0.02974687 0.013630539
-0.038228411 0.029733211 0.013813466
-0.037166171 0.029732939 0.01253432
-0.036433447 0.030004013 0.011366814
-0.035207149 0.029872732 0.0098364949
-0.03428876 0.030002667 0.0087899864
-0.033603474 0.030351523 0.0062491
-0.028105838 0.030267825 0.0058448613
-0.026716463 0.029922437 0.011982858
-0.02542874 0.029666863 0.014535517
-0.02429175 0.029572565 0.01649785
-0.023192061 0.029517168 0.017193347
-0.021966072 0.029288094 0.016760886
-0.021119561 0.029567387 0.016652346
-0.020311901 0.029933328 0.013640493
-0.019222094 0.029901037 0.011923939
-0.018173736 0.029933212 0.012066752
-0.016887642 0.029553374 0.01238817
-0.015919395 0.029716205 0.01395607
-0.01480412 0.02960824 0.015444994
-0.013696465 0.029500078 0.015680611
-0.012676705 0.029578978 0.014600962
-0.01169204 0.029761557 0.014850795
-0.010530706 0.029485974 0.014547557
-0.0095247142 0.029632445 0.013782918
-0.008465887 0.029630605 0.012664407
-0.0073518017 0.029407207 0.011714786
-0.006486448 0.03027009 0.009981662
-0.0054016048 0.030248988 0.009336561
-0.0043235947 0.030265162 0.010243863
-0.0032232418 0.030083589 0.010795176
-0.0021296402 0.029814964 0.011250198
-0.0010643434 0.029801615 0.011535406
0 0.030004384 0.013219416
0.0010656816 0.029839084 0.013341755
0.0021276937 0.029787714 0.013552606
0.0032188622 0.030042715 0.013172656
0.0042961021 0.030072715 0.012903541
0.0053395662 0.029901572 0.01208511
0.0063569015 0.029665541 0.012401372
0.0074548265 0.029819306 0.012750953
0.0085612452 0.029964356 0.014046222
0.0095745195 0.029787393 0.012775153
0.010596985 0.029671559 0.01376912
0.011548239 0.029395519 0.014406949
0.012628552 0.029466622 0.015842706
0.013764434 0.029646473 0.014639348
0.015171777 0.030343553 0.013938516
0.016139131 0.030126376 0.014602989
0.017048098 0.02983417 0.014602989
0.018115882 0.029837921 0.015045106
0.018935524 0.029455259 0.015619397
0.020337299 0.029970756 0.015426666
0.021154797 0.029616717 0.014863908
0.022154862 0.029539814 0.013731867
0.023646362 0.03009537 0.012442172
0.024649311 0.030007856 0.012442172
0.02545497 0.029697467 0.013404429
0.026387116 0.02955357 0.013655514
0.027220478 0.029314362 0.014957964
0.028289001 0.029336741 0.016292602
0.029705528 0.029705528 0.016463667
0.031007331 0.029938111 0.016694337
0.031632144 0.029523334 0.015878469
0.032785665 0.029612858 0.015333176
0.033687271 0.029476363 0.015078366
0.035471216 0.03009679 0.013219923
0.036484964 0.030046439 0.012564868
0.037267972 0.029814379 0.011981249
0.038474862 0.029924894 0.011665165
0.039628841 0.029989392 0.012582213
0.040382124 0.02975525 0.012708426
0.041201234 0.029580371 0.012880594
0.042557292 0.029790103 0.014378875
0.043811303 0.029919913 0.012431413
0.045031026 0.030020682 0.011221409
0.045695845 0.029755434 0.010387242
0.04720097 0.03003698 0.008255899
0.048366606 0.030094776 0.0061083138
-0.05414493 0.031404059 0.0058809817
-0.052882887 0.031298038 0.0065294802
-0.051737886 0.031258307 0.0075474977
-0.050430622 0.031116769 0.0091374218
-0.049741365 0.031358685 0.010054946
-0.04825208 0.031095782 0.011418611
-0.046953309 0.030946501 0.012009829
-0.046127271 0.031109091 0.012600929
-0.044553164 0.0307629 0.013427794
-0.043706883 0.030914623 0.013892293
-0.04278462 0.031018853 0.014265627
-0.041146789 0.030596331 0.013256013
-0.040195581 0.030675575 0.013073742
-0.039348509 0.030840725 0.013044208
-0.038441937 0.030967118 0.012265354
-0.037371688 0.030965114 0.011128753
-0.036200397 0.03087681 0.011029303
-0.035554983 0.031245288 0.0096991062
-0.034571778 0.031330675 0.0095324218
-0.033398304 0.031243576 0.0059175789
-0.028217643 0.031473529 0.007019639
-0.026567589 0.030818403 0.012774527
-0.025285838 0.030553723 0.014638096
-0.02423998 0.030563453 0.017347842
-0.023122502 0.030479664 0.016776592
-0.022084627 0.030497819 0.016711295
-0.021049013 0.030521071 0.016652346
-0.020176731 0.030796062 0.01266104
-0.019330241 0.031143168 0.012563169
-0.018190147 0.031030253 0.013700008
-0.016886599 0.030606961 0.014388949
-0.015812656 0.030571135 0.015274972
-0.014749596 0.030552734 0.016386777
-0.013799927 0.030784454 0.016386777
-0.012801386 0.030936686 0.016213566
-0.011662552 0.03074673 0.015319705
-0.010609091 0.030766368 0.015043646
-0.0094787031 0.030542489 0.014106154
-0.0084916279 0.030782152 0.012723476
-0.0075016045 0.031078076 0.011930168
-0.0064564752 0.031206299 0.010541916
-0.0053705461 0.031149169 0.0098067224
-0.0043126121 0.031266436 0.010409117
-0.0032078926 0.031009631 0.011032283
-0.0021219652 0.030768493 0.010991424
-0.0010718177 0.031082712 0.011535406
0 0.030945243 0.012704015
0.0010643373 0.030865783 0.012704015
0.0021185593 0.030719111 0.012610018
0.0031714041 0.030656908 0.012230068
0.0042646909 0.030919012 0.012127459
0.005379668 0.031202076 0.011572778
0.0063773021 0.030823627 0.010678798
0.0075535332 0.03129321 0.011470169
0.0085699428 0.031066045 0.012665421
0.0095717283 0.030842239 0.012062848
0.010564102 0.030635897 0.013825923
0.011514764 0.030357108 0.015570998
0.012658412 0.030591162 0.016208649
0.013716958 0.030599367 0.016100138
0.014741938 0.030536871 0.01557219
0.015923871 0.030786151 0.016213
0.017037304 0.030880114 0.016280115
0.017891627 0.030521011 0.016622931
0.01899451 0.030602269 0.016403168
0.020251755 0.030910574 0.01586324
0.021213012 0.030758871 0.015169501
0.022261908 0.030742634 0.013955832
0.023545997 0.031037906 0.01365456
0.024235791 0.030558171 0.01355052
0.025801606 0.031176943 0.014522552
0.026523583 0.030767357 0.015239239
0.027335595 0.030489704 0.015839189
0.028379032 0.030481182 0.016282171
0.02919917 0.030241998 0.016848981
0.030324621 0.030324621 0.015779585
0.03159564 0.030542452 0.015045673
0.032868233 0.030747702 0.013810337
0.034371965 0.031149592 0.012308598
0.035692994 0.031366572 0.012014925
0.03650739 0.031138657 0.011202633
0.037585858 0.031142568 0.0085282028
0.038592398 0.031088322 0.01088655
0.039704777 0.031119961 0.01138863
0.040329024 0.030777413 0.011364996
0.042001359 0.03123178 0.011559695
0.042600654 0.030885475 0.01295808
0.043835867 0.031005858 0.010929704
0.04517556 0.031192647 0.0084053576
0.046317086 0.031237105 0.0070504546
0.047913548 0.031579386 0.0058214068
-0.053606782 0.032820482 0.0060256422
-0.052041516 0.032525945 0.0071660876
-0.051000543 0.032553539 0.0085065961
-0.049334992 0.032174993 0.010332853
-0.04840105 0.032267366 0.010190934
-0.047210749 0.032189149 0.011510491
-0.045778345 0.031938381 0.012178719
-0.044847336 0.032033809 0.012272835
-0.043919679 0.032136347 0.012020409
-0.042452548 0.031839412 0.012611866
-0.041479193 0.03190707 0.012153685
-0.040489614 0.031965483 0.011927873
-0.039377198 0.031927459 0.011403739
-0.038469825 0.032058187 0.011339188
-0.037123192 0.03181988 0.011029303
-0.036424521 0.032139286 0.0099480152
-0.035560504 0.03232773 0.0094768107
-0.034127127 0.031994183 0.0082132518
-0.033294491 0.032220475 0.0059480369
-0.032803193 0.032803193 0.0050540268
-0.02957125 0.032856941 0.0052995384
-0.027717121 0.031981293 0.010421872
-0.026568806 0.031882565 0.01388666
-0.025463307 0.031829134 0.015990019
-0.024249511 0.031629797 0.017256916
-0.023186397 0.031617817 0.016129106
-0.022047434 0.031496335 0.01611957
-0.021271076 0.031906616 0.015325427
-0.020077258 0.031700931 0.014264584
-0.019193308 0.031988848 0.014570177
-0.018084574 0.031913955 0.014960885
-0.01688448 0.0316584 0.015319973
-0.01577786 0.03155572 0.015624374
-0.014592058 0.031268697 0.01657933
-0.013881934 0.032035232 0.016349316
-0.012704958 0.031762395 0.016213566
-0.0115053 0.03137809 0.016083539
-0.010317807 0.030953422 0.01597929
-0.0096099135 0.032033045 0.015149176
-0.0084973667 0.031865124 0.013724118
-0.0074887387 0.032094594 0.013219476
-0.0063133887 0.031566944 0.012411982
-0.0053248736 0.031949244 0.010335088
-0.0042123497 0.031592622 0.012064219
-0.0032063925 0.032063924 0.012064219
-0.0021187789 0.031781685 0.011535406
-0.0010677904 0.032033712 0.012407899
0 0.032075766 0.012960404
0.0010590953 0.031772859 0.012914658
0.0020925114 0.031387672 0.01322186
0.0031908876 0.031908877 0.012684137
0.0043356554 0.032517418 0.012551248
0.0053917537 0.032350522 0.01085946
0.0064151646 0.032075822 0.010106325
0.0075538503 0.032373644 0.010678798
0.0085284924 0.031981848 0.011710465
0.0096219499 0.032073166 0.012054414
0.010548793 0.031646378 0.015365303
0.011536725 0.031463794 0.016018242
0.012682349 0.031705871 0.017336249
0.013606207 0.031398937 0.017596483
0.014794536 0.031702578 0.016213328
0.015846217 0.031692434 0.016803116
0.016798934 0.031498 0.016173005
0.01791417 0.031613242 0.015712112
0.019109119 0.031848531 0.015283585
0.019964166 0.031522367 0.015168607
0.021115609 0.031673413 0.014637917
0.022236157 0.031765938 0.01414746
0.02311427 0.031519458 0.013665318
0.024278833 0.031668041 0.0135037
0.025518661 0.031898327 0.013860941
0.026512669 0.031815205 0.015416145
0.027415795 0.031633612 0.014528811
0.028449202 0.031610224 0.016561836
0.029650712 0.03176862 0.016845822
0.030799229 0.031861272 0.015586466
0.031693563 0.031693563 0.014390975
0.033021986 0.031956762 0.012537152
0.034115493 0.031983275 0.011398315
0.03479258 0.031629618 0.009983331
0.036214408 0.031953886 0.0089305937
0.037364885 0.032027047 0.0089237988
0.038502529 0.032085441 0.0092253387
0.039433207 0.03197287 0.010272563
0.040779449 0.032194301 0.010272563
0.041460309 0.031892546 0.010272563
0.043517433 0.032638077 0.0093356371
0.044296652 0.032412183 0.0080305338
0.045769326 0.032692377 0.0055029988
-0.052118715 0.033660006 0.0063824058
-0.050412077 0.033250518 0.0076905191
-0.049489684 0.033351745 0.0091374218
-0.048704643 0.033552088 0.010180086
-0.046880171 0.033029214 0.010772705
-0.046206441 0.03331162 0.010811657
-0.045341734 0.033466518 0.011273384
-0.044008143 0.033274449 0.010587782
-0.042943049 0.033280864 0.01055643
-0.041929208 0.033328347 0.010592312
-0.040820085 0.033300597 0.0099420846
-0.039725937 0.033283893 0.0099460185
-0.038456053 0.03311494 0.010614961
-0.037368454 0.033097778 0.0096295774
-0.036380596 0.033170544 0.009696871
-0.035385858 0.033241261 0.0082368553
-0.03435535 0.033281747 0.0070354939
-0.033613287 0.033613287 0.0054628849
-0.029252866 0.033586625 0.0060413778
-0.027789176 0.03313325 0.011891365
-0.026604746 0.032989886 0.014335722
-0.02537985 0.032782309 0.016654938
-0.024271455 0.0327137 0.016697615
-0.023081858 0.032524437 0.016676784
-0.022041993 0.032538183 0.015554577
-0.021330204 0.033061817 0.014352769
-0.020143842 0.032866269 0.014281034
-0.019047568 0.032804146 0.014578074
-0.018114196 0.033031769 0.014831483
-0.016929882 0.032801647 0.015094757
-0.015701061 0.032448862 0.015167773
-0.015022246 0.033263545 0.016741186
-0.013682622 0.032627791 0.016786635
-0.012473586 0.032223433 0.016109318
-0.011593366 0.032672215 0.016464025
-0.01056199 0.032742169 0.01597929
-0.0095769139 0.032987148 0.013909698
-0.0084242783 0.032644082 0.013506413
-0.0075260396 0.033329606 0.013472736
-0.0063851373 0.032989878 0.012255967
-0.0052980292 0.032847784 0.011945903
-0.0042565363 0.032988157 0.012548655
-0.0031866357 0.032928571 0.01252988
-0.0021457341 0.033258881 0.012198359
-0.0010635149 0.032968961 0.012690008
0 0.033127375 0.013642013
0.001046128 0.032429971 0.013642013
0.0020888322 0.0323769 0.013783902
0.0032021373 0.033088755 0.013505101
0.0042990893 0.033317942 0.011401474
0.0053515234 0.033179447 0.0098839402
0.0065248245 0.033711597 0.0086622238
0.0074639181 0.033054497 0.009072274
0.0085939802 0.033301674 0.010287166
0.0095320595 0.032832652 0.013825923
0.010517624 0.032604635 0.015340567
0.011498442 0.032404702 0.016574174
0.012725158 0.032873325 0.017596483
0.013664453 0.032584466 0.017861724
0.014687966 0.032523353 0.017715633
0.01574936 0.032548677 0.017893106
