ply
format ascii 1.0
comment PCL generated
element vertex 1261
property float x
property float y
property float z
element camera 0
property float view_px
property float view_py
property float view_pz
property float x_axisx
property float x_axisy
property float x_axisz
property float y_axisx
property float y_axisy
property float y_axisz
property float z_axisx
property float z_axisy
property float z_axisz
property float focal
property float scalex
property float scaley
property float centerx
property float centery
property int viewportx
property int viewporty
property float k1
property float k2
end_header
-0.017160855 -0.017160855 0.011276633
-0.016230499 -0.017312532 0.012465924
-0.014897508 -0.017025724 0.013289422
-0.013897895 -0.017105101 0.013615221
-0.012951137 -0.017268183 0.013242155
-0.011750798 -0.01709207 0.013341039
-0.010822113 -0.01731538 0.012441218
-0.0097947512 -0.017412892 0.011606783
-0.0085787429 -0.017157486 0.0097754002
-0.0075455545 -0.017246982 0.009246856
-0.0064974879 -0.017326634 0.0091783404
-0.005384298 -0.017229754 0.0091783404
-0.0042992742 -0.017197097 0.0098178387
-0.0032201391 -0.017174074 0.011099309
-0.0021365574 -0.017092459 0.012053847
-0.0010629882 -0.017007811 0.012485087
0 -0.016925002 0.01317969
0.0010756608 -0.017210573 0.014597744
0.0021555664 -0.017244531 0.014272332
0.0032084414 -0.017111689 0.014272332
0.0042773415 -0.017109366 0.013809711
0.0053538373 -0.01713228 0.013885081
0.0063425074 -0.016913353 0.013256669
0.007502486 -0.017148539 0.011930764
0.0085119801 -0.01702396 0.012799412
0.0095749218 -0.017022083 0.012699813
0.010973773 -0.017558038 0.011258692
0.011910244 -0.017323991 0.012699813
0.012826172 -0.017101564 0.012791604
0.013824273 -0.017014489 0.013219982
0.014961443 -0.017098792 0.014075816
0.015833231 -0.016888779 0.015181452
0.017163778 -0.017163778 0.013968647
0.018021468 -0.016961381 0.013749361
0.019392809 -0.017238053 0.01206702
0.020480549 -0.017246777 0.011348218
0.021520562 -0.017216451 0.011054218
0.022663981 -0.017267795 0.011438459
0.023694538 -0.017232392 0.012092113
0.024372175 -0.016954556 0.01350981
0.025746316 -0.017164212 0.015204638
0.026504874 -0.016963119 0.015365899
0.02726035 -0.016775601 0.015455097
0.028722696 -0.017020857 0.015455097
0.02983417 -0.017048098 0.015852928
0.030654542 -0.016912851 0.015595496
0.032188807 -0.017167363 0.015321791
0.032991838 -0.017028045 0.015137672
0.034070816 -0.017035408 0.015137672
0.035322819 -0.017126216 0.014790028
0.036078107 -0.016977932 0.015281528
0.03744569 -0.017118031 0.01512745
0.038238402 -0.016994847 0.015610188
0.03924457 -0.016970625 0.015366107
0.04029819 -0.016967658 0.01487413
0.041580584 -0.017058702 0.014039218
0.042672724 -0.01706909 0.013776094
0.043621745 -0.01702312 0.012773871
0.044511367 -0.016956711 0.011048079
0.046030689 -0.017127698 0.0079891682
0.047722746 -0.017353727 0.0052267611
-0.060959645 -0.016328476 0.0056506395
-0.059426613 -0.016207259 0.0061243773
-0.058362361 -0.016211767 0.0063751638
-0.057463642 -0.016263295 0.007558763
-0.055879146 -0.016118985 0.0085530877
-0.054849621 -0.016132241 0.010250628
-0.053917795 -0.016175337 0.01091972
-0.052781429 -0.016157581 0.01120913
-0.051127277 -0.015977275 0.011404872
-0.050463587 -0.0161054 0.012444228
-0.049507067 -0.016143609 0.012644321
-0.048343591 -0.016114531 0.012991697
-0.047346212 -0.016140755 0.013614327
-0.045699038 -0.015941525 0.015124589
-0.044604708 -0.015930252 0.015823215
-0.044137884 -0.016148007 0.015648305
-0.042524017 -0.015946507 0.015285969
-0.041705199 -0.016040461 0.014781207
-0.040735405 -0.016079765 0.013754159
-0.039430175 -0.015985206 0.012285441
-0.038576342 -0.016073477 0.011307746
-0.03749178 -0.016067905 0.010011047
-0.036533646 -0.016117785 0.0083545744
-0.036045641 -0.016384382 0.0052850246
-0.03050421 -0.016341541 0.0062550008
-0.029173581 -0.016207544 0.010546267
-0.027511183 -0.015871836 0.013896555
-0.026549997 -0.015929997 0.01508522
-0.025579466 -0.015987167 0.015324146
-0.024388516 -0.015905553 0.015018553
-0.023510769 -0.016030069 0.013677031
-0.022583108 -0.01613079 0.011685312
-0.021599317 -0.016199488 0.011021644
-0.020342598 -0.016059944 0.011068016
-0.019460421 -0.016217019 0.011151195
-0.018407164 -0.016241616 0.010692775
-0.017205376 -0.016130039 0.012239158
-0.015921529 -0.015921529 0.013289422
-0.014887012 -0.015950369 0.01282838
-0.013922989 -0.016064988 0.013455153
-0.012677584 -0.015846981 0.013666838
-0.011837024 -0.016141398 0.012711942
-0.01071656 -0.01607484 0.012131304
-0.0096279308 -0.016046552 0.011134952
-0.0086385431 -0.016197268 0.0093669593
-0.0075420206 -0.016161473 0.0091783404
-0.0065346723 -0.016336681 0.0094070733
-0.0054146736 -0.01624402 0.009513855
-0.0042977398 -0.016116524 0.010302871
-0.0032222786 -0.016111394 0.011207074
-0.00214237 -0.016067773 0.012267202
-0.0010699152 -0.016048729 0.012308389
0 -0.015973832 0.012753069
0.0010672952 -0.016009428 0.014035583
0.0021438324 -0.016078742 0.013751626
0.0032063755 -0.016031878 0.013314903
0.0043050512 -0.016143942 0.013236851
0.0053168838 -0.015950652 0.013362736
0.0064268336 -0.016067084 0.013674587
0.0075279474 -0.016131315 0.01390487
0.008501593 -0.015940487 0.014840752
0.009632865 -0.016054776 0.014309019
0.010712296 -0.016068444 0.014309019
0.012000507 -0.016364329 0.014465988
0.013098561 -0.016373202 0.013761222
0.013827984 -0.015955366 0.014494151
0.015068602 -0.016144931 0.014457107
0.015907828 -0.015907828 0.015324593
0.017022237 -0.015958346 0.01436922
0.018278833 -0.016128382 0.01502794
0.019367287 -0.016139407 0.014006138
0.020164508 -0.01591935 0.013819039
0.021343717 -0.016007788 0.011770517
0.022531996 -0.016094282 0.011962235
0.023312669 -0.015895003 0.012452334
0.024329752 -0.01586723 0.013675272
0.025396995 -0.015873121 0.015470058
0.026388839 -0.015833303 0.016773432
0.027383128 -0.01579796 0.016685992
0.028694278 -0.015941264 0.016773432
0.029893208 -0.016014218 0.016264945
0.030969443 -0.016018678 0.015652895
0.032009616 -0.016004808 0.014874846
0.0333905 -0.016156694 0.013687253
0.034324825 -0.016089762 0.012728333
0.0353202 -0.016054638 0.013380766
0.036217812 -0.015978446 0.012901217
0.037557643 -0.016096132 0.013818651
0.038200561 -0.015916901 0.014901668
0.03943691 -0.015987935 0.014469951
0.040802255 -0.016106153 0.014432281
0.041177765 -0.0158376 0.014172554
0.043302514 -0.016238444 0.013166994
0.043650776 -0.015969796 0.012707323
0.045485348 -0.016244767 0.011002481
0.046488386 -0.01621688 0.0075409412
0.047626037 -0.016236149 0.005592674
-0.059581313 -0.015166152 0.005096972
-0.058595829 -0.01519151 0.0059719086
-0.05762244 -0.015221022 0.0067639053
-0.055598158 -0.014968734 0.0072740614
-0.055424843 -0.015214663 0.0083979964
-0.053798642 -0.015063619 0.010460258
-0.053014349 -0.015146958 0.010703415
-0.051837564 -0.015119289 0.010734618
-0.050237682 -0.014964416 0.011751205
-0.049567189 -0.015085666 0.011840045
-0.048549566 -0.015104309 0.01226306
-0.046484251 -0.014790444 0.013528436
-0.045752626 -0.014896204 0.0138129
-0.044967607 -0.014989202 0.01538825
-0.043381285 -0.01481312 0.015487611
-0.042675782 -0.014936524 0.013893634
-0.041763339 -0.014991968 0.013635784
-0.040395573 -0.014882579 0.01334548
-0.039725583 -0.0150313 0.012217969
-0.038614761 -0.015016852 0.011120915
-0.03768 -0.015071999 0.009590596
-0.037003502 -0.015236735 0.0065130889
-0.030619295 -0.015309648 0.0067597032
-0.028916838 -0.014993915 0.012717038
-0.027700229 -0.014915507 0.014230788
-0.026750054 -0.01498003 0.015984297
-0.025551116 -0.014904818 0.016328722
-0.024504058 -0.014915513 0.01527673
-0.023384385 -0.014880973 0.0143677
-0.022638822 -0.015092547 0.012622535
-0.021693777 -0.015185645 0.011639655
-0.020534106 -0.015130393 0.011917651
-0.019310961 -0.015019636 0.011921495
-0.018299116 -0.01506986 0.012498587
-0.017130941 -0.014989574 0.013402283
-0.015942149 -0.014879338 0.013970017
-0.014995787 -0.014995787 0.014000148
-0.013683547 -0.014736128 0.013970017
-0.012865119 -0.015009305 0.01362136
-0.011803922 -0.015023175 0.012711942
-0.010518932 -0.014726506 0.011606783
-0.0096617006 -0.015029313 0.0097136796
-0.0086690569 -0.015170849 0.0093669593
-0.0075363051 -0.01507261 0.0091783404
-0.0065513495 -0.015286483 0.0093669593
-0.005392618 -0.015099331 0.009513855
-0.0042742426 -0.014959848 0.009624362
-0.0032397544 -0.015118854 0.010549903
-0.0021531668 -0.015072168 0.012267202
-0.0010646497 -0.014905094 0.012267202
0 -0.015079181 0.012293875
0.0010717794 -0.015004911 0.012482285
0.0021262325 -0.014883627 0.011508048
0.0032375609 -0.015108617 0.010393411
0.0042881356 -0.015008475 0.011453867
0.0054069376 -0.015139426 0.012850165
0.0064676292 -0.015091135 0.013163447
0.0074701975 -0.014940395 0.01390487
0.0085316077 -0.014930313 0.014044493
0.0095668435 -0.014881758 0.014832735
0.010580461 -0.014812645 0.015084952
0.01169135 -0.014879902 0.01500681
0.012879007 -0.015025508 0.014832735
0.013814983 -0.014877673 0.014847547
0.015045239 -0.015045239 0.014786571
0.016005175 -0.014938164 0.015404046
0.016935119 -0.01481823 0.014494926
0.018339483 -0.015103103 0.014650196
0.019230967 -0.01495742 0.014622271
0.020286608 -0.014948027 0.014087409
0.021702299 -0.01519161 0.013834953
0.022319334 -0.014879555 0.014268756
0.023619981 -0.015030898 0.014235824
0.024569822 -0.014955544 0.015687704
0.025434323 -0.014836689 0.016559184
0.026517417 -0.014849754 0.016870826
0.027676513 -0.014902738 0.016697556
0.028916838 -0.014993915 0.016418189
0.030161427 -0.015080714 0.015385091
0.030894678 -0.014914672 0.015200227
0.032329705 -0.015087195 0.013146669
0.033442475 -0.015103052 0.01157704
0.034298748 -0.015005702 0.011652887
0.035716191 -0.015152324 0.011791676
0.03686931 -0.01518148 0.012696594
0.037463274 -0.01498531 0.013017476
0.038531736 -0.014984564 0.013508588
0.039361868 -0.014893679 0.014210433
0.040510837 -0.014925045 0.013969123
0.041477125 -0.014889225 0.013201624
0.043531969 -0.01523619 0.011336744
0.043873407 -0.014981163 0.0094588995
0.044738516 -0.014912838 0.0078591406
0.046380516 -0.015100634 0.0070388019
-0.057281394 -0.014050153 0.0052850544
-0.056633554 -0.014158389 0.0062907636
-0.055377033 -0.014115714 0.0073864162
-0.054147802 -0.014078428 0.0083627701
-0.052494109 -0.013927009 0.0097458065
-0.051664699 -0.013992523 0.010687202
-0.050773833 -0.014043826 0.011120439
-0.049462695 -0.013978587 0.011681437
-0.048013996 -0.01387071 0.012260616
-0.047175802 -0.013938306 0.012508184
-0.046340086 -0.014009793 0.013565838
-0.044742249 -0.013848791 0.014671385
-0.043698099 -0.013855494 0.014193356
-0.042771518 -0.013900744 0.013550013
-0.041449837 -0.013816612 0.012996435
-0.041016813 -0.014032068 0.012521952
-0.039850149 -0.014001403 0.012301534
-0.038705397 -0.013976949 0.010215431
-0.038144253 -0.014167866 0.0087985992
-0.036641154 -0.014009854 0.0058965683
-0.030140128 -0.01399363 0.0099105537
-0.028815836 -0.013874291 0.013489932
-0.027806912 -0.013903456 0.015704989
-0.026388871 -0.013722212 0.016257882
-0.025487557 -0.013805761 0.014989644
-0.024423551 -0.013804615 0.013948768
-0.023532271 -0.013905433 0.01285845
-0.022474578 -0.013912833 0.012395322
-0.021486217 -0.013966042 0.01382637
-0.02043405 -0.013981191 0.013754696
-0.019072589 -0.013774648 0.013503283
-0.01799323 -0.013759528 0.013970017
-0.017008644 -0.013819523 0.014345258
-0.016033929 -0.013896071 0.01469031
-0.014819691 -0.013761141 0.014573485
-0.013832774 -0.013832774 0.01362136
-0.01275436 -0.013817224 0.014541537
-0.011765379 -0.013904539 0.011797875
-0.010622781 -0.013809615 0.010891378
-0.0097370902 -0.014064686 0.010549068
-0.00861568 -0.014000479 0.0090532601
-0.0075855656 -0.01408748 0.0089071393
-0.0064601311 -0.013996951 0.0091740489
-0.0053431029 -0.013892068 0.0089486241
-0.0042629018 -0.013854431 0.0092331469
-0.0032319832 -0.014005261 0.0102714
-0.0021396971 -0.013908031 0.011783749
-0.0010665067 -0.013864586 0.012517273
0 -0.013803626 0.012543947
0.0010687007 -0.013893108 0.012966663
0.0021628554 -0.014058559 0.012507379
0.0032115066 -0.013916529 0.0089268386
0.0043360302 -0.014092098 0.008795619
0.0054040416 -0.014050508 0.01117605
0.0063939542 -0.013853567 0.013067752
0.0074640019 -0.013861718 0.01390487
0.0084826062 -0.013784234 0.015157521
0.009541329 -0.013781919 0.015775353
0.010651415 -0.013846841 0.015630454
0.011630683 -0.013745354 0.015812993
0.012766787 -0.013830686 0.015749335
0.013786055 -0.013786055 0.015749335
0.014938215 -0.013871199 0.015823841
0.015979119 -0.013848569 0.014768451
0.016944339 -0.013767276 0.015114576
0.017976668 -0.013746863 0.015114576
0.019161355 -0.013838757 0.014185578
0.020113666 -0.013761981 0.014653057
0.021128317 -0.013733407 0.014546782
0.02243368 -0.013887515 0.014168739
0.023865616 -0.01410241 0.014514655
0.02449492 -0.013844954 0.015294492
0.025617501 -0.013876147 0.015306473
0.026594155 -0.01382896 0.016234994
0.027587127 -0.013793563 0.016502798
0.028456295 -0.013701178 0.016012102
0.029607322 -0.013746256 0.015459985
0.03078798 -0.013801508 0.014591306
0.032445449 -0.014059694 0.01136595
0.032989446 -0.013834283 0.009581089
0.034517407 -0.014022696 0.009321183
0.036011811 -0.014186472 0.010151774
0.036166288 -0.013828286 0.012532353
0.037336789 -0.01386795 0.012989402
0.038550254 -0.013920926 0.013462245
0.039556008 -0.013898057 0.013712734
0.040975317 -0.014017871 0.012497991
0.042015214 -0.014005071 0.011116207
0.043229964 -0.014049739 0.0095150471
0.044046093 -0.013965833 0.0082349181
0.045513581 -0.014087536 0.0080771744
-0.056257609 -0.012982525 0.0052869022
-0.055618703 -0.013086754 0.0062764883
-0.054176155 -0.013002277 0.007225126
-0.052424036 -0.01283854 0.0075247586
-0.051468249 -0.012867062 0.0093234479
-0.050638337 -0.012928937 0.010261804
-0.049399655 -0.012886866 0.010654569
-0.048151247 -0.012840332 0.011203021
-0.047752559 -0.013023425 0.012512654
-0.045679189 -0.012747681 0.012643456
-0.045160674 -0.01290305 0.013565838
-0.044104181 -0.01290854 0.013758838
-0.042546794 -0.012764039 0.01276952
-0.041710909 -0.012834126 0.012528956
-0.040761758 -0.012872133 0.011915684
-0.039646648 -0.012858372 0.010299146
-0.039119229 -0.013039744 0.0090880394
-0.037790194 -0.012956639 0.0075281858
-0.03666877 -0.012941919 0.0059907138
-0.031567797 -0.013062536 0.0058809519
-0.029997764 -0.012856185 0.011541277
-0.029064354 -0.01291749 0.014061064
-0.027557641 -0.012718911 0.015678853
-0.026241891 -0.012596107 0.015869886
-0.025482239 -0.01274112 0.015417725
-0.024376469 -0.012718157 0.01392585
-0.023504648 -0.012820717 0.012969732
-0.02248016 -0.012845806 0.013114929
-0.021396581 -0.012837949 0.013526291
-0.020289894 -0.01281467 0.014173716
-0.019195726 -0.012797152 0.014612824
-0.017905606 -0.012639251 0.014710099
-0.017100587 -0.012825441 0.015357524
-0.01601051 -0.012808409 0.014496863
-0.01493341 -0.012800065 0.013541132
-0.013795841 -0.012734624 0.0142349
-0.012621571 -0.012621571 0.013847768
-0.011801816 -0.012874709 0.012326747
-0.010643716 -0.01277246 0.010644823
-0.0096034929 -0.012804658 0.010549068
-0.0086300019 -0.012945003 0.0089748502
-0.0075379545 -0.012922208 0.0092043281
-0.0064255325 -0.012851065 0.0093120039
-0.0053669829 -0.012880759 0.0091394782
-0.0043102843 -0.012930852 0.0092331469
-0.0032402801 -0.01296112 0.009776026
-0.0021588798 -0.012953279 0.011581153
-0.0010615923 -0.012739106 0.012543947
0 -0.012818866 0.012915015
0.00107945 -0.0129534 0.012563795
0.0021577827 -0.012946696 0.010321409
0.0032437542 -0.012975017 0.0085340738
0.004349289 -0.013047867 0.0090210438
0.0053761243 -0.012902698 0.010505885
0.0064580753 -0.012916151 0.013067752
0.0074970038 -0.012852007 0.015820831
0.0085022803 -0.012753421 0.016688228
0.0095519442 -0.012735926 0.016890258
0.01069185 -0.01283022 0.016956747
0.011674481 -0.012735798 0.016843319
0.012775092 -0.012775092 0.016558141
0.013693686 -0.012640325 0.016843319
0.014756037 -0.012648031 0.016636401
0.016000463 -0.012800369 0.016024619
0.016842375 -0.01263178 0.014467269
0.018127136 -0.012795624 0.014229447
0.01949054 -0.012993693 0.014229447
0.020245939 -0.012786909 0.015127659
0.020983869 -0.012590322 0.014132708
0.022209192 -0.012690966 0.014132708
0.023128433 -0.012615509 0.014235824
0.024552805 -0.012810159 0.014235824
0.025714401 -0.012857201 0.015519977
0.026477607 -0.012709251 0.015993863
0.02767466 -0.012772921 0.015993863
0.0286818 -0.012747466 0.015993863
0.029842848 -0.012789791 0.015200227
0.031068902 -0.012856097 0.013249785
0.031993959 -0.012797584 0.0089586675
0.033476125 -0.0129585 0.0083613992
0.034846701 -0.013067512 0.0082420111
0.035748012 -0.012999277 0.009321183
0.03679679 -0.012987101 0.011017263
0.037711564 -0.01292968 0.012804955
0.038210142 -0.012736714 0.013345689
0.03976566 -0.01289697 0.013230652
0.041128356 -0.012987902 0.011483371
0.041625742 -0.012807921 0.0095150471
0.043463763 -0.013039129 0.0080358386
0.044598866 -0.013053326 0.0057232678
-0.054119505 -0.01190629 0.006265521
-0.052756805 -0.011843365 0.0070375502
-0.052174881 -0.011956743 0.0090007484
-0.050468367 -0.011811745 0.0094125271
-0.049041048 -0.011727206 0.010261804
-0.048669819 -0.011897067 0.010505378
-0.046980187 -0.011745047 0.011220664
-0.046221863 -0.011824198 0.011316031
-0.045418486 -0.011895317 0.011280149
-0.044040196 -0.011815662 0.010808945
-0.042862773 -0.011787263 0.010390401
-0.04210899 -0.011876895 0.010662526
-0.040939901 -0.011851023 0.0087412
-0.039689891 -0.011799696 0.0087660551
-0.038923144 -0.011893183 0.0082764924
-0.03778439 -0.011875094 0.0066063702
-0.037049271 -0.011986529 0.0059832633
-0.031610601 -0.011990227 0.0067749619
-0.030258689 -0.011887342 0.012122214
-0.028726541 -0.011703405 0.014325649
-0.027643431 -0.011695297 0.016257882
-0.02682169 -0.011801543 0.016634434
-0.02547092 -0.011674172 0.016326815
-0.02456856 -0.01175018 0.013486683
-0.023562565 -0.011781283 0.01303488
-0.022447258 -0.011758087 0.01282531
-0.021448033 -0.011796419 0.013352454
-0.020217312 -0.01170476 0.014612824
-0.018947205 -0.011578848 0.01519677
-0.017944157 -0.011610925 0.015127569
-0.017055042 -0.011725341 0.015526593
-0.015974199 -0.011714413 0.014917374
-0.014963478 -0.011757018 0.014575839
-0.013692291 -0.011585785 0.014575839
-0.012920767 -0.011844036 0.013400018
-0.011764459 -0.011764459 0.012396008
-0.010593905 -0.011653296 0.011650145
-0.0097259358 -0.011887254 0.01099655
-0.0086101452 -0.011838949 0.0097796917
-0.007476212 -0.011748333 0.0092214048
-0.0064764572 -0.011873505 0.0093724728
-0.0053877863 -0.01185313 0.0093963146
-0.0042871893 -0.01178977 0.0091284513
-0.0032492899 -0.011914062 0.0096210241
-0.0021531833 -0.011842509 0.010926038
-0.0010574018 -0.01163142 0.012915015
0 -0.011752143 0.013003141
0.0010648989 -0.011713888 0.013284475
0.0021748822 -0.011961852 0.0092081726
0.0032598951 -0.011952949 0.0088438094
0.0043408247 -0.011937267 0.0087733269
0.0053993664 -0.011878606 0.0080288351
0.0064874273 -0.011893616 0.010262191
0.0074365381 -0.011685988 0.014221638
0.0084780259 -0.011657286 0.015371203
0.0094983354 -0.011609077 0.016340405
0.010587811 -0.011646593 0.016614199
0.011660575 -0.011660575 0.016723573
0.012700705 -0.011642313 0.017325372
0.013740602 -0.011626663 0.017677695
0.014714455 -0.011561357 0.017349303
0.015862735 -0.011632673 0.016652703
0.017042372 -0.011716631 0.015916169
0.018105658 -0.011715425 0.01443699
0.019014062 -0.011619706 0.014271468
0.020371169 -0.011793834 0.014256924
0.021332368 -0.011732803 0.014549792
0.022246573 -0.011652966 0.014226586
0.023566583 -0.011783292 0.014235824
0.024487384 -0.011711357 0.014794141
0.02565199 -0.011757161 0.015031576
0.026839942 -0.011809574 0.015753895
0.027643431 -0.011695297 0.015589029
0.028596824 -0.011650557 0.015701026
0.030321684 -0.01191209 0.014816761
0.031041151 -0.011774229 0.013249785
0.032413818 -0.011885067 0.0084762573
0.033666905 -0.011946321 0.0081271529
0.034845296 -0.01197807 0.0082420111
0.035471912 -0.011823971 0.0093553662
0.03672301 -0.011880974 0.010151774
0.037255209 -0.011708779 0.012081891
0.038278431 -0.011696188 0.011080861
0.039923437 -0.011869129 0.011242121
0.040628616 -0.011760915 0.0093659163
0.041853469 -0.011804825 0.0082308948
0.043156322 -0.011867989 0.0060473979
-0.054156266 -0.010831253 0.0051951706
-0.053041864 -0.01082487 0.006973356
-0.051942937 -0.010821445 0.0084340572
-0.050972421 -0.010845196 0.0091633797
-0.049590208 -0.01078048 0.0099752545
-0.048501242 -0.010778053 0.010347843
-0.047372472 -0.010766471 0.0097910762
-0.047040578 -0.010939669 0.010032088
-0.045385785 -0.010806139 0.0099732876
-0.044346366 -0.010816187 0.0099344254
-0.043450266 -0.010862567 0.0099067092
-0.042497404 -0.010896769 0.0094943047
-0.041449875 -0.010907861 0.0075281858
-0.040134899 -0.010847269 0.0076012909
-0.038967203 -0.010824224 0.0067506135
-0.038014259 -0.010861217 0.0060639083
-0.031531561 -0.010872952 0.0073486865
-0.029727748 -0.010617052 0.012728989
-0.02889427 -0.010701581 0.014658064
-0.02778125 -0.010685096 0.016393602
-0.026298717 -0.010519486 0.016393602
-0.0255237 -0.010634875 0.01480338
-0.024595359 -0.010693634 0.014000744
-0.023455646 -0.010661657 0.013112843
-0.022448726 -0.010689869 0.013112843
-0.021324024 -0.010662012 0.014382929
-0.020093696 -0.010575629 0.014446884
-0.019188492 -0.010660274 0.014676839
-0.018273531 -0.010749135 0.01519677
-0.01711268 -0.010695425 0.01519677
-0.015977073 -0.010651382 0.014591575
-0.01479644 -0.010568886 0.014303833
-0.013965643 -0.010742802 0.014025718
-0.012779039 -0.0106492 0.013908714
-0.01161509 -0.010559173 0.013486326
-0.010718303 -0.010718303 0.012159467
-0.0097194426 -0.010799381 0.011598974
-0.0085931579 -0.010741447 0.0108594
-0.0075197923 -0.01074256 0.010123461
-0.0064293407 -0.010715568 0.010123461
-0.0053567491 -0.010713498 0.0087395906
-0.0043369643 -0.010842411 0.0088331401
-0.0032308507 -0.010769502 0.0097158849
-0.0021378417 -0.010689208 0.011033952
-0.0010753314 -0.010753313 0.013196349
0 -0.010575964 0.013414085
0.0010609457 -0.010609456 0.013414085
0.0021829491 -0.010914746 0.0096745789
0.0032324966 -0.010774989 0.0080467463
0.0043589077 -0.010897269 0.0072253942
0.0054451292 -0.010890258 0.0081455708
0.006422027 -0.010703378 0.010689616
0.0074438518 -0.010634074 0.015396506
0.0084868707 -0.010608588 0.015978009
0.009543932 -0.010604369 0.016157329
0.010626287 -0.010626287 0.016663045
0.011656648 -0.010596952 0.017117321
0.012730053 -0.010608377 0.0173271
0.013695565 -0.010535049 0.016403288
0.014797295 -0.010569495 0.016853273
0.015715754 -0.010477169 0.01661253
0.016915824 -0.01057239 0.016586453
0.018092349 -0.010642557 0.014256924
0.019159993 -0.010644441 0.013751537
0.020357462 -0.010714454 0.013566375
0.021476226 -0.010738113 0.01345405
0.022179 -0.010561428 0.013774782
0.023493137 -0.010678699 0.014046192
0.024358813 -0.010590788 0.014046192
0.025972022 -0.010821675 0.014065176
0.026844736 -0.010737893 0.014178485
0.027523458 -0.010585945 0.014214754
0.028892625 -0.010700972 0.012916684
0.030034218 -0.010726506 0.011889666
0.03141167 -0.010831609 0.010001987
0.032846294 -0.010948765 0.0071618557
0.033631422 -0.010848844 0.0070469975
0.034653127 -0.010829102 0.0071473122
0.035267737 -0.010687193 0.0078612864
0.036124464 -0.010624842 0.0091056824
0.037457418 -0.010702118 0.0099672079
0.039067741 -0.010852151 0.0093518496
0.03968798 -0.010726481 0.0097753406
0.041101672 -0.01081623 0.007729888
0.042982452 -0.011021141 0.0060223341
-0.053279199 -0.0097859753 0.0059030056
-0.051733896 -0.0097001046 0.0073822737
-0.051166054 -0.0097977547 0.0075825155
-0.049331244 -0.0096517643 0.0090107918
-0.048779409 -0.0097558815 0.0094822049
-0.047649864 -0.0097465627 0.009224385
-0.046438683 -0.0097197238 0.0096086264
-0.045719467 -0.0097970283 0.0091320276
-0.044749275 -0.0098230112 0.009193182
-0.043142252 -0.0097070057 0.0074734092
-0.042327166 -0.0097678071 0.0068905652
-0.041366987 -0.0097974436 0.0065851808
-0.040110309 -0.0097565604 0.0062612295
-0.039172769 -0.0097931921 0.0053623319
-0.033285916 -0.0099857748 0.0056144297
-0.031179013 -0.009676245 0.01066348
-0.02989807 -0.0096100932 0.013705313
-0.028912397 -0.0096374648 0.014788985
-0.027414368 -0.0094895884 0.016279191
-0.026554283 -0.009559541 0.014725745
-0.025783701 -0.0096688876 0.014452904
-0.024705999 -0.0096675633 0.013990372
-0.023479799 -0.0096053723 0.01282531
-0.022379743 -0.0095913177 0.013554245
-0.021313107 -0.0095908986 0.014029413
-0.020396845 -0.0096616633 0.013554245
-0.019284997 -0.0096424986 0.014446884
-0.018204207 -0.0096375206 0.015127569
-0.017238442 -0.0096966224 0.014374703
-0.015893955 -0.0095363716 0.013459891
-0.014845936 -0.0095438147 0.013490558
-0.013925282 -0.00964058 0.013486326
-0.012636484 -0.009477363 0.013486326
-0.011755874 -0.0096184425 0.013065815
-0.01075855 -0.0096826945 0.013512194
-0.0095702782 -0.0095702782 0.013089806
-0.0085707521 -0.0096420953 0.0108594
-0.0074715992 -0.0096063409 0.011406481
-0.0064608087 -0.0096912123 0.010763198
-0.0054079648 -0.0097343363 0.011170357
-0.0043318579 -0.00974668 0.0097158849
-0.0032326884 -0.009698065 0.010176182
-0.0021574756 -0.0097086402 0.011741579
-0.0010735664 -0.0096620973 0.013545096
0 -0.0095913522 0.013655007
0.0010679581 -0.0096116224 0.013655007
0.0021362619 -0.0096131777 0.012886375
0.0032699951 -0.0098099848 0.0072368085
0.0044345097 -0.0099776462 0.0071569383
0.0054250322 -0.0097650578 0.0080467463
0.0064962832 -0.0097444244 0.0082610846
0.007470319 -0.0096046953 0.014600128
0.0084410543 -0.009496185 0.015262872
0.00957302 -0.00957302 0.015410185
0.010585478 -0.0095269298 0.016583234
0.011566847 -0.0094637834 0.017369747
0.01267743 -0.0095080724 0.017541826
0.013696376 -0.0094821062 0.01790309
0.014775143 -0.0094983056 0.01790309
0.015889386 -0.0095336307 0.017386109
0.016861277 -0.009484468 0.017235041
0.018174181 -0.0096216248 0.014504075
0.019168803 -0.0095844017 0.013471395
0.020377178 -0.0096523473 0.012934744
0.021546902 -0.0096961055 0.012876689
0.022718519 -0.0097365081 0.012757927
0.023440965 -0.0095894858 0.013460606
0.024526827 -0.0095974533 0.013159573
0.025652263 -0.0096195983 0.012999356
0.026630335 -0.00958692 0.013031602
0.028061256 -0.009713511 0.012101799
0.02874982 -0.009583272 0.011554718
0.029869126 -0.0096007902 0.0087105036
0.03120546 -0.0096844528 0.0078251064
0.032525439 -0.0097576315 0.0075877905
0.033284839 -0.0096633397 0.0071618557
0.034715451 -0.0097637195 0.0072621703
0.035309914 -0.009629976 0.0078304708
0.036675934 -0.0097083356 0.0078304708
0.038031377 -0.009779497 0.0087292492
0.038405575 -0.0096013937 0.0065739155
0.040184427 -0.0097745899 0.0061836839
0.041429251 -0.0098121911 0.0050200522
-0.053258259 -0.0086952262 0.0052335858
-0.05213755 -0.0086895917 0.0065692663
-0.050369091 -0.0085734623 0.007411927
-0.04964307 -0.0086335773 0.0079386234
-0.049245417 -0.0087547405 0.0082847774
-0.047316406 -0.0086029833 0.008289367
-0.047103152 -0.0087633776 0.0082847774
-0.04578808 -0.0087215388 0.0073768198
-0.044261791 -0.0086364467 0.0064171553
-0.043190621 -0.008638124 0.0053717792
-0.042009931 -0.0086174216 0.0053830147
-0.041196194 -0.0086728828 0.0052679777
-0.03284632 -0.008759019 0.0059565008
-0.031136578 -0.0085894009 0.012893081
-0.030102285 -0.0086006531 0.014634043
-0.028531276 -0.0084537109 0.016289026
-0.027596137 -0.0084911184 0.016681671
-0.026719969 -0.0085503897 0.015128225
-0.025526557 -0.0085088527 0.014036536
-0.024740903 -0.0086055314 0.013936192
-0.023499789 -0.0085453782 0.013709277
-0.0223707 -0.0085221706 0.01374507
-0.021443319 -0.0085773272 0.014030784
-0.020286854 -0.0085418336 0.013526291
-0.019146798 -0.0085096881 0.012786776
-0.018270405 -0.0085978378 0.013071656
-0.017024934 -0.0085124671 0.013426155
-0.016067507 -0.0085693374 0.013154387
-0.015094082 -0.0086251898 0.013464689
-0.013912556 -0.008561573 0.01397258
-0.012811919 -0.0085412795 0.013617843
-0.011874477 -0.0086359838 0.013702244
-0.010648202 -0.0085185617 0.014266819
-0.009676652 -0.008601469 0.013963491
-0.0085253706 -0.0085253706 0.013627648
-0.0073789796 -0.0084331194 0.011598974
-0.0064011705 -0.0085348943 0.010944515
-0.0053415024 -0.0085464036 0.011418939
-0.0042708833 -0.0085417666 0.011411995
-0.0032460277 -0.0086560743 0.010873526
-0.0021399111 -0.0085596442 0.011313647
-0.0010629548 -0.0085036382 0.01218012
0 -0.0084812306 0.013437271
0.0010571023 -0.0084568188 0.012571067
0.0021371068 -0.0085484274 0.012364596
0.0032782156 -0.0087419087 0.009719342
0.0043318439 -0.0086636879 0.0080550313
0.0054365974 -0.0086985566 0.0081424415
0.0065840404 -0.0087787211 0.0096029639
0.0074365814 -0.0084989499 0.015396506
0.0085122054 -0.0085122054 0.014847428
0.0095812073 -0.0085166292 0.016035616
0.010578725 -0.0084629804 0.016908675
0.011658627 -0.0084790019 0.017412037
0.012708815 -0.0084725432 0.017644197
0.013759679 -0.0084674945 0.017557889
0.014806634 -0.0084609333 0.017557889
0.015821693 -0.0084382361 0.01752153
0.016799795 -0.0083998973 0.016753912
0.018183427 -0.0085569071 0.014662027
0.019264095 -0.0085618198 0.013581276
0.020534452 -0.0086460849 0.013118058
0.021397045 -0.0085588181 0.012823343
0.022456357 -0.0085548023 0.012709916
0.023560053 -0.0085672922 0.013090104
0.024491729 -0.0085188625 0.013257504
0.025694514 -0.0085648382 0.013257504
0.026792981 -0.0085737538 0.012418926
0.027747979 -0.0085378401 0.012203336
0.029005893 -0.0085943388 0.011231095
0.030349191 -0.0086711971 0.008349061
0.031644411 -0.0087294923 0.0077715218
0.032572754 -0.0086860675 0.0083844066
0.033742581 -0.0087077618 0.0079031885
0.034668665 -0.0086671663 0.0077715218
0.035734825 -0.0086629875 0.0079031885
0.037200391 -0.0087530334 0.0074217021
0.03763802 -0.0086029768 0.0063122213
0.039185762 -0.0087079471 0.0052625835
-0.054660823 -0.0076525151 0.0055276453
-0.053296305 -0.0076137581 0.0061476827
-0.051945284 -0.0075753541 0.006361872
-0.051065806 -0.0076055457 0.0065076947
-0.049873829 -0.0075894953 0.0069903731
-0.048609741 -0.0075615151 0.0073563457
-0.047435921 -0.0075466237 0.0063745677
-0.04707405 -0.0076632174 0.0061391294
-0.045395482 -0.0075659137 0.0061391294
-0.0445498 -0.007606063 0.0050406456
-0.043777425 -0.0076610493 0.0050241947
-0.042506475 -0.0076293671 0.0050241947
-0.032497667 -0.0075827893 0.0053301752
-0.031240309 -0.0075407638 0.012344867
-0.029718837 -0.0074297092 0.014293283
-0.02858516 -0.0074109673 0.016333938
-0.02785209 -0.0074986396 0.017198533
-0.026445881 -0.0074048461 0.016066402
-0.025619764 -0.0074724313 0.014605433
-0.024656661 -0.007504201 0.014205664
-0.023605349 -0.0075107925 0.013171911
-0.022480421 -0.0074934731 0.013667315
-0.021601418 -0.0075604967 0.013776362
-0.020181354 -0.0074352357 0.012669533
-0.019281439 -0.0074983384 0.012601942
-0.018279543 -0.0075268704 0.01306206
-0.017033527 -0.007452168 0.013154387
-0.01607283 -0.0075006536 0.01327157
-0.014983898 -0.007491949 0.013651818
-0.013971826 -0.0075232913 0.013077646
-0.012799355 -0.0074662906 0.013461322
-0.011728892 -0.0074638408 0.013702661
-0.010668814 -0.00746817 0.014581412
-0.0095986612 -0.0074656256 0.014581829
-0.0084614027 -0.0074037272 0.014415532
-0.0075069084 -0.0075069084 0.013645619
-0.0064599914 -0.0075366567 0.013019502
-0.0053591258 -0.0075027766 0.012650609
-0.004278155 -0.0074867718 0.011411995
-0.0031935065 -0.0074515156 0.011207014
-0.0021506194 -0.0075271679 0.011469185
-0.0010781243 -0.0075468696 0.011858791
0 -0.0074675148 0.013591588
0.0010669064 -0.0074683446 0.012989372
0.0021574474 -0.0075510661 0.012796551
0.0032132592 -0.0074976049 0.011082977
0.0043583829 -0.0076271696 0.0087494552
0.0054679425 -0.0076551195 0.00770998
0.0064486526 -0.0075234282 0.0084195137
0.0074079144 -0.0074079144 0.01260075
0.0084711546 -0.0074122604 0.014451265
0.0094949845 -0.007384988 0.015610576
0.010685879 -0.0074801156 0.016507298
0.011578728 -0.007368281 0.016963005
0.012671384 -0.0073916405 0.017188698
0.013748442 -0.0074030072 0.017535329
0.014861065 -0.0074305325 0.018109828
0.01584528 -0.0073944638 0.017561942
0.016958477 -0.0074193333 0.017276883
0.017743157 -0.0073060058 0.017492115
0.019210182 -0.0074706268 0.013628274
0.02045442 -0.0075358385 0.01279068
0.021434579 -0.0075021028 0.012489051
0.022526447 -0.0075088157 0.011767298
0.023697754 -0.0075401948 0.012000531
0.024638461 -0.007498662 0.012301177
0.025908956 -0.0075567793 0.012000531
0.026931141 -0.0075407191 0.010736495
0.028071959 -0.007557835 0.010040849
0.029128779 -0.0075519052 0.0090698004
0.030590715 -0.0076476787 0.0073862374
0.031543612 -0.0076139756 0.0068622828
0.032444775 -0.0075704479 0.0073183775
0.033410627 -0.0075443354 0.0075889528
0.034559436 -0.0075598764 0.0074217021
0.036061309 -0.0076493691 0.0068767071
0.036979057 -0.0076133353 0.0050518811
-0.05215076 -0.006518845 0.005715251
-0.051056471 -0.0065178471 0.0063360631
-0.049995635 -0.0065211696 0.0076726079
-0.048016466 -0.0065476997 0.0050492883
-0.0461949 -0.0064457995 0.0059148371
-0.045998324 -0.006571189 0.0058362782
-0.044874862 -0.0065670526 0.0054086745
-0.032774393 -0.0065548783 0.01023066
-0.030754851 -0.0063630724 0.012344867
-0.029813698 -0.0063886493 0.01428023
-0.028766982 -0.0063926624 0.016066402
-0.027407134 -0.0063247234 0.016731173
-0.026448471 -0.006347633 0.01499179
-0.025730349 -0.0064325873 0.014321089
-0.024598863 -0.0064170943 0.014205664
-0.02349782 -0.0064084963 0.013709277
-0.02238288 -0.0063951081 0.013886541
-0.021281999 -0.0063845995 0.01452747
-0.020102333 -0.0063481047 0.013682067
-0.019311821 -0.0064372742 0.015029818
-0.018298924 -0.0064584436 0.012391537
-0.017196022 -0.0064485082 0.012611568
-0.016113691 -0.0064454768 0.012231588
-0.015001566 -0.0064292424 0.013776392
-0.014005665 -0.0064641526 0.013278961
-0.01274649 -0.0063732448 0.013805747
-0.011758195 -0.0064135613 0.013441622
-0.010767984 -0.006460791 0.014436424
-0.0095529705 -0.0063686473 0.014436424
-0.0085266046 -0.006394953 0.014304817
-0.007463688 -0.0063974466 0.01407969
-0.0063870992 -0.0063870992 0.013471544
-0.0053590392 -0.0064308471 0.01287967
-0.004274915 -0.006412372 0.012650609
-0.0032481407 -0.0064962814 0.01155749
-0.0021537552 -0.006461265 0.011389762
-0.0010714615 -0.0064287689 0.011858791
0 -0.0064372029 0.011934906
0.0010726808 -0.0064360849 0.012421042
0.0021129067 -0.0063387197 0.012571067
0.0032164988 -0.0064329975 0.012158811
0.0043453909 -0.0065180864 0.0097385049
0.0053953128 -0.0064743753 0.0093183219
0.0064617167 -0.0064617167 0.0085853636
0.0075584189 -0.0064786449 0.011329204
0.0085085612 -0.0063814209 0.013380647
0.0095469356 -0.006364624 0.015762329
0.010572337 -0.006343402 0.015779018
0.011597298 -0.006325799 0.017082274
0.012792562 -0.0063962811 0.017053217
0.013741078 -0.0063420362 0.017412037
0.014857403 -0.006367458 0.01766187
0.015844095 -0.006337638 0.01752153
0.016753498 -0.0062825619 0.018150061
0.018001726 -0.0063535501 0.017823547
0.019174781 -0.0063915937 0.014316112
0.020371936 -0.0064332429 0.013310492
0.021671711 -0.0065015135 0.012166113
0.022566995 -0.0064477124 0.011393785
0.023437552 -0.0063920598 0.010766447
0.024715059 -0.0064474065 0.010533214
0.025858883 -0.0064647207 0.010653347
0.026833348 -0.0064400034 0.0097584426
0.028503357 -0.0065776976 0.007158637
0.02934183 -0.0065204063 0.005861789
0.030617496 -0.0065608919 0.006055057
0.03121688 -0.0064586648 0.005861789
0.032511748 -0.0065023494 0.0061266422
0.033598535 -0.0065029417 0.0065363348
0.035268731 -0.0066128867 0.0052991211
-0.045806333 -0.0054531344 0.0058147013
-0.044249721 -0.005396307 0.0054086745
-0.032297626 -0.0053829378 0.0099388659
-0.031318467 -0.0053997352 0.011491805
-0.030124668 -0.0053794049 0.014292687
-0.028498599 -0.0052775182 0.015431494
-0.027846258 -0.0053550494 0.016437054
-0.026580209 -0.0053160414 0.014600515
-0.025512129 -0.0053150267 0.013868362
-0.024708906 -0.0053715012 0.013537079
-0.023566933 -0.0053561209 0.013537079
-0.022489771 -0.0053547076 0.014595687
-0.021269331 -0.0053173327 0.014433175
-0.020078721 -0.0052838735 0.012575239
-0.019133776 -0.0053149378 0.015029818
-0.01838861 -0.0054084146 0.011906594
-0.016967546 -0.005302358 0.012547374
-0.016125211 -0.00537507 0.012189299
-0.015124924 -0.005401758 0.013430566
-0.013912665 -0.0053510247 0.013233542
-0.012790807 -0.0053295027 0.013509065
-0.011788099 -0.0053582266 0.013850659
-0.010726907 -0.0053634536 0.014266819
-0.009556042 -0.0053089126 0.013618261
-0.0084298505 -0.0052686562 0.014258593
-0.007448155 -0.0053201108 0.014347583
-0.0063628112 -0.0053023426 0.01357767
-0.005285759 -0.005285759 0.013141751
-0.0042299456 -0.0052874321 0.012773603
-0.0032263035 -0.005377172 0.011436641
-0.0021505367 -0.0053763418 0.011187553
-0.0010768027 -0.0053840131 0.011741817
0 -0.0054020169 0.011816353
0.0010672912 -0.0053364565 0.012290984
0.002119808 -0.0052995197 0.011823714
0.0032286812 -0.0053811353 0.012372881
0.0042618928 -0.0053273658 0.010458291
0.0054360409 -0.0054360409 0.0084195137
0.0064871782 -0.0054059816 0.0085853636
0.0074374871 -0.0053124907 0.010215849
0.0085810283 -0.0053631426 0.011158973
0.0096174851 -0.0053430474 0.014444739
0.010626337 -0.0053131687 0.014701337
0.011652673 -0.005296669 0.016432136
0.012711092 -0.0052962885 0.016591877
0.013725705 -0.0052791173 0.017069101
0.014851942 -0.0053042648 0.016634643
0.015810823 -0.0052702739 0.017294943
0.016839853 -0.005262454 0.017190248
0.017995093 -0.0052926745 0.017226845
0.018968225 -0.0052689514 0.015102834
0.020513806 -0.0053983699 0.012057751
0.021935519 -0.0054838797 0.011574864
0.022682844 -0.0054006772 0.01034078
0.023629881 -0.0053704274 0.0098187625
0.024917509 -0.0054168496 0.0091871023
0.026135838 -0.0054449658 0.0078932941
0.027357595 -0.0054715187 0.0071407259
-0.045652248 -0.0043478333 0.0054086745
-0.033542197 -0.0043280255 0.0059457123
-0.032127067 -0.0042836093 0.0098653734
-0.031222347 -0.0043065306 0.012275577
-0.029834285 -0.0042620408 0.014292687
-0.028737564 -0.0042574168 0.015431494
-0.027712574 -0.0042634727 0.016828328
-0.026780251 -0.0042848401 0.015242696
-0.025663298 -0.0042772163 0.014686197
-0.024447788 -0.0042517893 0.014686197
-0.023413567 -0.0042570122 0.014787108
-0.022261525 -0.0042402903 0.015125245
-0.021047045 -0.004209409 0.015015066
-0.019931167 -0.0041960352 0.01447612
-0.01940622 -0.0043124934 0.013361543
-0.018377734 -0.0043241726 0.011675537
-0.016907586 -0.0042268964 0.011611998
-0.016297486 -0.0043459963 0.011611998
-0.014866008 -0.0042474307 0.012939364
-0.013888496 -0.0042733834 0.012442023
-0.013003255 -0.0043344186 0.013107002
-0.011841394 -0.0043059615 0.01316461
-0.010693684 -0.0042774738 0.013232052
-0.0096605476 -0.0042935768 0.013441622
-0.0085588349 -0.0042794175 0.013804972
-0.0075247521 -0.0042998581 0.014514714
-0.0064087142 -0.0042724763 0.014566034
-0.0053048078 -0.0042438465 0.013403594
-0.0042644516 -0.0042644516 0.012720734
-0.0031898117 -0.0042530824 0.012765855
-0.0021453537 -0.0042907074 0.011423558
-0.0010734795 -0.0042939181 0.011263639
0 -0.0042992975 0.011751354
0.0010735404 -0.0042941617 0.011755943
0.0021249889 -0.0042499779 0.013032228
0.0031813977 -0.0042418637 0.013815016
0.0042761578 -0.0042761578 0.0097839534
0.0054846625 -0.0043877303 0.0086497664
0.0065140631 -0.0043427087 0.0092746019
0.0076101003 -0.0043486287 0.0094009936
0.0085724909 -0.0042862454 0.010396957
0.0096731652 -0.0042991848 0.011945546
0.010765 -0.0043060002 0.013863653
0.011732112 -0.0042662225 0.014701337
0.012816763 -0.0042722546 0.015762329
0.013801351 -0.0042465697 0.015862763
0.014856624 -0.0042447499 0.016045898
0.015732668 -0.0041953782 0.016675353
0.016894914 -0.0042237286 0.016757727
0.017751198 -0.0041767526 0.01717931
0.018979723 -0.0042177164 0.014710426
0.020329235 -0.0042798389 0.012342215
0.021581717 -0.0043163435 0.010697246
0.022749973 -0.004333328 0.0088797212
0.024061823 -0.0043748771 0.0082867444
0.024933606 -0.0043362794 0.0067672729
-0.033516545 -0.0032435365 0.0089405179
-0.032428741 -0.0032428741 0.011457175
-0.030852668 -0.0031916553 0.012275577
-0.029928608 -0.0032066365 0.014057487
-0.028810462 -0.0032011622 0.015906125
-0.027846064 -0.0032130072 0.016437054
-0.026290949 -0.0031549139 0.015969604
-0.025777796 -0.0032222245 0.01531598
-0.02463313 -0.003213017 0.015131623
-0.023479708 -0.0032017783 0.014939338
-0.022539485 -0.0032199263 0.015557498
-0.021191224 -0.0031786836 0.015045941
-0.020021863 -0.0031613468 0.012900382
-0.019322218 -0.0032203698 0.013945609
-0.018494125 -0.0032636691 0.011695325
-0.01727448 -0.0032389651 0.011506945
-0.015935911 -0.0031871821 0.01208213
-0.014788699 -0.0031690069 0.012742341
-0.013813538 -0.0031877393 0.012346447
-0.01257277 -0.0031431925 0.012227893
-0.011761198 -0.0032075995 0.012171537
-0.010653079 -0.0031959235 0.012695313
-0.0094791632 -0.0031597211 0.01280883
-0.0085648755 -0.0032118282 0.01280883
-0.00758893 -0.0032523985 0.013110846
-0.0064637251 -0.0032318626 0.013618946
-0.005332055 -0.003199233 0.013618946
-0.004199184 -0.0031493881 0.013195753
-0.0032025026 -0.0032025026 0.013456821
-0.0021360107 -0.003204016 0.012668759
-0.0010745395 -0.0032236185 0.012905806
0 -0.0032144825 0.012819082
0.0010682594 -0.0032047778 0.013818085
0.002112719 -0.0031690784 0.014085501
0.0031820161 -0.0031820161 0.013358295
0.0043172236 -0.0032379178 0.011285305
0.0054350928 -0.0032610558 0.0095537007
0.0065204245 -0.0032602123 0.0082222819
0.0075483881 -0.0032350235 0.007566005
0.0086063296 -0.0032273736 0.0094470978
0.009748539 -0.0032495132 0.010467112
0.01065125 -0.0031953752 0.011945546
0.011725663 -0.0031979082 0.013391852
0.012808267 -0.0032020668 0.014161319
0.013799277 -0.0031844485 0.014017105
0.014846711 -0.003181438 0.015734613
0.015891127 -0.0031782254 0.015986562
0.016925501 -0.0031735313 0.016624898
0.017891394 -0.0031573046 0.016065776
0.019239988 -0.0032066647 0.012832791
0.02025909 -0.0031988036 0.011815012
0.021443341 -0.0032165013 0.0081327856
0.022871943 -0.0032674205 0.0070987344
0.023748927 -0.0032384901 0.0067476332
-0.033752635 -0.0021775893 0.0085326433
-0.032217648 -0.0021478431 0.011191159
-0.031165313 -0.0021493318 0.013248086
-0.029988682 -0.0021420487 0.014787376
-0.028500462 -0.0021111453 0.015801638
-0.027523769 -0.0021172131 0.016272604
-0.026610853 -0.0021288681 0.015982091
-0.025588296 -0.002132358 0.01531598
-0.024521507 -0.0021323049 0.014699429
-0.023509542 -0.0021372309 0.014699429
-0.02214855 -0.0021093856 0.015558004
-0.021292647 -0.0021292646 0.013869911
-0.020318422 -0.0021387814 0.012480825
-0.019310459 -0.0021456068 0.012480825
-0.018502701 -0.0021767882 0.0095673203
-0.017100258 -0.0021375322 0.0098040402
-0.016203044 -0.0021604057 0.011042446
-0.015150655 -0.0021643792 0.011972666
-0.013928629 -0.0021428661 0.011627764
-0.013005205 -0.0021675343 0.011565566
-0.011847202 -0.0021540369 0.011680663
-0.010600213 -0.0021200427 0.011680663
-0.0096323797 -0.002140529 0.011680663
-0.0085064853 -0.0021266213 0.011694938
-0.0075045493 -0.002144157 0.011694938
-0.006504796 -0.0021682654 0.012573302
-0.0053022634 -0.0021209053 0.013265491
-0.0042487583 -0.0021243792 0.012948453
-0.0032266981 -0.0021511321 0.013331115
-0.0021284833 -0.0021284833 0.012895197
-0.0010661418 -0.0021322835 0.012774438
0 -0.0021428999 0.013544261
0.0010599834 -0.0021199668 0.014928102
0.0021165323 -0.0021165323 0.014861494
0.0031919433 -0.0021279622 0.014214694
0.0042470517 -0.0021235258 0.013033211
0.0053992057 -0.0021596823 0.010150909
0.0065347925 -0.0021782641 0.0092746019
0.0075271679 -0.0021506194 0.0070056021
0.0086679133 -0.0021669783 0.0074106455
0.0097410092 -0.0021646689 0.0089375377
0.010802587 -0.0021605173 0.010183573
0.011898829 -0.0021634235 0.010236681
0.012840647 -0.002140108 0.012343228
0.013855742 -0.0021316528 0.012617439
0.014979176 -0.0021398824 0.012783706
0.01591057 -0.0021214092 0.013859838
0.016993029 -0.0021241286 0.012772441
0.018200295 -0.0021412112 0.012363762
0.01907034 -0.0021189267 0.011983097
0.020430673 -0.0021505971 0.011603862
0.021798106 -0.0021798108 0.0087608695
0.022654919 -0.0021576113 0.0070624053
0.023899313 -0.002172665 0.0058622658
-0.033340223 -0.0010754911 0.0082178414
-0.032418605 -0.0010806201 0.0093609691
-0.030962784 -0.0010676822 0.013012409
-0.029721567 -0.0010614846 0.014005989
-0.028581217 -0.0010585636 0.015379906
-0.02767748 -0.0010645185 0.015522778
-0.026468091 -0.0010587235 0.015877604
-0.025683485 -0.0010701453 0.01530537
-0.024409726 -0.0010612925 0.014507145
-0.023294112 -0.0010588233 0.013926506
-0.022573294 -0.0010749187 0.013812512
-0.021414643 -0.0010707323 0.013370454
-0.019900853 -0.0010474133 0.011535317
-0.019142883 -0.0010634935 0.011433989
-0.018497696 -0.0010880997 0.0093679428
-0.017073125 -0.0010670703 0.0095469654
-0.016374109 -0.0010916074 0.0096864402
-0.015004911 -0.0010717794 0.011450231
-0.013956489 -0.0010735762 0.010846883
-0.012956326 -0.0010796938 0.011680663
-0.011721264 -0.0010655695 0.011680663
-0.010725273 -0.0010725274 0.01126641
-0.0097954161 -0.0010883796 0.011680663
-0.0086153233 -0.0010769154 0.010402441
-0.0075370539 -0.0010767221 0.010322392
-0.0065088812 -0.0010848136 0.011157721
-0.0053468212 -0.0010693643 0.011157721
-0.0042970888 -0.0010742722 0.012070447
-0.0032051436 -0.0010683812 0.012993932
-0.0021321618 -0.0010660809 0.012705594
-0.001063347 -0.001063347 0.01317203
0 -0.0010462772 0.014198899
0.0010564567 -0.0010564567 0.014928102
0.0021455761 -0.001072788 0.014922649
0.0031685594 -0.0010561865 0.014155269
0.0042753825 -0.0010688456 0.01213339
0.0053623687 -0.0010724737 0.010869861
0.0064558387 -0.0010759732 0.010607719
0.007667643 -0.0010953776 0.0073402524
0.0086718965 -0.0010839871 0.0073402524
0.0096966615 -0.0010774069 0.0074704885
0.010821585 -0.0010821584 0.007324487
0.011826528 -0.0010751389 0.0085638762
0.012821752 -0.0010684794 0.0099535882
0.013947775 -0.0010729058 0.010846853
0.015018561 -0.0010727544 0.01116544
0.016125504 -0.0010750337 0.01116544
0.017295385 -0.0010809615 0.011245877
0.018232569 -0.0010725041 0.011815012
0.019377522 -0.0010765292 0.011671185
0.020341758 -0.0010706187 0.010475129
0.021457274 -0.0010728637 0.0086497068
0.022799628 -0.0010856965 0.006293118
-0.033907592 0 0.006752044
-0.032480728 0 0.0086666942
-0.030901151 0 0.011462837
-0.029982243 0 0.012890071
-0.028727494 0 0.01530844
-0.027595302 0 0.015429825
-0.026439266 0 0.015845418
-0.025680644 0 0.015416741
-0.024635222 0 0.014330775
-0.023745576 0 0.013766229
-0.022442933 0 0.013679653
-0.021144317 0 0.013060391
-0.02047606 0 0.011375785
-0.01944337 0 0.011261076
-0.018367261 0 0.0085344911
-0.017353928 0 0.0088920891
-0.016184965 0 0.0093972683
-0.015059559 0 0.0098040402
-0.013950194 0 0.010717571
-0.012898587 0 0.011723012
-0.01170722 0 0.010697514
-0.010761881 0 0.0092622638
-0.0097334497 0 0.0086780787
-0.0087036248 0 0.0082591772
-0.0075618299 0 0.0079354942
-0.0064243991 0 0.0096536279
-0.0053776284 0 0.010039747
-0.0042551532 0 0.010175347
-0.0032078975 0 0.011414021
-0.0021568022 0 0.012543052
-0.001056887 0 0.013438821
0 0 0.014198899
0.0010635332 0 0.014901817
0.0021260709 0 0.014922649
0.0032106412 0 0.0135414
0.0042951512 0 0.01213339
0.0053331195 0 0.011312842
0.0064489087 0 0.01080519
0.0076151751 0 0.0083375573
0.0087514203 0 0.0073402524
0.0097992877 0 0.0070249438
0.010781997 0 0.0058687329
0.011769574 0 0.0062506497
0.013049982 0 0.0062547028
0.014160144 0 0.0052902699
0.015277108 0 0.0053932071
0.016300129 0 0.0092246234
0.017322734 0 0.0098151565
0.018322729 0 0.0097360015
0.019504772 0 0.0099642873
0.020369595 0 0.0094715357
0.021607153 0 0.0069351792
0.02300941 0 0.0056507289
-0.034237288 0.0011044287 0.0057868361
-0.032504339 0.001083478 0.008472681
-0.031320807 0.0010800278 0.0092487633
-0.029919131 0.0010685404 0.012890071
-0.028536865 0.001056921 0.01411441
-0.027962245 0.0010754709 0.013294935
-0.026618712 0.0010647484 0.0138776
-0.025674721 0.0010697801 0.01400888
-0.024699552 0.0010738935 0.013778716
-0.023257948 0.0010571794 0.013740659
-0.022184562 0.0010564077 0.013179928
-0.021497466 0.0010748734 0.012454271
-0.020482937 0.0010780493 0.010547787
-0.01915933 0.0010644073 0.0092773736
-0.018411735 0.0010830433 0.0080886781
-0.017265165 0.0010790728 0.0085293651
-0.01628728 0.0010858187 0.0093972683
-0.015114966 0.0010796404 0.010804087
-0.013766346 0.0010589497 0.01138705
