ply
format ascii 1.0
comment PCL generated
element vertex 1260
property float x
property float y
property float z
element camera 0
property float view_px
property float view_py
property float view_pz
property float x_axisx
property float x_axisy
property float x_axisz
property float y_axisx
property float y_axisy
property float y_axisz
property float z_axisx
property float z_axisy
property float z_axisz
property float focal
property float scalex
property float scaley
property float centerx
property float centery
property int viewportx
property int viewporty
property float k1
property float k2
end_header
0.041158248 -0.066486403 0.012364894
0.042831697 -0.067459926 0.01078099
0.043862276 -0.067398131 0.011287451
0.04551971 -0.068279564 0.010265857
0.046882603 -0.068688467 0.0094605684
0.047259472 -0.067666978 0.0074757636
0.048905175 -0.068467245 0.0056965351
-0.062942475 -0.067283332 0.0063897073
-0.061613258 -0.067017928 0.0067453384
-0.060706556 -0.067210831 0.0084919333
-0.059891913 -0.067514524 0.008728236
-0.058638349 -0.06732551 0.0089596808
-0.057498094 -0.067261927 0.0087836981
-0.056176167 -0.066979282 0.009120822
-0.055442188 -0.067400306 0.0087283552
-0.053304128 -0.066097118 0.0097018778
-0.053247254 -0.06737408 0.010267228
-0.051601365 -0.066651769 0.01084134
-0.050324179 -0.06638509 0.012084752
-0.048854142 -0.06584689 0.013640463
-0.048610989 -0.066975139 0.014027357
-0.04670006 -0.065804631 0.015014023
-0.045983046 -0.066301137 0.014930367
-0.045458853 -0.067105927 0.014413923
-0.043633044 -0.065981671 0.014647454
-0.042286616 -0.065544255 0.014466137
-0.041866191 -0.066556513 0.014961362
-0.040631223 -0.066293046 0.014835775
-0.039391123 -0.06600675 0.014835775
-0.038466763 -0.06624832 0.015889108
-0.03694614 -0.065447457 0.015792787
-0.036290012 -0.066175908 0.014440745
-0.035182249 -0.066099986 0.01422292
-0.034428474 -0.066705175 0.012481242
-0.033349648 -0.066699296 0.012522966
-0.031960741 -0.066052198 0.011397988
-0.031720106 -0.067815401 0.0056946576
-0.030638345 -0.067842051 0.0056036711
-0.029506847 -0.067756467 0.0052855015
-0.026162554 -0.067586601 0.0065512359
-0.024871252 -0.067044243 0.011025101
-0.023752116 -0.066937782 0.012893617
-0.022356994 -0.066006362 0.014114976
-0.021515302 -0.066697441 0.014434278
-0.020372203 -0.066477716 0.016029686
-0.019180799 -0.066067204 0.015141577
-0.018266555 -0.066619202 0.013162374
-0.01720823 -0.066681892 0.01254192
-0.01608908 -0.066501528 0.01254192
-0.015315409 -0.067825384 0.012385547
-0.013962691 -0.0665913 0.013135344
-0.012974904 -0.067037009 0.011986405
-0.011808362 -0.06655623 0.01291731
-0.010536778 -0.065328024 0.013661683
-0.009641964 -0.066422418 0.013037086
-0.008559512 -0.066336222 0.013438493
-0.0075506447 -0.066877142 0.013266206
-0.0065214015 -0.067387819 0.011976659
-0.0054286583 -0.06731537 0.011103332
-0.0042820699 -0.066372082 0.010163665
-0.0032701881 -0.067583889 0.010422707
-0.00216859 -0.067226291 0.010483027
-0.0010766523 -0.066752441 0.010483027
0 -0.066670462 0.012068301
0.0010750857 -0.066655315 0.013527423
0.0021360521 -0.066217616 0.012840182
0.0032192129 -0.066530406 0.013793021
0.0042439899 -0.065781839 0.014542907
0.005351536 -0.066359051 0.013894409
0.0065044113 -0.067212254 0.013241023
0.0074958201 -0.06639155 0.013309062
0.0086399978 -0.066959985 0.014709353
0.009641422 -0.066418685 0.015485078
0.010712069 -0.066414833 0.016020924
0.011789148 -0.066447929 0.01622963
0.012673515 -0.06547983 0.016957611
0.013662047 -0.065157458 0.016373754
0.01491916 -0.066070572 0.015280664
0.015910242 -0.065762334 0.014564782
0.017165843 -0.066517644 0.014042795
0.018274743 -0.066649064 0.013486236
0.018879576 -0.065029651 0.014031023
0.020359624 -0.066436671 0.013983637
0.021677794 -0.067201167 0.013983637
0.022228098 -0.065625817 0.014840901
0.023340451 -0.065777637 0.014063656
0.024280429 -0.065451592 0.012731999
0.025852179 -0.066784799 0.016299367
0.026905796 -0.066726372 0.016463637
0.027649365 -0.065933108 0.016299367
0.02838839 -0.065188155 0.015311867
0.029899441 -0.066205904 0.014630586
0.030799825 -0.065847896 0.014125824
0.031547911 -0.065199018 0.014044344
0.033180162 -0.066360325 0.013369113
0.033999823 -0.065874659 0.012218058
0.035398271 -0.066505849 0.011389554
0.036594197 -0.066730596 0.011045158
0.037458815 -0.066355616 0.01119712
0.039315913 -0.067710742 0.01056245
0.039888453 -0.066840112 0.011616528
0.040822718 -0.066605493 0.012662172
0.041622918 -0.066169769 0.012791812
0.042816699 -0.066365883 0.011395991
0.044129543 -0.066732481 0.0097251236
0.04574582 -0.067529544 0.0090985298
0.046910591 -0.067638531 0.0060284138
0.047142863 -0.066428587 0.00567168
-0.063453607 -0.066735685 0.005605042
-0.062030613 -0.066383637 0.0074474812
-0.060738962 -0.06616208 0.0072754025
-0.059601918 -0.066103943 0.008100003
-0.058508344 -0.066092752 0.008728236
-0.057614353 -0.06631086 0.0081863999
-0.055615552 -0.065241322 0.0085773766
-0.055529784 -0.066417977 0.0087283552
-0.053972933 -0.06584698 0.0094297528
-0.053055841 -0.066049114 0.0099574029
-0.051390618 -0.065308914 0.010989785
-0.050537005 -0.065590575 0.011667967
-0.049627148 -0.065809913 0.012651056
-0.047879554 -0.064903393 0.012651056
-0.047537416 -0.06590414 0.011745244
-0.046286222 -0.065661848 0.012360364
-0.044622086 -0.064808264 0.014308721
-0.043425512 -0.064608678 0.013399452
-0.042727046 -0.065158747 0.013851345
-0.041685205 -0.065199934 0.01488027
-0.040767219 -0.065442108 0.014099121
-0.039692309 -0.065438665 0.014996409
-0.038156874 -0.0646547 0.01508978
-0.037327748 -0.065056935 0.015503526
-0.03644038 -0.065378331 0.014304012
-0.035052627 -0.06479425 0.014322817
-0.034327872 -0.065437511 0.01281178
-0.033090074 -0.065112717 0.011435866
-0.032874383 -0.066844575 0.0097582936
-0.031887136 -0.067072943 0.005212903
-0.030540351 -0.066534333 0.0053478777
-0.02635142 -0.066976525 0.0092393756
-0.024587117 -0.065209307 0.012581229
-0.023374349 -0.064810701 0.015000552
-0.022088518 -0.064161889 0.015074402
-0.021076638 -0.064283744 0.016672224
-0.020218527 -0.064912111 0.016024917
-0.019440548 -0.065881856 0.014655858
-0.018314358 -0.065716222 0.013921559
-0.017263832 -0.065818362 0.01254192
-0.016220709 -0.065964215 0.01254192
-0.015064762 -0.065639317 0.012700528
-0.014058782 -0.065968126 0.013421655
-0.0128142 -0.065138847 0.013976067
-0.011626542 -0.064474456 0.015207916
-0.010666073 -0.065063052 0.015207916
-0.0095772436 -0.064912431 0.01445201
-0.0085492255 -0.065187842 0.013827413
-0.0074994778 -0.065352589 0.013266206
-0.0064547784 -0.065623581 0.011976659
-0.0053848885 -0.065695643 0.011103332
-0.004349981 -0.066337213 0.0095435977
-0.0032520676 -0.066125378 0.0095435977
-0.0021586749 -0.065839581 0.010769695
-0.0010758511 -0.065626919 0.010769695
0 -0.065314576 0.012566537
0.0010811556 -0.065950491 0.013527423
0.0021812187 -0.066527173 0.013057739
0.0032070407 -0.065209828 0.013057739
0.0043118871 -0.065756276 0.013333976
0.005427382 -0.066214062 0.012338042
0.0064504384 -0.065579459 0.012081563
0.007577105 -0.066029057 0.012799442
0.0086302245 -0.065805458 0.014122218
0.0096905995 -0.065680735 0.016067147
0.010787196 -0.065801896 0.016020924
0.01170144 -0.064889804 0.016840398
0.01268044 -0.064458907 0.016961217
0.013893522 -0.065192685 0.017274588
0.01486825 -0.064783089 0.017003655
0.015906269 -0.064685494 0.016799033
0.017256124 -0.065788969 0.01497981
0.017790154 -0.063835256 0.014283687
0.018940849 -0.064188436 0.014284164
0.01993252 -0.063993879 0.014587581
0.021266887 -0.06486401 0.014587581
0.022625783 -0.06572251 0.01437813
0.023461744 -0.065053016 0.015312523
0.02438226 -0.064665996 0.015767455
0.025445938 -0.064675093 0.016463637
0.026833137 -0.065472856 0.016463637
0.028153937 -0.066053465 0.015767455
0.029040452 -0.06560991 0.014630586
0.029880308 -0.065096386 0.015170366
0.030684048 -0.064542308 0.013700068
0.032129575 -0.065330133 0.014637113
0.032849722 -0.064639769 0.01413247
0.034562469 -0.065884709 0.012253582
0.035268731 -0.065193713 0.011045158
0.036197349 -0.0649423 0.010778815
0.037767045 -0.065822564 0.010934323
0.039090641 -0.066236921 0.0096991956
0.039525729 -0.065164037 0.011486024
0.040817391 -0.065522648 0.011824548
0.042097051 -0.065844104 0.011452079
0.042782232 -0.065242909 0.0094911158
0.04503113 -0.066997528 0.0081519186
0.045281846 -0.065766491 0.0054343641
-0.060943555 -0.064151116 0.005440861
-0.061128944 -0.065495297 0.0055567622
-0.059873313 -0.065316342 0.0063089728
-0.058926594 -0.065473989 0.0071864128
-0.057486359 -0.065078899 0.0074770749
-0.055772625 -0.064353026 0.0082749724
-0.055418793 -0.065198578 0.0084866583
-0.054504268 -0.065405115 0.0095983446
-0.052849311 -0.064713441 0.0099962056
-0.051285762 -0.064107202 0.010347158
-0.051138185 -0.065282792 0.010680646
-0.048815683 -0.063672625 0.012046605
-0.04855239 -0.064736515 0.011955827
-0.047372781 -0.064599246 0.011800915
-0.045810666 -0.063921861 0.012623638
-0.045212757 -0.064589649 0.0134646
-0.044221137 -0.064713851 0.013978511
-0.04272829 -0.064092435 0.013851345
-0.041714523 -0.064176187 0.01415205
-0.040430825 -0.063838139 0.014284104
-0.039326921 -0.063773386 0.014582664
-0.038371962 -0.063953273 0.014582664
-0.037158515 -0.063700311 0.015388489
-0.03648236 -0.064380638 0.01469785
-0.035396721 -0.064357676 0.013395995
-0.034084644 -0.063908704 0.013844043
-0.03361107 -0.065053679 0.011052668
-0.033039819 -0.066079639 0.0080579817
-0.031794213 -0.065781131 0.0052015483
-0.025884384 -0.06471096 0.010111392
-0.024641871 -0.06428314 0.01338318
-0.02358564 -0.064324476 0.015033036
-0.02237235 -0.063920997 0.016938806
-0.021141026 -0.063423075 0.015718311
-0.020191655 -0.063763119 0.015199214
-0.019371819 -0.064572729 0.01401782
-0.018306777 -0.064612158 0.013840824
-0.017442774 -0.065410398 0.013415664
-0.016086595 -0.064346381 0.013415664
-0.014915083 -0.063921779 0.013840824
-0.013929995 -0.064292282 0.014201432
-0.012780599 -0.063902996 0.015099436
-0.011756156 -0.064124487 0.015207916
-0.010706185 -0.064237118 0.015134752
-0.0095422603 -0.063615069 0.015099436
-0.0086039929 -0.064529948 0.013870299
-0.0074921208 -0.064218178 0.013028562
-0.0064777853 -0.064777851 0.011976659
-0.0054544113 -0.065452933 0.010828853
-0.0043238527 -0.064857788 0.0095237792
-0.0032579731 -0.065159462 0.0091794133
-0.0021668295 -0.065004885 0.0099280179
-0.0010740178 -0.06444107 0.010416687
0 -0.064766884 0.01043877
0.0010840277 -0.065041661 0.011801809
0.0021255841 -0.063767523 0.012813151
0.0031762072 -0.063524149 0.012670249
0.0042893621 -0.064340435 0.012997597
0.005379945 -0.064559348 0.012018532
0.0064879148 -0.064879149 0.011759043
0.0076495432 -0.065567516 0.012147963
0.0086681405 -0.065011054 0.012225211
0.0097929295 -0.065286197 0.012751818
0.010662782 -0.063976698 0.015734255
0.011754166 -0.064113639 0.016635329
0.012805191 -0.064025953 0.017305344
0.013795231 -0.0636703 0.018489838
0.01478262 -0.063354082 0.017003655
0.016042303 -0.064169213 0.01670745
0.016765038 -0.062868893 0.016065925
0.017959569 -0.063386716 0.016254991
0.019191816 -0.063972726 0.015215009
0.020246588 -0.063936591 0.015734673
0.021503594 -0.064510785 0.014828473
0.02268724 -0.064820684 0.015222967
0.023625381 -0.064432859 0.016492575
0.024299854 -0.063390926 0.015986443
0.025354184 -0.063385464 0.016492575
0.026265232 -0.063036554 0.015366167
0.027372617 -0.063167579 0.014569581
0.029039769 -0.064532816 0.015342861
0.029823929 -0.063908421 0.015342861
0.030984882 -0.064106651 0.013714105
0.03202232 -0.064044639 0.014232397
0.033404183 -0.064653255 0.013557613
0.034746367 -0.065149441 0.012510628
0.035247967 -0.064087212 0.010233492
0.037052367 -0.065386526 0.0090360641
0.038113132 -0.065336794 0.010008961
0.038599007 -0.064331681 0.0093024671
0.039631318 -0.064266995 0.0083528161
0.041236158 -0.065109722 0.0095302761
0.041232299 -0.06343431 0.009128809
0.043590005 -0.065385014 0.0074184537
0.044240814 -0.064742655 0.0050362945
-0.060481537 -0.06372162 0.005184114
-0.05990785 -0.064264782 0.0053362548
-0.058860485 -0.064310528 0.005692035
-0.056742959 -0.063166693 0.0064117312
-0.055724144 -0.06322547 0.0069274902
-0.055115107 -0.063760616 0.0082728565
-0.053928126 -0.063635185 0.0094774663
-0.053029653 -0.063852035 0.0088576674
-0.052094873 -0.064033285 0.010239273
-0.050455313 -0.06333752 0.010607123
-0.049494918 -0.063482612 0.012009561
-0.048523977 -0.063620321 0.01215589
-0.046909589 -0.062901497 0.012143075
-0.046245005 -0.063452452 0.012672246
-0.045387797 -0.063759044 0.012360364
-0.043735098 -0.062935874 0.012212455
-0.0429838 -0.06340111 0.012212455
-0.041830257 -0.06328167 0.013780475
-0.040493336 -0.062871233 0.013445437
-0.039392237 -0.062814645 0.01415205
-0.038439892 -0.06299872 0.014117569
-0.037426453 -0.06309031 0.013496578
-0.036379047 -0.063128345 0.013395995
-0.035506729 -0.063481733 0.013055205
-0.034166243 -0.062994011 0.012471765
-0.033479661 -0.063719355 0.0095438063
-0.032660149 -0.064231627 0.0081126094
-0.025837407 -0.06351696 0.011689842
-0.024574624 -0.063039251 0.014374822
-0.023465658 -0.062930629 0.015920281
-0.022450047 -0.063073941 0.016117662
-0.021328242 -0.06291832 0.015246689
-0.020366138 -0.063242219 0.015585393
-0.019305089 -0.063277803 0.013550341
-0.018154617 -0.063007198 0.013885707
-0.017116388 -0.063116677 0.013904244
-0.015994783 -0.062912814 0.013885707
-0.015149231 -0.063843191 0.014660686
-0.01385276 -0.062870219 0.015287578
-0.012819254 -0.063028 0.015207916
-0.011822118 -0.063409545 0.014977723
-0.010647362 -0.062819444 0.015207916
-0.0096054366 -0.062968977 0.014621139
-0.0085453633 -0.063022055 0.013870299
-0.0074686701 -0.062950224 0.011758059
-0.0064671137 -0.063593283 0.012322396
-0.005414173 -0.063887246 0.011408001
-0.0043302514 -0.063871212 0.010151476
-0.0032312903 -0.063548714 0.0095842481
-0.0021696689 -0.064005233 0.009819895
-0.0010867144 -0.06411615 0.0098510087
0 -0.064347684 0.010672271
0.0010712717 -0.063205034 0.011355311
0.0021405935 -0.063147508 0.012483299
0.0032023359 -0.062979273 0.012850672
0.0042556957 -0.062771514 0.012648284
0.0053918553 -0.06362389 0.010979623
0.0065615689 -0.064522095 0.010183185
0.0075594424 -0.063715301 0.010467738
0.0087441485 -0.064488098 0.01080364
0.0096776253 -0.063442208 0.011820078
0.010673293 -0.062972434 0.014357865
0.011655629 -0.062516555 0.016635329
0.012748346 -0.062679365 0.018060148
0.013780651 -0.062542953 0.018642783
0.014962705 -0.063057117 0.017941207
0.016007442 -0.062962607 0.01670745
0.016991979 -0.062657923 0.016065925
0.018187404 -0.063120991 0.016360939
0.018933024 -0.062058248 0.015699267
0.020339806 -0.063160449 0.015063137
0.021282453 -0.062783241 0.015222967
0.022307094 -0.062672317 0.014254779
0.023530591 -0.063104771 0.015986443
0.025082989 -0.064343318 0.014743954
0.025564263 -0.062845483 0.015254915
0.0265487 -0.062654935 0.013221771
0.027562533 -0.062545747 0.014673084
0.028840652 -0.063022166 0.014434457
0.030309901 -0.063867293 0.014123529
0.030849529 -0.062762834 0.013582855
0.032156628 -0.06324137 0.013380796
0.033449829 -0.063662574 0.01302892
0.034229748 -0.063111097 0.010525167
0.0361575 -0.064645231 0.0090447962
0.036973786 -0.064160392 0.0084284246
0.03743276 -0.063100941 0.0088684559
0.039004453 -0.06392397 0.0081250966
0.039581161 -0.063115902 0.0081573725
0.0410753 -0.063774809 0.0081419051
0.041820887 -0.063267499 0.0079494417
0.043660939 -0.064399891 0.0070440173
-0.058832739 -0.063190721 0.0056836009
-0.058021858 -0.063495621 0.0053792
-0.057362147 -0.063980862 0.0057019889
-0.055213913 -0.062792294 0.0070956051
-0.053944152 -0.062575214 0.0087293684
-0.052828211 -0.062531359 0.0089280903
-0.051238865 -0.061913628 0.0098357797
-0.051005587 -0.062943064 0.010533333
-0.050177097 -0.063266777 0.011222243
-0.048268557 -0.062212806 0.011884838
-0.04714527 -0.062146042 0.012009561
-0.046054956 -0.062120643 0.012430042
-0.04517699 -0.062387276 0.012331665
-0.044097669 -0.062382068 0.011054605
-0.043258466 -0.062724777 0.011854589
-0.041385952 -0.061548341 0.013076603
-0.040831894 -0.062322367 0.012670696
-0.039753079 -0.062315639 0.01419422
-0.038778123 -0.062475871 0.013882428
-0.037349269 -0.061893079 0.013059914
-0.036776345 -0.062736124 0.013635963
-0.035392333 -0.062204711 0.012302518
-0.034721252 -0.062932268 0.011585653
-0.033590432 -0.062846616 0.010022163
-0.032565262 -0.062959507 0.0088293254
-0.027402887 -0.063574702 0.0051807463
-0.026008544 -0.062853985 0.012031227
-0.024401871 -0.061535157 0.014630735
-0.023652995 -0.062357899 0.016002357
-0.022408709 -0.061890721 0.016028941
-0.021323806 -0.06183904 0.015920281
-0.020225672 -0.061741527 0.014413029
-0.019270753 -0.062094655 0.013234556
-0.018253351 -0.06227614 0.014314085
-0.017157238 -0.062194988 0.0143314
-0.01605387 -0.062074967 0.01446718
-0.014838873 -0.061475337 0.015261918
-0.013850658 -0.061795246 0.015150249
-0.012919383 -0.062443685 0.014633089
-0.011702929 -0.061706357 0.013870299
-0.010757948 -0.062396105 0.013870299
-0.0097120367 -0.062588684 0.013870299
-0.0085735209 -0.062158026 0.012915283
-0.0074417787 -0.061660457 0.011758059
-0.0064549469 -0.062397823 0.012675554
-0.0053965007 -0.062599413 0.011172354
-0.0043554553 -0.063154101 0.01021558
-0.0032118098 -0.062094994 0.0099931657
-0.0021540322 -0.062466934 0.0095842481
-0.0010867413 -0.063031003 0.0097575188
0 -0.062674202 0.010578781
0.0010797415 -0.062625006 0.009811908
0.0021630835 -0.062729426 0.012479365
0.0031698111 -0.061283018 0.012850672
0.0042581847 -0.06174368 0.012280911
0.0053612022 -0.062189948 0.011284918
0.0064542228 -0.062390823 0.010836959
0.0076428163 -0.063326195 0.0082323849
0.0087294206 -0.063288301 0.0081026852
0.0097717633 -0.062973589 0.0082835853
0.010727182 -0.062217657 0.01377818
0.011643209 -0.061391473 0.016888022
0.012687762 -0.061324187 0.016461194
0.013886726 -0.061956163 0.018751889
0.01492415 -0.061828621 0.017920613
0.015891956 -0.061448902 0.016065925
0.017012525 -0.061670404 0.016065925
0.017987888 -0.061370444 0.015805036
0.018935449 -0.061014228 0.015699267
0.020147793 -0.06150379 0.015817851
0.021210497 -0.061510447 0.015325338
0.022551714 -0.062285688 0.012669802
0.023713972 -0.062518656 0.014593631
0.024328429 -0.061349954 0.014449596
0.026056254 -0.062969282 0.013959795
0.026788546 -0.062149428 0.013524979
0.027775904 -0.061961636 0.01380381
0.029075274 -0.062457997 0.013721168
0.029953239 -0.062045999 0.013839066
0.031045541 -0.062091082 0.01267606
0.032408193 -0.062655844 0.012111127
0.033299461 -0.062302221 0.010852873
0.03432855 -0.062220503 0.010172009
0.03626563 -0.063739598 0.0096753538
0.036586206 -0.062411766 0.0086963773
0.037835337 -0.062698565 0.0089468062
0.039368849 -0.063427597 0.0088967979
0.039606333 -0.062085602 0.0078653693
0.041546483 -0.063413054 0.0070440173
0.042433076 -0.063105606 0.005225718
-0.056594338 -0.062036105 0.0057492256
-0.055462137 -0.061987091 0.0060720146
-0.054460101 -0.062084515 0.00675565
-0.053404462 -0.062123559 0.0076895654
-0.051622078 -0.061301216 0.0078882873
-0.051457308 -0.062405672 0.0095050037
-0.04915164 -0.060905289 0.01058045
-0.048585016 -0.061541017 0.01058045
-0.047681853 -0.061769675 0.011222243
-0.046192307 -0.061231662 0.012430042
-0.045172557 -0.061305609 0.012331665
-0.044199221 -0.061447695 0.012472302
-0.042848237 -0.061058741 0.012472302
-0.041721433 -0.060977481 0.011854589
-0.040898677 -0.061348014 0.011854589
-0.039331015 -0.06059102 0.012646168
-0.038614176 -0.061139114 0.011883199
-0.037503354 -0.061076891 0.01109755
-0.036599003 -0.061357152 0.011529833
-0.035408687 -0.061160456 0.010773629
-0.034456104 -0.061374936 0.0099225342
-0.033596598 -0.061774388 0.0088429153
-0.032869238 -0.062451553 0.0081126094
-0.027233254 -0.06209182 0.0057328939
-0.025904866 -0.061524056 0.01246196
-0.024755593 -0.061350815 0.01596719
-0.023390777 -0.06060338 0.016052872
-0.022258332 -0.060415469 0.015920281
-0.021244476 -0.060546756 0.01440388
-0.020300373 -0.06090112 0.013894975
-0.019366538 -0.061327372 0.013107687
-0.01825054 -0.061192986 0.013299048
-0.017015612 -0.060618114 0.014314085
-0.015984412 -0.060740769 0.014728397
-0.01484325 -0.060433231 0.015385807
-0.013999851 -0.061383963 0.01480183
-0.0126734 -0.06019865 0.01409173
-0.011833829 -0.061320748 0.013164699
-0.010793719 -0.061524197 0.013441712
-0.0095030814 -0.060186181 0.013322711
-0.0085915066 -0.061214484 0.012383223
-0.0075149559 -0.061193209 0.011606067
-0.0064170212 -0.060961697 0.010684133
-0.0054020225 -0.061583053 0.010134399
-0.0043272902 -0.061663885 0.0097846389
-0.0032145707 -0.061076842 0.0092929602
-0.0021661392 -0.061734967 0.0097575188
-0.0010813894 -0.061639193 0.0099942088
0 -0.061959382 0.010216802
0.0010865205 -0.061931666 0.0097286999
0.0021396994 -0.06098143 0.012648284
0.0032196413 -0.061173186 0.013037622
0.0042908313 -0.061144345 0.013151586
0.0053727473 -0.061249319 0.012682974
0.0064651873 -0.061419282 0.010902911
0.007628608 -0.062118664 0.0082323849
0.0087479437 -0.062329099 0.0079468489
0.0099055609 -0.062735215 0.0080168843
0.010762339 -0.061345331 0.012748808
0.011635359 -0.060292318 0.016632617
0.0128298 -0.060941547 0.016192108
0.013810039 -0.060551707 0.017925948
0.014778215 -0.060168441 0.017094672
0.016000701 -0.060802661 0.017221332
0.016921997 -0.060284615 0.01737833
0.018104946 -0.060704816 0.016715139
0.019285126 -0.061069567 0.015699267
0.019898238 -0.059694711 0.015436441
0.021260152 -0.060591433 0.015295684
0.022462154 -0.060968701 0.014849663
0.023373539 -0.060558714 0.014593631
0.024733415 -0.061295852 0.014014781
0.02584557 -0.061383229 0.0125193
0.026895853 -0.06132254 0.012448162
0.027870225 -0.061100107 0.012658805
0.029004157 -0.061230991 0.012920588
0.029832214 -0.060729865 0.01258707
0.031089595 -0.061107133 0.011230081
0.032504428 -0.06175841 0.010704428
0.033626452 -0.061829276 0.010115385
0.034675632 -0.061765969 0.0098398626
0.035637014 -0.061554842 0.0097319782
0.037048947 -0.062111471 0.0086963773
0.038128514 -0.062095009 0.0084108412
0.038371742 -0.06075526 0.008530885
0.040049441 -0.061697785 0.0071639121
-0.057407793 -0.061823778 0.005243808
-0.055688813 -0.061148498 0.0054726303
-0.054053176 -0.060539559 0.0058248341
-0.053507872 -0.061151855 0.0060988665
-0.052701801 -0.061485436 0.0062975883
-0.050756011 -0.060475245 0.0083100498
-0.050170299 -0.061076883 0.0093282163
-0.048661053 -0.060555972 0.010326743
-0.047088012 -0.059930198 0.010200649
-0.046773586 -0.060914438 0.0107449
-0.045354526 -0.060472701 0.011475205
-0.043551773 -0.059485346 0.012001246
-0.043100901 -0.060341265 0.012340337
-0.041970167 -0.060264856 0.012125969
-0.040718522 -0.060006242 0.011843681
-0.039889645 -0.060373511 0.011984676
-0.03892193 -0.060545225 0.011323839
-0.037539404 -0.060063049 0.010832667
-0.036705699 -0.060456444 0.010139465
-0.035508253 -0.060256433 0.0095632374
-0.034604732 -0.060558278 0.0088429153
-0.033567101 -0.06063734 0.0082944632
-0.032705314 -0.061049923 0.0067809522
-0.027348123 -0.061259791 0.0078550875
-0.025867511 -0.060357522 0.01246196
-0.024421636 -0.059461374 0.014949709
-0.023377627 -0.059506688 0.01598531
-0.022428121 -0.059808321 0.015031338
-0.02138209 -0.059869852 0.014224827
-0.020251231 -0.059687834 0.013459325
-0.019282017 -0.059988502 0.013044685
-0.018248644 -0.060113177 0.013236046
-0.01704563 -0.059659705 0.013622105
-0.015925672 -0.059455846 0.013900638
-0.014986948 -0.059947792 0.015425593
-0.013936432 -0.060033862 0.01409173
-0.012823373 -0.059842411 0.012513638
-0.011869796 -0.060428053 0.011796683
-0.010710524 -0.059978936 0.013045698
-0.009651443 -0.060053423 0.0119102
-0.0085345889 -0.059742123 0.012448311
-0.0074748704 -0.059798963 0.011586368
-0.0064670634 -0.060359258 0.011456788
-0.0053812498 -0.06027 0.010532141
-0.0043435218 -0.060809307 0.0101147
-0.0032357918 -0.060401447 0.0093200803
-0.0021604886 -0.060493678 0.0092189014
-0.0010807978 -0.060524672 0.0091356933
0 -0.060815681 0.0095874965
0.0010815827 -0.060568631 0.0097286999
0.0021543291 -0.060321216 0.011067957
0.0032481104 -0.060631394 0.013124913
0.0042606755 -0.05964946 0.013248622
0.0053670597 -0.060111072 0.012731582
0.0064692372 -0.060379546 0.011172891
0.007611807 -0.060894456 0.0079468489
0.008795891 -0.06157124 0.0078847706
0.0098187933 -0.061094716 0.0078359842
0.010852993 -0.060776759 0.01073426
0.01167325 -0.059427455 0.014453918
0.012852347 -0.059977617 0.016218364
0.013884646 -0.059810784 0.016477436
0.014835709 -0.059342835 0.016860366
0.015966406 -0.059607916 0.017033398
0.0169906 -0.0594671 0.016895384
0.018028123 -0.05938676 0.017350554
0.019178858 -0.059667561 0.016413361
0.01997388 -0.058870379 0.016209751
0.021442402 -0.060038731 0.017402321
0.022325542 -0.059534777 0.016480178
0.023565998 -0.059986178 0.01374644
0.025092773 -0.061095446 0.012448162
0.025743091 -0.060067214 0.011835009
0.026905129 -0.060267489 0.011817008
0.028100755 -0.060524702 0.011835009
0.029020661 -0.060191002 0.011831731
0.030196719 -0.060393438 0.010886639
0.031280216 -0.060403176 0.01071617
0.032251853 -0.060203459 0.0096722245
0.033471908 -0.060465384 0.0083891153
0.034502637 -0.060379613 0.0086337924
0.036255047 -0.061523713 0.0084108412
0.0371558 -0.061197791 0.0084108412
0.037613101 -0.060180966 0.0069548786
0.038960904 -0.060605854 0.0050463676
-0.055744145 -0.060116235 0.0052277744
-0.053596344 -0.060159162 0.0056377649
-0.05145837 -0.058962714 0.0065847933
-0.051607803 -0.060392112 0.0066385269
-0.050203726 -0.060026195 0.010128468
-0.048766565 -0.059603579 0.0096944869
-0.04782255 -0.059778187 0.010003567
-0.046492297 -0.059466891 0.010577589
-0.045155302 -0.059131943 0.010452867
-0.044537272 -0.059745122 0.010577589
-0.043014441 -0.059144858 0.010226309
-0.042378277 -0.059764236 0.010092318
-0.041139055 -0.059543371 0.0095731616
-0.04014349 -0.059672751 0.010003656
-0.038837597 -0.059335224 0.0095124841
-0.038221911 -0.060063004 0.0088818371
-0.037160173 -0.060112044 0.0095124841
-0.035863981 -0.0597733 0.0078904629
-0.034944024 -0.060060043 0.0071751773
-0.033742763 -0.059866194 0.0069755316
-0.032877233 -0.060274925 0.0053773224
-0.026882598 -0.059141714 0.0079054832
-0.026078895 -0.059764136 0.012021691
-0.024404954 -0.058359671 0.015491784
-0.0235103 -0.058775749 0.015188336
-0.022447137 -0.058790121 0.015093744
-0.021532943 -0.059215594 0.014185667
-0.02033836 -0.058874201 0.012794375
-0.019353742 -0.059136439 0.012370616
-0.018263051 -0.059086341 0.012794375
-0.017078465 -0.058707222 0.012003452
-0.016195487 -0.059383452 0.013272852
-0.015028385 -0.059040084 0.014633089
-0.014018875 -0.059310626 0.013551384
-0.013031337 -0.059726965 0.013522595
-0.011705781 -0.058528908 0.012059391
-0.010776971 -0.059273344 0.011644453
-0.0097172316 -0.059383087 0.011785835
-0.008527346 -0.058625504 0.011785835
-0.0075729638 -0.05950186 0.010952473
-0.0064634657 -0.059248436 0.011357874
-0.0053583155 -0.058941476 0.010704815
-0.0043073082 -0.059225492 0.010293514
-0.0032343562 -0.05929653 0.0099622905
-0.0021584451 -0.059357245 0.0097088516
-0.0010846087 -0.05965348 0.0091356933
0 -0.059185203 0.010291457
0.0010809842 -0.059454136 0.010091364
0.0021400815 -0.05885224 0.011184633
0.0032093483 -0.058838055 0.013402075
0.0042212927 -0.058042776 0.013094246
0.0053537851 -0.058891639 0.012783974
0.0064257756 -0.058902945 0.010902911
0.0075864927 -0.059608158 0.0087336004
0.0087008011 -0.059818011 0.008127749
0.0098378956 -0.060120478 0.0080168843
0.010842191 -0.059632055 0.0098092854
0.011774861 -0.058874309 0.012371927
0.012800201 -0.058667589 0.014454365
0.013879949 -0.058722865 0.015555799
0.014923582 -0.058628358 0.01624313
0.015901204 -0.058304418 0.016771287
0.017053355 -0.058620907 0.016895384
0.018069135 -0.058458965 0.017925531
0.019127801 -0.058446065 0.018608928
0.020109067 -0.058210455 0.018382579
0.021085272 -0.057984497 0.01800403
0.022050615 -0.057751611 0.016482919
0.023795603 -0.059489008 0.01412183
0.024841895 -0.059404533 0.011584967
0.026013771 -0.059614893 0.011002809
0.026680622 -0.058697365 0.010706365
0.028052291 -0.059341386 0.010706365
0.029448729 -0.059988149 0.010329455
0.030200198 -0.059321817 0.0089630783
0.031570379 -0.059874855 0.0079267621
0.032674823 -0.059903841 0.0078419447
0.033761434 -0.059899319 0.0073204935
0.034583677 -0.059440695 0.0061500669
0.035897754 -0.059829596 0.0060270131
0.036738571 -0.05943004 0.0059665143
0.037945982 -0.059629399 0.0052421391
-0.052345164 -0.058888312 0.0053270757
-0.0515402 -0.059216402 0.0070597529
-0.049803272 -0.05846471 0.0088634193
-0.048593499 -0.0583122 0.0092194974
-0.047595188 -0.05841228 0.0097597241
-0.046499923 -0.058395252 0.0097597241
-0.045614526 -0.058647249 0.0094365478
-0.044667862 -0.058830846 0.0087109804
-0.043290868 -0.058442678 0.0084286928
-0.042598743 -0.058982879 0.0086250305
-0.041728802 -0.059298825 0.0089249909
-0.040332694 -0.05886393 0.0082037449
-0.039359678 -0.059039522 0.0076353848
-0.037874293 -0.058434624 0.0076353848
-0.03698007 -0.058733054 0.0071749985
-0.035959374 -0.058842618 0.0067341328
-0.034814924 -0.058750186 0.0062460899
-0.027102647 -0.058541719 0.0081960857
-0.025709735 -0.057846908 0.013368279
-0.02441309 -0.057317689 0.014875531
-0.02356858 -0.057850156 0.01491195
-0.022384923 -0.057561234 0.01491195
-0.021544958 -0.058171388 0.013374597
-0.020333679 -0.057790458 0.012095183
-0.019363463 -0.058090396 0.012003183
-0.018162407 -0.057692356 0.012095183
-0.017211691 -0.058089454 0.012224227
-0.016139302 -0.058101494 0.013787061
-0.015089208 -0.058201235 0.014810801
-0.014105215 -0.058590896 0.014343888
-0.012816075 -0.05767234 0.014343888
-0.011863847 -0.058240708 0.011127561
-0.010873 -0.058714204 0.011127561
-0.0095796594 -0.057477962 0.011396915
-0.0085475966 -0.057696279 0.011290252
-0.0075171324 -0.05798931 0.011329293
-0.0064496757 -0.058047082 0.012187541
-0.0053667543 -0.057960946 0.011144102
-0.0042785369 -0.05776025 0.012110531
-0.0032303622 -0.058146521 0.011895567
-0.0021626719 -0.058392141 0.011034042
-0.0010792309 -0.058278471 0.010075837
0 -0.058366753 0.010825783
0.0010902892 -0.058875617 0.011184633
0.002141885 -0.057830896 0.01128903
0.0032174913 -0.057914849 0.011735976
0.0043242178 -0.058376942 0.013119459
0.005366452 -0.057957686 0.013519377
0.0063945721 -0.057551149 0.011429578
0.0076021408 -0.058645088 0.0098948479
0.0086563444 -0.058430325 0.0090243816
0.0098536899 -0.059122145 0.0081467032
0.010764264 -0.058127027 0.0093681812
0.011819993 -0.058025423 0.010812134
0.012963936 -0.058337715 0.013737589
0.013802147 -0.057331998 0.0138188
0.014960696 -0.05770554 0.014737785
0.015876625 -0.057155855 0.016032904
0.016831053 -0.056804806 0.016801775
0.017985875 -0.057131603 0.017669916
0.019132014 -0.057396047 0.018147171
0.019999946 -0.056841951 0.018534273
0.021071786 -0.056893826 0.016798764
0.022199903 -0.057085466 0.016597897
0.023491591 -0.057661179 0.012883246
0.024821039 -0.058275484 0.011201173
0.026019543 -0.058543976 0.010639668
0.027001625 -0.05832351 0.010036141
0.028411267 -0.059008021 0.0086963773
0.02938365 -0.0587673 0.00704211
0.030775702 -0.059353139 0.0067696273
0.031781889 -0.059180073 0.0060673356
0.032580834 -0.058645505 0.0058764517
0.034064028 -0.05933734 0.0058764517
-0.051271889 -0.057817236 0.0058017969
-0.049954794 -0.057556611 0.0072573721
-0.049474347 -0.058269784 0.0088634193
-0.047370043 -0.057059366 0.0096409917
-0.046902716 -0.057810321 0.0089886189
-0.045697533 -0.057665929 0.0089886189
-0.044608418 -0.05766454 0.0086096823
-0.0434421 -0.057560783 0.0082833171
-0.042525791 -0.057791457 0.0083349049
-0.041589171 -0.058005948 0.0071840584
-0.04025675 -0.057665069 0.0057452321
-0.039023545 -0.05745133 0.0064814091
-0.037734885 -0.057141397 0.0059379041
-0.03731161 -0.058162216 0.0055397153
-0.036042683 -0.057886731 0.0057243407
-0.027019512 -0.05728136 0.010241568
-0.025560301 -0.056445666 0.013368279
-0.024629289 -0.056754448 0.013589025
-0.023353221 -0.056260031 0.014218271
-0.022453107 -0.056667361 0.014182597
-0.021502513 -0.05698166 0.013347834
-0.020518165 -0.05723488 0.012799889
-0.019294811 -0.056812502 0.012221456
-0.018252553 -0.05690502 0.012649626
-0.017058847 -0.056507427 0.012730241
-0.015944354 -0.056336716 0.013695061
-0.015024807 -0.056879628 0.014819652
-0.013824741 -0.056362405 0.013759196
-0.012855084 -0.05677662 0.011723965
-0.0119043 -0.057357084 0.010640442
-0.010725498 -0.05684514 0.010460883
-0.0096736345 -0.05696696 0.0099287927
-0.0086040711 -0.057001967 0.010901421
-0.0075145238 -0.056895681 0.011806577
-0.0064528822 -0.057000462 0.01259324
-0.0053842324 -0.057072863 0.01242727
-0.0043000099 -0.05697513 0.01242727
-0.0032415783 -0.057267886 0.012618423
-0.0021341264 -0.056554347 0.012361825
-0.0010669521 -0.056548458 0.011895567
0 -0.05694589 0.012361825
0.0010816407 -0.057326954 0.012266129
0.0021561289 -0.057137415 0.01164028
0.0032722245 -0.057809297 0.011832893
0.0043208031 -0.057250638 0.013395876
0.0053703305 -0.056925505 0.013026625
0.0064423657 -0.056907564 0.0123097
0.0075627537 -0.057260849 0.010730416
0.0087554008 -0.058004532 0.0098948479
0.009889015 -0.058235314 0.0090588629
0.010770216 -0.057082143 0.0094460547
0.011890342 -0.057289831 0.0098643899
0.012966016 -0.057266574 0.01200217
0.013916634 -0.056737047 0.012858421
0.015011275 -0.056828398 0.013721406
0.016082078 -0.056823339 0.015415668
0.016874265 -0.055895999 0.016168118
0.017950706 -0.055963967 0.016874433
0.019001329 -0.055948358 0.017335981
0.020086808 -0.056031618 0.018382579
0.021265851 -0.056354504 0.01769501
0.022119706 -0.055825923 0.017043561
0.023476712 -0.056557532 0.012268245
0.024732003 -0.056991138 0.010012984
0.025912208 -0.057222795 0.0089469552
0.027494622 -0.058288597 0.0060397983
0.028271567 -0.057630502 0.0056448281
-0.050752793 -0.057372719 0.0072573721
-0.048500367 -0.056044862 0.0082902312
-0.047657561 -0.056322571 0.0089886189
-0.046930611 -0.056753296 0.0082833171
-0.045196824 -0.055957969 0.0083373189
-0.044491943 -0.056428801 0.0080456734
-0.0436389 -0.056730572 0.0073254406
-0.042673174 -0.056897566 0.0069574118
-0.041982215 -0.057449345 0.0055377483
-0.040180512 -0.056469906 0.0057277381
-0.038212925 -0.056773491 0.0063195527
-0.028809365 -0.05761873 0.0055678785
-0.026767179 -0.05567573 0.010875225
-0.025709039 -0.055702917 0.013342828
-0.024366455 -0.055089377 0.013502955
-0.023482936 -0.055505123 0.013956726
-0.022632791 -0.0560431 0.013956726
-0.021641089 -0.056266829 0.013498098
-0.020486901 -0.056069408 0.012649626
-0.019321682 -0.055818196 0.01248917
-0.018298486 -0.055971839 0.012649626
-0.017228682 -0.055993211 0.012332737
-0.016138924 -0.055948272 0.012330115
-0.015015266 -0.05577099 0.013861418
-0.013926619 -0.055706475 0.012232572
-0.012793227 -0.055437319 0.012321979
-0.011821703 -0.055884413 0.012262732
-0.01075918 -0.05594774 0.011068314
-0.0097034136 -0.05606417 0.011962414
-0.0086460207 -0.056199133 0.011320591
-0.0075749266 -0.056270882 0.012217879
-0.0064226775 -0.055663206 0.013044238
-0.005362086 -0.0557657 0.012618423
-0.004271165 -0.055525146 0.012612909
-0.0032232148 -0.055869058 0.012309998
-0.0021446103 -0.055759866 0.012370735
-0.0010718313 -0.055735227 0.012107253
0 -0.055820294 0.012927115
0.0010677195 -0.055521417 0.012458742
0.002159243 -0.056140319 0.011862755
0.0032315589 -0.056013688 0.012153983
0.0043188105 -0.056144536 0.014163673
0.0054110605 -0.056275032 0.013185591
0.0064263055 -0.055694651 0.013026625
0.0075359917 -0.055981655 0.011940926
0.0086189369 -0.056023087 0.011227697
0.0098149469 -0.056708585 0.009280473
0.010956242 -0.056972459 0.0089656711
0.011936064 -0.056425028 0.0095239282
0.012939733 -0.056072179 0.011236757
0.013978473 -0.055913892 0.011099815
0.014957736 -0.055557307 0.012980253
0.016085448 -0.055762887 0.011425674
0.017166812 -0.055792138 0.014355272
0.018011946 -0.055095367 0.016597897
0.019169457 -0.055378433 0.01680994
0.020200001 -0.05528421 0.016913831
0.021048032 -0.054724887 0.017053545
0.022211786 -0.055000611 0.016298622
0.023788443 -0.05622723 0.011609524
0.024691362 -0.055823945 0.010012984
0.026343543 -0.05707768 0.0077587366
0.027486866 -0.057172678 0.0059846938
-0.049892336 -0.055315416 0.0056773424
-0.049281072 -0.055851877 0.0072275102
-0.048167214 -0.055830184 0.0080624223
-0.04647461 -0.055121049 0.0080624223
-0.045721382 -0.055518821 0.0080890059
-0.044574969 -0.055446908 0.0063024461
-0.043493681 -0.055454444 0.0061543584
-0.04266778 -0.055796329 0.0061197281
-0.041633837 -0.055876993 0.0052492619
-0.028165588 -0.055247888 0.0085051954
-0.026899381 -0.054874737 0.011353552
-0.025766419 -0.054753643 0.014061421
-0.024556095 -0.054450471 0.013560444
-0.023562102 -0.054621238 0.013560444
-0.022047555 -0.053544063 0.014236003
-0.021505352 -0.054838654 0.013719618
-0.020390056 -0.054731201 0.012857139
-0.019249476 -0.054540187 0.012900978
-0.018237492 -0.054712478 0.012857139
-0.017224459 -0.054902963 0.012561977
-0.015783176 -0.053662799 0.012640834
-0.015010706 -0.05468186 0.012573689
-0.014118071 -0.055386279 0.012232572
-0.012765352 -0.054252747 0.012242675
-0.011873331 -0.05504908 0.011068314
-0.010793423 -0.055046462 0.01161474
-0.0096738311 -0.054818377 0.011962414
-0.0086226324 -0.054969281 0.011329293
-0.007609922 -0.055443719 0.012217879
-0.0064646276 -0.054949336 0.012830466
-0.0054052141 -0.055133186 0.012830466
-0.004298646 -0.054807737 0.012286335
-0.003249276 -0.055237692 0.012228131
-0.0021699674 -0.055334169 0.012556374
-0.0010737433 -0.054760911 0.012458742
0 -0.05485671 0.012734503
0.0010718078 -0.054662198 0.012458742
0.0021405716 -0.054584574 0.012540281
0.0032530865 -0.055302471 0.012540281
0.0043392908 -0.055325959 0.014163673
0.0053513856 -0.054584134 0.014322639
0.0064127361 -0.054508258 0.013489544
0.007548538 -0.05499649 0.013261318
0.008662303 -0.055222183 0.011254668
0.0098414561 -0.055768251 0.0099090338
0.01078254 -0.054990955 0.0086033344
0.011923878 -0.055283435 0.0088000894
0.013048301 -0.055455282 0.0092153549
0.014004114 -0.054939218 0.0094276071
0.01506487 -0.05487917 0.011378855
0.016248293 -0.0552442 0.010851294
0.017002044 -0.054194018 0.012948304
0.018094691 -0.054284073 0.013484508
0.019269055 -0.05459566 0.016103625
0.020178832 -0.054164231 0.015973896
0.021231083 -0.054139264 0.014881998
0.022593005 -0.054868728 0.012242377
0.023350835 -0.054131486 0.011314392
0.024732487 -0.054841604 0.0087916553
0.026099712 -0.055461891 0.0066094398
0.027155956 -0.055398148 0.0051999986
-0.04972513 -0.054049056 0.0051356256
-0.048976902 -0.05441878 0.0053768456
-0.0478856 -0.054415457 0.0068882108
-0.04677863 -0.054393761 0.0063719451
-0.046008408 -0.054771915 0.0067503452
-0.044640508 -0.054439645 0.0056830347
-0.028012607 -0.053870402 0.0085155368
-0.026990741 -0.053981483 0.011431873
-0.025706269 -0.053554729 0.012456536
-0.024702637 -0.053701382 0.013005406
-0.023378007 -0.053131837 0.013543963
-0.022353843 -0.053223439 0.01405251
-0.021570032 -0.053925082 0.013843477
-0.020405564 -0.053698856 0.013268799
-0.019230423 -0.053417847 0.013130218
-0.01826576 -0.053722821 0.012979954
-0.01690672 -0.052833501 0.01273641
-0.016135432 -0.053784776 0.012330115
-0.015050921 -0.05375329 0.012501448
-0.014105157 -0.054250605 0.013115317
-0.012888337 -0.053701404 0.011827588
-0.011897642 -0.054080192 0.012147009
-0.010533056 -0.052665286 0.011347353
-0.0094547169 -0.05252621 0.01119557
-0.0085135195 -0.053209502 0.011320591
-0.0074251122 -0.053036515 0.012553781
-0.0064042024 -0.053368356 0.01188314
-0.0053866254 -0.053866256 0.012397945
-0.0043079681 -0.053849604 0.01204744
-0.0032633543 -0.054389238 0.011664242
-0.0021621711 -0.054054275 0.01178354
-0.0010791593 -0.053957969 0.01199472
0 -0.053825025 0.012248725
0.0010695996 -0.053479984 0.012458742
0.0021224804 -0.053062011 0.013320565
0.0032363094 -0.053938489 0.014014184
0.0042910273 -0.053637844 0.014692068
0.005322495 -0.053224955 0.014416993
0.0064386865 -0.053655721 0.014460683
0.0073848823 -0.052749161 0.014416993
0.0085919183 -0.05369949 0.011928141
0.0097639402 -0.054244116 0.010574758
0.010891134 -0.054455675 0.0089606941
0.012018061 -0.054627556 0.0084427297
0.013058884 -0.054412022 0.0088000894
0.014073712 -0.054129664 0.0085218549
0.015282877 -0.054581705 0.0080334842
0.016061971 -0.053539902 0.010170698
0.017155319 -0.053610373 0.011900485
0.018220542 -0.053589828 0.012920737
0.019321816 -0.053671714 0.012978077
0.020208053 -0.053179089 0.011518091
0.021680016 -0.054200042 0.011276722
0.022615232 -0.053845793 0.011094719
0.023618579 -0.053678591 0.010572463
0.024884641 -0.054097045 0.0097098947
0.026078802 -0.054330837 0.0066351295
-0.047255948 -0.053849801 0.0050854087
-0.029478909 -0.053498756 0.0058208406
-0.028164012 -0.053078327 0.0095411539
-0.026905306 -0.052734394 0.011582196
-0.025761925 -0.052597262 0.013092548
-0.024564216 -0.052332457 0.01339221
-0.02355529 -0.052464053 0.013602734
-0.022354292 -0.05216001 0.014137417
-0.021410961 -0.052456852 0.014171332
-0.020324472 -0.05241574 0.013819873
-0.019311367 -0.052569833 0.014109194
-0.018104782 -0.052184369 0.014152855
-0.016967017 -0.051961489 0.012846798
-0.016149417 -0.052754756 0.012330115
-0.015033484 -0.052617196 0.0130983
-0.014213255 -0.053573035 0.012654454
-0.012993168 -0.053055435 0.01220268
-0.011858671 -0.052824989 0.012446761
-0.010725038 -0.052552685 0.011986643
-0.0096405735 -0.052487571 0.011986643
-0.0086385878 -0.052911345 0.0125494
-0.007504046 -0.052528318 0.012553781
-0.006435201 -0.052554138 0.01204744
-0.0053676907 -0.052603371 0.011325449
-0.0043581813 -0.053387716 0.010893792
-0.0032400189 -0.052920308 0.011021286
-0.0021577461 -0.052864775 0.011609256
-0.0010838459 -0.053108446 0.011572748
0 -0.052447271 0.011193603
0.0010764016 -0.052743673 0.012107253
0.0021513305 -0.052707598 0.012458742
0.0032000747 -0.052267887 0.014622986
0.0041892086 -0.051317804 0.015221536
0.0053359186 -0.052292004 0.015048146
0.0063255453 -0.051658619 0.014647424
0.0074845604 -0.05239192 0.014445394
0.0084972335 -0.05204555 0.01285395
0.0097064674 -0.052846324 0.011017472
0.010812165 -0.052979607 0.0093008578
0.012018393 -0.053536478 0.0084427297
0.013095528 -0.053473406 0.007309258
0.014077209 -0.053060248 0.0067835748
0.015301925 -0.053556737 0.0073077083
0.016075931 -0.052514706 0.0066034794
0.017461466 -0.053475738 0.0074541569
0.018312434 -0.052782897 0.0083506703
0.01968031 -0.053574178 0.0092054307
0.020554205 -0.05300821 0.0095423162
0.021539111 -0.052770823 0.010563821
0.022666531 -0.052888568 0.0099139214
0.023706855 -0.052801631 0.0094410479
0.024541978 -0.052285083 0.0068662763
0.02635932 -0.053816944 0.0052144825
-0.029747 -0.052883551 0.0052617192
-0.028075 -0.051830769 0.0084123313
-0.026840804 -0.05153434 0.010255009
-0.025762344 -0.051524688 0.012533426
-0.024383854 -0.050888043 0.013543963
-0.023563636 -0.051411569 0.013716072
-0.022418085 -0.051241335 0.013816506
-0.021399202 -0.051358085 0.013351262
-0.02037764 -0.051480353 0.013469279
-0.019236565 -0.051297508 0.01371944
-0.018054655 -0.050977845 0.013519317
-0.017262448 -0.051787343 0.01353994
-0.016085265 -0.051472846 0.012926966
-0.014876181 -0.051004048 0.012795001
-0.01397679 -0.051606607 0.013032228
-0.012885942 -0.051543768 0.012494087
-0.011830924 -0.051625852 0.012511432
-0.010866231 -0.052157912 0.012108117
-0.0096516227 -0.051475324 0.013259321
-0.0086653801 -0.051992279 0.01256147
-0.0074329828 -0.050969023 0.012498766
-0.006464364 -0.051714912 0.011427432
-0.0054643368 -0.052457634 0.0098220706
-0.0043316353 -0.051979624 0.0096496344
-0.0032471621 -0.051954594 0.0096496344
-0.0021803065 -0.052327354 0.0098220706
-0.0010770259 -0.051697239 0.010209411
0 -0.051845603 0.010029376
0.0010983363 -0.052720141 0.010681599
0.0021341746 -0.05122019 0.011628896
0.0031761492 -0.050818387 0.013433158
0.0042875637 -0.051450763 0.014047414
0.0053326692 -0.051193628 0.014480323
0.0063942652 -0.051154122 0.014095813
0.0075596762 -0.05183778 0.014299273
0.0085670808 -0.051402483 0.01279974
0.0095982393 -0.051190611 0.010997087
0.010764553 -0.051669858 0.0097556412
0.011898161 -0.051919248 0.0084343851
0.013128485 -0.052513938 0.0066072643
0.014167153 -0.052309491 0.0064736307
0.015159949 -0.051976968 0.0059587955
0.016246798 -0.051989753 0.0059963167
0.017138558 -0.051415671 0.0059587955
0.018599646 -0.05251665 0.0051081181
0.019703599 -0.052542932 0.0074984431
0.020691318 -0.052272804 0.0072513521
0.021641068 -0.051938564 0.0077374279
0.022928482 -0.052407954 0.0080570281
0.023886809 -0.052116673 0.0075721145
-0.028238742 -0.051046956 0.0084123313
-0.026983118 -0.050728258 0.01025641
-0.025893182 -0.050707482 0.012913167
-0.024703855 -0.050481789 0.013213098
-0.023537258 -0.050284144 0.014822423
-0.02225445 -0.049807582 0.014465898
-0.021400612 -0.050291441 0.014218777
-0.020290496 -0.050192278 0.014532417
-0.019171404 -0.050058667 0.014243007
-0.018381879 -0.050820488 0.014018655
-0.017118393 -0.05028528 0.014525354
-0.015902063 -0.049826462 0.013227016
-0.015054231 -0.050539203 0.012840629
-0.013972222 -0.050514959 0.012969375
-0.012877364 -0.050436344 0.011530757
-0.011958909 -0.051097158 0.011570394
-0.010863964 -0.051060628 0.01202327
-0.0095754378 -0.050005063 0.011850476
-0.0086441813 -0.050784566 0.013264537
-0.0074466025 -0.049998619 0.013264537
-0.0065036775 -0.050945476 0.010567963
-0.0054962137 -0.051664408 0.009304136
-0.0043646344 -0.051284455 0.0091985166
-0.0032944391 -0.05161288 0.0072544515
-0.0021575692 -0.050702877 0.0090670288
-0.0010826098 -0.05088266 0.0081165433
0 -0.050803121 0.0086492002
0.0010849716 -0.050993666 0.010142803
0.0021683485 -0.050956193 0.011010885
0.0032352139 -0.050685018 0.011935353
0.0042609628 -0.050066311 0.013886511
0.0053327167 -0.05012754 0.014180392
0.0064989552 -0.05090848 0.014180392
0.0074944971 -0.050320193 0.014202207
0.0085889623 -0.050460152 0.011725545
0.0096304724 -0.05029247 0.011596501
0.010819163 -0.050850071 0.010197669
0.01198155 -0.051193897 0.0090032518
0.013200605 -0.051702369 0.0078964829
0.014180739 -0.051268827 0.0065042377
0.01520251 -0.051036999 0.0057369173
0.016231578 -0.050858945 0.0053626001
0.019858547 -0.051852871 0.005464077
0.020824939 -0.051514324 0.00546965
0.02172723 -0.051058993 0.0057593286
0.022938987 -0.051339637 0.0057727695
-0.028309675 -0.050086349 0.0076448023
-0.026726311 -0.049176414 0.010109037
-0.026125526 -0.050073925 0.011988074
-0.024573209 -0.049146418 0.014529049
-0.023381643 -0.048888892 0.014404953
-0.022443749 -0.049162496 0.014073551
-0.021341395 -0.049085211 0.01398629
-0.020477951 -0.049578197 0.014018655
-0.019479711 -0.049781486 0.014190555
-0.018197827 -0.049241181 0.013199896
-0.017087463 -0.049126457 0.01376912
-0.016135436 -0.049482007 0.012840629
-0.014839874 -0.048759587 0.012739718
-0.014033683 -0.049657647 0.012753218
-0.013190582 -0.050563902 0.011990219
-0.011849101 -0.049550787 0.012322247
-0.01085012 -0.049910557 0.012719661
-0.0096539445 -0.04934239 0.012371272
-0.0084741721 -0.048726492 0.011801451
-0.007626805 -0.050119005 0.011769265
-0.0065026353 -0.049853541 0.0095080137
-0.005389669 -0.049584955 0.0087159574
-0.0043552257 -0.050085098 0.0057007968
-0.0032699422 -0.050139118 0.0066515207
-0.0021808431 -0.050159395 0.0060534775
-0.0010890991 -0.050098561 0.0069334507
0 -0.04954977 0.0082182586
0.001091401 -0.050204448 0.0091047585
0.0021575822 -0.049624391 0.00929901
0.0032481356 -0.049804747 0.010673076
0.0042868988 -0.049299337 0.010536075
0.0053923945 -0.049610034 0.011000782
0.0064753788 -0.049644575 0.011058271
0.0076013668 -0.04995184 0.011738658
0.008674277 -0.049877092 0.010615766
0.0095956251 -0.049044307 0.010925502
0.01080228 -0.049690492 0.0090497732
0.011835779 -0.049495079 0.0095352232
0.0130162 -0.049895436 0.0078139603
0.014333561 -0.050718758 0.0062381327
0.015317048 -0.050327446 0.0058338642
0.020989556 -0.050816819 0.0052093565
0.021677785 -0.049858905 0.0051099658
0.024133485 -0.050460927 0.0052923262
-0.028011022 -0.048480619 0.007584542
-0.026992328 -0.04858619 0.0095440745
-0.025942666 -0.048642505 0.012272716
-0.02479714 -0.048516143 0.012744188
-0.023582524 -0.048236985 0.012852609
-0.022634288 -0.04850205 0.013415992
-0.021384893 -0.04811601 0.011715502
-0.020641236 -0.048887141 0.011450887
-0.019383837 -0.048459597 0.013780355
