ply
format ascii 1.0
comment PCL generated
element vertex 1299
property float x
property float y
property float z
element camera 0
property float view_px
property float view_py
property float view_pz
property float x_axisx
property float x_axisy
property float x_axisz
property float y_axisx
property float y_axisy
property float y_axisz
property float z_axisx
property float z_axisy
property float z_axisz
property float focal
property float scalex
property float scaley
property float centerx
property float centery
property int viewportx
property int viewporty
property float k1
property float k2
end_header
0.023213902 0.041151918 0.014839828
0.024510976 0.041562088 0.014060795
0.025524983 0.041478097 0.013620198
0.026684448 0.041627739 0.014376014
0.027519146 0.041278716 0.014280677
0.028368549 0.040976793 0.01590544
0.029570201 0.041187067 0.01566568
0.030727986 0.041323841 0.015370786
0.031727329 0.041245524 0.015195638
0.032668084 0.041098554 0.015869737
0.034058005 0.041508194 0.015112698
0.03464824 0.040947918 0.014947504
0.036112323 0.041422959 0.012786418
0.03797067 0.042310175 0.012358755
0.038627055 0.041845977 0.012358755
0.039460823 0.041593838 0.012905329
0.040522598 0.041588981 0.014565945
0.040681615 0.040681615 0.013805062
0.042400651 0.041340634 0.014181882
0.043610781 0.041483425 0.012339234
0.044997733 0.041783608 0.012588829
0.046015605 0.041735083 0.0098309815
0.046858195 0.041533403 0.01012671
0.047633287 0.041282181 0.0097581148
0.049776584 0.042201884 0.010864794
0.050563768 0.04195717 0.0078137517
0.051208101 0.041606583 0.0079851449
0.05331032 0.042430665 0.007937789
0.053571865 0.041786052 0.008127898
0.055394098 0.042360194 0.0068361461
0.056384299 0.042288225 0.005595535
-0.061959282 0.043480199 0.007235378
-0.06033117 0.043093689 0.0080106854
-0.058834072 0.042788416 0.0099304616
-0.058257587 0.043153767 0.011120826
-0.056183532 0.042402666 0.013931453
-0.054997146 0.042305496 0.013421595
-0.054155957 0.042475257 0.01351732
-0.053047191 0.042437751 0.013738036
-0.052063908 0.042501148 0.015851617
-0.051484935 0.042904112 0.016185492
-0.049642392 0.042248841 0.017328322
-0.048364274 0.04205589 0.017328322
-0.048085772 0.042742904 0.017466992
-0.046560265 0.042327516 0.018406928
-0.045140635 0.041991286 0.016988575
-0.044771422 0.042639449 0.016427308
-0.043449271 0.042389531 0.01564008
-0.042523213 0.042523213 0.014362931
-0.041279398 0.042337846 0.014127463
-0.040292427 0.042413078 0.013686568
-0.039484791 0.042686258 0.011983931
-0.038356621 0.042618468 0.012057483
-0.037259094 0.042581823 0.011590809
-0.036409833 0.042835094 0.011679828
-0.035497889 0.043027744 0.011679828
-0.03413102 0.042663772 0.012384504
-0.033117715 0.042732533 0.012531281
-0.031895682 0.042527575 0.012251943
-0.031004813 0.042765256 0.011104703
-0.030130746 0.043043923 0.010370523
-0.028961502 0.042905927 0.0078551173
-0.027998876 0.043075193 0.0057745576
-0.023577435 0.042868063 0.0069191456
-0.022447646 0.042757418 0.0085390508
-0.021618959 0.043237917 0.0085338652
-0.020428788 0.043007974 0.0083050132
-0.019123411 0.042496469 0.0079228878
-0.018323673 0.043114524 0.008135736
-0.016997311 0.042493276 0.0085196793
-0.016162049 0.043098796 0.0080465376
-0.01516488 0.043328229 0.0092622042
-0.01388813 0.042732704 0.010064662
-0.012886301 0.042954337 0.0093508959
-0.011944711 0.043435313 0.0096629858
-0.010623589 0.042494357 0.009050101
-0.0097353943 0.04326842 0.0082969964
-0.0086575355 0.04328768 0.008084625
-0.0075030811 0.04287475 0.0063402653
-0.0064846147 0.043230765 0.0072359145
-0.0054140394 0.043312315 0.0088698566
-0.0042898539 0.042898536 0.0082990825
-0.0032243768 0.04299169 0.010353476
-0.0021356631 0.042713258 0.010840982
-0.0010640192 0.042560764 0.0091209412
0 0.043196745 0.0085163414
0.0010763357 0.043053426 0.0075577199
0.0098019959 0.043564428 0.0055365264
0.010595081 0.042380325 0.0077296793
0.01181595 0.042967092 0.010407329
0.012937243 0.043124143 0.011188775
0.013814026 0.042504698 0.011169195
0.01501717 0.042906202 0.010760188
0.015875569 0.042334851 0.011213869
0.017103039 0.042757597 0.011550397
0.017967114 0.042275559 0.012489676
0.019000126 0.042222504 0.014579594
0.020152429 0.042426161 0.015783608
0.021295365 0.04259073 0.016627312
0.022244062 0.042369641 0.016537189
0.02316693 0.04212169 0.015920043
0.024622032 0.042820923 0.014941931
0.025494054 0.042490087 0.014376014
0.026853561 0.042965695 0.014280677
0.027525039 0.042346213 0.015069455
0.028497307 0.042218227 0.014935851
0.029776545 0.04253792 0.014247715
0.030534483 0.042116527 0.014480025
0.031748656 0.042331539 0.014304608
0.032752033 0.042260684 0.015208602
0.033442013 0.041802514 0.014391243
0.034615878 0.041958641 0.014194846
0.036214557 0.042605359 0.013855398
0.037034847 0.042325541 0.014096051
0.038994052 0.043326721 0.013587743
0.039659157 0.042874761 0.014561474
0.040097322 0.042207707 0.014744014
0.040985003 0.0420359 0.015061349
0.042320352 0.042320352 0.015195191
0.043337908 0.042280883 0.014432997
0.044431802 0.042316001 0.014104217
0.046095282 0.042879328 0.01158762
0.047149401 0.042863093 0.010768235
0.047985379 0.042653665 0.0093818605
0.049528878 0.043068584 0.0108684
0.050752666 0.043193758 0.0087907016
0.052034371 0.043361977 0.0082397759
0.052220315 0.042628828 0.007935375
0.054215249 0.043372195 0.0063736141
0.056099087 0.043999285 0.0057069957
0.055663608 0.042818159 0.005083859
-0.062653676 0.044289667 0.0065876544
-0.061416883 0.044177059 0.0087481141
-0.059889074 0.04384736 0.011083394
-0.058935296 0.043933585 0.011924624
-0.057227135 0.043450233 0.014455438
-0.055726666 0.043109309 0.014577061
-0.055671789 0.043895066 0.013701081
-0.054148737 0.04353134 0.014849603
-0.052636825 0.043162197 0.016346753
-0.052166119 0.043649208 0.016698092
-0.050124988 0.042815097 0.017262578
-0.04940642 0.043099221 0.017994463
-0.048709925 0.043415371 0.017262578
-0.047205817 0.043009743 0.017262578
-0.046530172 0.043357663 0.016561359
-0.045323964 0.043215875 0.016210377
-0.044177543 0.0431257 0.01590845
-0.043364272 0.043364272 0.01564008
-0.042297784 0.043355234 0.014695048
-0.04129741 0.04341523 0.013937116
-0.04049813 0.043695353 0.013937116
-0.039141983 0.043373547 0.012948513
-0.038305763 0.043626014 0.012410402
-0.037118699 0.043481909 0.012323707
-0.036213767 0.043669544 0.012323707
-0.03520776 0.043742977 0.012323707
-0.034248292 0.043880627 0.013784647
-0.032558266 0.043060932 0.013940334
-0.031769782 0.043418702 0.012654245
-0.031053228 0.04390284 0.01191783
-0.029892804 0.04377161 0.010291636
-0.029210828 0.044357184 0.0064927936
-0.028342852 0.044694502 0.0051927567
-0.024757955 0.044133745 0.0059313774
-0.023608856 0.043998323 0.0085390508
-0.022486558 0.04390233 0.0086672604
-0.021486333 0.044046983 0.0098709762
-0.020240638 0.04367717 0.010014534
-0.019229885 0.043801408 0.010114372
-0.018136736 0.043741543 0.010318726
-0.017125914 0.043885157 0.010012597
-0.016219836 0.044334218 0.0093637705
-0.014910721 0.043667115 0.009752214
-0.013989476 0.044120658 0.01067102
-0.012856155 0.0439252 0.010159731
-0.01176497 0.043851256 0.010756522
-0.010625781 0.043565702 0.010355741
-0.0096860193 0.044125203 0.010118723
-0.0085660974 0.043901253 0.0093498528
-0.0075372872 0.04414697 0.0091905594
-0.0064145755 0.043832935 0.0093998015
-0.005318671 0.043613106 0.010180414
-0.0042732516 0.043800831 0.010301054
-0.0031746195 0.043386471 0.010795176
-0.0021245738 0.043553762 0.01120159
-0.0010676953 0.043775506 0.011523634
0 0.043457311 0.011469156
0.0010735184 0.044014256 0.0091944039
0.0021592695 0.044265028 0.0058669746
0.0097395061 0.044368863 0.006246537
0.010666408 0.043732274 0.01004523
0.011620234 0.043311782 0.012209535
0.01278849 0.043694012 0.012663394
0.013909874 0.043869607 0.012749732
0.014844523 0.043473247 0.012663394
0.015961614 0.04362841 0.012673944
0.01718216 0.044029284 0.012824118
0.017889474 0.043145202 0.014528483
0.019136081 0.043587744 0.014467061
0.020097889 0.043369129 0.015727818
0.021132529 0.043321684 0.017274618
0.02218762 0.043318689 0.015968144
0.023222437 0.043278184 0.014893055
0.024391634 0.043480739 0.015106738
0.025585055 0.043707803 0.014294595
0.026650103 0.043706171 0.014387131
0.027667686 0.043629814 0.01365149
0.028555561 0.043362148 0.014127225
0.029653907 0.043421794 0.014247715
0.030530384 0.043163646 0.014331281
0.031818777 0.043485664 0.01397717
0.03267638 0.043217149 0.014884979
0.03363492 0.043094743 0.014595211
0.035008259 0.043495115 0.015240371
0.03567946 0.043025233 0.015423208
0.036909312 0.043236628 0.014194846
0.038571112 0.043928213 0.014647037
0.039095048 0.043321542 0.014670551
0.040273242 0.043452706 0.014953136
0.04132802 0.043447409 0.01525858
0.042350899 0.043409675 0.015653282
0.042936247 0.042936247 0.015382677
0.043908957 0.042863507 0.015763611
0.044984218 0.042891931 0.014249802
0.046824668 0.043632079 0.012217313
0.048087433 0.043812994 0.010974258
0.049436238 0.044062734 0.010183215
0.050728798 0.044252783 0.0085634887
0.05139127 0.043896712 0.0081910491
0.053045344 0.044384882 0.0063749254
0.054617215 0.044786114 0.0061367452
0.055416223 0.044550296 0.0056518614
-0.063861705 0.045460876 0.0062881708
-0.062446456 0.04521985 0.0080452561
-0.060925726 0.044892639 0.010543913
-0.060200255 0.045150191 0.011550575
-0.058249623 0.044481531 0.014435738
-0.057413932 0.044655282 0.014672637
-0.056267057 0.044588991 0.014710099
-0.055251181 0.044625957 0.015193135
-0.053803701 0.044308931 0.014398009
-0.052816097 0.044365522 0.016885936
-0.051521704 0.044161461 0.017508656
-0.050274167 0.043989897 0.018060207
-0.049696825 0.044409931 0.018637538
-0.048595045 0.044369388 0.017328322
-0.047223687 0.044075441 0.016799301
-0.047269013 0.045120426 0.016210377
-0.045665093 0.044603117 0.01590845
-0.044262595 0.044262595 0.015800029
-0.043615457 0.044679247 0.01564008
-0.042569447 0.044697922 0.014888763
-0.041527022 0.04472141 0.013850182
-0.040024403 0.044237502 0.013850182
-0.039170008 0.044463251 0.012971938
-0.038082924 0.044430077 0.012701333
-0.0372044 0.04464528 0.014197707
-0.036342192 0.044893298 0.013928235
-0.034975402 0.044514149 0.014226824
-0.033678576 0.044203129 0.015077859
-0.032549962 0.044099949 0.014794171
-0.031823359 0.044552702 0.014072508
-0.03074185 0.04452268 0.012507796
-0.030245971 0.045368958 0.0089116991
-0.029301386 0.045579933 0.0072067082
-0.028124774 0.045432329 0.0059400797
-0.026419701 0.046234477 0.0055797398
-0.024753015 0.04520116 0.0075444579
-0.023444293 0.044757288 0.0091582239
-0.022440109 0.044880219 0.010601014
-0.021337895 0.04480958 0.010805607
-0.02026538 0.044797156 0.01102075
-0.01915081 0.04468523 0.01104641
-0.018044541 0.044580631 0.010651976
-0.017107956 0.044908382 0.011090457
-0.015876621 0.044454541 0.01050961
-0.015009564 0.045028694 0.010060608
-0.013963042 0.045111366 0.010977209
-0.012740116 0.044590406 0.011077166
-0.01158058 0.04421676 0.010640234
-0.010740059 0.045108251 0.010640234
-0.0094952872 0.044311345 0.012146086
-0.0085968832 0.045133639 0.0098956823
-0.0074258517 0.044555109 0.010421097
-0.0064067454 0.04484722 0.010192961
-0.0053424709 0.044876758 0.011076272
-0.0042529935 0.044656433 0.010688215
-0.0031859935 0.044603914 0.012026638
-0.0021348228 0.04483128 0.012615174
-0.0010522609 0.044194955 0.01322636
0 0.044673923 0.012316048
0.0010719089 0.045020171 0.0098786056
0.0021110512 0.04433208 0.0082580447
0.0086366571 0.045342449 0.0051462054
0.0097408276 0.045457195 0.0092544854
0.010682466 0.044866361 0.012114525
0.011601917 0.044298235 0.01194793
0.012771393 0.044699878 0.012912303
0.01375345 0.044434227 0.014229476
0.01477793 0.044333793 0.013646543
0.016003883 0.044810869 0.013591707
0.016952833 0.044501185 0.014220089
0.018195951 0.044954702 0.013841897
0.019190067 0.044776827 0.014360487
0.019984556 0.044176389 0.014940917
0.021059284 0.044224497 0.01417923
0.022179401 0.044358801 0.015126705
0.023156552 0.044207964 0.014053464
0.024378434 0.044517141 0.013520211
0.025687475 0.044953082 0.013212621
0.026349744 0.044267569 0.013744354
0.027504846 0.044430908 0.013212621
0.028422475 0.04421274 0.014770329
0.029531151 0.044296727 0.014637053
0.030573459 0.044278804 0.014476061
0.031549409 0.044169176 0.014371097
0.032585576 0.044148199 0.015023619
0.033959068 0.044571277 0.014595211
0.034486752 0.043892231 0.015247703
0.035964165 0.044426322 0.015481919
0.037081759 0.044498116 0.015494138
0.03800464 0.044338752 0.015435249
0.039051589 0.044328831 0.015024304
0.040568128 0.044838458 0.014947981
0.041070346 0.044229604 0.015385032
0.042337723 0.044454612 0.015385032
0.0431628 0.044215553 0.016302198
0.043897811 0.043897811 0.016706944
0.045340989 0.044286549 0.015282005
0.046298224 0.044193763 0.015438616
0.047258943 0.044108346 0.012919813
0.049024623 0.044761613 0.011496246
0.050447021 0.045080315 0.0093346834
0.05201992 0.045517433 0.0077214837
0.053391784 0.04576439 0.0063749254
0.053902324 0.045277953 0.0062192082
-0.065339386 0.04682656 0.0057449937
-0.064124875 0.046735078 0.0077992082
-0.061915301 0.045902722 0.0088838935
-0.060975049 0.045998722 0.011385143
-0.059142321 0.045412857 0.01270166
-0.058422919 0.045676097 0.01355499
-0.057360187 0.045675702 0.013676852
-0.056262091 0.045646604 0.015084147
-0.055168126 0.045619797 0.015315115
-0.053967707 0.045502182 0.015912801
-0.052976914 0.045560144 0.017042637
-0.051614534 0.045294389 0.017593652
-0.050610784 0.045338828 0.018003762
-0.049248103 0.045056775 0.018292248
-0.04833585 0.04518351 0.017984748
-0.048062779 0.045926653 0.016780287
-0.046554036 0.045495991 0.016561359
-0.045759514 0.045759514 0.015476525
-0.044590455 0.045652129 0.015412062
-0.043040305 0.045139831 0.015412062
-0.042013004 0.045163982 0.015099615
-0.041278526 0.045512222 0.014707983
-0.040020864 0.045286767 0.014463723
-0.038849317 0.045149203 0.013792753
-0.037972998 0.045356639 0.014926255
-0.037012901 0.045472994 0.014518052
-0.035948623 0.045464434 0.014308155
-0.034936368 0.045523148 0.014606744
-0.03378582 0.045399696 0.015028358
-0.032880634 0.045608617 0.014848381
-0.031664506 0.045385789 0.014980555
-0.030956527 0.045901056 0.012158662
-0.030236369 0.046434425 0.0087073147
-0.029104272 0.046351247 0.0062430203
-0.02596253 0.046516199 0.0056315958
-0.024660224 0.046103895 0.0080118477
-0.023328947 0.045597486 0.010601014
-0.022282932 0.045626957 0.011648804
-0.021472784 0.046166487 0.011717945
-0.020108188 0.045508005 0.012193888
-0.01896809 0.045312662 0.011532784
-0.018139694 0.045882758 0.011532784
-0.017044343 0.045806672 0.011090457
-0.016046032 0.045998625 0.010521442
-0.015074337 0.046299752 0.01039654
-0.013886907 0.045933619 0.011077166
-0.012674961 0.045418613 0.011542618
-0.011790199 0.04608896 0.012481928
-0.010453596 0.044950463 0.014033079
-0.0096400809 0.046058167 0.012360722
-0.0084680635 0.045515843 0.011867523
-0.0074196579 0.045577899 0.011472315
-0.0064159748 0.045981154 0.010782748
-0.0053319749 0.045854986 0.011922032
-0.0042467844 0.04565293 0.011472315
-0.0032055271 0.045945887 0.012615174
-0.0021386272 0.045980487 0.013899535
-0.001062594 0.045691542 0.013949931
0 0.045576982 0.012882054
0.0010571983 0.045459528 0.013176233
0.0021444473 0.046105616 0.0084869862
0.0032784585 0.04699124 0.0060697496
0.0075770807 0.046544924 0.0050397217
0.0085606826 0.046013668 0.0065498054
0.0095740752 0.045742806 0.010153443
0.010631176 0.045714058 0.012193561
0.011616873 0.045411412 0.012198061
0.012728047 0.045608833 0.013808131
0.013753781 0.045493275 0.014790773
0.014846156 0.045598909 0.013854831
0.015840651 0.045409866 0.014251858
0.016854368 0.045296118 0.013854831
0.018128369 0.045854107 0.01377067
0.019008428 0.04540902 0.014360487
0.019950554 0.045151252 0.014940917
0.021161549 0.045497332 0.015181988
0.022107476 0.04526769 0.015412927
0.023157146 0.045261696 0.014362574
0.024296878 0.045424595 0.014123946
0.025436742 0.045574162 0.014000982
0.026578838 0.0457156 0.013464034
0.027463047 0.045419656 0.013464034
0.028663296 0.045648951 0.014030367
0.029641973 0.045521598 0.014239162
0.030476037 0.045188606 0.014972955
0.031595584 0.045287002 0.014638305
0.032807551 0.045507248 0.015280783
0.033812895 0.045436081 0.015791565
0.03469111 0.04520357 0.01748085
0.035854142 0.045344941 0.017315239
0.036414657 0.04473801 0.017069906
0.037892565 0.045260567 0.01585272
0.039360844 0.045743681 0.015494138
0.039837379 0.045079138 0.014296204
0.041565638 0.045828782 0.014296204
0.042189166 0.045353357 0.014816254
0.043329626 0.045443267 0.016302198
0.044278949 0.04533321 0.016706944
0.045171093 0.045171093 0.01682198
0.046373717 0.04531977 0.014321864
0.047585595 0.045470677 0.012378365
0.048856754 0.045670442 0.010858834
0.050343383 0.046058841 0.0090565979
0.052321412 0.046871264 0.0076176822
0.052708577 0.046254467 0.0059102774
-0.065012887 0.047676116 0.0051615834
-0.062512301 0.046619341 0.0080452561
-0.061899003 0.046957862 0.010086447
-0.061434451 0.047423087 0.01187706
-0.059093121 0.046430308 0.01257512
-0.058414113 0.046731286 0.012899071
-0.057208803 0.046614576 0.015018165
-0.055880982 0.046391759 0.014389932
-0.055194184 0.046702769 0.014600247
-0.054008637 0.046595685 0.015986323
-0.052707266 0.046382394 0.016706228
-0.051724687 0.046446659 0.016977459
-0.050582938 0.046367694 0.017984748
-0.049243536 0.04610033 0.01805982
-0.048926897 0.046799637 0.017261207
-0.047158256 0.046110291 0.015789956
-0.047013558 0.047013558 0.014939249
-0.045643702 0.046705183 0.014303446
-0.044244397 0.046351273 0.013869524
-0.042692639 0.045816489 0.013927817
-0.041898087 0.046087895 0.014707983
-0.041354589 0.04665646 0.014108598
-0.040001038 0.046316989 0.014309943
-0.039365988 0.046813607 0.013859153
-0.03793028 0.046359234 0.014926255
-0.037085459 0.046621718 0.014215857
-0.035772704 0.046294089 0.01409477
-0.034948971 0.046598628 0.014005959
-0.03410548 0.046895035 0.015028358
-0.032532774 0.046175547 0.014848381
-0.031788412 0.046623006 0.014562428
-0.031211225 0.047354963 0.011688679
-0.029769488 0.046780623 0.0085108876
-0.029233642 0.047640007 0.0058563054
-0.028262436 0.047828738 0.0052351058
-0.027019376 0.047554098 0.0052351058
-0.02608481 0.047822151 0.0067765713
-0.024426764 0.046729457 0.0090907216
-0.023321366 0.046642732 0.010624558
-0.022359582 0.046848647 0.011923522
-0.021361697 0.046995733 0.012496531
-0.020009624 0.046338074 0.013391316
-0.019071994 0.046620432 0.012765914
-0.01805865 0.046740033 0.01210171
-0.017068842 0.046939317 0.010754555
-0.016132578 0.047322229 0.0099526048
-0.014941392 0.046958663 0.01050961
-0.013916255 0.04710117 0.010919005
-0.012971808 0.0475633 0.011914939
-0.011593093 0.046372373 0.014472753
-0.010570154 0.046508677 0.014613956
-0.0095491456 0.046684712 0.014194936
-0.0084696673 0.046583172 0.013536274
-0.0074541471 0.046854638 0.013148546
-0.0063935253 0.046885852 0.013024598
-0.0053293305 0.046898112 0.012643397
-0.0042335219 0.04656874 0.011526823
-0.0031704826 0.046500411 0.01307413
-0.0021197489 0.046634469 0.013334036
-0.001058187 0.046560228 0.013923556
0 0.046008337 0.013753206
0.0010626722 0.046757575 0.013014287
0.0021661755 0.047655858 0.01002878
0.0032390305 0.047505777 0.0080533922
0.004303826 0.047342088 0.0056554377
0.0054702382 0.048138097 0.0056554377
0.0064637037 0.047400493 0.0065060258
0.0075487448 0.047449253 0.0064986348
0.008555959 0.047057774 0.0099790096
0.0095736859 0.046804689 0.010607988
0.010645288 0.046839267 0.011254132
0.011641745 0.046566982 0.012768179
0.012744258 0.046728946 0.014251858
0.013823328 0.046786647 0.014901698
0.014793835 0.046494909 0.01476413
0.015616539 0.045808513 0.014046222
0.016990354 0.046723474 0.015440613
0.017941292 0.046436284 0.013841897
0.019142838 0.046793606 0.01297763
0.020128105 0.046612453 0.014360487
0.021009382 0.046220642 0.015412927
0.022057066 0.0462148 0.016138554
0.023153605 0.04630721 0.016504377
0.024085782 0.046077147 0.016211778
0.025389275 0.046547003 0.014841378
0.026650365 0.046904638 0.015469104
0.027447838 0.046450187 0.015474528
0.028366627 0.046227094 0.014640003
0.029542627 0.046424128 0.015548676
0.030348679 0.046046268 0.015401393
0.031753961 0.046572477 0.014802247
0.032744464 0.04647601 0.01601702
0.033767134 0.046429805 0.016402304
0.034699794 0.046266392 0.016920656
0.035376396 0.045781218 0.019527227
0.036626853 0.046045188 0.018468499
0.038295392 0.046805479 0.018723756
0.038363304 0.045621224 0.017165363
0.040514667 0.04691172 0.015494138
0.041084021 0.046351206 0.014816612
0.042699043 0.046968944 0.012115985
0.044133939 0.047363248 0.013047546
0.044958387 0.047099259 0.012261897
0.045146137 0.046196047 0.014922947
0.04625006 0.04625006 0.013064653
0.047619049 0.046560846 0.01264742
0.048904736 0.04677844 0.011107862
0.050864805 0.047618113 0.0084787011
0.051198252 0.046931732 0.0076176822
0.05265924 0.047285847 0.0051967502
-0.064729325 0.048546996 0.0050661862
-0.063478835 0.048416063 0.0066525042
-0.062216282 0.048271254 0.010086447
-0.060857076 0.048045065 0.010244906
-0.059776254 0.048034493 0.010303169
-0.058774788 0.048088465 0.010467827
-0.057368491 0.047807075 0.0118334
-0.0564995 0.047971275 0.012489319
-0.054973029 0.047572814 0.012994349
-0.053954177 0.047606628 0.014614612
-0.053312361 0.047981128 0.016276449
-0.05185511 0.04762204 0.016015232
-0.050609671 0.047446568 0.017826915
-0.049745012 0.047628205 0.018005222
-0.048409622 0.047357239 0.017261207
-0.047438122 0.047438122 0.015454173
-0.04668276 0.047743734 0.014945626
-0.045157194 0.047257528 0.014939249
-0.044143781 0.047296908 0.014416724
-0.043615274 0.04787042 0.014746308
-0.042677782 0.04801251 0.014707983
-0.040491864 0.046721384 0.015037566
-0.040411942 0.047856249 0.016338468
-0.039277129 0.047769479 0.015402466
-0.038089409 0.047611769 0.01598087
-0.036976043 0.047540631 0.015434712
-0.036325436 0.048077784 0.014368623
-0.035688765 0.048666503 0.014817715
-0.033926077 0.047708549 0.014946133
-0.032628771 0.047364343 0.014337391
-0.032227483 0.04834123 0.012333035
-0.030762777 0.047735345 0.010900229
-0.029937373 0.048113637 0.0077751577
-0.029264823 0.048774704 0.0061640739
-0.027959142 0.048390824 0.0051440299
-0.025827987 0.048427477 0.0068210065
-0.024371378 0.047683131 0.011324823
-0.023384195 0.047831308 0.011699945
-0.022176825 0.04752177 0.012535661
-0.021191232 0.047680277 0.013018727
-0.02005934 0.047508962 0.013480037
-0.019046064 0.047615163 0.013391316
-0.018031057 0.047729272 0.011542916
-0.017225938 0.048447952 0.0098422766
-0.016112713 0.048338141 0.0097572803
-0.014958488 0.048080854 0.010823131
-0.013862049 0.047984019 0.011890769
-0.012656452 0.0474617 0.014661402
-0.011613897 0.047511403 0.01540491
-0.010659932 0.047969699 0.014324605
-0.0094723748 0.047361881 0.013902485
-0.0084717041 0.04765334 0.013225287
-0.0073833978 0.047464702 0.012560546
-0.0064317565 0.048238177 0.01301381
-0.0053330166 0.047997154 0.012245804
-0.004223634 0.047515884 0.011707723
-0.0031630681 0.047446024 0.012246192
-0.0021322544 0.047975726 0.013581604
-0.0010568057 0.047556262 0.014008969
0 0.047324639 0.013189286
0.0010589871 0.04765442 0.013753206
0.0021562492 0.048515607 0.010444552
0.0032308702 0.048463054 0.0073425174
0.0043406948 0.048832819 0.0065007806
0.0053436197 0.048092581 0.0065742433
0.0064764693 0.048573524 0.0069819987
0.0075496407 0.048533406 0.007389605
0.0085550649 0.048122238 0.010137081
0.0096255774 0.04812789 0.010952026
0.010616924 0.047776159 0.01277858
0.01160457 0.047473241 0.0120866
0.012753842 0.047826912 0.012236774
0.01375104 0.047599755 0.013677597
0.014776212 0.04749497 0.014116555
0.015810259 0.04743078 0.01404798
0.016696043 0.046957623 0.014183789
0.018111333 0.047941763 0.014116555
0.019331537 0.048328847 0.014089614
0.02013984 0.047699619 0.014089614
0.021108927 0.047495089 0.014973283
0.022312792 0.047813129 0.015593261
0.023038117 0.047123425 0.016595244
0.024193281 0.047334682 0.01663205
0.025181996 0.047216244 0.016206741
0.026299866 0.04733976 0.016495198
0.02744819 0.047506485 0.016431242
0.028362133 0.04727022 0.017270625
0.0292976 0.04708543 0.017623961
0.030685658 0.047615677 0.017547995
0.031714469 0.047571708 0.016783237
0.032578204 0.04729094 0.01755935
0.03408844 0.047936868 0.016881347
0.034349542 0.046840288 0.019556105
0.035122458 0.04648561 0.021491647
0.036646444 0.047116861 0.020196527
0.037103012 0.046378769 0.019250482
0.038605135 0.046952188 0.0185996
0.040489882 0.047948543 0.015657634
0.04066122 0.046916794 0.012402982
0.042726021 0.04806678 0.011984617
0.044045322 0.048342425 0.011879623
0.045275219 0.048509162 0.011527121
0.045887791 0.04802211 0.011569262
0.046947792 0.04801479 0.013203293
0.047505867 0.047505867 0.011042804
0.048866555 0.04780424 0.0097002089
0.050302263 0.048161741 0.0080346167
0.052325152 0.049054835 0.0055518448
-0.063192636 0.049268838 0.0076575577
-0.061288055 0.04860777 0.0092171133
-0.061530925 0.049656536 0.0089457035
-0.059585076 0.048944883 0.0093874335
-0.058751989 0.049138028 0.0099173784
-0.057968672 0.04938072 0.009393096
-0.056967739 0.049443703 0.01015389
-0.055548288 0.049138874 0.011447221
-0.054365296 0.049035367 0.011759281
-0.053237509 0.048978508 0.014459997
-0.05180246 0.048630886 0.015454173
-0.050607216 0.048498582 0.015784711
-0.049205247 0.048158329 0.016788274
-0.047839742 0.047839742 0.016344339
-0.047793403 0.048855476 0.015613943
-0.046659213 0.048780087 0.016194642
-0.045543529 0.048720986 0.01453793
-0.044779327 0.049044024 0.014416724
-0.043047212 0.048296869 0.01470542
-0.042487491 0.048860617 0.014702111
-0.041400034 0.048830811 0.015119702
-0.040503826 0.049030945 0.015940458
-0.039259497 0.048809104 0.015940458
-0.0379702 0.04851748 0.016104102
-0.03709881 0.04875844 0.014215857
-0.036159337 0.048921458 0.013732105
-0.035023335 0.04882041 0.013763785
-0.03375623 0.048524581 0.01324755
-0.033613872 0.049878646 0.012267441
-0.031765424 0.048706986 0.011048198
-0.031001242 0.049174383 0.0084124207
-0.030123595 0.049488764 0.0076893866
-0.02920769 0.049761247 0.0058790445
-0.028051915 0.049630314 0.0056182444
-0.027444275 0.050497465 0.006277144
-0.025826566 0.04950092 0.0082876384
-0.024260236 0.048520472 0.012450516
-0.023351036 0.048824895 0.012575179
-0.022048661 0.04829707 0.01333198
-0.021173198 0.048698358 0.012655675
-0.020013483 0.048453696 0.014257908
-0.019052709 0.048690259 0.013391316
-0.018232809 0.049335837 0.010954231
-0.017134918 0.049262889 0.0092785358
-0.016305234 0.05000272 0.0088845193
-0.015006843 0.049308199 0.010595202
-0.013733017 0.048593752 0.012263089
-0.012666709 0.048555717 0.014432937
-0.011737198 0.049082827 0.01540491
-0.010487986 0.048244737 0.013449967
-0.0095531102 0.048827011 0.012725145
-0.0084780483 0.04874878 0.013014466
-0.0074338983 0.048851334 0.012509227
-0.0064619323 0.049541485 0.012509227
-0.0052767028 0.04854567 0.012818635
-0.0042333519 0.048683546 0.012320071
-0.0031972528 0.049024545 0.01308614
-0.002134321 0.049089387 0.013864219
-0.0010465747 0.048142433 0.014561474
0 0.048237324 0.014416724
0.0010404564 0.047860995 0.014416724
0.0021386826 0.049189702 0.010563076
0.0032481356 0.049804747 0.010315359
0.0042822952 0.049246397 0.0074827075
0.0054148063 0.049816221 0.0072570443
0.006554604 0.050251964 0.0078217983
0.0075127571 0.049369548 0.0092577636
0.0085584773 0.049211249 0.010367781
0.0095585613 0.048854873 0.011825651
0.010603045 0.048774011 0.01312384
0.01160731 0.048539661 0.013796061
0.012660895 0.048533436 0.014717847
0.013725147 0.048565902 0.014333487
0.01478902 0.048592497 0.014606059
0.015788574 0.048418295 0.014116555
0.016856002 0.048461005 0.014498025
0.018233838 0.04933862 0.013467133
0.018968835 0.048475917 0.013791889
0.020142248 0.04876544 0.013117462
0.021365594 0.049140871 0.014579564
0.022034686 0.048266456 0.015660644
0.023255225 0.048624568 0.016206741
0.024429936 0.048859872 0.016774297
0.025263479 0.04842167 0.016590208
0.026342392 0.048470002 0.017296702
0.02756154 0.048762724 0.017336577
0.028285667 0.048190396 0.01797393
0.029934084 0.049177427 0.018153071
0.030480847 0.04834893 0.017902404
0.031513516 0.048320729 0.017784834
0.032655243 0.048456162 0.017968476
0.033058651 0.047521811 0.020238221
0.034339964 0.047867831 0.021169126
0.035385624 0.047874667 0.021881938
0.036391221 0.047828462 0.020560175
0.037600946 0.048045658 0.019422233
0.03875285 0.04817922 0.018723756
0.039738391 0.048104364 0.015100718
0.041451767 0.048891827 0.010890722
0.042764775 0.049179494 0.012078583
0.043699518 0.049028724 0.010933638
0.045232281 0.049540121 0.0097051859
0.046276513 0.049505111 0.0092993081
0.047146734 0.04928977 0.0092993081
0.048291869 0.049365021 0.0082793832
0.049409483 0.049409483 0.0076412261
-0.063316308 0.050438415 0.0060455203
-0.062522404 0.050664704 0.0064873397
-0.061489701 0.050702035 0.0078549683
-0.0598404 0.05022319 0.0082411468
-0.058847655 0.050287995 0.0080434978
-0.058085233 0.050555661 0.0090367794
-0.056534816 0.050134648 0.0094939172
-0.055723142 0.050365146 0.010368735
-0.054380596 0.050115451 0.012507379
-0.053213459 0.05002065 0.012756377
-0.052288592 0.050154366 0.013978869
-0.050416831 0.049366482 0.015668839
-0.04983025 0.04983025 0.015981764
-0.048767228 0.049827382 0.016403794
-0.047324877 0.049428202 0.015876621
-0.046473816 0.049642485 0.015613943
-0.045680802 0.049930178 0.015271723
-0.044544008 0.049846865 0.014554501
-0.043395638 0.049746215 0.01470542
-0.04203672 0.049393147 0.014790118
-0.041442342 0.049943339 0.015550613
-0.040073048 0.049564034 0.016116768
-0.03876638 0.049243778 0.016270876
-0.038031064 0.049651667 0.016161919
-0.036980562 0.04965961 0.014624059
-0.036214698 0.050061494 0.013735741
-0.035176687 0.050100129 0.013196886
-0.034501944 0.050674729 0.01259625
-0.032771342 0.049685579 0.01193282
-0.032010011 0.050149016 0.010876268
-0.031309456 0.050742906 0.0081598759
-0.029935695 0.050249204 0.0075500309
-0.029267874 0.050947778 0.0052797198
-0.02828588 0.051132169 0.0052797198
-0.027137246 0.051018018 0.0066211224
-0.025627676 0.050187532 0.011061102
-0.024392361 0.049845256 0.01420173
-0.02308229 0.049312167 0.013930112
-0.02221635 0.049722306 0.01412335
-0.021151416 0.049705829 0.014646977
-0.020080166 0.049671989 0.014405608
-0.019116955 0.049916495 0.013826817
-0.018320164 0.050649866 0.0093023777
-0.017279113 0.05075739 0.0090325773
-0.016192544 0.05073664 0.0092453063
-0.014832235 0.049793933 0.011582226
-0.013692101 0.049502213 0.013245702
-0.01274952 0.04993562 0.015303731
-0.011528071 0.049256306 0.015885174
-0.010475295 0.049233884 0.013902485
-0.0096484534 0.050386373 0.013393849
-0.0085051646 0.049967844 0.013182372
-0.0074338866 0.049913239 0.012643963
-0.0064386446 0.05043605 0.012245804
-0.0053212116 0.050019391 0.012766957
-0.0042597516 0.05005208 0.01216352
-0.0031923393 0.050013319 0.012686491
-0.0021287436 0.050025471 0.013911188
-0.0010434282 0.049041126 0.016492516
0 0.048608646 0.017963231
0.0010485757 0.049283061 0.017453432
0.002130318 0.050062474 0.013384551
0.0032070549 0.050243858 0.010889798
0.0042716204 0.050191544 0.010315359
0.0053814631 0.050585754 0.0088092387
0.0064851488 0.050800335 0.0090384781
0.0075487499 0.050684467 0.0092577636
0.008572978 0.050366245 0.010697156
0.0095525524 0.049885552 0.011248469
0.010716246 0.050366353 0.012666076
0.011629289 0.049688779 0.014229
0.012820705 0.050214428 0.014624059
0.013818785 0.049960222 0.014107794
0.01486189 0.049893487 0.014606059
0.015754098 0.049362842 0.013938487
0.016904427 0.049656752 0.014033079
0.018050674 0.049904805 0.014007092
0.019209517 0.050158184 0.013875574
0.020321527 0.050269041 0.0137254
0.021117546 0.049626235 0.015018851
0.021902656 0.049020231 0.015037268
0.023215322 0.049596369 0.016350359
0.023986308 0.049015496 0.01665616
0.025292533 0.04953121 0.016976714
0.026244204 0.049339104 0.017702252
0.02726613 0.049288772 0.017830312
0.028181341 0.049056407 0.017830312
0.029401159 0.049351946 0.018274724
0.030340776 0.049172983 0.017881036
0.031343289 0.049104486 0.017983437
0.032591648 0.049413145 0.019257814
0.033354457 0.048989356 0.020736098
0.034411848 0.049010813 0.021924317
0.035293479 0.048788045 0.022001922
0.036192931 0.048601937 0.019933105
0.037759628 0.049297296 0.019080848
0.038636964 0.049079385 0.018732786
0.040132616 0.049637709 0.015217274
0.0417597 0.050325792 0.011785358
0.042497125 0.049934123 0.012870997
0.043580901 0.04995859 0.010671824
0.044627488 0.049940284 0.01055631
0.045729998 0.049983952 0.0086449385
0.047938623 0.051207166 0.0082583129
0.048941731 0.051116917 0.0074041486
0.05013448 0.051224358 0.0052976608
-0.062775575 0.051952194 0.0053020716
-0.061150882 0.051495478 0.0063827932
-0.060192596 0.051593654 0.0071094036
-0.059223346 0.051685829 0.0074232519
-0.058463845 0.051967859 0.0076576471
-0.057097543 0.051710986 0.0080438256
-0.056000587 0.051692847 0.0095142126
-0.05454259 0.051334202 0.01093486
-0.053570624 0.051427796 0.012516171
-0.052034974 0.050973039 0.013108313
-0.050765865 0.050765865 0.013961256
-0.049920429 0.050982565 0.014967799
-0.048199754 0.050295394 0.016101986
-0.047657754 0.050834935 0.01532793
-0.046706647 0.050952706 0.016230911
-0.045494143 0.050784159 0.015493482
-0.044531111 0.050892696 0.015694857
-0.043146003 0.050512388 0.015284657
-0.042077553 0.050493062 0.015550613
-0.041270513 0.050794479 0.016750455
-0.040171362 0.050742771 0.016905755
-0.038942501 0.050519999 0.016500741
-0.037759513 0.050346021 0.016199917
-0.03699515 0.050736208 0.015985101
-0.035882149 0.050657149 0.015439928
-0.035204291 0.051206242 0.014016151
-0.033955023 0.050932534 0.01313588
-0.03332131 0.05159428 0.012086779
-0.032755971 0.052409556 0.0091691017
-0.031137478 0.05153789 0.0079268515
-0.03017218 0.051723737 0.006257683
-0.029368617 0.052210875 0.005540967
-0.028122125 0.051917769 0.0056182444
-0.027035676 0.051908497 0.0068542063
-0.025556384 0.051112767 0.013342291
-0.024235105 0.050577611 0.015528291
-0.023283022 0.050799321 0.01549983
-0.022132417 0.050588377 0.016434997
-0.021029145 0.050469946 0.014795572
-0.020046726 0.05064436 0.01428175
-0.019158181 0.051088486 0.013191044
-0.018265452 0.051573042 0.010502666
-0.017342784 0.052028347 0.0094379783
-0.01611612 0.051571582 0.0096928775
-0.01489397 0.051065039 0.01252383
-0.013945325 0.051490434 0.013227075
-0.012473476 0.049893904 0.015075266
-0.011659172 0.05087639 0.014480829
-0.010535778 0.050571736 0.013065249
-0.0095562944 0.050966907 0.013222188
-0.0085496483 0.051297888 0.01301381
-0.0074427286 0.051035851 0.012509227
-0.0064120619 0.051296495 0.011832833
-0.0053341826 0.051208157 0.01196757
-0.0042529353 0.051035225 0.011970758
-0.0031823241 0.050917186 0.011899531
-0.0021399865 0.051359676 0.012936473
-0.001047058 0.050258782 0.018053204
0 0.050378084 0.018539935
0.0010492374 0.050363399 0.017957747
0.0020853789 0.050049093 0.01787734
0.0032039366 0.051262986 0.013298422
0.0043100836 0.051721003 0.011400759
0.005312087 0.050996035 0.010754198
0.0063888165 0.051110532 0.010196865
0.0076723872 0.052610654 0.0099721253
0.0085215624 0.051129375 0.0099721253
0.0095987841 0.051193517 0.011530638
0.010658639 0.051161468 0.012587428
0.011713761 0.051114593 0.01406315
0.012755957 0.05102383 0.014119208
0.013674725 0.050491292 0.014875978
0.014810957 0.050780423 0.014482498
0.015872912 0.050793316 0.014070779
0.016778499 0.050335497 0.014271021
0.017983703 0.050777514 0.015836537
0.019337809 0.051567495 0.015572608
0.020244356 0.051143635 0.015018851
0.021303665 0.051128794 0.015341103
0.022646621 0.051763702 0.015992761
0.023192586 0.050602008 0.01633352
0.024255957 0.050621126 0.017001033
0.025205383 0.050410766 0.017272294
0.026019024 0.049956523 0.018037736
0.027426258 0.050633091 0.017824531
0.028388413 0.050468288 0.018029511
0.029609051 0.050758373 0.018382847
0.030387979 0.050297342 0.018228382
0.03110957 0.04977531 0.018989891
0.032424983 0.050206419 0.019161999
0.03362092 0.050431378 0.020482063
0.034079269 0.049569845 0.020904899
0.035389878 0.049962182 0.020904899
0.036724944 0.050365638 0.019632459
0.037631433 0.05017525 0.018842876
0.039011654 0.050609708 0.017997861
0.040672962 0.051376369 0.015402675
0.041550178 0.05113868 0.012266994
0.043164372 0.051797248 0.012790293
0.044032529 0.051550277 0.012098551
0.0451052 0.051548798 0.0098872483
0.046239652 0.051616356 0.0086192191
0.047326293 0.051628686 0.0077697039
0.048082836 0.051288355 0.0066251159
-0.062573045 0.052863434 0.0056795776
-0.062308017 0.053563029 0.0066785514
-0.060235385 0.052705958 0.0068978965
-0.059100438 0.052653115 0.0079558194
-0.05797375 0.052605808 0.0074235797
-0.056699138 0.052419957 0.0086253881
-0.055859275 0.052636623 0.0094136894
-0.054664362 0.052520659 0.0096939802
-0.053398699 0.052330721 0.012184978
-0.052057933 0.052057933 0.01290822
-0.051319204 0.052388351 0.013706207
-0.049549721 0.051658217 0.014355779
-0.048586629 0.051755317 0.015526384
-0.048101131 0.052376784 0.016037077
-0.046375182 0.051645085 0.016899109
-0.045617867 0.051983148 0.016037077
-0.044469912 0.051881563 0.015955359
-0.042913534 0.051286902 0.015574962
-0.042301193 0.051818959 0.015812129
-0.041211311 0.051778313 0.017156601
-0.039985448 0.051560182 0.017337024
-0.038884137 0.051495202 0.016521275
-0.037661519 0.051261511 0.015769154
-0.03684279 0.051579904 0.015342355
-0.036168829 0.052125663 0.015439928
-0.034970898 0.051926482 0.014016151
-0.034120634 0.052247219 0.012564808
-0.033367533 0.052742228 0.01193282
-0.031752177 0.051861886 0.0086455047
-0.031215759 0.052743863 0.0074445009
-0.030492872 0.053362526 0.0058275759
-0.028950637 0.052540042 0.005774051
-0.028173434 0.053096082 0.0056182444
-0.027180158 0.053273104 0.0095299482
-0.025260229 0.051572967 0.014861375
-0.024227891 0.051615939 0.016349316
-0.023210941 0.051697094 0.016561747
-0.022158824 0.051703919 0.016439855
-0.021176418 0.051882226 0.014832318
-0.020046495 0.051698852 0.015278548
-0.019164441 0.052169867 0.013025492
-0.018268231 0.052655488 0.011870116
-0.016939925 0.051878519 0.011582226
-0.016073208 0.052505814 0.011653692
-0.01495219 0.052332666 0.014448017
-0.013677722 0.05155449 0.014977545
-0.012694074 0.051834133 0.014859974
-0.01170627 0.052146111 0.016216069
-0.01048181 0.051360868 0.014049619
-0.0095528979 0.052010223 0.013834953
-0.0085630696 0.052448798 0.013195515
-0.0074354229 0.052047957 0.012620986
-0.0064054267 0.052310985 0.011866271
-0.0053791893 0.052716054 0.012006253
-0.0042690951 0.052296415 0.012121171
-0.0031971696 0.052220434 0.012563109
-0.0021250639 0.052064065 0.013950139
-0.0010506792 0.051483281 0.016600341
0 0.051800761 0.017957598
0.0010354274 0.050735943 0.017963231
0.0020905661 0.051218867 0.016605705
0.0031850049 0.052021746 0.015351325
0.0042659482 0.052257862 0.013891816
0.0053086854 0.052025113 0.01266554
0.0064366534 0.052565999 0.01249519
0.0075154831 0.052608378 0.011496246
0.0087441187 0.053557727 0.0099377334
0.0096095335 0.052318573 0.010877967
0.010693576 0.052398521 0.011530638
0.011641051 0.05185559 0.012666076
0.012706415 0.051884528 0.014119953
0.013740634 0.05179162 0.014124781
0.014867509 0.052036282 0.014200836
0.015948012 0.05209684 0.014070779
0.016859613 0.051632565 0.014070779
0.018007124 0.051902886 0.0148063
0.018954394 0.051598072 0.016052812
0.020111969 0.051867705 0.015235126
0.02119818 0.051935542 0.014548063
0.022372061 0.052201472 0.016563952
0.0232947 0.051883653 0.016463578
0.024333512 0.051840957 0.01713109
0.02513553 0.051318374 0.017272294
0.026357111 0.051659934 0.018054008
0.027270488 0.051394381 0.017928839
0.02858215 0.051871303 0.018228382
0.029645896 0.051880315 0.018698931
0.030499745 0.051534049 0.018540502
0.030810619 0.050324012 0.018884599
0.032746468 0.051760539 0.019279957
0.033093523 0.050674457 0.020684481
0.034317981 0.050957002 0.021098405
0.035736173 0.051502131 0.021060199
0.036180135 0.050652187 0.019267976
0.037689731 0.051299911 0.018774509
0.038714658 0.051270757 0.01724264
0.040015217 0.051598568 0.015622646
0.041262999 0.051843256 0.01242131
0.042799875 0.052429847 0.013897836
0.043607239 0.052115962 0.012180507
0.044801116 0.052267969 0.011363506
0.045555755 0.051912371 0.010132045
0.047635291 0.053048391 0.0065574646
-0.062204033 0.054564945 0.0052818358
-0.060079779 0.053642664 0.0054696202
-0.059422377 0.054020341 0.0072506368
-0.058260798 0.053945184 0.0077003539
-0.057009634 0.053782675 0.0077170134
-0.055933032 0.053781766 0.0084670186
-0.054470409 0.053402364 0.010465652
-0.053259585 0.053259585 0.011839062
-0.052062903 0.053125411 0.012953967
-0.051096149 0.05322516 0.013252378
-0.04992744 0.053114299 0.014168352
-0.049055934 0.053321671 0.014544964
-0.047266766 0.052518629 0.015506625
-0.046403565 0.052731328 0.01571545
-0.045472182 0.052874632 0.01562199
-0.044398379 0.052855212 0.01588428
-0.043475628 0.053019058 0.015350461
-0.042100579 0.052625727 0.01609841
-0.040785503 0.052289106 0.015659153
-0.040085535 0.052744128 0.014992416
-0.038872391 0.052530255 0.01501289
-0.037986413 0.05275891 0.014691472
-0.036958233 0.052797478 0.01465553
-0.035946749 0.052862864 0.014539808
-0.034888674 0.052861627 0.012705833
-0.034052406 0.053206883 0.012194932
-0.032744028 0.052812945 0.0097118914
-0.031992353 0.053320594 0.0085095167
-0.031468812 0.054256573 0.0072388947
-0.030236879 0.053994428 0.0065914989
-0.029235253 0.054139357 0.0059048533
-0.028450599 0.05471269 0.0062590241
-0.026552923 0.053105846 0.012488544
-0.025311992 0.052733317 0.015603304
-0.024316397 0.052861731 0.016948193
-0.023258386 0.052859969 0.017116725
-0.022048043 0.052495342 0.016901523
-0.020963309 0.052408278 0.016398519
-0.020166714 0.053070303 0.013908923
-0.019270679 0.053529669 0.012856424
-0.018169157 0.053438701 0.012238473
-0.017020863 0.053190198 0.012135774
-0.016021159 0.053403862 0.013031811
-0.014833355 0.052976269 0.014502168
-0.013686137 0.052638993 0.014095873
-0.012775847 0.0532327 0.015676022
-0.011460536 0.052093349 0.017179668
-0.010597776 0.052988883 0.014783949
-0.0094857486 0.052698605 0.014065504
-0.0084907738 0.053067341 0.013437837
-0.0074856682 0.053469058 0.012878716
-0.0064655473 0.053879563 0.011246771
-0.0053137229 0.053137232 0.011842549
-0.0042605349 0.053256687 0.011580557
-0.003151363 0.052522719 0.012278259
-0.0021332502 0.053331256 0.014021844
-0.0010563491 0.052817456 0.016407222
0 0.052357785 0.017065376
0.0010489676 0.052448381 0.016870797
0.0021017881 0.052544702 0.017775595
0.0031081638 0.051802732 0.016545504
0.0042283474 0.052854348 0.016241163
0.0053479052 0.053479057 0.014634997
0.0062902239 0.052418537 0.014326811
0.0074340049 0.053100038 0.012750477
0.0086427322 0.054017078 0.012008399
0.0097753732 0.054307632 0.011530638
0.010813711 0.054068562 0.011521965
0.011660793 0.053003605 0.012275457
0.012688033 0.052866809 0.01382637
0.013791483 0.053044166 0.013403505
0.014841821 0.053006504 0.014191329
0.015870605 0.052902017 0.01442799
0.016868027 0.052712586 0.015516043
0.017843386 0.052480549 0.015879482
0.018683158 0.051897664 0.014796108
0.019728057 0.051915944 0.015501708
0.021182068 0.052955173 0.0148274
0.022487076 0.053540658 0.01347214
0.023590667 0.053615157 0.014720827
0.024187187 0.052580841 0.016842097
0.025310542 0.052730296 0.01706925
0.026204178 0.052408356 0.018037736
0.027368965 0.052632626 0.017718792
0.028392555 0.052578807 0.016991913
0.029204251 0.052150451 0.018205255
0.030395992 0.052406881 0.018496215
0.031369668 0.05228278 0.018606752
0.032527093 0.052463055 0.019134343
0.033320904 0.052063916 0.019593239
0.034520525 0.052303828 0.01944077
0.035450675 0.052133348 0.019754052
0.036466666 0.052095238 0.018515348
0.037973396 0.052740835 0.01756531
0.038731944 0.052340463 0.016778111
0.039971083 0.052593533 0.016094178
0.04139147 0.053065985 0.014759541
0.04242089 0.053026117 0.014950603
0.043529924 0.053085275 0.01344192
0.044236619 0.052662641 0.013335854
0.045304026 0.052679103 0.011877775
0.047366887 0.053826012 0.0066325068
-0.058880158 0.054597963 0.0055108368
-0.05855057 0.055297758 0.0066140592
-0.056871444 0.054725353 0.0076590776
-0.056134302 0.055054799 0.0075837076
-0.054646563 0.054646563 0.0089298785
-0.053222284 0.05428673 0.011490822
-0.052138176 0.054266267 0.012720615
-0.051158339 0.054355737 0.012963444
-0.050160628 0.054429621 0.013001353
-0.04853224 0.053807482 0.013001353
-0.047555231 0.053895928 0.014038026
-0.047066614 0.054554485 0.015151173
-0.045282353 0.053706978 0.015429437
-0.044086579 0.053533703 0.015848905
-0.04363003 0.054271497 0.015948713
-0.042065959 0.053634103 0.01650399
-0.041179154 0.053849664 0.015298665
-0.040096078 0.053813159 0.014848799
-0.038621955 0.053235665 0.014774412
-0.037948683 0.05376064 0.014876753
-0.036889892 0.053753842 0.014568657
-0.035970498 0.053955749 0.014230102
-0.035166368 0.054348025 0.012818128
-0.033970505 0.054140493 0.01236105
-0.033431258 0.054999813 0.0090374947
-0.03250001 0.055250019 0.0085901022
-0.031224649 0.054912314 0.0067532063
-0.030340731 0.055263475 0.0059583485
-0.029617287 0.055943761 0.0061948299
-0.028096536 0.055112436 0.0065202415
-0.026280589 0.0536124 0.015528291
-0.025338935 0.053845238 0.016052365
-0.024117198 0.053477261 0.018089235
-0.02311831 0.053592447 0.018508613
-0.02196891 0.053353067 0.017665923
-0.020912111 0.053325884 0.015819669
-0.020194903 0.05420737 0.01382345
-0.019145062 0.054244343 0.013347834
-0.01817688 0.054530639 0.012619972
-0.017077472 0.054434445 0.01249069
-0.015885629 0.05401114 0.014334202
-0.014858373 0.054126933 0.015410334
-0.013758911 0.053977266 0.015410334
-0.012610819 0.053595982 0.017584562
-0.011438356 0.05303238 0.017438293
-0.010593882 0.054028798 0.015428334
-0.0094822589 0.053732805 0.014221281
-0.0083517088 0.053242143 0.014049679
-0.0074177263 0.054043435 0.013038456
-0.0063118567 0.053650785 0.011593759
-0.0053979564 0.055059154 0.011460662
-0.0042613884 0.054332703 0.011452854
-0.0031554648 0.053642903 0.011842549
-0.0021389988 0.054544471 0.013397396
-0.0010548113 0.053795375 0.015444547
0 0.053761613 0.015499711
0.0010599527 0.054057583 0.015792102
0.0021073048 0.053736269 0.016413361
0.0031723401 0.05392978 0.016391128
0.0042321151 0.053959467 0.016412705
0.0052428218 0.053476784 0.016087621
0.0063372585 0.053866696 0.015787631
0.0074448199 0.054240834 0.014395177
0.0084891059 0.054118052 0.013194084
0.0098120673 0.05560172 0.011411339
0.010775284 0.054953951 0.0099583566
0.011785538 0.05464204 0.010813832
0.012855316 0.054635093 0.013550907
0.01382257 0.054227002 0.01390028
0.014695886 0.053535011 0.014688104
0.015807657 0.05374603 0.015620917
0.016738052 0.053352538 0.016433805
0.017799841 0.053399526 0.016480953
0.019441994 0.055085652 0.016678244
0.019829853 0.053227495 0.015037268
0.021305995 0.054330289 0.01327014
0.022346918 0.054271087 0.01347214
0.023414614 0.054279331 0.014720827
0.024207477 0.053677447 0.016830832
0.025296912 0.053755939 0.017557859
0.025937989 0.052913498 0.018054008
0.027489187 0.0539211 0.017668158
0.028013885 0.052915115 0.018085718
0.029436829 0.053617083 0.018516421
0.030591302 0.053798497 0.018527061
0.031425122 0.053422708 0.018547207
0.032649789 0.053714167 0.018640667
0.033339564 0.053134929 0.01911822
0.033974729 0.052506398 0.01812318
0.03533728 0.053005919 0.019052804
0.036906764 0.053778429 0.018554538
0.037625521 0.053302824 0.01724264
0.038994133 0.053748671 0.016614825
0.040240243 0.054006644 0.016094178
0.040373791 0.052796498 0.014607102
0.042535447 0.054232698 0.013802677
0.043642364 0.054286841 0.013443321
0.044326622 0.053825181 0.013200581
0.045750462 0.054262176 0.011185497
0.047323246 0.054851942 0.0067246556
-0.057041217 0.055964969 0.0060127974
-0.055967137 0.055967137 0.0067822933
-0.054941598 0.056018881 0.0075201392
-0.053250697 0.055380724 0.010004371
-0.052360151 0.055565875 0.011644751
-0.051753372 0.056066155 0.012578368
-0.049650967 0.054932982 0.012466758
-0.049094658 0.055498306 0.012557745
-0.048551746 0.056104235 0.013475507
-0.046618134 0.05509416 0.014953673
-0.045743898 0.055318203 0.015044719
-0.044519868 0.055119835 0.015195101
-0.043142807 0.054717701 0.01563707
-0.042346414 0.05505034 0.014956325
-0.041114595 0.054819461 0.015225798
-0.039994285 0.054729018 0.014712572
-0.039062098 0.054898083 0.01494661
-0.038095042 0.05502617 0.014884472
