ply
format ascii 1.0
comment PCL generated
element vertex 1588
property float x
property float y
property float z
element camera 0
property float view_px
property float view_py
property float view_pz
property float x_axisx
property float x_axisy
property float x_axisz
property float y_axisx
property float y_axisy
property float y_axisz
property float z_axisx
property float z_axisy
property float z_axisz
property float focal
property float scalex
property float scaley
property float centerx
property float centery
property int viewportx
property int viewporty
property float k1
property float k2
end_header
209.31122 85.998856 553.65137
210.83566 85.938599 554.51141
212.26863 85.938278 554.37372
213.70174 85.937943 554.23224
215.23688 85.87764 555.08008
216.67287 85.877281 554.93085
218.10901 85.876915 554.77777
219.5453 85.876526 554.62097
220.98178 85.876129 554.46045
222.53316 85.815765 555.2876
223.97256 85.815338 555.11914
225.41214 85.814896 554.94684
226.97435 85.754486 555.76141
228.4169 85.754013 555.58118
229.85962 85.753532 555.39709
231.43274 85.693077 556.19885
233.0112 85.632599 556.99615
234.32442 85.692024 555.81085
236.04636 85.571548 557.58832
237.21701 85.690903 555.40735
238.66365 85.690323 555.19977
240.11053 85.689728 554.98834
241.55768 85.689102 554.77301
243.00507 85.688469 554.55371
244.60605 85.627846 555.31696
246.21246 85.5672 556.07544
247.82431 85.506531 556.82916
249.28052 85.505814 556.59302
250.40976 85.625023 554.38348
252.02762 85.564293 555.12445
253.48215 85.563515 554.87683
255.10837 85.502739 555.60858
256.74011 85.441933 556.33551
258.73035 85.261154 559.02228
260.01996 85.320259 557.77435
261.66815 85.259384 558.48633
263.1376 85.258461 558.21222
264.23367 85.377487 555.97302
265.69867 85.376526 555.69177
266.97202 85.435524 554.42688
268.43518 85.434509 554.138
270.09595 85.373474 554.82349
271.5625 85.372414 554.52582
272.82709 85.43132 553.24658
274.49686 85.370209 553.91809
275.96466 85.369064 553.60809
277.64307 85.307892 554.26965
279.32709 85.246674 554.92596
280.80142 85.245438 554.60229
282.49411 85.184181 555.24835
283.75146 85.242897 553.94214
285.22723 85.241577 553.60571
286.70349 85.240234 553.26508
288.40851 85.178833 553.89178
289.65747 85.237442 552.57086
291.60223 85.115959 554.15839
293.08575 85.114487 553.79926
294.56979 85.112984 553.43579
296.29568 85.051414 554.03662
297.78345 85.04985 553.66376
299.0253 85.108292 552.31921
300.51163 85.106651 551.93829
301.74683 85.165039 550.58685
303.23175 85.163345 550.19775
304.97418 85.101578 550.76868
306.72241 85.039764 551.33374
308.73865 84.917862 552.85614
310.50122 84.855972 553.40869
312.00232 84.854111 552.99341
314.04401 84.732071 554.49567
315.5517 84.730133 554.06982
317.06003 84.728172 553.63928
318.56909 84.726166 553.20416
320.35925 84.664055 553.72235
321.87231 84.661995 553.27704
323.95746 84.539719 554.73999
325.18896 84.597672 553.328
327.28864 84.475327 554.77747
329.39957 84.352921 556.21893
330.63333 84.410797 554.79254
332.75888 84.288315 556.22021
334.59439 84.225906 556.68823
336.13187 84.223572 556.19879
337.97678 84.161102 556.6543
339.2092 84.218842 555.20502
340.43716 84.27655 553.7525
342.28973 84.214005 554.19135
343.83124 84.211548 553.677
344.73392 84.329353 551.26642
347.23914 84.146439 553.57776
348.78577 84.143921 553.0473
350.0054 84.201546 551.56879
351.22058 84.259171 550.08698
352.76437 84.256615 549.54297
354.30896 84.254059 548.99371
356.19266 84.191315 549.37842
358.08246 84.128571 549.75598
360.66559 83.945457 552.00067
362.57288 83.882683 552.36182
364.13739 83.880081 551.78052
366.05426 83.817299 552.12805
367.97723 83.754517 552.46826
369.54938 83.751938 551.86877
371.48181 83.689171 552.19513
373.42029 83.626419 552.51392
375.36481 83.563683 552.82513
377.68286 83.44075 554.05688
379.64206 83.378052 554.35187
381.23438 83.375626 553.7132
382.45184 83.433456 552.1441
383.66455 83.491364 550.57153
384.87253 83.549316 548.99567
386.45917 83.547112 548.33795
388.4325 83.484726 548.59521
391.18915 83.301926 550.68317
393.17929 83.239677 550.92242
395.17505 83.177521 551.15369
397.5733 83.055206 552.29297
398.78394 83.11377 550.67767
400.39154 83.112198 549.9726
401.99927 83.110748 549.26202
403.60696 83.109444 548.54572
405.2146 83.108292 547.82379
408.47357 82.866211 550.73151
409.67603 82.925644 549.086
411.29095 82.925011 548.34369
-87.417145 84.968018 543.00745
-86.232849 84.911125 544.63635
-84.230652 84.969696 544.43811
-82.637299 84.970757 545.14502
-80.242264 85.087234 544.01782
-79.052689 85.030884 545.62683
-77.066849 85.089935 545.39929
-74.69371 85.206726 544.24609
-73.111938 85.208328 544.92053
-71.143021 85.267654 544.66943
-69.179794 85.327049 544.41046
-68.75119 85.155975 547.83289
-66.788956 85.2155 547.56293
-64.832489 85.275101 547.2851
-63.256195 85.2771 547.92523
-61.308929 85.336777 547.63318
-59.367599 85.396484 547.33356
-57.43222 85.45623 547.02625
-55.502869 85.515999 546.71149
-54.662247 85.402969 549.18164
-52.378662 85.520386 547.9231
-50.106476 85.63781 546.65515
-48.551529 85.640045 547.24554
-46.647034 85.699875 546.89569
-44.40097 85.817307 545.60272
-43.201279 85.761971 547.11102
-41.654709 85.764229 547.67822
-39.769226 85.824066 547.30139
-38.56398 85.768745 548.79694
-36.685394 85.82856 548.40784
-35.476425 85.773239 549.89484
-33.604752 85.833038 549.49353
-31.739151 85.892822 549.08527
-30.203522 85.89502 549.6145
-28.347443 85.954758 549.1933
-26.178864 86.072021 547.81915
-24.969482 86.016632 549.27759
-23.128983 86.076294 548.83691
-20.362518 86.30854 545.54327
-19.158127 86.253082 546.98596
-17.338425 86.312668 546.52454
-15.221939 86.429741 545.10522
-13.416916 86.489258 544.62994
-11.915436 86.491226 545.10114
-10.414673 86.493179 545.5675
-9.2069702 86.437592 546.98376
-7.4154358 86.496994 546.48615
-6.2039337 86.44136 547.89453
-4.7035065 86.443207 548.34283
-3.2037811 86.445023 548.7865
-1.7047729 86.446808 549.22546
-0.20646667 86.448563 549.65985
1.565155 86.507782 549.12952
2.2453918 86.337036 552.43616
4.5531616 86.511154 549.97369
6.0461731 86.512794 550.38898
7.5385742 86.514404 550.79962
9.030304 86.515991 551.20581
11.554688 86.747421 547.75006
12.779053 86.691467 549.1095
14.767319 86.807892 547.56873
16.744598 86.924271 546.02075
18.215057 86.92569 546.3999
19.439636 86.869614 547.74243
20.911591 86.870987 548.11346
22.142853 86.814873 549.44928
23.378784 86.758736 550.78198
25.089172 86.817467 550.17108
26.561523 86.818718 550.52557
28.033401 86.819954 550.87561
29.50473 86.821152 551.22156
31.424614 86.937202 549.61761
32.889778 86.938347 549.9538
34.573799 86.996895 549.31183
36.035423 86.997986 549.63904
37.710754 87.05648 548.98688
38.74575 86.942657 551.25653
40.41761 87.001099 550.59546
41.877449 87.00209 550.90601
43.336861 87.003044 551.21246
44.99707 87.061401 550.53693
46.254471 87.004898 551.81293
47.908707 87.06321 551.12811
49.170486 87.00666 552.39703
50.627922 87.007507 552.68292
52.273285 87.06575 551.98431
53.913101 87.123962 551.2807
55.547386 87.182144 550.57214
56.995644 87.182899 550.84045
58.443558 87.183632 551.10474
59.715759 87.126938 552.34784
61.165581 87.127632 552.60468
62.615105 87.128311 552.85748
63.896675 87.071564 554.09045
65.513206 87.129593 553.35126
66.961823 87.130219 553.59216
68.410141 87.130814 553.82916
70.015518 87.188797 553.07635
71.460724 87.189362 553.30505
72.905632 87.189896 553.52997
74.499908 87.247826 552.76379
75.941742 87.248337 552.98041
77.527802 87.306229 552.20526
79.108444 87.364098 551.42566
80.544426 87.364563 551.62988
81.84343 87.307617 552.81927
83.281509 87.308044 553.0163
84.587791 87.251076 554.19904
86.157059 87.308868 553.39868
87.594528 87.309265 553.58411
89.15567 87.367035 552.77509
90.711479 87.424782 551.96167
92.143211 87.425133 552.13513
93.458611 87.368088 553.29626
94.892555 87.368408 553.46246
96.32634 87.368713 553.62482
97.759964 87.369026 553.78333
99.299301 87.426697 552.94543
100.73003 87.426979 553.09619
102.05986 87.369865 554.23639
103.29649 87.255356 556.36694
104.44763 87.08345 559.48853
105.61405 86.911545 562.60767
106.79573 86.739632 565.72461
108.0806 86.625092 567.8446
109.54631 86.625305 567.97223
110.76355 86.453369 571.08087
112.23672 86.453568 571.20154
113.86507 86.568512 569.3277
115.33289 86.568695 569.44031
117.01814 86.740997 566.56201
118.9677 87.142807 559.69513
120.67909 87.372482 555.81024
122.24023 87.487381 553.91278
124.04005 87.831779 548.02527
125.57024 87.946663 546.11847
127.0901 88.061531 544.20746
128.70874 88.291153 540.29846
130.25479 88.463394 537.38177
131.68654 88.520866 536.4549
133.1131 88.578331 535.52429
134.62306 88.750542 532.59515
136.07587 88.865372 530.65924
137.47917 88.922821 529.71698
138.91393 89.037643 527.77332
140.33838 89.152451 525.82581
141.68956 89.152496 525.87018
143.0118 89.095169 526.909
144.41818 89.209961 524.9505
145.76672 89.209999 524.98438
147.09399 89.152649 526.01288
148.44504 89.152679 526.03986
149.79605 89.152695 526.06342
151.13351 89.095329 527.08179
152.49803 89.152718 526.1001
153.84901 89.152725 526.11316
155.20583 89.210091 525.12451
156.55423 89.210091 525.13062
157.90262 89.210075 525.13336
159.25287 89.152687 526.13092
160.60384 89.152664 526.12671
161.96875 89.03788 528.11566
163.32487 89.037849 528.10443
164.7052 88.923065 530.08624
166.06647 88.923019 530.06805
167.44498 88.865593 531.04449
168.80885 88.86554 531.01917
170.17276 88.865479 530.99048
171.51178 88.922798 529.96002
172.92815 88.807968 531.92029
174.29471 88.807892 531.88092
175.79176 88.5783 535.82928
177.23901 88.463463 537.77795
178.62109 88.463371 537.72742
180.12413 88.291138 540.66595
181.59973 88.17627 542.60291
183.04022 88.118782 543.53845
184.6779 87.831772 548.45898
186.34128 87.544746 553.37463
187.81787 87.487236 554.29755
189.35536 87.372337 556.21326
190.96144 87.20005 559.1214
192.52217 87.085129 561.02838
194.02986 87.027588 561.93469
195.60872 86.912659 563.83307
197.12943 86.855087 564.73108
198.72644 86.740143 566.62073
199.96558 86.912086 563.52777
201.26564 87.026642 561.42755
202.55554 87.14119 559.32434
203.75395 87.313118 556.22321
205.02098 87.427658 554.11432
206.27786 87.542191 552.00262
207.79176 87.484558 552.87122
209.31093 87.426918 553.73566
210.83536 87.36927 554.59589
212.17155 87.426376 553.46454
213.7014 87.368706 554.31677
215.13464 87.368408 554.17163
216.56805 87.368095 554.02271
218.10863 87.310394 554.86249
219.43533 87.367447 553.71344
220.98138 87.309723 554.54517
222.53275 87.251976 555.37262
223.97212 87.251617 555.2041
225.4117 87.251228 555.03192
226.97391 87.193451 555.84668
228.41641 87.193039 555.66644
229.85915 87.192612 555.48248
231.43225 87.134796 556.28442
233.01071 87.07695 557.08191
234.4592 87.076485 556.88562
235.90793 87.076012 556.68542
237.21643 87.132904 555.49304
238.66306 87.132401 555.28552
239.96432 87.189278 554.08643
241.40887 87.188736 553.87152
243.00443 87.130783 554.63965
244.60541 87.072807 555.40302
246.21179 87.014816 556.16174
247.66513 87.014206 555.92993
249.11874 87.013573 555.69427
250.57266 87.012924 555.45459
252.02686 87.01226 555.211
253.48138 87.011581 554.96338
255.10757 86.953468 555.69531
256.91321 86.837921 557.40546
258.55295 86.779755 558.12714
260.19821 86.721573 558.84387
261.66727 86.720779 558.57391
262.95239 86.77739 557.31873
264.41959 86.77655 557.04108
265.69766 86.833122 555.77911
267.16306 86.832245 555.49396
268.62875 86.831345 555.20453
269.89771 86.887848 553.93243
271.36163 86.886902 553.63538
272.82599 86.885925 553.33423
274.4957 86.827515 554.00592
276.17105 86.769058 554.67249
277.64185 86.768021 554.35779
279.32584 86.709511 555.01428
280.80011 86.708412 554.69061
282.2749 86.707291 554.36279
283.30911 86.821014 552.08331
285.22586 86.704956 553.69434
286.70209 86.703751 553.35376
288.4071 86.645073 553.98083
289.8869 86.643814 553.63104
291.83423 86.527626 555.21826
293.32031 86.526306 554.85864
295.04559 86.467499 555.46399
296.29407 86.523575 554.12622
298.0257 86.464706 554.72162
299.02362 86.578194 552.40894
300.50992 86.576736 552.02802
301.74509 86.632706 550.67664
302.97565 86.68866 549.32208
304.45853 86.687119 548.92926
306.98007 86.455643 552.38806
308.47464 86.454025 551.98352
309.96985 86.452377 551.5744
311.73303 86.393219 552.12262
313.77203 86.276535 553.62598
314.73193 86.389771 551.28015
316.78278 86.273026 552.77136
318.56696 86.21373 553.29596
320.35709 86.154388 553.81445
321.87012 86.152527 553.36926
323.9552 86.035629 554.83258
324.89841 86.148712 552.46478
326.99542 86.031738 553.91547
328.81018 85.972237 554.40399
330.63092 85.912704 554.88599
332.4577 85.853142 555.36151
334.59189 85.736015 556.78229
336.43335 85.676384 557.2439
337.97418 85.674255 556.74878
339.2066 85.729645 555.2995
341.05838 85.669922 555.74371
342.60165 85.667732 555.23358
344.14575 85.665512 554.71844
345.37085 85.72084 553.25256
347.23642 85.661026 553.6731
348.45786 85.716324 552.19873
350.00262 85.71405 551.66425
350.88742 85.826904 549.24023
352.76154 85.767036 549.63843
354.30612 85.764732 549.08936
356.18979 85.704849 549.4743
358.42053 85.587357 550.79041
360.66272 85.469849 552.09753
362.22375 85.467522 551.52264
364.4834 85.350006 552.81317
366.40289 85.29007 553.1601
368.32849 85.230148 553.49951
370.26013 85.170227 553.83154
371.83838 85.167923 553.22479
373.41736 85.165649 552.61255
375.72668 85.048164 553.85333
377.31241 85.045937 553.22803
378.8988 85.043747 552.59717
380.48584 85.041588 551.96082
381.69803 85.097115 550.39386
382.90546 85.152695 548.82349
384.10815 85.208344 547.24976
386.073 85.148773 547.51611
388.81595 84.973961 549.61597
391.57538 84.79921 551.70355
393.17673 84.797485 551.0235
395.56674 84.680542 552.1723
397.17407 84.679001 551.4787
398.38214 84.735222 549.86456
399.98718 84.733902 549.16083
401.59235 84.732712 548.45148
403.19751 84.731659 547.73645
405.2128 84.67308 547.92603
407.64618 84.556976 549.0166
409.25891 84.556381 548.28113
411.28958 84.498291 548.44666
-88.65033 86.354416 545.83337
-86.640121 86.410004 545.64404
-84.635178 86.465729 545.44684
-83.039047 86.466537 546.15485
-81.042145 86.522522 545.94287
-79.050674 86.578621 545.72296
-77.064774 86.634819 545.49518
-75.084412 86.691116 545.2594
-72.719513 86.802551 544.09674
-71.140732 86.803955 544.76447
-69.562347 86.80545 545.42657
-68.366608 86.751976 547.00555
-66.786499 86.753601 547.65771
-65.206894 86.755295 548.30426
-63.253693 86.812057 548.01965
-61.677933 86.81385 548.65405
-60.102814 86.815674 549.28302
-57.795929 86.927582 548.04877
-55.863861 86.984489 547.73468
-54.659653 86.931396 549.27509
-51.659561 87.153381 546.1521
-50.103882 87.155334 546.74774
-48.548935 87.157303 547.33795
-46.294144 87.269287 546.0528
-44.398376 87.326271 545.6944
-43.198685 87.27327 547.20276
-41.652115 87.275269 547.76978
-40.106384 87.277267 548.33167
-38.561432 87.279266 548.88831
-37.017273 87.281265 549.4397
-35.142181 87.338226 549.04425
-33.602295 87.34021 549.58441
-31.73671 87.397156 549.17584
-30.20108 87.399124 549.7049
-28.023834 87.510994 548.33807
-26.495071 87.512924 548.85516
-24.335251 87.624756 547.47296
-22.81337 87.626648 547.97833
-20.670929 87.738419 546.58093
-19.463943 87.685326 548.02454
-17.641617 87.742104 547.56366
-16.128143 87.743912 548.04773
-14.015076 87.855576 546.62231
-12.508392 87.85733 547.09509
-11.002411 87.859077 547.56299
-8.9126129 87.97065 546.11664
-7.4134064 87.972336 546.57355
-6.2019653 87.919075 547.98199
-4.4171448 87.975632 547.47314
-3.4837036 87.867409 549.83167
-1.9821014 87.869003 550.2713
-0.2046051 87.925476 549.74689
1.0190277 87.872108 551.13666
2.2471924 87.818718 552.52332
4.8236847 88.039825 549.09863
6.3140717 88.041283 549.513
7.8037872 88.042709 549.92291
9.5538177 88.099007 549.3645
11.55629 88.210167 547.83569
12.780594 88.156616 549.19525
14.768875 88.267715 547.65399
16.495575 88.323891 547.07227
17.968613 88.32515 547.45197
19.19577 88.2715 548.79523
20.912979 88.327591 548.1983
22.384323 88.328766 548.565
23.380127 88.220169 550.867
25.0905 88.276184 550.2558
26.56282 88.277283 550.61017
27.804932 88.223495 551.93195
29.505951 88.279427 551.30603
31.650314 88.445053 548.72888
33.112869 88.44606 549.06433
34.794281 88.501907 548.42151
36.470009 88.557709 547.77344
37.71183 88.503784 549.07043
38.958359 88.449829 550.3645
40.627594 88.505569 549.7027
42.084816 88.506432 550.01263
43.541626 88.507271 550.31842
44.796822 88.453239 551.59808
46.255402 88.454041 551.89618
47.909615 88.509659 551.21118
48.977898 88.400719 553.45978
50.628761 88.456299 552.76605
52.274094 88.511864 552.06726
53.913872 88.567398 551.36353
55.365036 88.568069 551.63623
56.996391 88.623566 550.92291
58.266319 88.569359 552.16968
59.716446 88.569977 552.43042
61.16626 88.570572 552.68719
62.445541 88.516319 553.92377
64.064949 88.571716 553.18872
65.678902 88.627098 552.44879
66.962425 88.572792 553.67444
68.570641 88.628136 552.92578
70.01609 88.628632 553.15839
71.61602 88.683945 552.40063
73.058342 88.684402 552.62506
74.50042 88.684853 552.84552
76.089272 88.740112 552.07452
77.528267 88.74054 552.28687
78.967018 88.740936 552.49536
80.544861 88.796158 551.71124
81.980598 88.796539 551.91156
83.281937 88.742073 553.0976
84.719795 88.742424 553.29071
86.286461 88.797592 552.48987
87.594894 88.743088 553.66541
89.156021 88.798225 552.85626
90.711807 88.853355 552.04266
92.024803 88.79882 553.2074
93.342758 88.744278 554.36902
94.892868 88.799377 553.5434
96.326637 88.799637 553.70569
97.760239 88.799881 553.86426
99.19368 88.800117 554.01904
100.62698 88.800354 554.16998
101.75786 88.636116 557.29742
102.90399 88.471863 560.42267
104.0654 88.30761 563.54565
105.24207 88.143349 566.66626
106.43401 87.979088 569.78448
107.81706 87.924454 570.91101
109.29046 87.924622 571.03937
110.68095 87.869965 572.15894
112.55775 88.144218 567.30341
114.33113 88.363632 563.4375
116.08386 88.583038 559.56622
117.961 88.912071 553.698
119.7373 89.186279 548.81982
121.28569 89.296028 546.9248
122.88856 89.460579 544.02911
124.47594 89.62513 541.12878
125.98817 89.734863 539.22052
127.54719 89.899391 536.31134
129.03619 90.009109 534.39459
130.61885 90.228455 530.47943
132.03264 90.283333 529.55157
133.3475 90.228584 530.61475
134.84465 90.393097 527.68451
136.28461 90.502777 525.7478
137.63593 90.502838 525.80255
139.0238 90.557693 524.85608
140.44055 90.667358 522.90802
141.75256 90.612587 523.95013
143.1275 90.667435 522.99274
144.47093 90.667465 523.02997
145.81432 90.667488 523.06372
147.15768 90.667511 523.09399
148.48238 90.612717 524.11914
149.82826 90.612724 524.14258
151.17413 90.612732 524.1626
152.51999 90.61274 524.17902
153.86583 90.61274 524.19208
155.21751 90.667542 523.20331
156.5575 90.612724 524.20789
157.90405 90.667526 523.2121
159.24916 90.612701 524.20978
160.5994 90.557861 525.2041
161.94781 90.557846 525.19635
163.31529 90.448189 527.18213
164.68095 90.393341 528.16589
166.02243 90.44812 527.14935
167.4277 90.283638 530.12274
168.76923 90.338402 529.09924
170.12799 90.338356 529.07056
171.51172 90.283485 530.03656
172.90059 90.228615 530.9989
174.23454 90.283371 529.96155
175.72646 90.064041 533.91071
177.09824 90.063972 533.86407
178.43231 90.118713 532.81616
179.92252 89.954185 535.75568
181.42816 89.789658 538.69098
182.81296 89.789558 538.6297
184.43781 89.515381 543.55157
185.98723 89.35083 546.47412
187.55212 89.186279 549.39227
188.96539 89.186165 549.31512
190.437 89.131226 550.23114
192.03546 88.966644 553.13647
193.586 88.856873 555.04077
195.14691 88.747101 556.94067
196.85519 88.527687 560.82837
198.58409 88.308258 564.711
200.03905 88.308098 564.60529
201.5703 88.253113 565.49133
202.79169 88.417389 562.39172
203.99777 88.581665 559.28949
205.1886 88.745926 556.18481
206.36414 88.910187 553.0777
207.70248 88.964813 551.95715
209.21907 88.909775 552.82202
210.74092 88.854736 553.68262
212.26804 88.799683 554.539
213.70113 88.799446 554.39758
215.13437 88.799194 554.25244
216.67221 88.744118 555.09656
218.10832 88.743851 554.9436
219.54459 88.743576 554.7868
221.0932 88.688461 555.61847
222.53239 88.688164 555.45386
223.85446 88.742676 554.29388
225.41132 88.687531 555.11328
226.97351 88.632378 555.92822
228.54105 88.577209 556.73871
229.98633 88.576851 556.55438
231.43179 88.576485 556.36615
233.01025 88.521271 557.16382
234.45874 88.520882 556.96759
235.76956 88.575302 555.77856
237.21594 88.57489 555.57489
238.66257 88.574448 555.36755
239.96381 88.628838 554.16827
241.40836 88.628372 553.95349
242.85312 88.627899 553.73474
244.45149 88.572571 554.49866
246.0553 88.517227 555.25793
247.34756 88.571541 554.04083
248.79597 88.571014 553.80591
250.40837 88.51561 554.55225
251.69376 88.569878 553.32452
253.31189 88.51445 554.06195
255.10687 88.40416 555.77826
256.56458 88.403534 555.52228
258.37567 88.293198 557.22784
259.83917 88.292534 556.96289
261.30307 88.291847 556.69397
262.76727 88.291145 556.42096
264.23187 88.290421 556.14392
265.50735 88.344528 554.88239
267.16214 88.28891 555.57751
268.43323 88.342979 554.3089
269.89673 88.342178 554.01599
271.56046 88.286491 554.69733
272.82498 88.340508 553.41791
274.49469 88.284775 554.0899
276.16998 88.229019 554.75665
277.85092 88.173241 555.41815
279.53748 88.117439 556.07428
280.79901 88.171341 554.77515
282.05582 88.22522 553.4729
283.74896 88.169334 554.11536
285.22464 88.168297 553.77911
286.4751 88.222107 552.46588
288.40579 88.111275 554.0658
289.88559 88.110161 553.71613
291.59937 88.054146 554.33295
293.31891 87.9981 554.94415
295.04419 87.942017 555.5498
296.53394 87.940796 555.18091
298.2681 87.884659 555.77582
299.26862 87.993164 553.46222
300.50836 88.046761 552.11383
301.74353 88.100334 550.76233
303.22833 88.098984 550.37335
304.71381 88.09761 549.97998
306.97839 87.931503 552.47455
308.47293 87.930069 552.07007
310.23282 87.873703 552.62384
311.73123 87.872208 552.20953
313.50027 87.815781 552.75195
315.00262 87.81424 552.32776
317.05603 87.702827 553.81866
318.565 87.701233 553.38367
320.63553 87.589752 554.86072
322.15118 87.588081 554.41492
323.95319 87.531464 554.92114
325.18463 87.584679 553.50909
326.99335 87.528008 554.00421
328.80804 87.471306 554.49292
330.62875 87.414574 554.97522
332.45544 87.357811 555.45099
334.89099 87.191132 557.8241
336.73505 87.134293 558.28522
337.97186 87.187347 556.83905
339.51355 87.185425 556.33917
340.74408 87.238449 554.88568
341.97015 87.291458 553.42896
343.82614 87.234528 553.86249
345.04858 87.287506 552.39746
346.91147 87.23053 552.81909
348.78046 87.173546 553.23383
350.00006 87.226501 551.75525
351.87598 87.169479 552.15796
353.42502 87.167427 551.6123
354.63919 87.220367 550.12109
356.18719 87.218307 549.56598
358.41794 87.106262 550.88257
359.97284 87.104195 550.31506
362.22107 86.992126 551.61523
364.13181 86.935059 551.9707
366.04868 86.877991 552.31891
368.32581 86.765915 553.5932
369.54376 86.818893 552.06049
371.4762 86.761856 552.38733
373.41467 86.704834 552.70673
375.35919 86.647827 553.01862
376.94226 86.645874 552.39447
379.26633 86.533897 553.61945
380.48322 86.587051 552.05585
381.69547 86.640259 550.48889
382.90295 86.693527 548.91846
384.10565 86.746857 547.34467
386.07056 86.69014 547.61139
388.81357 86.523392 549.71179
390.79541 86.466812 549.96063
393.95746 86.245132 552.95715
395.56451 86.243759 552.26929
396.77512 86.297546 550.65961
398.3801 86.296379 549.96161
399.98523 86.295319 549.258
401.59045 86.294388 548.54865
404.0108 86.183441 549.65686
404.80103 86.292915 547.11328
407.23184 86.182251 548.20544
408.42657 86.236969 546.56342
410.03381 86.236786 545.82495
-89.060684 87.861313 546.83594
-86.229935 88.018982 544.82544
-83.82132 88.124321 543.71448
-83.441055 87.967499 547.16046
-80.639603 88.125549 545.12006
-78.252548 88.231247 543.98297
-77.062988 88.179672 545.58655
-75.08255 88.233109 545.35052
-72.71759 88.339081 544.18744
-71.913788 88.235336 546.69574
-69.560287 88.341454 545.51703
-68.364487 88.290298 547.09607
-66.784317 88.291656 547.74805
-64.450943 88.397957 546.54492
-62.503067 88.451851 546.25793
-61.304138 88.400925 547.81702
-59.731659 88.402481 548.44482
-57.79361 88.456497 548.13806
-55.861542 88.510544 547.82373
-54.657349 88.459763 549.3642
-52.373779 88.566284 548.1048
-50.101547 88.672806 546.83594
-48.546616 88.674507 547.42609
-46.992416 88.676224 548.01086
-44.743729 88.782776 546.71802
-43.196381 88.784508 547.29016
-41.992188 88.733841 548.79529
-39.764389 88.840393 547.4798
-37.885056 88.894531 547.09534
-37.015015 88.791473 549.52667
-34.808167 88.898003 548.18903
-33.600052 88.847343 549.67096
-32.060974 88.849068 550.20587
-30.522736 88.850784 550.73578
-28.664093 88.904877 550.31494
-26.492966 89.011322 548.94092
-24.333145 89.117752 547.55823
-23.437912 89.014664 549.95996
-20.979568 89.173416 547.61481
-19.461914 89.175041 548.10938
-18.250473 89.124283 549.5498
-16.428955 89.178238 549.08374
-14.613495 89.232162 548.61133
-13.101563 89.233711 549.08557
-11.295486 89.287598 548.60095
-9.2030792 89.393799 547.15503
-7.7012787 89.395279 547.61261
-5.913147 89.449081 547.10895
-4.41539 89.450516 547.55627
-3.2001343 89.39959 548.95691
-1.7012177 89.400986 549.39575
-0.47953796 89.350021 550.78943
1.0206451 89.351364 551.21973
2.5201569 89.352692 551.64539
4.556488 89.458649 550.14288
6.0494232 89.459915 550.55798
7.8052826 89.513489 550.00525
9.2943268 89.514709 550.41052
11.299393 89.620544 548.88208
12.781998 89.621719 549.27698
14.517105 89.675186 548.70142
16.246399 89.728622 548.12012
17.969925 89.782028 547.53308
19.197052 89.730789 548.87634
20.914246 89.784149 548.27917
22.145462 89.732864 549.61511
23.381317 89.681564 550.94806
25.091644 89.734848 550.33667
26.33165 89.68351 551.66217
27.806046 89.684448 552.01276
29.507034 89.737656 551.38666
31.426857 89.84314 549.78198
32.891968 89.844002 550.11804
34.79525 89.949432 548.5014
36.254234 89.950249 548.82788
37.712769 89.95105 549.15015
38.95929 89.899544 550.44421
40.41951 89.900299 550.75879
41.879303 89.901039 551.06921
43.338676 89.901756 551.37549
44.59642 89.850174 552.65582
46.057556 89.850853 552.95441
47.322258 89.79924 554.22809
48.785202 89.799881 554.51898
50.438629 89.852791 553.82556
52.08651 89.90567 553.12714
53.914574 90.010811 551.44238
55.548828 90.063652 550.7334
56.816483 90.011925 551.98383
58.266937 90.012466 552.24847
59.717056 90.012985 552.50916
60.994049 89.961212 553.74939
62.616333 90.013969 553.01855
64.065506 90.014442 553.26727
65.514351 90.014893 553.51215
67.125427 90.067604 552.76764
68.571129 90.068024 553.00415
70.173897 90.120705 552.25049
71.77124 90.17337 551.49219
73.210976 90.173752 551.71613
74.650459 90.174118 551.93616
76.23671 90.226738 551.16461
77.528671 90.17482 552.36469
79.109306 90.227417 551.58453
80.545235 90.227737 551.78876
81.844215 90.175774 552.97839
83.148109 90.12381 554.16486
84.720131 90.176361 553.36829
86.157761 90.176628 553.55756
87.5952 90.176895 553.74298
89.156319 90.229408 552.93359
90.59079 90.229652 553.11102
92.143814 90.282135 552.29315
93.343025 90.177849 554.44641
94.893112 90.230316 553.62067
96.326874 90.230522 553.78296
97.760475 90.230721 553.94141
99.193909 90.230911 554.09619
100.52386 90.178833 555.24042
101.6573 90.022232 558.36853
102.806 89.865631 561.49438
103.96997 89.70903 564.61798
104.9631 89.447906 569.72784
106.3437 89.395798 570.85809
107.90514 89.448189 569.99554
109.632 89.605087 567.13861
111.42613 89.814224 563.28143
113.27982 90.075607 558.4234
115.03009 90.284737 554.55505
116.75972 90.493851 550.68146
118.46872 90.702965 546.80267
120.1571 90.912071 542.91864
121.75749 91.068909 540.02594
123.27757 91.1735 538.12512
124.84956 91.33033 535.22339
126.40608 91.48716 532.31708
127.77576 91.487221 532.39734
129.30905 91.644043 529.4826
130.87889 91.853104 525.56628
132.23041 91.853149 525.63501
133.58188 91.853195 525.70026
135.0219 91.957748 523.76666
136.4516 92.062286 521.82922
137.75348 92.010071 522.88147
139.13367 92.062363 521.93451
140.50868 92.114639 520.98389
141.84705 92.114662 521.02783
143.15645 92.062439 522.06653
144.52365 92.1147 521.10541
145.88571 92.166969 520.14063
147.20016 92.114731 521.16919
148.51971 92.062485 522.19434
149.87656 92.114746 521.21918
151.18767 92.010246 523.23608
152.54193 92.0625 522.25403
153.88264 92.062492 522.26703
155.2175 92.010239 523.27521
156.56406 92.062477 522.28278
157.90404 92.010216 523.28406
159.24915 91.957947 524.28192
160.59056 92.010178 523.27911
161.94081 91.957909 524.27002
163.30574 91.853378 526.2561
164.64462 91.905609 525.24286
166.00774 91.853325 526.22333
167.39322 91.748787 528.19879
168.74939 91.748756 528.17358
170.12794 91.696465 529.14331
171.48674 91.696419 529.11121
172.84558 91.696381 529.0755
174.23448 91.644073 530.03455
175.66118 91.53952 531.98804
176.99265 91.591721 530.94354
178.3945 91.539398 531.89166
179.84184 91.43483 533.83392
181.29948 91.330261 535.77209
182.67657 91.330193 535.71112
184.24573 91.121101 539.6366
185.7849 90.964264 542.56012
187.33951 90.807419 545.47925
188.63115 90.911835 543.40851
190.26212 90.702728 547.31635
191.73123 90.650375 548.22906
193.20557 90.598022 549.1377
194.75107 90.493401 551.03888
196.51245 90.232018 555.9245
198.29962 89.970619 560.80475
199.96524 89.813728 563.6875
201.57014 89.709091 565.56958
203.02786 89.708946 565.45618
204.323 89.813309 563.34827
205.44016 90.022186 559.24719
206.62338 90.178795 556.13904
207.96944 90.230888 555.01776
209.21887 90.335228 552.8988
210.83488 90.230545 554.75372
212.26782 90.230354 554.61615
213.70091 90.230164 554.47479
215.23601 90.177711 555.323
216.67197 90.177505 555.17383
218.10806 90.177284 555.02094
219.54433 90.177063 554.8642
220.98077 90.176834 554.70374
222.41739 90.17659 554.53943
223.97147 90.124084 555.36304
225.41101 90.123825 555.19086
227.09564 90.019028 556.99707
228.66571 89.966484 557.80737
229.98596 90.018456 556.63232
231.43146 90.01815 556.44421
233.00987 89.965576 557.242
234.32304 90.017517 556.0564
235.90706 89.96492 556.84576
237.35599 89.964569 556.64178
238.80518 89.964203 556.43408
240.10898 90.016106 555.23438
241.40787 90.067993 554.03156
242.70189 90.119865 552.82562
244.451 90.014915 554.57703
245.74297 90.066757 553.36371
247.18854 90.066322 553.13324
248.95651 89.961334 554.87
250.40781 89.960861 554.63086
251.85941 89.960381 554.38782
253.48009 89.907608 555.125
255.10625 89.854828 555.8573
256.56393 89.854294 555.60144
258.375 89.749191 557.30731
259.65942 89.800911 556.06
261.30237 89.748055 556.7735
262.76657 89.747452 556.50055
264.23111 89.746841 556.22351
265.8855 89.693924 556.92297
267.35339 89.693268 556.63733
268.62704 89.744881 555.36804
270.29031 89.69191 556.05365
271.5596 89.743484 554.77728
272.8241 89.795044 553.4978
274.49377 89.742004 554.16998
275.96152 89.741241 553.86011
277.84998 89.635864 555.4986
279.32376 89.635056 555.17932
280.798 89.634224 554.85577
282.27271 89.633369 554.52802
283.74789 89.632492 554.19611
285.00046 89.683899 552.88647
286.69971 89.630676 553.51941
288.40466 89.577431 554.14691
289.8844 89.576469 553.79724
291.59821 89.523178 554.41431
293.31769 89.469856 555.02576
294.80426 89.468811 554.66193
296.53262 89.415443 555.26276
297.77902 89.466667 553.92114
299.02075 89.517876 552.57642
300.50699 89.516747 552.19562
301.74213 89.567909 550.84412
303.4812 89.514412 551.4209
305.22614 89.460884 551.99194
306.97693 89.407333 552.55707
308.99561 89.301422 554.07983
310.23126 89.352463 552.7066
311.99698 89.298828 553.25458
313.76859 89.245163 553.79651
315.27353 89.243805 553.37164
317.05435 89.190086 553.90222
318.84109 89.136337 554.42664
320.63376 89.082558 554.94476
322.14935 89.0811 554.49902
324.23697 88.974915 555.9624
325.47101 89.025757 554.54956
327.57318 88.919518 555.99945
329.09961 88.917961 555.53229
330.92291 88.864029 556.01398
332.75223 88.810059 556.48926
334.58759 88.756073 556.95801
335.82098 88.806793 555.5177
337.66318 88.752762 555.97485
338.58362 88.85582 553.57684
340.43005 88.80175 554.02325
341.96802 88.800041 553.51508
343.50677 88.798309 553.00195
344.72656 88.848953 551.53778
347.23166 88.690041 553.85083
348.12802 88.79306 551.43225
349.6701 88.791283 550.89886
351.54333 88.737106 551.30273
353.4227 88.682907 551.69958
354.9725 88.681114 551.1488
356.86145 88.626907 551.53241
358.41553 88.625107 550.97028
360.65765 88.518478 552.2782
362.21869 88.516678 551.70361
363.78055 88.514885 551.12366
366.39783 88.355835 553.34247
368.32339 88.301628 553.6825
369.18451 88.404724 551.21704
371.83331 88.245682 553.40857
373.41229 88.243958 552.79657
374.992 88.242264 552.17908
376.93991 88.188148 552.48468
378.52368 88.186516 551.8551
379.73526 88.237366 550.29358
381.31769 88.235817 549.65405
382.14441 88.339218 547.16046
384.48425 88.232872 548.35828
386.45184 88.179031 548.62415
388.42529 88.125244 548.8822
391.18216 87.966614 550.97205
393.56396 87.860512 552.1308
395.16843 87.859413 551.44415
397.17007 87.805946 551.66833
398.77783 87.805038 550.96936
400.38574 87.804245 550.26465
402.39859 87.751091 550.46716
403.19431 87.855484 547.92657
404.79968 87.855057 547.20618
407.23065 87.749847 548.29877
408.42548 87.8022 546.65656
409.61469 87.854713 545.01135
-88.648163 89.473114 546.01416
-85.819946 89.622742 544.00189
-83.820114 89.672775 543.80182
-82.63269 89.623215 545.42096
-79.836517 89.773209 543.37775
-78.251083 89.773735 544.06976
-76.665863 89.774353 544.75623
-74.688065 89.824928 544.51886
-73.106094 89.825729 545.19299
-71.912048 89.776764 546.7821
-69.558472 89.877426 545.60297
-67.980438 89.878441 546.25934
-66.023376 89.929375 545.98633
-63.695313 90.030212 544.78064
-61.378479 90.131088 543.56512
-60.187531 90.082466 545.12109
-58.991882 90.033905 546.67371
-57.425385 90.03521 547.29382
-55.132385 90.13623 546.04791
-54.294403 90.037933 548.51764
-52.013474 90.138992 547.25684
-49.743912 90.240067 545.98657
-48.544556 90.191681 547.50989
-46.990356 90.19313 548.09454
-45.089294 90.244415 547.73755
-43.884354 90.19606 549.24799
-41.990143 90.247368 548.87848
-40.102081 90.298668 548.50183
-38.220093 90.349968 548.11804
-36.678619 90.351448 548.66833
-34.806183 90.40274 548.27136
-33.268951 90.404221 548.81036
-31.406067 90.455505 548.40039
-30.19696 90.407166 549.87311
-28.019775 90.508224 548.50549
-26.172501 90.559471 548.07581
-24.331284 90.610695 547.63934
-23.122757 90.562332 549.0929
-21.288422 90.613533 548.64478
-20.076202 90.56514 550.09015
-18.248688 90.61631 549.63049
-16.730011 90.617676 550.11603
-14.911957 90.668808 549.64417
-13.099869 90.719917 549.16571
-11.293823 90.771004 548.68085
-9.4937439 90.822067 548.18958
-7.6996765 90.873108 547.69202
-5.9115601 90.924126 547.18811
-4.6982574 90.875595 548.59271
-3.1986389 90.876808 549.03607
-2.2581177 90.778481 551.3927
-0.75463867 90.779663 551.82825
1.0220642 90.830574 551.29877
2.2502136 90.78196 552.68549
4.5578613 90.932327 550.22144
6.316925 90.98317 549.67377
7.8065796 90.98423 550.08356
9.5565338 91.035019 549.52466
11.55896 91.135529 547.99512
12.527542 91.037048 550.32019
14.518326 91.137505 548.77893
16.247604 91.188202 548.19739
17.72316 91.189133 548.5777
18.952866 91.140305 549.92175
20.915314 91.240669 548.3562
22.1465 91.191803 549.69226
23.619843 91.192657 550.05505
24.857758 91.143761 551.38428
26.332642 91.144569 551.73914
28.036713 91.195084 551.11768
29.280853 91.146133 552.43597
31.203239 91.24633 550.8316
32.892838 91.296783 550.1944
34.576782 91.347214 549.55176
36.03833 91.3479 549.87872
37.713577 91.398285 549.22601
38.96006 91.34922 550.5202
40.629257 91.399574 549.85797
42.086433 91.400185 550.16779
43.543182 91.40078 550.47351
44.79834 91.351654 551.7533
46.058243 91.302498 553.03015
47.518982 91.303047 553.32452
48.979301 91.303574 553.61493
50.43924 91.304085 553.90125
52.275391 91.404007 552.22174
53.915154 91.454193 551.51752
55.366264 91.454659 551.79016
56.997574 91.504814 551.07648
58.267471 91.455544 552.32336
59.542198 91.406265 553.56726
61.167343 91.456375 552.8407
62.446579 91.407059 554.07758
63.730675 91.357735 555.31128
65.349747 91.407806 554.5719
66.80088 91.408157 554.81311
68.411644 91.458199 554.06451
70.016975 91.508232 553.3111
71.616867 91.558243 552.55304
73.059166 91.558548 552.77734
74.650818 91.608536 552.01025
76.090027 91.60881 552.22644
77.528992 91.609077 552.43872
79.109612 91.659035 551.65845
80.406227 91.609589 552.85162
81.844498 91.609825 553.05237
83.282547 91.610046 553.24921
84.588806 91.560577 554.43219
86.287041 91.660172 552.64099
87.721893 91.66037 552.82605
89.156548 91.660568 553.00726
90.712318 91.710442 552.1933
92.025284 91.660919 553.35834
93.343216 91.611389 554.52014
94.893311 91.661247 553.69421
96.216034 91.61171 554.849
97.652191 91.611847 555.00781
99.088181 91.611984 555.16278
100.31738 91.512733 557.30078
101.45595 91.363785 560.42981
102.60978 91.214821 563.55658
103.68327 91.016174 567.67517
105.05629 90.966591 568.80872
106.70576 91.066071 566.9549
108.43274 91.21524 564.10144
110.22955 91.414093 560.24774
112.17126 91.712326 554.39783
113.92163 91.911171 550.53265
115.65136 92.110001 546.66229
117.28538 92.25914 543.78247
118.97642 92.457962 539.90173
120.64684 92.656784 536.01593
122.09448 92.706528 535.11462
123.60173 92.805954 533.21265
125.16089 92.95507 530.30969
126.58521 93.004807 529.39612
128.00432 93.054535 528.47882
129.52734 93.203644 525.56305
130.98291 93.303055 523.6405
132.37874 93.352768 522.71143
133.76938 93.402489 521.77856
135.15485 93.452209 520.84204
136.53511 93.501915 519.90192
137.83186 93.45224 520.95404
139.1703 93.452263 521.00482
140.54274 93.501968 520.05402
141.84706 93.452286 521.09613
143.15646 93.402603 522.13501
144.55002 93.501991 520.17529
145.86192 93.452309 521.20734
147.20016 93.452316 521.23743
148.53838 93.452316 521.26416
149.86047 93.402626 522.28607
151.18767 93.352936 523.30469
152.54193 93.402618 522.32245
153.87424 93.352921 523.33417
155.22334 93.402603 522.34497
156.56732 93.452286 521.35236
157.90474 93.40258 522.35382
159.24728 93.352875 523.35181
160.59055 93.352859 523.3476
161.94777 93.253464 525.33746
163.30571 93.203758 526.32501
164.65671 93.203735 526.31042
166.00771 93.203712 526.2923
167.37596 93.153999 527.26929
168.72957 93.153969 527.24426
170.08321 93.153938 527.21564
171.46179 93.104218 528.18207
172.81805 93.104187 528.14648
174.20439 93.054459 529.10565
175.62851 92.95504 531.05951
176.99258 92.955002 531.01318
178.3567 92.954956 530.96332
179.80148 92.85553 532.90594
181.21368 92.805794 533.84674
182.58566 92.80574 533.78601
184.05368 92.706306 535.71698
185.53201 92.606873 537.64392
187.02069 92.507431 539.56677
188.35262 92.557053 538.49384
189.85425 92.457603 540.40887
191.42703 92.308464 543.31653
192.95192 92.209007 545.22296
194.4212 92.159241 546.12848
196.10126 91.960388 550.01923
198.01518 91.612457 556.89368
199.67053 91.463295 559.77759
201.4176 91.264427 563.65253
203.10651 91.115257 566.52631
204.56691 91.115143 566.40894
205.85959 91.214417 564.29718
207.05565 91.36338 561.1875
208.23643 91.512337 558.07544
209.49355 91.611595 555.95551
210.83472 91.661148 554.82715
212.1709 91.710709 553.69543
213.70071 91.660873 554.54816
215.13394 91.660721 554.40308
216.67175 91.61087 555.24744
218.10786 91.610703 555.0946
219.54411 91.610542 554.93781
220.98055 91.610359 554.7774
222.53189 91.560478 555.60529
223.85393 91.609985 554.44507
225.41077 91.560089 555.26477
226.97293 91.510178 556.08002
228.54044 91.460266 556.89081
229.98569 91.460037 556.7066
231.56131 91.410103 557.50873
232.87683 91.459557 556.32654
234.32272 91.459305 556.13074
235.76886 91.459038 555.93109
237.07474 91.508469 554.73865
238.66177 91.458481 555.52014
240.10861 91.458183 555.30884
241.4075 91.507584 554.10596
242.85226 91.507263 553.88727
244.45059 91.45723 554.65161
245.89847 91.456894 554.42474
247.34659 91.456543 554.19385
248.95605 91.406471 554.94482
250.40735 91.40609 554.70575
251.85892 91.405701 554.46271
253.31079 91.405296 554.21564
255.10571 91.305466 555.93256
256.56342 91.305031 555.67676
258.02139 91.304581 555.41687
259.83795 91.204704 557.1181
261.48346 91.15451 557.83136
262.76596 91.203735 556.57635
264.41736 91.153511 557.28052
266.07431 91.103271 557.97968
267.35272 91.152451 556.71338
268.82095 91.151886 556.42365
270.28961 91.151314 556.12988
271.55887 91.200439 554.85339
273.22812 91.150116 555.52991
274.90292 91.09977 556.20111
276.37582 91.099121 555.89026
278.0593 91.048737 556.55164
279.53564 91.04805 556.23181
281.01245 91.047348 555.90778
282.27182 91.096359 554.6048
283.74698 91.095619 554.27295
285.22263 91.094856 553.93683
286.69873 91.094086 553.59637
288.40366 91.043556 554.22406
290.11429 90.993011 554.84619
291.36365 91.041901 553.52069
292.84445 91.041046 553.16248
294.80313 90.940689 554.73962
296.04895 90.989525 553.40234
297.534 90.988602 553.03046
299.01959 90.987656 552.65417
300.5058 90.986694 552.27356
301.74091 91.035446 550.92194
303.73425 90.934952 552.46478
305.48175 90.884171 553.03534
307.49457 90.783615 554.56439
308.99426 90.782539 554.15863
310.22986 90.831192 552.78534
311.99554 90.780312 553.33356
313.76712 90.729416 553.87567
314.99951 90.778008 552.49011
317.05286 90.677292 553.98175
318.56177 90.676086 553.547
320.07141 90.67485 553.1076
322.14777 90.574066 554.5791
323.66406 90.572784 554.12878
325.18109 90.571495 553.67365
327.28064 90.470627 555.12476
328.51086 90.519066 553.7038
330.32892 90.467926 554.18744
332.15295 90.416771 554.66455
333.98303 90.365593 555.13513
335.81915 90.314392 555.59918
337.66132 90.263168 556.05664
338.58173 90.361305 553.65833
340.74005 90.260254 555.05389
341.96606 90.308578 553.59705
343.18768 90.356888 552.13696
345.04443 90.305588 552.56598
346.90726 90.254272 552.98816
347.80093 90.352371 550.57025
350.32352 90.201424 552.86829
352.20203 90.150078 553.27051
354.08664 90.098724 553.66577
355.97739 90.047356 554.05396
357.53595 90.045807 553.4953
359.09534 90.044266 552.93127
360.31198 90.092545 551.42432
361.52411 90.140839 549.91394
363.42953 90.089493 550.27191
365.69257 89.988312 551.55737
367.61285 89.936981 551.89966
369.89606 89.835808 553.16742
371.83118 89.7845 553.49384
373.41016 89.783051 552.88196
375.35474 89.731781 553.19434
376.93781 89.730385 552.57043
378.52161 89.729027 551.94098
379.73328 89.777557 550.37952
381.69116 89.726433 550.66553
382.89874 89.77507 549.09503
384.86316 89.724037 549.3678
386.0665 89.772781 547.78839
389.19574 89.572289 550.81104
390.79153 89.571304 550.13928
392.77924 89.520538 550.38074
395.16678 89.419983 551.53192
397.16846 89.369385 551.75629
398.77631 89.368736 551.05743
401.18866 89.268463 552.18121
402.80209 89.268051 551.46857
404.00812 89.317619 549.83844
405.20877 89.367325 548.20508
407.22968 89.317429 548.38739
408.00916 89.41729 545.83698
410.03223 89.367699 546.00684
-87.412811 91.17424 543.36719
-85.410278 91.221291 543.17365
-83.412964 91.268478 542.97205
-82.228119 91.22126 544.59009
-80.637146 91.22142 545.28998
-78.249908 91.316208 544.1521
-76.664597 91.316559 544.83844
-75.07959 91.317017 545.51923
-72.714478 91.412071 544.35535
-71.523056 91.365417 545.94342
-69.556961 91.413361 545.68451
-67.59668 91.461365 545.41791
-65.262726 91.556686 544.2196
-63.316818 91.604805 543.9364
-61.376816 91.652969 543.64557
-60.185837 91.606674 545.2016
-58.990189 91.560417 546.75427
-57.057404 91.608704 546.44489
-55.494217 91.609772 547.05841
-53.931686 91.610878 547.66638
-51.653442 91.706482 546.40424
-49.742126 91.754875 546.06598
-48.542755 91.708809 547.58929
-46.988586 91.709984 548.17395
-45.43515 91.711189 548.75311
-43.882538 91.712402 549.32709
-41.988373 91.760849 548.9574
-40.439987 91.762077 549.51984
-38.218323 91.857765 548.19647
-36.676865 91.858994 548.74664
-34.472672 91.954666 547.40723
-32.938126 91.955894 547.94525
-31.077881 92.004341 547.53412
-29.871445 91.958344 549.00598
-27.696884 92.053986 547.63702
-26.489426 92.00798 549.09973
-24.645599 92.056396 548.66394
-23.434433 92.010384 550.11835
-21.908157 92.011566 550.62024
-19.766586 92.10714 549.21674
-17.941742 92.155495 548.75604
-16.728485 92.109444 550.1925
-14.610275 92.204964 548.76764
-13.098404 92.206078 549.24176
-11.58728 92.207184 549.711
-9.4923553 92.302643 548.26526
-7.9879456 92.303711 548.72333
-6.1972351 92.351944 548.21997
-4.4124908 92.400162 547.71039
-3.479126 92.306808 550.06952
-2.2568207 92.26062 551.46802
-0.75337219 92.261604 551.90344
0.47538757 92.215393 553.29492
1.980072 92.216339 553.72186
4.2902985 92.358795 551.25812
6.0519409 92.406876 550.71094
8.0712433 92.502106 549.19434
9.818573 92.55014 548.63452
11.301758 92.550995 549.03369
12.784286 92.551819 549.42853
14.519333 92.599792 548.8526
15.747589 92.553421 550.20477
17.476242 92.601349 549.61865
18.708542 92.554947 550.96344
20.673538 92.650002 549.39825
22.387497 92.697876 548.79578
23.620728 92.651413 550.12811
25.093506 92.652092 550.48657
26.798065 92.699905 549.86926
27.807831 92.606247 552.16266
29.281647 92.606873 552.50891
31.20401 92.70179 550.90417
32.671669 92.702377 551.24072
34.577507 92.797256 549.62396
36.255775 92.844955 548.97583
37.714264 92.845497 549.29797
39.383858 92.893173 548.63977
40.838852 92.893677 548.95313
42.087036 92.847015 550.23969
43.543785 92.847496 550.54529
44.798912 92.800812 551.8252
46.058807 92.75412 553.10211
47.715553 92.801689 552.41699
49.173271 92.802109 552.70685
50.821495 92.849655 552.01202
52.652473 92.944321 550.33118
54.101326 92.944695 550.60736
55.54985 92.945053 550.87946
56.81749 92.89827 552.12994
58.089935 92.851463 553.3775
59.717964 92.898926 552.65521
61.16774 92.899239 552.9118
62.44696 92.852394 554.14874
64.066322 92.899826 553.41309
65.680229 92.947235 552.67261
66.963707 92.90036 553.89856
68.571884 92.947754 553.14935
70.174614 92.995132 552.39545
71.617157 92.995361 552.62366
73.059448 92.995583 552.8479
74.501472 92.995796 553.0683
76.090294 93.043137 552.29675
77.529251 93.043327 552.50897
78.967964 93.04351 552.71735
80.406464 93.043686 552.92188
81.981453 93.090988 552.13306
83.282761 93.044014 553.3194
84.720596 93.044167 553.51233
86.287231 93.091446 552.711
87.722076 93.091583 552.896
89.156731 93.091713 553.07715
90.591171 93.091827 553.25464
91.906708 93.044823 554.41998
93.343376 93.04493 554.59009
94.779861 93.045036 554.75635
96.105148 92.998001 555.91162
97.543861 92.998093 556.07068
98.876526 92.95105 557.21918
100.00754 92.809753 560.3515
101.15381 92.668442 563.48163
102.5117 92.621391 564.6214
104.06583 92.668587 563.76923
105.52162 92.668648 563.90741
107.33921 92.857216 560.06256
109.22405 93.092911 555.21704
110.99775 93.281464 551.36078
112.75079 93.470016 547.49908
114.5634 93.705696 542.63635
116.11731 93.799988 540.75549
117.811 93.988525 536.87805
119.48408 94.177071 532.99548
120.99663 94.271347 531.10077
122.43144 94.318504 530.19836
123.92587 94.412781 528.29529
125.34769 94.45993 527.38501
126.76431 94.507072 526.47089
128.23283 94.601341 524.55573
129.63649 94.648483 523.63385
131.03494 94.695618 522.70819
132.47763 94.789886 520.78119
133.81627 94.789886 520.84583
135.19916 94.837021 519.90906
136.53513 94.837021 519.96667
137.87105 94.837036 520.02075
139.1703 94.789902 521.06976
140.5087 94.789902 521.11713
141.84706 94.789909 521.16095
143.15646 94.742775 522.19995
144.52367 94.789902 521.23853
145.83813 94.742767 522.27075
147.20016 94.789886 521.30231
148.51971 94.74276 522.3277
149.86046 94.742752 522.35101
151.18767 94.695618 523.36975
152.53094 94.695602 523.38623
153.87422 94.695595 523.39929
155.21748 94.695587 523.40881
156.56075 94.695572 523.41498
157.90401 94.695557 523.41766
159.24911 94.648422 524.41577
160.59494 94.648407 524.41156
161.94775 94.601265 525.40277
163.30569 94.554123 526.3905
164.65668 94.554108 526.37585
166.00768 94.554092 526.35773
167.37593 94.506943 527.3349
168.72954 94.506927 527.30981
170.08318 94.506905 527.28125
171.46176 94.459763 528.2478
172.81802 94.459732 528.21222
174.20436 94.412582 529.17157
175.62848 94.318314 531.12561
176.95738 94.36541 530.08105
178.31892 94.365387 530.03131
179.72083 94.31823 530.97614
181.08505 94.318192 530.91931
182.44933 94.318161 530.85895
183.90965 94.223877 532.79059
185.32973 94.176712 533.72052
186.86125 94.035294 536.6416
188.18549 94.082382 535.56903
189.62117 94.03521 536.48755
