ply
format ascii 1.0
comment PCL generated
element vertex 1537
property float x
property float y
property float z
element camera 0
property float view_px
property float view_py
property float view_pz
property float x_axisx
property float x_axisy
property float x_axisz
property float y_axisx
property float y_axisy
property float y_axisz
property float z_axisx
property float z_axisy
property float z_axisz
property float focal
property float scalex
property float scaley
property float centerx
property float centery
property int viewportx
property int viewporty
property float k1
property float k2
end_header
205.61368 -45.139435 553.10986
207.02341 -44.861115 552.02325
208.51506 -44.867111 551.8877
210.09641 -45.157486 552.70264
211.59103 -45.163849 552.55853
212.99121 -44.88623 551.4563
214.77536 -45.745636 554.16559
216.17596 -45.468369 553.05499
217.77643 -45.759781 553.84723
219.2773 -45.767136 553.68176
220.88597 -46.058945 554.46478
222.16959 -45.498093 552.38574
223.89407 -46.074615 554.11212
225.3985 -46.082764 553.9295
227.0211 -46.375397 554.69403
228.76965 -46.952637 556.40485
230.03647 -46.39267 554.30682
231.54456 -46.401596 554.10687
232.79645 -45.841949 552.00244
234.03825 -45.28244 549.8952
235.53687 -45.29187 549.68378
237.0358 -45.301514 549.46808
238.67365 -45.59584 550.19684
240.17578 -45.605881 549.97217
241.82205 -45.900665 550.69116
243.4738 -46.195648 551.40497
245.1311 -46.490875 552.11365
246.64233 -46.501755 551.87042
248.46225 -47.082016 553.51532
250.13614 -47.37796 554.20837
251.33755 -46.820313 552.06018
253.1767 -47.401291 553.68878
254.69754 -47.413254 553.42236
256.21878 -47.42543 553.15155
257.74042 -47.43779 552.87622
259.43472 -47.735046 553.53943
260.78482 -47.463104 552.31219
262.48517 -47.760834 552.96558
263.65076 -47.204437 550.78876
265.17181 -47.217773 550.49158
266.8786 -47.516113 551.13037
268.77899 -48.099564 552.70361
270.30911 -48.11351 552.39117
272.41907 -48.982376 554.89099
273.95792 -48.99678 554.56781
275.69556 -49.296356 555.17792
276.83603 -48.741226 552.97046
278.37366 -48.75618 552.63403
279.70557 -48.486313 551.35687
281.45029 -48.786636 551.9472
282.77792 -48.517044 550.66187
284.52881 -48.81778 551.2417
286.2854 -49.118729 551.81561
287.82843 -49.134705 551.45044
289.59381 -49.436066 552.01306
291.1405 -49.452438 551.63788
293.14172 -50.039413 553.1203
294.92426 -50.34137 553.66473
296.48022 -50.358231 553.27319
297.80182 -50.089905 551.94763
299.83118 -50.677719 553.40424
301.15115 -50.409637 552.0697
302.22363 -49.856186 549.8045
304.26755 -50.444473 551.24304
306.07446 -50.747498 551.74811
307.88712 -51.050705 552.24695
309.45227 -51.068512 551.81506
311.27374 -51.371933 552.30182
313.10089 -51.675491 552.7821
313.88947 -50.836716 549.56769
314.92642 -50.283417 547.27405
316.75235 -50.587036 547.74017
318.315 -50.605072 547.28009
319.87808 -50.623077 546.81494
322.26422 -51.498383 549.09955
324.38974 -52.088074 550.45697
325.96716 -52.106155 549.97284
328.10919 -52.695892 551.31531
329.97736 -52.999771 551.73431
331.85114 -53.30365 552.14673
333.44049 -53.321518 551.63898
334.73749 -53.053268 550.21368
336.91534 -53.642822 551.51978
338.21027 -53.374222 550.08514
339.19958 -52.819275 547.73718
341.08807 -53.122299 548.11469
343.5936 -53.99736 550.30151
344.88129 -53.727707 548.849
347.40811 -54.602371 551.01831
349.0097 -54.618317 550.461
350.61127 -54.633865 549.89856
352.53177 -54.935257 550.23444
354.13586 -54.949997 549.66083
355.41562 -54.677994 548.18054
357.99738 -55.55069 550.29968
359.93573 -55.850327 550.60858
361.21475 -55.576675 549.11304
363.15771 -55.875137 549.40991
364.09329 -55.313766 547.00958
366.37799 -55.897263 548.19116
367.64465 -55.620804 546.67963
369.25073 -55.629959 546.05896
371.89984 -56.49765 548.11145
373.86279 -56.791534 548.36951
375.47693 -56.798019 547.7301
377.80164 -57.376465 548.86505
379.41898 -57.380859 548.21405
380.67407 -57.09761 546.67084
382.6499 -57.386185 546.89789
384.62952 -57.673477 547.11823
386.24402 -57.672958 546.44769
388.59985 -58.24408 547.539
390.59021 -58.527191 547.73944
392.5838 -58.808716 547.93329
394.9599 -59.375137 549.00061
396.96228 -59.65332 549.18054
398.96747 -59.929688 549.35413
400.97534 -60.204193 549.52155
401.81668 -59.617462 547.05682
404.60611 -60.46077 548.96375
405.03903 -59.583603 545.62201
407.44031 -60.136108 546.64294
410.24841 -60.972473 548.52649
412.66583 -61.520004 549.53021
414.27951 -61.492447 548.78937
417.92731 -62.893158 552.38135
419.54556 -62.860123 551.62866
420.74677 -62.5383 550.00848
422.76865 -62.78569 550.11523
424.79077 -63.030029 550.21722
-101.35559 -59.473389 546.58783
-98.52652 -58.655212 544.73328
-96.927658 -58.684784 545.47449
-97.747803 -60.413483 551.43127
-95.724625 -60.154709 551.30243
-92.905533 -59.326141 549.42371
-90.494553 -58.778809 548.40778
-88.090698 -58.229202 547.38373
-84.912125 -57.109863 544.60022
-82.528168 -56.555923 543.55719
-80.151947 -56.000031 542.50586
-77.783524 -55.442215 541.44592
-76.565063 -55.734116 543.01782
-74.583176 -55.456726 542.82544
-73.355225 -55.745377 544.39111
-71.374573 -55.464874 544.18799
-69.767563 -55.466751 544.86279
-67.056107 -54.615677 542.87634
-65.81871 -54.898743 544.4256
-63.487595 -54.328995 543.3092
-61.52536 -54.041916 543.07263
-59.210114 -53.46994 541.93958
-57.967758 -53.748428 543.47034
-55.663528 -53.174438 542.32251
-53.71817 -52.883347 542.05878
-52.817123 -53.44278 544.47021
-51.904892 -54.001358 546.88098
-49.957336 -53.707748 546.60254
-48.014496 -53.413437 546.31726
-47.420883 -54.253403 549.61725
-45.477127 -53.957733 549.3219
-43.869141 -53.945206 549.91968
-42.26088 -53.932098 550.51239
-40.652328 -53.918442 551.09991
-38.074738 -53.053421 548.97363
-35.83316 -52.471664 547.74042
-32.966705 -51.322495 544.6889
-31.696487 -51.590836 546.15338
-29.483765 -51.008209 544.89465
-27.591415 -50.708847 544.53479
-26.318741 -50.976212 545.98505
-24.736404 -50.959793 546.52258
-22.852325 -50.659729 546.14484
-21.572235 -50.926254 547.58246
-20.287094 -51.192566 549.01678
-18.40892 -50.891922 548.62195
-16.536331 -50.591248 548.22046
-14.380554 -50.007217 546.89758
-12.807785 -49.98967 547.39703
-10.951904 -49.688797 546.97522
-9.3824921 -49.671143 547.46387
-8.0916443 -49.936569 548.86523
-6.52034 -49.918747 549.34448
-4.6765137 -49.617844 548.89941
-3.3789978 -49.883087 550.28815
-1.541214 -49.582214 549.83136
0.55592346 -48.998413 548.44641
2.3796844 -48.697739 547.97589
3.937912 -48.680099 548.42218
5.495636 -48.662552 548.86365
6.5437469 -49.2108 551.1496
8.3577881 -48.910446 550.6571
9.6673889 -49.175888 552.01068
11.475204 -48.875778 551.50702
13.521408 -48.29306 550.06946
15.315186 -47.993256 549.55243
17.103226 -47.693665 549.0293
18.885529 -47.394257 548.5
20.194839 -47.660309 549.82513
22.201981 -47.078583 548.35388
23.969757 -46.779694 547.80688
25.280228 -47.046143 549.11841
26.818588 -47.030167 549.49365
28.577072 -46.731812 548.93054
30.111908 -46.716125 549.29559
31.861588 -46.418198 548.72131
33.180099 -46.685318 550.01178
34.503326 -46.952576 551.29889
36.246384 -46.655182 550.70935
37.573898 -46.922745 551.98834
38.906174 -47.190414 553.26379
40.642632 -46.893616 552.65924
42.373436 -46.597031 552.04889
44.098587 -46.300674 551.43286
46.20192 -45.440063 548.93127
47.721245 -45.426453 549.24341
49.240166 -45.413025 549.55096
51.126884 -44.835419 547.97095
52.458221 -45.104599 549.21063
53.794365 -45.373901 550.44678
55.664253 -44.797012 548.85028
57.175896 -44.784592 549.13446
58.858269 -44.490295 548.47021
60.535065 -44.196243 547.8006
61.708488 -44.748489 549.96045
63.21859 -44.736877 550.22699
64.889061 -44.443436 549.54321
66.395836 -44.43219 549.80048
67.902252 -44.421173 550.05341
69.714233 -43.846497 548.40771
71.36515 -43.55397 547.70343
73.010544 -43.261673 546.99402
74.360031 -43.533386 548.17639
75.856972 -43.523407 548.40649
77.3536 -43.513611 548.63226
78.575073 -44.067642 550.75287
80.076271 -44.058182 550.97083
81.577141 -44.04895 551.18457
83.207397 -43.758118 550.4433
84.705124 -43.749268 550.64807
86.078072 -44.022354 551.80005
87.699715 -43.732162 551.04504
89.435242 -43.160446 549.33301
90.926704 -43.15239 549.52026
92.532066 -42.862839 548.75055
94.020447 -42.855179 548.92908
95.39959 -43.129395 550.05682
96.783676 -43.403748 551.18091
98.276505 -43.396637 551.34753
99.870346 -43.108078 550.55579
101.26151 -43.382965 551.66827
102.65762 -43.65802 552.7771
104.15218 -43.651627 552.92731
105.73743 -43.363846 552.11816
107.14069 -43.639404 553.21527
108.72038 -43.352051 552.39746
110.37793 -42.783295 550.61896
111.94438 -42.496323 549.79163
113.42751 -42.491074 549.91614
114.91047 -42.486008 550.03656
116.39327 -42.48111 550.15289
117.94618 -42.194901 549.30817
119.4261 -42.190399 549.4162
120.84078 -42.467545 550.47748
122.32301 -42.463364 550.57745
123.80511 -42.459366 550.67346
125.17233 -43.018509 552.68109
126.65934 -43.014847 552.76923
128.19846 -42.729904 551.89514
129.73233 -42.445145 551.01666
131.21387 -42.442032 551.09241
132.69531 -42.439087 551.164
134.21857 -42.154877 550.27295
135.69727 -42.152298 550.33643
137.13911 -42.431305 551.35468
138.65442 -42.147583 550.45105
140.13289 -42.145523 550.50244
141.58224 -42.425034 551.50891
143.06317 -42.423294 551.55225
144.56793 -42.14032 550.63232
146.04619 -42.138931 550.6676
147.5244 -42.13768 550.69873
149.01874 -41.85524 549.76654
150.48071 -42.135742 550.74915
151.94781 -42.416443 551.72784
153.41161 -42.978683 553.66211
154.8857 -43.541138 555.59247
156.37665 -43.540909 555.59961
157.86758 -43.540863 555.60272
159.35481 -42.97818 553.68256
160.84061 -42.9785 553.67767
162.32642 -42.978973 553.66864
163.80266 -42.698212 552.69604
165.27377 -42.417603 551.71948
166.76924 -42.699982 552.6579
168.25258 -42.701157 552.63281
169.69618 -42.139648 550.68488
171.19691 -42.422562 551.61115
172.67781 -42.424225 551.57404
174.15877 -42.426041 551.53284
175.70015 -42.990891 553.40582
177.18637 -42.993057 553.35632
178.67267 -42.995438 553.30292
180.15906 -42.997971 553.24542
181.64551 -43.000671 553.18384
183.08897 -42.722092 552.15961
184.57303 -42.725128 552.09003
186.10541 -43.009781 552.97467
187.64305 -43.294662 553.85516
189.13257 -43.298248 553.77313
190.56625 -43.020523 552.72906
192.11197 -43.305939 553.59686
193.60187 -43.310043 553.50256
195.0282 -43.032822 552.44672
196.58203 -43.318771 553.3017
198.00348 -43.041916 552.2381
199.56277 -43.328247 553.08453
201.05339 -43.333252 552.96979
202.46758 -43.0569 551.89447
204.03508 -43.343796 552.72797
205.52618 -43.349335 552.60083
206.84883 -42.791931 550.55798
208.42204 -43.079407 551.37872
209.91112 -43.08548 551.23944
211.30832 -42.81015 550.14099
212.88986 -43.098206 550.94861
214.57401 -43.668076 552.70612
215.96925 -43.39328 551.59546
217.56435 -43.681961 552.38928
219.16483 -43.97084 553.17834
220.66316 -43.978271 553.00922
222.16171 -43.98587 552.83582
223.77325 -44.275375 553.61108
225.27492 -44.283401 553.42908
227.0126 -44.855026 555.14716
228.51996 -44.863449 554.95599
229.78143 -44.308563 552.85742
231.15852 -44.035583 551.70721
232.5307 -43.762741 550.55341
233.89799 -43.490067 549.396
235.26042 -43.21759 548.23517
236.88997 -43.508911 548.97034
238.6636 -44.082321 550.6499
240.02435 -43.810364 549.47656
241.52402 -43.82048 549.24835
243.31676 -44.394592 550.91229
244.97122 -44.687057 551.6225
246.47968 -44.6978 551.38007
248.4509 -45.554626 553.97424
249.96783 -45.565842 553.72186
251.32581 -45.295258 552.51898
253.00281 -45.588867 553.20392
254.52084 -45.600662 552.93829
256.03928 -45.612656 552.66827
257.72778 -45.906937 553.33807
259.42194 -46.201492 554.00256
260.59692 -45.649887 551.8316
262.29443 -45.944809 552.48657
263.45728 -45.393494 550.30914
265.15823 -45.688828 550.95465
266.86481 -45.984406 551.5946
268.57703 -46.280243 552.22906
270.29486 -46.576309 552.85791
272.40457 -47.437149 555.36047
273.7475 -47.169144 554.09863
275.68066 -47.748245 555.64911
276.62006 -46.915878 552.5025
278.15488 -46.930649 552.16705
279.48404 -46.663208 550.89008
281.22592 -46.960754 551.48224
282.97351 -47.25853 552.0686
284.51285 -47.274063 551.71405
286.26923 -47.572281 552.28925
287.8121 -47.588135 551.92456
289.35553 -47.604187 551.55524
290.67499 -47.337799 550.24847
292.8978 -48.201981 552.66626
294.21826 -47.935913 551.35004
295.9985 -48.23526 551.89166
297.78448 -48.53479 552.42719
299.33868 -48.551773 552.02716
300.89337 -48.568909 551.62231
302.2059 -48.303375 550.28473
303.51367 -48.037888 548.9436
305.31262 -48.338165 549.45221
307.11725 -48.638565 549.95447
308.42126 -48.373291 548.6001
310.48792 -48.956863 550.01556
312.30713 -49.257675 550.49945
313.34891 -48.709579 548.20813
314.90799 -48.727478 547.75922
316.73389 -49.028503 548.22681
318.02756 -48.763397 546.84656
320.1311 -49.347595 548.22241
321.97144 -49.648804 548.67114
324.37106 -50.516373 550.94971
326.228 -50.817688 551.38354
327.80847 -50.835815 550.8941
329.67404 -51.1371 551.31531
331.83258 -51.721664 552.64478
333.13205 -51.456299 551.22345
335.01178 -51.757462 551.62524
336.89709 -52.058533 552.0202
337.89435 -51.509277 549.67365
339.18182 -51.243149 548.23615
340.76736 -51.260254 547.70514
342.9646 -51.844086 548.98676
344.86417 -52.144272 549.35175
346.7691 -52.444229 549.70978
348.36572 -52.460358 549.15472
350.27869 -52.759735 549.49976
351.55905 -52.491531 548.02917
353.47723 -52.790176 548.36212
355.40063 -53.08844 548.68811
357.32913 -53.386292 549.00714
359.2627 -53.683655 549.31909
360.53705 -53.413025 547.82501
362.14056 -53.425552 547.22638
364.08112 -53.721207 547.52026
365.6864 -53.732407 546.91058
366.94861 -53.459091 545.40045
369.24072 -54.036484 546.57092
371.54272 -54.613144 547.73254
373.15341 -54.621231 547.1001
375.46954 -55.196182 548.24573
377.79526 -55.770157 549.38232
379.41364 -55.775375 548.73126
381.03088 -55.77951 548.0755
383.01053 -56.066376 548.30219
384.99405 -56.352036 548.52209
386.98132 -56.636398 548.73523
388.60077 -56.635529 548.0578
390.96664 -57.201035 549.1416
392.58777 -57.197266 548.45313
394.58615 -57.475784 548.64099
396.96948 -58.03653 549.70184
398.97647 -58.311661 549.87573
399.43781 -57.449539 546.53424
401.82947 -58.004807 547.57623
403.83643 -58.274231 547.73486
405.05591 -57.974014 546.13983
408.25421 -59.090454 548.90674
411.06982 -59.920731 550.78943
413.09225 -60.181091 550.92102
414.71097 -60.155334 550.1778
416.73346 -60.41066 550.2995
418.34677 -60.379761 549.54901
419.95575 -60.346146 548.79565
421.56027 -60.309799 548.03973
423.16 -60.270523 547.28119
-100.97531 -57.577682 546.23175
-99.372925 -57.608078 546.97955
-97.360062 -57.35495 546.85504
-97.367722 -58.504395 551.07788
-95.746017 -58.527527 551.81989
-93.722015 -58.267212 551.68549
-90.115219 -56.880112 548.04901
-87.711792 -56.334106 547.02295
-84.924744 -55.504791 545.11218
-81.373611 -54.111008 541.43561
-79.389145 -53.840118 541.25848
-77.790649 -53.848633 541.95483
-75.809265 -53.574249 541.76617
-74.209 -53.579498 542.45313
-72.982193 -53.864471 544.01898
-70.629913 -53.30423 542.92999
-69.026733 -53.305069 543.60284
-66.686829 -52.742126 542.49841
-65.45079 -53.021637 544.04755
-64.208221 -53.300003 545.5943
-61.520233 -52.45224 543.57996
-59.561035 -52.165878 543.33582
-58.315063 -52.441025 544.86847
-55.655457 -51.590317 542.82721
-53.360001 -51.019989 541.6687
-52.807312 -51.854782 544.97552
-50.86232 -51.564026 544.70013
-49.263321 -51.553696 545.31464
-47.663818 -51.542679 545.92419
-46.399933 -51.812088 547.42761
-44.463486 -51.518631 547.12823
-43.193665 -51.786819 548.6236
-41.261917 -51.492279 548.31219
-39.986343 -51.759354 549.79932
-37.736618 -51.182907 548.57208
-34.856735 -50.044174 545.52661
-32.950836 -49.748062 545.1853
-31.365234 -49.73262 545.74371
-29.154892 -49.155014 544.48206
-27.574722 -49.138992 545.0285
-26.301743 -49.403519 546.47906
-24.414673 -49.106094 546.10596
-23.136765 -49.370102 547.54816
-21.554581 -49.353073 548.07507
-20.269241 -49.616623 549.5097
-18.684937 -49.599243 550.02728
-16.809616 -49.301056 549.62531
-14.651184 -48.722153 548.30115
-12.789642 -48.423889 547.88477
-10.933731 -48.125595 547.46161
-9.6450653 -48.388474 548.86755
-8.073349 -48.370682 549.35138
-6.5020447 -48.352859 549.83014
-4.9311523 -48.335037 550.30396
-3.0903931 -48.036758 549.85168
-1.2553253 -47.738571 549.39288
0.30900574 -47.720856 549.8501
2.6601563 -46.862091 547.53241
3.9558563 -47.124878 548.90155
5.2563934 -47.38765 550.26721
7.070755 -47.08992 549.77838
8.6275024 -47.07254 550.20935
10.183716 -47.055283 550.63556
11.986176 -46.757919 550.12909
13.782898 -46.460693 549.61633
15.573883 -46.163666 549.09741
17.598007 -45.586731 547.64246
18.902466 -45.850204 548.97137
20.678879 -45.553696 548.43463
22.4496 -45.25737 547.89172
23.986191 -45.241226 548.27521
25.296509 -45.505203 549.5871
27.057907 -45.209412 549.02808
28.813583 -44.913818 548.46307
30.345642 -44.898315 548.82703
32.307861 -44.323288 547.31525
33.620979 -44.587982 548.60492
35.148979 -44.573013 548.95435
36.261467 -45.117767 551.17389
37.793732 -45.103104 551.51526
39.325539 -45.088608 551.85199
40.856895 -45.07428 552.18408
42.584862 -44.780502 551.57202
44.501678 -44.207275 550.01404
46.407646 -43.634323 548.44934
47.734901 -43.900497 549.70178
49.440308 -43.60762 549.06714
50.956009 -43.594543 549.36926
52.28978 -43.861206 550.6098
53.807251 -43.84848 550.90344
55.50058 -43.556488 550.2489
57.188324 -43.264709 549.58887
58.870491 -42.97316 548.9234
60.547043 -42.68187 548.25269
61.88623 -42.949646 549.46802
63.393539 -42.938156 549.7337
65.061195 -42.647507 549.0484
66.407043 -42.915771 550.25195
67.913261 -42.904877 550.50452
69.725014 -42.335541 548.85687
71.375702 -42.045776 548.15155
72.725349 -42.314804 549.33862
74.225014 -42.304718 549.57306
75.72435 -42.294846 549.80322
77.223366 -42.285156 550.02905
78.722084 -42.275665 550.25061
80.355293 -41.987167 549.51721
81.718582 -42.257248 550.68097
83.475685 -41.689987 548.98682
84.840965 -41.960464 550.14252
86.335617 -41.951935 550.34247
87.830017 -41.943588 550.53815
89.562729 -41.377243 548.82404
91.168137 -41.090225 548.05756
92.768105 -40.803421 547.28632
94.13958 -41.074951 548.41772
95.624939 -41.067612 548.59155
97.110062 -41.06044 548.76123
98.491158 -41.332489 549.88141
99.978409 -41.325699 550.04309
101.36681 -41.598083 551.15582
102.76018 -41.870621 552.26489
104.25195 -41.864349 552.41467
105.83444 -41.579285 551.60431
107.23492 -41.852356 552.70184
108.8976 -41.288712 550.92627
110.46661 -41.004227 550.10236
112.0303 -40.71994 549.27386
113.58867 -40.435852 548.44086
115.06628 -40.430908 548.56073
116.54375 -40.426086 548.67651
118.16158 -39.863647 546.87268
119.49823 -40.417023 548.89587
120.97527 -40.412766 548.99945
122.3271 -40.966446 551.01563
123.74908 -41.241364 552.06989
125.17607 -41.516479 553.12048
126.60812 -41.791733 554.16724
128.09741 -41.788315 554.2514
129.73553 -40.948502 551.45428
131.2169 -40.945404 551.52979
132.69817 -40.94252 551.60132
134.22125 -40.660965 550.70941
135.66043 -40.937225 551.7323
137.14145 -40.93483 551.79169
138.62239 -40.932617 551.84711
140.07166 -41.209396 552.85828
141.55504 -41.20752 552.90576
143.03836 -41.205795 552.9491
144.52164 -41.204239 552.98846
146.0475 -40.645248 551.10352
147.54427 -40.365234 550.1745
149.03586 -40.085403 549.24146
150.4951 -40.363312 550.22473
151.94844 -40.920227 552.16443
153.41208 -41.477264 554.10016
154.89185 -41.755707 555.07172
156.37675 -42.034302 556.03918
157.86896 -41.476669 554.12164
159.35272 -41.198013 553.16034
160.83577 -41.198303 553.1554
162.31885 -41.198746 553.14636
163.78276 -40.641769 551.21277
165.27287 -40.921402 552.15613
166.75343 -40.922348 552.13507
168.21672 -40.644684 551.14984
169.69476 -40.64595 551.12079
171.17287 -40.64743 551.08783
172.65102 -40.649078 551.05078
174.12923 -40.650894 551.00977
175.63766 -40.931671 551.92456
177.15134 -41.212631 552.83514
178.67023 -41.493774 553.74152
180.1185 -41.217438 552.72449
181.6427 -41.498917 553.62256
183.12906 -41.50174 553.55701
184.56989 -41.225891 552.52814
186.10208 -41.507935 553.41382
187.63954 -41.790131 554.29504
189.12889 -41.793671 554.21313
190.61835 -41.797333 554.12708
192.04941 -41.522339 553.07849
193.53653 -41.526382 552.98456
195.08748 -41.809494 553.84467
196.5112 -41.534988 552.7843
197.9299 -41.260635 551.72028
199.55785 -41.823212 553.52545
200.97427 -41.54921 552.45343
202.30913 -40.996445 550.42041
203.87129 -41.280655 551.25531
205.35706 -41.286087 551.12878
206.7587 -41.012756 550.04163
208.32912 -41.297516 550.86353
209.90491 -41.582458 551.68079
211.39398 -41.588638 551.5376
212.88327 -41.595001 551.39032
214.5672 -42.159592 553.1496
215.96228 -41.887283 552.03833
217.55717 -42.173264 552.83319
219.05249 -42.180374 552.6687
220.65559 -42.466751 553.45435
222.15396 -42.474258 553.28119
223.65259 -42.481949 553.10388
225.26675 -42.768936 553.87567
226.76846 -42.777023 553.68964
228.39091 -43.064423 554.45197
229.77269 -42.793747 553.30475
231.1496 -42.523254 552.15405
232.52161 -42.252914 550.99976
233.8887 -41.982727 549.84192
235.25095 -41.712708 548.68054
237.01627 -42.280533 550.36737
238.79227 -42.848602 552.0484
240.01427 -42.299911 549.92444
241.80124 -42.868423 551.59528
243.30623 -42.878662 551.36237
244.81155 -42.889069 551.12506
246.46873 -43.179001 551.8316
248.28558 -43.748489 553.48065
249.79971 -43.759537 553.229
251.31422 -43.770798 552.97308
252.991 -44.061646 553.65912
254.67334 -44.352737 554.33984
256.19415 -44.364624 554.0697
257.71536 -44.376694 553.79517
259.40924 -44.668457 554.46075
260.93384 -44.680939 554.17676
262.2814 -44.414093 552.94476
263.62415 -44.14743 551.70929
265.14481 -44.160431 551.41284
266.85117 -44.453262 552.05402
268.75104 -45.02597 553.63123
270.28076 -45.039642 553.3197
272.19714 -45.612854 554.88464
273.733 -45.626968 554.56293
275.46759 -45.920975 555.17596
276.60516 -45.375992 552.9668
278.1398 -45.39064 552.63184
279.46881 -45.125687 551.35455
281.41919 -45.700287 552.88507
283.16919 -45.995346 553.47211
284.49701 -45.730881 552.18146
286.25317 -46.026321 552.75787
287.7959 -46.042068 552.39374
288.8956 -45.498093 550.15674
290.43408 -45.514114 549.78442
292.42706 -46.090302 551.27295
293.9718 -46.106689 550.88983
295.98145 -46.683319 552.36487
297.53241 -46.700043 551.97089
299.08386 -46.716904 551.57208
300.6358 -46.733902 551.16846
301.94562 -46.47084 549.83124
303.25067 -46.207855 548.49054
305.04681 -46.505371 549.0011
306.84875 -46.803055 549.50543
308.15002 -46.540298 548.15155
309.95816 -46.838211 548.64459
311.51364 -46.855911 548.20685
313.3306 -47.154068 548.68787
314.3623 -46.611099 546.39355
316.18286 -46.909393 546.86401
318.00909 -47.207764 547.32788
320.11261 -47.786713 548.70587
321.40454 -47.524216 547.31616
323.79883 -48.383896 549.59937
325.65048 -48.682541 550.03613
327.50781 -48.981247 550.46631
329.37073 -49.279922 550.88965
331.81396 -50.139938 553.13788
333.11359 -49.877258 551.71625
334.70081 -49.895142 551.20526
336.58359 -50.193665 551.60242
337.87628 -49.930511 550.16797
338.86346 -49.386307 547.8186
340.44653 -49.403503 547.28888
342.64136 -49.982285 548.57361
344.23007 -49.999069 548.03186
346.44104 -50.577515 549.30096
348.03528 -50.593811 548.74713
349.94592 -50.890793 549.09436
351.54294 -50.906479 548.52942
353.46149 -51.20282 548.86359
355.0611 -51.217712 548.28748
357.31424 -51.794373 549.51099
359.5777 -52.370605 550.7254
361.18738 -52.384186 550.13025
363.13141 -52.678299 550.4292
364.7431 -52.690704 549.82288
366.01434 -52.421249 548.31403
367.62256 -52.432327 547.69861
369.23013 -52.442627 547.07819
370.48926 -52.170944 545.55853
372.44342 -52.460876 545.82257
374.40204 -52.749985 546.07971
376.36505 -53.038193 546.32996
379.04913 -53.888016 548.35364
380.30383 -53.611618 546.80975
382.27936 -53.896729 547.03931
385.3576 -55.024628 549.92303
386.24213 -54.463394 547.47809
387.48621 -54.182205 545.91779
390.21979 -55.024902 547.88995
392.21381 -55.303497 548.08588
393.83185 -55.299301 547.3938
396.21167 -55.85611 548.45813
398.21515 -56.129913 548.63458
400.22147 -56.401947 548.80457
401.84076 -56.390884 548.09137
403.8497 -56.65918 548.25012
405.46606 -56.644211 547.52808
408.27173 -57.470703 549.42279
411.08966 -58.294891 551.30695
413.51703 -58.835495 552.30951
414.73557 -58.53038 550.69403
417.1683 -59.065994 551.68408
419.60721 -59.598892 552.66632
419.57538 -58.443344 548.44238
421.18008 -58.409042 547.6861
423.61588 -58.933563 548.65527
-98.946808 -54.572021 542.39893
-98.172638 -55.157135 544.88013
-96.977829 -55.461487 546.4928
-95.370239 -55.485092 547.23328
-95.36441 -56.620361 551.46069
-93.340775 -56.361008 551.32532
-90.130493 -55.263794 548.55933
-88.118607 -55.000061 548.40845
-85.327011 -54.177124 546.49713
-81.382919 -52.516327 541.93988
-79.782532 -52.52536 542.64197
-77.030075 -51.696777 540.69818
-75.813583 -51.98111 542.27039
-74.211792 -51.985229 542.9577
-72.608139 -51.987915 543.64081
-70.629868 -51.710495 543.43439
-69.025391 -51.710388 544.10742
-66.31665 -50.873032 542.11426
-65.082077 -51.149124 543.66333
-62.753922 -50.588089 542.54163
-60.435104 -50.026016 541.41101
-58.839935 -50.020233 542.05457
-57.598251 -50.292084 543.58588
-55.294861 -49.727158 542.43353
-53.699661 -49.718613 543.06158
-52.450378 -49.987869 544.58044
-50.851212 -49.977722 545.19965
-49.251541 -49.966904 545.81403
-46.973969 -49.398315 544.62585
-46.050797 -49.943222 547.02759
-44.11644 -49.651978 546.72614
-42.517883 -49.638702 547.31934
-40.590942 -49.346497 547.00488
-39.320175 -49.610687 548.4906
-37.075348 -49.0392 547.25946
-35.481506 -49.024139 547.83044
-33.25238 -48.452011 546.58337
-31.348846 -48.15799 546.23492
-29.450607 -47.863678 545.87946
-27.867508 -47.847412 546.42633
-25.977478 -47.552689 546.05804
-24.701767 -47.814163 547.50476
-22.817337 -47.519012 547.12439
-21.237625 -47.501892 547.6499
-19.954773 -47.762787 549.08411
-17.78511 -47.189148 547.77136
-16.208908 -47.171661 548.28082
-14.344345 -46.875992 547.86896
-12.485413 -46.580353 547.45044
-11.198944 -46.840652 548.8609
-9.6268158 -46.822906 549.34924
-7.7769165 -46.527191 548.91309
-6.7592773 -47.065186 551.23108
-5.1857605 -47.047333 551.70508
-2.8018951 -46.196014 549.40863
-1.2371521 -46.178314 549.87036
0.59213257 -45.882874 549.40369
2.6781158 -45.309784 548.00641
4.2335815 -45.292297 548.45093
5.788559 -45.274887 548.89056
7.5975952 -44.979889 548.39893
8.8970795 -45.240265 549.755
10.699875 -44.945526 549.25214
12.250275 -44.928497 549.67145
14.288269 -44.356522 548.2276
16.073883 -44.062241 547.70587
18.09256 -43.490707 546.24756
19.627884 -43.474289 546.6441
21.16272 -43.458008 547.03595
22.235077 -43.996689 549.28827
24.002502 -43.703247 548.73865
25.086929 -44.242096 550.98474
26.627625 -44.226318 551.3595
28.829391 -43.378845 548.92426
30.361259 -43.36348 549.28778
31.892632 -43.348282 549.64667
33.423523 -43.333267 550.00092
34.743843 -43.595596 551.28809
36.276413 -43.580872 551.63354
37.808487 -43.56636 551.97449
39.340096 -43.552017 552.31079
41.070938 -43.260757 551.70258
42.993172 -42.692673 550.14825
44.51561 -42.678955 550.46918
46.613197 -41.834366 547.961
48.126968 -41.82106 548.27112
49.640274 -41.807983 548.5769
51.33725 -41.518112 547.935
52.847107 -41.505463 548.23132
54.177719 -41.769852 549.46716
55.865631 -41.480652 548.81049
57.37429 -41.468536 549.09338
58.882538 -41.456619 549.37195
60.558891 -41.16806 548.70001
61.897911 -41.43335 549.91571
63.241707 -41.698807 551.12805
65.072449 -41.134109 549.49463
66.418114 -41.399933 550.69867
68.079651 -41.112442 550.00262
69.888573 -40.548477 548.35266
71.386131 -40.538147 548.59491
72.883331 -40.528046 548.83295
74.380211 -40.518112 549.06665
75.734184 -40.785034 550.24646
77.372986 -40.498856 549.5213
78.868919 -40.489502 549.74219
80.36454 -40.480331 549.9588
81.859863 -40.471359 550.17114
83.484505 -40.18602 549.42712
84.849625 -40.45401 550.58325
86.468559 -40.169052 549.82996
87.960152 -40.160858 550.02515
89.570786 -39.876328 549.26245
91.292686 -39.315552 547.54108
92.88987 -39.031479 546.76849
94.258591 -39.300537 547.90015
95.74118 -39.293289 548.07343
97.117157 -39.562698 549.19775
98.498085 -39.832245 550.31842
99.985153 -39.825531 550.47986
101.37338 -40.095428 551.5932
102.8626 -40.089066 551.74664
104.35162 -40.082901 551.89594
105.84045 -40.076889 552.04108
107.41738 -39.794708 551.22516
109.07469 -39.236389 549.44745
110.55521 -39.230957 549.57959
112.03557 -39.225693 549.70764
113.59373 -38.944305 548.87378
115.07118 -38.939407 548.99341
116.54846 -38.934692 549.10907
118.16611 -38.377518 547.30359
119.63794 -38.373169 547.41077
121.10965 -38.368973 547.51385
122.39365 -39.193817 550.49011
123.87282 -39.189957 550.58569
125.29449 -39.462524 551.63654
126.72122 -39.735229 552.68359
128.2052 -39.731873 552.76733
129.73869 -39.452423 551.88715
131.21988 -39.449417 551.96271
132.74547 -39.170303 551.07404
134.26581 -38.891388 550.18115
135.74158 -38.888885 550.24432
137.21727 -38.886551 550.30347
138.69289 -38.884354 550.35858
140.13684 -39.158585 551.3703
141.6149 -39.156738 551.41748
143.06645 -39.431259 552.42139
144.54698 -39.429733 552.46057
146.0701 -38.875961 550.57404
147.54538 -38.874786 550.60516
149.05296 -38.32135 548.71027
150.49588 -38.872894 550.65527
151.96007 -39.148407 551.63538
153.42096 -39.700272 553.57263
154.89799 -39.97612 554.54486
156.38016 -40.252106 555.51312
157.87033 -39.423462 552.63287
159.35063 -39.423599 552.63196
160.82651 -39.147705 551.66595
162.30426 -39.148163 551.65704
163.77245 -38.872574 550.68298
165.25983 -39.149551 551.62714
166.75238 -39.426712 552.5672
168.2328 -39.427811 552.54218
169.69337 -39.152893 551.55225
171.17131 -39.154343 551.51929
172.67432 -39.432159 552.44305
174.09972 -38.8815 550.48059
175.6356 -39.435867 552.35687
177.14909 -39.714203 553.26831
178.63246 -39.716476 553.21503
180.11592 -39.718918 553.15778
181.63994 -39.997772 554.0567
183.08307 -39.724319 553.03113
184.56679 -39.727264 552.96173
186.0506 -39.730392 552.88831
187.53452 -39.733688 552.81085
189.01852 -39.737167 552.72937
190.55859 -40.017029 553.60315
191.92839 -39.468292 551.59479
193.4713 -39.74855 552.46045
194.95581 -39.752686 552.36267
196.44044 -39.756989 552.2608
197.85641 -39.485184 551.19635
199.48157 -40.04245 553.00336
200.89526 -39.770981 551.93091
202.30394 -39.499649 550.85474
203.86591 -39.781189 551.69055
205.35149 -39.78653 551.56421
206.83725 -39.792068 551.43378
208.3232 -39.797791 551.29932
209.89879 -40.080063 552.11755
211.3877 -40.086151 551.97461
212.87679 -40.092392 551.82739
214.46332 -40.375259 552.63232
215.85564 -40.105484 551.52087
217.34537 -40.112289 551.36133
219.04524 -40.67218 553.10822
220.5406 -40.679382 552.93982
222.14632 -40.963226 553.72186
223.75745 -41.247299 554.49921
225.2587 -41.255081 554.31757
226.76022 -41.263046 554.13177
228.26202 -41.27121 553.94177
229.51801 -40.726486 551.84137
231.01517 -40.735001 551.64355
232.5126 -40.743683 551.44147
233.74876 -40.199402 549.33112
235.375 -40.485062 550.07306
237.14268 -41.047531 551.76123
238.64392 -41.057007 551.54181
240.14546 -41.066696 551.31818
241.93478 -41.629898 552.99048
243.44217 -41.639969 552.75739
245.09879 -41.926956 553.4693
246.60944 -41.937469 553.22723
248.27454 -42.224915 553.92926
249.94516 -42.512573 554.62604
251.30276 -42.246918 553.4223
252.97931 -42.535019 554.1095
254.49696 -42.546539 553.8446
256.01498 -42.558243 553.57532
257.53342 -42.570175 553.30164
259.05222 -42.582275 553.0235
260.39658 -42.317673 551.79602
262.09103 -42.607056 552.4538
263.43103 -42.342804 551.21838
264.94888 -42.355682 550.92291
266.6524 -42.645706 551.5658
268.54944 -43.212997 553.14545
270.07639 -43.226517 552.8349
271.9899 -43.794327 554.40234
273.52295 -43.808258 554.0816
275.05649 -43.822388 553.75629
276.59045 -43.8367 553.42633
277.92142 -43.574051 552.15277
279.4537 -43.588699 551.81415
281.19519 -43.880737 552.40887
282.94232 -44.172989 552.99768
284.48132 -44.188248 552.64404
286.23724 -44.480927 553.22168
287.34161 -43.94194 550.98712
289.10117 -44.235001 551.55481
290.41776 -43.973526 550.24811
292.41049 -44.544342 551.73865
294.18463 -44.838028 552.289
295.96448 -45.131866 552.83313
297.28052 -44.871033 551.50812
299.06662 -45.165222 552.04138
300.37842 -44.904587 550.70801
301.68549 -44.644028 549.37122
303.72363 -45.216248 550.8175
305.27701 -45.23349 550.39984
306.83087 -45.250854 549.97729
308.13211 -44.990616 548.62311
309.94012 -45.285828 549.11749
311.49548 -45.303482 548.6803
313.31238 -45.598953 549.16272
314.34409 -45.061157 546.86731
316.43076 -45.634567 548.26196
317.99069 -45.652466 547.8042
320.09412 -46.226166 549.18439
321.66019 -46.244156 548.71509
324.05701 -47.095993 551.00037
326.19061 -47.670044 552.35675
328.05319 -47.966141 552.7865
329.35214 -47.706268 551.37482
331.79529 -48.558456 553.62598
333.09503 -48.298431 552.20404
334.09729 -47.760162 549.86377
335.97488 -48.056076 550.26392
337.26239 -47.795547 548.83081
337.94409 -46.978424 545.5697
340.42871 -47.830383 547.77747
342.31793 -48.125793 548.15375
343.59595 -47.864441 546.70374
345.80176 -48.437759 547.97668
347.70468 -48.732559 548.33301
349.61298 -49.02713 548.68237
351.52661 -49.321457 549.02484
353.4455 -49.615433 549.36023
355.04547 -49.63063 548.78448
356.97217 -49.923874 549.10675
358.57465 -49.938232 548.5199
360.50891 -50.230606 548.82904
362.78296 -50.801025 550.03137
364.39258 -50.813843 549.42627
366.00189 -50.826065 548.81616
367.61069 -50.837616 548.20093
368.18329 -50.012589 544.89209
370.47888 -50.57991 546.0603
371.73285 -50.310547 544.53705
373.6871 -50.597672 544.79724
376.35724 -51.441254 546.83447
379.04227 -52.283997 548.86072
380.29797 -52.010956 547.31592
383.00189 -52.8517 549.32404
385.354 -53.412628 550.43317
386.60864 -53.136215 548.87317
388.22806 -53.137238 548.19629
390.59418 -53.694458 549.28406
392.21552 -53.69278 548.59595
394.21436 -53.968384 548.78583
395.83453 -53.963715 548.08789
397.45258 -53.957458 547.38574
398.68121 -53.670853 545.80054
400.29193 -53.661163 545.09131
402.68469 -54.20694 546.13135
403.90039 -53.914856 544.53656
406.30042 -54.456619 545.56323
409.90778 -55.831894 549.20099
411.92712 -56.090561 549.33575
413.1377 -55.789825 547.72308
416.37817 -56.879166 550.45758
418.40433 -57.130417 550.57416
418.78009 -56.265518 547.21643
420.79782 -56.511597 547.32721
422.8161 -56.754822 547.43286
-99.38562 -53.24501 543.76605
-96.561295 -52.444199 541.90216
-95.780869 -53.020004 544.38306
-94.17865 -53.041824 545.12097
-92.974335 -53.337357 546.72894
-90.56517 -52.802933 545.71204
-88.559433 -52.542297 545.56256
-86.94957 -52.555664 546.28394
-84.163803 -51.739075 544.36737
-81.779434 -51.196609 543.31909
-79.788925 -50.928406 543.14258
-77.801315 -50.658524 542.95959
-76.578079 -50.939163 544.53528
-74.213547 -50.390137 543.45789
-72.608444 -50.391769 544.14117
-70.256058 -49.839935 543.04834
-68.652939 -49.838928 543.72052
-65.578033 -48.732452 540.83588
-63.617645 -48.453003 540.60535
-61.298935 -47.896454 539.47784
-60.068787 -48.167007 541.01526
-58.118149 -47.884491 540.76526
-57.235291 -48.429123 543.18866
-55.637375 -48.420822 543.82245
-53.340347 -47.859741 542.66046
-51.746338 -47.849854 543.28241
-50.495697 -48.115219 544.797
-48.556641 -47.827957 544.51147
-46.622437 -47.540131 544.21899
-45.701279 -48.079407 546.62109
-43.769058 -47.790436 546.31757
-42.172638 -47.776825 546.90948
-40.57605 -47.762741 547.49634
-38.653793 -47.472382 547.17365
-36.736755 -47.181686 546.84399
-34.50473 -46.614883 545.60101
-32.283218 -46.047821 544.34912
-31.017227 -46.307693 545.81299
-29.121429 -46.015839 545.45544
-27.230988 -45.723785 545.09088
-25.960129 -45.982773 546.54126
-24.379791 -45.965942 547.0766
-22.497894 -45.673355 546.69415
-21.219818 -45.931702 548.13184
-19.343719 -45.63884 547.73743
-17.47319 -45.345917 547.33618
-15.899521 -45.3284 547.8443
-13.460297 -44.484543 545.59644
-11.895233 -44.466949 546.09186
-10.613922 -44.72467 547.50085
-9.0470428 -44.70697 547.98706
-7.7586975 -44.964554 549.38855
-6.1899872 -44.946793 549.86542
-3.8031616 -44.103333 547.5719
-2.2432709 -44.085678 548.0365
-0.14860535 -43.517715 546.64935
1.6701202 -43.225067 546.17828
3.4831238 -42.932495 545.70074
4.7708893 -43.190262 547.06818
6.3205566 -43.172974 547.50574
7.8697052 -43.155777 547.93848
9.4183502 -43.138702 548.36639
10.966537 -43.121674 548.78925
12.514175 -43.104797 549.20746
14.793442 -42.263229 546.83069
16.33223 -42.246658 547.23706
18.109299 -41.955368 546.70734
19.880661 -41.66423 546.17139
21.41272 -41.648102 546.56207
22.482391 -42.181671 548.8147
24.247009 -41.891037 548.26324
25.32872 -42.424789 550.5097
27.089737 -42.134506 549.94818
29.065536 -41.569733 548.4447
30.376724 -41.829178 549.74371
32.123222 -41.53949 549.16492
33.651329 -41.524628 549.51813
34.75882 -42.059097 551.74335
36.291199 -42.044525 552.08838
38.027946 -41.755646 551.48938
39.55677 -41.74147 551.82465
41.484436 -41.178528 550.27405
43.007118 -41.16478 550.59912
44.723801 -40.87677 549.97784
46.818558 -40.040161 547.46625
48.140266 -40.301453 548.71838
49.840027 -40.014145 548.08038
51.534172 -39.727097 547.43689
52.859818 -39.988861 548.67651
54.190224 -40.250839 549.9129
55.877945 -39.964371 549.25494
57.386391 -39.952408 549.53754
59.065514 -39.666397 548.86938
60.570595 -39.654846 549.14264
62.075287 -39.643463 549.4115
63.579613 -39.632294 549.67603
65.083557 -39.621292 549.93616
66.587128 -39.610504 550.19202
68.40136 -39.051682 548.54541
70.051964 -38.767212 547.84222
71.546715 -38.757065 548.0838
73.041145 -38.74707 548.32104
74.390091 -39.011368 549.50482
75.743912 -39.275772 550.68494
77.242531 -39.266357 550.91022
78.74086 -39.257111 551.13116
80.508438 -38.700089 549.44342
82.000977 -38.691269 549.65521
83.493233 -38.682617 549.86267
84.985199 -38.674164 550.06598
86.476883 -38.665909 550.26508
87.846443 -38.931732 551.41394
89.57872 -38.376038 549.69629
91.300407 -37.820541 547.97314
92.897408 -37.539185 547.19952
94.265938 -37.805771 548.33173
95.748337 -37.798645 548.50482
97.124153 -38.065536 549.62964
98.504898 -38.332565 550.75085
99.890594 -38.599792 551.86859
101.37984 -38.593353 552.02594
102.96492 -38.313278 551.22217
104.45118 -38.30722 551.37103
106.02811 -38.027557 550.55829
107.5114 -38.021866 550.69873
109.08022 -37.742584 549.87708
110.56056 -37.737228 550.00903
111.96019 -38.005783 551.09534
113.52075 -37.727066 550.26074
115.0006 -37.722214 550.38043
116.5531 -37.443878 549.53711
118.17056 -36.891998 547.73004
119.64223 -36.88768 547.83698
121.04866 -37.157257 548.8996
122.46012 -37.426971 549.9585
123.8766 -37.696854 551.01373
125.29813 -37.966873 552.06519
126.77946 -37.963379 552.15265
128.20848 -38.233749 553.19659
129.79144 -37.683304 551.35504
131.26988 -37.680313 551.43024
132.79271 -37.4039 550.54071
134.2684 -37.40126 550.60779
135.78334 -37.125153 549.70984
137.25629 -37.122864 549.7688
138.72917 -37.120712 549.82373
140.20198 -37.118744 549.87469
141.64569 -37.390549 550.88306
143.12097 -37.388901 550.92615
144.59619 -37.387405 550.96515
146.09267 -37.112488 550.03864
147.56522 -37.111313 550.06958
149.07005 -36.56311 548.17316
150.51022 -37.109467 550.11957
151.9827 -37.108795 550.13861
153.43828 -37.655472 552.07727
154.90413 -38.202316 554.01202
156.38686 -38.202103 554.0191
157.87099 -37.654861 552.09845
159.34856 -37.654999 552.0976
160.82614 -37.655289 552.09265
162.31073 -37.929321 553.04553
163.78133 -37.656342 552.0708
165.2711 -37.930725 553.01569
166.76607 -38.205276 553.95648
168.2316 -37.932739 552.96973
169.69202 -37.660416 551.97919
171.21469 -38.20903 553.86932
172.67262 -37.937012 552.87073
174.07025 -37.11792 549.94543
175.60338 -37.667068 551.82336
177.08138 -37.669128 551.77435
178.55943 -37.671371 551.72137
180.03757 -37.673782 551.66443
181.59674 -38.223587 553.52533
183.03714 -37.952698 552.49921
184.51811 -37.955612 552.43005
185.99918 -37.958649 552.35681
187.53111 -38.235535 553.24005
188.96161 -37.965286 552.1983
190.44299 -37.968826 552.11292
191.9245 -37.97258 552.02362
193.34503 -37.702805 550.97034
194.82422 -37.706879 550.87305
196.36978 -37.984787 551.7312
197.78299 -37.7155 550.66632
199.4054 -38.267502 552.47516
200.96429 -38.54599 553.32025
202.37538 -38.277176 552.24329
203.93974 -38.556046 553.07977
205.42773 -38.56134 552.95343
206.91589 -38.566788 552.82294
208.4911 -38.846191 553.64624
209.98221 -38.85202 553.50732
211.28946 -38.310455 551.44952
212.87041 -38.590424 552.26001
214.35953 -38.596741 552.10889
215.7491 -38.329483 550.99719
217.33844 -38.610016 551.79449
218.93315 -38.890717 552.58698
220.42575 -38.897812 552.41913
222.02869 -39.17894 553.20251
223.52434 -39.186386 553.02594
225.13551 -39.467926 553.80005
226.63428 -39.475769 553.61481
228.13327 -39.483795 553.42535
229.63255 -39.492004 553.23169
231.00652 -39.226471 552.08032
232.50375 -39.235046 551.87854
233.87054 -38.969833 550.71979
235.36577 -38.978745 550.50983
236.99728 -39.261917 551.24786
238.63426 -39.545258 551.98077
240.13562 -39.554794 551.75739
241.92471 -40.11264 553.43152
243.43188 -40.122589 553.19873
244.93941 -40.132751 552.96173
246.44727 -40.143097 552.72028
248.26363 -40.701904 554.37311
249.6207 -40.438522 553.17334
251.1322 -40.449478 552.91852
252.80594 -40.734787 553.60718
254.32079 -40.746124 553.34308
255.83603 -40.757675 553.07465
257.35162 -40.769409 552.8017
258.69543 -40.507095 551.57837
260.20923 -40.519196 551.29706
261.54602 -40.257202 550.06628
262.87802 -39.995331 548.83197
264.75314 -40.556686 550.42664
266.45389 -40.843964 551.07123
268.16022 -41.131454 551.71027
270.06262 -41.693573 553.28625
271.78287 -41.981583 553.91364
273.11749 -41.720886 552.6524
274.84381 -42.009277 553.26947
276.375 -42.023438 552.94061
277.90668 -42.03775 552.60706
279.43878 -42.052261 552.26892
281.18002 -42.341522 552.86481
282.927 -42.631012 553.4549
284.03802 -42.096832 551.22675
285.57208 -42.112061 550.87006
287.10663 -42.127426 550.50867
288.41998 -41.868271 549.20703
289.95294 -41.883987 548.83698
292.16711 -42.724121 551.26514
293.70892 -42.740234 550.88367
295.48337 -43.031265 551.43042
297.26355 -43.32254 551.97113
298.81213 -43.339157 551.5741
300.36121 -43.355865 551.17212
302.15344 -43.64769 551.69574
303.70612 -43.664673 551.28339
305.50723 -43.956833 551.79523
307.0636 -43.974106 551.3725
308.11426 -43.44136 549.08978
309.92215 -43.733887 549.58551
311.47742 -43.751434 549.1488
313.0332 -43.769043 548.70715
314.58948 -43.786743 548.26056
316.67868 -44.354919 549.65668
317.97235 -44.097549 548.27563
320.34711 -44.941223 550.5802
321.64169 -44.683929 549.18915
324.03839 -45.527863 551.47729
326.172 -46.096664 552.83588
327.7525 -46.114761 552.3479
329.3335 -46.132874 551.85492
331.77664 -46.977264 554.10907
332.4967 -46.168945 550.8537
333.49384 -45.635864 548.51404
335.66138 -46.204681 549.83203
336.94641 -45.946838 548.39954
337.92612 -45.413223 546.05054
340.4108 -46.257431 548.26123
341.68878 -45.999023 546.81598
343.88666 -46.567398 548.09875
345.47345 -46.58429 547.55383
347.37396 -46.876602 547.91229
349.91229 -47.720245 550.07928
351.82886 -48.012177 550.422
353.4292 -48.028015 549.85181
355.6778 -48.595154 551.08624
356.62988 -48.058548 548.69598
358.55954 -48.349075 549.01343
360.49429 -48.639175 549.32373
362.09949 -48.652893 548.72601
364.04169 -48.942017 549.02319
365.64893 -48.954651 548.41431
366.57059 -48.414642 546.00427
367.82648 -48.149887 544.49023
369.42444 -48.160461 543.86932
370.3208 -47.618179 541.45355
372.97156 -48.455353 543.50665
375.28156 -49.015656 544.6557
377.95959 -49.851227 546.68756
379.93045 -50.133682 546.9267
382.63269 -50.967346 548.93829
384.61707 -51.247742 549.16144
386.97421 -51.803116 550.2652
388.59753 -51.805084 549.58716
390.59344 -52.081894 549.78986
391.83948 -51.805099 548.21729
393.45789 -51.80304 547.5257
394.69238 -51.523376 545.94763
395.91968 -51.242172 544.36755
396.75244 -50.683289 541.90588
399.52112 -51.503174 543.83752
401.51825 -51.769073 544.00348
403.12292 -51.757019 543.28687
406.31482 -52.847137 546.06696
409.52429 -53.935013 548.83398
411.14063 -53.916702 548.09698
413.56393 -54.448044 549.09967
415.17838 -54.42514 548.35345
417.19934 -54.67572 548.47327
417.98276 -54.096268 545.98352
419.99805 -54.341736 546.09607
421.17807 -54.033005 544.47223
-98.587891 -51.091705 542.52264
-97.402466 -51.389801 544.13757
-96.208191 -51.685638 545.75171
-93.793228 -51.159271 544.74579
-91.786591 -50.904007 544.60596
-90.579544 -51.193329 546.21088
-88.175568 -50.660492 545.18481
-86.17276 -50.399078 545.02802
-83.390305 -49.588928 543.1073
-81.786346 -49.59729 543.81567
-79.408279 -49.057053 542.75769
-78.188202 -49.335556 544.33765
-75.818954 -48.79216 543.26556
-74.214294 -48.794266 543.95361
-72.232437 -48.521469 543.75159
-69.508545 -47.700424 541.76947
-67.909424 -47.698563 542.43958
-64.838669 -46.601685 539.54968
-62.517471 -46.050613 538.42627
-61.292633 -46.318893 539.96704
-59.701782 -46.312744 540.61316
-57.395782 -45.758759 539.46808
-57.226196 -46.844437 543.67932
-55.27565 -46.562149 543.41772
-53.329712 -46.279129 543.14923
-51.388412 -45.995377 542.87366
-49.795776 -45.984314 543.48944
-47.861404 -45.69928 543.20093
-46.609222 -45.960297 544.70605
-45.015442 -45.947403 545.30682
-42.754593 -45.387482 544.0979
-41.165604 -45.373581 544.68652
-39.248352 -45.08606 544.36584
-37.661774 -45.07135 544.94342
-36.075119 -45.056213 545.51581
-34.168304 -44.767624 545.17609
-32.584351 -44.751862 545.73737
-31.000473 -44.735779 546.29352
-29.104431 -44.446381 545.93469
-27.523468 -44.42984 546.47974
-25.942749 -44.413086 547.01971
-24.666611 -44.669083 548.4671
-23.083694 -44.651932 548.99768
-21.20195 -44.361694 548.60883
-19.029236 -43.798492 547.29785
-17.45517 -43.781021 547.81055
-15.590164 -43.490631 547.40118
-13.730789 -43.200211 546.98505
-12.163071 -43.182602 547.48083
-10.595779 -43.164963 547.97162
-9.0288391 -43.147263 548.45728
-7.4623718 -43.129562 548.93793
-5.3454132 -42.566574 547.56995
-3.5122528 -42.276306 547.11633
-1.6847992 -41.98616 546.65619
0.4045105 -41.423508 545.26532
1.9529266 -41.406158 545.71643
3.5008545 -41.388824 546.16254
5.0482635 -41.371597 546.60388
6.3381195 -41.626877 547.96735
7.8871918 -41.609772 548.39954
9.6875763 -41.320389 547.89825
11.233002 -41.303528 548.32001
12.531311 -41.559082 549.66693
14.810333 -40.72551 547.28741
16.590378 -40.436752 546.76178
18.364685 -40.148209 546.23004
19.66095 -40.404297 547.5578
21.429001 -40.116089 547.0152
22.960419 -40.100235 547.40063
24.263016 -40.356689 548.71619
25.570328 -40.61322 550.02826
27.328537 -40.325684 549.46478
28.86055 -40.310455 549.83209
30.392067 -40.29538 550.1947
31.923096 -40.280457 550.55267
33.453629 -40.265747 550.90601
34.983673 -40.25119 551.2547
36.51326 -40.236801 551.59875
38.042366 -40.222595 551.93817
39.773232 -39.936661 551.33215
41.498428 -39.651001 550.72046
43.217957 -39.365555 550.10309
44.931831 -39.080322 549.48004
46.831871 -38.52356 547.90845
48.342644 -38.51059 548.21729
50.039597 -38.226074 547.57758
51.546898 -38.213531 547.87701
53.053795 -38.201141 548.17194
54.381424 -38.460663 549.40814
55.713875 -38.720322 550.64081
57.398361 -38.436829 549.97687
58.906235 -38.425201 550.25464
60.245262 -38.685364 551.47559
61.754936 -38.674133 551.74512
63.264252 -38.66304 552.01013
65.094505 -38.1091 550.37311
66.597908 -38.098419 550.62848
68.411888 -37.544952 548.9801
70.062286 -37.263214 548.27582
71.556839 -37.253189 548.51709
72.903358 -37.514832 549.70514
74.399857 -37.505157 549.93817
75.753479 -37.767136 551.1189
77.251915 -37.757843 551.34387
78.887405 -37.47731 550.61188
80.382645 -37.468399 550.82788
81.877579 -37.459686 551.03973
83.501816 -37.179825 550.2937
84.866585 -37.44281 551.45074
86.485092 -37.16333 550.6955
87.976326 -37.15535 550.89008
89.705803 -36.604996 549.17041
91.424698 -36.054855 547.44519
93.018906 -35.776215 546.67029
94.384689 -36.040314 547.80267
95.755402 -36.30455 548.93158
97.237396 -36.297714 549.10028
98.511627 -36.833496 551.17871
99.998329 -36.826981 551.33972
101.48482 -36.820633 551.49658
102.9711 -36.814514 551.64941
104.55062 -36.537338 550.84009
106.03393 -36.53154 550.98438
107.51703 -36.52594 551.12463
109.08568 -36.249344 550.302
110.56584 -36.24408 550.43384
