ply
format ascii 1.0
comment PCL generated
element vertex 1536
property float x
property float y
property float z
element camera 0
property float view_px
property float view_py
property float view_pz
property float x_axisx
property float x_axisy
property float x_axisz
property float y_axisx
property float y_axisy
property float y_axisz
property float z_axisx
property float z_axisy
property float z_axisz
property float focal
property float scalex
property float scaley
property float centerx
property float centery
property int viewportx
property int viewporty
property float k1
property float k2
end_header
-61.729355 -66.662079 544.45984
-60.122314 -66.663208 545.10608
-58.161911 -66.360962 544.86188
-56.205444 -66.05748 544.61108
-54.599716 -66.05484 545.24164
-52.304688 -65.447006 544.08948
-50.36058 -65.140152 543.8186
-49.098526 -65.43631 545.32312
-46.485489 -64.523544 543.25677
-44.888229 -64.515869 543.8587
-42.959305 -64.205368 543.56183
-40.706711 -63.592163 542.36322
-39.11554 -63.582108 542.94769
-37.847 -63.873291 544.42426
-35.611359 -63.258026 543.20416
-34.021637 -63.246002 543.77301
-32.431625 -63.233429 544.33698
-30.841385 -63.220276 544.89594
-29.560944 -63.508453 546.3515
-27.353088 -62.890732 545.09644
-26.069778 -63.177963 546.54285
-24.781204 -63.464737 547.98608
-22.289551 -62.544235 545.80542
-20.110535 -61.925262 544.52057
-18.824677 -62.211029 545.94781
-16.950531 -61.893204 545.55627
-15.659683 -62.178375 546.97522
-14.363739 -62.463303 548.39087
-12.495346 -62.144821 547.98254
-10.913513 -62.127762 548.4787
-9.0534821 -61.809036 548.05786
-6.9231873 -61.188766 546.71771
-5.8963623 -61.774246 549.02338
-4.0476837 -61.455246 548.58429
-2.4725037 -61.437637 549.05371
-1.1629486 -61.721298 550.43402
0.9394989 -61.100876 549.06097
2.7710419 -60.78186 548.59735
4.0820923 -61.065399 549.9635
6.1624451 -60.445175 548.56952
7.9797058 -60.126282 548.08734
9.7913208 -59.807465 547.59875
11.350357 -59.789886 548.02484
12.664627 -60.073486 549.36786
14.225433 -60.055984 549.78491
16.024872 -59.737488 549.27393
17.345734 -60.021179 550.60437
19.139069 -59.702896 550.08228
20.926727 -59.384796 549.55408
22.480103 -59.367767 549.9455
24.259018 -59.049957 549.40564
26.47905 -58.130539 547.00543
27.799835 -58.414856 548.30774
29.561737 -58.09758 547.74976
31.317963 -57.780502 547.18579
32.855591 -57.764374 547.54547
34.392769 -57.748413 547.90045
36.344933 -57.13118 546.38922
37.876007 -57.115555 546.73364
39.811668 -56.498779 545.20947
41.336647 -56.483582 545.54358
43.058495 -56.167908 544.93988
44.969406 -55.551865 543.39679
46.293205 -55.837784 544.6496
48.000763 -55.522766 544.02942
49.515816 -55.508499 544.33893
50.661903 -56.095383 546.5155
52.181358 -56.081406 546.81696
53.700386 -56.067657 547.11395
55.219017 -56.054092 547.40643
56.737259 -56.04071 547.6944
58.083839 -56.327896 548.91614
59.603897 -56.31488 549.19562
61.289665 -56.00174 548.53131
62.806381 -55.989151 548.80139
64.483612 -55.676453 548.12677
66.155296 -55.364029 547.44684
67.665733 -55.352066 547.7027
69.328918 -55.0401 547.01263
70.83606 -55.028564 547.25928
72.047035 -55.617615 549.38623
73.84935 -55.006119 547.73938
75.355499 -54.995209 547.9729
76.721191 -55.284622 549.14563
78.229294 -55.274109 549.37085
80.007004 -54.663574 547.70306
81.112213 -55.553726 550.75293
82.881554 -54.943695 549.07544
84.513046 -54.633972 548.33759
86.014488 -54.624496 548.54047
87.515656 -54.615219 548.73907
89.255371 -54.006195 547.04059
90.634003 -54.297318 548.1767
92.246025 -53.988739 547.41516
93.740967 -53.980316 547.59607
95.126587 -54.272034 548.72046
96.836609 -53.664154 546.99719
98.432129 -53.356476 546.21692
99.718323 -53.948669 548.27753
101.21209 -53.941238 548.43732
102.80179 -53.634186 547.64386
104.29255 -53.627197 547.79504
105.69212 -53.920227 548.89166
107.18506 -53.91362 549.03473
108.67781 -53.907211 549.17365
110.17036 -53.901016 549.30841
111.66275 -53.894989 549.4389
113.23303 -53.589386 548.6145
114.72248 -53.583786 548.73657
116.28468 -53.278625 547.90326
117.84157 -52.973648 547.06537
119.32539 -52.968658 547.17462
120.87424 -52.664078 546.32788
122.41779 -52.359741 545.47681
123.83604 -52.655075 546.52545
125.43159 -52.051407 544.7135
126.85217 -52.347107 545.75421
128.38232 -52.043579 544.88593
129.85753 -52.039963 544.966
131.33263 -52.036514 545.04199
132.76309 -52.332962 546.06696
134.28253 -52.030228 545.18182
135.75734 -52.027328 545.24561
137.23209 -52.024643 545.30536
138.74097 -51.722504 544.40765
140.21297 -51.72023 544.45929
141.65585 -52.017761 545.46033
143.10384 -52.315521 546.45758
144.55693 -52.613419 547.45087
146.05777 -52.312225 546.53265
147.53467 -52.310883 546.56415
148.99536 -52.609329 547.54541
150.48837 -52.308731 546.61493
151.9762 -52.008255 545.68018
153.43352 -52.606979 547.60352
154.91287 -52.606537 547.61469
156.3922 -52.606323 547.62189
157.87082 -52.905914 548.57904
159.35274 -52.906036 548.57806
160.8391 -53.206024 549.52716
162.31659 -52.906891 548.56403
163.77934 -52.308319 546.64288
165.26833 -52.608826 547.57965
166.71825 -52.01062 545.65063
168.19255 -52.011902 545.62549
169.64699 -51.713699 544.6424
171.14127 -52.014984 545.56293
172.64078 -52.316483 546.47931
174.14548 -52.618164 547.39148
175.65541 -52.920044 548.29944
177.13776 -52.92247 548.24976
178.65556 -53.224747 549.14935
180.10269 -52.927826 548.138
181.58528 -52.930817 548.07611
183.02486 -52.634293 547.05695
184.50505 -52.637634 546.98694
185.98535 -52.641205 546.91284
187.4149 -52.34523 545.88202
188.89284 -52.349136 545.79987
190.4269 -52.652985 546.66608
192.02483 -53.25676 548.48004
193.44971 -52.961533 547.43311
195.06079 -53.56575 549.2381
196.61603 -53.870422 550.08649
198.17656 -54.175354 550.93048
199.67093 -54.180664 550.81848
201.16545 -54.186203 550.70245
202.66013 -54.19191 550.58215
204.155 -54.197845 550.45776
205.56822 -53.904144 549.37872
207.06085 -53.910446 549.24622
208.64067 -54.216812 550.05957
210.13626 -54.223511 549.91846
211.72423 -54.530304 550.72272
213.31755 -54.837311 551.52222
214.72162 -54.544754 550.41895
216.32054 -54.852173 551.20947
217.71991 -54.560028 550.09839
219.11432 -54.268036 548.98364
220.50381 -53.976242 547.8653
222.10886 -54.284515 548.63837
223.60648 -54.293045 548.45935
225.21979 -54.601776 549.22302
226.8385 -54.910721 549.98175
228.22153 -54.619904 548.84314
229.84598 -54.929291 549.59265
231.35013 -54.938904 549.39166
232.85455 -54.948669 549.18634
234.35928 -54.958664 548.97668
235.86435 -54.968903 548.76288
237.5058 -55.279404 549.48871
239.01404 -55.290054 549.26575
240.80521 -55.901215 550.92523
242.31927 -55.912292 550.69275
243.83368 -55.923599 550.45593
245.49751 -56.235321 551.15686
247.31856 -56.847504 552.79425
248.6875 -56.559204 551.60162
250.05161 -56.271088 550.40546
251.72981 -56.583725 551.08661
253.08945 -56.295959 549.88239
254.44427 -56.008362 548.67468
255.62701 -55.420547 546.52435
257.30933 -55.733994 547.18713
258.82474 -55.747284 546.90643
260.16553 -55.460342 545.68372
261.85681 -55.774445 546.3316
263.55371 -56.088806 546.97406
265.07333 -56.102905 546.67487
266.77887 -56.417709 547.30676
268.49002 -56.732758 547.93298
270.20679 -57.048004 548.55353
271.9292 -57.363525 549.16852
273.85315 -57.979904 550.71118
275.19247 -57.69458 549.44843
276.92923 -58.010742 550.04669
278.46793 -58.026398 549.7074
279.38812 -57.140045 546.57013
280.71097 -56.855225 545.29285
282.45212 -57.172073 545.87189
283.77066 -56.887482 544.58643
285.73468 -57.505508 546.08356
287.92896 -58.424667 548.50165
289.25146 -58.140533 547.20142
290.79379 -58.157394 546.82446
292.56378 -58.475357 547.36896
294.10962 -58.492493 546.98187
295.65594 -58.50975 546.58997
297.2027 -58.527084 546.19324
298.51221 -58.243423 544.8681
300.29755 -58.562027 545.38531
301.84558 -58.579605 544.97406
303.88519 -59.1996 546.40088
305.68756 -59.518539 546.89923
307.49557 -59.837601 547.39124
309.30927 -60.156723 547.87689
310.87256 -60.174683 547.43768
311.91895 -59.590012 545.15796
314.00037 -60.210587 546.54443
315.30096 -59.927124 545.17407
316.59665 -59.64357 543.80035
318.69489 -60.264191 545.16736
320.5322 -60.583405 545.6123
322.37509 -60.902588 546.05072
324.50058 -61.523224 547.39484
326.35718 -61.842316 547.81921
328.21933 -62.161316 548.23694
330.37189 -62.781784 549.5578
331.67255 -62.497299 548.14325
333.54846 -62.815842 548.54163
335.13702 -62.832535 548.026
336.43027 -62.547241 546.59888
337.71832 -62.261566 545.1684
339.30194 -62.277298 544.63934
340.58221 -61.990891 543.20154
343.08109 -62.911316 545.37213
345.59567 -63.831497 547.53235
346.8811 -63.543884 546.0777
348.78876 -63.859497 546.42017
351.01807 -64.476578 547.65515
352.30023 -64.187347 546.18634
354.22034 -64.501389 546.50922
356.46973 -65.116806 547.72168
358.0752 -65.127609 547.13446
359.68021 -65.13768 546.5423
361.28467 -65.146973 545.94525
363.22336 -65.457489 546.2359
364.15408 -64.860962 543.84503
366.09393 -65.169662 544.12506
368.03815 -65.477402 544.39838
369.98663 -65.784088 544.66486
370.89542 -65.183487 542.26227
373.54553 -66.092117 544.29144
374.44403 -65.489075 541.88263
376.39822 -65.791046 542.12671
378.3562 -66.09166 542.36426
381.76196 -67.599213 546.12439
383.73749 -67.896851 546.34467
386.08267 -68.49501 547.43872
388.06744 -68.789413 547.64514
389.31244 -68.477997 546.08942
390.17596 -67.862778 543.65491
392.15665 -68.151779 543.84814
394.51917 -68.740723 544.90997
396.12576 -68.723663 544.21655
398.11389 -69.006409 544.39191
400.49103 -69.588715 545.43268
402.48581 -69.86676 545.59546
404.09027 -69.8405 544.88354
405.69125 -69.811798 544.16852
407.68561 -70.082199 544.31714
410.08087 -70.651474 545.32611
411.67767 -70.614578 544.59882
413.67493 -70.876358 544.73218
416.08005 -71.436523 545.7229
419.30991 -72.596069 548.42834
420.49356 -72.245316 546.82349
422.91132 -72.795151 547.79474
424.91641 -73.040161 547.90204
-102.76895 -70.316437 546.89111
-100.35651 -69.764328 545.90918
-97.543259 -68.910004 544.05658
-93.933563 -67.454498 540.46503
-91.948944 -67.191589 540.32288
-88.769882 -66.028656 537.5744
-87.586899 -66.358292 539.15491
-86.395157 -66.685486 540.73468
-85.194748 -67.010315 542.31348
-83.597672 -67.033646 543.01971
-82.768753 -67.653244 545.46796
-80.011017 -66.774277 543.54785
-78.407471 -66.791016 544.24225
-77.17923 -67.105118 545.80908
-74.441833 -66.219833 543.86542
-72.090332 -65.631958 542.78943
-69.747025 -65.042252 541.70508
-67.779587 -64.750229 541.4928
-65.450439 -64.157166 540.39258
-63.854614 -64.161377 541.04907
-61.897354 -63.8647 540.81757
-61.372406 -64.764404 544.11859
-59.766647 -64.76442 544.76398
-57.807648 -64.46376 544.51813
-56.20192 -64.461304 545.15338
-54.941757 -64.757141 546.67291
-52.299011 -63.854202 544.63019
-51.036835 -64.147934 546.14032
-49.090897 -63.841873 545.86389
-46.477005 -62.936142 543.7948
-44.545319 -62.628387 543.50275
-42.949203 -62.619171 544.09875
-41.024231 -62.30986 543.79407
-39.755447 -62.598511 545.27618
-38.157913 -62.587143 545.85754
-36.560028 -62.575165 546.43396
-34.008331 -61.66478 544.30634
-31.787369 -61.053207 543.06873
-30.201889 -61.039658 543.62549
-28.616257 -61.025635 544.17731
-26.415939 -60.412842 542.91748
-25.444809 -60.996307 545.26599
-24.46315 -61.5793 547.6131
-21.973877 -60.666367 545.42853
-20.390808 -60.650467 545.95435
-18.513702 -60.335251 545.56744
-16.641998 -60.019836 545.17377
-15.642426 -60.601196 547.50177
-13.773682 -60.285339 547.09717
-11.910416 -59.969345 546.68585
-10.614685 -60.251068 548.0918
-8.4787903 -59.635971 546.75604
-6.3536987 -59.020859 545.41205
-5.0588226 -59.302216 546.80298
-3.2179871 -58.985825 546.36017
-2.1864471 -59.56575 548.65875
-0.34889221 -59.249252 548.20508
1.4830017 -58.932831 547.74506
3.0492554 -58.9151 548.19678
4.615097 -58.897385 548.64355
6.6901398 -58.28241 547.24579
8.249939 -58.264771 547.68127
9.8093414 -58.247147 548.11176
11.368286 -58.229599 548.53741
12.926849 -58.212051 548.95807
14.243286 -58.493073 550.29724
16.042618 -58.177216 549.78485
17.599854 -58.159912 550.19092
18.92276 -58.441116 551.51764
20.48172 -58.423981 551.91467
22.497375 -57.810318 550.45355
24.276138 -57.495193 549.91235
26.04924 -57.180222 549.36505
27.595886 -57.163712 549.74036
29.796509 -56.25267 547.32312
31.118896 -56.534683 548.61694
33.297714 -55.624176 546.18536
34.619209 -55.906479 547.46973
36.568565 -55.294586 545.95563
37.891769 -55.577194 547.23132
39.422226 -55.561844 547.57068
40.952232 -55.546692 547.90546
42.6791 -55.233688 547.30157
44.594994 -54.62294 545.75745
46.307953 -54.31044 545.14166
48.204765 -53.700226 543.58459
49.717026 -53.686096 543.89313
51.044624 -53.970001 545.13379
52.558662 -53.956207 545.43384
53.893257 -54.240433 546.66705
55.409096 -54.227005 546.95856
56.92453 -54.213776 547.24567
58.097076 -54.796249 549.40656
59.616936 -54.783356 549.68561
61.30249 -54.472931 549.02002
62.819 -54.460464 549.28973
64.656868 -53.852875 547.67291
66.167442 -53.840836 547.93286
67.522011 -54.126617 549.13019
69.340645 -53.51976 547.49701
70.5466 -54.103531 549.62885
71.910515 -54.389847 550.8147
73.860458 -53.48613 548.22272
75.366394 -53.475357 548.45593
76.731888 -53.762268 549.62915
78.377319 -53.454346 548.90924
80.017258 -53.146683 548.18427
81.254662 -53.731659 550.29083
82.891403 -53.424423 549.55688
84.522682 -53.117386 548.81787
86.023918 -53.108032 549.02045
87.524864 -53.098892 549.21881
89.144958 -52.792542 548.46558
90.642799 -52.783813 548.65503
92.254593 -52.477951 547.8924
93.749329 -52.46962 548.07306
95.24382 -52.461517 548.24951
96.738068 -52.453583 548.42169
98.335968 -52.14859 547.64063
99.725868 -52.43837 548.75354
101.12071 -52.728302 549.86279
102.71278 -52.423904 549.06848
104.29947 -52.119766 548.26959
105.60789 -52.707504 550.31726
107.1916 -52.403763 549.50964
108.85575 -51.80304 547.74652
110.25974 -52.094086 548.83167
111.74933 -52.088181 548.96185
113.31682 -51.785278 548.13623
114.8035 -51.779755 548.25787
116.29001 -51.774429 548.37537
117.77636 -51.769302 548.48883
119.33031 -51.467209 547.64563
120.87896 -51.165329 546.79797
122.4223 -50.863647 545.94586
123.90036 -50.859344 546.04236
125.49313 -50.260956 544.22845
126.91094 -50.554092 545.26965
128.43832 -50.25322 544.40021
129.86107 -50.546738 545.43359
131.33597 -50.543365 545.50952
132.76625 -50.837234 546.53522
134.28549 -50.537155 545.64917
135.76012 -50.534317 545.71289
137.27145 -50.234634 544.81848
138.74335 -50.232162 544.87396
140.21518 -50.229889 544.92542
141.71599 -49.930786 544.01849
143.13216 -50.52298 545.97076
144.58247 -50.818329 546.96484
146.08055 -50.51976 546.04565
147.53593 -50.81546 547.03168
148.99644 -51.111359 548.01379
150.48926 -50.813339 547.0824
151.95485 -51.109604 548.05652
153.43402 -51.108994 548.07172
154.91905 -50.811554 547.12811
156.39233 -51.108337 548.09009
157.87148 -51.108307 548.09326
159.35063 -51.108444 548.09229
160.83421 -51.405823 549.04218
162.31596 -51.406311 549.03308
163.77853 -50.812943 547.11035
165.25516 -50.813812 547.09326
166.70232 -50.220795 545.1626
168.17384 -50.222031 545.13745
169.62552 -49.926407 544.15363
171.09456 -49.928055 544.12061
172.61377 -50.523972 545.99255
174.08807 -50.525909 545.95111
175.59265 -50.825165 546.86017
177.13524 -51.421661 548.7193
178.65285 -51.721298 549.61975
180.09979 -51.426987 548.60779
181.54166 -51.132813 547.5918
182.97847 -50.838867 546.57214
184.45589 -50.842163 546.50232
185.93341 -50.845642 546.42847
187.36021 -50.552261 545.39709
188.88879 -50.85321 546.26855
190.42265 -51.154388 547.13568
191.96179 -51.455765 547.99841
193.44507 -51.46022 547.90387
194.9922 -51.762009 548.75787
196.54465 -52.063995 549.60742
198.1713 -52.663345 551.40485
199.52251 -52.074295 549.38879
201.08572 -52.376907 550.22522
202.65427 -52.679718 551.05707
204.0697 -52.388382 549.98138
205.48016 -52.097214 548.90192
207.0544 -52.40062 549.72083
208.46005 -52.109833 548.63354
210.03984 -52.413681 549.44373
211.625 -52.717743 550.24927
213.1208 -52.724762 550.09991
214.61684 -52.732025 549.94653
216.31284 -53.334015 551.68793
217.60953 -52.747055 549.62695
219.21129 -53.0522 550.40991
220.71082 -53.060257 550.23932
222.21057 -53.068497 550.06451
223.82339 -53.374329 550.83356
225.21085 -53.085602 549.70215
226.71138 -53.094452 549.51459
228.0916 -52.806091 548.37561
229.46693 -52.517929 547.23315
230.9631 -52.527374 547.03351
232.58792 -52.834457 547.77563
234.21817 -53.141754 548.5127
235.7204 -53.151825 548.29944
237.35904 -53.45961 549.02686
238.7258 -53.172592 547.86005
240.51154 -53.778351 549.52222
242.02022 -53.789307 549.29095
243.67569 -54.097977 549.9986
245.48576 -54.704544 551.6441
247.30655 -55.311371 553.28351
248.67532 -55.025589 552.09052
250.19608 -55.037613 551.83551
251.55777 -54.752167 550.63489
253.07668 -54.764587 550.37152
254.4313 -54.479477 549.16333
255.78111 -54.194519 547.9516
257.46579 -54.505249 548.61517
258.98364 -54.518478 548.33447
260.32684 -54.234024 547.11072
262.02048 -54.54541 547.7594
263.53952 -54.559189 547.46515
264.87613 -54.275269 546.22943
266.57883 -54.587341 546.86316
268.09912 -54.601669 546.5553
269.81046 -54.914154 547.17822
271.7207 -55.524857 548.73035
273.64182 -56.135849 550.2757
274.97836 -55.852997 549.01306
276.91339 -56.464478 550.54639
278.24823 -56.181946 549.27502
279.57831 -55.899567 548.00024
280.90363 -55.617279 546.72192
282.43567 -55.633255 546.37091
283.9682 -55.649429 546.01532
285.7179 -55.963913 546.58441
287.25394 -55.980392 546.21881
289.01239 -56.295258 546.77667
290.32739 -56.013733 545.47321
292.09198 -56.328918 546.02032
294.0921 -56.942673 547.48779
295.40588 -56.661469 546.17072
297.18494 -56.977142 546.70013
298.96967 -57.292999 547.22351
300.27954 -57.012009 545.89325
301.82758 -57.029572 545.48254
303.86703 -57.644287 546.91156
305.17303 -57.363449 545.56812
307.2265 -57.97847 546.98395
309.03748 -58.294952 547.47168
310.3421 -58.014221 546.11432
311.64197 -57.733459 544.75354
313.45944 -58.050064 545.2251
314.49091 -57.470459 542.93878
316.04532 -57.488312 542.4834
318.13828 -58.103683 543.85413
319.97034 -58.420288 544.302
322.08243 -59.035797 545.65741
324.20532 -59.651306 547.00458
326.05939 -59.96788 547.43109
328.20129 -60.583344 548.76257
330.35394 -61.198776 550.08569
331.94232 -61.216095 549.58057
333.53088 -61.233231 549.07043
335.11969 -61.250153 548.55524
336.41321 -60.967712 547.12762
337.10553 -60.086685 543.88373
338.38348 -59.803528 542.45129
340.56616 -60.417511 543.72974
342.45346 -60.732056 544.09576
344.65454 -61.345444 545.35785
346.55493 -61.659286 545.70935
348.46045 -61.972717 546.05402
350.37109 -62.285706 546.39178
352.28674 -62.598175 546.72266
353.88571 -62.610809 546.14844
356.13306 -63.221527 547.36389
357.7366 -63.23291 546.77777
359.33969 -63.243591 546.18677
360.94226 -63.25354 545.59082
362.87915 -63.562119 545.88342
363.47064 -62.672089 542.59943
365.74628 -63.278412 543.77386
367.34607 -63.284882 543.15857
368.94501 -63.290359 542.53857
370.54294 -63.294785 541.91388
372.49042 -63.59761 542.17194
374.08875 -63.599777 541.53705
376.3974 -64.199692 542.66809
378.35666 -64.498795 542.90619
381.04178 -65.395538 544.90411
383.74084 -66.290787 546.89117
384.98889 -65.986618 545.34357
387.33636 -66.579285 546.43359
388.57782 -66.271851 544.87854
389.81198 -65.962692 543.32153
392.16858 -66.550034 544.3927
394.15384 -66.836014 544.58002
396.14166 -67.119965 544.76123
398.51633 -67.701157 545.80988
400.51135 -67.980759 545.97815
401.72943 -67.659485 544.39862
404.50745 -68.532928 546.29755
405.71878 -68.206909 544.71136
406.92139 -67.878464 543.12427
410.11377 -69.04306 545.86884
412.11566 -69.307373 546.00537
414.11829 -69.568741 546.13672
416.93631 -70.424988 547.98926
418.94507 -70.680084 548.10864
420.54163 -70.633194 547.36285
422.13306 -70.583069 546.61481
424.55396 -71.126923 547.58148
-104.45798 -69.888428 550.87518
-100.39767 -68.154221 546.44495
-97.581314 -67.305267 544.59143
-95.179321 -66.749496 543.59399
-92.783249 -66.190765 542.58917
-88.799286 -64.443146 538.10522
-87.613846 -64.76825 539.68787
-86.419678 -65.090958 541.26959
-84.435303 -64.818146 541.10773
-83.617676 -65.432983 543.55774
-82.015198 -65.452301 544.26141
-80.026703 -65.172806 544.08679
-78.040649 -64.891235 543.90625
-76.057114 -64.607635 543.71954
-73.325592 -63.728577 541.77063
-71.352875 -63.441208 541.5694
-69.013092 -62.855331 540.48175
-67.784393 -63.158249 542.02954
-65.08873 -62.272293 540.04559
-63.856445 -62.572159 541.58484
-62.257584 -62.573807 542.23737
-60.657196 -62.574112 542.88544
-59.055435 -62.573105 543.52899
-57.804306 -62.867722 545.05566
-55.848145 -62.567505 544.80231
-54.589539 -62.859879 546.32184
-53.324707 -63.151199 547.83868
-51.029373 -62.551071 546.67731
-49.082504 -62.246841 546.3999
-46.804016 -61.644989 545.22192
-44.535324 -61.042358 544.03503
-42.607529 -60.735779 543.73517
-40.684464 -60.428482 543.42841
-39.091949 -60.417267 544.01257
-37.499039 -60.405396 544.59174
-35.585373 -60.096252 544.26636
-33.358917 -59.48996 543.03357
-32.088287 -59.773117 544.49652
-30.187195 -59.462524 544.15155
-28.601135 -59.448105 544.703
-27.015015 -59.433289 545.24945
-25.428894 -59.418076 545.79089
-23.842789 -59.402527 546.32733
-21.957352 -59.090149 545.95178
-20.077255 -58.777542 545.56946
-18.496689 -58.761154 546.08899
-16.333282 -58.151733 544.78448
-15.047195 -58.43132 546.20264
-13.469818 -58.414291 546.70618
-11.609055 -58.1008 546.29272
-10.034805 -58.083496 546.7854
-8.7391968 -58.362305 548.18671
-6.6114349 -57.752319 546.84131
-4.7676086 -57.438507 546.40289
-3.1998749 -57.420883 546.87402
-1.364624 -57.10704 546.42328
0.19976807 -57.089355 546.88367
1.7638092 -57.071609 547.33899
3.3274384 -57.053879 547.78943
5.1480255 -56.740128 547.31506
6.7082062 -56.722458 547.75488
8.7722321 -56.112885 546.34711
10.076843 -56.391251 547.69769
11.633133 -56.373734 548.12207
13.18898 -56.356262 548.54156
14.502731 -56.634705 549.88037
16.299332 -56.321579 549.36597
18.090225 -56.00856 548.84534
19.174072 -56.582993 551.09717
21.192642 -55.974487 549.63928
23.200272 -55.366226 548.17395
24.293182 -55.940887 550.41406
26.289444 -55.332993 548.93658
28.054062 -55.02095 548.38129
29.813019 -54.709091 547.81995
31.566261 -54.397491 547.25275
33.526749 -53.790497 545.74823
34.845482 -54.070313 547.03241
36.792007 -53.463791 545.51556
37.907394 -54.039352 547.72412
39.437683 -54.024109 548.06299
41.167389 -53.713654 547.46301
42.891434 -53.403427 546.8573
44.60984 -53.093399 546.24585
46.706665 -52.192978 543.75702
48.029732 -52.47406 545.00604
49.544403 -52.460022 545.3147
51.242889 -52.150925 544.68134
52.390884 -52.727722 546.85645
53.727898 -53.00943 548.09058
55.422554 -52.700943 547.44324
56.763977 -52.982971 548.66937
58.110199 -53.265152 549.89197
59.62986 -53.252396 550.17065
61.315178 -52.944733 549.50391
62.994926 -52.637299 548.83179
64.829956 -52.035065 547.21246
66.337746 -52.023193 547.47156
68.000809 -51.716507 546.78357
69.352242 -52.000031 547.97656
70.858986 -51.988739 548.22247
72.217506 -52.272598 549.40802
73.871437 -51.966782 548.70123
75.377174 -51.9561 548.93408
76.742485 -52.240524 550.10779
78.250168 -52.230225 550.3324
80.02739 -51.630417 548.66071
81.264626 -52.210266 550.76855
82.771416 -52.200562 550.9801
84.532204 -51.601456 549.29333
86.157799 -51.297409 548.54822
87.412003 -51.87796 550.64148
89.153847 -51.279587 548.93945
90.651482 -51.270935 549.1286
92.148849 -51.262497 549.31354
93.869225 -50.664825 547.59619
95.251877 -50.951538 548.72144
96.852386 -50.649033 547.94379
98.447487 -50.346756 547.16132
99.733322 -50.92868 549.22473
101.12798 -51.216125 550.33459
102.81595 -50.619812 548.58862
104.30631 -50.612991 548.73932
105.79646 -50.606369 548.88593
107.28642 -50.59993 549.02832
108.86198 -50.299118 548.21484
110.34899 -50.29306 548.34863
111.75517 -50.581818 549.43066
113.32246 -50.281601 548.604
114.80893 -50.276138 548.72546
116.29526 -50.270905 548.84283
117.78142 -50.265808 548.95605
119.33517 -49.966415 548.11194
120.88361 -49.667221 547.26337
122.48932 -49.073715 545.45673
123.96461 -49.069427 545.5528
125.49718 -48.770828 544.69092
126.91481 -49.061432 545.73285
128.442 -48.763229 544.86249
129.86456 -49.054184 545.89661
131.33926 -49.050873 545.97247
132.81389 -49.047684 546.04413
134.33035 -48.750259 545.1571
135.80222 -48.747482 545.22064
137.31079 -48.450439 544.3252
138.74571 -48.742462 545.33557
140.24898 -48.445801 544.43188
141.68892 -48.73819 545.43439
143.13396 -49.030777 546.43304
144.60799 -49.029083 546.47241
146.08199 -49.027603 546.50781
147.55592 -49.026276 546.53912
149.02985 -49.025116 546.56635
150.50372 -49.02417 546.5896
151.97758 -49.023392 546.60883
153.44298 -49.317245 547.57965
154.9135 -49.611267 548.54651
156.39247 -49.611053 548.55371
157.87071 -49.905411 549.51239
159.35225 -49.905548 549.51147
160.83379 -49.905884 549.50653
162.31534 -49.906372 549.49744
163.78732 -49.612625 548.52875
165.242 -49.024628 546.6004
166.7159 -49.025665 546.57928
168.17249 -48.732483 545.59869
169.60408 -48.14502 543.65869
171.09283 -48.441055 544.58112
172.61185 -49.031723 546.45471
174.1136 -49.328125 547.36871
175.65077 -49.919174 549.2337
177.13275 -49.921524 549.18414
178.61481 -49.924057 549.13049
180.09692 -49.926758 549.07275
181.49809 -49.340714 547.10132
182.97523 -49.343796 547.03571
184.45247 -49.347061 546.96606
185.92981 -49.350479 546.89227
187.30559 -48.765121 544.90582
188.83139 -49.063416 545.77838
190.30649 -49.067444 545.69263
191.9574 -49.955154 548.46429
193.44048 -49.959534 548.36981
194.98743 -50.258652 549.22479
196.60596 -50.852524 551.02869
198.16609 -51.152023 551.87451
199.51712 -50.568115 549.85699
201.08014 -50.868042 550.6944
202.57185 -50.873596 550.57471
203.98453 -50.584808 549.4986
205.474 -50.590729 549.37079
206.96365 -50.596863 549.23889
208.36655 -50.308578 548.15118
209.94354 -50.609711 548.96265
211.34166 -50.321793 547.86713
213.01892 -50.918015 549.62067
214.51218 -50.92514 549.46771
216.00562 -50.932449 549.31049
217.4993 -50.939972 549.14917
219.09824 -51.242371 549.93335
220.48735 -50.955597 548.81384
222.20216 -51.553177 550.53833
223.81476 -51.856262 551.30841
225.08664 -51.275284 549.22784
226.70235 -51.578796 549.98914
228.0824 -51.292953 548.84967
229.45752 -51.007278 547.7066
230.95349 -51.016586 547.5072
232.57806 -51.320938 548.25043
234.07721 -51.330688 548.04218
235.44315 -51.045776 546.88348
236.94028 -51.055862 546.66693
238.57643 -51.36113 547.3916
240.07678 -51.371658 547.16608
241.72134 -51.677338 547.88086
243.51788 -52.278244 549.53479
245.3251 -52.87941 551.18268
246.83977 -52.890884 550.93781
248.66325 -53.492554 552.57434
250.18382 -53.504471 552.31982
251.54532 -53.221512 551.11871
253.06403 -53.233795 550.85571
254.41846 -52.951172 549.64703
255.93532 -52.963837 549.37561
257.45258 -52.97673 549.09973
258.97018 -52.989792 548.8194
260.66324 -53.298233 549.47382
262.18427 -53.311707 549.18396
263.52548 -53.030151 547.95135
265.04474 -53.044006 547.65308
266.74982 -53.353333 548.28741
268.27249 -53.367554 547.97943
269.98627 -53.677353 548.60321
271.70563 -53.987335 549.22119
273.43066 -54.297592 549.83362
275.16132 -54.608047 550.44025
276.49554 -54.327866 549.17316
277.82504 -54.047821 547.90265
279.14975 -53.767883 546.6286
280.67859 -53.783554 546.28333
281.9964 -53.503876 545.00177
283.73761 -53.815445 545.57886
285.05112 -53.536026 544.28918
287.01779 -54.14357 545.7854
288.55151 -54.160049 545.41608
289.86121 -53.880997 544.11359
291.84753 -54.48912 545.59113
294.07458 -55.393265 547.98865
295.62067 -55.410385 547.59778
297.40222 -55.723434 548.12799
299.18945 -56.036621 548.65198
300.26166 -55.462402 546.39624
301.80957 -55.479935 545.98608
303.60342 -55.793457 546.4942
305.15485 -55.811127 546.07355
306.95746 -56.124893 546.56982
308.76575 -56.438721 547.05969
310.06775 -56.160599 545.7027
311.36499 -55.882446 544.34235
312.91858 -55.900299 543.89722
314.73639 -56.214325 544.36523
316.02695 -55.936066 542.99231
317.85083 -56.250107 543.44891
319.95203 -56.860367 544.81464
321.78973 -57.174454 545.25739
323.63303 -57.48848 545.69342
325.48193 -57.802505 546.12299
327.3364 -58.116486 546.5459
329.19638 -58.430374 546.9621
331.34937 -59.040558 548.28235
332.93289 -59.057816 547.77435
335.10211 -59.667786 549.07947
336.39594 -59.388214 547.65143
337.3866 -58.811798 545.31268
338.96814 -58.828094 544.7854
340.85309 -59.14064 545.15863
342.13147 -58.859695 543.71558
344.94739 -60.061417 546.78833
346.53958 -60.076401 546.23724
348.13168 -60.090942 545.68109
350.04016 -60.401718 546.02106
351.63464 -60.415314 545.45398
352.90723 -60.131653 543.98279
355.47156 -61.034378 546.10126
356.7435 -60.749466 544.62
358.66901 -61.057495 544.92841
360.59927 -61.364822 545.22986
362.19943 -61.374649 544.63019
363.46149 -61.086792 543.13226
365.73798 -61.688629 544.30853
366.65326 -61.102127 541.91064
369.28397 -61.999039 543.96356
370.5376 -61.707458 542.44855
372.13559 -61.7117 541.81921
374.08563 -62.011703 542.07233
376.03967 -62.310516 542.31879
377.63919 -62.311172 541.67352
380.68146 -63.498138 544.55994
382.28845 -63.496109 543.90155
383.8938 -63.492661 543.23883
386.97275 -64.67514 546.09491
387.84186 -64.074783 543.65991
389.07248 -63.769608 542.10364
391.42572 -64.353271 543.17816
393.78693 -64.935013 544.2442
395.7742 -65.217972 544.4267
398.14832 -65.795639 545.47723
399.75598 -65.777634 544.77356
402.13977 -66.350906 545.81018
404.13849 -66.625061 545.9679
404.95502 -66.006912 543.51123
406.9494 -66.276245 543.66125
409.34503 -66.839539 544.67328
411.34451 -67.103455 544.81146
414.15466 -67.957443 546.6745
416.56839 -68.511902 547.66418
418.57767 -68.76683 547.78381
421.82452 -69.907318 550.48322
423.01178 -69.563309 548.86957
423.7713 -68.920074 546.39697
-103.26654 -67.382126 548.82202
-100.43658 -66.541916 546.97723
-97.617203 -65.698425 545.1228
-94.001419 -64.26413 541.52588
-90.807999 -63.120514 538.78204
-88.428192 -62.561813 537.76355
-86.846893 -62.58844 538.47717
-85.2621 -62.612671 539.18762
-84.455734 -63.222748 541.63916
-83.635956 -63.830704 544.0918
-81.64566 -63.554276 543.92194
-80.423996 -63.864029 545.49731
-78.052811 -63.289368 544.44104
-76.067429 -63.006912 544.25427
-73.334076 -62.134186 542.30334
-71.35968 -61.848083 542.10187
-69.018219 -61.266083 541.01288
-66.685242 -60.682465 539.91534
-64.36087 -60.097351 538.8092
-63.132416 -60.393509 540.34753
-61.177628 -60.099792 540.11267
-59.940994 -60.393326 541.64429
-59.052322 -60.979843 544.06097
-57.800064 -61.27095 545.58868
-55.842819 -60.972458 545.33453
-54.929855 -61.555603 547.74561
-52.973267 -61.255051 547.48096
-51.362549 -61.247787 548.10217
-49.412231 -60.945465 547.82489
-46.794098 -60.05394 545.75128
-44.858276 -59.750061 545.45825
-43.258072 -59.739594 546.05493
-41.329117 -59.434326 545.74908
-39.730713 -59.422546 546.33496
-38.131958 -59.410126 546.91577
-35.89209 -58.809036 545.69067
-33.980316 -58.501526 545.35822
-32.073654 -58.193604 545.01892
-30.172104 -57.885239 544.67267
-28.895569 -58.164429 546.12799
-26.999161 -57.855301 545.76984
-25.412704 -57.839798 546.31091
-23.826263 -57.823929 546.84686
-21.641205 -57.220078 545.56232
-20.060287 -57.20372 546.08649
-18.77359 -57.480927 547.51508
-16.315918 -56.582733 545.29889
-15.029617 -56.859512 546.71741
-13.452072 -56.842316 547.22046
-11.024033 -55.943939 544.97998
-9.7359009 -56.22023 546.38428
-8.1644287 -56.202698 546.87054
-6.0419159 -55.59787 545.5213
-4.7494812 -55.873871 546.91223
-3.1816711 -55.856125 547.38275
-1.3464203 -55.544876 546.93066
-0.047241211 -55.820633 548.30902
1.5194397 -55.802826 548.76459
3.0856628 -55.785065 549.21527
4.651474 -55.767288 549.66101
6.4715881 -55.456192 549.18036
8.5381165 -54.851852 547.77112
10.094788 -54.834274 548.19983
12.391541 -53.936951 545.85291
13.695221 -54.21286 547.19403
15.003693 -54.48877 548.53174
17.03392 -53.885162 547.08887
18.816833 -53.574936 546.56488
19.892761 -54.144302 548.81592
22.13446 -53.248062 546.42609
23.902908 -52.938309 545.88434
25.439743 -52.921814 546.26563
26.976135 -52.905411 546.64209
28.512054 -52.88916 547.01385
30.047501 -52.873062 547.38092
31.582504 -52.857101 547.74323
33.329887 -52.548386 547.16876
34.861351 -52.532776 547.52118
36.807663 -51.93158 546.00214
38.12796 -52.209198 547.27802
39.857895 -51.901306 546.6814
41.182526 -52.179169 547.9491
43.103577 -51.578934 546.40649
44.819153 -51.271683 545.79327
46.529129 -50.964645 545.17426
48.233429 -50.657867 544.5498
49.558502 -50.93663 545.79529
51.072578 -50.922897 546.09894
52.404625 -51.201965 547.33698
53.920479 -51.188568 547.63214
55.259499 -51.468002 548.86279
56.950943 -51.16246 548.20923
58.294388 -51.442169 549.43182
59.811264 -51.429535 549.70953
61.327736 -51.41713 549.98291
63.170662 -50.820007 548.36743
64.681221 -50.807999 548.63092
66.349632 -50.503799 547.94696
68.012497 -50.199829 547.25769
69.516769 -50.188507 547.50726
71.020699 -50.177353 547.75238
72.376442 -50.458771 548.93805
74.027557 -50.155701 548.22968
75.530495 -50.145142 548.46179
76.752953 -50.719376 550.5816
78.397934 -50.416946 549.85944
80.037407 -50.114761 549.13226
81.274483 -50.689468 551.24139
82.910782 -50.387695 550.50519
84.668747 -49.79393 548.8161
86.166969 -49.784851 549.01788
87.542976 -50.068085 550.16382
89.281998 -49.475037 548.45953
90.660057 -49.758667 549.59735
92.271423 -49.458221 548.83252
93.765747 -49.450119 549.0127
95.15081 -49.734283 550.13873
96.860123 -49.14241 548.40991
98.351158 -49.134903 548.57715
99.740677 -49.419647 549.69122
101.23384 -49.412521 549.8504
102.82291 -49.113556 549.05377
104.31306 -49.106827 549.20435
105.89397 -48.808289 548.39862
107.38114 -48.801971 548.54065
109.0397 -48.211838 546.77325
110.52135 -48.205917 546.90649
111.92219 -48.492126 547.98859
113.40606 -48.486588 548.11383
114.88977 -48.481232 548.23492
116.30043 -48.76799 549.30554
117.8567 -48.471069 548.46478
119.33995 -48.466263 548.57355
120.95334 -47.877808 546.76978
122.49371 -47.581497 545.91559
123.9688 -47.577286 546.0116
125.50118 -47.281372 545.1488
126.97345 -47.277527 545.23651
128.44562 -47.273865 545.32013
129.91766 -47.270386 545.39972
131.38962 -47.26712 545.47534
132.86148 -47.264008 545.54681
134.37517 -46.969223 544.65881
135.84427 -46.966476 544.72211
137.2765 -47.255783 545.73718
138.74803 -47.253387 545.79254
140.21948 -47.251205 545.84387
141.69087 -47.249207 545.89124
143.1622 -47.247345 545.93445
144.63348 -47.245682 545.97375
146.12604 -46.952393 545.0528
147.5759 -47.24292 546.04022
149.03088 -47.53363 547.02374
150.50458 -47.532669 547.04694
151.97826 -47.531921 547.06616
153.44347 -47.823151 548.03772
154.91968 -47.822754 548.04889
156.39259 -48.114349 549.01251
157.87065 -48.406143 549.97211
159.35014 -48.114456 549.01471
160.82892 -48.114761 549.0097
162.30772 -48.11525 549.00067
163.76735 -47.532288 547.07483
165.22885 -47.241333 546.10138
166.7 -47.242355 546.08038
168.15384 -46.951736 545.099
169.60257 -46.661301 544.11377
171.09114 -46.954697 545.03699
172.60997 -47.540115 546.91223
174.11153 -47.833908 547.82715
175.6183 -48.127853 548.73779
177.13029 -48.421997 549.64423
178.61217 -48.424515 549.5907
180.0941 -48.42717 549.53302
181.53561 -48.138184 548.51575
182.97205 -47.84935 547.49463
184.4491 -47.852539 547.42499
185.92624 -47.855927 547.35132
187.35268 -47.567627 546.31848
188.82747 -47.571411 546.23694
190.35834 -47.867203 547.10596
191.95308 -48.455185 548.92548
193.37482 -48.167587 547.87665
194.9827 -48.755936 549.68707
196.53474 -49.052582 550.53851
197.95433 -48.765564 549.47766
199.3689 -48.478699 548.41296
200.85252 -48.483978 548.29822
202.48953 -49.073364 550.086
203.89944 -48.787048 549.0094
205.38614 -48.792892 548.88202
206.87302 -48.79895 548.75055
208.36009 -48.805176 548.61493
209.84735 -48.811615 548.47522
211.24269 -48.526199 547.37933
212.82246 -48.825027 548.18317
214.11578 -48.247925 546.12805
215.69856 -48.54718 546.9234
217.08185 -48.262482 545.81226
218.67026 -48.562134 546.59869
220.37166 -49.154099 548.33063
222.08365 -49.746353 550.05725
223.58067 -49.754578 549.87903
225.19333 -50.05513 550.64594
226.8114 -50.355927 551.40796
228.19382 -50.072601 550.26764
229.57135 -49.789429 549.12366
230.944 -49.50647 547.97626
232.56836 -49.80809 548.72058
234.06729 -49.817703 548.51257
235.43303 -49.535263 547.35333
237.06604 -49.83754 548.08374
238.70456 -50.14006 548.80908
240.06604 -49.8582 547.63776
241.56653 -49.868805 547.40826
243.50665 -50.756683 550.00958
245.16461 -51.060135 550.71484
246.82809 -51.363831 551.41486
248.49713 -51.667755 552.10968
250.01489 -51.67952 551.8559
251.3736 -51.399033 550.65479
252.72749 -51.118683 549.45013
254.24115 -51.130997 549.18396
255.92241 -51.436035 549.85492
257.43945 -51.448761 549.57941
258.95688 -51.4617 549.29944
260.4747 -51.474823 549.01501
261.63776 -50.902954 546.84686
263.15118 -50.916428 546.55444
264.66504 -50.930099 546.25757
266.17929 -50.943954 545.95612
267.88199 -51.250702 546.58777
269.78088 -51.850372 548.15076
271.49744 -52.157623 548.77063
273.41547 -52.757889 550.3208
274.94751 -52.772812 549.99335
276.48004 -52.787933 549.66132
278.01297 -52.803207 549.32458
279.34015 -52.525803 548.04962
280.66257 -52.248505 546.77118
281.98022 -51.971329 545.48926
283.5072 -51.987228 545.1358
285.03461 -52.003265 544.77759
286.7818 -52.312439 545.34534
288.31281 -52.328827 544.97723
289.84424 -52.345322 544.60431
291.83038 -52.948151 546.08411
293.82748 -53.551224 547.55658
295.60315 -53.861359 548.09418
297.38452 -54.171722 548.62579
298.93402 -54.189026 548.2251
300.48401 -54.206421 547.81958
301.30597 -53.344131 544.63519
302.849 -53.361618 544.22211
304.14441 -53.085876 542.88086
305.93646 -53.396835 543.38135
307.98746 -54.001312 544.7973
309.53754 -54.019135 544.36334
310.82953 -53.74353 543.00409
312.90021 -54.348328 544.40027
314.71796 -54.659714 544.86957
315.74213 -54.090576 542.57825
318.10147 -54.989136 544.87158
319.93359 -55.300644 545.3222
322.04562 -55.905807 546.68201
323.8916 -56.217361 547.11871
325.46359 -56.235168 546.63458
327.31812 -56.546646 547.05884
329.17822 -56.858063 547.47644
330.75641 -56.87558 546.97565
332.33484 -56.892944 546.46979
334.49893 -57.497833 547.77881
335.49234 -56.927139 545.44299
336.77344 -56.650024 544.01385
338.04932 -56.372543 542.5813
339.62341 -56.388718 542.05206
341.80927 -56.992523 543.32886
344.31421 -57.89006 545.50159
345.90158 -57.905334 544.95276
347.48886 -57.920197 544.3988
349.39252 -58.228714 544.74182
350.66315 -57.948578 543.27594
351.92838 -57.667908 541.80695
354.48532 -58.563202 543.93115
355.75 -58.281387 542.45221
358.32736 -59.175629 544.55884
359.92352 -59.186737 543.96625
361.85397 -59.491333 544.26385
362.77676 -58.912506 541.87201
365.38885 -59.804016 543.94519
366.30243 -59.22348 541.54675
368.9314 -60.113312 543.60327
370.53137 -60.119415 542.97852
372.48099 -60.418808 543.23822
374.08154 -60.422806 542.60303
376.0368 -60.720001 542.85028
377.63754 -60.721634 542.20477
379.95905 -61.310654 543.32465
382.28949 -61.898346 544.43579
383.89624 -61.896011 543.77264
385.87015 -62.186508 543.98688
387.47595 -62.181168 543.31409
388.70563 -61.879913 541.75757
390.68134 -62.165512 541.95587
393.03925 -62.743561 543.02527
395.40509 -63.319687 544.08624
397.39429 -63.599609 544.26392
400.15988 -64.465775 546.18329
401.76929 -64.447235 545.47394
403.37561 -64.426544 544.76111
404.18921 -63.815399 542.30383
406.18097 -64.084137 542.45587
408.57404 -64.644302 543.47058
411.37589 -65.495667 545.3446
412.97421 -65.462448 544.61133
416.19812 -66.601761 547.33386
419.02783 -67.443985 549.18091
420.63049 -67.401749 548.43146
422.64328 -67.650101 548.54089
425.49097 -68.482254 550.36566
-103.30634 -65.762283 549.35162
-100.47333 -64.927536 547.50598
-97.650986 -64.0896 545.65057
-93.628555 -62.374741 541.18359
-92.039551 -62.404694 541.91034
-88.45372 -60.97522 538.28607
-86.473999 -60.708603 538.13007
-86.069901 -61.605408 541.45612
-84.865372 -61.917221 543.03961
-83.652603 -62.226913 544.62183
-82.046021 -62.243042 545.32733
-80.053467 -61.965591 545.15259
-77.682922 -61.394577 544.09412
-76.076309 -61.404892 544.78467
-72.96582 -60.246964 541.95197
-71.365143 -60.253784 542.62988
-69.02211 -59.67572 541.53961
-66.687637 -59.096161 540.4408
-64.361877 -58.515121 539.33331
-62.769699 -58.515976 539.98755
-60.096756 -57.640564 537.97845
-59.223862 -58.222153 540.3952
-57.984741 -58.510925 541.92328
-56.739212 -58.798569 543.44879
-55.138107 -58.793503 544.08124
-54.22934 -59.370621 546.49188
-52.277084 -59.07196 546.2243
-51.012161 -59.355621 547.737
-48.386032 -58.472061 545.66858
-46.111252 -57.879364 544.48492
-43.846405 -57.285965 543.2923
-42.58432 -57.566513 544.78333
-40.660019 -57.263367 544.47449
-39.066269 -57.251114 545.05817
-37.1492 -56.946823 544.73645
-35.877914 -57.224915 546.21045
-33.647934 -56.628189 544.97455
-31.428314 -56.031097 543.7298
-30.156677 -56.307816 545.18884
-28.259964 -56.001373 544.83453
-26.675797 -55.985947 545.37939
-25.396225 -56.261459 546.82593
-23.809525 -56.245377 547.36151
-22.222931 -56.229004 547.89203
-20.933197 -56.503586 549.32697
-18.756134 -55.904312 548.02747
-16.589813 -55.304962 546.71948
-15.011887 -55.287811 547.22717
-13.148026 -54.979416 546.81696
-11.006119 -54.379852 545.48627
-9.4369049 -54.362366 545.97632
-7.5897217 -54.053802 545.54608
-6.0238037 -54.036163 546.02533
-4.4582214 -54.018478 546.49957
-2.8930206 -54.000748 546.96881
-1.3282013 -53.982986 547.43311
-0.028961182 -54.256088 548.81171
1.8002319 -53.947433 548.34674
3.3638 -53.929703 548.7962
5.4415894 -53.330414 547.39752
6.999054 -53.312805 547.83563
8.5560913 -53.295212 548.26874
10.362137 -52.986984 547.77319
12.409302 -52.388245 546.34692
13.468704 -52.952209 548.61359
15.262894 -52.644348 548.10065
17.290329 -52.046066 546.65491
18.834137 -52.029099 547.05609
20.377487 -52.012238 547.45245
22.151474 -51.705002 546.91547
23.919769 -51.397949 546.37238
25.456482 -51.381516 546.75311
26.992706 -51.365234 547.12915
28.528473 -51.349075 547.50043
30.063766 -51.333084 547.867
31.383163 -51.607529 549.16119
33.345802 -51.011246 547.65308
35.087326 -50.705475 547.07141
37.0308 -50.109695 545.54974
38.348358 -50.384811 546.82532
40.277893 -49.789459 545.29144
41.796944 -49.774734 545.62256
43.512756 -49.470062 545.01263
44.83374 -49.745834 546.271
46.351486 -49.731659 546.58844
47.868805 -49.717651 546.90125
49.385696 -49.703842 547.20959
50.902168 -49.690216 547.51337
52.418236 -49.676773 547.81262
54.112862 -49.37355 547.1673
55.801888 -49.070587 546.51648
57.485321 -48.767838 545.86023
58.649605 -49.335052 548.02338
60.329666 -49.03273 547.35773
61.838142 -49.020523 547.62933
63.509651 -48.718643 546.95343
65.014801 -48.706848 547.21576
66.519592 -48.695206 547.47363
68.02401 -48.683807 547.72717
69.681107 -48.382828 547.03156
70.881386 -48.95134 549.16638
72.23954 -49.23024 550.35291
73.893028 -48.929871 549.64374
75.255699 -49.209122 550.82239
76.48317 -49.778198 552.94427
78.270569 -49.188828 551.2746
79.912422 -48.889328 550.54663
81.416496 -48.879715 550.7616
83.050003 -48.580658 550.02386
84.678009 -48.28186 549.28125
86.300583 -47.983292 548.53363
87.673805 -48.264053 549.67981
89.171295 -48.255447 549.87268
90.66851 -48.24704 550.0614
92.165482 -48.238831 550.24585
93.773796 -47.941315 549.4754
95.267685 -47.933502 549.65106
96.761337 -47.925888 549.82257
98.358597 -47.628998 549.03833
99.849197 -47.62178 549.20117
101.24091 -47.904205 550.31189
102.92586 -47.318497 548.56189
104.50676 -47.022461 547.75934
105.99136 -47.016052 547.90503
107.5641 -46.720459 547.09351
109.13152 -46.425018 546.27722
110.69358 -46.129822 545.45642
112.16969 -46.124176 545.5849
113.5676 -46.408081 546.66333
114.9705 -46.692169 547.7381
116.52415 -46.397736 546.90027
117.93191 -46.682159 547.96722
119.4801 -46.388107 547.12079
121.08812 -45.804962 545.31494
122.62314 -45.511337 544.45953
124.03291 -45.796494 545.51038
125.56252 -45.503235 544.64648
126.97721 -45.788727 545.68958
128.50143 -45.49585 544.81726
129.97072 -45.492447 544.89667
131.43991 -45.489212 544.97198
132.95352 -45.196884 544.08704
134.41994 -45.194046 544.15424
135.88628 -45.19133 544.21735
137.35254 -45.188828 544.27649
138.78453 -45.475708 545.28815
140.22159 -45.762787 546.29608
141.69279 -45.760803 546.34338
143.13748 -46.048203 547.34344
144.61115 -46.0466 547.38281
146.10609 -45.755905 546.461
147.55836 -46.043854 547.44928
149.04808 -45.753525 546.51935
150.51901 -45.752594 546.54248
151.98993 -45.751846 546.56158
153.46083 -45.751266 546.57672
154.92584 -46.0401 547.5451
156.39601 -46.329102 548.50946
157.87131 -46.618256 549.46979
159.35178 -46.907639 550.42621
160.83739 -47.197144 551.37848
162.31413 -46.908417 550.41217
163.78575 -46.619858 549.44189
165.25224 -46.331497 548.46765
166.71361 -46.043289 547.48944
168.18716 -46.044495 547.46436
169.64087 -45.756638 546.47827
171.11194 -45.758209 546.44531
172.63316 -46.338394 548.32208
174.13712 -46.629532 549.23773
175.61607 -46.631638 549.19244
177.16066 -47.212372 551.0564
178.64491 -47.214798 551.00275
180.09131 -46.928223 549.98865
181.49214 -46.352509 548.01422
182.9689 -46.355499 547.94879
184.40012 -46.069412 546.92316
185.8745 -46.072739 546.84973
187.29817 -45.787003 545.81641
188.87698 -46.369247 547.64648
190.35428 -46.373123 547.56073
191.8317 -46.377228 547.47101
193.37038 -46.670792 548.33246
194.85063 -46.675232 548.23438
196.33102 -46.679871 548.1322
197.88043 -46.974014 548.98071
199.29224 -46.689682 547.91559
200.77309 -46.694855 547.80115
202.40732 -47.278946 549.59094
203.81447 -46.995193 548.51404
205.38016 -47.290314 549.34076
206.86685 -47.296265 549.20947
208.26678 -47.013031 548.12079
209.66174 -46.729935 547.02838
211.23595 -47.025864 547.83795
212.62616 -46.743134 546.73785
214.10867 -46.750046 546.58643
215.69124 -47.04657 547.38275
217.17676 -47.053848 547.22266
218.66252 -47.06131 547.05841
220.2561 -47.35849 547.84113
222.07547 -48.234879 550.52069
223.68506 -48.532516 551.29321
225.18472 -48.540848 551.11072
226.92052 -49.128464 552.82367
228.42587 -49.137207 552.63196
229.56216 -48.277451 549.5885
231.0603 -48.28653 549.38928
232.55875 -48.295822 549.18585
233.79573 -47.726074 547.08191
235.15611 -47.446091 545.92285
236.78372 -47.745605 546.65515
238.2782 -47.755676 546.43536
239.77296 -47.76593 546.2113
241.4119 -48.066116 546.9292
243.34915 -48.945999 549.53363
245.15331 -49.536438 551.18585
246.81656 -49.837387 551.88708
248.33118 -49.848801 551.63849
249.84613 -49.860397 551.3855
251.20206 -49.582352 550.18433
252.39117 -49.014618 548.03644
254.06403 -49.31662 548.71436
255.74246 -49.618912 549.38702
257.25668 -49.631454 549.1123
258.77133 -49.644257 548.83325
260.28635 -49.657227 548.54968
261.62421 -49.380417 547.32123
262.95728 -49.10376 546.08936
264.28555 -48.827225 544.85388
266.16516 -49.421021 546.43176
267.67966 -49.434937 546.12622
269.57571 -50.029236 547.69189
271.48264 -50.62381 549.25079
273.40042 -51.218689 550.80298
274.93228 -51.233521 550.47607
276.66559 -51.538681 551.08002
277.79376 -50.97345 548.87317
279.11819 -50.698502 547.59845
280.43787 -50.423706 546.32025
281.75275 -50.148972 545.03851
283.27692 -50.164719 544.6861
284.80157 -50.180618 544.32904
286.32672 -50.196686 543.96729
288.07416 -50.503281 544.53162
289.60284 -50.519684 544.15991
291.3591 -50.82666 544.71295
293.81021 -52.005356 548.04669
295.35339 -52.022278 547.65747
297.13199 -52.32988 548.19098
298.91632 -52.637695 548.71844
300.22601 -52.364395 547.38721
301.28812 -51.800507 545.12701
303.3219 -52.399307 546.56409
304.12643 -51.544769 543.37286
306.16901 -52.143845 544.79816
307.96924 -52.452286 545.29291
309.51929 -52.470062 544.85944
311.0697 -52.487885 544.42102
313.14294 -53.087448 545.8186
314.172 -52.523636 543.52954
315.99017 -52.832443 543.99536
317.54495 -52.850357 543.5365
319.3718 -53.159225 543.99005
321.47858 -53.759125 545.35364
323.31931 -54.068054 545.79327
324.88614 -54.085922 545.3114
327.29977 -54.976974 547.56683
329.15994 -55.285873 547.98572
330.45081 -55.012375 546.57294
332.31683 -55.321075 546.9801
333.89563 -55.338425 546.46967
334.88409 -54.773102 544.1344
335.86212 -54.207443 541.79742
337.13049 -53.932755 540.36719
339.60657 -54.823074 542.56293
341.79272 -55.421906 543.84186
