ply
format ascii 1.0
comment PCL generated
element vertex 1588
property float x
property float y
property float z
element camera 0
property float view_px
property float view_py
property float view_pz
property float x_axisx
property float x_axisy
property float x_axisz
property float y_axisx
property float y_axisy
property float y_axisz
property float z_axisx
property float z_axisy
property float z_axisz
property float focal
property float scalex
property float scaley
property float centerx
property float centery
property int viewportx
property int viewporty
property float k1
property float k2
end_header
-30.665466 214.02966 551.92743
-28.784973 213.85052 551.52869
-27.853699 214.15181 553.92999
-25.665512 213.81299 552.58337
-24.106888 213.79446 553.10291
-22.242508 213.61612 552.67902
-20.38414 213.43803 552.24823
-18.531784 213.26016 551.81061
-17.282608 213.40234 553.24811
-15.437027 213.22491 552.79877
-13.890717 213.20757 553.28522
-14.089203 214.14917 559.427
-13.968781 214.93085 564.62933
-12.966583 215.23325 566.99976
-10.257889 214.57745 563.69348
-7.8511047 214.08176 561.32245
-3.518158 212.46886 552.31036
-0.61291504 211.65483 548.01849
1.4485626 211.32007 546.56085
2.959549 211.30478 546.99475
5.2709503 210.811 544.57269
7.3015594 210.47714 543.09265
11.415329 208.86758 533.99017
15.216919 207.41821 525.82123
17.944519 206.60727 521.44812
20.137512 206.11557 518.97137
22.816818 205.30544 514.57678
24.971985 204.81447 512.08167
26.618713 204.64252 511.49026
28.746597 204.15216 508.97986
29.653915 204.45862 511.24811
31.047646 204.44662 511.59872
32.205177 204.59406 512.90387
33.134338 204.90086 515.16547
34.073402 205.20776 517.42542
35.933716 204.87796 515.84125
37.107407 205.02597 517.13409
38.953659 204.69662 515.53857
40.789017 204.36755 513.93646
42.396065 204.19785 513.29089
43.997421 204.02834 512.64008
45.593117 203.85904 511.98404
46.763908 204.00809 513.25238
48.146507 203.99818 513.55237
49.324203 204.14749 514.81433
50.910324 203.97891 514.1405
52.291588 203.96954 514.42859
54.065704 203.64236 512.77765
55.634987 203.4744 512.08868
57.007248 203.46555 512.36328
58.001411 203.77469 514.57208
59.191818 203.925 515.80945
60.203384 204.23433 518.01385
61.043846 204.70264 521.18701
62.256462 204.85329 522.41699
63.825684 204.68639 521.70099
65.21608 204.67848 521.95209
66.77684 204.51193 521.22681
68.668327 204.02795 518.55103
70.212898 203.86179 517.81531
71.751976 203.69579 517.07489
73.125191 203.68869 517.30396
74.340332 203.84052 518.50385
75.71553 203.83369 518.72571
76.632614 204.30318 521.87012
77.564911 204.77274 525.01318
78.217529 205.55972 530.10736
78.461121 206.82278 538.13147
79.030319 207.76846 544.2038
79.630241 208.71414 550.27667
80.260872 209.65982 556.35004
81.191277 210.28824 560.46747
82.274017 210.75809 563.60535
83.24263 211.38663 567.71997
84.10482 212.17384 572.81256
85.737869 212.00951 572.02728
87.365517 211.84535 571.23737
89.225891 211.3642 568.48242
90.954094 211.04179 566.70203
93.013481 210.2439 561.97412
94.490265 210.23892 562.14441
95.966835 210.23413 562.31079
97.443214 210.22943 562.47314
99.022995 210.06635 561.64972
100.49641 210.06194 561.80396
102.0681 209.89914 560.9718
103.53861 209.89496 561.1178
105.00894 209.89091 561.26001
106.4791 209.88699 561.39819
107.94911 209.88319 561.53253
109.41898 209.87952 561.66296
110.97168 209.7175 560.80554
112.43867 209.71405 560.92792
113.90554 209.71074 561.04639
115.37227 209.70755 561.16101
116.83888 209.70445 561.27167
118.37549 209.54306 560.39368
119.77173 209.69864 561.48145
121.23798 209.69591 561.58057
122.70412 209.69328 561.67578
124.11034 209.84918 562.75262
125.57885 209.8468 562.84033
127.10197 209.68608 561.93823
128.51561 209.84232 563.00397
129.98387 209.84024 563.08002
131.45206 209.83829 563.15216
132.92015 209.83643 563.22046
134.3045 210.15149 565.25793
135.81688 209.99146 564.33215
137.28735 209.98993 564.38904
138.6895 210.3053 566.41559
140.19656 210.1456 565.47803
141.72743 209.82762 563.5495
143.32722 209.03461 558.65576
144.90126 208.24173 553.75751
146.49213 207.1322 546.88055
148.00957 206.33957 541.97351
149.50127 205.54706 537.06232
150.92656 205.22977 535.10883
152.35254 204.7542 532.16425
153.75465 204.43713 530.20331
155.15819 203.80341 526.26385
156.53787 203.32816 523.30811
157.90215 202.853 520.34875
159.25468 202.69467 519.36053
160.58884 202.06134 515.40674
161.9304 202.06161 515.39899
163.25285 201.74521 513.41296
164.56505 201.42891 511.42361
165.91109 201.58783 512.3927
167.26228 201.74686 513.35822
168.59882 201.74759 513.33301
169.95779 201.9068 514.29132
171.3719 202.3829 517.22028
172.71883 202.38394 517.18427
174.12602 202.70184 519.11853
175.51086 202.86148 520.06213
176.90091 203.02121 521.00201
178.18262 202.70584 518.97815
179.49452 202.54898 517.93774
180.75836 202.23383 515.90759
182.05754 202.07715 514.8606
183.39977 202.07898 514.79663
184.74207 202.0809 514.729
186.08444 202.08293 514.65796
187.48274 202.24347 515.56909
188.82788 202.24571 515.49084
190.11211 202.08961 514.42346
191.45483 202.09204 514.3382
192.79767 202.09459 514.24939
194.14063 202.09723 514.1571
195.55493 202.25842 515.04602
196.90067 202.26129 514.94641
198.24652 202.26425 514.8432
199.67149 202.42581 515.7207
201.1833 202.74593 517.57813
202.6214 202.90771 518.44733
204.06477 203.06961 519.3125
205.60274 203.39015 521.15692
206.87555 203.23532 520.04749
208.14337 203.0806 518.935
209.30919 202.76746 516.83673
210.66405 202.77144 516.70056
211.9169 202.617 515.57867
213.37425 202.77974 516.41724
214.72961 202.78409 516.2702
216.30496 203.10562 518.08185
217.89079 203.42732 519.88873
219.60219 203.90776 522.67133
221.21161 204.2298 524.46814
222.83157 204.55197 526.25995
224.58484 205.03293 529.02637
226.60455 205.8313 533.74591
229.0341 207.10571 541.39526
232.02728 209.01497 552.95001
234.81644 210.60732 562.53583
237.11473 211.56543 568.19873
239.16771 212.20648 571.89795
240.39653 211.89575 569.72675
241.47186 211.42645 566.57605
242.82401 211.2746 565.3764
244.31992 211.28159 565.1496
245.81613 211.28873 564.9187
247.62018 211.61346 566.63409
249.27852 211.77966 567.36884
250.94238 211.94604 568.09863
252.61176 212.11261 568.82343
253.9584 211.96181 567.59595
255.46693 211.96991 567.3382
257.14511 212.13699 568.04901
258.65698 212.14545 567.78241
260.16919 212.15405 567.5116
261.85886 212.32169 568.20776
263.37445 212.33064 567.92798
265.25494 212.65756 569.58453
266.96136 212.82578 570.26495
268.86081 213.15314 571.90936
271.15109 213.79861 575.48511
273.46259 214.4444 579.05231
275.40488 214.77255 580.67542
277.55579 215.25995 583.25916
278.72079 214.95261 581.00159
279.46988 214.32732 576.80933
280.40424 213.8611 573.58246
281.11536 213.23592 569.38953
281.80615 212.61076 565.19659
282.90344 212.30383 562.93164
283.77484 211.83789 559.70117
284.63113 211.37204 556.46985
285.02997 210.58792 551.31335
285.40326 209.8038 546.15845
285.97748 209.17883 541.96619
286.30234 208.39468 536.81421
286.60168 207.61049 531.66406
287.34396 207.14481 528.43408
288.07117 206.67917 525.20361
288.78326 206.21359 521.97278
289.72232 205.90738 519.69867
290.4068 205.44189 516.46643
291.32349 205.13586 514.18976
292.23032 204.8299 511.91147
293.37976 204.68346 510.58606
295.03485 204.85605 511.16504
296.6958 205.02887 511.73825
298.36261 205.20193 512.30579
300.03522 205.37521 512.86743
301.71375 205.54877 513.42328
303.12988 205.56296 513.02319
304.8175 205.73694 513.56787
306.23755 205.75153 513.15814
307.93439 205.92595 513.69165
309.63708 206.10062 514.21912
310.78299 205.95609 512.84802
311.92432 205.81171 511.47403
313.0611 205.66745 510.09711
314.48248 205.68311 509.66098
316.19647 205.85876 510.16327
317.32733 205.71494 508.77496
319.04797 205.89102 509.26636
320.77454 206.06732 509.7515
322.50711 206.24387 510.23026
323.94052 206.26064 509.76373
326.91327 207.07765 513.98218
328.98203 207.41501 515.37598
331.06207 207.75266 516.76141
333.15338 208.09058 518.13849
334.93768 208.26865 518.57275
336.40698 208.28676 518.06677
337.55334 208.14481 516.62335
338.36884 207.84265 514.24518
340.49005 208.18163 515.58856
342.62247 208.52084 516.9231
345.43463 209.181 520.10651
350.62659 210.96414 529.77161
355.53812 212.58775 538.48346
359.1347 213.57037 543.4671
362.76379 214.55347 548.43347
366.07788 215.37656 552.45868
367.66843 215.39734 551.85425
369.6123 215.57874 552.16608
371.20657 215.59964 551.54956
373.15945 215.78122 551.84735
374.75735 215.80222 551.21887
376.35568 215.8232 550.58484
377.95435 215.84416 549.94525
379.92218 216.02589 550.2157
381.15271 215.88597 548.64954
383.50043 216.22849 549.81995
385.10553 216.24928 549.15613
386.71075 216.26996 548.48676
388.31598 216.2905 547.81177
390.6908 216.63287 548.94904
391.91388 216.4921 547.35309
394.69189 216.9953 549.38019
396.70016 217.1763 549.58411
398.31796 217.19592 548.87592
399.93536 217.21527 548.16229
401.95297 217.39548 548.34509
403.16852 217.25293 546.71887
405.59625 217.59369 547.78802
407.21625 217.61156 547.05048
409.65814 217.95157 548.10181
411.6955 218.12985 548.24719
413.73694 218.30762 548.38489
415.36295 218.32346 547.62164
-94.350204 219.70486 548.32373
-92.72551 219.68793 549.07245
-90.692276 219.50659 548.91754
-88.25856 219.161 547.85535
-85.834656 218.81509 546.78308
-84.619171 218.96021 548.40656
-82.60408 218.77744 548.22076
-80.987991 218.75809 548.93152
-80.15451 219.06577 551.44781
-77.754639 218.71851 550.33667
-75.751404 218.53476 550.12329
-74.136856 218.5144 550.81097
-71.760483 218.16679 549.67303
-69.394821 217.81918 548.52521
-68.541946 218.12543 551.01642
-66.187103 217.77768 549.85309
-64.583466 217.75679 550.50873
-62.980072 217.73581 551.15881
-61.012085 217.55147 550.88684
-59.411942 217.53043 551.52478
-57.812225 217.50941 552.15735
-55.856003 217.32513 551.86456
-53.905548 217.14096 551.56421
-52.312485 217.12006 552.17816
-50.022064 216.77292 550.94086
-48.089066 216.58907 550.61792
-46.162003 216.40536 550.28766
-44.581772 216.38483 550.87579
-42.663834 216.20139 550.53168
-41.087509 216.18106 551.10809
-39.178802 215.99792 550.75031
-37.606415 215.97787 551.31506
-35.707016 215.79507 550.94379
-34.463669 215.93811 552.42853
-32.248596 215.5929 551.11237
-30.684265 215.57346 551.65405
-29.120667 215.55414 552.19055
-27.872238 215.69769 553.6571
-25.372009 215.19072 551.37567
-24.125061 215.33459 552.83191
-22.567001 215.31598 553.34674
-20.401886 214.97243 551.97894
-18.850601 214.95424 552.48187
-17.300003 214.93622 552.97968
-16.046158 215.08086 554.41376
-14.20108 214.90076 553.96027
-14.106201 215.69531 559.15759
-14.273834 216.65216 565.30188
-12.983429 216.79715 566.72809
-10.557236 216.29297 564.36938
-8.147583 215.78918 562.00098
-4.0890656 214.31221 553.94141
-0.90330505 213.32263 548.70605
0.88873291 213.14461 548.19891
2.9445038 212.80464 546.73627
4.9891205 212.465 545.26593
7.0225677 212.12567 543.7879
11.40123 210.32773 533.73956
14.944031 209.01678 526.52716
17.674576 208.19257 522.15723
20.124359 207.53082 518.72943
22.80397 206.70747 514.3374
24.710693 206.37045 512.79877
26.606323 206.03374 511.25327
28.490967 205.6973 509.70074
29.641891 205.84683 511.01221
31.035812 205.83463 511.3631
31.957817 206.14633 513.62634
33.122787 206.29628 514.92908
34.29245 206.44638 516.22888
35.922508 206.27301 515.60547
37.321602 206.26166 515.93738
39.165466 205.92696 514.34241
40.778404 205.75424 513.70276
42.603065 205.42004 512.09534
43.987183 205.40948 512.40778
45.370819 205.39911 512.71625
46.754013 205.38889 513.02057
47.722664 205.7021 515.25073
49.110146 205.69217 515.54816
50.900879 205.35922 513.90955
52.282318 205.34969 514.19781
53.85997 205.17874 513.51514
55.43203 205.008 512.82733
56.615578 205.16049 514.0708
57.615059 205.47464 516.27997
58.99707 205.46588 516.54895
60.011322 205.78024 518.75336
60.854492 206.25616 521.92584
62.069832 206.40924 523.15613
63.641823 206.23958 522.44116
65.034943 206.23154 522.69299
66.598457 206.06224 521.96881
68.3246 205.73172 520.26733
70.040054 205.40143 518.56024
71.581863 205.2327 517.82092
72.957825 205.22546 518.05054
74.333458 205.2184 518.27643
75.708801 205.21147 518.49847
76.77861 205.5273 520.66675
77.70842 206.0045 523.80829
78.211075 206.96564 529.87592
78.599586 208.08801 536.92059
78.881699 209.37164 544.9433
79.484261 210.33272 551.01422
80.117546 211.29382 557.08557
81.050629 211.93246 561.2019
82.004105 212.57117 565.31696
83.107346 213.04874 568.45239
83.972214 213.84879 573.54327
85.607986 213.68176 572.75897
87.238365 213.51489 571.96991
89.101486 213.02585 569.21667
90.948914 212.53702 566.45752
92.894562 211.88722 562.71216
94.374039 211.8822 562.883
95.962082 211.71616 562.06879
97.438583 211.71138 562.23132
99.018494 211.54564 561.40845
100.49205 211.54114 561.56281
102.16233 211.21457 559.74908
103.63037 211.21033 559.89508
105.09825 211.20622 560.03705
106.56596 211.20224 560.17517
107.94537 211.35944 561.2923
109.50093 211.19463 560.43958
110.96819 211.19101 560.56586
112.4353 211.18752 560.68842
113.90228 211.18414 560.80701
115.4444 211.01987 559.93762
116.90855 211.01672 560.04816
118.44272 210.85266 559.17041
119.83649 211.01079 560.25769
121.30028 211.00803 560.35669
122.76397 211.00534 560.45178
124.16771 211.1638 561.5282
125.63377 211.16135 561.61572
127.09974 211.15903 561.6994
128.56561 211.15681 561.77924
130.03142 211.15469 561.85516
131.49713 211.15271 561.92731
132.96277 211.15085 561.99554
134.38649 211.31006 563.04602
135.85457 211.30838 563.10669
137.32257 211.30682 563.16345
138.72226 211.62735 565.18915
140.16374 211.78697 566.22485
141.72627 211.30284 563.31079
143.32619 210.49689 558.41913
144.8765 209.85205 554.50964
146.49133 208.56345 546.64899
148.02759 207.59692 540.75732
149.48454 207.11337 537.82172
150.92607 206.62996 534.88232
152.35216 206.14665 531.93903
153.75436 205.8244 529.97888
155.15216 205.34129 527.02808
156.53452 204.85828 524.07355
157.90073 204.53633 522.10242
159.25667 204.21451 520.12775
160.5979 203.73178 517.16254
161.93771 203.57108 516.16772
163.27238 203.41049 515.16956
164.58981 203.08904 513.18091
165.92639 203.0896 513.16266
167.28026 203.25121 514.12769
168.61945 203.25195 514.10242
169.95868 203.25281 514.07355
171.34792 203.5757 516.01453
172.71991 203.73773 516.96515
174.12723 204.06082 518.89856
175.47946 204.06207 518.85529
176.9023 204.38541 520.78113
178.18411 204.06491 518.75818
179.49611 203.90549 517.71808
180.71707 203.42419 514.70264
182.01376 203.26497 513.65619
183.35353 203.26683 513.59229
184.69336 203.26877 513.52472
186.03326 203.27084 513.45374
187.42911 203.43402 514.36462
188.71333 203.27527 513.30115
190.05351 203.27765 513.21954
191.45734 203.44113 514.11932
192.80028 203.44373 514.03046
194.14333 203.44643 513.93811
195.55777 203.61026 514.82654
196.90359 203.61316 514.72681
198.24957 203.61618 514.6236
199.83264 204.10248 517.46808
201.18657 204.10574 517.35706
202.62479 204.27014 518.22571
204.06828 204.43472 519.09039
205.51706 204.5994 519.95099
206.78741 204.44205 518.84216
208.05276 204.28479 517.73016
209.21611 203.96655 515.63293
210.66809 204.13168 516.47876
211.81888 203.81364 514.37561
213.27377 203.97903 515.21393
214.84134 204.30569 517.02911
216.41939 204.63249 518.83954
218.00795 204.95947 520.6452
219.72206 205.44775 523.42615
221.33421 205.77505 525.22162
222.83669 205.94136 526.03265
224.71289 206.59134 529.77692
226.60999 207.24155 533.51489
229.16772 208.698 542.13934
232.16373 210.6384 553.68848
234.82257 212.09552 562.29163
237.25677 213.23051 568.92932
239.31253 213.88206 572.62634
240.4032 213.40503 569.4787
241.62209 213.08936 567.30554
242.83093 212.77374 565.1297
244.32698 212.78085 564.90271
245.97453 212.94943 565.64685
247.62756 213.11816 566.38599
249.28607 213.28709 567.12012
250.9501 213.45621 567.84924
252.45808 213.46414 567.59979
253.96643 213.47223 567.34613
255.47513 213.4805 567.08826
257.15347 213.65031 567.7984
258.6655 213.65891 567.53162
260.35236 213.8291 568.23187
262.0448 213.99951 568.927
263.56317 214.00864 568.64642
265.26416 214.17943 569.33154
266.97076 214.3504 570.01123
268.68298 214.52161 570.68567
270.78088 215.01605 573.2915
273.28006 215.83392 577.82574
275.21997 216.16742 579.44818
277.17072 216.50116 581.06403
278.73148 216.51196 580.74066
279.48065 215.8765 576.54987
280.41516 215.40268 573.3241
281.12637 214.7673 569.13263
281.81729 214.13196 564.94116
282.91473 213.82004 562.67676
284.00226 213.50822 560.41028
284.6427 212.87305 556.21704
285.26282 212.23792 552.02417
285.63879 211.44101 546.87048
286.2157 210.80588 542.67914
286.54324 210.00894 537.52838
287.07693 209.37384 533.33881
287.59027 208.73872 529.1499
288.55707 208.4274 526.87775
289.27451 207.95425 523.64667
289.97681 207.48117 520.4151
290.66403 207.00812 517.18323
291.5835 206.69711 514.90643
292.49304 206.3862 512.62811
293.64526 206.23737 511.30203
295.04803 206.25073 510.92633
296.70917 206.42639 511.49881
298.37616 206.60226 512.06555
300.04898 206.77838 512.6264
301.46204 206.79257 512.23108
303.14401 206.96915 512.78094
304.56097 206.98375 512.37604
306.25208 207.16077 512.91473
308.22528 207.50031 514.39478
309.65204 207.51556 513.97412
310.7981 207.36865 512.60315
312.50763 207.5466 513.11914
313.64978 207.40002 511.74063
315.36591 207.57837 512.24585
316.79608 207.59453 511.80231
317.93237 207.44839 510.41241
319.36127 207.46487 509.96042
321.09067 207.64407 510.44385
322.52359 207.66092 509.98169
324.8725 208.16571 512.32977
327.23798 208.67087 514.66797
329.3096 209.01373 516.05957
331.70551 209.51956 518.37848
333.48663 209.70029 518.81757
335.27374 209.88126 519.25
337.0668 210.06242 519.67566
338.21857 209.91815 518.23041
339.03946 209.6111 515.85089
341.49506 210.1185 518.12122
343.30405 210.30035 518.52234
346.79016 211.29718 523.55804
351.65637 212.94649 532.28638
356.23669 214.43356 540.06372
359.83887 215.43217 545.04211
363.47357 216.4313 550.0033
366.09814 216.9415 552.17688
367.33856 216.79935 550.64954
369.27985 216.98357 550.96149
370.87146 217.00464 550.34552
373.53809 217.51556 552.48199
374.77777 217.37349 550.93372
376.37604 217.39468 550.29919
378.34085 217.57919 550.5752
379.94247 217.60037 549.92859
381.54437 217.62146 549.27643
383.89481 217.96942 550.44446
385.87921 218.15393 550.69073
387.48962 218.1748 550.01868
389.48218 218.35913 550.25055
391.48004 218.54337 550.47467
393.09564 218.56381 549.78375
394.71106 218.58401 549.08728
395.93344 218.44025 547.48047
398.33655 218.78738 548.58179
399.55548 218.64301 546.96527
400.76849 218.4982 545.3457
403.18597 218.8445 546.42371
405.20718 219.02661 546.59265
406.82404 219.04442 545.85602
410.08569 219.71747 548.7005
411.297 219.5704 547.05328
413.75192 219.91467 548.08563
415.37726 219.93039 547.3222
-94.778534 221.4758 548.91608
-93.151749 221.45889 549.6662
-91.116364 221.27496 549.51331
-88.275574 220.75769 547.55444
-86.254257 220.57298 547.38373
-84.237518 220.38791 547.20532
-82.622299 220.36887 547.92181
-81.400787 220.51581 549.5368
-79.781937 220.49606 550.24365
-77.773834 220.30978 550.03888
-76.157028 220.28954 550.73364
-74.156494 220.10286 550.51447
-71.780273 219.74991 549.37799
-69.792923 219.56302 549.14215
-68.186493 219.54218 549.81042
-66.207245 219.35512 549.56024
-64.233475 219.16803 549.30237
-62.632858 219.14694 549.9519
-61.032455 219.12576 550.59589
-59.070129 218.93864 550.31714
-57.11351 218.75156 550.03082
-55.876465 218.89626 551.57556
-53.571671 218.54343 550.35577
-51.981216 218.52231 550.96912
-50.391281 218.50125 551.57703
-48.109283 218.14883 550.33276
-46.182098 217.96225 550.00336
-44.601807 217.9415 550.59204
-42.345459 217.5896 549.32257
-40.771683 217.56908 549.89844
-38.865509 217.38312 549.54071
-37.29567 217.36285 550.10498
-35.726471 217.34268 550.66388
-34.158005 217.32269 551.21759
-31.945374 216.97202 549.90192
-30.703323 217.11771 551.3761
-29.139587 217.09814 551.91309
-27.891022 217.24403 553.37958
-26.014206 217.05949 552.97131
-24.452652 217.04044 553.49274
-22.891769 217.02153 554.00891
-21.33165 217.00281 554.51996
-19.169724 216.65399 553.14764
-17.914978 216.8008 554.58679
-16.359665 216.78264 555.0816
-14.511765 216.59967 554.62988
-14.123505 217.24197 558.88373
-14.291077 218.21417 565.02557
-13.000534 218.36151 566.45178
-10.856903 218.01419 565.03979
-8.1641235 217.33742 561.72827
-4.1051483 215.83673 553.67322
-2.0188904 215.49063 552.22998
0.8731842 214.65039 547.93481
2.9292145 214.30499 546.47351
4.9740753 213.9599 545.00439
7.2722168 213.45041 542.57751
11.910583 211.45891 531.58282
15.189316 210.29163 525.32458
17.917542 209.45422 520.95667
20.365005 208.78189 517.53027
22.539566 208.27454 515.04767
24.697876 207.76749 512.55652
26.34758 207.58994 511.96741
28.235062 207.24805 510.41678
29.629684 207.23547 510.77228
30.785469 207.38754 512.08063
31.945908 207.53976 513.38617
32.87796 207.85657 515.64716
33.819901 208.17345 517.90656
35.455368 207.99725 517.2851
36.859856 207.98566 517.61853
38.709145 207.64554 516.02594
40.767593 207.14136 513.46521
42.375 206.96609 512.82111
43.976753 206.79105 512.17163
45.360558 206.78049 512.48035
46.534256 206.93433 513.74884
47.505653 207.25256 515.97888
49.100357 207.07825 515.31213
50.689423 206.90414 514.64026
52.272888 206.73022 513.9632
53.850723 206.55653 513.28113
55.422951 206.38303 512.59406
56.798119 206.37386 512.86963
57.984001 206.52896 514.1095
59.174706 206.68416 515.34637
60.186493 207.00357 517.54956
61.027184 207.48714 520.72046
62.061569 207.80672 522.92017
63.457787 207.79836 523.17657
64.853661 207.79015 523.42902
66.419922 207.6181 522.70599
68.316978 207.11829 520.03406
69.867043 206.94664 519.30048
71.411606 206.77518 518.56219
72.950676 206.60388 517.81915
74.326469 206.59668 518.04517
75.54673 206.75354 519.24158
76.771866 206.91052 520.435
77.551727 207.55927 524.55042
78.204498 208.37192 529.64063
78.737961 209.34845 535.7066
79.01754 210.65268 543.72565
79.617592 211.62921 549.79376
80.248375 212.60574 555.8623
81.044426 213.41846 560.95392
81.997993 214.06741 565.06744
83.101357 214.55263 568.20172
83.712669 215.69307 575.24731
85.35376 215.52332 574.46417
86.989441 215.35376 573.67639
88.976959 214.69308 569.94598
90.827126 214.19638 567.18854
92.77552 213.53615 563.44537
94.369064 213.36728 562.63635
95.957245 213.19856 561.82275
97.327682 213.35742 562.96619
98.910316 213.189 562.1441
100.48761 213.02069 561.31744
102.05956 212.85257 560.48645
103.5303 212.84825 560.63275
105.00089 212.84406 560.77502
106.4713 212.84 560.91351
107.94156 212.83606 561.04803
109.49724 212.66859 560.1958
110.96461 212.6649 560.32227
112.43185 212.66135 560.44482
113.89895 212.65791 560.56348
115.36592 212.65459 560.67822
116.90546 212.48779 559.8053
118.29947 212.64832 560.89606
119.76607 212.64536 560.99921
121.29755 212.47893 560.11407
122.76135 212.4762 560.20917
124.10535 212.80078 562.26996
125.63138 212.6347 561.37286
127.09746 212.63232 561.4566
128.56345 212.63008 561.5365
130.02936 212.62793 561.61249
131.49518 212.6259 561.68463
133.00536 212.46042 560.7674
134.42662 212.62219 561.81738
135.89223 212.6205 561.87793
137.35779 212.61893 561.93475
138.755 212.94458 563.95953
140.19402 213.10678 564.99475
141.7541 212.61487 562.08185
143.29871 212.12308 559.16467
144.85172 211.46786 555.25702
146.46922 210.1586 547.39984
147.98946 209.34009 542.49707
149.48395 208.5217 537.59015
150.912 208.19405 535.63843
152.34076 207.70297 532.69647
153.74565 207.37555 530.73718
155.15198 206.72115 526.80115
156.53114 206.39392 524.83447
157.90002 206.06683 522.86426
159.25864 205.73979 520.89032
160.60254 205.24936 517.92645
161.93802 204.92255 515.94556
163.28236 204.9229 515.9342
164.59033 204.43274 512.95996
165.927 204.4333 512.94171
167.28098 204.59752 513.90631
168.62025 204.59828 513.88092
169.98201 204.7627 514.83838
171.3989 205.25433 517.76465
172.77614 205.41895 518.71466
174.15857 205.58371 519.66101
175.54619 205.74854 520.60358
176.90373 205.74992 520.55652
178.18564 205.42429 518.5343
179.49774 205.26233 517.49469
180.71878 204.77332 514.48047
182.01558 204.61154 513.43445
183.35544 204.61342 513.37042
184.69537 204.61542 513.30292
186.08865 204.7811 514.21692
187.48717 204.9469 515.12714
188.77408 204.78561 514.0639
190.11693 204.78802 513.98206
191.45988 204.79056 513.89673
192.80293 204.79318 513.8078
194.21478 204.95955 514.69946
195.56062 204.9624 514.60327
196.98042 205.12898 515.48718
198.4055 205.29572 516.36725
199.83585 205.46254 517.24329
201.27147 205.6295 518.1153
202.79652 205.96024 519.96625
204.07184 205.80016 518.86456
205.52075 205.96747 519.72455
206.79121 205.80762 518.61615
208.05667 205.64784 517.50446
209.31714 205.48817 516.38971
210.77182 205.65601 517.2348
212.02747 205.49655 516.11322
213.48764 205.66463 516.9505
214.84583 205.66911 516.80286
216.42401 206.00119 518.61237
218.12521 206.49716 521.39709
219.72697 206.82956 523.19647
221.33928 207.16212 524.99103
222.84187 207.33109 525.80145
224.71826 207.99155 529.54395
226.74089 208.81596 534.25842
229.4294 210.45961 543.85669
232.16975 212.10361 553.44421
235.09509 213.91176 563.99823
237.39896 214.90118 569.65497
239.3192 215.39938 572.37299
240.55084 215.07855 570.20282
241.629 214.59393 567.05389
242.83797 214.27332 564.87885
244.33417 214.28053 564.65161
245.98187 214.45181 565.39508
247.63507 214.62329 566.13367
249.29376 214.79495 566.86719
250.95795 214.96678 567.5957
252.46609 214.97485 567.34601
253.81046 214.81912 566.11945
255.31671 214.82751 565.86176
256.99265 215.00005 566.57166
258.67416 215.17281 567.27655
260.36124 215.34575 567.9762
262.23093 215.68292 569.64099
263.75201 215.69223 569.35974
265.45581 215.86578 570.04364
267.16522 216.03955 570.72223
268.88022 216.21353 571.39551
270.79089 216.55185 573.03131
273.09766 217.21869 576.59558
275.03519 217.55753 578.21741
276.98355 217.89664 579.83264
278.74237 218.07181 580.47546
279.2886 217.2619 575.32074
280.4263 216.94473 573.0614
281.34583 216.46341 569.83557
282.03946 215.8179 565.64502
282.92621 215.3367 562.4176
284.01389 215.01987 560.15167
284.65439 214.37451 555.9599
285.49588 213.89352 552.7298
285.87454 213.08383 547.57745
286.45416 212.43855 543.38696
287.01349 211.79327 539.19696
287.55246 211.14799 535.00757
288.07114 210.50275 530.81891
289.04327 210.18646 528.54602
289.76605 209.70578 525.31464
290.47369 209.22513 522.08282
291.41098 208.90909 519.80615
291.84372 208.26401 515.61823
292.75604 207.94809 513.33972
293.65845 207.63229 511.05963
295.31659 207.81053 511.63635
296.72275 207.82434 511.25534
298.38992 208.00304 511.82117
299.79993 208.01724 511.43069
301.74188 208.36116 512.93549
303.15839 208.37579 512.53467
304.57553 208.39063 512.12939
306.54041 208.73532 513.61487
308.24023 208.91547 514.146
309.94604 209.09583 514.67102
311.09488 208.94659 513.29938
312.52319 208.96243 512.8692
313.95215 208.97849 512.43451
315.38181 208.99469 511.99515
316.81213 209.01108 511.55121
318.24316 209.02765 511.10266
319.67487 209.0444 510.64941
321.4071 209.22647 511.13107
323.44781 209.57394 512.5451
325.49976 209.92169 513.95093
327.87079 210.435 516.28558
330.2583 210.94864 518.61011
332.34933 211.29736 519.98932
334.13593 211.48102 520.42578
335.92847 211.66489 520.85541
337.40601 211.68358 520.34583
338.56055 211.53699 518.89972
339.71045 211.39044 517.45044
341.51361 211.57495 517.85748
343.65433 211.92522 519.18646
347.14343 212.938 524.2179
352.0127 214.61374 532.94006
356.93567 216.29028 541.63757
360.88568 217.47057 547.53552
363.83878 218.1543 550.64246
366.81375 218.83838 553.73608
367.70929 218.52814 551.28491
369.65326 218.71521 551.59479
371.60312 218.9024 551.89722
373.55875 219.08969 552.19202
374.7984 218.94521 550.6438
376.76019 219.13254 550.92548
378.36142 219.15392 550.28387
379.96295 219.17523 549.63672
381.93628 219.36258 549.89758
384.28931 219.71597 551.06305
386.27631 219.90329 551.30731
388.26871 220.09052 551.54382
389.88428 220.11145 550.86353
392.2695 220.46469 551.99353
393.50269 220.319 550.39313
394.73035 220.17303 548.78961
397.13086 220.52573 549.89612
398.75073 220.54553 549.1861
399.57373 220.23218 546.66644
401.18716 220.25122 545.94794
403.20343 220.43631 546.12378
404.4119 220.28806 544.49493
406.84055 220.63879 545.55505
408.86734 220.8226 545.70905
410.89828 221.00592 545.85547
413.34998 221.35529 546.88788
414.97198 221.37082 546.12555
-96.032501 223.59047 551.29248
-93.98822 223.40448 551.15045
-91.132965 222.87973 549.20587
-88.697479 222.52371 548.1474
-85.869492 221.99829 546.17902
-83.85582 221.81064 546.00024
-82.640549 221.9606 547.61804
-81.025192 221.94118 548.32953
-79.409332 221.92142 549.03558
-78.182022 222.07027 550.64191
-75.790314 221.7122 549.5246
-73.792633 221.52286 549.30518
-71.800171 221.33336 549.07806
-69.434692 220.97501 547.93298
-67.831055 220.95403 548.60046
-65.854599 220.76427 548.35022
-63.883591 220.57443 548.09216
-62.65332 220.72182 549.65564
-61.053024 220.70047 550.30011
-58.728424 220.34201 549.10565
-57.493713 220.48917 550.65479
-55.897064 220.46777 551.28168
-53.946533 220.27792 550.98322
-52.00177 220.0882 550.67725
-50.411804 220.06689 551.28564
-48.476028 219.87735 550.9657
-46.202454 219.51964 549.71448
-44.281067 219.33038 549.37866
-42.36557 219.14127 549.03552
-40.791718 219.12051 549.61194
-38.885437 218.9317 549.25519
-37.645874 219.07928 550.74866
-36.073959 219.05887 551.30908
-34.177582 218.87051 550.93347
-32.287201 218.68237 550.55078
-31.042404 218.83038 552.02594
-28.841568 218.47467 550.69751
-27.910049 218.79086 553.09741
-26.033066 218.60345 552.69012
-24.471329 218.58414 553.21198
-22.910294 218.56497 553.72858
-21.653976 218.71378 555.17798
-19.790466 218.52719 554.74658
-18.530273 218.67627 556.18732
-16.673508 218.49014 555.74402
-14.822754 218.30426 555.29401
-13.559509 218.45386 556.72125
-13.732376 219.44154 562.85919
-13.017883 219.92639 566.1709
-10.874008 219.57361 564.76025
-8.1809235 218.88614 561.45105
-5.2319336 218.03163 557.18457
-2.309967 217.17761 552.90546
0.85742188 216.15668 547.66626
2.9137115 215.80582 546.20624
4.958786 215.45528 544.73853
7.2572327 214.93771 542.31335
11.634216 213.08206 532.27515
14.656693 212.06358 526.97241
17.390472 211.21286 522.60852
19.84346 210.52985 519.18573
22.274902 209.84721 515.75293
24.187271 209.49934 514.21832
26.088608 209.15175 512.67657
28.222488 208.6373 510.17245
29.376343 208.79163 511.48434
30.773232 208.77901 511.83649
31.933823 208.93364 513.14191
32.632896 209.42247 516.36029
33.577568 209.74435 518.61975
35.215858 209.56534 517.99963
36.623123 209.55353 518.33398
38.475235 209.20801 516.74323
40.536514 208.69582 514.18475
42.36422 208.35085 512.5802
43.966148 208.17303 511.93158
45.350136 208.16228 512.24048
46.523987 208.31856 513.50879
47.495499 208.6418 515.73822
49.090401 208.46472 515.07214
50.477783 208.45462 515.36603
52.064003 208.27795 514.69031
53.64463 208.10149 514.00946
55.025551 208.09195 514.29028
56.406067 208.08258 514.56714
57.408394 208.40677 516.77551
58.793312 208.39767 517.04547
59.994125 208.55545 518.28027
60.837517 209.04663 521.45056
62.053139 209.20461 522.68036
63.449524 209.19611 522.93695
64.845543 209.18774 523.18964
66.241219 209.17957 523.43835
68.141052 208.67181 520.76843
69.859459 208.33087 519.0639
71.404182 208.15668 518.32623
72.78302 208.14919 518.5567
74.161545 208.14185 518.78333
75.384506 208.30118 519.97998
76.459717 208.62708 522.14764
77.394905 209.11957 525.28772
78.19783 209.77859 529.40131
78.731354 210.77055 535.46484
79.153282 211.92897 542.50488
79.750847 212.92091 548.57007
80.379112 213.91287 554.6358
81.172661 214.73843 559.72504
81.991768 215.56406 564.81384
82.965828 216.22333 568.9245
83.833458 217.04901 574.01172
85.223633 217.20929 575.1853
86.983704 216.87067 573.41986
88.852318 216.36591 570.67017
90.821747 215.69499 566.93536
92.770317 215.02429 563.19403
94.363983 214.85277 562.38568
95.843536 214.84766 562.55267
97.322876 214.84271 562.71576
98.905655 214.67162 561.89423
100.38204 214.66693 562.04901
102.05517 214.32986 560.23767
103.52605 214.32545 560.38397
104.99676 214.3212 560.52649
106.55803 214.15082 559.68317
107.93768 214.31305 560.79962
109.4079 214.30917 560.93036
110.87798 214.30542 561.05713
112.3479 214.30177 561.17999
113.8177 214.29826 561.29895
115.28736 214.29489 561.414
116.82961 214.12543 560.54175
118.29645 214.1223 560.64886
119.76316 214.11929 560.75201
121.22977 214.11639 560.85132
122.75868 213.94745 559.96265
124.1028 214.27715 562.02252
125.57166 214.27461 562.11041
127.04043 214.27219 562.19434
128.50911 214.2699 562.27441
130.02727 214.10155 561.36578
131.54021 213.93332 560.45294
133.00349 213.93138 560.52124
134.42487 214.09567 561.57074
135.92987 213.92783 560.64612
137.39296 213.92621 560.70276
138.78772 214.25702 562.72668
140.19272 214.58792 564.74707
141.72392 214.25436 562.82117
143.27121 213.75482 559.9054
144.8269 213.08923 555.99951
146.42583 211.9254 549.13177
147.98874 210.76169 542.25946
149.48334 209.93036 537.35468
150.92508 209.4314 534.41785
152.35136 208.93257 531.47717
153.7538 208.59998 529.51874
155.15179 208.10135 526.5705
156.53435 207.60284 523.61865
157.89934 207.6028 523.6214
159.2606 207.27061 521.64838
160.60718 206.7724 518.68573
161.95233 206.60657 517.69183
163.29236 206.44081 516.69434
164.61511 206.10904 514.7074
165.94232 205.94348 513.703
167.29897 206.11029 514.66711
168.64093 206.11108 514.64172
170.00534 206.27811 515.59869
171.39993 206.61136 517.53778
172.77728 206.77859 518.4873
174.15982 206.94594 519.43317
175.54753 207.11337 520.37524
176.8699 206.94865 519.34271
178.18718 206.78403 518.30682
179.45897 206.45335 516.28229
180.76352 206.28891 515.23975
182.01743 205.95842 513.20892
183.40552 206.12653 514.12982
184.74814 206.12856 514.06213
186.09082 206.13069 513.99084
187.43359 206.13293 513.91608
188.77646 206.1353 513.83777
190.11942 206.13776 513.75586
191.3989 205.97415 512.6864
192.80563 206.14301 513.58142
194.14888 206.14581 513.48889
195.63483 206.48111 515.3598
197.05733 206.65034 516.2431
198.40866 206.6535 516.13934
199.91814 206.9892 517.99774
201.43802 207.32504 519.85168
202.80005 207.32855 519.73627
204.07547 207.16592 518.63489
205.52451 207.33594 519.49445
206.79506 207.17352 518.38629
208.15509 207.17751 518.25653
209.41824 207.01535 517.14185
210.77602 207.01953 517.005
212.23616 207.19016 517.8454
213.59686 207.19463 517.70105
214.95773 207.19922 517.5531
216.64856 207.70287 520.34119
218.13007 207.87405 521.16461
219.73199 208.21173 522.96307
221.34442 208.54955 524.75653
222.84715 208.72119 525.56635
224.72372 209.39209 529.30695
226.74654 210.22957 534.01917
229.30731 211.73283 542.63519
232.30643 213.7356 554.17322
235.1015 215.40594 563.74493
237.26985 216.24463 568.42218
239.32599 216.91711 572.11536
240.69864 216.75766 570.92181
241.49255 215.93253 565.82263
242.84512 215.77327 564.62378
244.34146 215.78064 564.39636
245.98935 215.95465 565.13922
247.64272 216.12885 565.87714
249.30157 216.30322 566.61005
250.96594 216.47778 567.33795
252.47424 216.48599 567.08801
253.98291 216.49438 566.83392
255.49193 216.50293 566.57562
257.00131 216.51163 566.31305
258.68298 216.68712 567.01721
260.37024 216.86282 567.71619
262.06302 217.0387 568.40991
263.76141 217.21481 569.09839
265.46539 217.39111 569.78162
267.17496 217.56763 570.45947
268.89017 217.74438 571.13208
270.61096 217.92133 571.79919
272.72275 218.43198 574.39496
274.85056 218.94292 576.98315
276.79657 219.28738 578.59778
278.55295 219.4653 579.2403
279.50281 218.97623 576.01788
280.43759 218.48724 572.79431
281.35727 217.99832 569.56952
282.05096 217.34259 565.38037
282.72443 216.6869 561.19153
283.80963 216.36507 558.92676
284.66632 215.87642 555.69855
285.28665 215.22087 551.50861
285.66281 214.39838 546.35889
286.69287 214.07687 544.08966
287.02582 213.25438 538.94153
287.79657 212.76596 535.71204
288.55231 212.2776 532.48199
289.52979 211.95636 530.20837
290.01831 211.30101 526.02026
290.97089 210.97993 523.74457
291.66876 210.49181 520.51215
292.59894 210.1709 518.23376
293.51923 209.85008 515.95386
294.42963 209.52934 513.67224
296.09583 209.71048 514.24603
297.51001 209.72458 513.86249
298.66437 209.57156 512.52368
300.34027 209.75336 513.08221
302.28769 210.10275 514.58423
303.70966 210.11768 514.18158
305.40317 210.30022 514.72241
306.82901 210.31554 514.31
308.53168 210.49854 514.83948
309.96149 210.51425 514.41724
311.11047 210.36266 513.04565
312.82306 210.5463 513.55914
314.25482 210.56259 513.12323
315.39792 210.41144 511.74023
317.12042 210.59573 512.23749
318.55423 210.61258 511.78766
319.69147 210.46188 510.39322
321.72382 210.81454 511.81314
324.06995 211.3353 514.16321
325.8222 211.52077 514.62854
328.19611 212.04216 516.96039
330.58655 212.56393 519.28229
332.36731 212.75021 519.72437
334.15405 212.93674 520.15991
335.94678 213.12347 520.58868
337.74548 213.31041 521.01062
339.22647 213.32953 520.49475
340.05539 213.01257 518.1134
341.86133 213.2 518.51862
344.66824 213.89206 521.70184
348.16559 214.92088 526.72699
353.71716 216.95956 537.2937
357.97461 218.32617 544.13025
361.59064 219.35684 549.09692
364.89417 220.21967 553.12292
367.18213 220.57782 554.36621
367.02951 219.75739 549.15027
369.67407 220.2841 551.302
371.2684 220.30566 550.68414
373.22137 220.49573 550.979
374.81921 220.5173 550.349
376.78098 220.70746 550.62976
378.74841 220.89764 550.90283
380.72141 221.08783 551.16821
382.69995 221.278 551.42584
385.05829 221.63689 552.58771
387.05048 221.827 552.8288
388.66852 221.84827 552.15253
390.28656 221.86935 551.4707
393.05914 222.39684 553.50549
393.90988 222.07982 550.99677
395.53006 222.10025 550.29718
397.54285 222.28937 550.49615
398.76941 222.14023 548.88177
400.3884 222.15971 548.16595
401.20502 221.84068 545.64392
403.22083 222.02838 545.81897
404.83496 222.04655 545.08826
406.44815 222.06425 544.35242
408.47174 222.25058 544.5069
411.32773 222.77478 546.4425
413.36469 222.96005 546.57941
414.98596 222.97543 545.81696
-96.873627 225.54929 552.76654
-94.824615 225.3607 552.62756
-91.964569 224.82814 550.68726
-89.524261 224.4669 549.63251
-86.289139 223.76193 546.7691
-84.672821 223.74329 547.4928
-83.452713 223.89581 549.11279
-81.832367 223.87631 549.8269
-80.211533 223.85646 550.53564
-78.590302 223.8363 551.23901
-76.196167 223.4729 550.12427
-74.19603 223.28081 549.90686
-71.820114 222.91716 548.77319
-69.833084 222.72482 548.53925
-67.851349 222.53238 548.29761
-65.875 222.33984 548.04822
-64.274399 222.31853 548.70416
-63.041565 222.46832 550.26862
-61.073746 222.2756 549.99957
-59.47377 222.25403 550.63898
-57.154816 221.8902 549.43835
-55.560867 221.86864 550.0647
-53.612991 221.67603 549.76624
-51.670853 221.48349 549.46021
-50.432556 221.63303 550.9895
-48.843063 221.61157 551.59296
-46.566727 221.24835 550.34418
-44.642578 221.05621 550.01038
-43.062714 221.03505 550.59454
-41.147736 220.8432 550.24707
-39.571732 220.82225 550.81952
-37.996399 220.80144 551.38672
-36.093918 220.61003 551.01929
-34.522552 220.58948 551.57489
-32.629349 220.39845 551.19409
-31.061981 220.3782 551.73816
-29.4953 220.35809 552.27698
-28.243866 220.5087 553.74438
-26.364075 220.31839 553.33899
-24.490265 220.12831 552.92657
-22.929092 220.1089 553.44373
-21.672607 220.26007 554.89307
-20.110229 220.24097 555.40076
-18.249893 220.05174 554.96436
-16.691605 220.03305 555.461
-15.134064 220.01456 555.95258
-13.57724 219.99625 556.43909
-13.750092 220.99936 562.57465
-13.321014 221.66193 566.82849
-11.174255 221.30363 565.42004
-8.7585144 220.77557 563.05878
-6.0815735 220.07779 559.74213
-2.876358 219.04034 554.52179
0.024261475 218.17349 550.23444
2.6281891 217.47711 546.88245
4.6761475 217.12109 545.41681
6.9774628 216.59546 542.9942
11.095688 214.88078 533.91223
14.383011 213.67651 527.66345
16.863098 212.98239 524.25439
19.575623 212.11887 519.88312
22.009979 211.42557 516.45325
24.174011 210.90247 513.96698
26.075577 210.54945 512.42651
27.96611 210.19675 510.87909
29.363724 210.18372 511.23584
30.760765 210.17091 511.58844
31.450058 210.66725 514.80737
32.387581 210.99402 517.06848
33.565544 211.15125 518.36975
34.976105 211.13904 518.70923
36.61145 210.95746 518.08514
38.463814 210.60652 516.49548
40.305229 210.25589 514.89935
42.135757 209.90552 513.29663
43.955376 209.55542 511.6875
45.127228 209.71396 512.95911
46.513535 209.7032 513.26483
47.278084 210.2009 516.45715
48.875786 210.021 515.7923
50.669724 209.67197 514.15771
52.054253 209.66193 514.44733
53.63504 209.48268 513.76721
55.210236 209.30365 513.08203
56.396805 209.46346 514.32538
57.21035 209.96198 517.50037
58.598015 209.95273 517.77112
59.801575 210.11292 519.00616
60.828804 210.44246 521.20697
61.866028 210.77213 523.40582
63.26516 210.76344 523.66315
64.66394 210.75493 523.91644
66.062355 210.74658 524.16589
67.964989 210.23091 521.49792
69.851746 209.71548 518.82343
71.396645 209.53857 518.08636
72.775612 209.53094 518.31708
74.154282 209.5235 518.54395
75.222145 209.85437 520.71356
76.300064 210.18533 522.88092
77.388016 210.51639 525.04614
77.896057 211.52377 531.10712
78.57972 212.36209 536.19403
79.146629 213.36948 542.25616
79.744255 214.37686 548.31891
80.50975 215.21524 553.40613
81.166245 216.22266 559.4693
81.985435 217.06111 564.55603
82.830185 217.89958 569.64215
83.700493 218.7381 574.7276
85.093369 218.90088 575.90131
86.977859 218.38803 573.15918
88.727562 218.0443 571.38934
90.699738 217.36295 567.6568
92.65107 216.68176 563.91766
94.247475 216.50754 563.11011
95.838516 216.33347 562.29797
97.317993 216.32841 562.46118
98.900909 216.15465 561.6402
100.47847 215.98102 560.8147
102.0507 215.80754 559.98474
103.52171 215.80307 560.13129
105.08586 215.62988 559.29266
106.46321 215.79453 560.41254
107.93372 215.79044 560.54724
109.48967 215.61766 559.69611
110.87427 215.78265 560.80493
112.34433 215.77896 560.92792
113.81425 215.77539 561.04694
115.28403 215.77194 561.16205
116.82642 215.59984 560.29034
118.29337 215.59665 560.39752
119.69263 215.76236 561.48413
121.22693 215.59064 560.60016
122.69354 215.58783 560.69562
124.10019 215.75389 561.77112
125.56917 215.75131 561.85901
127.03806 215.74884 561.94299
128.50685 215.74649 562.02313
130.02513 215.57553 561.11499
131.53819 215.40466 560.2027
133.0016 215.40269 560.271
134.46494 215.40083 560.33545
135.96748 215.23035 559.41113
137.39142 215.39745 560.4527
138.78629 215.73337 562.47571
140.15981 216.23816 565.48047
141.7227 215.7307 562.57031
143.27013 215.22336 559.65588
144.80208 214.71614 556.73718
146.40369 213.53418 549.87256
147.96928 212.35236 543.00342
149.46658 211.50809 538.10089
150.89743 211.17007 536.151
152.33997 210.49478 532.22614
153.74507 210.15698 530.26862
155.14574 209.6506 527.32172
156.53098 209.14433 524.37115
157.89935 208.97559 523.38831
159.25888 208.46953 520.43048
160.60741 208.13229 518.45483
161.95267 207.96385 517.4613
163.29279 207.79553 516.46429
164.61565 207.45859 514.47821
165.95766 207.45917 514.45978
167.28242 207.29114 513.45233
168.64177 207.46066 514.41248
170.00629 207.63028 515.36896
171.40099 207.96873 517.30713
172.77844 208.13858 518.25623
174.19121 208.47725 520.18677
175.5489 208.47859 520.14325
176.90665 208.48003 520.09613
178.18877 208.1441 518.07556
179.50107 207.97702 517.03674
180.76529 207.64131 515.00983
182.06487 207.47443 513.96442
183.4075 207.47638 513.90015
184.75023 207.47845 513.83246
186.1463 207.64938 514.7453
187.49176 207.65167 514.67035
188.77887 207.48532 513.60785
190.12195 207.48782 513.52588
191.52869 207.65921 514.42401
192.80838 207.49316 513.35138
194.22046 207.66481 514.24207
195.70911 208.00534 516.11182
197.20816 208.34601 517.97723
198.56476 208.34924 517.87292
200.0795 208.69019 519.72998
201.52309 208.86246 520.60034
202.88779 208.86603 520.48456
204.25264 208.86974 520.36511
205.70695 209.04242 521.22375
206.89088 208.70865 519.13403
208.25362 208.71272 519.00397
209.51945 208.54803 517.88934
210.97955 208.72119 518.73279
212.34276 208.72562 518.59167
213.70616 208.73016 518.44696
215.17711 208.90375 519.27838
216.65338 209.07745 520.10547
218.24751 209.42023 521.90753
219.73708 209.59425 522.72577
221.23199 209.76843 523.53967
222.85254 210.11168 525.32745
224.72928 210.79303 529.06616
226.75229 211.64357 533.77606
229.44127 213.3392 543.36505
232.44327 215.37318 554.8974
235.24115 217.06956 564.46405
237.41229 217.9213 569.13855
239.47122 218.60428 572.82935
240.70569 218.27335 570.66016
241.64319 217.60443 566.53821
242.85242 217.27368 564.36456
244.34891 217.28116 564.13696
245.99696 217.45789 564.87915
247.65051 217.6348 565.61639
249.46594 217.98102 567.32178
250.97406 217.9892 567.07581
252.64413 218.16672 567.79803
254.15555 218.17523 567.54327
255.66731 218.18396 567.2843
257.17944 218.19284 567.02112
258.86389 218.37108 567.72406
260.55389 218.54953 568.42188
262.24951 218.72821 569.1145
263.95065 218.90707 569.80176
265.83972 219.25542 571.45233
267.36981 219.26546 571.16052
269.08777 219.44498 571.83179
270.8114 219.62473 572.4978
272.92596 220.14334 575.09131
274.86133 220.4929 576.7113
276.60968 220.6734 577.35931
278.76465 221.19287 579.93158
279.92032 220.86562 577.67407
280.65472 220.19962 573.48651
281.78543 219.87256 571.22552
282.48447 219.2067 567.03693
282.94974 218.37135 561.88623
284.03772 218.04456 559.62158
284.89716 217.54831 556.3938
285.52017 216.8826 552.20477
286.12292 216.21692 548.01624
286.93182 215.72083 544.78717
287.26746 214.88559 539.6405
288.04095 214.38959 536.41138
288.79938 213.89365 533.18176
289.54269 213.39775 529.95154
290.2709 212.90192 526.72089
290.98404 212.40613 523.48987
291.92682 212.08017 521.21307
292.61237 211.5845 517.98071
293.53278 211.25867 515.70129
294.69592 211.10278 514.37286
296.10974 211.11691 513.99335
297.26627 210.96135 512.65833
298.93909 211.14572 513.22107
300.35474 211.16045 512.82843
302.03668 211.34531 513.38019
303.99286 211.70042 514.87433
305.41821 211.71579 514.466
307.11786 211.9014 514.99994
309.09964 212.25735 516.47375
310.25598 212.10327 515.10443
311.40778 211.94931 513.73212
313.40729 212.306 515.1875
314.27103 211.98218 512.86401
315.70364 211.9989 512.42303
317.72101 212.35632 513.85974
319.16028 212.37347 513.40784
320.60022 212.39081 512.95129
322.64069 212.74902 514.36725
324.38983 212.93713 514.83728
326.75537 213.46635 517.17468
328.52173 213.65501 517.63
330.60455 214.0144 519.01392
332.69867 214.37408 520.3894
334.48822 214.56348 520.82306
335.96533 214.58252 520.3175
338.0853 214.94293 521.6701
338.92157 214.62099 519.2915
340.40063 214.64041 518.77106
342.53845 215.00146 520.10315
345.01917 215.53349 522.35413
349.85684 217.26151 531.08234
355.08517 219.16116 540.71191
359.35361 220.54909 547.5401
362.63824 221.42493 551.57556
365.95001 222.30121 555.59558
366.85553 221.98099 553.14673
367.4007 221.48967 549.77563
369.34216 221.68237 550.08459
371.28937 221.87518 550.38599
373.24237 222.06805 550.67987
374.84018 222.08984 550.04944
376.80191 222.28279 550.32916
378.76929 222.47577 550.60126
380.37335 222.49748 549.95221
382.34918 222.69038 550.20996
385.07901 223.22595 552.28278
386.69418 223.24747 551.61273
388.68893 223.44022 551.84619
390.30676 223.46141 551.16394
392.30939 223.6539 551.38312
393.92957 223.67465 550.68866
395.54947 223.69514 549.98871
397.56195 223.88693 550.18683
399.18372 223.90683 549.47485
400.40674 223.7547 547.85645
401.62372 223.6021 546.23499
403.64178 223.79242 546.40802
404.85184 223.63882 544.77838
406.87335 223.82822 544.93854
408.89902 224.01709 545.09106
410.92877 224.20541 545.23608
412.96234 224.3931 545.37347
414.99973 224.58017 545.50348
-96.888901 227.16995 552.44574
-95.661026 227.32764 554.09784
-92.388611 226.61292 551.26538
-89.946167 226.24649 550.21313
-87.111053 225.70535 548.25201
-85.09024 225.51242 548.07837
-83.074051 225.31912 547.89716
-81.851089 225.47385 549.51276
-79.838989 225.27983 549.31842
-77.831741 225.08553 549.11627
-75.829498 224.89099 548.90649
-73.83226 224.69623 548.68884
-71.459213 224.3273 547.55554
-69.853333 224.30627 548.23059
-67.871765 224.11108 547.98987
-66.268524 224.08972 548.65277
-65.035736 224.24213 550.22278
-63.430084 224.22049 550.87585
-62.189651 224.37257 552.43805
-59.857056 224.00317 551.24969
-57.535446 223.63388 550.0517
-56.295914 223.78583 551.59741
-53.633942 223.24298 549.46429
