ply
format ascii 1.0
comment PCL generated
element vertex 1587
property float x
property float y
property float z
element camera 0
property float view_px
property float view_py
property float view_pz
property float x_axisx
property float x_axisy
property float x_axisz
property float y_axisx
property float y_axisy
property float y_axisz
property float z_axisx
property float z_axisy
property float z_axisz
property float focal
property float scalex
property float scaley
property float centerx
property float centery
property int viewportx
property int viewporty
property float k1
property float k2
end_header
406.2316 161.28676 544.76111
408.25092 161.36868 544.9342
408.60083 161.1711 541.47742
-86.838837 162.47443 540.4494
-86.477554 162.67937 543.89685
-84.473572 162.59464 543.70306
-82.878799 162.58224 544.41327
-81.284042 162.56982 545.11792
-80.087967 162.62967 546.73126
-77.698837 162.47261 545.59497
-76.893692 162.60469 548.11481
-74.906311 162.51994 547.88043
-73.312515 162.50748 548.55701
-71.333832 162.42284 548.30798
-69.7435 162.41045 548.97223
-67.393784 162.25377 547.7865
-65.809753 162.24149 548.43738
-63.851685 162.15715 548.15833
-62.271393 162.14499 548.79694
-59.953217 161.98874 547.57703
-58.012939 161.90471 547.27496
-56.442566 161.89281 547.89392
-54.511597 161.80896 547.5777
-52.228058 161.65326 546.32336
-51.023712 161.71364 547.85461
-49.1082 161.63016 547.51703
-47.90004 161.69067 549.03955
-45.643356 161.53548 547.75452
-44.779449 161.66808 550.20313
-42.877609 161.58502 549.84009
-41.321945 161.57401 550.40765
-39.429672 161.49123 550.03125
-37.87825 161.48042 550.58728
-35.663422 161.32611 549.25702
-34.118927 161.31555 549.80078
-32.575226 161.30511 550.33936
-30.708176 161.22302 549.9295
-28.847214 161.14108 549.5127
-27.311249 161.13101 550.03418
-25.776077 161.12105 550.55054
-23.928085 161.03952 550.11499
-22.086182 160.95813 549.67273
-20.867065 161.0202 551.12097
-19.337708 161.01073 551.61639
-17.809158 161.00136 552.10699
-16.281403 160.99211 552.59265
-14.456573 160.91138 552.1214
-12.637802 160.83081 551.64374
-11.117599 160.82193 552.1131
-9.308197 160.74164 551.62329
-7.5047913 160.66148 551.12708
-5.7073517 160.58148 550.62451
-4.7621613 160.71611 552.9859
-3.8071594 160.8508 555.34558
-3.3961182 161.12849 559.62012
-2.964859 161.40619 563.89606
-1.6985016 161.46954 565.29388
-0.15864563 161.46158 565.72803
1.6469116 161.38231 565.19617
4.2378998 161.08896 561.77234
6.5461426 160.86722 559.30084
8.838089 160.64568 556.8205
11.369659 160.35295 553.36731
13.879776 160.06044 549.90405
16.117691 159.83946 547.3963
19.331848 159.33336 541.01563
21.526901 159.11279 538.48834
23.948685 158.82108 534.98529
26.108765 158.60086 532.44086
28.490402 158.30954 528.91956
30.145386 158.23221 528.29706
31.562149 158.22624 528.6391
32.518578 158.36288 530.91821
33.939522 158.35709 531.25323
34.910545 158.49385 533.52771
35.669342 158.70189 536.77295
36.882286 158.76755 538.07159
38.316902 158.76207 538.39362
39.536705 158.82788 539.68573
40.76123 158.89375 540.97491
41.781372 159.03088 543.23633
43.01799 159.09689 544.52002
44.259384 159.16296 545.80066
45.304115 159.30026 548.05536
46.55761 159.36649 549.33051
48.404495 159.21939 547.6687
49.853386 159.21466 547.95776
51.492943 159.13892 547.26367
53.315361 158.99216 545.58514
54.941238 158.91661 544.88049
56.561577 158.84116 544.1709
58.176399 158.76581 543.45636
59.785706 158.69055 542.73688
61.213982 158.68646 542.99451
62.81488 158.61139 542.26575
63.899208 158.74954 544.48059
65.329117 158.74567 544.72681
66.428322 158.88393 546.93646
67.700157 158.95122 548.15985
68.816841 159.08958 550.36462
69.786057 159.29903 553.55231
70.925377 159.43748 555.75293
72.074722 159.576 557.95142
72.934654 159.85655 562.11981
73.962097 160.06613 565.30078
75.149315 160.20477 567.4931
76.488586 160.27249 568.69568
78.251015 160.12735 566.93195
79.866066 160.05328 566.15082
81.878555 159.7664 562.39984
83.870224 159.47963 558.64209
85.582825 159.33487 556.8559
87.031822 159.33209 557.04333
88.480606 159.32938 557.22699
90.050598 159.2558 556.41663
91.615257 159.18228 555.60181
93.058319 159.17976 555.77319
94.614883 159.1064 554.94983
96.166122 159.03311 554.12213
97.603516 159.03079 554.28149
98.934761 159.09946 555.42896
100.4778 159.02637 554.58893
102.01553 158.95334 553.74457
103.44972 158.95126 553.88861
104.97945 158.87836 553.03589
106.41078 158.87643 553.17212
107.84197 158.87454 553.30457
109.27303 158.87273 553.43329
110.70396 158.87096 553.55829
112.13477 158.86925 553.6795
113.56546 158.8676 553.797
114.99605 158.866 553.91077
116.42651 158.86447 554.02081
117.85687 158.86299 554.12714
119.28713 158.86156 554.22974
120.7173 158.86018 554.32855
122.14737 158.85887 554.42371
123.57736 158.8576 554.51508
125.00726 158.8564 554.60284
126.43707 158.85526 554.68689
127.86682 158.85414 554.76715
129.24446 158.92395 555.83984
130.67662 158.92294 555.91296
132.10872 158.92201 555.9823
133.54077 158.92111 556.04785
134.97275 158.92027 556.10974
136.40466 158.91949 556.16803
137.83655 158.91876 556.2226
139.26837 158.91808 556.27338
140.70016 158.91745 556.32056
142.1319 158.91687 556.36401
143.56361 158.91635 556.40375
144.99529 158.91586 556.43982
146.42694 158.91544 556.47211
147.85855 158.91507 556.50079
149.27405 158.98558 557.52313
150.68109 159.12697 559.53931
152.12036 159.12674 559.55695
153.55119 159.19742 560.56848
154.993 159.19728 560.57874
156.4315 159.26805 561.58289
157.87587 159.26804 561.58575
159.32024 159.26807 561.58496
160.7646 159.26816 561.58044
162.20897 159.26828 561.57214
163.65335 159.26846 561.56018
165.09776 159.26871 561.54449
166.54218 159.26898 561.52502
168.00386 159.34015 562.49921
169.4509 159.34055 562.47235
170.89796 159.34099 562.44171
172.37 159.41232 563.40454
173.76468 159.27119 561.37219
175.23935 159.34264 562.32751
176.68657 159.34328 562.28192
178.13383 159.34398 562.2326
179.61891 159.41557 563.17633
181.06883 159.41638 563.11951
182.51883 159.41725 563.0589
183.96887 159.41815 562.99451
185.37096 159.34828 561.93011
186.81857 159.3493 561.85834
188.31943 159.42122 562.77887
189.76976 159.42235 562.69958
191.16187 159.35268 561.62067
192.6098 159.35391 561.53394
194.12125 159.42606 562.4389
195.57193 159.42741 562.34448
197.09128 159.49968 563.24139
198.54472 159.50114 563.13928
199.99826 159.50266 563.03333
201.45193 159.50423 562.92365
202.9057 159.50586 562.81018
204.35959 159.50755 562.69281
205.8136 159.50929 562.57178
207.18118 159.44022 561.45313
208.63287 159.44208 561.32471
209.90134 159.30222 559.20587
211.34818 159.30418 559.07031
212.69832 159.23532 557.93817
214.14288 159.2374 557.79523
215.68956 159.31046 558.64075
217.24156 159.38358 559.48199
218.69174 159.38586 559.32709
220.25177 159.45912 560.15979
221.81711 159.53244 560.98804
223.0433 159.39307 558.83936
224.6116 159.46654 559.65973
226.06525 159.46913 559.48529
227.39655 159.40086 558.31714
228.84802 159.40358 558.13531
230.4274 159.47733 558.93896
231.88188 159.48019 558.74908
233.46941 159.55409 559.54388
235.19775 159.69904 561.32245
236.52264 159.63115 560.13196
238.12375 159.70528 560.91327
239.5871 159.70851 560.70276
241.05072 159.71181 560.48834
242.51459 159.71518 560.2699
243.97873 159.71863 560.04761
245.59659 159.79315 560.80688
247.21988 159.86777 561.56146
248.69002 159.87143 561.32635
250.48282 160.01724 563.05597
252.28625 160.16316 564.77991
253.60127 160.09607 563.54761
255.2493 160.17111 564.27814
256.73129 160.17522 564.02112
258.21362 160.17938 563.76007
259.69629 160.18365 563.495
261.17932 160.18799 563.22577
262.48087 160.12134 561.97168
264.14642 160.19693 562.67493
266.00461 160.34372 564.35291
267.49426 160.34842 564.06616
269.75311 160.63766 567.69037
271.83826 160.85596 570.32806
273.54462 160.9321 571.00293
275.45654 161.0795 572.64966
277.1767 161.15588 573.31329
278.08191 160.94774 570.06708
279.17978 160.81079 567.79541
280.2677 160.67392 565.52161
280.707 160.32352 560.32233
280.9053 159.90192 554.15051
281.94537 159.76514 551.87476
282.53418 159.48596 547.65155
283.10266 159.20682 543.42889
283.87677 158.9989 540.17828
284.86429 158.86229 537.89807
285.37976 158.58321 533.67554
286.10861 158.3754 530.4234
286.82239 158.16763 527.1709
287.52112 157.9599 523.91809
288.68768 157.89478 522.6004
289.84967 157.82976 521.27997
291.00696 157.7648 519.95667
292.6582 157.84261 520.56207
294.06329 157.84918 520.1969
294.70544 157.64177 516.9342
296.10388 157.6485 516.56256
297.76266 157.72673 517.14978
299.16492 157.73369 516.76898
300.56781 157.74075 516.38391
302.50647 157.89078 517.91644
303.6456 157.82663 516.56116
305.05298 157.83401 516.16254
306.18561 157.77003 514.80084
307.59164 157.77762 514.39423
308.71771 157.71381 513.02612
309.83923 157.65009 511.65515
311.52795 157.72949 512.1925
313.22266 157.80902 512.72388
314.92328 157.8887 513.24921
316.92365 158.0401 514.72162
318.93521 158.19167 516.18634
320.35999 158.20018 515.74011
321.78546 158.20883 515.28937
323.51593 158.2892 515.78381
324.33167 158.15475 513.42493
325.75671 158.1637 512.96112
327.49475 158.24445 513.44012
329.23877 158.32532 513.9126
331.94135 158.62151 517.21533
334.98584 158.98967 521.45081
340.31683 159.86041 532.27881
345.06128 160.58813 541.19452
349.20328 161.17274 548.203
352.72699 161.61414 553.30957
354.95001 161.76854 554.63953
355.50446 161.5639 551.26483
357.73703 161.71858 552.58142
358.95715 161.65778 551.07721
359.82886 161.52515 548.63348
362.42368 161.75215 550.86456
363.63828 161.6916 549.34741
365.20023 161.70306 548.76007
367.47208 161.8586 550.03186
369.75534 162.01428 551.29425
371.69009 162.09813 551.61688
374.71851 162.39819 554.71942
376.30814 162.41028 554.09564
377.53058 162.35034 552.53925
379.1189 162.36255 551.9054
380.33459 162.30269 550.341
381.54565 162.24286 548.77325
383.13046 162.25519 548.12488
384.71579 162.26756 547.47089
386.68549 162.35219 547.73187
388.27441 162.36465 547.06555
389.86377 162.37717 546.39368
392.23724 162.53421 547.55054
393.83258 162.54678 546.86511
396.22266 162.70396 548.00378
398.6236 162.86122 549.1322
400.63278 162.9462 549.33777
402.64734 163.03117 549.53528
403.85138 162.97136 547.90454
405.46051 162.98386 547.17944
406.65619 162.92387 545.54108
408.26215 162.9362 544.80603
408.61188 162.73102 541.34967
-88.086166 164.2509 543.04254
-86.898422 164.31335 544.67462
-85.298477 164.30074 545.39301
-83.698456 164.28806 546.10583
-81.697083 164.20041 545.90015
-80.099777 164.18768 546.60065
-77.710648 164.02515 545.46503
-76.512253 164.08728 547.0683
-74.527557 163.99969 546.83325
-73.324387 164.06181 548.42761
-71.345688 163.97429 548.17908
-69.755341 163.96162 548.84357
-68.165451 163.94897 549.5025
-66.198746 163.86163 549.23267
-64.237961 163.7744 548.9552
-63.026917 163.83664 550.52039
-60.334076 163.60019 548.37701
-58.391052 163.51324 548.07648
-56.45401 163.42641 547.76831
-54.522949 163.33969 547.45258
-52.597916 163.2531 547.12933
-51.034897 163.2412 547.73016
-49.119324 163.15485 547.39313
-47.911102 163.21768 548.91565
-46.002274 163.13153 548.56573
-44.444962 163.12003 549.14417
-43.231079 163.18309 550.65363
-41.332626 163.09731 550.28491
-39.777664 163.08612 550.84741
-38.22348 163.07501 551.4046
-36.005875 162.91522 550.07593
-34.458649 162.90439 550.62085
-32.91217 162.89366 551.16052
-31.042389 162.80872 550.75214
-29.178665 162.72391 550.33667
-27.32103 162.63924 549.91431
-25.469513 162.55473 549.48517
-24.251282 162.61893 550.94244
-22.095642 162.46043 549.55396
-20.876404 162.52484 551.0022
-19.346954 162.51512 551.49786
-17.818283 162.50551 551.98859
-15.989944 162.42183 551.52356
-14.4655 162.41248 552.00372
-12.351364 162.25493 550.57385
-11.126251 162.31998 551.99591
-9.3167419 162.23688 551.50659
-7.2258759 162.0798 550.05585
-6.0003662 162.1452 551.46436
-5.052475 162.28477 553.82629
-3.8153076 162.35033 555.22925
-3.957901 162.78625 561.41925
-2.9728699 162.92596 563.77844
-1.1631775 162.84364 563.25714
0.10255432 162.90952 564.65027
2.7048035 162.60547 561.23505
5.5492554 162.22766 556.8476
7.5834351 162.07202 555.33575
10.123642 161.76862 551.89014
12.642334 161.46544 548.43445
14.886215 161.2364 545.93323
17.364578 160.93364 542.45825
20.317764 160.48326 537.04169
22.748062 160.18091 533.54584
25.156967 159.87878 530.04047
27.063858 159.72458 528.46136
29.435226 159.42282 524.93848
31.079918 159.3428 524.31372
32.021324 159.48441 526.59296
33.202538 159.55225 527.90021
34.161133 159.69397 530.17554
34.9049 159.90956 533.42084
35.885902 160.05139 535.6933
37.31588 160.04568 536.01843
38.745384 160.0401 536.33948
40.388779 159.96083 535.68243
41.814781 159.95544 535.99469
43.031197 160.02386 537.27789
44.458908 160.01865 537.58264
45.478264 160.16098 539.83557
46.507515 160.30334 542.08679
47.944359 160.29837 542.38141
49.577019 160.21976 541.69421
51.010475 160.21495 541.98022
52.443558 160.21024 542.26221
54.064697 160.13193 541.56097
55.680313 160.05373 540.85468
57.290413 159.97562 540.14337
58.894981 159.89761 539.42719
60.494026 159.8197 538.70618
61.912064 159.81552 538.96191
63.156807 159.88507 540.19604
64.236038 160.02829 542.40973
65.325287 160.17154 544.62122
66.58976 160.24126 545.84711
67.859077 160.31104 547.06995
68.813187 160.52806 550.25842
69.939949 160.67152 552.46069
71.231621 160.74149 553.6756
72.223557 160.95863 556.85852
73.380447 161.10225 559.05377
74.547356 161.24593 561.24677
75.579742 161.46321 564.42413
76.769348 161.60698 566.61249
78.247856 161.60371 566.82349
79.862984 161.52698 566.0426
81.60701 161.3768 564.26886
83.603905 161.07967 560.5127
85.321739 160.92969 558.7276
87.029053 160.77979 556.93738
88.477913 160.77701 557.12097
90.16938 160.62727 555.32104
91.731529 160.55113 554.50616
93.172089 160.54857 554.67731
94.612457 160.54607 554.84473
96.16378 160.47014 554.01709
97.492676 160.54124 555.16797
98.932526 160.53894 555.32391
100.47563 160.46321 554.48413
101.9126 160.46103 554.6322
103.44768 160.38545 553.78406
104.97746 160.30994 552.93164
106.40885 160.30794 553.06793
107.8401 160.30602 553.20044
109.18324 160.37759 554.32257
110.61679 160.37578 554.44781
112.13308 160.30057 553.57544
113.48354 160.37233 554.68707
114.99446 160.29726 553.80682
116.50014 160.22223 552.92236
117.92798 160.22072 553.02856
119.35573 160.21927 553.13098
120.78339 160.21786 553.22974
122.21095 160.21651 553.32471
123.57611 160.28864 554.41132
125.00607 160.28741 554.49915
126.37877 160.35965 555.5788
127.81113 160.35852 555.65924
129.24342 160.35745 555.73608
130.67564 160.35641 555.80914
132.1078 160.35545 555.87842
133.53989 160.35454 555.94409
134.97192 160.35367 556.00598
136.4039 160.35287 556.06427
137.83583 160.35213 556.11884
139.26772 160.35143 556.16962
140.69955 160.35078 556.21686
142.1024 160.4236 557.25714
143.56311 160.34966 556.30005
144.99483 160.34917 556.33612
146.42653 160.34872 556.36847
147.8582 160.34834 556.39716
149.27374 160.42142 557.41937
150.68085 160.56793 559.43512
152.12016 160.5677 559.45282
153.55104 160.64093 560.46405
154.98705 160.7142 561.47174
156.43146 160.71414 561.47833
157.87659 160.64072 560.48389
159.32028 160.71416 561.48041
160.76471 160.71423 561.47583
162.20914 160.71437 561.46759
163.65356 160.71457 561.45563
165.11014 160.78821 562.43713
166.55717 160.7885 562.41766
168.00423 160.78885 562.39453
169.45132 160.78926 562.36761
170.89844 160.7897 562.33698
172.34558 160.79021 562.30255
173.76526 160.71738 561.26752
175.23999 160.79138 562.22266
176.65462 160.71864 561.1803
178.13457 160.79277 562.12775
179.61969 160.86696 563.07129
181.06969 160.86778 563.0144
182.51971 160.86867 562.9538
183.96982 160.8696 562.8894
185.37195 160.79718 561.82513
186.81963 160.79822 561.75336
188.26736 160.79932 561.67786
189.71519 160.80048 561.59857
191.10478 160.72826 560.52002
192.61108 160.80295 561.42883
194.05914 160.80428 561.33832
195.57332 160.87909 562.23914
197.09273 160.95396 563.13586
198.54622 160.95546 563.03369
200.07353 161.03046 563.9223
201.45355 160.95862 562.81799
202.98622 161.03375 563.69861
204.36131 160.96204 562.5871
205.7314 160.89037 561.47223
207.09648 160.81876 560.354
208.54565 160.82066 560.22571
209.8116 160.6757 558.10748
211.35019 160.75119 558.9649
212.70039 160.67979 557.83289
214.24442 160.75542 558.68231
215.69177 160.75763 558.53528
217.24382 160.83337 559.37622
218.69406 160.83571 559.22125
220.25415 160.91159 560.05365
221.70731 160.91408 559.89081
223.04582 160.84311 558.73346
224.61417 160.9192 559.55347
226.0679 160.92188 559.37909
227.39926 160.8511 558.211
228.8508 160.8539 558.02917
230.30255 160.85677 557.84338
231.88478 160.93323 558.64252
233.4724 161.00977 559.43713
235.0654 161.0864 560.22717
236.52576 161.08955 560.02478
237.98637 161.09277 559.81854
239.44722 161.09608 559.60834
241.05405 161.17302 560.38074
242.36969 161.10292 559.17615
243.98221 161.18002 559.93994
245.60016 161.2572 560.69897
247.22354 161.33449 561.45319
248.85237 161.41185 562.20264
250.64786 161.56291 563.93146
252.29016 161.64047 564.67065
253.60524 161.57089 563.43842
255.25336 161.64864 564.1687
256.73544 161.65283 563.91162
258.21786 161.65714 563.65057
259.70062 161.6615 563.38531
261.18372 161.66595 563.11597
262.66718 161.6705 562.84253
264.33545 161.74878 563.54498
266.00925 161.82718 564.24243
267.68863 161.90569 564.93463
269.95016 162.20538 568.5575
271.84323 162.35782 570.21588
273.54968 162.43668 570.89038
275.66168 162.66309 573.51367
277.38452 162.74219 574.17657
278.08725 162.45271 569.95422
278.97742 162.237 566.70734
280.27319 162.16885 565.40924
280.71252 161.80573 560.21088
280.69534 161.29503 553.06635
281.73291 161.15323 550.79144
282.53986 160.93768 547.54199
283.1084 160.64836 543.32001
283.88257 160.43288 540.06989
284.64166 160.21742 536.81921
285.15457 159.92816 532.59784
285.88092 159.71277 529.34686
286.82843 159.57126 527.06427
287.52722 159.35594 523.81189
288.69391 159.28842 522.49432
289.61182 159.14708 520.20703
290.7666 159.0797 518.8844
292.16602 159.0863 518.52454
293.56604 159.09305 518.16058
294.71204 159.02592 516.82813
295.85345 158.95886 515.4928
297.50977 159.03986 516.08044
299.17188 159.12097 516.66229
300.57483 159.1282 516.2771
302.24603 159.20958 516.84833
303.65283 159.21704 516.4538
304.51468 159.07654 514.13654
305.64215 159.01015 512.77643
307.32111 159.09198 513.32886
308.16397 158.95168 511.00455
309.2803 158.88553 509.63516
310.96393 158.9677 510.17374
312.36493 158.97588 509.75168
314.349 159.13245 511.23285
316.34424 159.2892 512.7063
318.35071 159.44612 514.17206
319.77026 159.45483 513.72729
321.19061 159.46365 513.27795
322.61163 159.4726 512.82404
324.34039 159.55588 513.31433
325.45593 159.49078 511.90244
327.19144 159.57433 512.38177
329.56268 159.80661 514.74725
331.95053 160.03911 517.10272
334.99524 160.42047 521.33698
340.00378 161.24823 531.21875
344.09497 161.85339 538.24774
348.55734 162.53333 546.19879
352.07605 162.99051 551.30579
354.62723 163.22476 553.57684
356.18704 163.23592 553.02014
358.08643 163.32164 553.39624
358.62665 163.10957 550.01709
360.18365 163.121 549.44653
362.08807 163.20706 549.80566
362.95081 163.06964 547.35535
364.50754 163.08134 546.76984
366.7742 163.24231 548.04303
369.05225 163.40344 549.3067
371.70154 163.63936 551.49091
374.36755 163.87547 553.66339
375.95459 163.88782 553.04041
378.27808 164.04961 554.26563
379.50122 163.98743 552.70355
380.71964 163.92528 551.13806
381.93335 163.86314 549.56921
383.52084 163.87578 548.91943
385.10889 163.88847 548.26416
386.69739 163.90118 547.60321
388.67288 163.98877 547.85583
390.26489 164.00156 547.18256
392.64111 164.16412 548.33759
394.23914 164.17697 547.65082
397.02911 164.41458 549.70227
398.63556 164.42749 549.00073
401.0473 164.59027 550.1181
403.06451 164.67813 550.31403
403.86316 164.54099 547.77216
405.47223 164.55374 547.04681
407.08109 164.56641 546.31598
408.68958 164.57899 545.57947
408.6232 164.29114 541.21735
-88.097855 165.81035 542.90613
-87.31958 165.9528 545.44733
-85.717041 165.93991 546.16711
-84.114426 165.92697 546.88141
-81.709137 165.7589 545.76477
-80.510483 165.82343 547.37921
-77.722702 165.57791 545.33051
-76.524368 165.6424 546.93384
-74.930313 165.62939 547.61658
-73.724503 165.69382 549.2121
-71.357803 165.52599 548.04559
-70.532684 165.66782 550.55164
-68.557495 165.57748 550.29126
-66.2108 165.40991 549.10022
-64.249939 165.31978 548.82318
-62.666946 165.30704 549.46344
-59.976624 165.06253 547.31989
-58.036224 164.97272 547.0188
-55.737747 164.80579 545.7818
-54.895905 164.94789 548.25226
-52.96814 164.8584 547.93054
-51.40239 164.84619 548.53265
-49.483994 164.75693 548.19696
-48.273102 164.82207 549.72064
-46.013504 164.65591 548.43793
-44.801468 164.72122 549.95184
-43.242157 164.70953 550.52612
-42.023697 164.77498 552.03223
-39.788498 164.60941 550.72052
-38.234222 164.59802 551.27795
-36.016479 164.43279 549.94995
-34.139664 164.34471 549.55414
-31.942078 164.17981 548.20929
-30.728485 164.24594 549.68427
-28.867294 164.15829 549.26837
-27.33107 164.14771 549.79016
-25.7957 164.13724 550.30701
-24.261124 164.12689 550.81879
-22.416321 164.03981 550.37823
-21.502747 164.1834 552.77551
-19.66217 164.09657 552.3241
-17.827652 164.0099 551.86603
-16.600159 164.07697 553.3028
-14.474594 163.9138 551.88171
-12.360352 163.75085 550.45251
-11.135147 163.81827 551.87463
-9.3255005 163.73235 551.38568
-7.5218506 163.64658 550.89032
-6.5783539 163.79102 553.25519
-5.9072266 164.01218 556.57471
-5.5005951 164.31003 560.85126
-4.7968445 164.53123 564.17126
-3.8038635 164.67586 566.53241
-1.9862061 164.5907 566.01379
0.094528198 164.42911 564.52887
2.9633636 164.03793 560.15381
5.5416107 163.7236 556.72839
8.0982819 163.40947 553.2926
10.633423 163.09558 549.84662
13.40303 162.70538 545.42682
16.14595 162.31541 540.99561
18.611404 162.00221 537.51831
21.303619 161.61272 533.06537
23.478104 161.3764 530.53424
25.636398 161.14029 527.99487
27.538193 160.98079 526.41504
29.666779 160.745 523.86005
31.073845 160.73868 524.20398
32.480385 160.73245 524.54382
33.656494 160.80273 525.84973
34.609978 160.94949 528.12354
35.79808 161.01993 529.42432
36.768768 161.16681 531.69415
38.188431 161.16101 532.01715
39.824623 161.07896 531.36273
41.455147 160.99702 530.70313
42.868271 160.99155 531.0127
44.071785 161.06247 532.29309
45.486649 161.05716 532.59509
46.493118 161.20456 534.84503
47.710907 161.27571 536.1167
48.73468 161.42322 538.36237
50.357086 161.34195 537.67334
51.780258 161.33707 537.95752
53.012024 161.40852 539.21619
54.625519 161.32755 538.51367
56.233467 161.24667 537.80621
57.652603 161.24214 538.07385
59.432785 161.08524 536.37653
61.202316 160.92845 534.67322
62.43454 161.00041 535.90881
63.671623 161.07245 537.14136
64.743164 161.22073 539.35339
65.656937 161.44525 542.54614
66.751091 161.59363 544.75439
67.855278 161.74207 546.96045
68.969505 161.89055 549.16418
70.093742 162.03908 551.36578
71.382919 162.11151 552.58008
72.524658 162.26016 554.77667
73.67643 162.40884 556.97095
74.691101 162.63373 560.14893
76.010139 162.70639 561.35223
76.908051 163.00748 565.51312
78.244621 163.08026 566.71112
79.859833 163.00089 565.93048
81.603935 162.84547 564.15723
83.337502 162.69017 562.3786
85.318832 162.38278 558.61731
87.02623 162.22766 556.82745
88.475151 162.22481 557.01117
90.166702 162.06987 555.21167
91.610077 162.06717 555.38708
93.053268 162.06453 555.55859
94.60997 161.9859 554.73578
96.161354 161.90733 553.90845
97.598877 161.90491 554.06793
99.036209 161.90254 554.22369
100.4734 161.90024 554.37561
102.01128 161.82196 553.53168
103.44558 161.81979 553.67578
104.87973 161.81769 553.8161
106.40688 161.73962 552.95996
107.74763 161.81367 554.08551
109.18137 161.81175 554.21454
110.61499 161.80989 554.33978
112.04849 161.80809 554.4613
113.48187 161.80635 554.5791
114.99284 161.72867 553.6991
116.49857 161.65103 552.81488
117.92648 161.64949 552.92108
119.35429 161.64798 553.0235
120.71455 161.72255 554.11713
122.14474 161.72118 554.21234
123.57484 161.71985 554.30383
124.9451 161.79457 555.38696
126.3776 161.79337 555.47113
127.81002 161.79219 555.55164
129.24237 161.79109 555.62842
130.67464 161.79005 555.70154
132.10686 161.78906 555.77087
133.539 161.78812 555.83655
134.97108 161.78725 555.8985
136.36391 161.8624 556.95313
137.79846 161.86163 557.00781
139.23296 161.86092 557.05872
140.66742 161.86024 557.10596
142.10184 161.85965 557.14954
143.56259 161.78311 556.19263
144.97055 161.8586 557.22559
146.42612 161.78217 556.26105
147.85785 161.78177 556.28979
149.27344 161.85741 557.31177
150.68059 162.00906 559.32715
152.11995 162.00882 559.34485
153.54248 162.16058 561.35309
154.98695 162.16046 561.3634
156.43141 162.16039 561.37
157.87589 162.16037 561.37292
159.32034 162.1604 561.37207
160.76482 162.16049 561.36755
162.2093 162.16063 561.35925
163.65379 162.16083 561.34729
165.11041 162.23705 562.32861
166.5575 162.23735 562.30914
167.98737 162.16173 561.28894
169.43195 162.16214 561.26215
170.89893 162.23859 562.22839
172.34612 162.23911 562.19397
173.76585 162.1637 561.15918
175.21056 162.16432 561.11737
176.68796 162.241 562.06848
178.13531 162.24173 562.01917
179.58273 162.24252 561.96606
181.07054 162.31935 562.90558
182.52063 162.32025 562.84485
183.97079 162.32121 562.78052
185.42102 162.32222 562.71234
186.82071 162.24731 561.64465
188.26851 162.24844 561.56909
189.77213 162.32561 562.48535
191.16434 162.25085 561.40674
192.67325 162.32816 562.31525
194.18739 162.40552 563.2196
195.64075 162.40694 563.12494
197.09421 162.40842 563.02655
198.61891 162.48595 563.91888
200.07513 162.48755 563.81274
201.37892 162.33719 561.71442
202.90909 162.41492 562.59497
204.3631 162.41669 562.4776
205.81723 162.41852 562.35651
207.18492 162.34439 561.2381
208.63673 162.34634 561.10956
209.9053 162.19629 558.99146
211.35226 162.19836 558.85577
212.79936 162.2005 558.71631
214.34602 162.27875 559.56519
215.79599 162.28101 559.41779
217.24612 162.28334 559.2666
218.80356 162.3618 560.10297
220.14691 162.28821 558.95282
221.59756 162.29073 558.79016
223.16324 162.36938 559.61414
224.73424 162.44814 560.43359
226.31058 162.52695 561.2486
227.64716 162.45369 560.08014
229.10391 162.45656 559.89752
230.56088 162.4595 559.71112
232.01807 162.46252 559.52075
233.34262 162.38951 558.33832
235.06853 162.54489 560.11621
236.52896 162.54813 559.91382
237.98965 162.55145 559.70752
239.59373 162.63097 560.48401
241.0575 162.63443 560.26941
242.5215 162.63797 560.05084
244.13669 162.71774 560.81403
245.60382 162.72145 560.58716
247.07124 162.72523 560.35632
248.8562 162.88144 562.09027
250.49057 162.96158 562.83453
252.1304 163.04179 563.57397
253.60933 163.04593 563.32538
255.25754 163.12634 564.05542
256.73969 163.13066 563.79822
258.22217 163.13506 563.53699
259.70502 163.13954 563.27167
261.36749 163.22034 563.98303
262.67175 163.14877 562.7287
264.34009 163.22974 563.43079
266.20105 163.38708 565.1073
267.88312 163.46831 565.79877
270.14737 163.77843 569.42017
272.04312 163.93616 571.07751
273.55487 163.94145 570.77393
275.66699 164.17572 573.39648
277.38995 164.25754 574.05902
278.09271 163.9579 569.83734
279.1907 163.81094 567.56616
280.27881 163.66403 565.29291
280.50525 163.21179 559.12134
280.70105 162.75955 552.95227
281.73868 162.61273 550.67755
282.32495 162.31322 546.45624
283.11429 162.09012 543.20721
283.88855 161.86705 539.95758
284.41916 161.5676 535.73682
285.16064 161.34459 532.48676
285.88702 161.12161 529.23615
286.59833 160.89867 525.98523
287.53348 160.7522 523.7019
288.70026 160.68227 522.38446
289.61823 160.53592 520.09735
290.77313 160.46613 518.7749
291.92328 160.39641 517.44946
293.06885 160.32677 516.12122
294.46429 160.33376 515.75427
295.60321 160.26428 514.41974
297.51675 160.42458 515.97028
298.91663 160.43188 515.5899
300.31705 160.4393 515.2052
301.98575 160.52342 515.77679
303.39008 160.53107 515.38281
304.24936 160.38557 513.06659
305.64975 160.39342 512.66547
307.05078 160.40137 512.26001
308.17175 160.33276 510.89346
309.5715 160.34091 510.48004
310.68597 160.27249 509.10709
312.08447 160.28085 508.6857
314.06604 160.44279 510.16696
315.76498 160.52817 510.68793
317.7663 160.69046 512.15466
319.18073 160.69936 511.7113
320.59589 160.70837 511.26343
322.62048 160.87112 512.70996
324.3493 160.95723 513.19989
325.465 160.88979 511.78796
327.51285 161.05302 513.21381
329.25714 161.13956 513.68549
331.64246 161.38004 516.04095
334.68475 161.7746 520.27484
338.39978 162.32333 526.38165
342.47797 162.9494 533.41321
347.58356 163.80681 543.24976
351.09448 164.27977 548.35797
353.97125 164.59903 551.5705
356.534 164.84152 553.83167
358.43613 164.93015 554.2063
359.32037 164.78766 551.76331
360.53882 164.72232 550.25476
362.44601 164.81128 550.61255
363.66071 164.74608 549.09521
364.87091 164.68095 547.57458
366.78571 164.77023 547.91425
369.42114 165.01405 550.10803
371.35339 165.10364 550.43073
374.37946 165.42505 553.5321
376.33179 165.51495 553.83649
378.2901 165.60495 554.1333
379.88385 165.61777 553.49683
381.10501 165.55333 551.93024
382.32141 165.48889 550.36023
384.29016 165.57921 550.63147
385.50232 165.51483 549.05243
386.70956 165.45044 547.46997
389.07172 165.61833 548.64117
390.66638 165.63142 547.96649
392.65338 165.722 548.20294
394.64594 165.81262 548.43146
396.24683 165.82578 547.73761
398.24786 165.91644 547.95142
401.4621 166.23981 550.89337
403.07666 166.25296 550.17676
404.28317 166.18846 548.5448
406.71609 166.35674 549.63507
407.5062 166.21439 547.08569
408.70132 166.14955 545.44177
409.89063 166.08455 543.79474
-88.109802 167.37003 542.76514
-87.740997 167.59769 546.2149
-85.729187 167.50435 546.02606
-84.530685 167.57133 547.65186
-82.524078 167.47794 547.44952
-80.921478 167.46465 548.15277
-78.131012 167.21101 546.10614
-76.930054 167.27783 547.71063
-74.552048 167.10443 546.56073
-73.348907 167.1712 548.15503
-71.755508 167.15794 548.82684
-70.162445 167.1447 549.49292
-68.189896 167.05153 549.23199
-66.977753 167.11832 550.80847
-64.636871 166.94534 549.61041
-63.051132 166.9323 550.25195
-60.358047 166.67967 548.11041
-58.414902 166.58698 547.81091
-56.113708 166.41454 546.57574
-54.546478 166.4019 547.18896
-52.621277 166.30954 546.8667
-51.414124 166.37686 548.39911
-49.142319 166.20497 547.1319
-48.284698 166.35217 549.58765
-46.373062 166.26027 549.23981
-44.812866 166.24818 549.81958
-43.253479 166.23621 550.3941
-42.034958 166.30399 551.90033
-39.462189 166.05331 549.65137
-38.245255 166.12131 551.14703
-36.027374 165.95059 549.8197
-34.150436 165.85966 549.42438
-32.279556 165.76888 549.02191
-30.739014 165.75778 549.55511
-28.556107 165.58777 548.19617
-27.341385 165.65643 549.6618
-25.489578 165.56624 549.23352
-23.95755 165.55566 549.74469
-22.737305 165.62463 551.19788
-21.204224 165.61429 551.69989
-19.671906 165.60405 552.19684
-18.140396 165.59395 552.6889
-16.60965 165.58395 553.17596
-14.483963 165.41539 551.75562
-12.66478 165.32635 551.27911
-11.144257 165.3168 551.74915
-9.6244812 165.30736 552.21436
-7.8180542 165.21875 551.72015
-6.8718872 165.36813 554.08563
-6.4801941 165.67609 558.36163
-5.5092316 165.82555 560.72528
-4.5285339 165.97507 563.08722
-3.8123627 166.20387 566.40582
-1.4512634 165.95753 563.9693
1.1624603 165.63222 560.56378
3.7546082 165.30714 557.14764
6.5889893 164.90315 552.75977
9.3965759 164.49942 548.36017
11.918823 164.17506 544.91168
14.675568 163.77184 540.48962
17.405609 163.36884 536.05621
19.607452 163.12427 533.5412
22.041214 162.80081 530.05237
24.208038 162.55661 527.51996
26.115707 162.39166 525.94623
28.252762 162.14784 523.39825
30.135941 161.9832 521.81024
31.537888 161.97675 522.15308
32.939339 161.9704 522.49176
34.110336 162.04312 523.79633
35.058685 162.19492 526.06866
36.241692 162.26779 527.3681
37.429405 162.34076 528.66473
39.060966 162.25591 528.01355
40.686859 162.17117 527.35718
42.092735 162.16548 527.66919
43.709953 162.08099 527.00305
44.903191 162.1544 528.28113
46.307777 162.14899 528.58099
47.507942 162.22256 529.85272
48.712868 162.29622 531.12158
49.723778 162.44879 533.36426
51.333313 162.36488 532.67303
52.356361 162.51761 534.91046
53.771515 162.5127 535.18909
55.374741 162.42908 534.48492
56.786537 162.42436 534.75525
58.381302 162.34094 534.04169
60.15126 162.1788 532.34283
61.554283 162.17438 532.59991
62.781433 162.24881 533.83435
64.013412 162.32333 535.06592
64.90947 162.55545 538.25897
65.988525 162.70883 540.46808
66.912369 162.94104 543.6582
68.01403 163.09453 545.86353
69.285789 163.16934 547.08264
70.247467 163.40167 550.2674
71.534126 163.47659 551.4812
72.673332 163.63031 553.67712
73.672859 163.86276 556.8562
74.981918 163.93787 558.06177
76.151291 164.09174 560.25049
76.904648 164.48174 565.39703
78.380737 164.4783 565.60779
79.719719 164.55365 566.802
81.197899 164.55037 567.00519
82.939278 164.38983 565.22815
84.928421 164.07204 561.46869
86.770195 163.83304 558.69147
88.34832 163.75145 557.88678
89.921104 163.66995 557.07751
91.488548 163.58852 556.26379
92.93438 163.58582 556.43567
94.493729 163.50453 555.61334
96.047745 163.42334 554.78668
97.4879 163.42085 554.94653
98.927887 163.41843 555.10254
100.47112 163.33743 554.26324
101.90822 163.33514 554.41144
103.34515 163.33292 554.55579
104.87765 163.25217 553.70416
106.31172 163.25006 553.84076
107.74567 163.24805 553.97363
109.17947 163.24606 554.10266
110.61316 163.24417 554.22797
112.12958 163.16373 553.35608
113.56042 163.16196 553.47375
114.99119 163.16025 553.58759
116.34668 163.23717 554.69183
117.92495 163.07841 552.80988
119.21278 163.23404 554.90131
120.64569 163.23256 555.00043
122.14339 163.15256 554.10101
123.57353 163.15121 554.19257
124.94386 163.22849 555.27551
126.43358 163.14868 554.3645
127.80888 163.22604 555.44031
129.24129 163.22491 555.51709
130.67361 163.22385 555.59021
132.05898 163.30139 556.6554
133.49374 163.30043 556.72125
134.92845 163.29953 556.78333
136.3631 163.29868 556.84167
137.79771 163.29788 556.89636
139.23227 163.29715 556.94733
140.66678 163.29648 556.99463
142.10126 163.29585 557.03815
143.53568 163.29529 557.078
144.97008 163.29477 557.1142
146.40445 163.29431 557.14661
147.83881 163.29391 557.17535
149.27312 163.29356 557.20044
150.68033 163.45035 559.21545
152.10876 163.52866 560.22998
153.55074 163.52846 560.24402
154.98685 163.60689 561.25134
156.42809 163.68533 562.25482
157.87589 163.60678 561.2608
159.32225 163.68535 562.2569
160.76935 163.68546 562.25238
162.22343 163.76413 563.24097
163.66356 163.68579 562.23206
165.1228 163.76459 563.2132
166.55783 163.68636 562.19684
168.005 163.68672 562.17365
169.43239 163.60861 561.15002
170.89941 163.68762 562.11609
172.34666 163.68816 562.08167
173.79396 163.68874 562.04352
175.2413 163.68939 562.00171
176.68866 163.69009 561.95605
178.13609 163.69084 561.90674
179.58356 163.69165 561.85364
181.07143 163.77107 562.79291
182.47867 163.69345 561.73627
183.9718 163.77298 562.66785
185.42207 163.77402 562.59967
186.82182 163.69656 561.53217
188.32285 163.77628 562.45209
189.82909 163.85605 563.36792
191.16562 163.7002 561.29419
192.67459 163.78011 562.20239
194.1888 163.86006 563.10657
195.70822 163.94009 564.00659
197.16431 163.9416 563.90796
198.6205 163.94318 563.80554
200.07678 163.94482 563.69928
201.45689 163.86792 562.59528
202.9897 163.94827 563.47552
204.36491 163.87151 562.36426
205.81909 163.87338 562.24304
207.18686 163.79674 561.12494
208.63873 163.79874 560.99634
209.81566 163.56499 557.88586
211.35437 163.64572 558.7428
212.89838 163.72652 559.59546
214.44768 163.80739 560.44385
215.9003 163.80972 560.2962
217.45763 163.89073 561.13611
218.91313 163.89319 560.98047
220.25912 163.81709 559.83014
221.7124 163.81969 559.66711
223.28073 163.901 560.4906
224.97179 164.06104 562.2995
226.55334 164.14249 563.11365
227.89513 164.06673 561.94458
229.48224 164.14835 562.75037
230.81931 164.07272 561.57416
232.15141 163.99716 560.39471
233.47859 163.92165 559.21198
234.93631 163.9249 559.01385
236.39426 163.92821 558.81171
237.99301 164.01028 559.59259
239.45401 164.01376 559.38226
241.061 164.09601 560.15411
242.5251 164.09966 559.93555
244.14037 164.1821 560.69836
245.60757 164.18588 560.47144
247.23112 164.26849 561.2251
248.70149 164.27248 560.98981
250.49457 164.43402 562.71796
252.13449 164.51692 563.45709
253.61353 164.52116 563.20844
255.09283 164.52548 562.95563
256.74405 164.60867 563.68085
258.22662 164.61319 563.41949
259.70953 164.61777 563.15399
261.19281 164.62247 562.88452
262.67645 164.62723 562.61084
264.34491 164.71091 563.31268
266.01892 164.79471 564.00958
267.88812 164.95744 565.67981
270.34473 165.35684 570.2785
271.85358 165.36217 569.97949
273.7576 165.5253 571.63049
275.67242 165.68858 573.27521
277.1929 165.69423 572.96124
277.89316 165.38441 568.74091
279.19641 165.31133 567.44556
280.07422 165.08049 564.19812
280.51105 164.69185 559.00208
280.70691 164.22427 552.83417
281.52646 163.9935 549.58698
282.33093 163.76279 546.33911
283.12033 163.53209 543.09058
283.6687 163.22244 538.87042
284.65384 163.0708 536.59161
284.93573 162.68222 531.40198
285.89331 162.53067 529.12164
286.60468 162.30013 525.87115
287.30096 162.06964 522.62036
288.46524 161.99727 521.30359
289.62482 161.92497 519.98395
290.53302 161.7737 517.69562
291.68073 161.70155 516.37097
292.82376 161.6295 515.04352
293.96213 161.55751 513.7132
295.61023 161.64388 514.30634
297.26416 161.73038 514.89392
298.92389 161.817 515.47577
300.58948 161.90378 516.05194
301.99326 161.9115 515.66211
303.12744 161.84015 514.30847
304.52991 161.84808 513.91083
305.38208 161.69768 511.59265
306.78058 161.70581 511.18781
307.89905 161.6348 509.82202
309.01294 161.56387 508.45349
310.69418 161.65161 508.992
311.8042 161.58089 507.61627
313.49207 161.66887 508.14435
315.47971 161.83636 509.61905
317.47858 162.00403 511.08597
318.89047 162.01312 510.64325
320.90656 162.18112 512.09619
322.62952 162.2699 512.59198
323.74454 162.19998 511.18469
325.47424 162.289 511.66953
327.20999 162.3782 512.14807
328.95178 162.46754 512.62024
331.01709 162.63654 514.03076
333.41394 162.88522 516.37708
336.79578 163.37276 521.54254
341.18652 164.09927 529.51892
346.28183 164.98541 539.35645
350.44391 165.6333 546.34747
353.98233 166.12241 551.43964
356.88129 166.45259 554.63831
358.78613 166.5441 555.01147
359.33179 166.31706 551.63129
360.2063 166.16969 549.18707
362.45758 166.34122 550.47986
363.67233 166.27371 548.96252
365.23456 166.28603 548.37451
367.15213 166.3782 548.71259
369.07581 166.47052 549.04327
370.64554 166.48314 548.43695
373.66644 166.81522 551.53925
375.24823 166.82809 550.91779
377.56659 167.00079 552.14362
379.89624 167.17368 553.35968
381.1174 167.10692 551.79309
382.70972 167.1201 551.14618
384.30261 167.13336 550.49371
385.51477 167.06665 548.91467
387.10596 167.07996 548.25208
389.08423 167.17331 548.50269
390.28961 167.10661 546.9101
392.66589 167.28014 548.06372
394.65848 167.37364 548.29175
396.65662 167.46716 548.51178
398.66028 167.56071 548.72394
401.07196 167.73445 549.8399
403.08905 167.82803 550.03479
405.11142 167.9216 550.22174
406.31763 167.85464 548.58405
407.51828 167.78757 546.9433
408.29724 167.64005 544.39355
409.9024 167.65292 543.65234
-89.358063 169.17847 545.34167
-87.753296 169.16519 546.06873
-85.741592 169.06903 545.88043
-84.543167 169.13837 547.50616
-82.135269 168.95937 546.39215
-79.738037 168.7804 545.26782
-78.143646 168.76689 545.96228
-76.549377 168.75336 546.65106
-74.564651 168.65717 546.41748
-73.361603 168.72629 548.01196
-71.382828 168.63014 547.76489
-69.792465 168.61665 548.43024
-68.202515 168.60318 549.0899
-66.235703 168.5072 548.82166
-64.649429 168.49384 549.46912
-63.06366 168.48053 550.11096
-60.370483 168.21982 547.97046
-58.7939 168.2067 548.59802
-56.489944 168.02875 547.36469
-54.197342 167.85098 546.12177
-52.992065 167.92056 547.65857
-51.426193 167.90781 548.26123
-49.154251 167.73044 546.99475
-48.2966 167.88257 549.45032
-46.384827 167.78777 549.10284
-44.824554 167.77542 549.68298
-43.607849 167.84543 551.1936
-41.70639 167.75102 550.82727
-39.811005 167.65675 550.45374
-38.591354 167.72705 551.95038
-36.370712 167.55087 550.62476
-34.490967 167.45705 550.23077
-32.944199 167.44553 550.77118
-31.074036 167.35201 550.36414
-29.209946 167.25864 549.95013
-27.670914 167.24753 550.47339
-25.81633 167.15445 550.04645
-24.5952 167.22565 551.50464
-22.747528 167.13287 551.06592
-21.214294 167.12227 551.56812
-19.376114 167.02979 551.11682
-17.847122 167.01947 551.60828
-16.318909 167.00926 552.09479
-14.493576 166.91724 551.62531
-12.674271 166.82538 551.14929
-11.153625 166.81558 551.61951
-9.6336975 166.80591 552.08484
-8.1145477 166.79637 552.54547
-7.7351685 167.11441 556.82166
-7.0534058 167.35059 560.14337
-6.0771332 167.50496 562.50836
-5.0911255 167.65942 564.87164
-3.5467834 167.65034 565.31677
-0.64479065 167.23248 560.96252
1.9612579 166.89667 557.55591
5.0785828 166.39758 552.21796
7.9001007 165.98053 547.8277
10.694809 165.56375 543.42578
13.204178 165.22894 539.97485
15.692062 164.89438 536.51379
18.158463 164.56001 533.04279
20.603394 164.22589 529.56195
22.778732 163.97363 527.03674
24.692307 163.80321 525.46912
26.83786 163.55132 522.92804
28.726883 163.38123 521.34613
30.367226 163.29291 520.72534
32.001839 163.2047 520.09912
33.165642 163.27979 521.40582
34.564072 163.27341 521.73999
35.507286 163.43022 524.01086
36.685181 163.50555 525.30902
38.312141 163.41791 524.66107
39.933411 163.33037 524.00793
41.115097 163.40599 525.2951
42.944633 163.23718 523.65942
44.128021 163.31297 524.93909
45.316147 163.38885 526.216
46.715652 163.38335 526.51489
47.910713 163.45938 527.78546
49.311958 163.45406 528.07703
50.315155 163.61169 530.31787
51.917038 163.5251 529.62537
53.126045 163.60146 530.88324
54.721977 163.51508 530.18182
55.935425 163.59158 531.4328
57.711357 163.42401 529.74329
59.10997 163.41931 530.00732
60.50824 163.4147 530.26746
62.084328 163.32883 529.54297
63.303802 163.40576 530.77594
64.355141 163.56412 532.98755
65.416473 163.72253 535.1972
66.320023 163.96233 538.38715
67.238762 164.20218 541.57587
68.33535 164.36072 543.77991
69.441948 164.51933 545.98181
70.558586 164.67799 548.18152
71.840164 164.75542 549.39435
72.974297 164.91418 551.58905
73.968719 165.1543 554.76685
75.27269 165.2319 555.97156
76.292366 165.47211 559.14526
77.185226 165.79364 563.30396
78.37735 165.95265 565.48779
79.579536 166.11174 567.66913
81.194649 166.02713 566.88519
82.936119 165.86136 565.10858
84.667068 165.69569 563.32666
86.514069 165.4489 560.55084
88.345421 165.20219 557.7691
89.918282 165.11804 556.96014
91.485802 165.03397 556.14667
92.931686 165.0312 556.31873
94.491112 164.9473 555.49664
96.045212 164.86346 554.67017
97.485428 164.8609 554.83008
98.925484 164.85843 554.98615
100.46878 164.77483 554.14722
101.8051 164.85367 555.28699
103.34294 164.7702 554.43988
104.8755 164.6868 553.58844
106.21652 164.76582 554.71735
107.74366 164.68259 553.85797
109.17752 164.68057 553.98712
110.52585 164.75978 555.10547
112.04489 164.67673 554.23407
113.47839 164.67493 554.35199
114.91177 164.67316 554.46606
116.34505 164.67145 554.57642
117.77821 164.66982 554.68304
119.14125 164.74939 555.78027
120.57678 164.74788 555.87964
122.0771 164.66528 554.98065
123.50987 164.66388 555.07239
124.94257 164.66255 555.16034
126.37518 164.66129 555.24463
127.80772 164.66006 555.3252
129.24017 164.65891 555.40204
130.67256 164.65781 555.47516
132.10489 164.65678 555.54462
133.4928 164.73692 556.60602
134.92757 164.73599 556.66809
136.36227 164.73514 556.72656
137.79694 164.73431 556.78125
139.23155 164.73357 556.83221
140.66612 164.73288 556.87952
142.0717 164.81334 557.91931
143.50876 164.81277 557.95929
144.96959 164.73114 556.99915
146.40402 164.73067 557.03162
147.83842 164.73026 557.06036
149.25668 164.811 558.08197
150.68005 164.89182 559.10004
152.10855 164.97267 560.11438
153.54216 165.05359 561.12512
154.98674 165.05347 561.13544
156.42804 165.13449 562.13873
157.8759 165.05336 561.14496
159.32233 165.13451 562.14087
160.76947 165.13461 562.13635
162.2236 165.21585 563.12469
163.66379 165.13496 562.11603
165.11098 165.13522 562.10028
166.55817 165.13553 562.08075
167.98816 165.05481 561.06104
169.43283 165.05524 561.03412
170.89993 165.13684 562
172.34723 165.13737 561.96552
173.79459 165.13799 561.92743
175.27205 165.21976 562.88177
176.68939 165.13934 561.83984
178.13689 165.14014 561.79053
179.58441 165.14096 561.73749
181.07234 165.22298 562.67657
182.52255 165.22392 562.61584
183.97281 165.22493 562.55133
185.42316 165.226 562.48315
186.82295 165.146 561.41577
188.27087 165.14719 561.34021
189.71886 165.14842 561.26086
191.16693 165.14972 561.1778
192.6151 165.15109 561.09094
194.19023 165.31479 562.98969
195.70972 165.39742 563.88953
197.16586 165.39896 563.79077
198.69327 165.48172 564.6825
200.07846 165.40225 563.58203
201.45865 165.32285 562.47827
202.91266 165.32465 562.36462
204.36678 165.32651 562.24713
205.82103 165.32843 562.12592
207.27541 165.33043 562.00085
208.64078 165.25131 560.87921
209.90945 165.09108 558.76184
211.45082 165.17444 559.61835
212.99747 165.25786 560.47046
214.44998 165.26016 560.32654
216.00465 165.34375 561.17035
217.56462 165.4274 562.00964
219.02278 165.42993 561.85376
220.3714 165.35132 560.70331
221.82733 165.35397 560.53992
223.51314 165.51913 562.35291
225.20943 165.68439 564.16071
226.7962 165.76851 564.97394
228.26576 165.77148 564.79352
229.6104 165.6933 563.62042
230.95009 165.61517 562.44403
232.15457 165.45587 560.27631
233.34897 165.29663 558.10596
234.80417 165.29993 557.90802
236.39761 165.38458 558.69324
237.99646 165.46933 559.47388
239.60071 165.55415 560.24976
241.35611 165.72037 562.00696
242.82544 165.72411 561.78754
244.29504 165.72792 561.56409
245.76489 165.73181 561.33661
247.39111 165.81711 562.0896
248.86414 165.82118 561.85376
250.65991 165.98799 563.58105
252.1387 165.99225 563.3363
253.6178 165.99658 563.08746
255.26617 166.08237 563.81689
256.92004 166.16824 564.54138
258.4053 166.17287 564.27942
259.8909 166.17758 564.01343
261.37683 166.18239 563.74329
263.04504 166.26868 564.44904
264.71875 166.35507 565.1496
266.39804 166.44159 565.84509
268.27252 166.60962 567.51385
270.54224 166.94064 571.13239
272.24854 167.02753 571.81012
273.96048 167.11453 572.48267
275.67804 167.20166 573.14984
277.19861 167.20744 572.83575
277.8989 166.88745 568.61609
278.99448 166.73045 566.34607
280.08014 166.57352 564.07397
280.517 166.17212 558.87878
280.49731 165.60771 551.73889
281.31439 165.36935 548.49292
281.89557 165.04948 544.27417
282.45651 164.72963 540.05603
283.22308 164.49135 536.80914
283.97458 164.25311 533.56177
284.47986 163.93333 529.34442
285.66602 163.85834 528.03442
286.37488 163.62021 524.78503
287.30756 163.46375 522.50305
288.47192 163.38895 521.18628
289.14331 163.15096 517.93414
290.04636 162.99466 515.6474
290.93958 162.83841 513.35919
291.82291 162.68222 511.06958
293.46008 162.77118 511.66925
295.10309 162.86026 512.26343
296.75189 162.94949 512.85193
298.93137 163.20235 515.35785
300.33203 163.21013 514.97284
302.00098 163.2998 515.54364
303.40549 163.30783 515.14929
304.53778 163.23419 513.79211
305.39005 163.07881 511.47424
306.7887 163.08714 511.06924
307.90723 163.01375 509.70352
309.02124 162.94044 508.33499
310.41663 162.9491 507.91837
311.81271 162.95786 507.49738
313.50067 163.04865 508.02505
315.19461 163.1396 508.54672
316.8945 163.2307 509.06229
318.30127 163.23999 508.62106
320.0105 163.33138 509.12515
322.03006 163.50491 510.57199
323.75391 163.59662 511.06277
325.17413 163.60645 510.59991
326.90735 163.69846 511.07886
328.96149 163.87267 512.49689
330.39191 163.8829 512.01746
332.78357 164.13959 514.36462
336.1604 164.64288 519.53033
339.2442 165.06436 523.73828
344.65207 166.06134 534.51959
348.80118 166.73016 541.51324
352.3266 167.235 546.6084
355.54852 167.65797 550.74884
358.12033 167.91676 552.99994
358.31934 167.5999 548.68573
360.21802 167.69444 549.05078
362.12274 167.78912 549.40845
363.33496 167.71927 547.89209
365.24655 167.81421 548.23712
367.16422 167.90926 548.57471
368.73068 167.92206 547.97455
370.65781 168.01736 548.29828
373.31625 168.27768 550.47113
375.26074 168.37329 550.77765
377.94714 168.63397 552.92896
379.90894 168.72984 553.21808
381.13007 168.66075 551.65131
382.72247 168.67424 551.00421
