ply
format ascii 1.0
comment PCL generated
element vertex 1589
property float x
property float y
property float z
element camera 0
property float view_px
property float view_py
property float view_pz
property float x_axisx
property float x_axisy
property float x_axisz
property float y_axisx
property float y_axisy
property float y_axisz
property float z_axisx
property float z_axisy
property float z_axisz
property float focal
property float scalex
property float scaley
property float centerx
property float centery
property int viewportx
property int viewporty
property float k1
property float k2
end_header
223.93889 49.869797 563.95026
225.52733 49.746239 564.76239
226.88126 49.865715 563.59937
228.47525 49.742043 564.40302
229.82445 49.861397 563.23279
231.16872 49.980713 562.05927
232.63829 49.978416 561.86646
234.24091 49.8545 562.65332
235.84891 49.730507 563.43561
237.46228 49.606445 564.21313
239.08107 49.482323 564.98596
240.84836 49.236542 566.73627
242.33487 49.233856 566.51733
244.26642 48.866333 569.23871
245.91205 48.741898 569.99164
247.71652 48.495789 571.72034
249.06366 48.614418 570.50256
250.08881 48.976219 567.32178
250.77649 49.581215 562.18066
251.11127 50.429428 555.08185
251.74283 51.034416 549.94202
252.51779 51.517754 545.78064
253.10095 52.122688 540.64136
254.18079 52.362694 538.43414
255.07401 52.724289 535.24817
255.95206 53.085861 532.06104
257.17856 53.204063 530.8244
258.76898 53.078873 531.53528
259.99103 53.196945 530.29175
261.5874 53.071587 530.99384
263.1893 52.946136 531.69098
264.79675 52.820602 532.38306
266.60709 52.57328 534.04285
268.02841 52.569267 533.75208
269.24762 52.686897 532.4856
270.87225 52.561012 533.15839
271.67178 52.921967 529.94373
272.66644 53.161171 527.69824
273.65121 53.400307 525.45105
274.84149 53.517624 524.17102
275.80902 53.756653 521.91974
276.98724 53.873856 520.63446
278.38403 53.869217 520.31342
280.00708 53.742699 520.95483
281.63586 53.616074 521.59094
283.73242 53.245712 524.15234
285.61139 52.997055 525.74109
287.50134 52.74826 527.32318
289.40219 52.499336 528.8985
291.79688 52.006599 532.3924
293.23676 52.001129 532.02856
294.67725 51.995567 531.6604
296.11829 51.989914 531.2879
296.80429 52.349854 528.03088
297.22079 52.831665 523.81433
297.617 53.313477 519.59894
298.77203 53.429512 518.25879
300.44702 53.30162 518.83026
302.12787 53.173607 519.396
303.81451 53.045479 519.95587
305.77719 52.79528 521.46503
307.47821 52.666931 522.01245
308.63434 52.782463 520.64667
310.61987 52.531906 522.13654
312.33594 52.403229 522.66675
314.05792 52.274452 523.19092
316.9292 51.657394 527.51086
319.25049 51.284233 529.91895
321.8793 50.788857 533.26648
324.52985 50.293274 536.60284
327.20212 49.797516 539.92798
329.89612 49.301582 543.24164
333.21515 48.561211 548.43506
336.87067 47.698471 554.55811
339.33636 47.324051 556.88873
341.50909 47.071617 558.26624
342.75665 47.185593 556.80865
343.99982 47.299522 555.34778
343.96869 47.902222 550.12195
345.51233 47.893906 549.59747
347.37936 47.763321 550.00635
348.92712 47.754883 549.4707
350.47571 47.746391 548.92993
352.35559 47.615585 549.3197
353.90826 47.607002 548.76752
355.46164 47.598373 548.21014
357.35434 47.467407 548.58044
358.91187 47.458702 548.01166
361.50165 47.082947 550.23053
363.41507 46.951813 550.57819
365.33444 46.820641 550.91846
367.61163 46.567062 552.17938
368.83664 46.680649 550.64984
370.41412 46.67186 550.04291
371.99219 46.663101 549.43048
373.2084 46.776833 547.88873
374.785 46.768173 547.26654
376.72986 46.637093 547.56067
378.31006 46.628563 546.92645
380.26385 46.497589 547.20648
382.59906 46.244186 548.39734
384.56689 46.11335 548.66089
386.54041 45.982628 548.91669
387.75208 46.097145 547.33423
388.57217 46.334427 544.83423
390.54901 46.204147 545.07239
392.13956 46.19664 544.39093
394.12451 46.066734 544.61462
397.30588 45.569153 547.55927
399.70905 45.317009 548.67224
401.31787 45.310394 547.96057
403.73654 45.058746 549.05554
405.35004 45.052719 548.33057
406.55273 45.169724 546.69647
408.57556 45.041733 546.86426
410.603 44.914124 547.02423
411.37988 45.155045 544.47644
-89.571701 47.116241 543.8291
-87.970474 47.121452 544.5567
-86.775085 47.006973 546.18463
-84.766571 47.132866 545.99573
-82.763016 47.259064 545.79889
-81.561371 47.145485 547.4129
-79.958496 47.152191 548.11322
-77.176315 47.519081 546.07312
-75.971802 47.406212 547.67181
-73.986526 47.533485 547.43945
-72.006683 47.660912 547.19922
-70.032349 47.788475 546.95123
-68.063614 47.916153 546.69556
-65.346283 48.283745 544.59546
-63.7686 48.291702 545.24164
-61.819519 48.419632 544.96185
-59.876144 48.547623 544.67438
-59.038025 48.316086 547.14746
-57.098343 48.444183 546.84814
-55.88678 48.33268 548.39075
-53.953491 48.460854 548.07849
-52.381927 48.469238 548.68549
-50.457809 48.597427 548.35931
-48.890152 48.605827 548.95459
-47.323166 48.614243 549.54449
-46.102066 48.502914 551.05988
-44.533798 48.511337 551.64008
-42.966232 48.51973 552.21497
-41.736664 48.408409 553.71832
-39.833206 48.536469 553.34882
-37.603821 48.784126 552.03656
-35.385727 49.031693 550.71527
-33.832382 49.039871 551.26007
-32.927963 48.808746 553.67664
-31.692307 48.697243 555.15228
-29.814529 48.824905 554.74414
-27.31044 49.191666 552.44672
-23.568802 50.036583 546.37085
-18.621201 51.359489 536.5061
-14.348801 52.442947 528.50482
-11.041458 53.167473 523.3172
-8.0693512 53.77227 519.05994
-6.3257294 53.898827 518.57483
-4.2903595 54.144775 517.13629
-2.8563995 54.151634 517.58575
-1.1306763 54.277878 517.08191
0.5891571 54.404037 516.57178
2.3030396 54.530075 516.0556
4.0110168 54.656021 515.53333
5.9951019 54.901291 514.05304
7.6886597 55.027008 513.51794
8.5460358 54.794426 515.83728
9.6873474 54.68119 517.20111
10.833267 54.567886 518.56207
11.71489 54.335175 520.87573
12.87265 54.221771 522.23151
14.82608 54.466324 520.71289
16.768478 54.710762 519.18695
18.699844 54.95507 517.65387
20.620178 55.199257 516.11365
22.529495 55.443306 514.56647
23.926529 55.448658 514.93359
25.819077 55.69249 513.37384
27.209747 55.697643 513.73132
28.599899 55.702709 514.08466
29.989517 55.707706 514.43378
31.378609 55.712616 514.77881
32.532143 55.598206 516.08435
33.922806 55.602962 516.42181
35.083138 55.488422 517.72101
36.475395 55.493011 518.05096
37.417892 55.259132 520.31097
38.814377 55.26358 520.63403
39.990959 55.148773 521.9212
42.039726 55.510609 519.32996
43.429657 55.514805 519.63965
45.242516 55.757259 518.00519
46.83548 55.880444 517.33514
48.216347 55.884392 517.63116
49.392868 55.769119 518.89502
50.77552 55.772938 519.18359
52.157738 55.776665 519.46838
53.343437 55.661205 520.72253
54.727486 55.664803 520.99994
55.920166 55.54921 522.24786
56.740906 55.195374 525.4425
57.576782 54.841499 528.63629
58.244598 54.368507 532.80493
58.932724 53.895493 536.97351
59.641159 53.422447 541.14203
60.194473 52.830322 546.28748
60.946129 52.357246 550.45593
61.547821 51.765091 555.60211
62.174973 51.17292 560.74884
63.157898 50.818825 563.93774
63.993416 50.345657 568.10468
65.329208 50.229561 569.33118
67.142075 50.47052 567.6134
68.789497 50.592354 566.87067
70.431465 50.714119 566.12305
72.367348 51.073845 563.40747
73.846222 51.076454 563.63123
75.324806 51.078979 563.85107
76.945084 51.20047 563.08417
78.420578 51.202873 563.29565
79.895836 51.205223 563.50311
81.370857 51.20752 563.70654
82.977272 51.328743 562.92194
84.449234 51.33091 563.11719
86.047485 51.452003 562.32367
87.640373 51.573044 561.52551
89.227905 51.694016 560.72278
90.810089 51.814926 559.91553
92.270714 51.816803 560.0899
93.958443 52.056572 558.28748
95.413551 52.05835 558.45343
96.868469 52.060066 558.61554
98.2173 51.942795 559.76093
99.777802 52.063362 558.9281
101.23222 52.064941 559.07861
102.58826 51.947517 560.21332
103.94928 51.830055 561.34467
105.40837 51.831497 561.48413
106.95782 51.951828 560.63098
107.88638 51.239548 566.69653
109.35789 51.24086 566.82562
110.99488 51.47998 564.97198
112.70173 51.83799 562.1239
114.54839 52.433777 557.2912
116.5946 53.386299 549.4823
118.52708 54.21981 542.65698
120.35355 54.934349 536.81561
121.94688 55.292053 533.94037
123.58957 55.768627 530.0697
125.08709 56.007317 528.17596
126.51454 56.127045 527.26917
127.8225 56.008907 528.34094
129.29924 56.247467 526.4353
130.66162 56.248165 526.50861
132.12283 56.486645 524.59503
133.62059 56.843987 521.68567
135.05858 57.082382 519.76392
136.36099 56.964024 520.81427
137.70767 56.964527 520.86932
139.01768 56.8461 521.91302
140.33278 56.727634 522.95343
141.65295 56.609127 523.9906
143.00716 56.609505 524.0318
144.41403 56.847641 522.08447
145.73924 56.729046 523.11115
147.112 56.848202 522.14923
148.44228 56.729538 523.16907
149.77765 56.610832 524.18555
151.1046 56.373196 526.19141
152.45277 56.254425 527.20105
153.78923 55.89782 530.19299
155.1703 56.135681 528.21704
156.53783 56.254608 527.23041
157.90094 56.492405 525.24731
159.25378 56.73016 523.26074
160.59639 56.96788 521.27069
161.94966 56.848881 522.2558
163.289 56.967636 521.25171
164.65955 56.729664 523.22266
166.0257 56.610554 524.1972
167.37976 56.610306 524.17548
168.77344 56.372227 526.13556
170.15504 56.25301 527.0993
171.54182 56.133759 528.05945
172.96124 55.895561 530.00842
174.39098 55.657333 531.95355
175.76576 55.656872 531.9101
177.14059 55.65638 531.8631
178.43996 55.893669 529.82806
179.80977 55.893101 529.77411
181.09386 56.130318 527.73267
182.45865 56.129684 527.67181
183.82352 56.129013 527.60742
185.18843 56.128311 527.53943
186.55344 56.12756 527.46802
187.97421 56.007866 528.38428
189.40021 55.888126 529.29675
190.89227 55.649429 531.19635
192.33127 55.529606 532.10089
193.77548 55.409744 533.00146
195.29349 55.170906 534.88867
196.82185 54.93203 536.77148
198.50795 54.455238 540.63037
200.21469 53.978401 544.48395
202.0209 53.382553 549.32214
203.77153 52.905602 553.16479
205.87863 51.952812 560.95959
207.50784 51.713593 562.81219
209.23654 51.355385 565.64893
210.79752 51.234985 566.50317
212.26953 51.233505 566.3645
213.25775 51.826698 561.28125
214.61789 51.944069 560.14832
216.07495 51.942451 559.99957
217.53221 51.940773 559.84711
219.09669 51.820091 560.6778
220.55688 51.818314 560.51733
222.12944 51.697525 561.33942
223.70734 51.576668 562.1571
225.17322 51.57473 561.98431
226.6393 51.572739 561.80762
228.22809 51.451714 562.6123
229.69716 51.449608 562.42749
231.16644 51.447464 562.23865
232.63599 51.445236 562.04602
234.10571 51.44297 561.8493
235.84644 51.202637 563.61597
237.32182 51.200241 563.41064
238.93796 51.078773 564.18427
240.70261 50.838234 565.93567
242.04082 50.954666 564.73511
243.96713 50.594955 567.45831
245.90918 50.235146 570.17517
247.71358 49.994278 571.9046
249.06065 50.110435 570.68665
250.40286 50.22654 569.46539
250.93452 50.937836 563.34216
251.27185 51.768158 556.24084
251.73964 52.479454 550.12018
252.34569 53.071663 544.97937
253.09769 53.544807 540.81696
254.00342 53.898842 537.63177
254.89401 54.252846 534.44543
256.12784 54.368652 533.21106
257.17505 54.603493 530.99762
258.58105 54.600082 530.73346
260.17438 54.477501 531.44043
261.58365 54.473946 531.16785
262.99335 54.470329 530.89124
264.79285 54.228378 532.55792
266.40579 54.105453 533.24548
267.82443 54.101585 532.95538
269.44595 53.978493 533.63324
271.07309 53.855309 534.30603
272.08282 54.089516 532.06091
273.08264 54.323669 529.8139
274.07251 54.557793 527.56506
275.26791 54.672668 526.28369
276.02249 55.025871 523.06213
276.9826 55.25985 520.80804
278.37927 55.255356 520.48718
280.00226 55.131569 521.12909
281.63092 55.007675 521.76569
283.72736 54.645218 524.32819
285.83987 54.282616 526.88281
287.49606 54.158394 527.50073
289.63565 53.795532 530.04065
291.54996 53.551804 531.60931
293.2312 53.427238 532.20868
294.67157 53.42186 531.8407
295.86325 53.53569 530.50732
296.5466 53.888077 527.25024
297.46936 54.121117 524.95264
297.86816 54.592773 520.73553
299.54504 54.46772 521.3111
300.96548 54.461899 520.92346
302.12161 54.575378 519.57446
303.8082 54.450027 520.13495
305.50061 54.324577 520.68951
307.19888 54.199013 521.23822
308.90308 54.073334 521.78107
310.33514 54.066986 521.36469
312.3291 53.821678 522.84863
314.6174 53.456795 525.27655
316.63626 53.21122 526.74438
319.82019 52.487633 532.00458
322.16302 52.122261 534.40283
324.22861 51.876221 535.8432
327.49078 51.152023 541.06592
330.18729 50.666641 544.38037
333.50873 49.942009 549.5752
338.07944 48.738968 558.53522
340.55548 48.37249 560.86377
342.11963 48.364571 560.35199
343.6846 48.356567 559.83521
344.30603 48.707321 556.48834
343.96017 49.416908 550.31958
345.82376 49.289215 550.73517
347.048 49.400719 549.26599
348.91837 49.272888 549.66949
350.7948 49.144966 550.0661
352.34668 49.136673 549.51941
354.5658 48.888939 550.83795
355.78857 49.000237 549.34473
357.34531 48.991814 548.78143
359.24399 48.863609 549.14526
361.14868 48.735374 549.50183
363.05939 48.607086 549.85107
365.67435 48.23922 552.0517
367.60236 48.110832 552.38434
368.82739 48.222061 550.85474
370.76202 48.093697 551.17444
371.98303 48.204994 549.63605
373.19925 48.316368 548.09418
375.14093 48.18808 548.39545
376.353 48.299568 546.84491
378.30103 48.171371 547.13318
379.88177 48.163139 546.49377
381.83868 48.03508 546.76776
384.55804 47.667213 548.86981
386.53168 47.539284 549.12628
387.74347 47.651398 547.54376
389.7229 47.523743 547.78687
391.31882 47.51622 547.10883
392.13141 47.748871 544.60083
394.51093 47.501724 545.73621
397.69513 47.014694 548.68134
400.10114 46.767906 549.79407
402.1153 46.641365 549.98907
403.72949 46.635147 549.26984
405.75098 46.509193 549.4502
406.95667 46.623695 547.81476
408.56946 46.618484 547.0791
410.18164 46.613663 546.33801
412.62964 46.369057 547.39221
-89.565781 48.682129 544.0376
-88.373245 48.569778 545.66992
-86.768539 48.575218 546.39319
-84.759705 48.698402 546.20361
-83.156982 48.704422 546.91473
-81.155624 48.828117 546.71069
-79.159485 48.952034 546.49884
-77.168625 49.076149 546.27917
-75.963898 48.965706 547.87793
-73.590714 49.207558 546.73065
-71.998505 49.214836 547.40411
-70.024048 49.3396 547.15552
-67.675491 49.581795 545.98169
-65.714905 49.706757 545.71649
-63.76004 49.831802 545.44373
-62.182663 49.83963 546.08417
-60.605743 49.847534 546.71918
-59.395752 49.738266 548.27173
-57.817154 49.746315 548.89685
-55.877975 49.871643 548.59143
-54.303162 49.879776 549.20465
-52.728943 49.887932 549.81244
-51.15535 49.896118 550.41479
-49.582382 49.904305 551.01178
-48.010086 49.912514 551.60333
-46.783707 49.803566 553.12073
-44.867569 49.928902 552.77045
-43.637344 49.819946 554.27917
-41.727936 49.945221 553.91626
-40.15918 49.953346 554.4812
-37.9272 50.195595 553.16888
-35.377243 50.554802 550.91077
-33.823959 50.562744 551.45526
-32.919556 50.336563 553.87213
-31.362503 50.344437 554.40814
-30.125046 50.235229 555.87964
-27.302292 50.710991 552.64044
-23.560806 51.537552 546.56195
-18.924332 52.714783 537.63654
-14.341263 53.891701 528.68884
-10.728394 54.717453 522.55389
-8.668045 54.958267 521.13135
-6.6189423 55.198967 519.70074
-4.8787689 55.322632 519.20959
-3.4396667 55.329292 519.66052
-1.7087555 55.452782 519.15765
0.01625061 55.576172 518.64856
2.0224915 55.816311 517.18274
3.733017 55.939484 516.66064
5.7195892 56.179386 515.1803
7.4156494 56.30233 514.64545
8.8290863 56.308365 515.05841
9.4194336 55.96389 518.33069
10.839462 55.969799 518.73706
11.720978 55.742043 521.05127
12.612335 55.514248 523.36401
14.83197 55.870239 520.88763
16.774277 56.109333 519.36084
18.447067 56.231556 518.78583
20.625763 56.587147 516.28583
22.534973 56.825863 514.73779
23.681229 56.714317 516.06586
25.576294 56.952824 514.50592
26.969498 56.957829 514.86383
28.362152 56.962738 515.21765
29.754288 56.967575 515.56726
31.145905 56.972336 515.91272
32.536987 56.977013 516.25409
33.927567 56.981606 516.59137
34.857971 56.752838 518.85699
36.252754 56.757286 519.18738
37.422424 56.645042 520.48102
38.596786 56.532722 521.77191
39.995323 56.536961 522.09125
41.827141 56.774326 520.46808
43.433853 56.894993 519.80835
45.458275 57.248734 517.20282
46.839493 57.252625 517.50262
48.220268 57.256435 517.79852
49.600639 57.260174 518.09045
50.577995 57.030735 520.32349
51.962723 57.034336 520.6087
53.347084 57.03788 520.88989
54.537498 56.924809 522.14136
55.541756 56.695148 524.36456
56.555984 56.465446 526.58588
57.208588 56.002651 530.75665
58.064735 55.656357 533.95123
58.755394 55.193512 538.12146
59.466385 54.730659 542.29144
60.197678 54.267776 546.4613
60.776421 53.688377 551.60889
61.210342 52.992485 557.73547
62.178055 52.646027 560.92664
63.160927 52.299538 564.11633
63.996399 51.836548 568.28436
65.492104 51.839386 568.53088
67.144913 51.958633 567.7926
68.792267 52.077797 567.04938
70.434174 52.196899 566.30133
72.220314 52.432365 564.56659
73.848785 52.551323 563.80841
75.327309 52.553764 564.02814
76.94751 52.672577 563.26093
78.422951 52.674904 563.47223
79.898148 52.67717 563.67957
81.507324 52.795799 562.89886
83.111107 52.914368 562.11353
84.580444 52.916458 562.30829
86.176056 53.034904 561.51404
87.766312 53.153282 560.71521
89.351219 53.271614 559.91174
90.930771 53.389877 559.10382
92.388771 53.391685 559.27777
93.960228 53.50985 558.46106
95.415283 53.511551 558.62695
96.870163 53.513222 558.78888
98.218933 53.39843 559.93463
99.779388 53.51638 559.10138
101.33455 53.634285 558.26373
102.58975 53.402992 560.38672
104.04637 53.404411 560.52979
105.50285 53.405785 560.66895
106.95918 53.40712 560.80426
107.97564 52.826561 565.88232
109.35916 52.711456 567.00061
110.99611 52.945404 565.1463
112.7029 53.295654 562.2973
114.39417 53.645859 559.44324
116.52055 54.69416 550.64197
118.52808 55.62603 542.8241
120.28453 56.208771 537.97162
121.9478 56.675102 534.10468
123.65527 57.257725 529.24164
125.02563 57.258541 529.32965
126.51533 57.492031 527.43115
127.82324 57.376427 528.50323
129.24538 57.493481 527.58862
130.66229 57.610497 526.67023
132.12346 57.843815 524.75604
133.52742 57.960751 523.8299
135.01482 58.310345 520.91553
136.31976 58.194523 521.96631
137.66898 58.195007 522.02142
139.01814 58.195461 522.073
140.33321 58.079552 523.11365
141.65335 57.963596 524.15106
143.03644 58.080288 523.19952
144.41435 58.196949 522.24432
145.76331 58.197231 522.27844
147.13348 58.313824 521.31604
148.44249 58.081371 523.32922
149.77783 57.965229 524.34595
151.11829 57.849049 525.35931
152.46385 57.732834 526.36926
153.80614 57.500256 528.3689
155.18204 57.732983 526.39227
156.54112 57.733013 526.3985
157.90234 58.082005 523.42163
159.25372 58.081966 523.42084
160.5963 58.314564 521.43018
161.94257 58.314461 521.42242
163.28885 58.31432 521.41125
164.65935 58.081486 523.38281
166.0108 58.081284 523.36456
167.39673 57.848373 525.32898
168.77315 57.731766 526.29669
170.15472 57.615135 527.26068
171.56638 57.382114 529.21411
172.96085 57.265408 530.17078
174.39053 57.032326 532.11652
175.79791 56.915546 533.06573
177.14008 57.03141 532.02606
178.43942 57.263588 529.99048
179.76888 57.379387 528.94415
181.09326 57.495148 527.89453
182.45801 57.494549 527.83362
183.82283 57.493896 527.76935
185.18771 57.493225 527.70135
186.71211 57.143459 530.60529
188.02913 57.259052 529.53821
189.39938 57.258263 529.45935
190.95224 56.908375 532.35095
192.33035 56.907509 532.26447
193.70856 56.906597 532.17444
195.2925 56.556572 535.05334
196.8208 56.322872 536.93677
198.50687 55.85638 540.79694
200.28979 55.273483 545.64209
201.9409 54.923256 548.5014
203.85167 54.223869 554.32538
205.87732 53.408043 561.13269
207.50648 53.174004 562.98596
209.14606 52.939919 564.83453
210.70441 52.822151 565.68933
211.98537 53.053467 563.57361
213.15942 53.401146 560.46649
214.51694 53.516014 559.33356
215.97139 53.51445 559.18524
217.53052 53.396446 560.02075
219.09497 53.278397 560.85187
220.55508 53.276688 560.69141
222.23981 53.04213 562.50073
223.70544 53.040314 562.33197
225.2886 52.92205 563.14545
226.75723 52.92012 562.96863
228.34853 52.801735 563.77338
229.8201 52.799713 563.58826
231.29192 52.79763 563.39923
232.63373 52.911919 562.22162
234.23622 52.793304 563.00934
235.84409 52.674622 563.79242
237.18146 52.78875 562.60364
239.07599 52.437073 565.34442
240.70004 52.318199 566.11328
242.18387 52.315697 565.89502
244.11267 51.963783 568.6189
246.05724 51.611786 571.33636
247.71072 51.492615 572.08484
249.36969 51.373383 572.82837
250.3999 51.719948 569.64526
251.2538 52.182968 565.48041
251.59622 52.995399 558.37604
251.90286 53.807838 551.27374
252.68033 54.270813 547.1098
253.26599 54.850266 541.96704
254.00021 55.313202 537.80273
255.06735 55.543095 535.59296
256.12451 55.772942 533.3811
256.9899 56.119274 530.19073
258.57758 55.99947 530.90308
259.98386 55.99612 530.63501
261.3905 55.992699 530.36304
262.98965 55.872658 531.06158
264.59436 55.752533 531.75513
266.00735 55.748878 531.47028
267.62061 55.62859 532.15424
269.23944 55.508221 532.83307
270.86389 55.387749 533.50684
272.07864 55.50037 532.23303
273.0784 55.729527 529.98553
274.06821 55.958622 527.73633
275.0481 56.187695 525.48517
275.80002 56.533329 522.26337
277.19876 56.529045 521.94623
278.59793 56.5247 521.62488
280.22342 56.403633 522.26666
282.08301 56.16581 523.86975
283.95349 55.927883 525.46619
285.83487 55.689838 527.05597
287.7272 55.451672 528.6391
289.63043 55.213387 530.21545
291.54465 54.974991 531.78497
293.46979 54.736473 533.34753
294.91266 54.731262 532.97906
296.1069 54.842674 531.64496
297.04465 55.07077 529.34711
297.71808 55.415546 526.08771
298.37653 55.7603 522.82813
299.79886 55.754753 522.44421
300.69727 55.982662 520.1402
302.38049 55.86018 520.7063
304.06952 55.737602 521.26648
305.49438 55.731705 520.86523
307.46527 55.492115 522.36938
308.89661 55.486038 521.95776
310.6066 55.363037 522.49518
312.88361 55.006248 524.93182
314.89383 54.766167 526.40747
317.20105 54.409065 528.8266
320.10159 53.818062 533.13702
322.15585 53.577538 534.58624
324.22131 53.336899 536.02747
327.18698 52.745361 540.30444
330.17969 52.153618 544.56842
334.10413 51.210846 551.6579
338.07147 50.267784 558.72906
340.24054 50.026283 560.11426
342.11148 49.901627 560.54742
343.05209 50.127876 558.1452
343.35345 50.588127 553.85748
343.95187 50.931396 550.51282
345.17532 51.040611 549.04871
346.71692 51.032738 548.52063
349.23517 50.67363 550.80231
350.78622 50.665619 550.26111
352.66864 50.540466 550.65125
354.55707 50.41526 551.03424
355.77982 50.5242 549.54102
357.33652 50.516022 548.97803
359.23511 50.390671 549.34241
360.79596 50.382431 548.76794
363.05045 50.139824 550.0495
365.31622 49.897156 551.32178
367.24152 49.771645 551.65594
368.81842 49.763306 551.05511
370.39587 49.755005 550.44873
371.61426 49.863968 548.91132
373.19031 49.855721 548.29517
375.13202 49.73027 548.59705
376.34412 49.839401 547.04639
378.29218 49.714027 547.33527
380.24609 49.588707 547.61652
382.20569 49.463448 547.89008
384.17108 49.338249 548.15601
385.76105 49.330505 547.49707
387.35135 49.322891 546.83264
389.32825 49.198051 547.07745
390.53262 49.308105 545.48718
392.5152 49.183571 545.71875
394.89752 48.941788 546.85394
397.6875 48.582756 548.88922
400.49341 48.223885 550.91199
402.5105 48.10009 551.10638
404.12756 48.094025 550.38605
406.96741 47.735855 552.37689
407.77106 47.965317 549.83337
409.38953 47.960213 549.09546
411.00735 47.955475 548.35205
413.04279 47.833641 548.50397
-89.971634 50.133095 545.14545
-87.958069 50.25293 544.96869
-86.355743 50.258217 545.69055
-84.349304 50.378647 545.49927
-82.347946 50.499321 545.30017
-80.3517 50.620239 545.0932
-78.756393 50.626572 545.78961
-76.768021 50.747902 545.56824
-75.175385 50.754631 546.25244
-73.970581 50.646782 547.84576
-71.605423 50.883369 546.68866
-70.015976 50.890572 547.35529
-68.047028 51.012642 547.09839
-66.083725 51.134804 546.83374
-64.126129 51.25705 546.5614
-62.546036 51.264664 547.2027
-60.59729 51.387039 546.9162
-59.753677 51.165459 549.39215
-57.808609 51.287949 549.09363
-55.8694 51.410446 548.7876
-54.653015 51.303719 550.32697
-52.720322 51.426262 550.008
-50.793579 51.548798 549.68158
-49.573807 51.442154 551.20679
-47.653625 51.56469 550.86749
-46.429916 51.458069 552.38397
-44.859055 51.466003 552.9646
-42.948975 51.588463 552.60638
-41.382202 51.596344 553.17542
-40.150772 51.489708 554.6745
-37.254929 51.955505 551.48865
-35.039642 52.192207 550.16455
-33.81572 52.085434 551.646
-33.235413 51.749733 555.00232
-31.997238 51.642929 556.479
-29.798218 51.879372 555.12964
-26.97821 52.344536 551.88794
-23.866547 52.923935 547.69141
-18.916763 54.189468 537.81982
-14.025665 55.454655 527.92426
-11.332443 55.918972 524.62183
-8.3579865 56.497478 520.36169
-6.3115997 56.732777 518.92932
-4.8718719 56.739304 519.38458
-3.1377411 56.860081 518.8866
-1.7020416 56.866447 519.33185
0.022827148 56.987038 518.82227
2.029007 57.221809 517.35553
4.0240021 57.456451 515.88116
5.7258911 57.576725 515.35168
7.4218445 57.696896 514.81628
8.5584717 57.588501 516.18311
9.699646 57.480045 517.54712
10.845428 57.371529 518.9082
11.457993 57.034546 522.17914
12.88446 57.040115 522.57886
14.837692 57.273983 521.05847
16.518814 57.393559 520.48938
18.452576 57.627193 518.95532
20.37529 57.860706 517.41418
22.033783 57.979961 516.8266
23.435822 57.984978 517.19476
25.085342 58.104038 516.59674
26.729095 58.223003 515.99316
28.367096 58.341869 515.38409
29.518921 58.232449 516.69751
31.150665 58.351135 516.07886
32.541664 58.355652 516.4201
33.699738 58.246017 517.72308
35.092346 58.250389 518.0567
36.484444 58.254681 518.38629
37.202164 57.916748 521.61499
38.601097 57.920914 521.93823
39.999557 57.924995 522.25745
41.614426 58.043045 521.60303
43.437904 58.275017 519.97333
45.462242 58.620907 517.36664
46.634285 58.510639 518.63763
48.224075 58.62833 517.9621
49.400475 58.517948 519.2262
50.581665 58.407513 520.48743
51.767593 58.297009 521.74591
53.154472 58.300434 522.02747
54.34742 58.189819 523.2796
55.354187 57.965183 525.50385
56.182571 57.62656 528.7016
56.840309 57.173943 532.87445
57.701576 56.83527 536.07074
58.397362 56.382614 540.24298
59.113464 55.929932 544.4151
60.02533 55.591156 547.60913
60.606613 55.024513 552.75854
61.213379 54.457855 557.90845
62.013321 54.005089 562.07965
62.998718 53.666206 565.27063
63.99929 53.327293 568.46002
65.334953 53.216133 569.68695
67.147659 53.446602 567.96771
68.794945 53.563103 567.22412
70.284538 53.565636 567.45746
72.372513 54.023643 563.75806
73.998337 54.139923 562.99915
75.47422 54.142273 563.21838
77.091797 54.25843 562.45032
78.564613 54.260666 562.66113
80.037163 54.262833 562.8681
81.509491 54.264954 563.07104
83.113205 54.380859 562.28534
84.582497 54.382881 562.47998
86.178055 54.498672 561.68536
87.76825 54.614418 560.88611
89.353104 54.730103 560.08228
90.932602 54.845734 559.27393
92.50676 54.961304 558.46112
93.961945 54.96299 558.6308
95.416954 54.964638 558.79657
96.87178 54.966232 558.9585
98.326431 54.967773 559.11658
99.78093 54.969284 559.27075
101.23524 54.970726 559.4212
102.59119 54.85833 560.55634
104.04776 54.859695 560.69928
105.41111 54.747208 561.82758
106.86996 54.748497 561.96307
107.88896 54.180725 567.04272
109.18964 53.95433 569.15137
110.83167 54.183098 567.29681
112.54355 54.525604 564.44733
114.31757 54.981865 560.60229
116.44647 56.007038 551.79846
118.45651 56.918339 543.97833
120.21548 57.488216 539.12451
121.94867 58.058029 534.26532
123.52643 58.400219 531.38354
125.02643 58.628586 529.48865
126.45637 58.743111 528.58136
127.76682 58.630051 529.65381
129.19147 58.744507 528.73907
130.61093 58.858936 527.82043
132.02518 58.97332 526.89801
133.48111 59.201447 524.97943
134.97104 59.54332 522.06421
136.32027 59.543823 522.12274
137.66945 59.544292 522.1778
139.01857 59.54472 522.22943
140.3336 59.431351 523.27039
141.65372 59.317947 524.30804
143.00784 59.318291 524.34924
144.38829 59.432365 523.39386
145.76358 59.546417 522.43475
147.11247 59.546661 522.46533
148.44269 59.433098 523.48584
149.778 59.319515 524.50281
151.10489 59.092121 526.50989
152.46396 59.092232 526.52673
153.81462 58.978558 527.53345
155.18208 59.092381 526.54974
156.5444 59.206177 525.56244
157.90231 59.433704 523.57819
159.25183 59.54744 522.58386
160.59621 59.661137 521.58612
161.94244 59.661041 521.57837
163.2887 59.660904 521.5672
164.64706 59.54697 522.54596
165.99591 59.546776 522.52777
167.36201 59.432777 523.49945
168.75307 59.204979 525.46088
170.1544 58.977154 527.41846
171.59096 58.635513 530.3656
173.01544 58.407612 532.31567
174.45023 58.179668 534.2619
175.83008 58.179241 534.21832
177.13959 58.40633 532.18542
178.4389 58.633396 530.14929
179.72801 58.860428 528.10999
181.09267 58.859879 528.05273
182.41194 58.973068 526.99951
183.77417 58.972446 526.9353
185.18703 58.858017 527.85974
186.65823 58.629765 529.77246
187.97266 58.742828 528.70526
189.3403 58.742069 528.62659
190.82971 58.513699 530.52765
192.26607 58.399075 531.43304
193.70764 58.284416 532.33447
195.29153 57.942135 535.21423
196.89091 57.5998 538.08936
198.65315 57.029819 542.94128
200.36493 56.573593 546.797
202.17618 56.003502 551.63782
203.93184 55.547157 555.48267
205.87605 54.863152 561.30194
207.59167 54.520485 564.14563
209.23378 54.29158 565.99463
210.70299 54.290245 565.86023
212.17235 54.288864 565.72205
213.25471 54.742699 561.62488
214.61475 54.855057 560.49139
216.17368 54.739723 561.33118
217.63339 54.738174 561.17853
219.20035 54.622757 562.0097
220.66299 54.621109 561.84906
222.23802 54.505585 562.67163
223.70361 54.503838 562.50293
225.28674 54.388199 563.31689
226.75528 54.386353 563.14001
228.22403 54.38446 562.95923
229.81805 54.268661 563.76013
231.28983 54.266655 563.57123
232.63159 54.378456 562.39343
234.23401 54.262497 563.18146
235.84181 54.146461 563.96497
237.31706 54.144257 563.75977
239.07361 53.914223 565.51776
240.6976 53.798012 566.28705
242.18134 53.795616 566.06879
243.96185 53.565384 567.81134
245.90375 53.221191 570.53021
247.55461 53.104698 571.27954
249.21091 52.988129 572.02393
250.39703 53.213203 569.82111
251.41202 53.552139 566.6355
251.757 54.34668 559.52875
252.23248 55.027321 553.40344
253.01505 55.480103 549.23749
253.60583 56.046803 544.09247
254.17117 56.613483 538.94806
255.24081 56.838345 536.73724
256.30051 57.063164 534.52441
257.1684 57.401886 531.33282
258.75864 57.284752 532.04517
260.16742 57.281521 531.77673
261.76611 57.164249 532.47961
263.37036 57.046886 533.17761
264.78543 57.043434 532.8963
266.59552 56.811928 534.55847
267.81671 56.922306 533.29498
269.43805 56.804634 533.97375
271.065 56.686878 534.6474
272.28226 56.797062 533.3728
273.49478 56.907173 532.09534
274.48972 57.131264 529.84442
275.47473 57.355301 527.59174
276.44983 57.579292 525.33734
277.63562 57.689198 524.0498
278.81671 57.79903 522.75946
280.4447 57.680679 523.40112
282.30679 57.448162 525.00433
283.94879 57.329613 525.63477
285.83008 57.096882 527.22534
287.72229 56.864033 528.80927
289.62543 56.631081 530.38635
291.2981 56.512123 530.99298
293.22055 56.278938 532.55707
294.41412 56.388042 531.22711
295.85226 56.382931 530.8559
296.53552 56.720196 527.59735
297.45813 56.943287 525.29883
298.37091 57.166317 522.99884
299.79315 57.160961 522.61511
300.95374 57.269695 521.26892
302.37463 57.264179 520.87726
304.0636 57.144363 521.43805
305.75845 57.024448 521.99298
307.1864 57.018669 521.58667
308.89038 56.898556 522.13055
311.43414 56.435574 525.52985
313.43829 56.20097 527.01233
316.02002 55.737671 530.39178
318.33762 55.388496 532.80896
320.6716 55.039185 535.21667
322.73102 54.804016 536.66522
324.50793 54.68306 537.15662
327.47607 54.10466 541.43463
330.47125 53.526062 545.69965
334.09659 52.718552 551.84454
337.45532 52.025162 557.0271
340.23267 51.560318 560.30469
341.79404 51.552902 559.79431
342.73199 51.774216 557.3927
343.3454 52.109947 554.04706
343.94385 52.445694 550.70172
345.48721 52.43811 550.17804
347.354 52.316017 550.58881
349.55222 52.079353 551.9314
351.10583 52.071571 551.38959
352.66025 52.063744 550.84259
354.21539 52.055885 550.29034
355.43542 52.162514 548.79791
357.32797 52.040047 549.17017
358.88538 52.032082 548.60223
360.78735 51.909538 548.961
362.69531 51.786949 549.3125
364.95844 51.549728 550.58673
366.88104 51.427063 550.92255
368.45523 51.418991 550.32294
370.38715 51.29631 550.6449
372.32501 51.173615 550.95941
373.18161 51.39492 548.49152
375.4884 51.157616 549.71796
377.07092 51.149681 549.08905
377.91321 51.371223 546.61108
379.8645 51.248734 546.89404
381.82153 51.126297 547.16937
383.40594 51.118698 546.51837
385.3717 50.996429 546.77936
387.34317 50.874268 547.03265
388.54749 50.981781 545.44769
390.52472 50.859894 545.68768
392.50742 50.738152 545.9198
394.49554 50.616562 546.14417
397.68005 50.150688 549.09247
399.68683 50.029457 549.29767
402.1011 49.79361 550.40314
403.71579 49.787704 549.68427
406.55322 49.437492 551.67749
407.35455 49.661896 549.1347
410.20966 49.312271 551.10846
411.41754 49.422508 549.46063
413.87427 49.188469 550.51276
-89.554276 51.81369 544.44067
-87.543045 51.930786 544.26215
-86.349457 51.823692 545.8894
-83.939087 52.053596 544.78961
-82.341217 52.059288 545.49799
-80.344742 52.177437 545.29047
-78.749237 52.183594 545.98663
-76.760696 52.302132 545.76471
-75.167877 52.308678 546.44867
-73.1875 52.427559 546.21222
-71.597702 52.434402 546.88416
-70.008087 52.441406 547.55042
-67.659317 52.672798 546.37463
-66.075684 52.680008 547.02771
-64.118027 52.799431 546.75482
-62.166107 52.918915 546.47424
-60.589066 52.926369 547.1087
-59.012527 52.933891 547.73767
-57.072708 53.053528 547.4364
-55.499954 53.061127 548.05347
-53.927765 53.068764 548.6651
-52.000366 53.188446 548.34344
-50.432068 53.196121 548.94318
-48.864441 53.203796 549.5376
-47.297501 53.211479 550.12665
-46.421616 52.995232 552.57397
-44.50824 53.114883 552.2215
-42.60083 53.234489 551.86169
-41.711243 53.018272 554.29889
-39.807983 53.13781 553.92761
-37.246826 53.481087 551.67584
-35.031616 53.712372 550.35083
-34.461136 53.384186 553.70935
-33.875565 53.05603 557.06824
-32.953552 52.839752 559.48706
-30.427948 53.182648 557.1983
-28.551163 53.301773 556.78308
-24.172516 54.3153 548.81726
-19.220306 55.552155 538.94281
-14.943237 56.565102 530.93384
-11.631058 57.242443 525.74127
-8.6541138 57.807808 521.48022
-6.6052094 58.037731 520.04785
-4.5675049 58.26754 518.60748
-2.8361053 58.385502 518.10815
-1.6955566 58.279934 519.50208
0.029205322 58.397728 518.992
2.0352783 58.627129 517.52441
3.7455902 58.744724 517.00128
5.7319641 58.9739 515.51917
7.1485138 58.979626 515.93689
8.5643616 58.985271 516.35022
9.9796295 58.990856 516.75903
10.851196 58.773083 519.07544
11.732605 58.555271 521.39044
13.156403 58.560658 521.78912
14.579575 58.565952 522.18353
16.263184 58.68277 521.61469
17.94101 58.799496 521.04004
19.613007 58.916119 520.45972
21.78566 59.255768 517.9519
22.93959 59.149059 519.28223
24.594238 59.2654 518.685
26.488556 59.493179 517.11926
28.371872 59.72084 515.54675
29.523621 59.613827 516.86035
31.155273 59.729782 516.24121
32.311188 59.622635 517.54779
33.704201 59.626926 517.88538
34.866882 59.519646 519.18573
36.26152 59.5238 519.51569
36.981773 59.193447 522.74579
38.383232 59.197475 523.06946
39.564781 59.08997 524.35828
41.618423 59.428211 521.76495
43.441818 59.654896 520.13452
45.254387 59.881481 518.4978
46.847107 59.996536 517.82635
48.227745 60.000084 518.12195
49.404076 59.892143 519.38623
50.58519 59.784145 520.64764
51.57238 59.564693 522.87988
52.961754 59.567989 523.16193
54.157219 59.459831 524.41473
54.975571 59.128841 527.61517
55.809067 58.797817 530.81476
56.657715 58.466766 534.01337
57.338303 58.024311 538.18774
58.219841 57.693214 541.3847
58.938469 57.250706 545.55841
59.677429 56.808182 549.73181
60.436707 56.365646 553.90485
61.046005 55.811729 559.05664
61.848488 55.369148 563.22931
62.836403 55.037865 566.42157
63.8395 54.706566 569.61218
65.177681 54.59787 570.83972
66.992905 54.823105 569.12018
68.6427 54.936935 568.37659
70.287048 55.050705 567.62811
72.374947 55.498325 563.92749
73.853622 55.500641 564.151
75.332024 55.502899 564.37054
77.09404 55.727695 562.6189
78.566811 55.729851 562.82959
80.039307 55.731937 563.03644
81.645775 55.845261 562.25464
83.115234 55.84724 562.45319
84.713539 55.960457 561.66235
86.306465 56.073608 560.867
87.894043 56.186703 560.06708
89.47625 56.299736 559.26263
90.934357 56.30146 559.44025
92.508469 56.414402 558.62701
93.963608 56.416023 558.79657
95.307503 56.306339 559.94989
96.764854 56.307865 560.11206
98.327942 56.420605 559.28223
99.679031 56.310795 560.4248
101.23666 56.423435 559.58673
102.59256 56.313549 560.72211
103.95346 56.203625 561.85413
105.4124 56.204884 561.99353
106.87122 56.206116 562.12897
107.80225 55.539886 568.19995
109.19081 55.42981 569.31921
110.8328 55.653393 567.46405
112.4644 55.876938 565.60413
114.24094 56.322887 561.75806
116.44745 57.43615 551.96088
118.38491 58.215675 545.12939
120.14639 58.772675 540.27435
121.8147 59.218407 536.40533
123.46239 59.664093 532.53125
124.96491 59.887287 530.63599
126.39738 59.999229 529.72845
127.76751 59.999916 529.8092
129.2467 60.223003 527.90179
130.61154 60.223606 527.97522
132.02576 60.335411 527.05243
133.48166 60.55838 525.13324
134.92723 60.781315 523.21002
136.32074 60.893021 522.27563
137.63071 60.782249 523.32373
138.98236 60.782669 523.37537
140.29993 60.671844 524.41675
141.62257 60.560989 525.45477
142.95032 60.450115 526.48938
144.36221 60.672821 524.54034
145.71625 60.67308 524.57458
147.1127 60.895733 522.6181
148.44289 60.784725 523.63885
149.79427 60.784904 523.66248
151.1321 60.673836 524.67639
152.49698 60.785149 523.6994
153.8315 60.562828 525.70007
155.19965 60.78529 523.72223
156.55426 60.896507 522.73474
157.90373 61.00771 521.74359
159.24992 61.007668 521.74286
160.59613 61.007607 521.73859
161.94234 61.007511 521.73083
163.2981 60.896179 522.71338
164.6711 60.673618 524.6861
166.01038 60.78463 523.67419
167.36177 60.78442 523.6524
168.75279 60.561756 525.61444
170.1541 60.339066 527.57269
171.61554 59.893925 531.51422
173.04257 59.671162 533.46484
174.44983 59.559578 534.41821
175.82964 59.559162 534.37469
177.17432 59.669945 533.33429
178.4384 60.003105 530.30444
179.72748 60.225021 528.26465
181.04922 60.335709 527.21454
182.41135 60.335152 527.15387
183.77353 60.33456 527.08966
185.18637 60.222713 528.01447
186.6044 60.110832 528.93549
187.97192 60.110146 528.86035
189.33954 60.109421 528.78168
190.76807 59.997433 529.69147
192.32863 59.66296 532.58087
193.70676 59.662128 532.49084
195.35915 59.216351 536.36298
196.96106 58.881756 539.23877
198.65215 58.435871 543.10101
200.44012 57.878716 547.94879
202.25388 57.321499 552.79089
204.01205 56.875462 556.63678
206.04272 56.095654 563.44794
207.67693 55.871983 565.302
209.14339 55.870743 565.17181
210.70164 55.758213 566.02734
212.17096 55.756886 565.88916
213.15651 56.311764 560.80182
214.71265 56.199108 561.64606
216.27408 56.086411 562.48584
217.73633 56.084915 562.33301
219.19873 56.083382 562.17627
220.66133 56.081802 562.01569
222.12411 56.080166 561.85126
223.70184 55.967232 562.66998
225.28491 55.85424 563.48425
226.63351 55.96373 562.32104
228.22211 55.850639 563.12683
229.8161 55.737484 563.9281
231.2878 55.735561 563.73926
232.75972 55.733585 563.54645
234.36465 55.620262 564.33459
236.11034 55.395588 566.1026
237.45276 55.504742 564.91272
239.07129 55.391251 565.68713
240.69524 55.277695 566.45685
242.03326 55.386703 565.25562
243.66289 55.273018 566.01654
245.75037 54.825325 569.71948
247.55197 54.600174 571.45148
249.05225 54.59761 571.21478
250.55283 54.594986 570.974
251.57034 54.926315 567.78723
251.91788 55.702961 560.6781
252.22961 56.479626 553.57092
253.01215 56.922237 549.40387
253.60289 57.476196 544.25745
254.34219 57.918766 540.09015
255.23778 58.249954 536.90045
256.47659 58.358376 535.66461
257.34705 58.689499 532.47174
258.57104 58.797817 531.23096
260.35107 58.571926 532.91522
261.76276 58.568733 532.64258
263.36691 58.454071 533.34094
265.17133 58.227932 535.00879
266.78922 58.113098 535.69666
268.01291 58.221039 534.43243
269.83926 57.994629 536.08411
271.47131 57.879566 536.75714
272.90131 57.875858 536.45313
273.91129 58.094975 534.20245
274.69855 58.42548 530.97937
275.68607 58.644508 528.72565
276.6637 58.863487 526.47021
277.4108 59.193905 523.24402
279.03564 59.078362 523.89081
280.66614 58.962734 524.53229
282.30234 58.847004 525.16858
284.17523 58.619686 526.76599
286.2926 58.280746 529.32263
287.9537 58.164726 529.94073
289.85934 57.937077 531.51801
291.53455 57.820858 532.12445
293.21548 57.704533 532.7254
294.409 57.81123 531.39532
295.59784 57.91787 530.06226
296.53021 58.136021 527.76489
297.45279 58.354115 525.46606
298.36548 58.572182 523.16559
300.0473 58.455387 523.74139
301.21045 58.561733 522.39429
302.36896 58.668003 521.04437
304.32532 58.439335 522.56268
305.75256 58.433826 522.16101
307.45319 58.316582 522.71063
309.435 58.087574 524.20911
311.70587 57.746777 526.65417
313.99316 57.405838 529.09015
316.86316 56.841373 533.422
318.90271 56.611824 534.88623
321.24182 56.270451 537.29352
323.01529 56.152378 537.79108
324.50104 56.14595 537.33295
327.46906 55.580688 541.61279
330.16516 55.127007 544.93188
333.78772 54.33783 551.08008
337.75201 53.436638 558.15765
340.22507 53.094177 560.49066
341.78638 53.086983 559.98065
343.34842 53.079727 559.46545
343.33765 53.631577 554.23236
343.936 53.959808 550.88623
345.79935 53.840599 551.30371
347.34607 53.833199 550.77429
349.21887 53.713852 551.17871
351.09772 53.594429 551.57617
352.65207 53.586853 551.02942
354.20721 53.579231 550.47754
355.76306 53.571579 549.92035
357.31967 53.563896 549.35791
359.55939 53.332245 550.65692
360.77893 53.43647 549.1496
362.34045 53.428703 548.57037
365.29904 52.972939 551.70721
366.87256 52.965111 551.11328
368.44672 52.957291 550.51398
370.73572 52.725395 551.76392
372.3165 52.71759 551.15167
373.53558 52.821869 549.60876
375.84497 52.589981 550.83508
376.69482 52.806473 548.35901
377.90491 52.910957 546.80383
380.22922 52.679176 548.00842
381.81329 52.671692 547.36328
383.39777 52.664291 546.71265
385.74466 52.432701 547.89191
387.33514 52.425514 547.22797
389.31232 52.306274 547.47406
390.90601 52.299355 546.79791
392.10818 52.404793 545.20306
394.09381 52.286018 545.42908
396.87878 51.942963 547.46918
398.8804 51.824539 547.67719
401.69189 51.481827 549.69458
403.3042 51.476082 548.97711
406.54684 51.021568 551.87891
408.16913 51.016365 551.14563
410.20392 50.899216 551.31061
411.41211 51.006973 549.66254
414.70584 50.553658 552.51813
-89.960403 53.269707 545.53998
-87.946213 53.384079 545.36212
-86.74968 53.279449 546.99072
-83.932724 53.613625 544.98297
-82.735641 53.509529 546.60065
-80.337997 53.734512 545.48315
-78.346588 53.85009 545.26727
-76.360519 53.965843 545.04358
-75.160599 53.862602 546.64032
-73.180069 53.978676 546.40332
-71.975128 53.875778 547.99121
-70.000412 53.992111 547.74097
-67.65155 54.218094 546.56427
-66.444916 54.115555 548.13684
-64.110138 54.341675 546.94366
-62.158173 54.458328 546.66254
-60.58107 54.465553 547.29669
-59.370895 54.363365 548.84937
-57.428467 54.480171 548.54865
-55.491882 54.597 548.24036
-54.278137 54.494957 549.77881
-52.348068 54.611824 549.45752
-50.777115 54.619263 550.05804
-49.206863 54.626709 550.6532
-47.985092 54.524773 552.17407
-46.413544 54.532234 552.75946
-44.500198 54.64904 552.40637
-42.932739 54.656464 552.9801
-41.366028 54.663857 553.54852
-39.465469 54.78054 553.17566
-37.239014 55.006477 551.85876
-35.023849 55.232346 550.53278
-34.780075 54.802399 554.83081
-34.19191 54.481773 558.19128
-33.588638 54.161179 561.55194
-32.014114 54.168343 562.08832
-29.808121 54.393936 560.73462
-25.105621 55.493217 551.82593
-20.145767 56.701408 541.95056
-15.552765 57.800087 532.99615
-11.624283 58.680099 525.91144
-8.9504242 59.123146 522.59528
-6.5986481 59.45686 520.21533
-4.5610657 59.681286 518.77417
-3.4198761 59.578159 520.17273
-1.6892548 59.69326 519.66827
0.035415649 59.808266 519.15765
1.7541809 59.92318 518.64087
3.7516022 60.147099 517.16559
5.1739349 60.152718 517.58917
6.5956268 60.158272 518.00818
8.5701141 60.381893 516.51331
9.7111511 60.27821 517.8775
10.585297 60.065426 520.19501
11.738113 59.961636 521.5542
13.161835 59.966831 521.9527
14.321259 59.862915 523.3053
15.746353 59.867966 523.6958
17.429291 59.981949 523.12213
19.362244 60.204826 521.58215
21.284164 60.427589 520.03522
22.443237 60.323307 521.367
24.351028 60.545883 519.80804
26.002411 60.659386 519.20551
28.133682 60.990704 516.66956
29.287949 60.886112 517.98395
30.922112 60.999336 517.36499
32.315559 61.003548 517.70648
33.708496 61.007679 518.04388
34.641312 60.793911 520.31146
36.038467 60.797928 520.64185
36.761276 60.475163 523.87329
38.165245 60.479046 524.19739
39.568748 60.482861 524.51746
41.405464 60.704361 522.89319
43.231346 60.925758 521.26263
45.469727 61.364796 517.68323
46.850723 61.368279 517.9826
48.231285 61.371689 518.27808
49.407562 61.266197 519.54248
50.387314 61.051807 521.77753
51.575714 60.946201 523.03687
52.768906 60.840546 524.29327
53.773369 60.626022 526.52179
54.787804 60.411461 528.74841
55.812195 60.19685 530.97321
56.475014 59.764591 535.14911
57.158142 59.332314 539.32501
58.042206 59.008812 542.52325
58.585358 58.467697 547.67639
59.504875 58.144138 550.87335
60.093834 57.602997 556.02679
60.708244 57.061832 561.18085
61.683556 56.738205 564.37561
62.674011 56.414539 567.56897
63.679626 56.090839 570.76086
65.340256 56.202129 570.02679
67.152832 56.422115 568.30615
68.645172 56.424526 568.5437
70.441696 56.644371 566.8125
72.227631 56.864143 565.07568
73.855904 56.975109 564.31635
75.478767 57.086014 563.55225
77.096214 57.19685 562.78345
78.568909 57.198914 562.99414
80.178139 57.309639 562.21625
81.513573 57.202873 563.40363
83.11718 57.313484 562.61719
84.586372 57.315346 562.81165
86.308311 57.534569 561.03021
87.771904 57.536316 561.21625
89.356644 57.646717 560.41174
90.936043 57.757069 559.60266
92.39389 57.758671 559.77637
93.851555 57.760223 559.94623
95.309052 57.761742 560.11212
96.766357 57.763214 560.27417
98.117569 57.655949 561.42084
99.577095 57.65733 561.5755
101.13724 57.767349 560.73737
102.49567 57.659973 561.87323
103.95473 57.661232 562.0163
105.50671 57.771126 561.16583
106.87241 57.663631 562.29095
107.97929 57.230083 566.38324
109.19194 56.905186 569.48309
110.83389 57.123596 567.62726
112.46544 57.341957 565.76678
114.16428 57.668941 562.91052
116.29819 58.647846 554.10187
118.31326 59.518024 546.2774
120.0073 59.953506 542.41266
121.74811 60.497601 537.55103
123.46315 61.041645 532.68402
124.96564 61.259686 530.78809
126.39809 61.369026 529.88025
127.76817 61.369678 529.961
129.24733 61.587608 528.05298
130.66414 61.696846 527.13361
132.02632 61.697395 527.20331
133.48218 61.915222 525.28345
134.92772 62.133003 523.35962
136.27945 62.133457 523.41827
137.59195 62.025246 524.46667
138.94615 62.02565 524.51837
140.30029 62.026016 524.56659
141.62291 61.917713 525.60486
142.97954 61.918022 525.64618
144.36249 62.026955 524.69012
145.71649 62.027199 524.72437
147.09169 62.136059 523.76123
148.42439 62.027611 524.78229
149.77832 62.027779 524.80597
151.14575 62.136551 523.83221
152.49707 62.136665 523.84882
153.84839 62.136742 523.862
155.20554 62.245422 522.87769
156.55426 62.245449 522.88385
157.9037 62.354076 521.89252
159.25357 62.136765 523.87988
160.60487 62.136707 523.87555
161.95618 62.136616 523.8678
163.32657 61.919201 525.84473
164.69513 61.810413 526.82391
166.03951 61.918873 525.81165
167.41324 61.81002 526.78375
168.79213 61.701141 527.75232
170.17618 61.592224 528.71729
171.66507 61.048714 533.65363
173.0697 60.939739 534.61096
174.47949 60.830742 535.56451
175.82922 60.938995 534.52734
177.13867 61.155861 532.49335
178.40018 61.481346 529.46277
179.68666 61.69817 527.42242
181.0058 61.806316 526.37213
182.36533 61.805779 526.31165
183.77293 61.696556 527.24054
185.13516 61.695957 527.17285
186.60373 61.478031 529.08685
188.02693 61.368702 530.00439
189.39706 61.368008 529.9256
190.7673 61.367271 529.84332
192.26442 61.149197 531.74152
193.70592 61.03973 532.64368
195.35826 60.604252 536.51697
197.03123 60.168732 540.38519
198.72485 59.73315 544.24835
200.51534 59.188866 549.09741
202.3316 58.644516 553.9408
204.09232 58.20879 557.7876
206.1255 57.446987 564.60059
