ply
format ascii 1.0
comment PCL generated
element vertex 1587
property float x
property float y
property float z
element camera 0
property float view_px
property float view_py
property float view_pz
property float x_axisx
property float x_axisy
property float x_axisz
property float y_axisx
property float y_axisy
property float y_axisz
property float z_axisx
property float z_axisy
property float z_axisz
property float focal
property float scalex
property float scaley
property float centerx
property float centery
property int viewportx
property int viewporty
property float k1
property float k2
end_header
281.49045 149.02454 572.13373
283.22205 149.07957 572.78009
284.7439 149.08412 572.44574
286.48425 149.13934 573.08173
287.789 149.09346 571.76404
289.08911 149.04764 570.44318
290.38452 149.00186 569.11908
291.90369 149.00681 568.7641
293.42334 149.01181 568.40466
294.70996 148.96625 567.06976
296.22812 148.97141 566.70203
297.98569 149.02731 567.29968
298.78333 148.88063 564.01514
300.54205 148.93671 564.60388
301.56668 148.84082 562.28339
302.58148 148.74496 559.961
303.83832 148.69987 558.60339
305.85385 148.80701 560.13977
306.85229 148.71135 557.80872
308.87952 148.8187 559.33331
310.91785 148.92616 560.85052
312.17261 148.8815 559.47144
313.69034 148.88766 559.05139
315.47885 148.9447 559.58826
317.54599 149.05263 561.07971
319.34897 149.10991 561.60352
320.87994 149.11649 561.16187
322.13104 149.07233 559.7569
323.66083 149.07907 559.30646
324.61975 148.98421 556.93738
326.14581 148.99112 556.479
327.67261 148.99812 556.01569
328.90649 148.95433 554.59314
330.72852 149.01242 555.07483
332.55652 149.07062 555.54993
334.69214 149.17986 556.97064
337.44751 149.39111 560.28558
340.22467 149.60257 563.58881
342.40485 149.71231 564.98108
343.6601 149.66927 563.5188
344.91089 149.6263 562.05304
345.52255 149.4814 558.69019
346.43924 149.38753 556.27356
346.70093 149.19162 551.96509
348.24341 149.19989 551.43567
349.78671 149.20825 550.90112
351.33087 149.21671 550.36145
352.87589 149.22525 549.81665
354.75757 149.28497 550.20709
356.30688 149.29372 549.65094
358.19812 149.35368 550.02808
359.40793 149.31146 548.52277
361.30615 149.37163 548.88745
362.86139 149.38074 548.3092
364.06567 149.33873 546.79089
365.61987 149.34799 546.203
367.88898 149.45978 547.47504
369.45001 149.46924 546.87427
371.73657 149.58127 548.12927
374.39966 149.74472 550.30438
375.9762 149.75447 549.68207
377.55341 149.76428 549.0542
379.13132 149.77417 548.4209
380.70984 149.78412 547.78198
382.28903 149.79413 547.13757
384.24988 149.85556 547.41077
385.4491 149.81429 545.83203
388.18906 149.97867 547.93353
389.77832 149.98891 547.26343
391.36798 149.99919 546.58771
393.35245 150.06094 546.82379
395.34253 150.12277 547.05194
397.33826 150.18465 547.27216
399.74191 150.29808 548.39838
401.34619 150.30853 547.6886
403.35834 150.37051 547.88489
405.78619 150.4841 548.98346
406.98526 150.44296 547.34399
408.17877 150.40178 545.70123
410.62207 150.51537 546.77576
-88.001053 151.7829 543.96729
-85.994202 151.71817 543.77753
-83.99263 151.65346 543.57983
-81.592575 151.53465 542.46094
-80.406708 151.57822 544.07495
-78.817154 151.56766 544.77014
-77.227798 151.5571 545.45972
-76.03186 151.60062 547.06165
-74.440414 151.59009 547.74115
-72.07373 151.47157 546.57471
-70.488403 151.46115 547.24072
-68.521103 151.39679 546.97882
-65.800003 151.22459 544.86206
-64.981155 151.32225 547.3562
-62.654312 151.20421 546.14642
-60.710556 151.1402 545.85352
-58.772766 151.07628 545.55304
-57.207428 151.06633 546.17377
-55.278946 151.00259 545.85913
-53.717667 150.99281 546.46796
-51.44014 150.87546 545.20746
-50.597305 150.97346 547.66937
-48.685059 150.91013 547.328
-46.778931 150.84689 546.97931
-45.5746 150.8913 548.49518
-44.020554 150.88202 549.0708
-42.124725 150.81909 548.70319
-40.914841 150.86371 550.20612
-39.025955 150.80099 549.82605
-36.808533 150.68472 548.49805
-34.934479 150.62227 548.10278
-32.737244 150.5063 546.75793
-31.204742 150.49774 547.29138
-29.349014 150.43565 546.87524
-27.499374 150.3737 546.45221
-26.612183 150.47264 548.86133
-25.399078 150.51804 550.32172
-23.241028 150.40283 548.93475
-22.026917 150.44841 550.38605
-20.191864 150.38698 549.93451
-18.362839 150.32568 549.47632
-16.236938 150.21101 548.06018
-14.722992 150.20346 548.54034
-13.209824 150.19603 549.01569
-11.992523 150.24214 550.44019
-10.478256 150.23488 550.90674
-8.9647675 150.22772 551.36853
-7.1647491 150.16721 550.86914
-5.370697 150.10683 550.3634
-3.8646545 150.09996 550.80945
-1.8005524 149.9864 549.33331
-0.024368286 149.92638 548.80896
1.471756 149.91983 549.23865
3.238678 149.86002 548.70282
4.4619141 149.90703 550.08429
4.6245117 150.16747 555.31226
5.8672943 150.21457 556.69043
6.5924988 150.36838 559.9931
7.0742188 150.57552 564.26001
8.3437958 150.62277 565.63208
9.6179352 150.67009 567.00098
11.147308 150.66422 567.40015
12.676071 150.65843 567.79468
13.958801 150.70598 569.15265
16.217529 150.5406 566.63287
18.219788 150.42862 565.0741
19.498169 150.47646 566.41791
21.486313 150.36469 564.84692
22.998627 150.35945 565.2113
24.05072 150.46071 567.51483
25.112671 150.56203 569.81641
26.858414 150.50383 569.19714
28.37645 150.49892 569.54572
30.113403 150.4409 568.91583
31.627853 150.43616 569.25513
33.356094 150.37833 568.61469
35.078644 150.3206 567.96899
36.586487 150.3161 568.29419
38.506882 150.20541 566.66113
40.21257 150.14795 565.99915
41.711311 150.14371 566.30994
43.010895 150.19264 567.59515
44.315239 150.24164 568.8772
45.624367 150.29068 570.15601
47.129234 150.28671 570.45154
49.010513 150.17664 568.78149
50.509453 150.17282 569.06763
52.008026 150.16907 569.34955
53.325577 150.21844 570.6095
54.469894 150.32094 572.84882
55.975136 150.31738 573.11975
57.307159 150.36691 574.37
59.154968 150.25742 572.66516
60.824364 150.20102 571.9389
62.818626 150.03867 569.23792
64.309372 150.03546 569.48602
66.279808 149.87328 566.77307
67.762222 149.87021 567.01184
69.554024 149.76122 565.27368
71.335251 149.6523 563.52985
73.405296 149.43747 559.80573
75.307365 149.27571 557.06226
77.049179 149.16705 555.30066
78.496506 149.16441 555.51062
79.943596 149.16183 555.71674
81.253654 149.2123 556.90808
82.702873 149.20982 557.10669
84.151871 149.20741 557.30145
85.858833 149.09914 555.51196
87.302269 149.09685 555.69836
88.869446 149.04166 554.89008
90.309906 149.03947 555.06848
91.750183 149.03735 555.24304
93.074036 149.08823 556.40564
94.516518 149.0862 556.57288
96.069916 149.03128 555.74396
97.509491 149.02936 555.90326
98.948883 149.0275 556.05884
100.59489 148.91985 554.22418
102.02885 148.91808 554.37158
103.36441 148.96928 555.50909
104.80064 148.96762 555.64929
106.23674 148.966 555.78571
107.58217 149.01735 556.91284
109.10852 148.96292 556.0473
110.54424 148.96144 556.17242
111.97981 148.96002 556.29395
113.41528 148.95865 556.41156
114.85064 148.95732 556.52551
116.36101 148.90315 555.63995
117.86614 148.84903 554.75031
119.29606 148.84784 554.85266
120.72588 148.84669 554.95135
122.1556 148.84561 555.04626
123.58524 148.84456 555.13757
124.95508 148.89644 556.22192
126.38712 148.89548 556.30591
127.7645 148.94743 557.3833
129.25098 148.89368 556.46283
130.68282 148.89285 556.53571
132.11458 148.89206 556.60486
133.54628 148.89133 556.67035
134.97794 148.89063 556.73218
136.40952 148.88998 556.79034
137.84106 148.88936 556.84473
139.27257 148.88879 556.89545
140.67253 148.94113 557.94061
142.13544 148.88779 556.98584
143.56682 148.88734 557.02551
144.95056 148.99268 559.05811
146.34454 149.09804 561.08734
147.73009 149.2563 564.11139
149.14709 149.36176 566.13367
150.54726 149.57297 570.14923
151.97891 149.73135 573.1629
153.44276 149.78406 574.17578
154.90588 149.88968 576.18347
156.38911 149.83676 575.19165
157.86722 149.78387 574.19598
159.33833 149.67819 572.198
160.79921 149.57254 570.19617
162.24982 149.46693 568.19067
163.69972 149.41422 567.17999
165.14452 149.36156 566.16571
166.5842 149.30894 565.14771
168.00154 149.20349 563.12756
169.42844 149.15096 562.10229
170.85023 149.09846 561.07343
172.3168 149.15173 562.03754
173.76105 149.15219 561.99963
175.23538 149.20554 562.95605
176.68227 149.20609 562.91064
178.16438 149.25952 563.85944
179.57616 149.20729 562.80853
180.98286 149.15509 561.75409
182.42738 149.15579 561.69379
183.87196 149.15656 561.62976
185.41266 149.26309 563.55695
186.91309 149.3168 564.48248
188.57819 149.52921 568.39569
190.15244 149.63591 570.30988
191.73705 149.74266 572.21967
193.332 149.84946 574.12506
194.93732 149.95631 576.026
196.42102 149.95746 575.92963
197.97337 150.01154 576.82562
199.3887 149.95988 575.72522
200.72531 149.85538 573.62549
201.97552 149.69803 570.5271
203.28926 149.59361 568.42145
204.43005 149.38342 564.3222
205.63437 149.22617 561.216
206.99648 149.17476 560.09692
208.35358 149.12338 558.97455
209.70566 149.07205 557.84888
211.05273 149.02077 556.71991
212.49164 149.02243 556.58154
213.93066 149.02415 556.43939
215.36987 149.02594 556.29352
216.91373 149.08067 557.1369
218.3558 149.08255 556.98315
219.79803 149.08447 556.82562
221.24045 149.08646 556.66425
222.68304 149.08849 556.49915
224.12582 149.09056 556.33014
225.68872 149.14565 557.14868
227.13443 149.14784 556.97174
228.58035 149.15009 556.79102
230.02646 149.15237 556.60632
231.34258 149.10178 555.42786
232.91934 149.15715 556.22559
234.36612 149.15961 556.02942
235.95108 149.2151 556.81836
237.40088 149.2177 556.61407
238.85092 149.22034 556.40588
240.30121 149.22304 556.19385
241.89999 149.27878 556.96533
243.50421 149.33459 557.73212
245.26727 149.4435 559.48102
246.88492 149.49947 560.23798
248.34941 149.50249 560.00421
249.97534 149.55859 560.75195
251.44302 149.56174 560.50983
252.911 149.56497 560.26373
254.54817 149.62128 560.9978
256.01935 149.62463 560.74323
257.49084 149.62805 560.4845
259.31598 149.73764 562.1875
260.97253 149.79427 562.9021
262.45282 149.7979 562.62982
264.11786 149.85469 563.33496
265.78839 149.91154 564.03491
267.27493 149.91541 563.74927
268.95404 149.97243 564.43951
270.44397 149.97643 564.14514
272.13159 150.03362 564.8255
273.8248 150.0909 565.50055
275.72614 150.20137 567.14819
277.63824 150.31197 568.78949
279.97647 150.52895 572.37781
281.70511 150.58661 573.02881
283.65225 150.69754 574.64996
284.9639 150.64908 573.33936
286.27084 150.60069 572.02557
287.57312 150.55237 570.7085
288.64743 150.45093 568.41498
289.71188 150.34952 566.11938
291.22333 150.35458 565.76611
292.50427 150.3065 564.43689
293.78055 150.25848 563.10455
295.76086 150.37024 564.67975
297.03564 150.32239 563.33917
298.06439 150.22136 561.02655
299.81537 150.28015 561.61688
300.83221 150.17923 559.29852
302.08853 150.13165 557.94537
303.59204 150.13744 557.55536
305.6051 150.24989 559.09204
307.11508 150.25586 558.69165
308.88538 150.31526 559.25104
310.6615 150.37474 559.80426
312.44354 150.43436 560.35156
313.69647 150.38737 558.96857
314.94485 150.34047 557.58246
317.2796 150.50711 560.03552
318.80469 150.51378 559.59998
320.60849 150.57394 560.11877
322.13763 150.58081 559.67297
323.38434 150.53433 558.26477
324.62653 150.48795 556.85339
325.86423 150.44164 555.4389
326.51529 150.28848 552.11066
328.03241 150.29575 551.64563
329.25403 150.24963 550.22229
330.47113 150.2036 548.79578
332.89001 150.37166 551.17371
335.93396 150.64694 555.44403
339.00494 150.92247 559.70105
342.10309 151.19821 563.94446
344.29205 151.31351 565.32855
346.17767 151.37538 565.75641
347.11734 151.27661 563.3371
347.40723 151.07068 559.02435
347.99951 150.91835 555.65863
349.22736 150.87331 554.18134
349.46692 150.66736 549.87115
351.33911 150.72972 550.27448
352.88419 150.73853 549.72943
354.43011 150.74744 549.17926
356.31537 150.81015 549.56329
358.20676 150.87297 549.94012
359.07281 150.77469 547.49731
361.66138 150.94522 549.7356
362.87024 150.90086 548.2207
363.72278 150.80275 545.76782
365.98325 150.91988 547.04773
367.89801 150.98334 547.38574
369.45914 150.99307 546.78485
372.47064 151.21829 549.90027
374.77405 151.336 551.14319
376.35327 151.34604 550.51959
378.30365 151.41008 550.81787
379.88693 151.42029 550.18213
381.09512 151.37662 548.61578
382.677 151.38692 547.97009
384.6405 151.45126 548.24176
386.22617 151.46169 547.58374
388.19873 151.52617 547.84088
389.78799 151.5367 547.17053
391.76947 151.6013 547.41309
393.36215 151.61191 546.73035
394.95517 151.62253 546.04199
396.94821 151.68727 546.26306
399.34924 151.80617 547.38995
400.95081 151.81686 546.68121
403.77585 151.99002 548.70123
405.79593 152.05492 548.88788
407.40808 152.06563 548.15741
409.01999 152.07631 547.42126
411.46863 152.19539 548.4928
-88.422699 153.39746 544.77728
-86.004044 153.2731 543.67847
-84.002487 153.20554 543.48108
-82.410126 153.1947 544.1889
-80.416595 153.12715 543.97675
-78.428589 153.05965 543.75677
-77.237732 153.1055 545.36194
-75.648666 153.0947 546.0462
-74.05986 153.08391 546.72473
-72.47142 153.07315 547.39764
-70.498276 153.00583 547.14392
-68.53093 152.93858 546.88239
-66.569382 152.87141 546.61298
-64.99086 152.86087 547.26025
-63.038467 152.79387 546.97656
-61.463806 152.78346 547.61169
-59.151459 152.66014 546.38599
-58.316406 152.76283 548.86548
-56.379868 152.69617 548.55432
-54.088211 152.57318 547.30487
-52.883423 152.61958 548.84131
-50.962387 152.55324 548.50873
-49.047409 152.487 548.1687
-47.138519 152.42088 547.82135
-45.583618 152.41124 548.40247
-43.684219 152.34534 548.04138
-42.133575 152.33588 548.61096
-40.583694 152.32652 549.17523
-38.697327 152.26096 548.79449
-37.151749 152.2518 549.34741
-34.942947 152.13022 548.01178
-33.404266 152.12128 548.55243
-31.539734 152.05621 548.14453
-30.00531 152.04749 548.67395
-28.15033 151.98265 548.25311
-26.93898 152.0303 549.71771
-25.407013 152.02187 550.23193
-23.562332 151.95738 549.79327
-22.034653 151.94916 550.29675
-20.199493 151.88492 549.84552
-18.676025 151.87691 550.33826
-16.547348 151.75681 548.92334
-15.030685 151.74902 549.40448
-13.514816 151.74133 549.88086
-11.99971 151.73375 550.35236
-10.485352 151.72626 550.81909
-8.9717255 151.71887 551.28094
-7.1716156 151.65556 550.78186
-5.3774872 151.59238 550.27649
-3.5893402 151.52933 549.76483
-1.5277405 151.4104 548.28839
-0.030853271 151.40356 548.7229
1.7394867 151.34087 548.19269
2.9608459 151.39017 549.578
3.6489258 151.55142 552.88324
3.819397 151.82452 558.11279
4.2789917 152.04172 562.38202
4.7588196 152.25891 566.65228
6.0342865 152.30846 568.03052
7.0585022 152.41394 570.37042
8.3457336 152.46361 571.74286
10.389572 152.34578 570.21252
12.174271 152.28394 569.64215
13.707733 152.27805 570.03357
16.212006 152.04892 566.54663
18.214386 151.93161 564.98822
19.730484 151.92604 565.36224
21.716141 151.80896 563.79102
22.9935 151.85938 565.12585
24.275482 151.90985 566.45764
25.3349 152.01617 568.75842
26.628845 152.06679 570.08441
28.149536 152.06171 570.43372
29.669724 152.0567 570.77863
30.972527 152.10754 572.09387
32.708611 152.04697 571.45551
34.227371 152.04221 571.78729
35.536522 152.09326 573.09125
37.263466 152.03296 572.43811
38.780838 152.02844 572.75708
40.499107 151.96832 572.09381
42.013023 151.96399 572.40369
43.526543 151.95972 572.70923
45.233223 151.89986 572.03101
47.316292 151.72876 569.38763
49.195068 151.61343 567.71747
51.248947 151.44257 565.06018
53.286957 151.2718 562.39575
54.947792 151.21243 561.68829
56.246979 151.26439 562.94073
57.550995 151.31641 564.19
58.514015 151.47971 567.40289
60.003181 151.47621 567.6629
61.156532 151.58398 569.88733
62.815384 151.52502 569.1554
64.30619 151.52173 569.40356
65.956673 151.46291 568.66229
67.444313 151.45975 568.90198
69.241356 151.3455 567.16486
70.723274 151.34247 567.39569
72.803703 151.11726 563.67383
74.863258 150.89214 559.94482
76.46833 150.83379 559.17267
78.209946 150.71997 557.40759
80.080437 150.55066 554.64838
81.251152 150.65915 556.82831
82.700409 150.65662 557.0271
84.281143 150.5986 556.23212
85.727409 150.59619 556.42279
87.299988 150.5383 555.61914
88.743286 150.536 555.8017
90.307739 150.47824 554.98944
91.629257 150.53156 556.15546
92.955742 150.58493 557.31824
94.514503 150.52734 556.4939
96.067963 150.4698 555.6651
97.507576 150.46783 555.82452
99.052979 150.41042 554.9873
100.59309 150.35306 554.14575
101.92628 150.40674 555.28662
103.36271 150.40497 555.4306
104.79898 150.40326 555.57086
106.23513 150.4016 555.70734
107.67114 150.39998 555.83997
109.10701 150.39842 555.96899
110.45737 150.45238 557.08899
111.97841 150.39545 556.21558
113.33366 150.44949 557.32855
114.84932 150.39267 556.44727
116.35974 150.33589 555.56195
117.86493 150.27916 554.67236
119.29488 150.27794 554.77478
120.79218 150.22133 553.87732
122.08966 150.3311 555.96484
123.52191 150.33002 556.05627
124.95409 150.32898 556.14398
126.38617 150.328 556.22809
127.7636 150.38249 557.3053
129.25012 150.32616 556.38495
130.63254 150.38074 557.45508
132.1138 150.32449 556.52704
133.54556 150.32373 556.59259
134.93549 150.37845 557.65204
136.36969 150.37778 557.71021
137.80385 150.37715 557.76477
139.23795 150.37656 557.81555
140.64052 150.43146 558.86072
142.0771 150.43095 558.90424
143.51366 150.43051 558.94403
144.90257 150.54095 560.9765
146.28049 150.70686 564.00378
147.69243 150.8174 566.02936
149.09851 150.9834 569.04968
150.51996 151.14944 572.06653
151.96776 151.2601 574.08136
153.44264 151.25995 574.09576
154.9175 151.25984 574.10626
156.39893 151.14893 572.11609
157.87009 151.03806 570.12213
159.32915 150.8718 567.12592
160.78165 150.81644 566.12286
162.22902 150.76114 565.11615
163.66174 150.65044 563.10736
165.09631 150.59521 562.0932
166.54045 150.59546 562.07379
167.93289 150.42946 559.05579
169.34958 150.37436 558.03082
170.78352 150.37474 558.00055
172.19258 150.31972 556.96838
173.62402 150.32019 556.93079
175.11565 150.43155 558.8855
176.55231 150.4321 558.84033
178.02422 150.48813 559.78931
179.46353 150.48877 559.73669
180.82227 150.37857 557.685
182.25656 150.3793 557.62512
183.73637 150.43552 558.55896
185.22139 150.49178 559.48895
186.71161 150.54808 560.41486
188.31332 150.71532 563.33087
189.76337 150.71628 563.25165
191.38834 150.88362 566.159
192.9071 150.94014 567.06842
194.62134 151.16306 570.96307
196.29022 151.33057 573.85626
197.90604 151.44269 575.7486
199.46109 151.49942 576.64032
200.94771 151.50075 576.53217
202.20566 151.33574 573.43353
203.4483 151.17075 570.33215
204.67567 151.00581 567.22827
205.80379 150.78543 563.12683
207.08453 150.67603 561.01276
208.35513 150.56667 558.89581
209.6156 150.45734 556.776
211.14865 150.5145 557.63538
212.49335 150.46072 556.50293
213.93243 150.46249 556.36078
215.37167 150.46432 556.21478
216.91559 150.5217 557.05811
218.35771 150.52362 556.90424
219.90967 150.5811 557.73907
221.24248 150.52763 556.58527
222.68512 150.52972 556.42004
224.2453 150.58737 557.24255
225.69089 150.58957 557.0694
227.13666 150.59183 556.89246
228.58264 150.59415 556.71161
230.02881 150.59651 556.52698
231.47519 150.59894 556.33844
232.92178 150.60141 556.146
234.36862 150.60396 555.94983
235.95364 150.66209 556.73859
237.4035 150.66475 556.53424
238.85361 150.66748 556.32605
240.30392 150.67026 556.11383
241.90282 150.72865 556.88525
243.50708 150.78712 557.65179
245.42361 150.95683 560.38696
246.88791 150.95988 560.1571
248.51105 151.01859 560.90906
250.13965 151.07736 561.65625
251.60995 151.08061 561.41364
253.08057 151.08392 561.16693
254.7204 151.14291 561.90033
256.19421 151.14638 561.6452
257.66837 151.1499 561.38605
259.31952 151.20914 562.10553
260.97614 151.26843 562.81989
262.45648 151.27217 562.54761
264.12158 151.33163 563.25244
265.97919 151.44684 564.93298
267.27884 151.39516 563.66644
268.76584 151.3992 563.37665
270.44797 151.459 564.06195
272.33304 151.57457 565.72089
274.0289 151.63455 566.39514
276.13541 151.80602 569.01959
278.05276 151.92191 570.65936
279.98096 152.0379 572.29279
281.49939 152.04257 571.96747
283.2312 152.10304 572.61334
284.32227 151.9964 570.32898
285.83954 152.00131 569.99133
286.91602 151.89478 567.70166
287.7594 151.73254 564.43695
289.03937 151.68188 563.11658
290.08621 151.5755 560.82098
291.35425 151.52496 559.495
292.85126 151.53029 559.13647
294.58502 151.59151 559.74371
296.32452 151.65283 560.34528
297.58694 151.6026 559.00348
299.08881 151.60829 558.62677
300.34454 151.55821 557.27808
301.5957 151.50821 555.92621
302.84229 151.45828 554.57135
305.10205 151.63193 557.0752
307.12103 151.74985 558.60559
308.37207 151.7002 557.23639
310.92993 151.93018 560.68097
312.4498 151.93665 560.26459
313.70276 151.88727 558.88159
315.49152 151.94986 559.41791
317.28613 152.01259 559.94806
319.08667 152.07542 560.47205
320.89319 152.13838 560.98975
322.14447 152.08948 559.58484
323.108 151.98465 557.2193
324.63348 151.99188 556.76532
325.87122 151.94321 555.35071
326.81345 151.83856 552.97791
327.74591 151.73396 550.60345
328.96494 151.68547 549.18085
330.47845 151.69315 548.70776
331.99277 151.70091 548.2298
334.42047 151.87711 550.59973
338.09216 152.27798 556.76025
341.49207 152.623 561.95453
343.6759 152.74371 563.33997
346.81537 153.03305 567.55933
348.0777 152.98557 566.0849
348.05554 152.71339 560.82422
348.65314 152.55357 557.45691
349.56104 152.45 555.03387
349.47534 152.17773 549.78021
351.01703 152.18671 549.24115
352.55954 152.19576 548.69684
354.77466 152.31749 550.02783
356.32416 152.32677 549.47131
357.87439 152.33614 548.90942
359.76935 152.40195 549.27972
361.32397 152.41151 548.70642
361.83191 152.25208 545.32166
363.38013 152.26178 544.74066
365.28357 152.32796 545.08771
366.836 152.33784 544.49506
369.46851 152.51711 546.69092
372.11774 152.69656 548.87531
374.78366 152.87619 551.04797
376.73071 152.94302 551.35242
378.68384 153.00995 551.64923
379.89673 152.96394 550.08618
381.48071 152.9745 549.44476
383.06528 152.98512 548.79773
385.03149 153.05237 549.06793
386.61987 153.0631 548.40869
387.82227 153.01726 546.82318
390.1871 153.14131 547.99268
391.3877 153.09554 546.39709
392.97772 153.1064 545.71527
395.3623 153.23065 546.85992
396.95825 153.24159 546.16461
399.35928 153.36597 547.29095
401.77115 153.49042 548.40704
403.78589 153.55817 548.60132
405.39542 153.56915 547.8775
407.83118 153.6937 548.96588
409.44568 153.70465 548.22833
411.47842 153.77237 548.39166
-88.020889 154.89868 543.76379
-86.83255 154.94696 545.39581
-84.825684 154.8765 545.20123
-82.420273 154.7467 544.08575
-80.025589 154.61699 542.95996
-79.235779 154.72449 545.48486
-77.247925 154.6541 545.25958
-75.658829 154.64302 545.94397
-74.070038 154.63196 546.62274
-72.481583 154.62091 547.2959
-70.508438 154.55072 547.0426
-68.923553 154.53976 547.70349
-66.579453 154.41054 546.51239
-65.378082 154.45885 548.08417
-63.422958 154.38895 547.80194
-61.101868 154.26003 546.58545
-59.161285 154.19032 546.28674
-57.959702 154.23886 547.83752
-56.025772 154.16934 547.52576
-54.45903 154.15894 548.13702
-52.534531 154.08963 547.81128
-50.616013 154.02042 547.47797
-49.056854 154.0103 548.07104
-46.797302 153.88235 546.78931
-45.24498 153.87244 547.36969
-44.038666 153.92154 548.88135
-42.142654 153.85289 548.5144
-40.592728 153.84326 549.07892
-39.043579 153.83371 549.63812
-37.495255 153.82428 550.19214
-35.615707 153.75607 549.79944
-33.74231 153.68802 549.39978
-31.874969 153.62007 548.99304
-30.337845 153.61107 549.52356
-28.158646 153.4846 548.15887
-26.628448 153.47583 548.67755
-25.731369 153.58466 551.08484
-23.883972 153.51733 550.64746
-22.042618 153.45012 550.20325
-20.823929 153.50046 551.65143
-18.989456 153.43349 551.19562
-16.858017 153.30797 549.78198
-15.338638 153.29993 550.26416
-13.522278 153.23335 549.78864
-11.71196 153.1669 549.3067
-10.49263 153.21783 550.72723
-8.6890564 153.15161 550.23401
-7.1787415 153.1441 550.69055
-5.3845062 153.07813 550.18549
-3.5962067 153.01227 549.67407
-1.5345001 152.88799 548.19812
0.23924255 152.82239 547.67365
0.91041565 152.99107 550.9826
1.5966187 153.15977 554.29132
2.5667419 153.27 556.63861
2.481369 153.61429 562.83252
2.6903381 153.90004 568.06775
3.9691925 153.95186 569.45117
5.2525787 154.00375 570.83142
6.284668 154.11418 573.17334
8.08638 154.04932 572.61646
10.383575 153.86771 570.12097
12.416473 153.74466 568.5838
14.192856 153.68019 568.00714
16.692047 153.44061 564.51965
19.169861 153.2012 561.02246
20.913315 153.13712 560.42438
22.180862 153.1899 561.76117
23.685562 153.18437 562.1239
24.959854 153.2373 563.45367
25.557007 153.46535 567.69666
26.848419 153.51839 569.02197
28.366608 153.51317 569.37079
29.445328 153.62466 571.66296
31.184563 153.56129 571.02985
32.70385 153.55632 571.36621
34.010963 153.60973 572.67377
35.741028 153.54663 572.02582
37.465446 153.48361 571.37244
39.388168 153.36244 569.73645
41.702789 153.12485 566.13843
43.598778 153.00391 564.48853
45.287834 152.94131 563.81116
47.358467 152.76234 561.16992
48.840202 152.75819 561.46106
50.886795 152.57944 558.80688
52.731674 152.45901 557.12653
54.199356 152.45512 557.40289
55.847374 152.3931 556.69324
57.133713 152.44754 557.94318
58.249382 152.56026 560.17285
59.720863 152.55664 560.43384
61.192024 152.55309 560.6908
62.327362 152.66595 562.91193
63.968231 152.60435 562.17712
65.11586 152.71733 564.3924
66.433525 152.77219 565.61987
67.75605 152.8271 566.84418
69.238312 152.82393 567.0791
70.415726 152.9371 569.28326
72.501389 152.70151 565.56287
74.271919 152.58228 563.81018
76.031898 152.46313 562.052
77.781326 152.34406 560.28833
79.659615 152.16696 557.5307
81.248566 152.10617 556.74481
82.697899 152.10356 556.9436
84.146996 152.10101 557.13855
85.724998 152.04042 556.3396
87.171112 152.03799 556.52643
88.617027 152.03561 556.70941
90.184128 151.97522 555.89764
91.627075 151.97296 556.07263
93.069847 151.97076 556.24377
94.626099 151.91055 555.41931
96.065948 151.90846 555.58252
97.505615 151.90643 555.742
99.051086 151.84639 554.90491
100.48786 151.84448 555.05652
101.92448 151.84262 555.20441
103.36095 151.84081 555.34839
104.79729 151.83904 555.48865
106.23349 151.83733 555.62512
107.66954 151.83568 555.75793
109.10547 151.83408 555.8869
110.54127 151.83252 556.01215
112.05978 151.77298 555.13873
113.49278 151.77153 555.25629
115.00336 151.7121 554.37482
116.43356 151.71074 554.48468
117.93623 151.65141 553.59509
119.36366 151.65016 553.69739
120.79101 151.64897 553.79596
122.1534 151.70583 554.88696
123.58313 151.70471 554.97827
124.89333 151.81969 557.05896
126.32803 151.81866 557.14313
127.76266 151.8177 557.22363
129.1972 151.81677 557.30042
130.6317 151.81589 557.37341
132.06612 151.81506 557.44275
133.50047 151.81429 557.50842
134.93478 151.81354 557.57037
136.32983 151.87085 558.62616
137.7666 151.87021 558.68079
139.20331 151.8696 558.73175
140.60849 151.92705 559.77686
142.01875 151.98453 560.81836
143.43411 152.04205 561.8562
144.80698 152.21562 564.88666
146.19518 152.38922 567.91376
147.61743 152.50488 569.93921
149.04993 152.62057 571.96106
150.5062 152.67831 572.98114
151.97856 152.67813 572.99933
153.45934 152.61998 572.01538
154.94081 152.50388 570.02924
156.4153 152.32983 567.04102
157.87297 152.27182 566.04559
159.32181 152.09787 563.04987
160.76851 152.09795 563.04529
162.20822 152.04007 562.03876
163.63329 151.92424 560.03021
165.06021 151.86646 559.01636
166.48203 151.80872 557.9989
167.86426 151.63503 554.98138
169.29053 151.63536 554.9549
170.69446 151.57774 553.92676
172.09329 151.52017 552.89496
173.54202 151.57864 553.85553
174.96585 151.57916 553.81445
176.42236 151.63773 554.76746
177.91925 151.75432 556.71429
179.31316 151.69698 555.66437
180.70198 151.63968 554.61084
182.17152 151.69843 555.54871
183.55534 151.6412 554.4881
185.03014 151.70004 555.41833
186.51013 151.75894 556.3446
187.99533 151.81787 557.26697
189.54146 151.93488 559.18207
191.09793 152.05194 561.09283
192.66476 152.16905 562.99933
194.36879 152.40225 566.89398
196.02747 152.57751 569.78748
197.70161 152.75281 572.67609
199.3913 152.92819 575.55975
200.94907 152.98758 576.44733
202.43585 152.98898 576.33527
203.8439 152.9324 575.22412
205.00275 152.70178 571.12457
206.05721 152.41315 566.02808
207.25919 152.24063 562.91907
208.44586 152.06813 559.80756
209.70892 151.9537 557.68774
211.15036 151.95543 557.55292
212.4951 151.89915 556.42059
213.93425 151.90097 556.27844
215.47549 151.96091 557.12549
216.91751 151.96283 556.97546
218.3597 151.96483 556.82166
219.91168 152.02493 557.65619
221.24454 151.96895 556.5025
222.68724 151.9711 556.33728
224.13013 151.9733 556.16821
225.69313 152.03366 556.98639
227.13896 152.03596 556.80933
228.58499 152.03836 556.62854
230.15891 152.09888 557.4339
231.60791 152.10138 557.245
233.05716 152.10394 557.05225
234.50661 152.10655 556.85559
236.09425 152.16734 557.6438
237.40619 152.11197 556.45062
238.85635 152.11476 556.24237
240.30676 152.11761 556.03015
241.75742 152.12054 555.81403
243.51004 152.23981 557.56769
245.27322 152.35916 559.31586
246.89099 152.42044 560.07233
248.51421 152.48181 560.8241
250.14288 152.54324 561.57111
251.77698 152.60477 562.31311
253.25024 152.60818 562.06598
254.72382 152.61168 561.81482
256.19772 152.61523 561.55963
257.84601 152.67706 562.28333
259.32315 152.68077 562.01959
260.97986 152.74275 562.73383
262.46027 152.74661 562.46136
264.12546 152.80876 563.16602
265.79614 152.87099 563.86548
267.47241 152.93332 564.55988
268.9621 152.9375 564.26947
270.84164 153.05824 565.93317
272.73193 153.17909 567.59058
274.43307 153.24179 568.26355
276.54486 153.42113 570.88641
278.26239 153.48404 571.54773
279.98557 153.54704 572.20367
281.08353 153.43526 569.92651
282.59735 153.44012 569.5979
283.46521 153.27014 566.3407
284.75415 153.21683 565.03101
285.81775 153.10526 562.74457
287.09467 153.05206 561.42914
288.14108 152.9406 559.13812
289.63452 152.94591 558.78888
290.8974 152.89291 557.46405
292.38928 152.89839 557.10669
294.11795 152.96233 557.71497
295.61353 152.96799 557.34821
296.62677 152.8569 555.03973
297.87424 152.80431 553.69751
299.11707 152.75177 552.35217
300.60452 152.75775 551.9704
302.34445 152.82227 552.55017
304.59912 153.00381 555.05481
306.87012 153.18553 557.55078
308.89764 153.30891 559.0741
310.93628 153.43243 560.58997
312.45624 153.43912 560.17352
313.97681 153.44588 559.75232
315.22797 153.39421 558.36554
316.74731 153.40115 557.93579
318.54276 153.46677 558.46094
319.78815 153.41536 557.06226
321.02905 153.36404 555.66046
322.54865 153.37137 555.21265
323.78314 153.32022 553.80365
325.59003 153.38635 554.3028
326.52966 153.27675 551.93091
327.7533 153.22583 550.51154
328.97241 153.17499 549.08893
330.48602 153.18289 548.6156
331.39722 153.07352 546.23425
334.12405 153.31639 549.55609
337.17957 153.61816 553.81616
340.26227 153.92021 558.06287
343.6842 154.28122 563.24408
346.50903 154.52502 566.51508
347.76883 154.47519 565.04156
349.02417 154.42545 563.56464
348.98444 154.14056 558.30566
349.24438 153.91446 553.99426
349.81201 153.74716 550.62793
350.69519 153.6387 548.2038
352.56839 153.70686 548.60126
354.44775 153.77518 548.9917
355.99463 153.78471 548.43591
357.88354 153.85324 548.81299
359.43475 153.86299 548.24573
360.98676 153.87282 547.67316
362.53955 153.88275 547.09534
363.74133 153.83377 545.57788
365.64752 153.90286 545.92352
367.91693 154.03107 547.19403
370.19778 154.15942 548.45508
372.85242 154.34698 550.63666
375.52374 154.53473 552.80646
377.10846 154.54539 552.18042
378.69385 154.55614 551.54877
380.27991 154.56694 550.91162
381.49078 154.51866 549.34406
383.07538 154.52957 548.69678
384.66061 154.54053 548.04407
386.24631 154.55153 547.38562
388.21893 154.62178 547.64203
390.19739 154.69211 547.89056
391.39798 154.64401 546.29498
393.38248 154.71443 546.52997
394.97549 154.72562 545.84125
396.56873 154.7368 545.14685
399.36957 154.92596 547.18738
401.37625 154.99655 547.3905
403.38831 155.06714 547.58563
405.40564 155.13776 547.77277
407.01501 155.14897 547.04315
408.20825 155.10071 545.40045
409.81439 155.11179 544.66083
-88.031158 156.45686 543.65509
-86.84288 156.50751 545.28711
-84.836075 156.43417 545.0929
-82.430664 156.29892 543.97803
-81.239609 156.34946 545.59448
-79.246231 156.27617 545.37756
-77.258362 156.20291 545.15265
-75.669327 156.19156 545.83734
-74.080521 156.18021 546.5163
-72.104202 156.10707 546.27002
-70.904037 156.15759 547.85748
-68.933929 156.08456 547.59778
-66.96962 156.01163 547.33026
-65.765564 156.06223 548.9032
-63.433212 155.9277 547.69727
-61.112061 155.7933 546.48138
-59.171432 155.72072 546.18311
-57.969788 155.77158 547.73389
-56.035767 155.69916 547.42249
-53.746613 155.56525 546.17316
-51.827301 155.49307 545.84564
-50.625824 155.5442 547.37573
-49.066574 155.53381 547.96899
-47.157471 155.46194 547.62231
-45.950333 155.51328 549.13934
-44.393417 155.50316 549.71661
-42.83728 155.49313 550.28851
-41.281952 155.48318 550.8551
-39.390106 155.41187 550.47705
-37.83905 155.40213 551.03217
-35.956757 155.33107 550.64081
-34.080597 155.26013 550.24243
-32.210541 155.18933 549.83704
-30.6707 155.18005 550.36877
-28.810165 155.1095 549.95032
-27.274597 155.10045 550.47095
-25.739822 155.09149 550.98645
-23.892303 155.02133 550.54944
-22.361786 155.0126 551.05408
-20.832062 155.00397 551.55371
-18.997482 154.93417 551.09827
-17.168945 154.8645 550.63623
-15.346451 154.79498 550.16754
-13.529999 154.72557 549.69238
-12.014694 154.71753 550.16425
-10.500168 154.70959 550.63129
-8.9863586 154.70177 551.09351
-7.4733276 154.69405 551.55103
-5.6763458 154.62524 551.047
-3.8853607 154.55658 550.53674
-1.8209229 154.42691 549.06207
-0.59799194 154.48077 550.45654
-0.19309998 154.71809 554.72717
0.77516174 154.83319 557.07813
1.4842529 155.00943 560.38861
0.87669373 155.49113 568.50848
1.8925629 155.60631 570.85931
3.4404144 155.59943 571.28156
4.7291107 155.65369 572.66315
7.0459747 155.46387 570.18237
9.3465271 155.27422 567.69287
11.630829 155.08472 565.19458
14.39505 154.77338 560.75403
16.150711 154.70624 560.17236
18.386353 154.51724 557.6485
21.086319 154.20644 553.17877
22.571381 154.20065 553.54529
24.29097 154.13402 552.93744
26.004822 154.06747 552.32397
27.25322 154.12292 553.64752
28.506271 154.17844 554.96802
29.988693 154.17311 555.31299
31.248543 154.22876 556.62665
32.293571 154.3454 558.91107
33.348526 154.46208 561.19342
33.984764 154.70056 565.42358
35.276382 154.75647 566.72778
36.572762 154.81242 568.02869
38.286896 154.74673 567.37341
40.199356 154.62032 565.73566
42.302391 154.43317 563.11383
43.991928 154.3678 562.44098
46.068245 154.18088 559.80542
47.741455 154.11572 559.12103
49.791107 153.92905 556.47211
51.82486 153.74249 553.81604
53.842743 153.55605 551.15289
55.478241 153.4913 550.44519
56.927574 153.48741 550.71411
58.020393 153.60515 552.94336
59.298714 153.66217 554.18781
60.408958 153.78 556.41217
61.699509 153.83713 557.651
62.994934 153.8943 558.88654
64.460365 153.89081 559.1347
65.762909 153.94812 560.36359
67.230331 153.94473 560.60406
68.225151 154.12361 563.79755
69.544868 154.18109 565.0174
70.717201 154.29932 567.22046
71.899544 154.4176 569.4212
73.53334 154.35382 568.65765
75.450813 154.16873 565.91412
77.210625 154.04443 564.15228
79.37809 153.73814 559.41992
81.109077 153.61403 557.6463
82.695305 153.55066 556.85638
84.276146 153.48737 556.06189
85.722534 153.4848 556.25262
87.168709 153.4823 556.43945
88.61467 153.47986 556.6225
90.181831 153.41684 555.81097
91.62484 153.41452 555.98602
93.183899 153.35161 555.16589
94.623978 153.34941 555.33289
96.174973 153.28662 554.50427
97.612129 153.28455 554.66345
99.049118 153.28253 554.81891
100.58934 153.21992 553.97772
101.92263 153.27863 555.11835
103.35916 153.27676 555.26245
104.79555 153.27496 555.40271
106.23178 153.27321 555.53931
107.66789 153.2715 555.67206
109.10387 153.26985 555.80109
110.62512 153.20766 554.93188
112.05829 153.20612 555.05316
113.49133 153.20462 555.17078
114.92427 153.20317 555.28455
116.43224 153.14119 554.39929
117.86238 153.13986 554.50549
119.29243 153.13857 554.60797
120.72238 153.13733 554.70679
122.15227 153.13614 554.8017
123.45746 153.25616 556.8855
124.89228 153.25508 556.97345
126.32703 153.25403 557.05762
127.70711 153.31361 558.13483
129.1963 153.25209 557.21497
130.63083 153.25119 557.28809
132.06531 153.25034 557.35742
133.49971 153.24953 557.4231
134.93405 153.24876 557.48505
136.32916 153.30862 558.54071
137.76596 153.30797 558.59534
139.20273 153.30734 558.6463
140.57645 153.4279 560.6889
141.96039 153.54851 562.72809
143.35455 153.66916 564.76385
144.73515 153.8504 567.79401
146.1311 154.03171 570.82074
147.57977 154.09192 571.84814
149.04965 154.09161 571.87378
150.53307 154.03079 570.89752
152.00034 154.03059 570.91553
153.48444 153.90932 568.93359
154.95827 153.78809 566.94769
156.41855 153.72746 565.95624
157.8744 153.60632 563.96289
159.32001 153.48523 561.9657
160.75536 153.36418 559.96484
162.18744 153.30374 558.9585
163.60484 153.18279 556.95032
165.02412 153.12244 555.93671
166.43828 153.06213 554.91949
167.84734 153.00188 553.89868
169.25128 152.94165 552.87421
170.65013 152.88148 551.84625
172.0688 152.88191 551.81262
173.48752 152.8824 551.77527
174.90627 152.88293 551.73438
176.3577 152.94406 552.68738
177.8143 153.00525 553.63654
179.20055 152.94534 552.58691
180.62206 152.94608 552.53131
182.04362 152.94682 552.47192
183.46524 152.94763 552.40887
184.88693 152.94849 552.34216
186.35927 153.00996 553.26868
187.88998 153.13208 555.18805
189.37531 153.19366 556.10651
190.86583 153.25528 557.02087
192.42244 153.37756 558.92767
194.05283 153.56047 561.82617
195.69872 153.74345 564.71997
197.36011 153.92648 567.60901
199.10811 154.17018 571.48871
200.80309 154.35336 574.3678
202.4373 154.476 576.24652
203.92424 154.47751 576.13062
205.3299 154.41846 575.01593
206.47864 154.17764 570.914
207.52042 153.87624 565.81537
208.71484 153.69609 562.70361
209.894 153.51598 559.58948
211.15211 153.39651 557.46667
212.59373 153.39835 557.32794
214.03549 153.40022 557.18549
215.57936 153.46277 558.0321
217.02402 153.46477 557.88177
218.46881 153.46681 557.7276
220.02344 153.52954 558.56171
221.35893 153.47107 557.4079
222.80424 153.47327 557.24225
224.36713 153.53619 558.06409
225.8154 153.53853 557.8905
227.26385 153.54092 557.71313
228.83762 153.60403 558.52216
230.16138 153.54587 557.3468
231.48021 153.48778 556.16821
233.05975 153.55107 556.96503
234.37386 153.49307 555.77936
235.82101 153.49582 555.5791
237.40897 153.55933 556.36322
238.85919 153.56219 556.15485
240.30966 153.56514 555.94263
242.05695 153.68956 557.70062
243.66394 153.75336 558.46643
245.27634 153.81723 559.22748
247.0502 153.94189 560.96973
248.51746 153.94519 560.73535
250.14621 154.00931 561.48206
251.78038 154.07349 562.22388
253.08739 154.01627 560.99249
254.72736 154.0806 561.7254
256.20132 154.08426 561.47015
257.84967 154.14876 562.19366
259.3269 154.15257 561.92981
260.80444 154.15646 561.66187
262.46417 154.22121 562.37128
264.12943 154.28604 563.07568
265.8002 154.35097 563.7749
267.47656 154.41599 564.46906
269.15845 154.48109 565.15802
271.04068 154.60712 566.82074
273.13098 154.79408 569.45569
275.03735 154.92035 571.10541
276.75195 154.98587 571.77124
278.26703 154.99063 571.4549
279.57492 154.93463 570.15802
280.45746 154.75693 566.90637
281.75073 154.70103 565.60425
282.60828 154.52344 562.34967
283.66882 154.40675 560.06824
284.94016 154.35104 558.75836
285.98352 154.23447 556.47247
287.01703 154.11797 554.18475
288.72601 154.18431 554.81006
290.20966 154.18982 554.4588
291.92746 154.25636 555.07361
293.41476 154.26205 554.71301
295.14148 154.32883 555.3172
296.39105 154.27373 553.97876
297.88 154.27969 553.60504
299.12292 154.22476 552.25977
300.6105 154.23091 551.87787
302.35052 154.29819 552.45734
304.35083 154.42661 553.99615
306.8764 154.67729 557.45667
308.64438 154.74496 558.01575
310.41821 154.81277 558.56885
312.19794 154.88069 559.11603
313.716 154.88763 558.69537
314.69449 154.77246 556.34839
316.75427 154.90186 557.84033
317.99902 154.84796 556.44635
319.23929 154.79417 555.04926
320.75562 154.80161 554.60681
321.98944 154.74797 553.20251
322.93292 154.63324 550.83875
324.4436 154.64095 550.38446
325.66391 154.58755 548.97064
326.8797 154.53423 547.55365
327.79471 154.41974 545.18042
329.29788 154.42781 544.71021
330.80188 154.43599 544.23523
333.52359 154.68941 547.55792
335.96027 154.88174 549.91913
339.34204 155.25821 555.11707
342.13202 155.51231 558.40363
345.57343 155.88934 563.57251
347.46021 155.95985 563.99426
349.35315 156.0305 564.40906
349.96136 155.85573 561.03876
350.87994 155.74237 558.6123
350.47687 155.38338 552.41357
351.69608 155.33148 550.92963
352.91077 155.27965 549.44226
354.79288 155.35083 549.83136
356.3425 155.36066 549.27441
358.23416 155.43207 549.65015
359.10034 155.31906 547.2077
360.99634 155.39069 547.57196
362.54919 155.40089 546.99384
364.10291 155.41119 546.41052
366.01184 155.48315 546.75476
367.92688 155.55525 547.09167
370.20776 155.68909 548.35205
372.86252 155.88474 550.5329
375.16885 156.01889 551.77307
377.11874 156.09151 552.07574
379.4451 156.22595 553.29749
380.29028 156.11363 550.80652
382.25278 156.18652 551.0882
383.84277 156.19775 550.4386
385.43332 156.20903 549.78333
387.02441 156.22037 549.1225
388.61597 156.23172 548.45605
389.81885 156.1813 546.86493
391.01672 156.13084 545.27039
392.60406 156.14226 544.58929
394.19171 156.15367 543.90265
396.17944 156.22701 544.12494
398.57513 156.3623 545.25244
400.57645 156.43573 545.45764
402.99097 156.57112 546.56573
405.00562 156.64458 546.75366
407.02539 156.71802 546.93353
408.21857 156.6674 545.29083
410.24313 156.74077 545.45715
-88.453598 158.07983 544.45074
-86.853516 158.06825 545.17389
-84.846725 157.99207 544.98004
-82.84523 157.91586 544.77826
-80.849121 157.83971 544.56854
-78.858429 157.76357 544.35083
-77.269119 157.75192 545.04126
-75.286835 157.67584 544.8089
-73.700699 157.66425 545.48694
-72.114929 157.65268 546.15942
-70.914764 157.70552 547.74695
-68.944595 157.62961 547.48761
-67.360153 157.61813 548.14337
-65.776215 157.6067 548.79352
-63.818283 157.53101 548.51312
-61.866272 157.4554 548.22498
-59.181808 157.25134 546.07495
-57.980164 157.3045 547.62585
-56.046066 157.22922 547.31482
-53.756775 157.08981 546.06604
-52.195969 157.07898 546.67029
-50.63588 157.06822 547.2691
-49.076569 157.05754 547.86261
-47.51796 157.04697 548.45062
-45.960175 157.03647 549.03339
-44.057892 156.96194 548.6745
-43.189575 157.07985 551.12018
-40.951553 156.94147 549.81152
-39.399597 156.93137 550.37207
-38.183121 156.98541 551.86755
-36.298096 156.91147 551.47754
-34.419174 156.83765 551.08044
-32.546371 156.76399 550.67639
-30.679672 156.69046 550.26532
-29.140549 156.68103 550.79211
-27.602219 156.67169 551.31378
-25.748535 156.59854 550.88391
-24.214432 156.58945 551.39453
-22.370255 156.51656 550.95197
-20.840439 156.50769 551.45184
-19.005753 156.43507 550.99677
-17.177094 156.36258 550.53503
-15.054108 156.22638 549.11511
-13.835709 156.28183 550.54443
-12.022537 156.20975 550.06396
-10.215363 156.13779 549.57703
-8.7041016 156.12975 550.03864
-7.193573 156.12181 550.49548
-5.3991394 156.05023 549.99109
-3.8926849 156.04253 550.43768
-1.8280945 155.90747 548.96344
-1.4355469 156.15488 553.23444
-0.47434998 156.27486 555.58759
0.22505188 156.45859 558.89935
0.40150452 156.76973 564.13306
0.33706665 157.1445 570.33118
1.6219482 157.20096 571.72076
2.9114075 157.25751 573.10706
4.980957 157.12323 571.59833
7.0394135 156.98912 570.08215
9.3401031 156.79153 567.5932
12.125931 156.46693 563.16364
15.133163 156.07895 557.75616
17.372101 155.88193 555.23804
20.080597 155.55795 550.77563
22.522217 155.29771 547.27094
24.229446 155.22829 546.66449
25.930939 155.15897 546.05243
27.394211 155.15329 546.4054
28.627075 155.21123 547.72528
29.864624 155.26923 549.04205
31.106865 155.3273 550.35583
32.131714 155.44891 552.63947
33.166451 155.57059 554.92126
33.777283 155.81924 559.14935
34.837006 155.94101 561.42841
35.906624 156.06281 563.70551
36.777031 156.24811 566.95636
38.695221 156.1163 565.32434
40.398659 156.04802 564.66284
42.499191 155.85303 562.04114
44.385002 155.72156 560.39001
46.260063 155.59021 558.73254
48.124359 155.45898 557.06891
50.359955 155.20108 553.43994
52.197601 155.07008 551.76312
54.024567 154.93919 550.08008
55.840828 154.80841 548.39111
57.104401 154.86778 549.64063
58.55088 154.86386 549.90515
59.821503 154.92337 551.14819
60.924057 155.04626 553.37097
62.377281 155.04256 553.62494
63.662437 155.10223 554.85864
65.117638 155.09866 555.10504
66.40992 155.15848 556.33215
67.707062 155.21834 557.55615
68.694183 155.40486 560.74805
70.006248 155.46481 561.96649
70.561737 155.84126 568.11334
71.896423 155.90132 569.32751
73.383148 155.89816 569.55133
75.014183 155.8318 568.78357
76.923767 155.63899 566.03546
79.096458 155.31978 561.30481
80.969521 155.12717 558.54358
82.692635 154.99791 556.76532
84.273544 154.93198 555.97107
85.590874 154.99258 557.15149
87.166222 154.92677 556.34875
88.612251 154.92427 556.53186
90.179466 154.8586 555.72052
91.741348 154.793 554.90479
93.297913 154.72748 554.08447
94.735474 154.72522 554.25128
96.172852 154.72301 554.41431
97.501526 154.78407 555.56567
98.941139 154.782 555.72144
100.48399 154.71677 554.8808
101.8199 154.77798 556.02155
103.3573 154.71289 555.17279
104.79375 154.71103 555.31311
106.13693 154.77242 556.44336
107.6662 154.70747 555.58252
109.10223 154.70578 555.71155
110.53815 154.70415 555.83685
112.05676 154.63939 554.96387
113.48985 154.63785 555.08148
115.00055 154.57321 554.20038
116.43085 154.57178 554.31024
117.93362 154.50725 553.42114
119.29116 154.56909 554.51898
120.85603 154.4415 552.62628
122.15108 154.5666 554.71283
123.58092 154.56543 554.80414
124.95093 154.62747 555.88806
126.326 154.68954 556.96844
127.76072 154.68852 557.04901
129.19537 154.68753 557.12579
130.62994 154.68661 557.19891
132.06447 154.68575 557.26837
133.49892 154.68491 557.33392
134.93332 154.68414 557.396
136.36766 154.68341 557.45422
137.76532 154.74586 558.50616
139.20213 154.74522 558.55713
140.54439 154.93404 561.59692
141.90201 155.12289 564.63348
143.32773 155.18552 565.67133
144.73473 155.31134 567.70337
146.13072 155.50034 570.72974
147.59811 155.49997 570.75909
149.0977 155.37341 568.789
150.55992 155.37315 568.81073
152.0331 155.30981 567.83069
153.50954 155.1834 565.84894
154.96988 155.12015 564.86139
156.42506 155.05696 563.87006
157.87585 154.93069 561.87695
159.31451 154.74133 558.88214
160.74222 154.61516 556.88159
162.16664 154.55215 555.87549
163.5764 154.42606 553.86774
164.98804 154.36314 552.85431
166.40921 154.3634 552.83521
167.81319 154.3006 551.81464
169.21204 154.23781 550.79041
170.65054 154.30135 551.75824
172.01939 154.17554 549.72919
173.46053 154.23917 550.6897
174.84669 154.17656 549.65118
176.29303 154.24028 550.60419
177.70935 154.24092 550.55597
179.16348 154.30475 551.50146
180.50182 154.1792 549.45148
181.95862 154.2431 550.38947
183.37515 154.24394 550.32666
184.79175 154.24481 550.26019
186.25902 154.30888 551.18677
187.73148 154.373 552.10944
189.15343 154.37402 552.03168
190.69203 154.50139 553.94281
192.18015 154.56567 554.85358
193.80031 154.75632 557.7522
195.50198 155.01018 561.64197
197.08716 155.13779 563.53534
198.82497 155.39178 567.41516
200.65712 155.70901 572.28497
202.28625 155.83682 574.16382
203.84695 155.90154 575.04309
205.25009 155.83995 573.92871
206.64822 155.77843 572.81097
207.69518 155.46425 567.71283
208.89479 155.27644 564.60107
209.98744 155.02548 560.49304
211.34242 154.96413 559.36377
212.49878 154.77644 556.24469
214.03741 154.84155 557.0954
215.58134 154.90674 557.94183
217.02603 154.90878 557.79144
218.3638 154.84767 556.64502
220.0256 154.97624 558.47125
221.24887 154.85204 556.32574
222.69168 154.85431 556.1604
224.25206 154.91986 556.9823
225.69781 154.92226 556.80908
227.14377 154.9247 556.6319
228.71503 154.99045 557.4411
230.03625 154.92978 556.26611
231.61307 154.99567 557.06689
233.06241 154.99835 556.87396
234.37659 154.93787 555.68848
235.96179 155.00395 556.47662
237.55238 155.0701 557.26007
239.00525 155.07307 557.05127
240.60406 155.13937 557.82593
242.20828 155.20575 558.59583
243.66705 155.20892 558.37451
245.43298 155.33875 560.12146
246.89746 155.34206 559.89148
248.52081 155.40875 560.6427
250.31079 155.53882 562.37402
251.94763 155.60568 563.1153
253.25728 155.54599 561.88354
254.8999 155.61301 562.61578
256.37653 155.61678 562.35992
258.2016 155.7473 564.06543
