ply
format ascii 1.0
comment PCL generated
element vertex 1587
property float x
property float y
property float z
element camera 0
property float view_px
property float view_py
property float view_pz
property float x_axisx
property float x_axisy
property float x_axisz
property float y_axisx
property float y_axisy
property float y_axisz
property float z_axisx
property float z_axisy
property float z_axisz
property float focal
property float scalex
property float scaley
property float centerx
property float centery
property int viewportx
property int viewporty
property float k1
property float k2
end_header
169.77786 285.64392 551.36511
171.26668 285.64594 551.33136
172.75555 285.64825 551.29358
174.18906 285.07349 549.33765
175.67288 285.07626 549.29193
177.15677 285.07922 549.24194
178.64075 285.08249 549.18799
180.16286 285.37463 550.08661
181.64957 285.37836 550.02429
183.17963 285.67099 550.91431
184.66913 285.67523 550.84375
186.20714 285.96838 551.72522
187.69943 285.97308 551.64624
189.24544 286.26675 552.51904
190.68442 285.98325 551.47589
192.17709 285.98871 551.38452
193.66991 285.99438 551.289
195.16286 286.00031 551.18927
196.58945 285.71771 550.13037
198.08011 285.72415 550.02264
199.57094 285.73083 549.91071
201.06194 285.73773 549.79462
202.47624 285.45612 548.72015
204.1239 286.04117 550.50409
205.61801 286.04883 550.37524
207.19696 286.34561 551.19592
208.69405 286.35382 551.05853
210.28116 286.65115 551.87006
211.59645 286.08209 549.81818
213.18658 286.38 550.62115
214.68454 286.38922 550.46692
216.18271 286.39868 550.30841
217.78391 286.69739 551.09753
219.39052 286.9964 551.88184
220.89462 287.00671 551.71014
222.39896 287.01724 551.53406
223.90359 287.02808 551.35382
225.40848 287.03918 551.16919
227.03198 287.3396 551.93036
228.54001 287.35126 551.73682
230.17188 287.65228 552.48834
231.68311 287.66449 552.28589
233.06592 287.38782 551.13049
234.70648 287.6897 551.86792
236.08472 287.41351 550.70459
237.4581 287.13754 549.5376
239.38306 288.0188 552.15546
240.8988 288.03262 551.92645
242.2706 287.75745 550.7467
243.93137 288.06116 551.4552
245.44818 288.07584 551.21307
246.96536 288.09076 550.96643
248.63763 288.39539 551.65991
250.15817 288.41095 551.40399
251.67908 288.4267 551.14349
253.36293 288.73227 551.8219
254.88725 288.74866 551.55206
256.41199 288.76532 551.27771
258.10748 289.07181 551.94073
259.63565 289.08905 551.65686
261.16425 289.10657 551.36847
262.51508 288.83472 550.13501
264.04193 288.85272 549.83795
265.93604 289.4505 551.41516
267.28299 289.17938 550.16901
268.81378 289.19824 549.8576
270.72754 289.79706 551.4173
272.2645 289.81653 551.09558
273.60547 289.54642 549.83258
275.53894 290.14624 551.37433
277.07996 290.16656 551.03802
278.82578 290.47714 551.63208
280.57733 290.78802 552.22015
282.12503 290.8092 551.86853
283.67328 290.83066 551.51215
285.43677 291.14246 552.08356
286.98865 291.16443 551.71698
288.76105 291.47687 552.27692
290.31659 291.49939 551.90015
291.87259 291.52209 551.51843
293.65704 291.83539 552.06134
295.21671 291.85861 551.66925
296.77692 291.88208 551.27228
298.57339 292.19617 551.79779
299.89886 291.92963 550.46362
301.70166 292.2442 550.97791
303.26654 292.26852 550.56055
304.83191 292.29303 550.13818
306.64679 292.60834 550.63483
308.71896 293.2146 552.0481
310.29376 293.23975 551.60858
312.12595 293.55579 552.08575
313.96387 293.87207 552.5564
315.02118 293.31601 550.25989
317.12744 293.92346 551.63898
318.97729 294.24026 552.09125
320.56287 294.26627 551.61902
322.42157 294.58337 552.05878
324.28592 294.9006 552.4917
325.6001 294.63574 551.08698
327.18997 294.66199 550.59338
328.78027 294.68829 550.09473
330.65674 295.00574 550.50372
332.25034 295.03204 549.99384
334.42651 295.64087 551.30121
336.31979 295.9585 551.68958
338.21863 296.27606 552.07104
340.12299 296.59363 552.44556
341.42935 296.32813 550.9975
342.73059 296.06238 549.54602
344.33374 296.08792 548.99719
345.93692 296.11325 548.44312
346.91556 295.55496 546.07562
349.14343 296.16302 547.31934
351.06427 296.47925 547.65198
352.67004 296.50333 547.07623
354.2757 296.52704 546.4953
356.20667 296.84216 546.80865
357.81454 296.86499 546.21661
359.42206 296.88733 545.61945
361.3627 297.20105 545.91364
363.64429 297.80624 547.09613
365.93588 298.41092 548.26959
367.21326 298.13879 546.75378
368.82874 298.15796 546.1275
371.13678 298.76056 547.27887
372.75592 298.77811 546.64069
374.37405 298.79468 545.9975
375.99118 298.8103 545.34955
378.32156 299.40936 546.47113
379.22186 298.83835 544.03949
381.56012 299.43518 545.1474
382.81213 299.15396 543.59473
385.16043 299.74835 544.68817
387.14709 300.04904 544.89093
389.13715 300.34833 545.08722
391.13037 300.64606 545.27692
392.74847 300.64984 544.58185
394.74506 300.94427 544.75989
396.74438 301.23688 544.93158
398.36029 301.23529 544.22217
399.1962 300.64703 541.76129
401.19229 300.93378 541.91931
403.19037 301.21832 542.07135
404.79398 301.20831 541.34735
407.59076 302.07288 543.22754
409.99774 302.64258 544.22943
412.00702 302.91742 544.35675
414.42386 303.48178 545.34448
416.0282 303.45886 544.5957
417.62805 303.4332 543.84442
420.46561 304.28076 545.67676
422.06317 304.2489 544.91705
423.23621 303.92194 543.29565
-107.61063 309.12799 555.01141
-107.21307 310.04242 558.36737
-104.34848 309.18579 556.54272
-101.89981 308.62076 555.57379
-99.054108 307.758 553.73071
-97.419983 307.77673 554.48077
-92.998703 305.72906 549.14551
-90.979675 305.44769 549.01099
-88.177383 304.57422 547.12848
-86.16687 304.28809 546.98022
-84.158371 303.99982 546.82617
-82.921417 304.29922 548.41541
-80.530151 303.71191 547.37573
-78.146591 303.12268 546.32758
-75.01712 301.94177 543.51471
-73.029068 301.64395 543.32642
-70.672363 301.04959 542.2514
-69.062225 301.04349 542.93054
-67.45015 301.03589 543.60522
-66.563995 301.61664 546.04272
-64.582092 301.3114 545.82605
-62.603928 301.00497 545.60272
-61.341507 301.28699 547.14612
-59.365921 300.97824 546.91132
-56.693024 300.07898 544.89185
-54.730972 299.76831 544.64117
-52.773224 299.45679 544.38367
-50.477066 298.8497 543.22711
-48.870972 298.83124 543.84772
-47.26416 298.81201 544.46332
-45.656769 298.79205 545.07404
-43.384369 298.18237 543.8877
-42.110794 298.45569 545.38336
-41.158524 299.02286 547.77399
-39.222382 298.70602 547.46649
-37.291275 298.38879 547.15198
-35.684265 298.36551 547.73132
-34.077087 298.34186 548.30554
-31.528625 297.43494 546.16638
-29.618103 297.11642 545.82379
-28.021317 297.09189 546.37885
-26.424561 297.06711 546.92877
-24.82785 297.04205 547.47345
-22.930771 296.72272 547.10577
-21.039139 296.40332 546.7312
-18.857681 295.78979 545.44049
-16.97963 295.47028 545.05115
-15.107101 295.15082 544.65503
-13.52742 295.12515 545.16364
-11.378677 294.51178 543.8421
-10.368927 295.07373 546.16553
-8.510788 294.75421 545.74463
-6.3815308 294.14111 544.40204
-5.0855255 294.40918 545.79846
-3.7846527 294.67719 547.19147
-1.9412231 294.35803 546.74615
-0.63587952 294.62607 548.13055
0.93788147 294.60062 548.59247
3.0330353 293.98837 547.20996
4.858902 293.6698 546.73987
6.6790466 293.35147 546.26324
8.7464752 292.74002 544.85822
10.302124 292.71545 545.29059
11.8573 292.69098 545.71796
13.65712 292.37354 545.21637
15.208664 292.34949 545.63324
17.239487 291.73941 544.19415
18.784821 291.71582 544.59979
20.564255 291.39935 544.07367
22.105972 291.37619 544.46887
23.647186 291.35324 544.85925
24.734421 291.91632 547.1026
26.504013 291.60086 546.55511
27.603363 292.16425 548.79205
29.369339 291.84924 548.23425
30.697067 292.12012 549.53333
32.243149 292.09842 549.89685
33.577766 292.36963 551.18811
35.333878 292.05576 550.60944
36.878494 292.03485 550.95868
38.828941 291.42899 549.43433
40.567894 291.11609 548.83795
42.499077 290.51099 547.30011
44.224037 290.19873 546.69147
45.75061 290.17932 547.01379
47.276703 290.16016 547.33154
48.989815 289.84888 546.70691
50.327568 290.12262 547.95313
51.67009 290.39658 549.19586
53.376656 290.08618 548.5564
54.723541 290.3606 549.79095
56.424034 290.05078 549.14136
57.947083 290.03354 549.42706
59.469704 290.01654 549.70825
61.158531 289.70767 549.04309
62.841743 289.39914 548.3725
64.519341 289.09094 547.69653
66.032562 289.07513 547.95837
67.701584 288.76758 547.27216
69.211464 288.75232 547.52454
71.022881 288.15344 545.88379
72.230103 288.72269 548.01624
73.884644 288.41635 547.31024
75.39048 288.40222 547.54468
76.895973 288.38843 547.77478
78.401146 288.37482 548.00043
79.905975 288.36151 548.2218
81.277725 288.64032 549.38599
82.914703 288.33575 548.65137
84.418579 288.3233 548.8598
85.922173 288.31104 549.06372
87.547844 288.00739 548.31482
89.287804 287.41235 546.61194
90.782753 287.40097 546.802
92.277412 287.38992 546.98792
93.659828 287.67072 548.11938
95.265968 287.3685 547.34668
96.759857 287.35822 547.51978
98.149277 287.6398 548.63953
99.746895 287.33844 547.85327
101.24006 287.32892 548.01367
102.733 287.31967 548.1698
104.22572 287.31067 548.32178
105.71822 287.30197 548.46954
107.21052 287.29352 548.6131
108.78868 286.99377 547.79974
110.27798 286.98587 547.93475
111.68622 287.26959 549.01862
113.33435 286.67926 547.23865
114.82051 286.67212 547.3609
116.30652 286.66516 547.47894
117.72182 286.94992 548.54688
119.21008 286.94351 548.65692
120.63284 287.2287 549.71704
122.1234 287.22278 549.81891
123.61382 287.21707 549.91663
125.1617 286.92029 549.05536
126.64927 286.9151 549.14465
128.08429 287.20148 550.18494
129.62405 286.90546 549.31085
131.11127 286.90103 549.38782
132.55373 287.18814 550.4162
134.04333 287.18414 550.48492
135.53285 287.18048 550.54968
137.05919 286.88568 549.6543
138.54596 286.88245 549.71069
140.06438 286.5882 548.80682
141.57756 286.29419 547.89874
143.11209 285.70914 546.03015
144.56427 285.99817 547.02618
146.02158 286.28741 548.01825
147.50281 286.28564 548.04987
148.96779 286.57541 549.034
150.4379 286.86536 550.01404
151.93526 286.57306 549.07703
153.41896 286.57227 549.09241
154.89676 286.86295 550.0603
156.38303 286.86261 550.06757
157.86928 286.86255 550.07074
159.35741 287.15393 551.02643
160.84625 287.15436 551.02136
162.33511 287.15497 551.01221
163.82399 287.15585 550.99902
165.30069 286.86569 550.02509
166.80182 287.15833 550.96021
168.29079 287.15991 550.93469
169.7798 287.16174 550.90509
171.26886 287.16385 550.8714
172.75797 287.16614 550.8335
174.21942 286.87744 549.83533
175.67575 286.58893 548.83319
177.1599 286.59201 548.78326
178.67958 286.88657 549.68512
180.16646 286.89011 549.62689
181.69408 287.18518 550.52026
183.18372 287.18921 550.45367
184.67346 287.19348 550.38293
186.21172 287.48932 551.26349
187.65327 287.20276 550.22913
189.14336 287.20776 550.14606
190.63356 287.21304 550.05884
192.06514 286.92719 549.01263
193.55302 286.93292 548.91736
195.16891 287.52167 550.72675
196.59573 287.23654 549.66846
198.08665 287.24304 549.56055
199.64941 287.54123 550.40234
201.06897 287.25684 549.33221
202.56038 287.2641 549.21179
204.21091 287.85449 550.99371
205.70786 287.8623 550.86444
207.28966 288.16183 551.6839
208.7896 288.17017 551.54608
210.28975 288.17874 551.40399
211.69768 287.89603 550.3056
213.29068 288.19666 551.10718
214.69388 287.91449 550.00092
216.3927 288.50726 551.74475
217.89656 288.51715 551.58124
219.40067 288.52728 551.41351
221.12097 289.12097 553.14227
222.5202 288.84009 552.01532
223.91452 288.55939 550.88464
225.53542 288.8623 551.64917
227.04344 288.87381 551.45972
228.55176 288.88559 551.26593
230.1839 289.18939 552.0163
231.56924 288.90997 550.86542
233.20718 289.21436 551.60638
234.85065 289.51904 552.34235
236.09778 288.94855 550.23199
237.74448 289.25385 550.95886
239.53584 289.85129 552.62683
240.91273 289.57343 551.45123
242.28476 289.29578 550.27197
243.94583 289.60223 550.97925
245.61246 289.90906 551.68134
247.13251 289.92422 551.4339
248.65294 289.93964 551.18195
250.17374 289.95529 550.92554
251.85489 290.26337 551.60767
253.37909 290.27963 551.34186
254.90367 290.2962 551.07159
256.42868 290.31305 550.79688
258.12445 290.62231 551.45856
259.65289 290.63977 551.17426
261.18176 290.65744 550.88538
262.53284 290.38312 549.65234
264.24078 290.69363 550.29388
266.13782 291.29688 551.86841
267.48764 291.02332 550.62207
269.0213 291.04242 550.30969
270.55548 291.0618 549.99274
272.28397 291.3739 550.60748
273.82166 291.39383 550.28064
275.75806 291.99915 551.8197
277.30194 292.01968 551.4823
279.25504 292.62573 553.00848
280.80511 292.64685 552.66052
282.35571 292.66824 552.30774
283.90683 292.68988 551.95026
285.67325 293.00455 552.51965
287.22797 293.02667 552.15186
288.7832 293.0491 551.7793
289.89355 292.48599 549.54224
291.66986 292.80173 550.09045
293.224 292.8248 549.70398
294.77863 292.84808 549.31268
296.80017 293.4577 550.77087
298.83276 294.06766 552.22156
300.16095 293.79865 550.88696
302.2077 294.40918 552.32428
303.5343 294.1405 550.98047
305.10254 294.16516 550.55676
306.67123 294.18997 550.12817
308.49207 294.5083 550.61688
310.3186 294.82684 551.09906
312.15094 295.1456 551.57471
313.72949 295.17114 551.12378
315.3085 295.19681 550.66779
317.15277 295.51611 551.12524
318.73535 295.54199 550.65826
320.85849 296.15524 552.0202
322.4472 296.18137 551.54144
324.31165 296.50125 551.9729
325.90378 296.52753 551.48309
327.49634 296.55377 550.9881
329.37244 296.87387 551.40082
330.96832 296.90015 550.89459
332.56448 296.92633 550.38324
334.45215 297.24649 550.7771
336.05151 297.27264 550.25458
337.65112 297.29865 549.72681
339.55005 297.61859 550.10162
340.54913 297.056 547.74878
341.84222 296.78726 546.30035
344.35834 297.69516 548.46887
345.96124 297.72021 547.91431
347.25183 297.45068 546.45129
349.79712 298.35815 548.59418
351.40527 298.38232 548.02222
353.01331 298.40616 547.44513
354.94409 298.724 547.76239
356.22876 298.45239 546.27557
358.16428 298.76935 546.58057
360.10474 299.08578 546.8786
362.05005 299.40167 547.16956
364.3363 300.01169 548.34808
366.29376 300.32642 548.62396
367.91443 300.34576 548.00043
369.87842 300.65906 548.26331
371.50012 300.67676 547.62878
372.4223 300.10394 545.21057
374.74078 300.70938 546.34521
376.35944 300.72415 545.69617
378.33417 301.03271 545.92871
380.31274 301.34015 546.15436
381.93274 301.3515 545.48926
383.55109 301.36148 544.81952
385.90323 301.96002 545.90918
387.52335 301.96722 545.22839
389.51447 302.26791 545.42303
391.13312 302.27203 544.7326
392.37134 301.97949 543.16052
394.74429 302.57007 544.2157
396.35834 302.56885 543.51196
397.58368 302.27075 541.93024
399.96661 302.8555 542.96594
401.18341 302.55322 541.37805
402.78552 302.54373 540.65955
404.78052 302.82684 540.80719
407.57477 303.69733 542.68585
409.97919 304.27026 543.68726
413.19772 305.43011 546.41284
414.80627 305.40784 545.66711
417.22855 305.97223 546.64587
419.24463 306.23883 546.755
420.84668 306.20764 545.99811
422.02692 305.87866 544.37903
424.45425 306.43024 545.33673
-107.57571 310.78723 554.45813
-106.3606 311.11737 556.08551
-104.31979 310.84985 555.98608
-101.46887 309.98459 554.15271
-100.23935 310.30569 555.77234
-97.800049 309.7319 554.79095
-94.174149 308.26297 551.19775
-92.544968 308.2785 551.93567
-89.342377 307.10168 549.18896
-86.9366 306.51733 548.17261
-84.92511 306.22815 548.02075
-82.91571 305.93683 547.86304
-80.526474 305.34589 546.8244
-78.903824 305.34802 547.52942
-75.770996 304.15814 544.7218
-73.77948 303.85907 544.53613
-71.419205 303.26074 543.46472
-69.43631 302.95837 543.26508
-67.82312 302.95197 543.94061
-66.208115 302.94412 544.61176
-64.230164 302.63739 544.39471
-63.331665 303.22174 546.8255
-61.353317 302.91248 546.59833
-59.025482 302.30463 545.47736
-56.70694 301.69574 544.34747
-54.397812 301.08594 543.20874
-52.443619 300.77252 542.95111
-50.493729 300.45831 542.68658
-48.54834 300.14331 542.41528
-47.620026 300.71924 544.81635
-46.010727 300.69989 545.42828
-43.736298 300.08545 544.245
-42.131134 300.06479 544.84491
-40.852524 300.34064 546.33698
-38.919571 300.02167 546.02979
-37.634964 300.29636 547.51367
-35.706726 299.97647 547.1944
-33.783539 299.65619 546.86804
-31.865524 299.3356 546.53479
-29.641525 298.7178 545.29163
-28.04509 298.6936 545.84723
-26.754456 298.96588 547.30225
-24.852173 298.64429 546.94287
-22.955292 298.32251 546.5766
-21.063766 298.00061 546.20331
-19.177689 297.67865 545.82318
-17.297089 297.35663 545.43616
-15.421982 297.03455 545.04224
-13.552399 296.71246 544.64154
-11.973053 296.68683 545.14557
-10.676086 296.95764 546.55701
-8.8153076 296.6355 546.13843
-7.5137177 296.90616 547.54132
-5.6588898 296.58411 547.1109
-4.0812225 296.55844 547.58948
-2.2350616 296.23657 547.14642
-0.6608429 296.21106 547.61407
1.1765747 295.88943 547.15857
2.747345 295.86411 547.6153
4.5759888 295.54282 547.1474
6.6546021 294.92572 545.75269
8.2161255 294.90082 546.19208
10.027618 294.58017 545.70471
11.337753 294.8515 547.05597
13.143036 294.53122 546.55725
14.942566 294.21118 546.05212
16.736343 293.89142 545.54071
18.761658 293.27618 544.09766
20.541321 292.95697 543.573
21.851212 293.22931 544.89545
23.624649 292.91058 544.35974
24.938797 293.18329 545.67389
26.257706 293.45615 546.98456
27.58136 293.72913 548.29169
29.347595 293.41135 547.73529
30.459229 293.98016 549.96466
32.221855 293.6629 549.39807
33.556648 293.93665 550.68915
35.521469 293.32465 549.17944
37.063728 293.30359 549.52856
38.80867 292.98755 548.93945
40.54792 292.67181 548.34442
42.677383 291.76608 545.87402
44.204659 291.74622 546.20154
45.731491 291.72662 546.52435
47.447968 291.41223 545.90619
48.783768 291.68823 547.15619
50.309242 291.66943 547.46515
51.652016 291.94586 548.70746
53.179199 291.92761 549.00787
54.883034 291.61469 548.36456
56.406769 291.59698 548.65527
57.930084 291.57953 548.94141
59.791443 290.97275 547.3421
61.308731 290.95593 547.61823
62.825607 290.93939 547.88989
64.503525 290.62836 547.21509
65.858208 290.9071 548.41968
67.530136 290.59668 547.73505
69.196465 290.28662 547.04523
70.706238 290.27148 547.29364
72.215637 290.25671 547.53772
73.870483 289.94754 546.83289
75.376595 289.93326 547.06763
76.882362 289.91928 547.2981
78.387787 289.90558 547.52417
79.757515 290.18658 548.69183
81.264893 290.1734 548.90955
82.902153 289.86606 548.17615
84.406303 289.85345 548.38483
85.910164 289.84106 548.58911
87.53611 289.53467 547.84137
89.27639 288.93414 546.14038
90.771599 288.92267 546.33075
92.266525 288.91144 546.51691
93.649178 289.19479 547.64789
95.2556 288.8898 546.87628
96.642914 289.17368 547.99945
98.035187 289.45776 549.1189
99.635666 289.15359 548.33398
101.03265 289.43817 549.4455
102.62747 289.13458 548.65161
104.2169 288.8313 547.85291
105.70966 288.82245 548.00092
107.20222 288.8139 548.14465
108.86673 288.21735 546.38055
110.27021 288.50342 547.46753
111.67868 288.78973 548.55084
113.24877 288.48807 547.72528
114.73778 288.48083 547.84796
116.22662 288.47382 547.96643
117.5742 289.05511 549.98712
119.20381 288.46051 548.19086
120.69217 288.45428 548.29688
122.11761 288.74231 549.35248
123.60828 288.73651 549.45032
125.21402 288.14301 547.63586
126.58921 288.72574 549.63361
128.0795 288.72073 549.71906
129.56967 288.71594 549.80029
131.05971 288.71149 549.87756
132.50499 289.00116 550.90533
134.03952 288.70319 550.01947
135.52928 288.6994 550.08429
137.05586 288.40195 549.18982
138.54288 288.39868 549.24634
140.06154 288.10175 548.34332
141.57498 287.80505 547.4361
143.05661 287.80252 547.48004
144.53818 287.80026 547.51996
146.0197 287.79822 547.55579
147.46356 288.38428 549.49884
148.96638 288.08881 548.57086
150.43674 288.38141 549.55017
151.92329 288.38031 549.5697
153.41829 288.08557 548.62927
154.89633 288.37894 549.5965
156.37622 288.96637 551.51538
157.86789 288.96628 551.51849
159.35956 288.96646 551.51764
160.85123 288.96686 551.51257
162.33588 288.67358 550.54755
163.825 288.67447 550.5343
165.30193 288.38171 549.56116
166.80331 288.677 550.49548
168.30991 288.97253 551.4256
169.78177 288.68048 550.44025
171.29362 288.9765 551.362
172.78555 288.97888 551.3241
174.22211 288.39362 549.37109
175.67868 288.10254 548.36975
177.19595 288.39954 549.27496
178.68298 288.40286 549.2207
180.20818 288.70038 550.11743
181.73863 288.99817 551.00977
183.18787 288.70831 549.9881
184.67786 288.71259 549.91724
186.16795 288.71719 549.84229
187.60715 288.42804 548.80878
189.14848 288.72711 549.67999
190.63893 288.73242 549.59259
192.12952 288.73798 549.5011
193.62024 288.7438 549.40546
195.17505 289.04395 550.25934
196.53557 288.46216 548.24817
198.09326 288.76282 549.09357
199.58459 288.76965 548.98132
201.07608 288.77673 548.86481
202.56775 288.78412 548.74426
204.21855 289.37988 550.52435
205.71576 289.38776 550.3949
207.29784 289.69006 551.21332
208.88528 289.99261 552.02704
210.38828 290.00131 551.88446
211.89148 290.01031 551.73773
213.29988 289.72534 550.63574
214.89856 290.02902 551.43146
216.40244 290.03876 551.27191
217.90656 290.0488 551.10822
219.41093 290.05908 550.94025
221.02354 290.36389 551.71747
222.53101 290.37476 551.54059
224.03876 290.38586 551.35944
225.54675 290.39722 551.17395
227.17343 290.70325 551.93256
228.92653 291.30389 553.63403
230.44318 291.31616 553.43457
231.83398 291.03424 552.28345
233.47742 291.34149 553.02264
234.73227 290.76563 550.91687
236.11101 290.4845 549.75452
237.75798 290.79254 550.4801
239.41052 291.10092 551.20068
240.92682 291.11508 550.97095
242.2991 290.83496 549.79218
243.81349 290.84961 549.55402
245.47781 291.15924 550.25531
246.99553 291.1745 550.00781
248.51364 291.19006 549.75604
250.18948 291.50058 550.4422
251.87094 291.81146 551.12305
253.3954 291.82788 550.85681
254.92027 291.8446 550.58612
256.44556 291.86157 550.31091
258.31204 292.46857 551.91162
259.67035 292.19128 550.68658
261.19946 292.20914 550.39722
262.90729 292.52222 551.04205
264.25903 292.24567 549.80481
265.97296 292.55939 550.43945
267.50644 292.57837 550.13123
268.85172 292.30255 548.88171
270.38351 292.32205 548.56476
272.4975 293.22723 551.04987
274.03809 293.24738 550.72192
275.97742 293.85815 552.25818
277.92773 294.46939 553.78748
279.48022 294.49048 553.44318
281.03317 294.51178 553.09399
282.58664 294.53336 552.74011
283.92838 294.2598 551.44995
285.69507 294.57727 552.01794
287.25 294.59958 551.64966
288.80548 294.62213 551.27655
290.36145 294.64496 550.89856
291.91791 294.66794 550.51569
293.47485 294.69119 550.12799
295.03235 294.71466 549.73547
296.82358 295.03403 550.26434
298.62054 295.3537 550.78699
300.18478 295.37781 550.3783
301.74951 295.40219 549.96472
303.31476 295.4267 549.54614
305.37329 296.04321 550.96844
306.94476 296.06818 550.53845
308.51678 296.09326 550.10352
310.08923 296.11853 549.66351
311.91907 296.43997 550.13849
313.49512 296.46552 549.68768
315.07159 296.49118 549.23187
316.6485 296.51691 548.77087
318.7608 297.13522 550.13867
320.34387 297.16119 549.66602
321.92731 297.18719 549.18817
324.06195 297.80603 550.53436
325.92947 298.12863 550.95844
327.52197 298.15485 550.46283
329.39813 298.47754 550.87408
330.99393 298.50366 550.36725
332.87863 298.82642 550.76575
334.76886 299.14911 551.15723
336.07687 298.87848 549.72461
337.67633 298.9043 549.19635
339.27594 298.92999 548.66278
340.27209 298.36188 546.31213
342.17114 298.68387 546.67511
344.07556 299.00574 547.03119
345.6756 299.03052 546.47711
347.58795 299.35187 546.82007
349.50555 299.673 547.15613
351.42831 299.99384 547.48517
353.03592 300.01724 546.90765
354.64325 300.04016 546.32495
356.25037 300.06256 545.73724
358.51358 300.67886 546.93768
359.46344 300.10577 544.54663
361.73639 300.72101 545.73309
364.01935 301.33563 546.91052
365.97345 301.65234 547.1864
367.24915 301.37357 545.67188
369.20703 301.68872 545.93585
370.82257 301.7056 545.30328
372.43713 301.7215 544.66589
374.75458 302.33133 545.79865
376.37219 302.34521 545.14972
379.06024 303.25049 547.1521
380.68298 303.26202 546.4906
382.66675 303.56982 546.70776
383.92389 303.28122 545.15399
385.90948 303.58627 545.36005
387.52802 303.59225 544.67963
389.89047 304.19183 545.75256
391.13446 303.89697 544.18372
393.50543 304.49316 545.24286
395.12277 304.49231 544.5426
397.12082 304.78714 544.71271
398.3493 304.48477 543.13037
400.34674 304.77551 543.29083
401.5639 304.46887 541.70355
404.34741 305.35013 543.59418
405.55771 305.03885 542.00024
408.75333 306.21252 544.74249
410.76135 306.49109 544.87372
413.17426 307.06433 545.86475
415.18649 307.33722 545.98438
418.42633 308.49915 548.68726
419.21216 307.8739 546.20892
422.05334 308.73199 548.03485
423.23795 308.39777 546.41498
425.25024 308.6546 546.51147
-108.36383 313.04382 555.62152
-106.32629 312.77945 555.52588
-104.2887 312.51184 555.42566
-102.65646 312.54095 556.18427
-100.21423 311.96716 555.21051
-97.777832 311.39038 554.22943
-94.154755 309.91061 550.63928
-91.73819 309.32806 549.63934
-88.93573 308.44284 547.76221
-86.924759 308.15527 547.61603
-83.753815 306.96497 544.84888
-82.138977 306.97284 545.56061
-79.757004 306.3783 544.52063
-78.141525 306.38202 545.22272
-75.769608 305.78351 544.1684
-74.154175 305.78342 544.86041
-71.792984 305.18127 543.79132
-70.178192 305.17773 544.4729
-67.828445 304.57233 543.38892
-65.851059 304.26556 543.17798
-64.238327 304.25745 543.84332
-62.98262 304.5481 545.38824
-61.008118 304.2373 545.16077
-59.390808 304.22528 545.81256
-56.719986 303.31201 543.7984
-54.411865 302.69781 542.66144
-52.458633 302.38263 542.40472
-50.16687 301.7666 541.2511
-48.565109 301.74963 541.87091
-47.975266 302.6315 545.1626
-45.69426 302.01306 543.98932
-43.755402 301.69382 543.70123
-42.480545 301.97354 545.19666
-40.872971 301.95282 545.79297
-39.264938 301.93146 546.38416
-37.334778 301.60983 546.07214
-35.090546 300.9881 544.85406
-33.489548 300.9653 545.42725
-31.888351 300.94208 545.9953
-29.664673 300.31934 544.75439
-28.685593 300.89447 547.11603
-27.084152 300.87018 547.66876
-25.179474 300.54614 547.31171
-23.580734 300.5213 547.85321
-21.386139 299.89755 546.57666
-19.497589 299.57312 546.19885
-17.614456 299.24854 545.81409
-15.736786 298.92392 545.42249
-13.864655 298.5993 545.02411
-12.282745 298.57373 545.52954
-10.701126 298.54816 546.02991
-9.399292 298.82156 547.43762
-7.5388336 298.49683 547.01538
-5.6839752 298.17221 546.58649
-4.106308 298.14655 547.06561
-2.2600861 297.82208 546.62408
-0.41950989 297.49768 546.17584
0.8881073 297.77106 547.55542
2.7225494 297.44696 547.09564
4.5513306 297.12299 546.62921
6.3744202 296.79916 546.15625
8.1917725 296.47559 545.67682
9.7529602 296.45081 546.11188
11.31366 296.42615 546.54193
12.873917 296.40167 546.9671
14.676285 296.07886 546.46411
16.4729 295.75626 545.95483
18.501083 295.13559 544.51477
19.814255 295.41025 545.84253
21.596283 295.08844 545.31512
23.143143 295.06519 545.70801
24.23587 295.63858 547.95044
26.011215 295.31744 547.40704
27.559219 295.2948 547.78613
28.887833 295.57043 549.08936
30.437515 295.54819 549.45935
31.986694 295.52618 549.82458
33.324318 295.80237 551.11591
35.292068 295.18494 549.60907
36.837181 295.16367 549.95935
38.585045 294.84479 549.37213
40.527794 294.22839 547.84576
42.26162 293.91019 547.24628
43.989777 293.59229 546.64087
45.712212 293.27478 546.02985
47.048706 293.55298 547.28406
48.577507 293.53372 547.59863
50.290749 293.2171 546.97211
51.633743 293.49603 548.21411
53.161224 293.4776 548.51483
55.042427 292.86426 546.93475
56.563828 292.84644 547.2254
58.084801 292.82889 547.51154
59.774628 292.5141 546.85345
61.292191 292.49713 547.13
62.809334 292.48041 547.4021
64.164665 292.76135 548.61066
65.68364 292.74521 548.87427
67.358467 292.43195 548.19135
69.027702 292.11908 547.50317
70.842392 291.50922 545.86682
72.349464 291.49426 546.11084
74.002007 291.18234 545.4068
75.505775 291.16797 545.6416
77.009216 291.15387 545.87201
78.236298 291.73431 547.98767
79.879684 291.42355 547.26483
81.384735 291.41025 547.48254
82.75927 291.69427 548.64178
84.393898 291.38446 547.90485
85.898018 291.37195 548.10956
87.524269 291.06274 547.36285
89.264847 290.45682 545.66388
90.877541 290.14825 544.90692
92.255516 290.4339 546.04102
93.862473 290.12585 545.27484
95.245102 290.41202 546.40106
96.739517 290.40146 546.57465
98.025192 290.98495 548.64246
99.625946 290.67807 547.8587
101.12223 290.66827 548.01984
102.61829 290.65881 548.17676
104.02023 290.94641 549.27979
105.60972 290.64063 548.47797
107.10512 290.63196 548.62225
108.68642 290.32672 547.81116
110.17883 290.3186 547.94678
111.59013 290.60742 549.02972
113.16307 290.30304 548.20544
114.65493 290.29568 548.32849
116.07346 290.58527 549.39954
117.49702 290.87506 550.46674
119.12949 290.27509 548.67249
120.55531 290.56543 549.73163
122.04896 290.55933 549.83398
123.60268 290.25684 548.97906
125.15107 289.95459 548.11963
126.58411 290.24591 549.16266
128.07463 290.24084 549.24823
129.6149 289.93942 548.37598
131.10262 289.93488 548.45313
132.54555 290.22717 549.48016
134.03564 290.22305 549.54913
135.56516 289.92267 548.65985
137.01558 290.2157 549.6748
138.53975 289.9158 548.77704
140.09041 289.31964 546.92053
141.54318 289.6134 547.92328
143.05423 289.31427 547.0127
144.53604 289.31195 547.05267
145.9964 289.60645 548.04333
147.4619 289.90118 549.02997
148.96498 289.60306 548.10284
150.43556 289.89828 549.08142
151.92236 289.89722 549.10095
153.4176 289.59985 548.16144
154.89587 289.89581 549.12781
156.37932 290.19196 550.09003
157.86865 290.19189 550.0932
159.35985 290.48859 551.04724
160.85176 290.48898 551.04224
162.34369 290.48962 551.03302
163.826 290.194 550.06476
165.30318 289.89862 549.09241
166.81961 290.49307 550.98077
168.31165 290.49472 550.95514
169.80373 290.49661 550.92535
171.31842 290.79529 551.84619
172.76289 290.20459 549.89874
174.22482 289.91068 548.9021
175.71196 289.91351 548.8559
177.19916 289.91663 548.80573
178.68645 289.92004 548.7514
180.24997 290.51685 550.6015
181.74258 290.52069 550.53864
183.23532 290.52484 550.47174
184.72813 290.52921 550.40057
186.22107 290.53387 550.32544
187.6631 290.24213 549.29242
189.20728 290.54391 550.1626
190.64438 290.25269 549.12158
192.19398 290.55496 549.98309
193.68755 290.56088 549.88715
195.24521 290.86371 550.73981
196.60855 290.27676 548.72998
198.1691 290.58014 549.57422
199.59155 290.29037 548.50928
201.0833 290.29755 548.39264
202.57521 290.30499 548.27179
204.2263 290.90616 550.05011
205.72377 290.91415 549.92047
207.30611 291.21918 550.73785
208.89383 291.52448 551.55054
210.39708 291.53329 551.40771
211.90054 291.54236 551.26074
213.49927 291.84851 552.05963
214.90814 291.56131 550.95398
216.41229 291.57117 550.79419
218.0195 291.87817 551.57953
219.42131 291.59171 550.46185
221.14221 292.19623 552.18689
222.65256 292.20721 552.0094
224.16315 292.21844 551.82764
225.55823 291.93301 550.69366
227.30357 292.53879 552.39862
228.69662 292.25388 551.25635
230.33194 292.56329 552.00415
231.7204 292.27887 550.85388
233.36151 292.58881 551.59216
234.74538 292.30493 550.4339
236.25835 292.31836 550.21735
237.77165 292.33209 549.99646
239.56364 292.94046 551.6604
241.08282 292.9548 551.42993
242.60236 292.96942 551.19501
244.12222 292.98431 550.95563
245.79205 293.29675 551.65485
247.16306 293.01492 550.46356
248.83884 293.328 551.15308
250.36279 293.34406 550.89545
251.88715 293.36035 550.6333
253.41188 293.37695 550.3667
254.93701 293.39386 550.09552
256.6304 293.70844 550.7597
258.49982 294.32092 552.35779
259.86099 294.0412 551.13275
261.56866 294.35681 551.78082
263.1037 294.37518 551.48541
264.45831 294.09619 550.24805
266.35864 294.71039 551.81769
267.71152 294.43192 550.57159
268.87091 293.85593 548.38611
270.5943 294.17334 549.00391
272.7113 295.08667 551.48541
274.05817 294.80914 550.22223
276.39621 296.02115 553.62347
277.94849 296.04211 553.28339
279.70563 296.36127 553.87091
281.26147 296.38281 553.52069
282.81778 296.40454 553.16559
284.16235 296.12854 551.87512
285.71701 296.15073 551.51099
287.27222 296.17322 551.14215
289.04803 296.49405 551.69727
290.38409 296.21881 550.38995
291.94073 296.242 550.00653
293.95398 296.86188 551.47192
295.05563 296.28894 549.22516
296.84708 296.61105 549.7525
298.88019 297.23187 551.19849
300.20868 296.95776 549.86444
301.77362 296.98218 549.45026
303.58282 297.3053 549.9538
305.15137 297.33014 549.52899
306.96942 297.65375 550.02045
308.79321 297.97754 550.50543
310.11411 297.70416 549.14423
312.20108 298.32709 550.53687
314.03943 298.65149 551.00305
315.35901 298.37839 549.62738
317.20355 298.70306 550.08191
319.05377 299.02789 550.52979
320.6395 299.05389 550.05573
322.22559 299.07993 549.57654
324.08752 299.405 550.00586
325.95508 299.73016 550.42841
327.82831 300.05542 550.84424
329.42371 300.0816 550.3421
331.30542 300.40686 550.74506
333.19269 300.73212 551.14111
335.08551 301.0574 551.5304
336.68988 301.08328 551.00494
338.29446 301.10901 550.4743
339.59998 300.83514 549.03253
341.20218 300.86044 548.49243
342.80444 300.8855 547.94714
344.09961 300.61072 546.49347
346.00906 300.93475 546.84119
347.92377 301.25848 547.18201
349.2135 300.9826 545.71466
351.45093 301.60535 546.94287
353.05807 301.62833 546.36505
354.98792 301.95056 546.67963
356.92273 302.27234 546.9873
358.86243 302.5936 547.28796
360.14514 302.31458 545.79218
362.42273 302.93451 546.97455
364.37405 303.25391 547.25519
365.99115 303.27264 546.63721
367.26605 302.99051 545.12354
369.22302 303.30753 545.38647
370.83759 303.32355 544.75378
372.10175 303.03854 543.22876
374.41553 303.65271 544.36084
376.38391 303.9657 544.59839
378.35632 304.27756 544.82941
380.69229 304.88831 545.93695
383.03717 305.4978 547.03571
383.93036 304.90521 544.60083
385.91443 305.21161 544.80627
388.27209 305.81671 545.88434
389.5192 305.51953 544.31995
391.1344 305.52087 543.63049
393.12537 305.82056 543.81274
394.73813 305.81818 543.1142
396.73157 306.11401 543.28534
398.34137 306.10754 542.57825
399.55951 305.79874 540.99634
402.33368 306.68835 542.89331
404.33252 306.97522 543.04236
405.54031 306.65933 541.45038
409.13202 308.14148 545.05695
411.13989 308.42044 545.18744
413.14853 308.69659 545.31281
415.9707 309.5697 547.15918
418.39441 310.13965 548.13416
419.17728 309.50684 545.65942
423.25711 311.26953 550.06299
424.02945 310.63022 547.58411
425.2052 310.28748 545.96533
-106.67285 313.49426 551.62256
-105.46912 313.83453 553.242
-103.84744 313.86917 554
-102.22086 313.90073 554.75574
-99.381653 313.02155 552.91705
-98.153412 313.34955 554.52917
-94.133209 311.55643 550.0769
-91.324448 310.66818 548.21008
-88.919556 310.07983 547.20184
-86.911011 309.7916 547.05536
-83.35524 308.29004 543.41992
-81.745239 308.29971 544.12958
-78.985931 307.39896 542.21631
-77.757156 307.70706 543.78961
-75.389771 307.10489 542.73517
-74.153107 307.40912 544.302
-72.908783 307.71149 545.867
-70.918808 307.40659 545.67273
-68.56543 306.79727 544.59229
-67.312042 307.0946 546.14581
-65.329071 306.78497 545.93323
-62.991028 306.1712 544.83112
-61.729813 306.46423 546.3725
-59.401749 305.84787 545.25598
-56.732056 304.9277 543.24445
-55.121262 304.91449 543.88379
-52.818314 304.29489 542.74182
-50.524826 303.67441 541.591
-48.921356 303.6582 542.21191
-47.317062 303.64111 542.82813
-45.71199 303.62317 543.43945
-43.773834 303.30194 543.15247
-42.17009 303.28253 543.75299
-40.892853 303.56482 545.24384
-39.285416 303.54401 545.83533
-37.034042 302.91791 544.62732
-35.750275 303.19836 546.10504
-33.51152 302.57141 544.8822
-31.910767 302.54861 545.45068
-29.998642 302.22314 545.11304
-28.400238 302.19958 545.67035
-26.801758 302.17566 546.2226
-25.203293 302.1514 546.76978
-23.304138 301.8248 546.40704
-21.112366 301.19604 545.13196
-19.817352 301.47314 546.56757
-17.931702 301.14606 546.18506
-16.051544 300.81897 545.79578
-14.176834 300.49179 545.39966
-12.877197 300.76816 546.81641
-11.00824 300.44086 546.40833
-9.4243469 300.41528 546.90503
-7.5638733 300.08798 546.48425
-5.9832306 300.06238 546.96991
-4.1313171 299.73517 546.5365
-2.5540009 299.70963 547.01123
-0.97705078 299.68405 547.48077
0.59951782 299.65857 547.94531
2.4367371 299.33173 547.48773
4.2682648 299.00507 547.02362
6.3498688 298.37726 545.63434
8.1673737 298.05096 545.15637
9.7286682 298.02612 545.59204
11.28952 298.00143 546.02271
12.604675 298.27802 547.36987
14.409851 297.95242 546.86908
16.209274 297.62714 546.36206
17.765671 297.60303 546.77216
19.321548 297.57916 547.17743
21.10907 297.25452 546.65283
22.890839 296.93018 546.12201
24.440033 296.90698 546.51129
26.212982 296.58313 545.96875
27.536987 296.86118 547.27527
29.522705 296.23706 545.79358
30.632019 296.81625 548.01996
32.17881 296.79413 548.38513
33.725121 296.77228 548.74548
35.479439 296.45001 548.17041
37.022194 296.42865 548.52057
38.970963 295.80646 547.00232
40.50753 295.78571 547.34192
42.241631 295.46472 546.74384
43.97007 295.14404 546.13983
45.500008 295.12411 546.46429
47.029518 295.10443 546.784
48.746132 294.78467 546.16388
50.272118 294.76556 546.47388
51.797676 294.7467 546.77924
53.3228 294.72815 547.08002
54.847504 294.70984 547.37616
56.546265 294.39166 546.73004
58.239403 294.07379 546.07831
59.757652 294.05634 546.35974
61.275475 294.03922 546.63678
62.792908 294.02234 546.90924
64.148476 294.30579 548.11743
65.508873 294.58945 549.32202
67.030357 294.57333 549.58191
68.858742 293.95764 547.95435
70.8274 293.04242 545.3786
72.18631 293.32721 546.56537
73.841743 293.01245 545.86304
75.348389 292.99789 546.09857
76.995331 292.68378 545.38617
78.360672 292.9696 546.55652
80.001747 292.65613 545.83459
81.504478 292.64264 546.05219
83.006882 292.62952 546.26556
84.508987 292.61664 546.47449
86.01078 292.60403 546.67914
87.63472 292.29205 545.93329
89.133331 292.28 546.12891
90.866158 291.66901 544.42657
92.244377 291.95715 545.56012
93.627525 292.24551 546.69
95.125046 292.23459 546.86853
96.729187 291.92438 546.0946
98.015076 292.51306 548.16107
99.616127 292.20337 547.37836
101.11267 292.19351 547.53979
102.5125 292.4834 548.64624
104.10507 292.17456 547.84991
105.60094 292.16553 547.99866
107.0079 292.45615 549.09314
108.59206 292.14819 548.28345
110.08733 292.13989 548.41943
111.58239 292.1319 548.55133
113.15562 291.8248 547.72803
114.64772 291.81738 547.85132
116.13966 291.81012 547.97034
117.56087 292.10254 549.03674
119.05507 292.09583 549.14764
120.48373 292.3887 550.20624
122.04301 292.08325 549.35687
123.53678 292.0773 549.4552
125.08803 291.77234 548.59692
126.57893 291.76697 548.68683
128.06972 291.76184 548.77252
129.61024 291.4577 547.90125
131.09821 291.45306 547.97845
132.4967 292.04718 549.95789
133.98962 292.04309 550.02722
135.52199 291.73999 549.13892
137.01216 291.73639 549.19977
138.53658 291.43384 548.30298
140.05576 291.1315 547.40179
141.54053 291.12866 547.45007
143.02524 291.12607 547.49432
144.4859 291.42291 548.48828
145.97308 291.42084 548.52429
147.44141 291.71817 549.51025
148.93109 291.71658 549.53815
150.42073 291.71521 549.56189
151.92142 291.41498 548.62738
153.39996 291.71329 549.59698
154.88954 291.71271 549.6084
156.37582 292.01154 550.56989
157.86798 292.01144 550.57306
159.36014 292.0116 550.57208
160.85229 292.01199 550.56702
162.34447 292.01263 550.5578
163.82704 291.71442 549.59033
165.32889 292.01474 550.52704
166.83594 292.31531 551.45953
168.31342 292.01782 550.47974
169.82573 292.31891 551.40393
171.32069 292.32111 551.36993
172.79056 292.02429 550.37787
174.25531 291.72778 549.3819
175.74529 291.73071 549.33563
177.20241 291.43463 548.3316
178.72543 291.7373 549.23077
180.21564 291.74097 549.17206
181.70593 291.74487 549.10925
183.19632 291.74908 549.04242
184.6868 291.75348 548.97125
186.22583 292.05743 549.84906
187.66811 291.76312 548.81677
189.15894 291.76831 548.73322
190.70609 292.07309 549.59814
192.25854 292.37811 550.4585
193.75494 292.38409 550.36224
195.31546 292.68964 551.21375
196.68164 292.09753 549.20526
198.1759 292.10431 549.09662
199.67032 292.11133 548.98376
201.09059 291.81924 547.91553
202.58278 291.82678 547.79456
204.31364 292.73273 550.52179
205.81396 292.74078 550.39166
207.48386 293.34802 552.15814
209.16432 293.95551 553.91937
210.67561 293.96448 553.77563
212.18712 293.97369 553.62762
213.60379 293.68369 552.52594
214.91785 293.09448 550.4715
216.52251 293.40396 551.26031
218.02975 293.41425 551.09576
219.43182 293.12524 549.97864
221.15303 293.73517 551.70172
222.77426 294.04587 552.47156
224.28773 294.05728 552.28925
225.68564 293.76932 551.15546
227.19708 293.78125 550.96472
228.8298 294.09314 551.716
230.34439 294.10562 551.51624
231.73309 293.81873 550.36646
233.2457 293.83173 550.15833
234.75864 293.84509 549.94586
236.27188 293.85864 549.72894
238.05867 294.47217 551.39606
239.71698 294.78619 552.1134
241.23904 294.80069 551.88214
242.76143 294.81546 551.64642
244.28419 294.83057 551.40631
245.80731 294.84592 551.16174
247.48302 295.1615 551.85437
249.00946 295.17743 551.60034
250.53632 295.19366 551.34186
252.22357 295.51019 552.01929
253.42851 294.92688 549.8714
254.95392 294.94391 549.59985
256.47974 294.96124 549.32373
258.17645 295.27899 549.98163
259.70569 295.29688 549.69586
261.23535 295.31506 549.40564
262.94376 295.63379 550.04779
264.65784 295.95282 550.68445
266.37756 296.27222 551.31531
267.54456 295.69089 549.13409
269.07904 295.71048 548.82025
270.61395 295.73032 548.50171
272.53732 296.35132 550.04633
274.27502 296.67224 550.6507
276.41687 297.59454 553.11469
278.1712 297.9162 553.70612
279.93124 298.23819 554.29169
281.2829 297.95929 553.00934
282.83945 297.98114 552.65369
284.1842 297.70264 551.36353
285.73911 297.72498 550.9989
287.72968 298.34912 552.48657
289.07062 298.07123 551.18311
290.40683 297.79346 549.87604
291.96375 297.81674 549.49213
293.52112 297.84021 549.10327
294.84833 297.56293 547.78418
296.63736 297.88779 548.31079
298.43216 298.21292 548.83124
300.2327 298.53833 549.34528
302.039 298.86398 549.85309
303.36334 298.58752 548.51074
305.17587 298.91357 549.00714
306.99414 299.23993 549.49719
308.81812 299.56644 549.98071
310.13904 299.29047 548.61975
312.2262 299.9187 550.01001
313.80505 299.94434 549.55719
315.38434 299.97003 549.09937
316.96405 299.99585 548.63647
318.81168 300.32324 549.08362
320.93518 300.95239 550.43842
322.52396 300.97839 549.95782
324.38852 301.30615 550.38483
326.53687 301.93567 551.71704
328.13458 301.96179 551.21863
329.73257 301.98785 550.71503
331.61688 302.31567 551.11572
333.50671 302.64352 551.50952
335.11075 302.66937 550.98871
336.71497 302.69507 550.46277
338.02271 302.41852 549.02557
339.62457 302.44379 548.49011
341.2265 302.46881 547.94952
342.52399 302.19141 546.50049
344.73767 302.82022 547.75531
346.6521 303.14661 548.09985
348.57175 303.47272 548.43744
349.8663 303.19388 546.96875
352.10864 303.82156 548.19293
353.40015 303.54175 546.71497
355.65515 304.16858 547.92419
356.94336 303.88763 546.43713
358.88245 304.211 546.73657
360.16443 303.92868 545.24146
362.10776 304.2507 545.52893
364.39194 304.87463 546.70135
366.00821 304.89258 546.08319
367.28214 304.60706 544.57031
369.58234 305.22855 545.72101
370.85175 304.94104 544.19952
371.76535 304.34973 541.78864
374.77948 305.57367 544.69128
376.39468 305.58551 544.04248
378.36578 305.89893 544.27264
381.06036 306.81662 546.26111
383.04395 307.12738 546.47589
384.30072 306.83105 544.9234
386.65356 307.44165 546.00647
388.27411 307.44495 545.32471
389.51947 307.14374 543.76178
391.13281 307.14355 543.07281
393.50003 307.74716 544.1297
395.49417 308.04596 544.30444
397.10736 308.03986 543.60071
398.71753 308.03162 542.89331
401.10156 308.62671 543.92297
402.71033 308.61389 543.20636
404.70923 308.90131 543.35449
406.31329 308.88348 542.63031
409.90735 310.3764 546.23151
411.11481 310.05042 544.63123
413.92822 310.93201 546.48383
416.34601 311.50787 547.46478
418.76901 312.08047 548.43854
419.96277 311.74237 546.82605
423.21606 312.91302 549.50684
423.98508 312.26587 547.03174
425.99527 312.52225 547.12836
-106.63028 315.14139 551.06073
-106.25009 316.0968 554.3963
-104.21902 315.82916 554.29407
-102.59305 315.86328 555.04913
-100.55963 315.58914 554.93872
-98.526642 315.31186 554.82336
-94.904434 313.81076 551.24152
-92.488251 313.22223 550.24475
-89.29364 312.02039 547.50513
-86.505539 311.12097 545.62195
-83.729263 310.21899 543.72864
-80.965057 309.31451 541.82513
-79.359344 309.32379 542.52808
-78.509537 309.94165 544.97412
-76.139038 309.33594 543.92303
-74.899063 309.64435 545.49042
-73.279678 309.64551 546.17938
-71.288864 309.33942 545.98657
-69.301041 309.03168 545.78748
-67.316299 308.7222 545.58185
-64.612396 307.80051 543.60785
-63.715515 308.40411 546.03357
-62.094452 308.39563 546.69275
-59.411636 307.46976 544.6947
-57.444687 307.15338 544.45642
-55.481628 306.83582 544.21136
-52.486053 305.60138 541.29749
-51.224854 305.89224 542.81268
-48.936584 305.26642 541.65692
-47.333176 305.25009 542.27313
-45.393982 304.9278 541.99323
-44.123993 305.21497 543.49127
-42.518326 305.19614 544.0929
-40.912109 305.17664 544.6897
-39.629776 305.46149 546.17682
-37.69809 305.13562 545.86823
-35.771347 304.80923 545.55273
-33.533005 304.17746 544.33203
-32.560486 304.76489 546.69922
-30.33226 304.13232 545.46466
-29.040222 304.41391 546.92438
-27.130875 304.08548 546.57697
-25.530075 304.06155 547.12549
-23.628571 303.7326 546.76514
-21.732376 303.40341 546.39783
-20.136932 303.37872 546.9292
-18.541595 303.35379 547.45544
-16.65625 303.02411 547.06927
-14.776398 302.6944 546.67633
-13.186813 302.66907 547.18542
-11.597458 302.64362 547.68945
-9.4492645 302.00934 546.36713
-8.1426239 302.28818 547.77069
-6.2824707 301.95831 547.34631
-4.4279022 301.62848 546.91522
-2.8479614 301.60294 547.3913
-1.0019989 301.27325 546.94769
0.83834839 300.94366 546.49731
2.4119263 300.91833 546.95667
4.5019989 300.28497 545.57709
6.3253326 299.95587 545.10712
7.6365967 300.2348 546.46753
9.4538116 299.90594 545.98608
10.769485 300.18503 547.33795
12.335281 300.16034 547.76569
14.14328 299.832 547.26709
15.945541 299.50391 546.76221
17.5047 299.47974 547.17358
19.532898 298.84845 545.7334
21.085861 298.82471 546.13367
22.867874 298.49762 545.60425
24.417267 298.47427 545.99408
25.966171 298.45117 546.37915
27.514633 298.42828 546.75928
29.500626 297.79877 545.27991
30.610077 298.38315 547.50513
32.157104 298.3609 547.87079
33.914795 298.03558 547.30249
35.458237 298.01385 547.65802
37.207123 297.68915 547.07837
38.950287 297.36475 546.49286
40.687782 297.04065 545.90137
42.419556 296.71692 545.30408
43.559349 297.30273 547.49902
45.094788 297.28259 547.82507
46.819962 296.95969 547.21265
48.351898 296.94006 547.52875
49.883385 296.92075 547.84027
51.596786 296.59875 547.21179
52.945023 296.88293 548.44952
54.829498 296.25867 546.87433
56.528587 295.93762 546.22937
58.050095 295.9198 546.51642
59.909836 295.29663 544.9231
61.258621 295.58212 546.13843
62.612221 295.8678 547.35022
64.132141 295.85101 547.61908
65.492783 296.13721 548.82324
67.170815 295.81833 548.14337
68.843254 295.49982 547.45813
70.661179 294.87903 545.82648
72.171425 294.86374 546.07166
73.973015 294.24371 544.42859
75.334084 294.53149 545.60645
76.9813 294.2146 544.89532
78.484955 294.2005 545.12207
79.988281 294.18665 545.34442
81.624123 293.87067 544.61853
82.99395 294.15979 545.77612
84.496338 294.14673 545.98535
85.998398 294.13403 546.19037
87.500168 294.12155 546.39099
89.121513 293.80707 545.6416
90.854637 293.19067 543.94135
92.233109 293.48132 545.07434
93.728569 293.47003 545.25708
95.22377 293.45895 545.43555
96.611847 293.75037 546.55695
98.004852 294.04202 547.67474
99.504494 294.03174 547.84094
101.00389 294.02176 548.00293
102.50307 294.01202 548.16064
104.00201 294.00256 548.31409
105.50075 293.99341 548.46332
106.99927 293.98444 548.60828
108.49757 293.97583 548.74902
109.9957 293.96744 548.88556
111.57455 293.65729 548.06799
113.0697 293.64948 548.19586
114.56467 293.64191 548.31946
116.05946 293.63458 548.4389
117.4835 293.9295 549.50488
119.04854 293.62079 548.66522
120.54285 293.61426 548.77209
122.037 293.608 548.87476
123.59125 293.30011 548.02185
125.14017 292.99243 547.16443
126.62875 292.987 547.25427
128.11719 292.98181 547.34003
129.6554 292.67499 546.46954
131.04646 293.27411 548.45117
132.49248 293.57153 549.47681
133.98566 293.56735 549.54614
135.51828 293.2616 548.65894
137.0087 293.25793 548.71985
138.53339 292.9527 547.82391
140.05281 292.64771 546.92371
141.53783 292.64484 546.97211
142.99622 292.94403 547.9693
144.48369 292.94168 548.00958
145.97113 292.93954 548.04565
147.4397 293.2395 549.03082
148.94586 292.9361 548.10553
