ply
format ascii 1.0
comment PCL generated
element vertex 1589
property float x
property float y
property float z
element camera 0
property float view_px
property float view_py
property float view_pz
property float x_axisx
property float x_axisy
property float x_axisz
property float y_axisx
property float y_axisy
property float y_axisz
property float z_axisx
property float z_axisy
property float z_axisz
property float focal
property float scalex
property float scaley
property float centerx
property float centery
property int viewportx
property int viewporty
property float k1
property float k2
end_header
157.87578 220.37933 554.8847
159.32617 220.37943 554.88385
160.77657 220.37962 554.87915
162.22696 220.37993 554.87061
163.67738 220.3804 554.8584
165.12781 220.38094 554.84222
166.56355 220.20258 553.83862
168.01147 220.20337 553.81494
169.47926 220.38335 554.771
170.90739 220.20534 553.7561
172.3804 220.38557 554.70447
173.83104 220.38687 554.66547
175.28172 220.38828 554.62268
176.73247 220.3898 554.57599
178.21854 220.57053 555.50867
179.67198 220.57233 555.45435
181.12547 220.57423 555.39612
182.57904 220.57626 555.33405
184.03268 220.57843 555.26819
185.5827 220.93887 557.16364
187.09238 221.12041 558.07239
188.5007 220.94385 557.01215
189.95984 220.9465 556.93054
191.47752 221.12843 557.82727
192.87842 220.95224 556.75586
194.40146 221.1344 557.64441
195.99593 221.49585 559.51038
197.46333 221.49921 559.40894
199.0735 221.86096 561.26605
200.47241 221.68541 560.17542
201.94278 221.68915 560.06201
203.57138 222.05133 561.90594
205.04718 222.05536 561.78436
206.52313 222.05951 561.65875
208.08601 222.243 562.50922
209.56487 222.24744 562.37555
210.86003 221.8936 560.27881
212.42856 222.07753 561.11694
213.90535 222.08237 560.97156
215.48198 222.2666 561.80096
217.06396 222.45099 562.62592
218.8609 222.99402 565.40265
220.56613 223.35802 567.1958
222.17192 223.54292 568.00616
224.00818 224.08655 570.76654
225.74501 224.45111 572.54401
227.4924 224.81587 574.31616
229.25034 225.18082 576.08289
231.14171 225.7253 578.82037
232.79791 225.91132 579.6001
234.45956 226.09756 580.37506
235.99602 226.10461 580.17004
237.39954 225.93246 578.98596
238.93396 225.93983 578.77289
240.46869 225.94739 578.5556
242.00369 225.95509 578.33398
243.68253 226.1424 579.08148
245.51297 226.50931 580.79675
247.35406 226.87646 582.50623
249.20583 227.24384 584.20972
251.0683 227.61148 585.90741
252.62851 227.62035 585.65649
254.18909 227.62943 585.40137
255.91162 227.81816 586.11206
257.31128 227.6481 584.87781
258.70612 227.47815 583.63989
260.435 227.66751 584.33667
261.82544 227.49791 583.09088
263.21109 227.32849 581.84167
264.76917 227.33884 581.55664
266.50742 227.52899 582.23425
268.25128 227.71939 582.90649
270.00079 227.91002 583.57336
271.94351 228.28058 585.20038
273.51672 228.29199 584.89044
275.28314 228.48332 585.54065
276.66452 228.31543 584.25708
278.23914 228.32745 583.93359
279.81427 228.33969 583.60553
281.38986 228.35211 583.27283
282.966 228.36478 582.93561
284.75098 228.5575 583.55511
285.69788 228.03098 580.32562
287.05679 227.86432 579.01544
288.41104 227.69785 577.70172
289.76065 227.53152 576.38464
291.10559 227.3654 575.06409
292.89383 227.55939 575.6557
294.4613 227.57364 575.28424
295.80014 227.40808 573.95148
296.90253 227.06264 571.65936
297.99509 226.71732 569.36505
298.84076 226.192 566.11395
299.91101 225.84689 563.8161
300.97144 225.50189 561.51617
302.26691 225.33719 560.16687
303.55774 225.17265 558.81427
305.09412 225.18852 558.40961
306.88385 225.38486 558.95081
308.42413 225.40118 558.53589
310.22302 225.59805 559.06543
312.02783 225.7952 559.58875
313.31216 225.63187 558.21033
314.32605 225.28827 555.88147
316.1355 225.48608 556.38947
317.67981 225.50372 555.94562
319.22485 225.52156 555.49695
321.32324 225.90067 556.93121
322.87494 225.91899 556.47107
324.42734 225.93753 556.00604
326.26468 226.1369 556.47754
327.53427 225.97522 555.06091
329.08881 225.99438 554.58081
330.35193 225.83301 553.15649
331.90527 225.85251 552.66711
333.75674 226.05301 553.11017
335.61423 226.25375 553.54645
337.47772 226.45476 553.97589
339.34723 226.65601 554.3985
340.91473 226.67657 553.88007
342.1723 226.51637 552.4234
344.05185 226.71823 552.82764
345.3056 226.55829 551.36237
347.19183 226.7605 551.75433
349.08405 226.96298 552.1394
350.98224 227.16565 552.51721
352.55988 227.18735 551.96021
354.79651 227.57159 553.25134
356.38074 227.59357 552.6817
358.30008 227.79695 553.03156
359.88818 227.81918 552.45026
361.13708 227.66013 550.94067
363.40851 228.04523 552.19318
365.34607 228.24913 552.5155
366.59387 228.09018 550.9906
368.88809 228.47569 552.21875
371.19342 228.86139 553.43738
372.4425 228.70244 551.896
374.76193 229.08826 553.09845
376.73123 229.29253 553.37646
378.34235 229.31509 552.73322
380.32013 229.51932 552.99701
381.93436 229.54172 552.34167
383.54871 229.564 551.68085
385.16309 229.58609 551.0144
386.40042 229.42615 549.43439
387.63232 229.26588 547.85107
389.62357 229.46922 548.07642
391.2348 229.49036 547.38922
393.62119 229.87524 548.50391
395.23706 229.89581 547.80365
397.63852 230.28018 548.90057
399.25864 230.30002 548.18726
400.87805 230.3194 547.46857
402.49667 230.3383 546.74463
404.92169 230.72108 547.80859
406.54364 230.73894 547.07184
408.98236 231.1207 548.11823
411.43036 231.50189 549.15466
413.05896 231.51782 548.39771
415.10284 231.71533 548.52625
417.15024 231.91205 548.6474
-96.122162 233.28436 549.3302
-95.312881 233.63821 551.87134
-93.676208 233.62158 552.62396
-89.607925 232.49536 547.9989
-88.387024 232.66235 549.63055
-86.360291 232.45917 549.46381
-83.940872 232.07082 548.39044
-82.320114 232.05145 549.10742
-80.698654 232.03165 549.81909
-78.298416 231.64217 548.72046
-76.681183 231.62161 549.41907
-74.295975 231.2316 548.30267
-72.683365 231.21048 548.98828
-71.070526 231.18909 549.6684
-69.081711 230.98297 549.43488
-67.844406 231.14554 551.01221
-65.490372 230.75473 549.85522
-62.779144 230.17952 547.77686
-60.814346 229.97302 547.51166
-58.855011 229.76648 547.23883
-56.541428 229.37572 546.04382
-55.66745 229.7218 548.50201
-53.719559 229.5152 548.20862
-52.481033 229.67688 549.74323
-51.237579 229.83847 551.27441
-49.642715 229.81595 551.88245
-47.36055 229.42545 550.64343
-46.113159 229.58701 552.16034
-44.183838 229.38068 551.82825
-41.924469 228.99063 550.56506
-40.342773 228.96849 551.14203
-38.431076 228.76263 550.78796
-37.181183 228.9245 552.27997
-35.276001 228.7189 551.91327
-32.731445 228.1461 549.68243
-31.163452 228.12466 550.22906
-28.961365 227.73605 548.90961
-26.770584 227.34776 547.58142
-25.215164 227.32687 548.1087
-23.660416 227.30615 548.6308
-22.413162 227.4691 550.08173
-20.857162 227.44867 550.59442
-19.301849 227.42842 551.10193
-17.747269 227.40836 551.60443
-16.489578 227.57184 553.03912
-14.346619 227.18546 551.65588
-12.796738 227.16597 552.14221
-10.67099 226.78018 550.74396
-8.8421478 226.57794 550.27802
-7.3023224 226.55917 550.74701
-5.7631683 226.54059 551.211
-3.9469604 226.33911 550.72711
-2.6869812 226.50406 552.12427
-0.87739563 226.30305 551.62897
0.92626953 226.10229 551.12726
1.9221649 226.45085 553.45746
3.7218475 226.25056 552.94537
5.2535706 226.23352 553.37457
6.784668 226.21664 553.79889
8.8286743 225.83423 552.32043
10.861526 225.45215 550.83447
12.631744 225.25322 550.29132
14.645004 224.87177 548.79108
15.908249 225.03897 550.13873
17.41983 225.02357 550.53058
18.689682 225.19115 551.87109
20.441132 224.99345 551.3006
21.950882 224.97871 551.67871
23.693314 224.78154 551.09717
24.968689 224.94987 552.4212
26.476715 224.93578 552.78571
27.984207 224.92188 553.14557
29.491135 224.9082 553.50098
31.217743 224.7122 552.89368
32.720985 224.69897 553.23956
34.223724 224.68593 553.58087
35.938324 224.49066 552.95789
37.647232 224.29562 552.32922
39.350441 224.10081 551.69501
41.047943 223.90628 551.05536
42.537781 223.89435 551.37244
44.027145 223.88263 551.68524
45.71286 223.68875 551.03027
47.004501 223.85977 552.29779
48.875717 223.48404 550.66882
50.547096 223.29086 549.99847
52.026466 223.28015 550.28815
53.505402 223.26965 550.57361
54.983932 223.25934 550.85486
56.283447 223.4314 552.09875
57.763771 223.42145 552.37207
59.243706 223.41168 552.64124
60.552429 223.58424 553.87439
62.202461 223.39268 553.16687
63.68129 223.38345 553.4234
65.159775 223.3744 553.67578
66.798393 223.18344 552.95392
68.273598 223.17474 553.19757
70.05909 222.80212 551.4953
71.681206 222.61177 550.75848
73.297813 222.42162 550.01685
74.908936 222.23166 549.27032
76.369637 222.22389 549.49146
77.830025 222.21631 549.70862
79.290123 222.20889 549.92175
80.887177 222.01965 549.1571
82.209511 222.19452 550.33582
83.6688 222.18758 550.53687
85.127831 222.18079 550.73389
86.459724 222.35608 551.90198
88.045143 222.16769 551.11591
89.503426 222.16138 551.30103
91.080635 221.97333 550.50604
92.535889 221.96732 550.6828
93.990913 221.96149 550.85565
95.445724 221.95578 551.0246
97.009155 221.7684 550.21228
98.460968 221.76302 550.37305
99.912598 221.75777 550.52985
101.36404 221.75266 550.68268
102.81529 221.74768 550.83167
104.17043 221.92468 551.95544
105.62389 221.92001 552.09686
107.16799 221.73367 551.25519
108.61855 221.72928 551.38861
110.06896 221.72504 551.51807
111.51922 221.72092 551.64374
112.96932 221.71695 551.7655
114.34139 221.89484 552.86359
115.7938 221.89111 552.97772
117.31882 221.70581 552.10748
118.7684 221.70236 552.21368
120.21785 221.69907 552.31616
121.73222 221.51418 551.43353
123.11642 221.69284 552.5094
124.56554 221.68994 552.60028
125.95724 221.86884 553.66895
127.46347 221.68449 552.77045
128.86014 221.86366 553.83179
130.31145 221.86125 553.90735
131.76268 221.85898 553.97919
133.21384 221.85684 554.04712
134.62305 222.0365 555.09375
136.11592 221.85294 554.17157
137.60359 221.66948 553.2453
139.05191 221.66785 553.29785
140.50017 221.66632 553.34656
141.97737 221.48328 552.40851
143.39653 221.66367 553.43256
144.84465 221.66254 553.46985
146.27144 221.84317 554.48639
147.74077 221.66061 553.5329
149.18878 221.65985 553.55872
150.6232 221.84084 554.56396
152.06274 222.02197 555.56555
153.52428 221.8399 554.59662
154.96893 222.02127 555.59058
156.42201 222.02109 555.59729
157.87581 221.83942 554.61694
159.32631 221.83951 554.61609
160.77682 221.83971 554.61145
162.22035 221.65837 553.61957
163.67789 221.84048 554.59064
165.12845 221.84105 554.57452
166.57903 221.84174 554.55457
168.04691 222.02422 555.51404
169.50012 222.02515 555.48633
170.95337 222.02625 555.45502
172.40665 222.0274 555.41962
173.8324 221.84706 554.39752
175.2832 221.84851 554.35474
176.76678 222.03174 555.29083
178.22028 222.03342 555.24023
179.67383 222.03525 555.18585
181.16788 222.21886 556.11005
182.62415 222.22092 556.04779
184.08049 222.22311 555.98175
185.58507 222.40714 556.89398
187.04414 222.40958 556.82007
188.55661 222.59387 557.72418
189.96259 222.41489 556.66064
191.42194 222.41772 556.57513
192.94244 222.60242 557.46722
194.40459 222.60553 557.37378
195.93303 222.7905 558.25763
197.46674 222.97562 559.13721
199.00572 223.16086 560.01251
200.4761 223.16454 559.90302
201.94659 223.16833 559.78955
203.49629 223.35402 560.65228
204.96965 223.35809 560.5307
206.44316 223.36232 560.40521
207.91684 223.3667 560.27588
209.48003 223.55298 561.12177
210.77274 223.19403 559.02612
212.33885 223.38062 559.86389
213.91028 223.56735 560.69714
215.48706 223.75426 561.526
217.0692 223.94131 562.35028
218.76151 224.31039 564.14777
220.24951 224.31596 563.98523
221.73773 224.32166 563.8186
223.45131 224.69128 565.60181
225.06027 224.87918 566.40308
226.79236 225.24918 568.17596
228.77557 225.98315 571.89532
230.65681 226.53546 574.63239
232.42834 226.90608 576.38812
234.0824 227.095 577.16345
235.61127 227.10214 576.95923
237.0072 226.92749 575.77667
238.53406 226.93494 575.56439
240.06119 226.94258 575.34802
241.72957 227.13239 576.10052
243.54697 227.50438 577.82074
245.52115 228.05865 580.50763
247.36246 228.43112 582.21594
249.21442 228.80383 583.91827
250.76929 228.81265 583.67236
252.32452 228.82166 583.42212
253.88007 228.83084 583.16748
255.43602 228.84023 582.90857
256.82806 228.66763 581.67566
258.2153 228.49521 580.43945
259.59778 228.32297 579.19977
261.14743 228.33304 578.92462
262.34827 227.97891 576.7099
264.42517 228.53598 579.32837
265.97867 228.54665 579.03955
267.71497 228.73975 579.71246
269.64188 229.11539 581.3457
271.39203 229.30899 582.00726
272.95764 229.32053 581.69861
274.71652 229.51462 582.34967
276.0903 229.34424 581.06781
277.65732 229.35638 580.74554
279.22482 229.36874 580.41876
280.58969 229.19893 579.12549
282.15558 229.21169 578.7901
283.51367 229.04222 577.48932
284.44507 228.508 574.26447
285.78857 228.33881 572.95789
287.12738 228.1698 571.64789
288.02393 227.63588 568.41736
289.56964 227.64972 568.05969
291.56387 228.02896 569.61212
292.88928 227.86069 568.28729
294.21005 227.6926 566.95911
295.52618 227.52463 565.62744
296.60321 227.17418 563.33765
297.90747 227.00653 561.99982
299.20712 226.83908 560.65875
300.74445 226.85455 560.26715
302.28235 226.87022 559.87079
303.82092 226.88614 559.46979
305.36011 226.90225 559.06396
307.15271 227.10149 559.60358
308.44043 226.93518 558.23816
310.23956 227.13489 558.76672
311.784 227.15192 558.34119
313.3291 227.16917 557.91077
314.60901 227.00363 556.52899
316.15289 227.0213 556.0896
317.69739 227.03915 555.64532
319.51636 227.24036 556.14038
321.06494 227.2587 555.68555
322.89319 227.46042 556.1684
324.44577 227.47922 555.70288
325.99908 227.49821 555.23236
327.26617 227.33414 553.81653
329.10785 227.53682 554.27625
330.37109 227.37308 552.85199
332.21945 227.57622 553.29993
334.07379 227.7796 553.74109
335.63403 227.79982 553.23938
337.80048 228.18716 554.60309
339.36743 228.20782 554.08942
340.93509 228.22864 553.5705
342.50345 228.24963 553.04639
344.07254 228.27078 552.51709
345.32632 228.10843 551.05164
347.53137 228.49724 552.37262
348.78391 228.33517 550.89771
350.6796 228.54065 551.27539
352.90781 228.93013 552.57306
354.81805 229.13605 552.93542
356.40234 229.15826 552.3653
358.32178 229.3645 552.71411
359.90997 229.38693 552.13226
361.15887 229.22546 550.62268
363.08795 229.43201 550.95227
365.02289 229.63867 551.27454
366.96362 229.84546 551.58929
368.91013 230.05231 551.89655
371.21548 230.44342 553.11353
372.82031 230.46625 552.48853
374.78394 230.67325 552.77307
376.75317 230.88028 553.05005
378.728 231.08731 553.3194
379.97549 230.92563 551.75714
381.95599 231.13249 552.01324
383.57013 231.15488 551.35193
385.55878 231.36154 551.59381
387.17557 231.38356 550.92035
388.41254 231.22081 549.3349
390.02643 231.24231 548.65167
391.64001 231.26352 547.96295
394.02875 231.65369 549.07501
395.64691 231.67429 548.37323
398.44373 232.24861 550.36835
400.06866 232.26845 549.65228
401.29456 232.10307 548.03259
403.71735 232.49152 549.10162
405.74609 232.69467 549.26459
406.96637 232.52756 547.63031
410.2251 233.28421 550.46143
411.85709 233.30069 549.70813
413.90179 233.50134 549.84094
415.53326 233.5163 549.07648
418.42157 234.08534 550.97308
-96.549316 235.08798 549.87726
-95.327896 235.25983 551.52625
-93.284225 235.05594 551.38538
-90.434372 234.4765 549.44727
-88.806412 234.4588 550.18494
-86.377853 234.06575 549.12299
-84.356018 233.85959 548.94946
-82.338669 233.65297 548.76831
-80.325897 233.44594 548.57953
-78.31781 233.23853 548.38312
-76.314484 233.03079 548.17902
-74.31604 232.82275 547.96722
-72.703766 232.80161 548.6532
-71.091202 232.78017 549.33374
-69.478439 232.75845 550.00879
-68.238754 232.92354 551.5871
-65.511673 232.34036 549.52301
-63.168396 231.94417 548.35773
-61.20105 231.73489 548.0946
-58.876617 231.33868 546.91083
-56.922928 231.12939 546.63153
-56.046417 231.48053 549.09009
-54.095886 231.27112 548.79877
-52.502899 231.24847 549.41718
-51.259552 231.41254 550.94843
-49.664658 231.38983 551.55688
-47.726364 231.18053 551.23981
-45.793793 230.9713 550.91516
-43.86705 230.76219 550.58313
-42.282074 230.73975 551.16693
-40.031097 230.34442 549.89709
-38.45256 230.32217 550.46826
-36.874649 230.30005 551.03412
-35.297333 230.27803 551.59467
-32.752548 229.69711 549.36591
-31.184433 229.67545 549.91302
-28.982178 229.28137 548.59521
-27.105927 229.07382 548.19934
-25.547699 229.05267 548.72803
-23.990204 229.03168 549.25159
-22.740158 229.19696 550.70331
-20.877182 228.99017 550.28308
-19.020203 228.78363 549.85608
-17.766983 228.94937 551.29419
-15.916626 228.74326 550.85516
-14.365906 228.72334 551.34711
-12.815872 228.70363 551.83398
-10.97818 228.49821 551.37646
-9.1464996 228.29309 550.91241
-7.6038666 228.27405 551.38269
-5.7814331 228.0694 550.90619
-4.2427826 228.05078 551.36572
-2.980011 228.21808 552.76361
-0.89501953 227.82851 551.32605
0.90885925 227.62491 550.82538
2.172226 227.79282 552.20941
3.9695129 227.58971 551.69751
5.2367859 227.758 553.07336
7.0274963 227.55537 552.55042
9.0691528 227.16751 551.07269
10.84549 226.96548 550.53662
12.615921 226.76372 549.99445
14.380524 226.56223 549.44611
15.646545 226.73178 550.79437
17.404663 226.53079 550.23541
18.915802 226.51538 550.62311
20.426392 226.50018 551.0061
21.93634 226.48524 551.3847
23.44574 226.4705 551.75861
24.954559 226.45596 552.12793
26.690872 226.25644 551.5368
27.97052 226.42754 552.85291
29.700485 226.22849 552.25159
31.424698 226.02971 551.64459
32.707916 226.20142 552.94849
34.425873 226.00308 552.3313
36.13813 225.80501 551.70844
37.634827 225.79224 552.0401
39.338242 225.59465 551.4068
40.831352 225.58231 551.72913
42.526024 225.38519 551.08527
44.015587 225.37326 551.39832
45.701477 225.17664 550.74432
46.993324 225.35007 552.01154
48.864761 224.96893 550.38385
50.347328 224.95787 550.67865
51.829475 224.94699 550.96918
53.495033 224.75143 550.28998
54.792511 224.92578 551.53741
56.273407 224.9155 551.81525
57.753937 224.90536 552.08875
59.060593 225.0802 553.3255
60.542923 225.07043 553.59113
62.024887 225.06085 553.85254
63.506485 225.05147 554.1098
65.150826 224.85754 553.39368
66.789642 224.66382 552.67255
68.422935 224.47034 551.94641
70.206047 224.09238 550.24487
71.673004 224.08395 550.47925
73.28981 223.89105 549.73828
74.901108 223.69836 548.99249
76.361961 223.69049 549.21387
77.822533 223.68277 549.43115
79.282791 223.67522 549.64447
80.88002 223.48326 548.88049
82.337135 223.47607 549.08545
83.794006 223.46901 549.28625
85.25061 223.46213 549.48315
86.580063 223.63989 550.65057
88.038742 223.63333 550.83984
89.618927 223.44241 550.0498
91.074554 223.43616 550.23071
92.529953 223.43005 550.40765
93.985138 223.4241 550.58063
95.551514 223.23387 549.77325
96.894852 223.41266 550.91479
98.455658 223.22275 550.09894
99.907425 223.21741 550.25586
101.2579 223.39664 551.38654
102.71188 223.39157 551.53589
104.16566 223.38669 551.6814
105.61929 223.3819 551.82288
107.16352 223.19292 550.98193
108.61423 223.18845 551.11542
109.97913 223.36848 552.22418
111.51517 223.17993 551.37073
112.88492 223.36023 552.47217
114.3376 223.35631 552.59033
115.79015 223.35254 552.70465
117.24255 223.34888 552.815
118.69483 223.34538 552.92163
120.2146 223.15771 552.04376
121.59904 223.33878 553.12311
123.11343 223.15137 552.23718
124.56268 223.14841 552.32813
125.8972 223.51414 554.37756
127.40614 223.32715 553.47974
128.8055 223.50887 554.54083
130.25952 223.50641 554.61664
131.76047 223.31982 553.70685
133.21175 223.31763 553.77484
134.66295 223.31558 553.83905
136.15338 223.12939 552.9173
137.60188 223.12759 552.97369
139.08447 222.94168 552.04401
140.53029 222.94012 552.09265
141.94704 223.12299 553.12
143.36888 223.30594 554.14362
144.84357 223.12051 553.19836
146.27048 223.30371 554.21448
147.73993 223.11856 553.26147
149.18808 223.11778 553.28735
150.62262 223.30136 554.29224
152.06227 223.48505 555.29321
153.52393 223.30038 554.32477
154.96872 223.48434 555.31824
156.41862 223.66841 556.30792
157.87512 223.48415 555.32806
159.32832 223.48422 555.32721
160.78152 223.48444 555.32251
162.23474 223.48477 555.31403
163.68797 223.48523 555.3017
165.14122 223.48581 555.28552
166.5945 223.48651 555.2655
168.04779 223.48737 555.2417
169.50113 223.48831 555.21405
170.9545 223.48941 555.18256
172.4079 223.49063 555.14728
173.83379 223.30771 554.12561
175.28471 223.30916 554.0827
176.73569 223.31076 554.03601
178.18674 223.31247 553.98541
179.6757 223.49857 554.91321
181.16989 223.68481 555.83691
182.66931 223.87119 556.75659
184.12834 223.87341 556.69031
185.58746 223.87579 556.62018
187.09741 224.06256 557.52777
188.50597 223.88092 556.46832
189.90948 223.6994 555.4054
191.42487 223.88657 556.30103
192.9455 224.07391 557.19263
194.40778 224.07709 557.09912
196.00253 224.44899 558.96295
197.47021 224.45245 558.86133
199.00934 224.64035 559.73608
200.47983 224.64407 559.6264
201.87399 224.46361 558.53296
203.42125 224.65196 559.39539
204.89218 224.65611 559.27399
206.36327 224.6604 559.14862
207.8345 224.66483 559.01929
209.39526 224.85378 559.86487
210.68552 224.48972 557.77032
212.34372 224.86336 559.586
214.01241 225.23718 561.39673
215.49225 225.24237 561.24689
217.17677 225.61652 563.04803
218.76698 225.80644 563.86682
220.25516 225.8121 563.70416
221.74355 225.81793 563.53748
223.23215 225.82388 563.3667
224.6058 225.64554 562.21588
226.21001 225.8363 563.01306
227.93991 226.21172 564.78107
229.68039 226.58734 566.54364
231.43143 226.96317 568.30084
233.19307 227.33922 570.05261
234.83466 227.53094 570.82477
236.21524 227.35373 569.64453
237.72675 227.36124 569.43427
239.37695 227.55353 570.19293
241.03259 227.74597 570.94659
242.83725 228.12325 572.6676
244.79874 228.68536 575.35474
246.6273 229.06311 577.06378
248.31522 229.25644 577.79584
250.00867 229.44998 578.52283
251.55112 229.45905 578.27441
252.93484 229.28362 577.05188
254.79877 229.66246 578.73407
256.01636 229.30266 576.5343
257.55768 229.31247 576.26904
258.92993 229.13771 575.03137
260.46942 229.14789 574.75781
261.83472 228.97345 573.51282
263.72687 229.35361 575.16431
265.09033 229.17957 573.91101
266.99628 229.5602 575.55127
268.72803 229.75626 576.21997
270.27786 229.76767 575.91864
271.82806 229.77927 575.61273
273.57159 229.97601 576.26605
274.73456 229.61816 574.02448
276.4816 229.81534 574.66827
277.8331 229.64279 573.38232
278.97675 229.2854 571.13159
280.52206 229.2982 570.80035
281.8595 229.12616 569.50421
282.77026 228.58414 566.28516
284.09308 228.41238 564.98334
285.41125 228.24078 563.67822
286.50592 227.88425 561.41174
288.03357 227.89813 561.05792
290.00983 228.28262 562.61322
291.77042 228.48222 563.20526
293.30759 228.49686 562.83594
294.84534 228.51169 562.46191
296.6181 228.71204 563.03754
297.92255 228.54202 561.69989
299.22235 228.37219 560.35895
301.00223 228.57326 560.91925
302.0531 228.2184 558.61853
303.58929 228.23453 558.21783
305.12604 228.25085 557.81226
306.91629 228.45288 558.35162
308.20157 228.28418 556.98706
309.99835 228.48672 557.51544
311.54034 228.50397 557.09009
313.34631 228.70703 557.60669
314.89233 228.72475 557.17096
316.43903 228.74271 556.73041
318.25751 228.94653 557.22937
319.8082 228.96494 556.7782
321.08319 228.79779 555.37921
322.91168 229.00238 555.86108
324.46445 229.02141 555.39502
326.01794 229.04066 554.92401
327.5722 229.06013 554.44806
329.41669 229.26572 554.90594
330.68274 229.09964 553.4809
332.53394 229.30569 553.927
334.09363 229.32596 553.42987
335.95419 229.53249 553.86328
337.82074 229.73926 554.28979
339.69327 229.94626 554.70941
341.57178 230.15353 555.12213
343.14563 230.17485 554.59576
344.4068 230.0101 553.13293
345.97937 230.03168 552.59698
347.55255 230.05341 552.05566
348.80518 229.88895 550.58075
350.70105 230.09729 550.9574
352.60284 230.30585 551.3269
354.18127 230.32809 550.76343
356.09229 230.53696 551.11938
358.00922 230.746 551.46814
359.59479 230.76862 550.88672
361.18091 230.79129 550.29993
363.11005 231.00064 550.62842
365.04504 231.21014 550.94965
366.63794 231.233 550.34448
368.23132 231.25589 549.73401
370.53143 231.65231 550.95148
372.48669 231.86205 551.24359
374.08911 231.88495 550.61359
376.41415 232.28159 551.80524
378.38623 232.49133 552.07458
380.3638 232.70105 552.3363
382.34686 232.91071 552.59039
383.9635 232.9332 551.92749
385.58011 232.95551 551.25903
387.19669 232.97758 550.58514
388.43335 232.81226 548.99988
390.42938 233.021 549.22101
392.04529 233.04225 548.53076
393.66083 233.06314 547.83508
396.05676 233.45828 548.93677
398.46283 233.85313 550.02856
400.08734 233.87292 549.31226
401.711 233.8922 548.59058
404.13596 234.28581 549.65704
405.76303 234.30402 548.92249
407.38898 234.32159 548.18286
409.8317 234.71353 549.22418
412.2836 235.10484 550.25562
414.74454 235.49548 551.27716
416.7973 235.69775 551.39941
418.85352 235.8992 551.5144
-96.150162 236.51666 548.63702
-95.342651 236.88155 551.17627
-94.11525 237.05545 552.82233
-90.450516 236.08818 549.09991
-88.420792 235.88063 548.94232
-87.194809 236.05252 550.57056
-84.771088 235.65382 549.50238
-82.751587 235.44467 549.3233
-81.128433 235.42496 550.03674
-78.726318 235.02505 548.94226
-76.334183 234.62483 547.83765
-74.719986 234.604 548.53058
-71.961746 234.01349 546.50354
-70.733353 234.18184 548.0882
-69.123566 234.16014 548.76263
-67.513626 234.13818 549.43164
-65.162506 233.73676 548.27667
-63.189911 233.52486 548.02222
-61.222687 233.31287 547.76013
-59.26091 233.10083 547.49048
-57.304626 232.88873 547.21326
-55.711105 232.86606 547.84302
-54.117889 232.84332 548.46741
-52.524948 232.82054 549.0863
-51.281647 232.98706 550.61749
-49.686813 232.96417 551.22656
-47.748413 232.75204 550.9104
-45.815826 232.54004 550.58691
-44.227646 232.51727 551.17767
-41.968048 232.11633 549.91772
-40.386246 232.09378 550.49579
-38.474319 231.88225 550.14386
-36.896286 231.85989 550.71021
-35.318863 231.83765 551.27124
-33.096619 231.43761 549.97211
-30.88559 231.03784 548.664
-29.638092 231.20499 550.13477
-27.756348 230.99449 549.7417
-25.8806 230.78424 549.34167
-24.629745 230.95172 550.79852
-23.067474 230.93057 551.31915
-21.201645 230.72089 550.90082
-19.643387 230.7001 551.41028
-17.786911 230.49091 550.97925
-16.232651 230.47052 551.47754
-14.679092 230.45032 551.97076
-12.835251 230.24179 551.52106
-10.99736 230.03354 551.06464
-9.4511566 230.01399 551.54108
-7.6225586 229.80624 551.0722
-6.0804138 229.78714 551.53796
-4.5389252 229.76823 551.99872
-2.9981689 229.74957 552.45465
-1.1854553 229.54279 551.96204
0.35133362 229.52457 552.40735
2.1547852 229.31833 551.90277
3.6875916 229.30057 552.33765
4.9576721 229.47119 553.71417
7.0107269 229.07753 552.24561
8.5389404 229.06046 552.66534
10.32074 228.85551 552.13165
12.096664 228.65085 551.5918
13.86673 228.44644 551.04578
15.384537 228.43034 551.44458
17.145508 228.22647 550.88721
18.659515 228.21083 551.27594
20.411423 228.00748 550.70728
21.685699 228.18018 552.03955
23.431213 227.97733 551.46045
25.170929 227.77473 550.87543
26.676788 227.76022 551.23993
28.407547 227.55814 550.64398
29.909668 227.5441 550.9989
31.411247 227.53027 551.3493
32.694672 227.70435 552.65295
34.412849 227.50323 552.03668
35.912872 227.49002 552.37366
37.622223 227.28937 551.7467
39.325859 227.08899 551.1142
40.614548 227.26407 552.39752
42.312019 227.06413 551.75513
43.804382 227.052 552.06903
45.493111 226.85255 551.41626
46.981956 226.84085 551.72101
48.66198 226.64188 551.05804
50.147346 226.6306 551.35364
51.632271 226.61954 551.64496
52.932938 226.79608 552.89685
54.600883 226.59795 552.21472
56.263237 226.40004 551.52734
57.567856 226.57715 552.76758
59.050774 226.56702 553.0376
60.533279 226.55711 553.30353
62.015427 226.54738 553.56519
63.497208 226.53783 553.82269
65.141739 226.34116 553.10736
66.620224 226.33197 553.35602
68.256287 226.13574 552.6311
70.042206 225.75241 550.93115
71.664665 225.55661 550.19586
73.281662 225.36096 549.45557
74.597977 225.53998 550.65283
76.209167 225.34473 549.90363
77.814888 225.14969 549.1496
79.27533 225.14201 549.3631
80.872726 224.94734 548.59985
82.464691 224.75285 547.83179
83.787041 224.93285 549.00592
85.243813 224.92584 549.20294
86.57341 225.10611 550.37012
88.032249 225.09943 550.55951
89.490852 225.09288 550.74487
90.949211 225.08652 550.92633
92.407341 225.08029 551.10376
93.979263 224.88718 550.30151
95.322952 225.06833 551.44672
96.889275 224.87555 550.63599
98.450241 224.68292 549.82068
99.798477 224.86452 550.95465
101.25278 224.85922 551.10809
102.70689 224.8541 551.25763
104.16084 224.84909 551.40314
105.70796 224.65729 550.56696
107.15898 224.65259 550.70447
108.60982 224.64804 550.83813
110.06052 224.64365 550.96777
111.51104 224.63939 551.09369
112.88094 224.8222 552.1947
114.41167 224.63129 551.33368
115.78642 224.81439 552.42743
117.23898 224.81067 552.53784
118.76158 224.62019 551.66467
120.2113 224.61676 551.76727
121.59587 224.80038 552.84619
123.1104 224.61032 551.96088
124.49988 224.79422 553.03247
125.95174 224.79129 553.11969
127.40349 224.78857 553.20325
128.80298 224.97281 554.26379
130.30673 224.78345 553.35858
131.75821 224.7811 553.43048
133.20963 224.77887 553.49854
134.66095 224.77678 553.56281
136.15152 224.58797 552.6416
137.60016 224.58612 552.698
139.04872 224.58444 552.75067
140.46564 224.76971 553.78131
141.91667 224.76826 553.82635
143.36765 224.76697 553.86761
144.81859 224.76576 553.90497
146.2695 224.76471 553.93854
147.73909 224.57695 552.98608
149.18735 224.57614 553.01196
150.62201 224.7623 554.0163
152.0618 224.94859 555.01691
153.51515 224.94817 555.03137
154.96849 224.94788 555.04199
156.41852 225.13452 556.03113
157.87585 224.76083 554.06934
159.32846 224.94775 555.0509
160.7818 224.94794 555.04614
162.22813 224.76146 554.0553
163.66936 224.5751 553.06061
165.14188 224.94936 555.00916
166.59528 224.95007 554.98914
168.04871 224.95093 554.96533
169.50215 224.9519 554.93762
170.97809 225.13983 555.88824
172.40918 224.95424 554.87079
173.83519 224.76875 553.84961
175.28624 224.77023 553.80664
176.73735 224.77185 553.75989
178.18852 224.77359 553.70923
179.67763 224.96234 554.63647
181.1315 224.96434 554.57813
182.67148 225.34021 556.47876
184.13066 225.34247 556.41248
185.63808 225.53174 557.32343
187.09999 225.5343 557.24933
188.50867 225.3501 556.19031
189.9682 225.35291 556.10852
191.42783 225.35587 556.02289
192.94861 225.54584 556.91382
194.47464 225.73596 557.8006
196.00592 225.92622 558.68311
197.47374 225.92973 558.58136
199.08434 226.30722 560.4353
200.48364 226.12408 559.34576
201.95442 226.12802 559.23212
203.50439 226.31903 560.09369
204.81477 225.94937 558.01404
206.28342 225.95372 557.88873
207.839 226.14519 558.7381
209.39992 226.33679 559.58301
210.78226 226.15463 558.46741
212.44318 226.53354 560.28168
213.92041 226.53867 560.13599
215.5972 226.91792 561.94086
217.18221 227.11038 562.76361
218.77258 227.30298 563.58179
220.36832 227.49577 564.39545
221.85944 227.50171 564.22827
223.23819 227.32071 563.08112
224.72717 227.32693 562.90619
226.09863 227.14624 561.75189
227.70581 227.33986 562.54407
229.31839 227.53368 563.3316
230.9364 227.72768 564.11438
232.43176 227.73474 563.9184
233.92737 227.74194 563.71826
235.29004 227.56219 562.54089
236.7836 227.56973 562.33289
238.41589 227.76463 563.09338
240.05362 227.95972 563.849
241.84039 228.34222 565.57147
243.63782 228.72495 567.28821
245.29716 228.92068 568.0282
247.11334 229.30386 569.73383
248.63235 229.31277 569.49316
250.15167 229.32184 569.24823
251.83047 229.5184 569.96844
253.5148 229.71519 570.68353
254.87613 229.53755 569.45654
256.56635 229.73474 570.16217
257.75378 229.37009 567.95984
259.27533 229.38029 567.68927
260.62259 229.20329 566.44769
262.49683 229.58871 568.10132
264.02216 229.59953 567.81726
265.73035 229.798 568.49408
267.44418 229.9967 569.16553
269.1636 230.19565 569.83148
270.31802 229.83231 567.60107
272.04095 230.03168 568.25775
273.57416 230.04376 567.94629
274.90979 229.86847 566.66833
276.0401 229.50574 564.42542
277.56689 229.51837 564.10223
279.09421 229.53122 563.77466
280.62201 229.54428 563.4425
282.15033 229.55754 563.10583
283.46558 229.38333 561.80603
285.20856 229.58472 562.41907
286.30081 229.22314 560.15387
287.82605 229.23724 559.80035
289.79993 229.62714 561.35486
291.78485 230.01735 562.90234
293.09296 229.84435 561.57751
295.09204 230.23511 563.11261
296.63318 230.25043 562.73291
297.93784 230.07803 561.39545
299.23785 229.90582 560.05457
301.01794 230.10974 560.61401
302.06903 229.74991 558.31396
303.35779 229.57822 556.96228
304.89221 229.59476 556.55713
306.68005 229.79961 557.09619
307.96289 229.62851 555.73242
309.75729 229.83386 556.26056
311.55756 230.03951 556.78241
313.62708 230.43364 558.2442
314.91 230.2634 556.86188
316.72543 230.46985 557.36554
318.54681 230.67661 557.86279
319.82654 230.50693 556.46716
321.37811 230.5258 556.01062
322.93042 230.54489 555.54913
324.4834 230.56418 555.08264
326.03708 230.58368 554.61108
327.59149 230.60336 554.13458
329.43622 230.81181 554.59143
330.99469 230.83199 554.10413
332.55386 230.85231 553.61157
334.11377 230.87283 553.11395
335.67435 230.89355 552.61127
337.53845 231.10316 553.0376
339.71399 231.50174 554.39032
341.59271 231.71188 554.802
343.47742 231.92226 555.20667
345.3681 232.13284 555.60425
346.94873 232.15479 555.06506
348.53006 232.17688 554.52057
350.112 232.1991 553.9707
351.37067 232.03246 552.48865
352.95126 232.05487 551.92908
354.5325 232.07741 551.36426
356.11432 232.10004 550.79401
358.03131 232.31189 551.1416
359.61694 232.33472 550.55963
360.86322 232.16837 549.05109
363.13232 232.56979 550.2998
364.72214 232.59277 549.70062
365.96451 232.42644 548.1778
368.60413 233.01753 550.32037
370.55374 233.23001 550.61902
372.15314 233.25305 549.995
374.46988 233.65504 551.19366
376.43631 233.86755 551.46954
378.40829 234.08005 551.73785
380.3858 234.29251 551.9986
381.99951 234.31523 551.3418
383.98511 234.52745 551.5882
385.97601 234.73953 551.82697
387.21786 234.57196 550.24506
389.21381 234.78363 550.47058
391.21484 234.99506 550.68848
392.45062 234.82651 549.09247
394.84406 235.22723 550.19922
396.46667 235.2478 549.49438
398.87494 235.64787 550.5835
400.89734 235.85759 550.7641
402.92426 236.06686 550.93713
404.55441 236.08554 550.20636
406.58728 236.29372 550.36536
407.40503 235.93091 547.83563
409.84705 236.32788 548.87567
411.88654 236.53403 549.01459
413.9296 236.73938 549.146
415.55927 236.75372 548.38141
418.02618 237.1476 549.38702
-97.402924 238.71124 550.95343
-96.177979 238.88885 552.604
-94.130539 238.68016 552.46698
-91.276657 238.08536 550.53503
-89.644791 238.06799 551.27557
-87.611938 237.85736 551.11493
-85.186142 237.45355 550.04938
-83.559006 237.43442 550.77075
-81.5392 237.2222 550.58722
-79.134796 236.81708 549.4953
-76.740387 236.41165 548.39337
-74.740036 236.19836 548.18469
-72.363342 235.79242 547.06415
-71.132629 235.96335 548.64972
-69.520462 235.94159 549.32568
-67.908096 235.91954 549.99615
-65.925064 235.70502 549.75256
-63.947311 235.49034 549.50128
-61.609695 235.08342 548.33167
-59.64534 234.86859 548.06409
-57.326538 234.46164 546.87598
-56.090454 234.63092 548.42035
-54.494614 234.608 549.0462
-52.547119 234.39304 548.75055
-51.303909 234.56201 550.28174
-49.709106 234.539 550.89136
-47.426697 234.1322 549.65717
-45.838028 234.10922 550.25385
-43.572495 233.70271 549.00287
-41.654099 233.48816 548.66473
-40.074905 233.46545 549.24237
-38.496231 233.44281 549.81458
-37.246216 233.61189 551.30652
-35.666046 233.58939 551.86902
-33.118195 232.99228 549.64557
-31.227112 232.77858 549.26691
-29.659409 232.75656 549.80981
-27.777512 232.54323 549.41785
-26.213745 232.52155 549.9494
-24.960159 232.69138 551.40717
-23.395096 232.66995 551.9292
-21.526428 232.45737 551.51282
-19.663773 232.24506 551.08966
-18.106018 232.22421 551.59442
-16.548965 232.20355 552.09412
-14.405243 231.80072 550.71558
-12.854828 231.78052 551.20343
-11.016739 231.5694 550.74805
-9.1845703 231.35852 550.28595
-7.6415405 231.33899 550.7572
-6.0991821 231.31964 551.22339
-4.2796326 231.10953 550.74329
-3.0165405 231.28157 552.14105
-1.203598 231.07193 551.64948
0.60339355 230.86259 551.15149
2.1371002 230.84436 551.59161
3.6701202 230.82635 552.02692
5.2024841 230.80856 552.4574
6.7341919 230.791 552.88306
8.52211 230.58293 552.35651
10.304153 230.37515 551.82379
11.577072 230.54895 553.1825
13.352585 230.34167 552.63898
15.122253 230.13466 552.08923
16.886093 229.92792 551.53345
18.402924 229.91202 551.92328
20.1577 229.7058 551.35614
21.670715 229.69037 551.73608
23.183136 229.67514 552.11139
24.925674 229.46973 551.52802
26.662476 229.26454 550.93866
28.167984 229.25003 551.29901
29.672928 229.23575 551.65491
31.397606 229.03134 551.04962
32.89888 229.0175 551.39587
34.399628 229.00388 551.73767
36.112297 228.80023 551.11664
37.819283 228.59679 550.48987
39.313293 228.58386 550.81726
40.806801 228.57114 551.14026
42.299858 228.55859 551.4588
43.792412 228.5463 551.77307
45.481369 228.34404 551.12109
46.776146 228.52229 552.38849
48.459 228.3205 551.72681
50.1362 228.11894 551.05988
51.62133 228.1077 551.35144
53.106041 228.09662 551.63873
54.590324 228.08577 551.92181
56.074203 228.0751 552.20062
57.557678 228.06464 552.47522
59.040764 228.05437 552.74554
60.352577 228.23422 553.97845
62.005821 228.03438 553.27356
63.322044 228.2146 554.49908
64.969368 228.01517 553.78491
66.61116 227.81595 553.06567
68.08947 227.80681 553.31049
69.878181 227.41815 551.61224
71.656204 227.02972 549.9082
73.123184 227.02119 550.13898
74.589851 227.01283 550.3656
76.201233 226.81485 549.61713
77.664703 226.80687 549.83527
79.127899 226.79904 550.04932
80.728065 226.60162 549.28711
82.322777 226.40443 548.5202
83.779968 226.39716 548.72144
85.2369 226.39001 548.91864
86.566635 226.57278 550.08551
88.025642 226.56596 550.27502
89.484398 226.55933 550.46063
90.942917 226.55286 550.64221
92.401215 226.54652 550.81976
93.745247 226.73001 551.96869
95.205688 226.724 552.13855
96.77475 226.5285 551.3288
98.232178 226.52281 551.49054
99.689407 226.51727 551.64838
101.24757 226.3223 550.8255
102.70183 226.31705 550.97516
104.1559 226.31201 551.12097
105.60981 226.30707 551.26276
107.06355 226.30228 551.40063
108.60534 226.10812 550.55676
110.05618 226.10362 550.68652
111.42377 226.28882 551.79083
112.87688 226.28464 551.91315
114.32983 226.28058 552.03149
115.78265 226.27667 552.14606
117.23534 226.2729 552.25665
118.61769 226.45877 553.34277
120.14032 226.26578 552.46625
121.59264 226.26242 552.56519
123.10732 226.06973 551.68042
124.49693 226.25613 552.75159
125.94891 226.2532 552.83899
127.4008 226.2504 552.92255
128.8526 226.24773 553.0022
130.30431 226.24519 553.078
131.75592 226.2428 553.15002
133.20746 226.24054 553.2182
134.65894 226.2384 553.28241
136.14963 226.04697 552.36176
137.59839 226.0451 552.41827
139.04709 226.0434 552.47095
140.49571 226.04181 552.51984
141.94431 226.04033 552.56482
143.36639 226.22842 553.58752
144.81747 226.22723 553.625
146.26849 226.22614 553.65851
147.7195 226.22519 553.68829
149.17046 226.22437 553.71417
150.60782 226.41309 554.71808
152.05031 226.60196 555.71826
153.51479 226.41211 554.75092
154.96239 226.60123 555.74341
156.41513 226.79048 556.73212
157.87517 226.41159 554.7713
159.32861 226.4117 554.77051
160.78207 226.4119 554.76575
162.23555 226.41225 554.75726
163.67946 226.2233 553.763
165.14253 226.41331 554.72864
166.59607 226.41406 554.70868
168.06691 226.60434 555.6665
169.52307 226.60533 555.63873
170.97926 226.60648 555.60724
172.4355 226.60773 555.57172
173.8642 226.41968 554.55096
175.31796 226.4212 554.50793
176.8045 226.61227 555.44238
178.22565 226.42462 554.41028
179.71745 226.61597 555.33679
181.17403 226.61801 555.27826
182.67371 226.80965 556.19684
184.13301 226.81197 556.13049
185.64056 227.00388 557.04095
187.05186 226.81702 555.98615
188.56474 227.00919 556.88855
189.9711 226.8226 555.82635
191.37238 226.63611 554.76044
192.89072 226.82872 555.651
194.47794 227.21097 557.51709
196.00937 227.40388 558.39899
197.54608 227.59695 559.27667
199.15942 227.97971 561.12939
200.56143 227.79405 560.04004
202.03493 227.79807 559.92609
203.50858 227.80222 559.80817
204.90071 227.61697 558.70782
206.37207 227.6214 558.58221
207.93039 227.81555 559.43073
209.40466 227.82028 559.297
210.87909 227.82518 559.15936
212.44824 228.01979 559.995
214.02272 228.21458 560.82617
215.50285 228.21994 560.67603
217.08546 228.41507 561.49847
218.67342 228.61035 562.31622
220.26674 228.80582 563.12946
221.75543 228.81183 562.96246
223.24432 228.81799 562.79132
224.61829 228.63466 561.64111
226.10509 228.64116 561.46234
227.71245 228.83749 562.25385
229.3252 229.034 563.04065
230.81789 229.041 562.84894
232.4389 229.23788 563.62653
233.80402 229.0555 562.45319
235.29752 229.063 562.24921
236.79126 229.07068 562.04108
238.14687 228.88873 560.85675
239.7796 229.08652 561.61237
241.41785 229.28453 562.36316
243.06152 229.48273 563.10895
244.71071 229.68114 563.84979
246.21405 229.68991 563.6156
247.71771 229.69888 563.3772
249.37822 229.89789 564.10382
250.88516 229.90723 563.85657
252.55414 230.10666 564.57349
253.90009 229.92648 563.34937
255.57498 230.12633 564.05688
256.74701 229.75652 561.85803
258.25317 229.76678 561.58997
259.58508 229.58727 560.3515
261.79849 230.35797 563.93793
263.31366 230.36888 563.65558
264.82922 230.38 563.3689
266.71533 230.77145 565.00616
268.61224 231.16321 566.63708
269.94925 230.98489 565.37201
271.86008 231.37717 566.99164
273.39084 231.38939 566.68036
274.92212 231.40184 566.36469
276.2532 231.2243 565.08356
277.57959 231.04694 563.79901
279.10712 231.05998 563.47101
280.84357 231.2635 564.0979
282.16367 231.08673 562.80164
283.69272 231.1004 562.46014
285.22232 231.11432 562.1142
286.53357 230.93808 560.80658
288.06165 230.95241 560.45209
290.03842 231.34776 562.00464
291.7995 231.55301 562.59491
293.3371 231.56805 562.22473
294.87524 231.58336 561.84998
296.64853 231.78937 562.42377
298.19049 231.80513 562.039
299.25357 231.44 559.74567
301.03391 231.64676 560.30414
302.33011 231.47255 558.95532
303.6217 231.29851 557.60309
304.90875 231.12466 556.24762
306.69684 231.33237 556.78577
307.97986 231.15887 555.42206
309.77448 231.3671 555.94922
311.57501 231.57559 556.47009
313.11816 231.59355 556.03912
314.92786 231.80258 556.5481
316.74359 232.0119 557.05078
318.29401 232.03059 556.6037
320.11896 232.24045 557.09418
321.67337 232.25958 556.63641
323.22849 232.27895 556.17358
325.06604 232.48956 556.64612
326.34082 232.3183 555.23303
327.89807 232.3383 554.75525
330.03534 232.7408 556.14813
331.30695 232.57007 554.7215
332.86896 232.5907 554.22766
334.43164 232.61151 553.7287
335.69489 232.44122 552.2901
337.5592 232.65369 552.71539
339.42947 232.86642 553.13379
341.30573 233.07938 553.54523
343.49875 233.48399 554.88068
345.38959 233.69745 555.27716
346.9704 233.71962 554.73743
348.87054 233.9335 555.12073
350.13391 233.7644 553.64209
351.39264 233.59537 552.15997
352.97333 233.61801 551.59991
354.55463 233.64075 551.03448
356.13654 233.66359 550.46375
358.05365 233.8783 550.81024
359.30203 233.7095 549.30615
361.22552 233.92438 549.63989
363.15479 234.13937 549.96631
365.08984 234.35448 550.28528
366.68277 234.37769 549.67914
368.97723 234.7849 550.90082
370.92944 235.00018 551.19733
372.88733 235.2155 551.48633
374.8508 235.43082 551.7677
376.81989 235.64615 552.04156
378.79437 235.86139 552.30768
380.04132 235.69214 550.74567
382.02139 235.90717 550.99866
384.00684 236.12209 551.24408
385.62299 236.1445 550.57477
387.99341 236.55145 551.71185
389.61456 236.57339 551.02936
391.61795 236.78751 551.24512
393.24115 236.80884 550.55072
394.86389 236.82977 549.85089
396.09552 236.65775 548.24542
399.28705 237.44812 551.13239
400.51996 237.27513 549.51514
402.54364 237.48685 549.68842
404.97278 237.89072 550.74963
407.41144 238.29407 551.80103
407.82727 237.73312 548.37671
410.68033 238.32788 550.30615
411.48907 237.95804 547.76984
413.52869 238.1657 547.90186
414.7377 237.98682 546.25012
417.19843 238.38551 547.25708
-98.242371 240.72621 552.37195
-96.602631 240.71136 553.13379
-94.145599 240.30499 552.10681
-92.102737 240.0932 551.96307
-89.661285 239.68544 550.91748
-87.229202 239.2771 549.86206
-85.203812 239.06346 549.69342
-83.577286 239.04448 550.41516
-81.557999 238.82977 550.23254
-79.93251 238.80975 550.94257
-77.146622 238.20398 548.94312
-74.760071 237.79306 547.83398
-72.383667 237.38187 546.7149
-70.396133 237.16545 546.49078
-68.789612 237.14374 547.16492
-67.556152 237.31668 548.74072
-65.575974 237.09952 548.49701
-63.96904 237.07706 549.15491
-61.6315 236.66479 547.98682
-59.667297 236.44727 547.72034
-57.348572 236.03494 546.53387
-55.755295 236.01205 547.16467
-54.162262 235.98906 547.7901
-52.569458 235.966 548.41003
-50.976974 235.94287 549.02454
-49.384857 235.91974 549.63367
-47.449081 235.70206 549.31866
-45.519058 235.48447 548.99634
-43.594803 235.267 548.66669
-42.012405 235.24399 549.25116
-40.430481 235.22104 549.83026
-38.849091 235.19815 550.40399
-37.268295 235.17535 550.97241
-35.688065 235.15265 551.53552
-33.462799 234.74165 550.2406
-31.889069 234.71924 550.7912
-29.680939 234.30869 549.4801
-28.113754 234.28659 550.01831
-26.547226 234.26462 550.55133
-24.981308 234.2428 551.07904
-23.416092 234.22115 551.60162
-21.547272 234.00574 551.1864
-19.382751 233.59662 549.83069
-18.12648 233.76944 551.26953
-16.272873 233.55472 550.83453
-14.718979 233.53403 551.32886
-12.874695 233.31978 550.88116
-11.036362 233.10579 550.42682
-9.7756042 233.27945 551.84283
-7.9439392 233.06595 551.37689
-6.1181793 232.85268 550.90417
-4.5763092 232.8333 551.36597
-3.035141 232.81412 551.82281
-0.94934082 232.40811 550.38983
0.58525085 232.38943 550.83527
2.1191559 232.37097 551.27588
3.6524048 232.35271 551.71161
5.1849823 232.33469 552.14258
6.9764252 232.1235 551.6225
8.5050507 232.10596 552.04315
10.033081 232.08862 552.45892
11.812103 231.87823 551.92169
13.336243 231.86136 552.32733
15.10614 231.6515 551.77856
17.114029 231.24875 550.27338
18.628433 231.23265 550.66296
20.142258 231.21677 551.04785
21.891464 231.008 550.47577
23.168137 231.18567 551.80383
24.910934 230.9774 551.22131
26.647949 230.76939 550.63293
27.928131 230.94769 551.94867
29.658844 230.74017 551.34985
31.383759 230.53294 550.74548
32.885223 230.51892 551.09216
34.386177 230.5051 551.43433
36.099098 230.2986 550.81409
37.59642 230.28523 551.14679
39.093254 230.27206 551.47498
40.384895 230.45193 552.75854
42.085419 230.2464 552.11835
43.780258 230.04111 551.47272
45.27256 230.02881 551.7829
46.764404 230.01672 552.08875
48.639168 229.61942 550.46552
49.935829 229.80048 551.72461
51.423744 229.78903 552.01703
53.095123 229.58514 551.34125
54.3983 229.76674 552.58899
56.063675 229.56328 551.90369
57.547348 229.55264 552.17853
58.857101 229.73477 553.41498
60.513519 229.53195 552.71552
61.996033 229.5219 552.97772
63.47818 229.51204 553.23572
65.123116 229.30988 552.52191
66.762512 229.10791 551.80298
68.238419 229.09865 552.04761
70.02475 228.70465 550.35016
71.494812 228.69579 550.58569
72.964569 228.68709 550.81702
74.581604 228.48618 550.07416
76.048141 228.47787 550.297
77.514381 228.46973 550.51569
79.120171 228.26939 549.75903
80.72052 228.06927 548.99756
82.18074 228.06168 549.20337
83.640671 228.05426 549.40515
85.100334 228.04701 549.60297
86.559753 228.03992 549.79669
87.894569 228.22528 550.95984
89.356056 228.21854 551.146
90.817329 228.21191 551.328
92.278366 228.20547 551.50604
93.739159 228.19922 551.68018
95.311188 228.00085 550.87531
96.768982 227.99493 551.0412
98.226563 227.98914 551.20306
99.787659 227.79129 550.38513
101.24226 227.78583 550.53888
102.69667 227.78052 550.68866
104.15091 227.77533 550.83447
105.51157 227.96249 551.95331
107.05884 227.76547 551.11444
108.51256 227.76074 551.24854
109.9661 227.7562 551.37878
111.41949 227.75177 551.50507
112.87274 227.7475 551.62744
114.40378 227.55127 550.76764
115.77881 227.73941 551.86053
117.23163 227.73557 551.97125
118.68433 227.73187 552.07806
120.1369 227.72833 552.18103
121.5243 227.91701 553.25934
123.04169 227.72165 552.37531
124.43401 227.9106 553.44623
125.88871 227.90761 553.53387
127.34331 227.90475 553.61761
128.79781 227.90204 553.69757
130.25223 227.89946 553.77356
131.75359 227.70497 552.86548
133.20526 227.70267 552.93365
134.65686 227.7005 552.99799
136.14771 227.50644 552.07788
137.59659 227.50455 552.13446
139.04541 227.50279 552.18719
140.49419 227.50116 552.23608
