ply
format ascii 1.0
comment PCL generated
element vertex 1588
property float x
property float y
property float z
element camera 0
property float view_px
property float view_py
property float view_pz
property float x_axisx
property float x_axisy
property float x_axisz
property float y_axisx
property float y_axisy
property float y_axisz
property float z_axisx
property float z_axisy
property float z_axisz
property float focal
property float scalex
property float scaley
property float centerx
property float centery
property int viewportx
property int viewporty
property float k1
property float k2
end_header
219.80411 153.40826 556.57751
221.35893 153.47107 557.4079
222.68944 153.41263 556.25073
224.13235 153.41489 556.0816
225.57549 153.41722 555.90869
227.0188 153.4196 555.73193
228.58742 153.48271 556.54163
230.16138 153.54587 557.3468
231.74071 153.60912 558.14746
233.19257 153.61176 557.95428
234.78006 153.67513 558.74615
236.23495 153.67789 558.54486
237.69006 153.68071 558.33966
239.00232 153.62289 557.1427
240.45535 153.62584 556.93005
242.05695 153.68956 557.70062
243.51308 153.69264 557.47974
244.96948 153.69579 557.25494
246.58215 153.75972 558.01202
248.04169 153.763 557.77893
249.34036 153.70563 556.55676
250.7979 153.70903 556.3161
252.08942 153.65176 555.08728
253.54498 153.65532 554.83911
255.17236 153.7197 555.57031
256.63116 153.72339 555.31372
258.4436 153.84869 557.01782
259.90823 153.85255 556.75226
261.37323 153.85648 556.4826
262.83856 153.86047 556.20886
264.67825 153.98616 557.89203
265.95993 153.9295 556.62921
267.62115 153.99457 557.3222
269.09314 153.99887 557.03107
270.56558 154.00328 556.7359
272.03842 154.00775 556.43658
273.51169 154.01231 556.13306
274.98535 154.01694 555.82538
276.66718 154.08252 556.48987
278.14432 154.08734 556.17322
279.62192 154.09222 555.85242
281.09998 154.0972 555.5274
282.57852 154.10226 555.19812
284.49884 154.22922 556.81146
285.98352 154.23447 556.47247
287.24289 154.17889 555.15698
289.18292 154.30618 556.75336
290.44067 154.25076 555.42981
291.92746 154.25636 555.07361
293.651 154.32303 555.6828
295.38031 154.3898 556.28632
297.11542 154.45668 556.88428
298.61218 154.46269 556.50861
299.86292 154.40778 555.16132
301.35828 154.41397 554.7774
303.10614 154.48126 555.35486
304.8598 154.54869 555.92645
306.61932 154.61624 556.49225
308.125 154.62283 556.0882
309.63129 154.62955 555.67969
311.66812 154.75853 557.19135
312.91342 154.70435 555.81055
314.42435 154.71136 555.38751
315.93597 154.71848 554.9599
317.44824 154.72569 554.52753
318.68329 154.67188 553.13202
320.1944 154.67929 552.69104
321.98944 154.74797 553.20251
323.79047 154.8168 553.7077
325.30902 154.82455 553.25104
326.82831 154.8324 552.78955
328.93582 154.96281 554.23114
330.46191 154.97092 553.75842
332.28772 155.04036 554.23315
334.4212 155.17122 555.65277
335.95752 155.17969 555.1629
337.49463 155.18823 554.66797
339.65155 155.31953 556.06598
340.88342 155.26701 554.61145
342.4256 155.27591 554.10071
344.60345 155.40762 555.47754
346.15259 155.41676 554.95496
347.70251 155.42599 554.42719
349.57861 155.49675 554.83789
350.80487 155.44479 553.35626
353.01855 155.57724 554.69666
354.9104 155.64838 555.08722
356.13654 155.59671 553.59088
357.69678 155.6066 553.03015
359.25781 155.61659 552.46405
360.47583 155.56516 550.95569
362.72894 155.69839 552.25208
364.64426 155.77023 552.60406
366.5657 155.84221 552.94873
368.84775 155.97589 554.21899
371.1412 156.10974 555.4798
372.72644 156.12048 554.86902
374.67487 156.19296 555.18262
375.89911 156.14221 553.63092
377.85434 156.21487 553.93146
379.4451 156.22595 553.29749
380.29028 156.11363 550.80652
383.00433 156.31 552.93744
385.35663 156.44479 554.13281
386.95782 156.45615 553.47314
389.32721 156.59114 554.65057
392.09418 156.78806 556.7381
392.54285 156.61414 553.29865
394.15125 156.62567 552.61407
395.75995 156.63724 551.92383
397.36902 156.6488 551.22797
398.57843 156.59848 549.61188
400.58765 156.67197 549.81909
402.19717 156.68352 549.1062
404.62238 156.819 550.20953
405.82666 156.76855 548.57318
407.85181 156.84204 548.75061
409.46619 156.85349 548.01276
411.0802 156.86485 547.26929
-88.453598 158.07983 544.45074
-86.444275 158.00368 544.26373
-84.44017 157.92751 544.06873
-83.24913 157.98041 545.6908
-81.651581 157.96873 546.396
-79.256958 157.82805 545.26569
-77.664993 157.81641 545.95728
-76.073273 157.80475 546.64331
-73.700699 157.66425 545.48694
-72.890671 157.78149 547.99835
-70.914764 157.70552 547.74695
-68.562073 157.56522 546.56592
-66.980286 157.55377 547.22058
-65.398987 157.54236 547.86957
-63.069214 157.40237 546.66315
-61.866272 157.4554 548.22498
-59.920227 157.3799 547.9292
-58.346695 157.36877 548.55402
-56.046066 157.22922 547.31482
-54.118011 157.15404 546.99634
-52.913101 157.2074 548.5329
-50.63588 157.06822 547.2691
-48.723312 156.99338 546.92926
-47.868576 157.11111 549.38501
-45.960175 157.03647 549.03339
-44.057892 156.96194 548.6745
-43.189575 157.07985 551.12018
-41.291534 157.00554 550.74976
-39.062271 156.86731 549.43292
-37.513763 156.85732 549.9873
-35.634018 156.78342 549.5954
-34.089767 156.77364 550.13843
-32.546371 156.76399 550.67639
-31.003784 156.75443 551.20917
-29.462036 156.745 551.73688
-27.921036 156.73564 552.2594
-25.748535 156.59854 550.88391
-24.214432 156.58945 551.39453
-22.681183 156.58046 551.90027
-20.840439 156.50769 551.45184
-19.617065 156.56281 552.89673
-18.086212 156.55414 553.38757
-16.255722 156.48175 552.92181
-14.729034 156.47331 553.40192
-13.203156 156.465 553.87726
-11.092926 156.32918 552.43939
-9.283905 156.25731 551.94849
-7.193573 156.12181 550.49548
-5.6837921 156.11398 550.94757
-4.1747131 156.10626 551.39496
-2.6663513 156.09866 551.83759
-1.1587372 156.09116 552.27563
0.074020386 156.14745 553.66846
1.582901 156.14014 554.09784
3.0910797 156.13293 554.52264
4.598587 156.12582 554.94281
6.1054535 156.11884 555.35834
7.872757 156.04829 554.80615
9.3757019 156.0415 555.21185
10.878006 156.03482 555.61304
12.379684 156.02824 556.0097
14.13147 155.95816 555.43585
15.877426 155.8882 554.8562
17.372101 155.88193 555.23804
19.10907 155.81219 554.64752
20.359695 155.86969 555.98853
21.61499 155.92726 557.32635
23.110001 155.92137 557.69122
24.371979 155.9791 559.02222
25.408737 156.1004 561.32129
26.455383 156.22177 563.61835
27.28717 156.40668 566.88599
28.134048 156.59163 570.15271
28.77652 156.84009 574.39215
29.439209 157.08856 578.6319
30.550781 157.21014 580.92249
32.095695 157.20486 581.26031
33.221878 157.32657 583.54541
34.564476 157.38492 584.85199
36.319717 157.31647 584.20135
38.472031 157.12131 581.59039
40.012077 157.11649 581.90582
41.747879 157.04836 581.2384
44.058853 156.79016 577.6286
45.966751 156.65887 575.96936
47.298607 156.71783 577.24414
49.564445 156.46002 573.61292
51.809242 156.20233 569.97357
53.310318 156.1982 570.25214
55.167206 156.06744 568.56268
57.01342 155.9368 566.86719
58.50312 155.93292 567.13153
59.992477 155.92912 567.39185
61.649292 155.86208 566.66418
63.300636 155.79512 565.93158
64.946495 155.72824 565.19409
66.266861 155.78806 566.42188
67.592079 155.84792 567.64648
69.386787 155.71799 565.9101
70.561737 155.84126 568.11334
72.046135 155.83804 568.34082
73.824554 155.70834 566.59003
75.592407 155.57874 564.83374
76.923767 155.63899 566.03546
78.538834 155.5728 565.25763
79.874855 155.63318 566.45215
81.484314 155.56714 565.66565
82.82502 155.62764 566.85309
84.170654 155.6882 568.03723
85.774315 155.62233 567.23816
87.124687 155.68301 568.4151
88.358604 155.80696 570.57935
89.721428 155.86774 571.75006
90.85672 156.05499 574.89984
92.120934 156.17908 577.05591
93.617462 156.17679 577.22565
94.896744 156.30096 579.37561
96.398041 156.2988 579.53809
98.002586 156.23349 578.70392
99.501007 156.23143 578.85815
100.99927 156.22943 579.00848
102.59306 156.16431 578.16138
104.18156 156.09924 577.31
105.76479 156.03426 576.4541
107.34275 155.96931 575.59387
108.74462 156.03079 576.71802
110.31717 155.96597 575.84961
111.96475 155.83804 573.98206
113.52422 155.77336 573.10492
115.22873 155.58238 570.23297
116.91771 155.39149 567.3562
118.52118 155.26382 565.46997
120.1143 155.13622 563.57922
121.63218 155.07182 562.67993
123.08253 155.07065 562.77264
124.59254 155.00636 561.86536
126.04018 155.00528 561.95032
127.54234 154.9411 561.03503
129.03928 154.87697 560.11572
130.53102 154.8129 559.1925
132.01756 154.74889 558.26526
133.45459 154.74805 558.33099
134.93332 154.68414 557.396
136.36766 154.68341 557.45422
137.80196 154.68272 557.50885
139.23619 154.6821 557.55969
140.67039 154.6815 557.60687
142.10455 154.68097 557.65039
143.5387 154.68048 557.69012
145.0204 154.55377 555.73071
146.47057 154.49025 554.76532
147.91559 154.42677 553.79596
149.32323 154.48961 554.81873
150.74953 154.48935 554.8399
152.17581 154.48915 554.85742
153.59367 154.55212 555.86926
155.01082 154.67825 557.87549
156.45134 154.55194 555.88605
157.87944 154.61505 556.8869
159.31267 154.67821 557.88409
160.74222 154.61516 556.88159
162.17363 154.61528 556.87347
163.62413 154.7417 558.85754
165.03647 154.61566 556.84601
166.48259 154.67906 557.82471
167.91661 154.67937 557.80176
169.35068 154.67972 557.77509
170.80713 154.74326 558.74255
172.24382 154.74371 558.70844
173.65303 154.68109 557.6731
175.11729 154.74477 558.62915
176.52145 154.68222 557.58649
177.95575 154.68286 557.53766
179.39008 154.68356 557.48517
180.78412 154.62115 556.43176
182.216 154.62195 556.37201
183.64793 154.62279 556.30847
185.07993 154.62367 556.24127
186.56259 154.68774 557.16711
188.05045 154.75188 558.08893
189.43207 154.68976 557.01392
190.86691 154.69084 556.9317
192.241 154.62883 555.84973
193.67345 154.63 555.76019
195.106 154.63123 555.66705
196.53865 154.63252 555.57019
198.04251 154.69702 556.46509
199.55164 154.76157 557.35583
200.83717 154.63667 555.2572
202.27023 154.63815 555.14539
203.70341 154.63969 555.02985
205.13672 154.6413 554.91064
206.57013 154.64294 554.78766
208.00368 154.64464 554.66089
209.43736 154.64639 554.53033
210.96542 154.71138 555.38965
212.40196 154.71326 555.2514
213.93802 154.77837 556.10236
215.47939 154.84354 556.94904
217.02603 154.90878 557.79144
218.3638 154.84767 556.64502
219.91592 154.91304 557.47925
221.24887 154.85204 556.32574
222.69168 154.85431 556.1604
224.25206 154.91986 556.9823
225.57785 154.85902 555.8183
226.89868 154.79825 554.651
228.5899 154.92722 556.45093
230.03625 154.92978 556.26611
231.61307 154.99567 557.06689
233.19525 155.06161 557.8631
234.6474 155.06438 557.66602
236.23776 155.13046 558.45343
237.55238 155.0701 557.26007
239.00525 155.07307 557.05127
240.45836 155.07611 556.83862
242.06 155.14247 557.60889
243.5162 155.14563 557.388
245.1261 155.21216 558.14923
246.58542 155.21547 557.91998
248.20361 155.28214 558.67206
249.50491 155.22229 557.44958
250.80136 155.16249 556.224
252.4256 155.22939 556.96332
253.88641 155.23305 556.71423
255.34753 155.23679 556.46106
256.80896 155.24057 556.20386
258.44742 155.3078 556.92493
259.73291 155.24841 555.67755
261.37717 155.3158 556.38947
262.6582 155.25655 555.13495
264.30838 155.3241 555.83789
265.96411 155.39175 556.53571
267.62543 155.4595 557.22845
269.09753 155.46393 556.93732
270.76736 155.53186 557.62024
272.24286 155.53648 557.32031
273.71878 155.54117 557.01611
275.19513 155.54594 556.70776
276.4642 155.48737 555.41919
278.14914 155.55576 556.07861
279.62683 155.56079 555.75775
280.8895 155.50244 554.45813
282.80167 155.63458 556.07703
284.28336 155.63988 555.7428
285.5423 155.58179 554.4317
287.24823 155.65076 555.06158
289.18835 155.78336 556.65741
290.44623 155.72551 555.33398
292.16675 155.7948 555.94788
293.89301 155.86423 556.55615
295.625 155.93375 557.15875
297.12128 155.93983 556.78735
298.37415 155.88243 555.44391
300.11569 155.95229 556.03137
301.36447 155.89505 554.6803
302.86053 155.9015 554.29175
304.61169 155.97168 554.86377
306.36871 156.04199 555.42993
307.87186 156.04877 555.02649
309.90027 156.18295 556.54425
311.40997 156.18997 556.13037
312.92029 156.19708 555.71179
314.70148 156.26799 556.24933
315.94305 156.21162 554.86084
317.45544 156.21904 554.42834
318.96857 156.22658 553.99127
320.20175 156.17047 552.59167
321.99689 156.24196 553.10278
324.08392 156.37735 554.56378
325.31668 156.32155 553.15076
327.1272 156.39343 553.64374
329.23746 156.52927 555.08398
330.76627 156.5376 554.61029
332.59485 156.60988 555.0838
334.42944 156.68231 555.55078
335.96588 156.69101 555.06067
337.80994 156.7637 555.51526
339.35062 156.77263 555.0144
340.5799 156.71774 553.56061
342.74915 156.85474 554.94458
344.29492 156.86401 554.4278
346.16153 156.93735 554.85107
347.71155 156.94685 554.32312
349.26245 156.95647 553.7901
350.81415 156.96619 553.25189
352.69733 157.04004 553.65002
354.2533 157.04997 553.10046
356.14612 157.12408 553.48547
358.04504 157.19833 553.86328
358.92633 157.08041 551.42041
360.82953 157.15486 551.78662
362.73883 157.22946 552.14557
364.6543 157.30418 552.49719
366.92767 157.44321 553.77533
369.21246 157.5824 555.04401
371.15152 157.65753 555.37134
373.09668 157.73279 555.69116
375.04785 157.80817 556.00336
376.27481 157.75513 554.45056
378.23273 157.83069 554.74957
379.45575 157.77777 553.18774
381.04718 157.78918 552.54791
383.01514 157.86501 552.82709
384.98898 157.94092 553.09845
386.96869 158.01692 553.36194
388.95428 158.09302 553.61755
391.33221 158.2336 554.7854
392.55377 158.18098 553.18634
394.55399 158.25726 553.41931
396.16544 158.26912 552.72778
398.17429 158.34549 552.94592
399.38904 158.29286 551.32751
401.00104 158.30472 550.61884
402.61322 158.31656 549.90454
404.22537 158.32838 549.18463
405.8374 158.34016 548.45898
408.2757 158.48111 549.54437
410.72446 158.62209 550.61932
411.92786 158.56911 548.96613
-88.876297 159.70824 545.24139
-87.273636 159.69638 545.96594
-85.264221 159.61731 545.77374
-83.260086 159.53825 545.57355
-81.261322 159.4592 545.36542
-80.065094 159.51436 546.97864
-78.467819 159.50241 547.67279
-76.870743 159.49045 548.36127
-75.273941 159.47849 549.04413
-73.289597 159.39954 548.80212
-71.310989 159.32065 548.55225
-69.338135 159.24185 548.29449
-66.991196 159.09615 547.10632
-65.409866 159.08446 547.75555
-63.080032 158.93898 546.54974
-61.505188 158.92743 547.18579
-59.561737 158.84906 546.8894
-57.990799 158.83766 547.51331
-56.056641 158.75949 547.20276
-54.489761 158.74826 547.81476
-52.564987 158.6703 547.49017
-50.290329 158.52568 546.22601
-48.733566 158.51474 546.81866
-47.177582 158.50391 547.40601
-45.62236 158.49315 547.98798
-44.413223 158.54919 549.50073
-43.199539 158.6053 551.01007
-41.641403 158.5948 551.57813
-39.409348 158.45108 550.26282
-37.523392 158.37418 549.87836
-35.643555 158.29741 549.48688
-34.099228 158.28738 550.03015
-32.228958 158.21088 549.62555
-31.013077 158.26765 551.10138
-29.149689 158.19139 550.68463
-27.611282 158.18181 551.20654
-26.073654 158.17233 551.72333
-24.53688 158.16298 552.23517
-22.689926 158.08723 551.79376
-21.465698 158.14459 553.24371
-19.93129 158.13556 553.74048
-18.39772 158.12665 554.23236
-16.564468 158.05141 553.76776
-14.737274 157.97632 553.29663
-12.916077 157.90135 552.81891
-11.393478 157.89293 553.28876
-9.5816803 157.81824 552.79895
-7.7759094 157.74368 552.30286
-5.9760895 157.66928 551.80035
-4.4643097 157.66133 552.24866
-2.9532471 157.65349 552.69226
-1.1660767 157.57947 552.17255
0.34098816 157.57184 552.60596
1.5757446 157.63062 553.99493
3.0840149 157.62323 554.41992
4.591629 157.61592 554.84021
6.0985718 157.60872 555.25592
7.8659973 157.53542 554.70404
9.3690491 157.52844 555.10986
10.871445 157.52158 555.51123
12.626556 157.44861 554.94287
14.125107 157.44196 555.33453
15.623077 157.43541 555.72168
17.365936 157.36281 555.13721
18.860123 157.35646 555.51477
20.353729 157.35022 555.88794
21.846786 157.34409 556.25665
23.104202 157.40414 557.5907
24.59874 157.39819 557.95135
26.092773 157.39232 558.30756
27.358978 157.45264 559.63104
28.405151 157.5791 561.92358
29.461212 157.70561 564.21417
30.307648 157.89822 567.4762
31.169151 158.09088 570.73737
32.045746 158.28357 573.99756
33.149155 158.41028 576.28174
34.262436 158.53703 578.56384
35.385612 158.66385 580.84381
36.92662 158.65872 581.16809
38.668556 158.58771 580.51068
40.206093 158.58276 580.82568
41.547005 158.64389 582.11475
43.473503 158.50719 580.46387
44.816177 158.56848 581.74481
46.352066 158.56387 582.04254
48.259247 158.42749 580.37537
50.155716 158.29121 578.70184
51.860802 158.22098 578.00354
53.738441 158.08492 576.3183
55.078873 158.1467 577.57379
56.769989 158.07672 576.86047
58.114883 158.13866 578.10858
59.632393 158.13475 578.36969
61.314758 158.06505 577.64264
62.991661 157.99542 576.91052
64.343033 158.05765 578.14331
65.856735 158.05405 578.38739
67.679863 157.91879 576.65601
69.035507 157.98123 577.87732
70.695488 157.912 577.12219
72.202896 157.90872 577.34918
73.999161 157.77382 575.59747
75.35891 157.83652 576.80322
76.862961 157.83344 577.0177
78.366791 157.83043 577.22803
80.004623 157.76167 576.44568
81.242027 157.89043 578.62585
82.876846 157.82181 577.83508
84.379753 157.81908 578.02942
86.006424 157.7506 577.22955
87.627747 157.68219 576.42511
89.124893 157.67966 576.60681
90.505592 157.74298 577.77557
92.004921 157.74057 577.94971
93.504082 157.7382 578.11975
94.894508 157.8017 579.27789
96.501854 157.73369 578.44812
98.103882 157.66576 577.61389
99.700607 157.5979 576.77527
101.29205 157.53009 575.93201
102.8782 157.46236 575.08441
104.55217 157.32893 573.23901
106.21573 157.19559 571.38867
107.69292 157.1938 571.52155
109.25539 157.12633 570.65625
110.81258 157.05891 569.78674
112.44481 156.92581 567.91827
114.06664 156.7928 566.04523
115.67809 156.65984 564.16754
117.27916 156.52695 562.28528
118.86985 156.39412 560.39856
120.31531 156.39281 560.49847
121.82555 156.32582 559.59882
123.26826 156.3246 559.69098
124.65117 156.38916 560.77551
126.15344 156.32234 559.86414
127.59592 156.32129 559.94513
129.03831 156.32028 560.02234
130.53012 156.25362 559.09924
132.01671 156.18701 558.17224
133.40944 156.25186 559.23492
134.93256 156.11964 557.30316
136.36694 156.1189 557.36145
137.80128 156.11819 557.41608
139.26965 156.05185 556.46973
140.66983 156.11694 557.51416
142.13298 156.05069 556.56018
143.59096 155.9845 555.60248
145.01997 155.98404 555.63843
146.4702 155.91795 554.67316
147.91525 155.8519 553.70398
149.30684 155.98299 555.72424
150.73575 155.98273 555.74548
152.16466 155.98251 555.76306
153.57672 156.11374 557.77258
155.01073 156.11363 557.78284
156.44801 156.04787 556.79156
157.87872 156.11354 557.79224
159.31273 156.11357 557.7915
160.74232 156.04796 556.78912
162.17377 156.04808 556.78101
163.61478 156.11395 557.76691
165.04881 156.11417 557.75134
166.49754 156.18015 558.7298
167.91696 156.11476 557.70911
169.37086 156.18082 558.68005
170.80757 156.18124 558.64972
172.24429 156.1817 558.61554
173.65356 156.11652 557.58026
175.11787 156.18279 558.53625
176.55472 156.1834 558.49109
177.99161 156.18405 558.44214
179.39079 156.11906 557.3924
180.82523 156.11983 557.33612
182.2597 156.12064 557.27625
183.69426 156.12149 557.21265
185.12888 156.12241 557.1452
186.61415 156.18907 558.0708
188.05147 156.19009 557.99591
189.43314 156.12543 556.92102
190.86804 156.12654 556.83881
192.24216 156.06198 555.7569
193.67467 156.06319 555.66736
195.04128 155.99873 554.57855
196.47141 156.00005 554.48187
198.04388 156.13287 556.37201
199.40565 156.06857 555.27234
200.83865 156.07004 555.16425
202.35062 156.13731 556.04718
203.78641 156.13889 555.93134
205.22232 156.14053 555.81189
206.65836 156.14221 555.68854
208.09454 156.14397 555.56158
209.53084 156.14577 555.43079
210.96729 156.14763 555.2962
212.30704 156.08379 554.16479
213.93999 156.21729 556.00873
215.48141 156.28508 556.85522
216.92358 156.28717 556.70508
218.47305 156.3551 557.54321
219.91814 156.35732 557.38513
221.25113 156.29381 556.23169
222.80882 156.36192 557.05756
224.13705 156.29852 555.89709
225.58029 156.30099 555.72412
227.02371 156.3035 555.54718
228.46735 156.30608 555.36652
230.03888 156.37451 556.17157
231.61575 156.44304 556.97211
233.06516 156.44582 556.77917
234.78561 156.58029 558.55957
236.24063 156.58321 558.35809
237.69589 156.5862 558.15277
239.00824 156.52341 556.95605
240.46143 156.52652 556.74329
241.91484 156.52969 556.52655
243.51941 156.59879 557.29236
244.97594 156.60211 557.06738
246.43274 156.6055 556.83844
248.20703 156.74071 558.57587
249.50841 156.67838 557.35352
250.8049 156.6161 556.12799
252.26289 156.61978 555.88324
253.72119 156.62354 555.63446
255.17981 156.62737 555.38171
256.63873 156.63126 555.12488
258.27466 156.70116 555.84613
259.91614 156.77115 556.56244
261.1994 156.70937 555.31146
262.66235 156.71359 555.03815
264.49963 156.84978 556.72095
265.96844 156.85417 556.43835
267.62982 156.92461 557.13086
269.29675 156.99515 557.81818
270.96927 157.06578 558.50037
272.2475 157.00455 557.22223
273.92603 157.07536 557.89496
275.19992 157.01427 556.6095
276.67679 157.01927 556.29688
278.36441 157.09038 556.95551
279.63187 157.02953 555.65906
281.32559 157.10083 556.30804
282.80688 157.10619 555.97803
284.2887 157.11163 555.64368
285.77097 157.11717 555.30511
287.25372 157.1228 554.96216
288.96552 157.19463 555.5863
290.4519 157.20045 555.23413
291.93884 157.20638 554.87769
293.6626 157.27853 555.48633
295.39209 157.35078 556.08923
296.88593 157.35703 555.71832
298.38031 157.36337 555.34308
300.12192 157.43596 555.93011
301.62012 157.44252 555.54535
303.37073 157.51535 556.12146
304.87274 157.52213 555.72699
306.37537 157.52899 555.328
308.39804 157.66841 556.85126
309.90717 157.67551 556.44177
311.41693 157.68271 556.02765
312.92737 157.69003 555.60895
314.70868 157.76372 556.14618
315.95032 157.70497 554.75763
317.46283 157.7126 554.32501
318.97601 157.72034 553.8877
320.20929 157.66187 552.48816
322.00458 157.73615 552.9989
323.51996 157.74422 552.54742
325.6131 157.88513 554.00159
327.42633 157.95984 554.49335
329.24561 158.03468 554.9787
331.07086 158.10966 555.45752
332.90219 158.1848 555.92987
334.13629 158.12717 554.49347
335.97443 158.20255 554.95428
337.51172 158.21161 554.45905
339.35944 158.28725 554.90741
340.901 158.29654 554.40137
342.75818 158.37245 554.83704
344.30402 158.38199 554.32001
346.49084 158.52473 555.68799
347.72089 158.46794 554.21484
348.94647 158.41122 552.73828
350.82367 158.48779 553.14313
352.37628 158.49788 552.59949
353.92975 158.50806 552.05066
356.15594 158.65169 553.37567
357.71634 158.66211 552.81445
359.27759 158.67267 552.24805
360.8396 158.68329 551.67615
362.74908 158.76077 552.03479
365.01379 158.90511 553.32062
367.28998 159.04962 554.59711
369.57755 159.19431 555.8642
371.87653 159.33916 557.12177
373.10736 159.28369 555.57782
374.69617 159.2951 554.96008
375.92047 159.23975 553.4082
377.508 159.2513 552.7804
379.09619 159.26292 552.14703
380.68506 159.27461 551.50812
382.65033 159.3533 551.7879
384.62158 159.43208 552.05988
386.59869 159.51096 552.3241
388.19781 159.52292 551.65942
391.34344 159.80299 554.66858
392.17578 159.681 552.1507
393.78156 159.6931 551.46686
396.1767 159.83936 552.61023
398.18552 159.91859 552.82794
399.00037 159.79652 550.29541
401.01227 159.87578 550.50067
402.6243 159.88788 549.78607
403.82849 159.83278 548.15533
406.25897 159.97919 549.24945
407.87341 159.99118 548.51678
410.73532 160.20483 550.49921
412.35718 160.21674 549.75171
-88.887344 161.27225 545.11847
-87.694031 161.32994 546.75299
-86.088638 161.31776 547.47339
-84.079178 161.23579 547.27594
-82.877609 161.29329 548.89722
-80.873581 161.2113 548.68622
-78.479095 161.05968 547.55151
-77.275345 161.11711 549.15717
-75.285278 161.03522 548.9234
-72.912994 160.88377 547.76276
-71.707489 160.94122 549.35254
-69.349365 160.78993 548.17505
-67.002365 160.63875 546.98749
-65.421051 160.62679 547.63708
-63.09111 160.47583 546.43188
-61.516251 160.46399 547.06818
-59.572708 160.38275 546.77216
-58.368317 160.44052 548.32416
-56.431412 160.35945 548.01508
-54.861816 160.34792 548.62836
-52.575684 160.19766 547.37433
-51.012787 160.18633 547.97461
-49.097382 160.10571 547.6366
-47.538651 160.09457 548.22516
-45.980698 160.08351 548.80835
-44.423492 160.07256 549.38617
-42.867126 160.06171 549.95874
-41.311523 160.05093 550.526
-39.082016 159.90178 549.21039
-37.53331 159.89127 549.7652
-35.985443 159.88086 550.31482
-34.4384 159.87054 550.85931
-32.565369 159.79117 550.45599
-30.698441 159.71193 550.04578
-28.516083 159.56369 548.68414
-27.301727 159.62302 550.14978
-25.450424 159.5442 549.71979
-23.918762 159.53462 550.22992
-22.698914 159.59424 551.68311
-21.474579 159.65393 553.133
-19.940079 159.64465 553.62994
-18.709442 159.70453 555.07245
-16.573044 159.55743 553.65784
-15.043533 159.54852 554.13922
-13.514771 159.53973 554.61566
-11.401703 159.3931 553.17981
-9.5898285 159.3156 552.69043
-7.7838898 159.23824 552.19458
-5.9839783 159.16103 551.6925
-4.4720917 159.15286 552.14099
-2.9609222 159.14481 552.58478
-1.1736298 159.06799 552.06537
0.059310913 159.12904 553.45819
1.5683899 159.12132 553.88794
3.3457336 159.04488 553.35242
4.3181152 159.17505 555.69495
6.0915222 159.09883 555.14941
7.8590698 159.02274 554.59784
9.3621979 159.01558 555.00391
11.120651 158.93973 554.4411
12.873245 158.86403 553.87244
14.118576 158.92596 555.22913
15.616623 158.91924 555.61646
17.114105 158.9126 555.99921
18.610977 158.90608 556.37762
20.1073 158.89966 556.75153
21.603043 158.89334 557.12109
23.098221 158.88713 557.48627
24.825363 158.81233 556.87683
26.086975 158.87498 558.20337
27.580582 158.86905 558.55536
29.073639 158.86322 558.90308
30.344109 158.92613 560.21899
31.619255 158.98911 561.5318
32.68219 159.12079 563.81525
33.540695 159.32114 567.07104
34.837738 159.38431 568.37616
35.721214 159.58475 571.62903
36.413246 159.85379 575.85687
37.941391 159.84859 576.17853
39.469093 159.84346 576.49585
40.598778 159.97552 578.76416
42.130814 159.97057 579.07385
43.662407 159.9657 579.37933
45.002579 160.02943 580.65967
46.724396 159.95621 579.97736
48.254799 159.9516 580.26996
49.968094 159.87856 579.57764
51.495171 159.87411 579.86121
53.199982 159.80127 579.15894
54.723724 159.79701 579.43372
56.074219 159.86131 580.68671
57.259171 159.99414 582.91943
58.789658 159.99011 583.18286
60.319809 159.98615 583.4422
61.849663 159.98227 583.6972
63.219154 160.04691 584.93286
64.593498 160.11162 586.16522
66.437355 159.97108 584.43744
67.965996 159.96751 584.6759
69.344643 160.03244 585.89648
71.022461 159.9606 585.14032
73.128571 159.68359 581.41779
74.50383 159.74875 582.62567
76.162834 159.67715 581.85455
77.816429 159.60565 581.07861
79.598923 159.46584 579.3092
81.107475 159.46288 579.51239
82.874069 159.32323 577.73285
84.250504 159.38879 578.91681
85.879807 159.31767 578.11761
87.503761 159.24663 577.31372
89.12236 159.17566 576.50531
90.503128 159.24149 577.67389
92.116211 159.17065 576.85687
93.723961 159.0999 576.03534
95.217865 159.09755 576.20087
96.711586 159.09528 576.36255
98.30854 159.02472 575.52802
100.10184 158.81757 572.70392
101.68306 158.74716 571.85999
103.35468 158.60849 570.01849
105.01587 158.46991 568.17224
106.66664 158.33139 566.32111
108.30701 158.19293 564.46521
109.85155 158.12286 563.59863
111.39084 158.05286 562.72778
112.92487 157.98291 561.85272
114.37593 157.98134 561.96808
115.90202 157.91153 561.08484
117.35031 157.91006 561.19244
118.79849 157.90865 561.29626
120.38145 157.77071 559.40558
121.88918 157.70113 558.50598
123.32938 157.69989 558.59808
124.76949 157.6987 558.6864
126.26669 157.62927 557.77496
127.70408 157.6282 557.85565
129.1414 157.62717 557.93262
130.57864 157.62619 558.00592
132.01582 157.62527 558.0755
133.45294 157.6244 558.1413
134.93178 157.55531 557.20667
136.40543 157.48627 556.26807
137.83725 157.48555 556.32257
139.3031 157.41661 555.37628
140.73225 157.41602 555.4234
142.16139 157.41544 555.46667
143.59048 157.41492 555.50635
145.01955 157.41446 555.54236
146.46982 157.34578 554.57721
147.89626 157.34543 554.60577
149.30655 157.41336 555.62817
150.73552 157.41312 555.64948
152.15349 157.48116 556.66461
153.57657 157.54926 557.67615
155.01064 157.54913 557.68646
156.44469 157.54907 557.69305
157.87874 157.54904 557.69592
159.31277 157.54907 557.69507
160.74684 157.54916 557.69055
162.18091 157.54929 557.68237
163.61497 157.54947 557.67047
165.04907 157.5497 557.65491
166.48317 157.54997 557.63568
167.9173 157.55029 557.61267
169.35146 157.55067 557.586
170.78564 157.5511 557.55566
172.21985 157.55157 557.52161
173.65411 157.55211 557.48395
175.11847 157.62096 558.43964
176.55536 157.62158 558.39441
177.99231 157.62227 558.34552
179.39154 157.55472 557.29596
180.82602 157.5555 557.23969
182.26056 157.55634 557.17969
183.69516 157.55721 557.11603
185.12982 157.55814 557.04865
186.56454 157.55913 556.9776
188.05252 157.62845 557.89911
189.43423 157.56125 556.82434
190.81088 157.49411 555.74615
192.24336 157.4953 555.6604
193.67593 157.49655 555.57092
195.04257 157.42955 554.48218
196.47275 157.43089 554.38544
197.97417 157.5006 555.28009
199.4071 157.50204 555.17566
200.84018 157.50357 555.06757
202.35217 157.57344 555.95026
203.78802 157.57507 555.83447
205.224 157.57675 555.7149
206.57355 157.51018 554.59772
208.0072 157.51196 554.47083
209.44099 157.51381 554.34027
210.87492 157.51572 554.20593
212.30901 157.51767 554.06787
213.84262 157.58803 554.91864
215.38153 157.65845 555.7652
216.92572 157.72893 556.60736
218.36813 157.73114 556.45337
219.81071 157.73341 556.29559
221.36571 157.80409 557.12524
222.69638 157.73813 555.96851
224.13948 157.74059 555.79919
225.70276 157.81146 556.61652
227.14882 157.81406 556.43927
228.7202 157.88507 557.24799
230.16925 157.88779 557.06268
231.74878 157.95895 557.86267
233.20084 157.96182 557.66937
234.78851 158.03313 558.46051
236.10562 157.96773 557.271
237.69891 158.03918 558.05365
239.01135 157.97391 556.85706
240.31886 157.90868 555.65723
241.91808 157.98036 556.42743
243.37183 157.98369 556.20673
244.82585 157.98709 555.98206
246.43619 158.05901 556.73883
248.05194 158.13101 557.49091
249.51199 158.13464 557.2536
250.64479 158.00143 555.04407
252.2666 158.07367 555.78333
253.72498 158.07753 555.53448
255.18367 158.08145 555.28162
256.46857 158.01697 554.04236
258.45538 158.22653 556.72754
259.92023 158.23071 556.46173
261.20361 158.16646 555.21088
262.85101 158.23932 555.91785
264.50397 158.31226 556.61975
265.97284 158.31677 556.3371
267.63434 158.38991 557.0293
269.30136 158.46313 557.71637
270.97397 158.53647 558.39825
272.65219 158.60992 559.07495
273.93091 158.54633 557.79266
275.41 158.55136 557.48358
276.68182 158.48792 556.19452
278.36954 158.56174 556.85284
279.63705 158.49844 555.55646
281.11539 158.50385 555.23114
282.59418 158.50934 554.90149
284.51483 158.65222 556.51349
285.77652 158.58926 555.20184
287.2594 158.59505 554.85883
288.97125 158.6696 555.4826
290.68881 158.74426 556.10077
291.94476 158.68167 554.77368
293.66864 158.75658 555.38202
295.15939 158.76288 555.01611
296.89215 158.838 555.61371
298.38663 158.8445 555.23822
299.88171 158.85112 554.8584
301.62662 158.92657 555.43994
303.37738 159.0022 556.01581
304.87952 159.00914 555.62122
306.63931 159.08499 556.18591
308.66473 159.22977 557.70795
309.91425 159.16826 556.33508
311.68909 159.24449 556.88263
313.20221 159.25201 556.46301
314.44586 159.1908 555.07849
315.95779 159.19852 554.65033
317.4704 159.20636 554.21753
318.70569 159.14542 552.8219
320.2171 159.15347 552.38055
321.72922 159.16162 551.93439
323.24207 159.16991 551.48352
325.3327 159.31621 552.93787
327.14346 159.39371 553.43011
329.25397 159.54034 554.8692
330.78296 159.54913 554.39514
332.61179 159.62708 554.86792
334.44662 159.70515 555.33411
335.67896 159.64528 553.89362
337.52066 159.72362 554.34821
339.36847 159.80211 554.7962
340.91013 159.81165 554.28992
343.08228 159.95952 555.67188
344.94833 160.03845 556.09955
346.18024 159.97923 554.63055
347.73047 159.98924 554.10217
349.28156 159.99939 553.56866
350.17737 159.87123 551.14575
352.38617 160.01999 552.48621
353.93976 160.03044 551.93719
355.83008 160.11026 552.32227
358.06519 160.25949 553.63849
359.28787 160.20105 552.13342
360.50607 160.14265 550.62494
362.41296 160.22298 550.98407
364.32593 160.30344 551.33582
366.59686 160.45338 552.61365
369.23383 160.67288 554.81458
371.53024 160.8232 556.07251
372.75845 160.7654 554.52954
375.0697 160.91597 555.77136
375.56635 160.71939 552.36176
377.15128 160.73122 551.73474
379.10739 160.81261 552.02844
380.69629 160.82458 551.38928
382.66168 160.90616 551.66864
384.63293 160.98784 551.94019
385.84772 160.93044 550.36017
388.20926 161.08185 551.53906
390.58191 161.23337 552.70782
391.7981 161.17606 551.1109
393.79303 161.25807 551.34534
396.18817 161.40982 552.48804
397.79984 161.42224 551.79028
399.41168 161.43465 551.08691
401.02368 161.44705 550.37781
402.63568 161.45941 549.66302
404.24774 161.47174 548.94263
405.85965 161.48402 548.21661
408.29785 161.63589 549.30078
410.74646 161.78778 550.37451
412.36816 161.79991 549.62671
-90.134552 163.05371 547.71594
-87.705429 162.89655 546.62543
-85.693436 162.81174 546.43524
-84.494629 162.87164 548.06097
-82.889175 162.85913 548.77032
-80.087967 162.62967 546.73126
-78.490723 162.61719 547.42584
-76.893692 162.60469 548.11481
-74.906311 162.51994 547.88043
-73.312515 162.50748 548.55701
-71.719086 162.49504 549.22797
-69.7435 162.41045 548.97223
-67.773697 162.32593 548.70868
-65.43248 162.16934 547.51404
-63.477066 162.08502 547.23389
-61.527527 162.00079 546.94598
-59.583969 161.91667 546.65051
-58.012939 161.90471 547.27496
-56.442566 161.89281 547.89392
-54.511597 161.80896 547.5777
-52.945282 161.79726 548.18475
-51.023712 161.71364 547.85461
-49.1082 161.63016 547.51703
-47.90004 161.69067 549.03955
-45.991333 161.60739 548.68921
-44.434097 161.59618 549.2674
-43.220291 161.65692 550.77679
-41.321945 161.57401 550.40765
-39.09227 161.41937 549.09259
-37.543503 161.4086 549.64771
-35.663422 161.32611 549.25702
-34.118927 161.31555 549.80078
-32.248413 161.23334 549.39697
-31.032349 161.29478 550.8728
-29.168732 161.21281 550.45685
-27.630127 161.20273 550.97925
-25.776077 161.12105 550.55054
-24.555313 161.18289 552.00867
-22.708145 161.10147 551.56818
-21.1754 161.09186 552.06952
-19.949127 161.15399 553.51526
-18.415314 161.14459 554.00751
-16.281403 160.99211 552.59265
-15.052216 161.05457 554.02527
-13.22818 160.97395 553.54919
-11.117599 160.82193 552.1131
-9.308197 160.74164 551.62329
-7.5047913 160.66148 551.12708
-5.7073517 160.58148 550.62451
-4.197998 160.57312 551.07245
-2.6893158 160.56487 551.51563
-1.1813812 160.55673 551.9541
0.32585144 160.54871 552.388
2.1040344 160.46936 551.85736
3.3383026 160.533 553.24164
4.8435059 160.52531 553.66156
6.348053 160.51775 554.07684
7.8519287 160.51028 554.48761
9.3551788 160.50293 554.8938
11.113724 160.42432 554.33136
12.613113 160.41719 554.72778
14.111862 160.41019 555.11975
15.610016 160.40327 555.50714
17.10759 160.39647 555.89014
18.847488 160.31847 555.30121
20.341278 160.31189 555.67468
21.834534 160.3054 556.04364
23.562317 160.22777 555.43896
24.819366 160.29276 556.76849
26.310959 160.28659 557.12445
27.802063 160.28052 557.47595
29.067902 160.34576 558.79498
30.338448 160.4111 560.1109
31.833206 160.4053 560.45068
32.893616 160.54199 562.73328
34.392593 160.53638 563.06561
35.467598 160.6732 565.34314
36.552536 160.81009 567.61853
37.440804 161.01819 570.86774
38.752121 161.08401 572.16315
40.068161 161.14993 573.45538
41.388954 161.21593 574.74438
42.714516 161.28198 576.03009
44.238426 161.27701 576.33417
45.379913 161.41434 578.5918
46.908188 161.40952 578.88837
48.436096 161.4048 579.18054
50.146904 161.32907 578.48798
51.490776 161.3956 579.7522
53.195671 161.32007 579.05023
54.719521 161.31569 579.32501
56.070068 161.38245 580.57794
57.255081 161.52032 582.81042
58.953423 161.44514 582.09076
60.481087 161.44109 582.34967
62.171051 161.36609 581.62024
63.535469 161.43321 582.85486
65.062187 161.4294 583.10132
66.743507 161.35464 582.35815
68.114769 161.422 583.58167
69.640633 161.41841 583.81561
71.31337 161.34392 583.0589
73.125267 161.19852 581.3103
74.642593 161.19519 581.53082
76.299095 161.12094 580.75952
77.813347 161.11775 580.9715
79.730171 160.90176 578.21429
81.236252 160.89873 578.41705
82.871216 160.82483 577.62671
84.374252 160.82193 577.82117
86.001053 160.74818 577.02191
87.622513 160.6745 576.2179
89.238617 160.60091 575.40936
90.733131 160.5983 575.58685
92.341133 160.52484 574.76947
94.054916 160.38055 572.95636
95.541168 160.37816 573.12109
97.133209 160.30493 572.29022
98.823349 160.16086 570.46265
100.50305 160.01686 568.63019
102.36884 159.73116 564.80756
104.02253 159.58731 562.96472
105.6658 159.44356 561.11713
107.29865 159.29987 559.26477
108.74513 159.29803 559.39484
110.10606 159.36713 560.51501
111.55486 159.3654 560.63776
113.00352 159.36372 560.75677
114.37437 159.43298 561.86639
115.90052 159.36057 560.9834
117.34886 159.35905 561.091
118.8671 159.28674 560.19989
120.44755 159.14363 558.30939
121.88789 159.1423 558.40521
123.39045 159.07018 557.50171
124.82805 159.06897 557.5899
126.26557 159.06781 557.67444
127.70302 159.0667 557.75513
129.14038 159.06564 557.83215
130.57768 159.06465 557.90552
132.01492 159.06371 557.97504
133.49643 158.99196 557.04437
134.97275 158.92027 556.10974
136.44388 158.84865 555.17133
137.87318 158.84793 555.22577
139.30244 158.84724 555.27649
140.73166 158.84662 555.32355
142.1319 158.91687 556.36401
143.58998 158.84552 555.40662
145.01909 158.84503 555.44263
146.44818 158.8446 555.47485
147.8959 158.77341 554.50616
149.30626 158.84392 555.52844
150.72173 158.91447 556.54712
152.15329 158.91425 556.5647
153.58484 158.91408 556.57867
155.01054 158.9848 557.58636
156.44792 158.91389 556.59546
157.87874 158.98471 557.59583
159.31284 158.98474 557.59503
160.74695 158.98482 557.59052
162.18106 158.98495 557.58228
163.61519 158.98514 557.57043
165.03722 158.91454 556.55743
166.48347 158.98566 557.53552
167.90042 158.91516 556.5152
169.33206 158.91554 556.48859
170.7861 158.98682 557.45551
172.22037 158.9873 557.42151
173.62717 158.91701 556.3866
175.089 158.98845 557.34229
176.52339 158.98907 557.29712
177.95782 158.98978 557.24823
179.43007 159.06137 558.19244
180.82683 158.99133 557.13947
182.26143 158.99219 557.07953
183.69608 158.99309 557.01581
185.13078 158.99403 556.94843
186.56557 158.99506 556.87732
188.05359 159.06696 557.79852
189.43536 158.99722 556.724
190.81207 158.92755 555.646
192.2446 158.92877 555.56018
193.6772 158.93004 555.47064
195.10991 158.93137 555.37738
196.54271 158.93275 555.2804
198.04675 159.00507 556.17462
199.55603 159.07742 557.06476
200.918 159.00812 555.96173
202.35379 159.00974 555.84961
203.7897 159.0114 555.73376
205.22572 159.01312 555.61414
206.57532 158.94402 554.49707
208.00903 158.94586 554.37024
209.44289 158.94775 554.23956
210.97113 159.0206 555.09827
212.311 158.95172 553.96704
213.84468 159.02469 554.81769
215.38365 159.09773 555.664
216.82339 159.09995 555.51404
218.37039 159.17313 556.35193
219.92271 159.24637 557.18549
221.36807 159.24875 557.02344
222.69882 159.1803 555.86682
224.2594 159.25375 556.68811
225.70532 159.25632 556.51459
227.15146 159.25897 556.33728
228.7229 159.33264 557.14575
230.17201 159.33543 556.96039
231.75162 159.40924 557.76019
233.33656 159.48312 558.5553
234.65607 159.41516 557.36945
236.10864 159.41824 557.16827
237.70203 159.49234 557.95068
239.01453 159.42458 556.75415
240.46782 159.42786 556.54126
241.92139 159.43118 556.32434
243.37521 159.43462 556.10358
244.8293 159.43811 555.87891
246.4397 159.5127 556.63544
248.05557 159.58736 557.38727
249.51566 159.59108 557.14978
250.81229 159.52386 555.92444
252.43678 159.59879 556.66309
253.72888 159.53169 555.4306
255.18762 159.53572 555.17761
256.82083 159.6109 555.90283
258.45953 159.68617 556.62311
259.74518 159.61938 555.37592
261.38974 159.69482 556.08716
262.85541 159.69928 555.81305
264.50842 159.77492 556.51465
266.16699 159.85066 557.21118
267.83115 159.9265 557.90259
269.30609 159.93132 557.6106
270.97882 160.00737 558.29224
272.45715 160.01236 557.99139
273.93591 160.01746 557.6864
275.20993 159.95148 556.40106
276.68698 159.95676 556.08826
278.37482 160.03329 556.74628
279.85535 160.03876 556.42444
281.12082 159.97311 555.12445
282.81781 160.04996 555.76807
284.52045 160.12692 556.40619
285.5589 159.99033 554.12244
287.2652 160.0675 554.75146
288.97717 160.14479 555.37494
290.46375 160.15094 555.02258
291.95087 160.15718 554.66577
293.43854 160.16354 554.30469
294.92679 160.17 553.93927
296.89856 160.31915 555.50488
298.39313 160.32585 555.12933
300.13501 160.40396 555.71582
301.63336 160.41087 555.33063
303.13232 160.41789 554.94104
304.6319 160.42502 554.54694
306.38925 160.50362 555.112
307.8927 160.51097 554.70813
309.92151 160.66124 556.22437
311.43146 160.66882 555.80988
312.94214 160.67654 555.39093
314.72366 160.75581 555.92737
315.96548 160.69231 554.53894
317.47821 160.70035 554.10596
319.26965 160.78 554.62622
320.50574 160.7168 553.22595
322.0206 160.72519 552.77881
323.82208 160.80522 553.28253
325.34106 160.81387 552.8252
327.15192 160.8942 553.31702
329.26257 161.0462 554.75549
330.79169 161.05525 554.28125
332.62061 161.13602 554.75366
333.85226 161.07367 553.31805
335.38373 161.08307 552.82904
337.22293 161.16422 553.28418
338.75861 161.17386 552.78436
340.29514 161.18361 552.27966
342.77695 161.40858 554.60913
344.6405 161.49036 555.03729
345.86987 161.42877 553.56915
347.41757 161.43904 553.04144
348.96613 161.44943 552.50867
350.84351 161.53171 552.91266
352.72699 161.61414 553.30957
354.61667 161.69672 553.69946
356.84839 161.85129 555.0213
358.75293 161.93417 555.39594
359.2984 161.72966 552.0144
361.54855 161.88467 553.3147
363.46347 161.96793 553.67035
365.03528 161.97937 553.08447
367.31165 162.13484 554.35968
369.59946 162.29048 555.62543
371.18423 162.30229 555.01923
372.76971 162.31418 554.40747
374.71851 162.39819 554.71942
375.5777 162.26616 552.23938
377.53058 162.35034 552.53925
379.1189 162.36255 551.9054
381.08102 162.44693 552.19092
383.04913 162.53142 552.46869
384.64459 162.54384 551.81592
386.2406 162.5563 551.15759
388.22095 162.64101 551.41406
389.82062 162.65356 550.74335
391.80984 162.7384 550.98523
393.80478 162.82329 551.21918
395.80542 162.90823 551.44525
398.2088 163.06552 552.57813
399.8233 163.07822 551.87329
400.63278 162.9462 549.33777
402.64734 163.03117 549.53528
403.85138 162.97136 547.90454
406.28171 163.12869 548.99731
408.72253 163.28604 550.07965
411.17377 163.44339 551.15155
412.79803 163.45578 550.40234
-89.7341 164.55096 546.67493
-88.53566 164.61334 548.31183
-86.518433 164.52567 548.12457
-84.506409 164.43797 547.92926
-82.098389 164.27534 546.81305
-80.897018 164.33749 548.42871
-78.106613 164.10004 546.38025
-76.512253 164.08728 547.0683
-75.308792 164.1494 548.66827
-72.936447 163.98698 547.50897
-71.345688 163.97429 548.17908
-69.755341 163.96162 548.84357
-67.405563 163.79945 547.65851
-65.821503 163.7869 548.30963
-64.237961 163.7744 548.9552
-62.283035 163.68724 548.66992
-60.334076 163.60019 548.37701
-58.75766 163.58791 549.00385
-56.817963 163.50105 548.69672
-55.245544 163.48892 549.31152
-52.956573 163.3277 548.05988
-51.034897 163.2412 547.73016
-49.119324 163.15485 547.39313
-47.560425 163.14313 547.98212
-45.654266 163.05701 547.63123
-44.444962 163.12003 549.14417
-42.888382 163.10861 549.71716
-41.332626 163.09731 550.28491
-39.777664 163.08612 550.84741
-37.888718 163.0006 550.46521
-36.337997 162.98962 551.01624
-34.788116 162.97878 551.56207
-32.585358 162.81931 550.21838
-31.366577 162.88306 551.69519
-29.178665 162.72391 550.33667
-27.32103 162.63924 549.91431
-25.785797 162.62903 550.43097
-24.251282 162.61893 550.94244
-22.406631 162.53468 550.50146
-21.184753 162.59909 551.95056
-19.958405 162.66357 553.3963
-18.424469 162.65393 553.88873
-16.590881 162.57022 553.42535
-15.061157 162.56084 553.90717
-13.237 162.47742 553.43152
-11.711411 162.46828 553.90265
-9.6067047 162.311 552.46075
-7.8005524 162.22803 551.96576
-6.2850952 162.2193 552.4201
-4.4882813 162.1366 551.91327
-2.9768677 162.12811 552.35736
-1.4661865 162.11975 552.79675
0.043762207 162.11151 553.23157
1.8246765 162.02936 552.70209
3.330658 162.02136 553.12683
4.835968 162.01347 553.54688
6.3406067 162.00571 553.9624
7.8446198 161.99805 554.37329
9.6065216 161.91653 553.81647
11.106613 161.90912 554.21759
12.606094 161.90181 554.6142
14.104965 161.89461 555.00623
15.603226 161.88753 555.3938
17.100891 161.88054 555.77692
18.840912 161.79977 555.18835
20.094498 161.8669 556.52985
21.828156 161.78638 555.93115
23.085815 161.8537 557.26508
24.813187 161.77341 556.65631
26.304886 161.76707 557.01233
27.796066 161.76083 557.36401
29.061996 161.82852 558.68304
30.554771 161.82248 559.02655
31.827477 161.89034 560.33875
33.104919 161.95825 561.64764
34.601379 161.9525 561.97961
36.097404 161.94682 562.30713
37.592949 161.94125 562.63043
38.674896 162.08327 564.90082
40.378716 162.00415 564.24048
41.67411 162.07257 565.52838
42.77549 162.21478 567.79022
44.083 162.28336 569.07227
45.588921 162.27831 569.37268
46.330254 162.56808 573.58423
47.845703 162.56319 573.87836
49.360779 162.55838 574.16815
50.692184 162.6273 575.43402
52.209076 162.62267 575.71594
53.903709 162.54448 575.01245
55.241783 162.61365 576.26715
56.584656 162.68291 577.51868
57.932365 162.75223 578.76691
59.284912 162.82161 580.01178
60.972687 162.74387 579.28644
62.492371 162.73981 579.53992
64.011749 162.73582 579.78931
65.530823 162.73192 580.03448
67.049576 162.72812 580.2757
68.720375 162.65082 579.5271
70.236015 162.64716 579.75946
71.898521 162.57002 579.00146
73.555611 162.49298 578.23871
75.207298 162.41602 577.47089
76.714142 162.41269 577.68591
78.357597 162.33591 576.90906
79.995659 162.25919 576.12744
81.496635 162.2561 576.32965
83.126534 162.17955 575.53888
84.751045 162.10309 574.74353
86.370209 162.0267 573.94348
88.105431 161.87689 572.14893
89.711304 161.80067 571.33942
91.195602 161.79802 571.51575
93.020767 161.57497 568.71582
94.608093 161.49898 567.89233
96.29863 161.34958 566.07306
97.978729 161.20026 564.24878
99.544968 161.12451 563.41144
101.20674 160.97534 561.57751
102.85808 160.82626 559.73877
104.21191 160.89764 560.87317
105.75697 160.82217 560.01855
107.29677 160.74675 559.15948
108.65532 160.81833 560.28302
110.10429 160.81648 560.40961
111.63599 160.74127 559.53857
113.08214 160.73956 559.65741
114.45048 160.81134 560.76666
115.97413 160.73631 559.88361
117.41995 160.73477 559.99115
118.93569 160.65987 559.09998
120.44618 160.58501 558.20477
121.95145 160.51022 557.30548
123.45151 160.4355 556.40204
124.88659 160.43427 556.49017
126.32159 160.43307 556.57446
127.75653 160.43195 556.65509
129.13934 160.50427 557.72797
130.57671 160.50325 557.80127
132.01399 160.50229 557.87079
133.45122 160.50137 557.93671
134.97192 160.35367 556.00598
136.44312 160.27946 555.06775
137.83583 160.35213 556.11884
139.30179 160.27802 555.17291
140.73105 160.27737 555.22003
142.13135 160.35019 556.26025
143.58948 160.27625 555.3031
145.01865 160.27576 555.33911
146.44777 160.27533 555.3714
147.89555 160.20154 554.40289
149.30597 160.27461 555.42505
150.72148 160.34773 556.44348
152.15309 160.3475 556.46106
153.57628 160.42073 557.47223
155.01044 160.42061 557.4826
156.4446 160.42053 557.48914
157.87874 160.42052 557.492
159.31105 160.34715 556.4939
160.74265 160.34723 556.48938
162.18121 160.42078 557.47852
163.60585 160.34756 556.46936
165.04959 160.4212 557.45099
166.4838 160.42149 557.4317
167.90079 160.34845 556.41162
169.31267 160.27544 555.38788
170.76419 160.34929 556.35468
172.19595 160.34979 556.32062
173.62773 160.35034 556.2829
175.08963 160.42435 557.2384
176.52406 160.42502 557.19324
177.99374 160.49913 558.14105
179.39308 160.42648 557.09174
180.82767 160.42731 557.03552
182.21941 160.35477 555.97913
183.65155 160.3557 555.91553
185.13177 160.4301 556.84442
186.51601 160.3577 555.77722
188.00153 160.43222 556.69849
189.43651 160.43336 556.61987
190.81326 160.36115 555.54205
192.24585 160.3624 555.45618
193.74196 160.43713 556.36188
195.11128 160.36507 555.27338
196.54413 160.36649 555.17633
198.11937 160.51483 557.06512
199.48386 160.44293 555.96576
200.91959 160.44452 555.8573
