ply
format ascii 1.0
comment PCL generated
element vertex 1587
property float x
property float y
property float z
element camera 0
property float view_px
property float view_py
property float view_pz
property float x_axisx
property float x_axisy
property float x_axisz
property float y_axisx
property float y_axisy
property float y_axisz
property float z_axisx
property float z_axisy
property float z_axisz
property float focal
property float scalex
property float scaley
property float centerx
property float centery
property int viewportx
property int viewporty
property float k1
property float k2
end_header
-84.271088 73.810425 547.98944
-81.86618 73.964981 546.87054
-79.870209 74.043839 546.65552
-78.275238 74.047005 547.34778
-76.287582 74.126114 547.1181
-74.695709 74.129517 547.7981
-73.879318 73.981407 550.31
-71.897858 74.060837 550.06122
-70.304398 74.064529 550.72565
-68.331787 74.144081 550.46246
-66.364944 74.223709 550.19141
-64.029785 74.379143 548.98859
-62.077362 74.458847 548.70111
-60.499756 74.46283 549.33228
-58.556503 74.542603 549.03058
-56.25563 74.698135 547.79297
-54.687912 74.702194 548.4046
-53.120926 74.706268 549.01093
-51.199005 74.786087 548.6803
-49.989075 74.714462 550.20734
-48.424225 74.718575 550.79742
-47.207809 74.646988 552.31671
-44.951782 74.80249 551.02618
-43.734268 74.730896 552.53583
-41.492996 74.886368 551.22974
-39.937271 74.890442 551.79132
-38.382385 74.894493 552.34778
-36.828278 74.898529 552.89899
-34.945801 74.978195 552.50378
-32.742844 75.133484 551.15936
-30.551285 75.288712 549.80621
-28.692291 75.368256 549.38824
-26.839401 75.447754 548.9635
-25.308533 75.451569 549.4776
-24.405197 75.304123 551.88007
-22.249191 75.459122 550.49091
-20.412613 75.538437 550.04181
-19.192993 75.466499 551.48444
-17.363235 75.545731 551.02374
-15.239273 75.700493 549.60559
-14.316879 75.552864 551.98602
-12.794876 75.556366 552.45996
-10.688919 75.710968 551.02234
-8.8839264 75.789932 550.53088
-7.3720093 75.793274 550.98804
-5.2918396 75.947685 549.52893
-3.504715 76.026474 549.01849
-2.0027924 76.029663 549.45917
-0.77813721 75.957291 550.85303
0.99902344 76.035919 550.32642
2.7703094 76.114502 549.79352
3.9981384 76.041977 551.17511
5.4966736 76.044937 551.59265
6.9945679 76.047844 552.00562
8.2308807 75.975204 553.37634
9.9884796 76.053528 552.81781
11.484467 76.056282 553.21722
12.979874 76.059006 553.612
14.975723 76.212646 552.07208
16.216766 76.139778 553.42249
17.707779 76.142349 553.80328
19.683655 76.295822 552.24536
21.16832 76.298279 552.61609
22.652435 76.300705 552.98236
24.60585 76.453995 551.40619
26.08371 76.456329 551.76245
27.56102 76.458603 552.11456
29.264969 76.536285 551.49133
30.514145 76.463028 552.80573
31.768005 76.389732 554.11707
33.465294 76.467278 553.4798
34.723366 76.393906 554.78381
36.6287 76.546783 553.16309
38.100029 76.548752 553.4848
39.570915 76.550674 553.80231
41.041374 76.552567 554.11554
42.71521 76.629822 553.44861
44.383461 76.707047 552.77637
45.847466 76.708801 553.07617
47.311081 76.710526 553.37177
48.774307 76.712204 553.66333
50.428009 76.789246 552.97211
51.511276 76.64006 555.21338
53.161667 76.717026 554.51343
54.623398 76.718567 554.78864
56.08477 76.720062 555.05981
57.367805 76.646133 556.30811
59.181877 76.79834 554.6084
60.294014 76.648964 556.83118
61.926872 76.725708 556.10413
63.386581 76.727028 556.35522
65.176147 76.879066 554.6355
66.630119 76.880325 554.87762
68.243706 76.956924 554.13159
69.851845 77.033478 553.38086
71.609322 77.185364 551.64026
73.051849 77.186493 551.86505
74.494118 77.187584 552.08594
76.083153 77.264008 551.31671
77.522331 77.265045 551.52942
78.819374 77.190689 552.72528
80.12133 77.116318 553.91803
81.564941 77.117279 554.11987
83.142502 77.193558 553.32977
84.583107 77.194458 553.52356
85.894455 77.11998 554.70227
87.590126 77.27153 552.91046
89.027527 77.272354 553.09241
90.343422 77.197815 554.26025
92.0205 77.349274 552.45477
93.454758 77.350021 552.62494
94.88884 77.350746 552.79132
96.433784 77.426788 551.96301
97.86496 77.427475 552.12146
99.295959 77.428131 552.27631
100.83014 77.504105 551.43549
102.1575 77.429382 552.57452
103.58806 77.429977 552.7179
105.11407 77.505882 551.86511
106.44872 77.431107 552.99365
107.96933 77.506973 552.13281
109.48468 77.582817 551.26776
110.82407 77.50798 552.38562
112.33403 77.583786 551.5127
113.75854 77.584244 551.62952
115.10529 77.509361 552.73676
116.53212 77.509781 552.84644
117.95888 77.510193 552.95233
119.31557 77.435249 554.04926
120.81207 77.510941 553.15308
122.23853 77.511292 553.24786
123.72715 77.58696 552.34375
125.15088 77.58728 552.43097
126.57452 77.587585 552.51453
128.05264 77.663193 551.59875
129.47357 77.663467 551.6748
130.845 77.588394 552.74316
132.26837 77.588654 552.81189
133.69168 77.588867 552.87708
135.11491 77.589081 552.93854
136.49893 77.513962 553.99274
137.99786 77.66478 552.05402
139.45244 77.740265 551.10779
140.90184 77.815735 550.15778
142.31717 77.815872 550.20068
143.78516 77.966629 548.24628
145.17149 77.891418 549.27869
146.56293 77.816208 550.3075
147.95946 77.740974 551.33276
149.3611 77.665726 552.35449
150.75432 77.515152 554.36981
152.17972 77.515198 554.38733
153.6051 77.515228 554.40112
155.02463 77.439934 555.40845
156.45584 77.515244 554.41791
157.88193 77.590546 553.42358
159.3029 77.66584 552.4256
160.72314 77.665802 552.42114
162.1434 77.665749 552.41302
163.56366 77.66568 552.40125
164.98395 77.665604 552.38586
166.41891 77.590195 553.36383
167.82457 77.665405 552.34406
169.24492 77.665283 552.31769
170.68764 77.589844 553.28455
172.08569 77.665009 552.25397
173.50613 77.664841 552.21661
174.92661 77.664673 552.1756
176.34714 77.664482 552.13092
177.7677 77.664276 552.08258
179.22604 77.588745 553.02704
180.64928 77.588516 552.97125
182.11543 77.512939 553.90808
183.58679 77.437355 554.84106
185.01532 77.437088 554.77399
186.44392 77.43679 554.70325
187.8726 77.436478 554.62885
189.30136 77.43615 554.55078
190.73019 77.435806 554.46899
192.1591 77.435455 554.38348
193.5247 77.510406 553.29907
195.01718 77.4347 554.20129
196.51489 77.358955 555.09961
197.94675 77.358536 554.99902
199.45233 77.282768 555.88922
200.81075 77.357635 554.7868
202.24292 77.357162 554.67517
203.67519 77.356667 554.55969
205.02367 77.431488 553.4469
206.45363 77.430954 553.32428
208.06181 77.279739 555.1842
209.40555 77.354507 554.06061
211.02686 77.203247 555.91187
212.46506 77.202621 555.77356
213.70474 77.352669 553.64697
215.34189 77.20134 555.48547
216.88501 77.125328 556.32739
218.3264 77.124634 556.17365
219.98715 76.973228 557.99829
221.65836 76.821808 559.81793
223.11055 76.82103 559.65161
224.5629 76.820244 559.48132
225.89557 76.894775 558.31738
227.2233 76.969284 557.15015
228.54608 77.043762 555.97974
229.9915 77.042885 555.79504
231.69751 76.891266 557.5838
233.14853 76.89032 557.39081
234.59975 76.889359 557.19385
236.1891 76.813004 557.98065
237.78384 76.736626 558.76282
239.24092 76.73558 558.55341
240.69826 76.734497 558.34015
242.30403 76.65802 559.10907
243.61368 76.732254 557.90179
244.91847 76.80645 556.69153
246.21835 76.88063 555.47797
247.83038 76.804031 556.23035
249.44785 76.727402 556.97784
250.74344 76.801483 555.7533
252.53287 76.649399 557.47522
253.99533 76.648041 557.22589
255.28668 76.722031 555.99023
256.74719 76.720612 555.73334
258.7377 76.492981 558.41663
259.84836 76.642265 556.18835
261.49417 76.565338 556.89935
263.14554 76.488373 557.60535
264.42865 76.562157 556.34729
265.89642 76.560516 556.065
267.74869 76.40802 557.73578
269.02777 76.481705 556.46637
270.69653 76.404533 557.1488
272.17105 76.402725 556.84912
273.84839 76.32547 557.52161
275.12137 76.399002 556.23724
276.59717 76.397079 555.92511
278.07343 76.395111 555.6087
279.76285 76.317673 556.26227
281.24258 76.315628 555.93683
282.94077 76.238083 556.58032
284.20349 76.311386 555.27338
285.68469 76.309204 554.93524
287.16638 76.306976 554.59277
288.64856 76.304695 554.24609
290.13126 76.302383 553.89502
291.84799 76.224556 554.50909
293.57047 76.146675 555.11755
295.29868 76.068741 555.7204
297.03265 75.990753 556.31757
298.28458 76.063667 554.97528
300.0249 75.985573 555.56232
301.52191 75.982918 555.17798
302.76776 76.055695 553.8244
304.00903 76.128448 552.46765
306.01648 75.974655 553.99817
307.51596 75.971802 553.59595
309.01605 75.968903 553.18921
311.0463 75.814911 554.7005
312.55292 75.811905 554.28314
314.33017 75.733322 554.82111
315.84073 75.730209 554.3938
318.17761 75.500427 556.83704
319.69739 75.497208 556.39807
321.49835 75.418381 556.91138
323.02216 75.415062 556.46222
324.54672 75.41169 556.00836
326.07202 75.408279 555.54968
327.88898 75.329231 556.03998
329.4184 75.325714 555.57092
330.94855 75.322159 555.09692
333.07712 75.167358 556.52075
334.61407 75.163704 556.03534
336.15179 75.160004 555.54504
337.69034 75.15625 555.0498
339.53894 75.076851 555.4975
340.76978 75.148643 554.04437
342.62527 75.069153 554.48035
344.48688 74.989594 554.90961
346.03467 74.985657 554.38745
348.22827 74.830368 555.74731
349.78296 74.826347 555.2132
351.66626 74.746628 555.6156
353.22525 74.742538 555.07025
355.1181 74.66275 555.45947
356.34564 74.734306 553.96381
357.5687 74.805847 552.46472
359.12827 74.801697 551.89929
360.68863 74.797531 551.32861
362.24976 74.79335 550.75262
363.81171 74.789169 550.17133
366.07764 74.63353 551.45087
368.00061 74.553604 551.78882
369.57278 74.549408 551.18848
371.14569 74.545242 550.58258
373.08148 74.465317 550.90027
374.65842 74.461182 550.28247
376.97113 74.305527 551.513
378.9249 74.225655 551.80798
380.88461 74.145821 552.09521
382.85025 74.066017 552.37482
384.44357 74.062057 551.72406
385.65649 74.133972 550.14612
387.24817 74.130157 549.48529
389.22647 74.050598 549.73822
391.21042 73.971138 549.98315
393.59167 73.815918 551.13739
395.5896 73.736633 551.36548
397.98999 73.581604 552.50037
400.00171 73.502548 552.71143
401.21445 73.575317 551.08972
403.63644 73.4207 552.1983
405.25406 73.417946 551.47656
406.46127 73.491241 549.84033
408.90155 73.337151 550.92371
410.93671 73.259117 551.09033
412.55847 73.257195 550.34375
-87.430588 75.658005 542.33093
-87.065033 75.440384 545.77856
-85.870819 75.369461 547.40625
-83.863998 75.44519 547.20667
-81.461609 75.594322 546.08594
-80.662918 75.450645 548.61243
-77.875824 75.673248 546.56042
-75.497818 75.822739 545.41254
-73.911209 75.825882 546.09015
-72.712479 75.755913 547.68109
-70.738937 75.832458 547.42859
-69.535629 75.762688 549.01062
-67.568298 75.839386 548.74481
-65.983704 75.842941 549.39465
-64.025391 75.919754 549.1145
-62.444504 75.923424 549.75208
-60.495316 76.000313 549.45764
-58.552063 76.077225 549.15558
-56.25116 76.22731 547.9173
-55.044434 76.157951 549.45856
-53.116455 76.234917 549.13495
-50.838882 76.385025 547.87213
-49.631607 76.31572 549.39819
-47.71907 76.392693 549.05334
-46.160324 76.39653 549.63599
-44.257248 76.47348 549.27753
-43.045059 76.404198 550.78528
-41.148865 76.481125 550.41437
-40.270035 76.338745 552.85211
-38.378082 76.415634 552.46979
-36.823959 76.419418 553.02075
-34.941544 76.496246 552.62518
-32.738632 76.646118 551.28015
-30.871002 76.72287 550.86969
-28.688202 76.872643 549.50812
-26.835358 76.94931 549.08301
-25.620514 76.879852 550.54291
-24.087845 76.883415 551.05273
-21.934555 77.032997 549.66223
-20.408752 77.036469 550.16046
-18.883713 77.039917 550.65369
-17.05661 77.116325 550.19177
-15.835938 77.046677 551.62549
-14.610794 76.977005 553.05597
-12.791229 77.053284 552.57776
-11.270004 77.056526 553.04669
-9.1701202 77.205688 551.60211
-7.6556244 77.208832 552.05988
-5.5729065 77.35788 550.60107
-3.7832489 77.433891 550.09113
-2.2787018 77.436897 550.53229
-0.77490234 77.43985 550.96887
1.2762146 77.588654 549.48291
2.2306366 77.445618 551.82813
4.0012054 77.521378 551.29034
5.4996948 77.524147 551.70776
6.7339935 77.453941 553.0824
8.2337952 77.456619 553.49139
10.24968 77.605103 551.96924
11.487274 77.534767 553.33179
13.235733 77.610229 552.76184
15.228943 77.758545 551.22064
16.467361 77.68808 552.57043
18.201004 77.763374 551.98383
19.92894 77.838623 551.39136
21.651077 77.913818 550.79327
23.129913 77.916077 551.15826
24.843185 77.99118 550.5495
26.55072 78.066223 549.93518
28.022781 78.068344 550.28595
29.49437 78.070419 550.63232
30.965424 78.072449 550.97449
32.21405 78.001579 552.28473
33.686752 78.00354 552.6189
35.158966 78.005455 552.94891
36.844879 78.080185 552.30066
38.313591 78.082024 552.62164
39.781845 78.083817 552.93848
41.456055 78.158417 552.27545
42.92086 78.160126 552.58337
44.586479 78.23465 551.91034
45.84922 78.163452 553.18683
47.31279 78.165047 553.48242
48.775978 78.166618 553.7738
50.238777 78.168152 554.06116
51.512863 78.096802 555.32397
53.163223 78.171097 554.62372
54.441765 78.099701 555.87927
56.08625 78.173912 555.16992
57.547234 78.175262 555.43701
59.007881 78.17659 555.70001
60.468208 78.177887 555.95898
62.098442 78.251953 555.23126
63.220238 78.107567 557.44812
65.012352 78.254379 555.72833
66.468857 78.255547 555.97089
68.084984 78.329483 555.22504
69.853004 78.476181 553.48962
71.610451 78.622849 551.74854
73.052956 78.623901 551.97321
74.644798 78.697708 551.20801
76.084206 78.698685 551.42456
77.523354 78.699638 551.63727
78.96225 78.700577 551.84607
80.122284 78.555893 554.02618
81.702621 78.62957 553.23999
83.143402 78.630417 553.43762
84.583977 78.631256 553.63135
86.024353 78.632065 553.82117
87.59095 78.705627 553.01788
89.02832 78.706375 553.19989
90.3442 78.634338 554.3678
92.02124 78.780602 552.56195
93.455482 78.781296 552.73206
94.889542 78.781967 552.89838
96.323425 78.782608 553.06097
97.974075 78.928787 551.23688
99.296593 78.856613 552.38306
100.72742 78.857208 552.534
102.1581 78.857765 552.68121
103.58862 78.858322 552.82458
105.019 78.858841 552.96429
106.44925 78.859344 553.10022
107.96985 78.932602 552.23914
109.30934 78.860321 553.36078
110.82454 78.933533 552.49182
112.3345 79.006729 551.61871
113.75897 79.007149 551.73553
115.1057 78.934784 552.84302
116.53253 78.935181 552.95258
118.03177 79.008301 552.06378
119.38588 78.935898 553.16071
120.81242 78.936241 553.25909
122.30368 79.009323 552.35864
123.72748 79.009628 552.44952
125.09149 78.937157 553.53241
126.57481 79.010193 552.62036
128.05292 79.083214 551.70435
129.47383 79.083466 551.78033
130.84525 79.010941 552.84888
132.2686 79.011154 552.91766
133.64758 78.938614 553.97919
135.11511 79.011559 553.04425
136.45995 78.866226 555.09521
137.96141 79.011902 553.15625
139.41855 79.084808 552.20984
140.83902 79.084946 552.25659
142.25946 79.085068 552.29962
143.73256 79.230698 550.34497
145.10022 79.085281 552.37476
146.52057 79.085373 552.4068
147.95953 79.158203 551.43805
149.34506 79.012756 553.45721
150.75436 78.940063 554.47552
152.19072 79.012848 553.49585
153.59671 78.867371 555.50427
155.02464 78.867386 555.51447
156.45256 78.867386 555.521
157.8812 78.940125 554.52655
159.30472 79.012848 553.52838
160.7231 79.085571 552.52655
162.14334 79.085526 552.51843
163.55406 79.158218 551.50934
164.98386 79.085388 552.49121
166.41881 79.012558 553.46942
167.82446 79.085205 552.44946
169.24478 79.085098 552.4231
170.66515 79.084976 552.39307
172.06062 79.157585 551.36243
173.47849 79.15744 551.32507
174.89639 79.15728 551.28418
176.34694 79.084351 552.23639
177.80267 79.011414 553.18481
179.22583 79.011215 553.13275
180.68935 78.938248 554.07355
182.15805 78.865265 555.01044
183.58652 78.865021 554.94708
185.01505 78.864761 554.88013
186.44363 78.864494 554.80945
187.8723 78.864212 554.73499
189.30104 78.863907 554.65698
190.6716 78.936356 553.57953
192.09792 78.936035 553.49414
193.52434 78.935692 553.40515
194.95084 78.935333 553.31244
196.44597 78.862198 554.21106
197.87524 78.861801 554.11078
199.3046 78.861404 554.00665
200.73407 78.860977 553.89899
202.24243 78.787781 554.78174
203.6747 78.787323 554.66632
205.19099 78.714088 555.54102
206.53958 78.786369 554.42432
207.97221 78.785858 554.29773
209.40498 78.785339 554.16742
210.93207 78.712021 555.02618
212.27092 78.784233 553.89545
213.80344 78.710876 554.74622
215.44313 78.564743 556.58478
216.9888 78.491341 557.42676
218.64679 78.345154 559.25586
220.20564 78.271698 560.08887
221.76979 78.198242 560.91736
223.22452 78.197525 560.75073
224.44479 78.342361 558.59937
225.89476 78.341606 558.42566
227.22246 78.413605 557.25836
228.54521 78.485596 556.08777
230.11823 78.411987 556.89233
231.56642 78.411148 556.70355
233.01483 78.410278 556.51093
234.59879 78.336601 557.30249
236.0502 78.335678 557.10175
237.50189 78.33474 556.89709
239.09683 78.260971 557.6756
240.69717 78.18718 558.4494
242.15474 78.186157 558.2323
243.76331 78.112305 558.99707
245.07063 78.184021 557.78619
246.37308 78.255714 556.57214
247.98764 78.18177 557.32434
249.28549 78.253403 556.10327
250.74213 78.252213 555.86279
252.3653 78.178177 556.60175
253.99394 78.104103 557.33588
255.28528 78.175629 556.1001
256.91974 78.101486 556.82532
258.55966 78.027298 557.54565
259.84683 78.09874 556.29865
261.31091 78.097305 556.0293
262.77533 78.095856 555.7558
264.24011 78.09436 555.47827
265.51584 78.165665 554.21753
267.36285 78.01844 555.88965
269.026 77.944 556.57751
270.4975 77.942352 556.28259
271.96942 77.940681 555.98352
273.8465 77.793266 557.63348
275.11945 77.864365 556.34894
276.80276 77.789703 557.01239
278.28156 77.787872 556.69556
279.97354 77.713142 557.34875
281.45584 77.71122 557.02295
283.37445 77.563522 558.63934
284.20132 77.780136 555.38586
285.68243 77.778091 555.04779
287.16406 77.776016 554.70551
288.41791 77.846771 553.388
290.12888 77.771729 554.00793
291.84555 77.696625 554.62231
293.56799 77.621475 555.23114
295.29611 77.54628 555.83417
297.03003 77.471024 556.43164
298.28192 77.541534 555.08929
299.7757 77.539093 554.71027
301.27002 77.536621 554.32672
302.51324 77.606995 552.97375
303.75189 77.677353 551.61761
305.75668 77.528893 553.14941
307.77252 77.380356 554.67395
309.01303 77.450577 553.30432
310.77844 77.374878 553.85461
312.81714 77.226166 555.3598
314.32697 77.223297 554.93726
315.83746 77.22039 554.50995
318.17429 76.998535 556.95404
319.69403 76.995514 556.51526
321.21448 76.992455 556.07178
323.01868 76.916367 556.57983
324.25751 76.986191 555.17053
326.06842 76.910004 555.6676
327.59442 76.906754 555.20428
329.4147 76.83046 555.68927
331.241 76.75412 556.16785
333.37207 76.604706 557.59143
334.91162 76.601265 557.10535
336.75598 76.524765 557.56421
337.99307 76.594269 556.11847
339.53497 76.590706 555.61755
341.38959 76.514069 556.0589
342.62119 76.583481 554.60071
344.1655 76.579819 554.08472
346.35031 76.430008 555.45294
347.90152 76.42627 554.92499
349.45355 76.422493 554.39197
351.66193 76.272537 555.73767
353.55127 76.195625 556.13336
355.44678 76.118668 556.52216
356.67694 76.187881 555.02551
357.90259 76.257095 553.52539
359.46478 76.253189 552.95923
360.68414 76.322403 551.45148
362.24524 76.318481 550.87567
364.50507 76.168297 552.16315
366.77625 76.018082 553.44128
368.70453 75.94101 553.77765
370.63892 75.863914 554.10663
371.8602 75.933151 552.56763
373.43909 75.929245 551.95441
375.01874 75.925362 551.33575
376.599 75.921509 550.71161
378.55014 75.844513 551.008
381.25296 75.621155 553.14679
383.22128 75.544205 553.42566
384.81732 75.540512 552.77399
386.41388 75.536873 552.1167
387.62738 75.606522 550.5332
389.60837 75.529816 550.78534
391.59509 75.453201 551.0296
393.58752 75.376663 551.26599
395.9798 75.226974 552.41064
397.5892 75.223885 551.71503
399.59833 75.147675 551.92761
401.61292 75.071594 552.1322
403.22803 75.068909 551.41736
404.84305 75.066406 550.69684
407.27844 74.917519 551.78894
408.07275 75.061905 549.23914
410.10272 74.986702 549.40851
412.1376 74.911705 549.56989
-87.016205 77.280411 541.54645
-86.653152 77.070366 544.99341
-85.461426 77.001816 546.61993
-82.650024 77.216003 544.59442
-81.458237 77.147766 546.20984
-79.8629 77.150314 546.90741
-77.476654 77.29425 545.76807
-75.887024 77.297035 546.45221
-73.90741 77.37056 546.21277
-72.321014 77.37355 546.88458
-71.119919 77.306015 548.47119
-69.149399 77.379791 548.21161
-67.184677 77.453629 547.94434
-65.979614 77.386322 549.51648
-63.646988 77.530869 548.31122
-62.068787 77.534264 548.94769
-60.122192 77.608292 548.65173
-58.181595 77.682343 548.34827
-56.246994 77.756409 548.03729
-54.679276 77.759933 548.64862
-52.39566 77.904594 547.39264
-50.834671 77.908142 547.99115
-49.274429 77.911713 548.58429
-47.364578 77.985825 548.2381
-45.808441 77.989395 548.81952
-44.253113 77.992966 549.39569
-42.698532 77.996536 549.96655
-41.144745 78.000092 550.53217
-39.591721 78.003647 551.09247
-38.039536 78.007179 551.64764
-36.488144 78.010712 552.19757
-34.279205 78.155182 550.85901
-32.408157 78.229141 550.45416
-30.543213 78.303055 550.04242
-28.04184 78.517883 547.73499
-26.831512 78.450775 549.19824
-25.300751 78.454124 549.7121
-23.770767 78.457443 550.22089
-21.930878 78.531174 549.77686
-20.405106 78.534416 550.2749
-18.574661 78.608063 549.81842
-17.05307 78.611237 550.30573
-15.232056 78.684799 549.83691
-14.012192 78.617462 551.26581
-12.492905 78.620514 551.73865
-10.682007 78.693954 551.25281
-8.8771362 78.767326 550.76068
-7.6523743 78.69986 552.17279
-5.5697021 78.843544 550.71338
-4.0619354 78.846382 551.15997
-2.2756195 78.919571 550.64417
-0.77186584 78.922318 551.08063
0.73118591 78.925034 551.51245
2.5049744 78.99807 550.97974
4.2728424 79.07106 550.44092
5.2363586 78.932915 552.78015
7.0003357 79.005814 552.23145
8.4974823 79.008301 552.63965
10.252365 79.081116 552.07971
11.745667 79.083519 552.47809
13.744583 79.226555 550.94232
15.231461 79.228867 551.33044
16.965683 79.301476 550.7478
18.203461 79.233368 552.09326
19.931305 79.305878 551.50055
21.653397 79.378342 550.90216
22.894699 79.31012 552.23584
24.845413 79.452805 550.65802
26.552872 79.525131 550.04346
27.56546 79.38649 552.33545
29.269333 79.458725 551.71161
30.742935 79.460617 552.05432
31.994133 79.392181 553.36517
33.46936 79.393997 553.69995
34.944122 79.395782 554.03046
36.632584 79.467812 553.38245
38.315414 79.539795 552.72913
39.78363 79.541458 553.04584
41.457817 79.613365 552.38245
43.126389 79.685226 551.71387
44.789375 79.75705 551.03998
46.049477 79.688286 552.31616
47.510437 79.689766 552.61108
48.777519 79.620949 553.88055
50.240273 79.62236 554.16785
51.702652 79.623749 554.45105
53.164665 79.625092 554.73016
54.443184 79.55616 555.98578
56.268173 79.697952 554.29517
57.370605 79.558701 556.52472
59.184578 79.700417 554.82416
60.642296 79.701614 555.08258
62.099686 79.702774 555.33704
63.389099 79.633659 556.57092
65.178589 79.775238 554.85028
66.632484 79.776306 555.09235
68.246002 79.847588 554.34583
69.854088 79.918839 553.59454
71.611511 80.060287 551.85297
73.206154 80.13147 551.09186
74.64579 80.132401 551.31219
76.232193 80.203522 550.54211
77.668739 80.204407 550.75433
78.963165 80.13504 551.95007
80.262489 80.065643 553.14276
81.703476 80.066452 553.34412
83.144249 80.067238 553.54163
84.716393 80.138214 552.74646
86.154152 80.138947 552.93604
87.718163 80.209885 552.1322
89.152946 80.210571 552.31372
90.466217 80.141029 553.48157
92.021935 80.211899 552.66534
93.456146 80.212524 552.83545
94.890198 80.213135 553.00171
96.324051 80.21373 553.16425
97.97467 80.354713 551.33978
99.29718 80.285057 552.48608
100.83131 80.355797 551.64478
102.2594 80.356308 551.79169
103.58915 80.286606 552.92749
105.01952 80.287086 553.06714
106.54279 80.35775 552.20984
107.87983 80.287994 553.33521
109.30978 80.288422 553.46368
110.82497 80.359032 552.59442
112.33492 80.429626 551.72107
113.75938 80.430008 551.83789
115.10608 80.360184 552.94543
116.5329 80.360535 553.05499
118.03212 80.431061 552.16602
119.31627 80.290985 554.25818
120.81274 80.361488 553.36151
122.30399 80.431976 552.46088
123.72776 80.432251 552.55176
125.15146 80.432518 552.63892
126.63219 80.50296 551.72656
128.05316 80.503189 551.80627
129.52606 80.573608 550.88611
130.8949 80.503632 551.95465
132.2688 80.43364 553.01971
133.69208 80.433823 553.08484
135.1153 80.43399 553.1463
136.49928 80.363968 554.20081
137.96158 80.434303 553.25818
139.41869 80.504639 552.31165
140.83914 80.504753 552.3584
142.25957 80.504868 552.40137
143.70631 80.575165 551.44354
145.10031 80.505066 552.47644
146.54187 80.575325 551.51129
147.95961 80.575394 551.53955
149.34512 80.435074 553.55908
150.76794 80.43512 553.58026
152.19075 80.43515 553.59766
153.60515 80.364983 554.60901
155.03049 80.36499 554.61926
156.45256 80.2948 555.62329
157.8819 80.435173 553.63104
159.30284 80.505341 552.63275
160.72746 80.435112 553.62579
162.15027 80.435074 553.61768
163.56354 80.505196 552.60846
164.98378 80.505142 552.59296
166.41873 80.434868 553.57135
167.85881 80.364594 554.54596
169.26447 80.434677 553.52222
170.68738 80.434563 553.49213
172.0854 80.504623 552.46118
173.47833 80.574684 551.4267
174.92627 80.504349 552.38281
176.34677 80.504196 552.33813
177.80247 80.433823 553.2868
179.30112 80.293259 555.22839
180.72945 80.293068 555.17242
182.15784 80.292854 555.11285
183.58627 80.292633 555.0495
184.9668 80.362595 553.98615
186.39281 80.36235 553.91565
187.87202 80.291901 554.83752
189.24506 80.361816 553.76349
190.61302 80.431732 552.68604
192.15842 80.291046 554.59222
193.524 80.360931 553.50757
194.9505 80.360596 553.41486
196.51411 80.219864 555.30878
197.94592 80.219513 555.20831
199.37785 80.219139 555.10419
200.80986 80.218765 554.99622
202.242 80.218361 554.88458
203.67424 80.217941 554.76923
205.1066 80.217514 554.65009
206.45261 80.287262 553.53357
208.06078 80.146393 555.39435
209.58771 80.075722 556.25702
210.93152 80.145432 555.12939
212.46388 80.074707 555.98419
214.00151 80.003967 556.83466
215.44254 80.00341 556.6886
216.98819 79.932632 557.5307
218.64616 79.791626 559.36029
220.09538 79.791016 559.20197
221.7691 79.649963 561.02216
223.10907 79.719528 559.86469
224.44408 79.789078 558.70392
225.89401 79.788376 558.53027
227.22168 79.857887 557.36279
228.54443 79.927376 556.19208
230.1174 79.8564 556.99683
231.56558 79.855637 556.80811
233.14671 79.784607 557.60419
234.5979 79.783783 557.40735
236.04929 79.782944 557.2066
237.50095 79.782074 557.00208
238.95282 79.781181 556.79358
240.55055 79.710037 557.56799
242.15369 79.63887 558.33771
243.61148 79.637894 558.11676
245.06955 79.636902 557.89178
246.52789 79.635872 557.66296
247.98648 79.634827 557.42999
249.2843 79.703987 556.2088
250.74094 79.702881 555.96844
252.03162 79.771996 554.74054
253.65508 79.700592 555.47583
255.11261 79.699402 555.22345
256.74442 79.627937 555.94934
258.55829 79.486176 557.65222
260.02457 79.484886 557.38641
261.30948 79.553825 556.1358
262.95816 79.482216 556.84277
264.23862 79.551102 555.58496
265.51428 79.619949 554.32404
267.36127 79.477966 555.9967
269.02438 79.406219 556.68481
270.49585 79.404701 556.38995
272.16751 79.33287 557.0683
274.04715 79.19072 558.71814
275.32263 79.259369 557.43298
277.00848 79.187416 558.09613
278.48984 79.185699 557.77887
280.18436 79.113678 558.43182
281.66922 79.111893 558.10553
283.15454 79.110062 557.77496
284.41977 79.178513 556.46722
285.90347 79.176605 556.12872
287.38763 79.174675 555.78583
288.87234 79.172699 555.43878
290.35754 79.170677 555.08734
292.07678 79.098312 555.70135
293.56564 79.096207 555.34064
295.05505 79.094063 554.97552
296.78632 79.021553 555.57391
298.52335 78.94899 556.16663
300.01965 78.946716 555.78699
301.76569 78.874054 556.3689
302.76236 79.012375 554.04919
304.00354 79.080338 552.69232
306.01086 78.937195 554.22388
307.2507 79.005051 552.85876
308.74805 79.002533 552.45288
310.77557 78.859222 553.96606
312.54684 78.78624 554.51068
314.05402 78.783569 554.08893
316.10703 78.640099 555.58173
318.1712 78.496559 557.06696
319.69086 78.493744 556.62823
321.4917 78.420486 557.14221
322.73239 78.487976 555.73688
324.25421 78.485031 555.284
325.48849 78.55246 553.87146
327.00922 78.549438 553.40991
329.11771 78.405533 554.85022
330.94128 78.332001 555.3299
332.77094 78.258408 555.8031
334.90799 78.114334 557.22064
336.44827 78.111084 556.72986
337.37598 78.248688 554.33569
339.53119 78.104469 555.73334
341.07385 78.10112 555.22754
342.61731 78.097717 554.7168
344.47882 78.023827 555.14673
346.02649 78.020378 554.62488
347.57504 78.016891 554.09802
349.44952 77.942886 554.50909
351.33008 77.868851 554.91321
353.21674 77.794785 555.31024
355.10953 77.720673 555.70026
356.33704 77.787567 554.20453
357.56006 77.854454 552.70538
359.11957 77.850815 552.14032
360.33624 77.917702 550.63354
362.241 77.843521 550.99432
363.80292 77.839859 550.41345
366.42035 77.624557 552.62762
368.70023 77.479782 553.89789
370.99146 77.334991 555.15869
372.21545 77.401894 553.61871
374.15924 77.327682 553.93402
375.3793 77.394638 552.38507
376.96228 77.391052 551.76007
379.28625 77.246315 552.98206
381.62152 77.101593 554.19421
383.59256 77.027504 554.47241
385.19128 77.024063 553.81982
386.4097 77.091309 552.23962
388.00681 77.088005 551.57697
389.60437 77.084778 550.90869
391.20227 77.08165 550.23468
393.58368 76.937332 551.39008
395.58179 76.863747 551.61884
397.58551 76.79026 551.83978
399.99426 76.64624 552.96667
402.41388 76.502342 554.08331
404.03442 76.499893 553.36621
406.06253 76.426941 553.55402
407.27542 76.495483 551.91522
408.48273 76.564224 550.27313
409.68445 76.633179 548.62793
411.71689 76.560989 548.79083
-87.013626 78.829529 541.66583
-85.832565 78.763168 543.29315
-84.646057 78.696976 544.91742
-83.050583 78.69899 545.6261
-80.65329 78.837234 544.50195
-79.063202 78.839539 545.19708
-77.077698 78.909996 544.9707
-75.490677 78.912521 545.65363
-73.513641 78.983185 545.41266
-72.704987 78.849884 547.92194
-70.346436 78.988739 546.74829
-68.763428 78.991638 547.40771
-67.180893 78.994598 548.06165
-65.598846 78.997635 548.71002
-63.643143 79.068726 548.42804
-62.436462 79.00386 549.99023
-60.118286 79.143021 548.76801
-58.543961 79.146225 549.39227
-56.243042 79.285423 548.15283
-54.675308 79.288681 548.76398
-52.750015 79.359932 548.4386
-51.186386 79.363228 549.03796
-49.623489 79.366531 549.63196
-48.061295 79.369858 550.22052
-46.152222 79.441116 549.86865
-44.249222 79.512367 549.50952
-43.037048 79.447739 551.01733
-41.140884 79.518982 550.64563
-39.250824 79.590195 550.26678
-38.035736 79.525558 551.7608
-35.820755 79.664642 550.42871
-33.94632 79.735786 550.0296
-32.077957 79.8069 549.62354
-30.539536 79.810089 550.15411
-29.001953 79.813263 550.67975
-27.465149 79.816406 551.2002
-25.61319 79.88739 550.76935
-24.080597 79.890488 551.27887
-21.927414 80.029266 549.88727
-20.093613 80.100136 549.43622
-18.571304 80.103111 549.92834
-16.746918 80.173904 549.46484
-15.228775 80.176811 549.94635
-14.008957 80.111847 551.37531
-12.489685 80.114685 551.8479
-10.678864 80.185318 551.36182
-8.8740387 80.255898 550.86938
-7.3622284 80.258621 551.32599
-5.2822571 80.396927 549.86536
-3.4953003 80.467377 549.35394
-1.7142944 80.537766 548.8363
-0.49243164 80.472519 550.22974
1.0079803 80.475029 550.66064
2.5077362 80.477501 551.08691
4.0067749 80.479935 551.50867
5.2390137 80.414536 552.88733
7.0029297 80.484673 552.33838
8.5000458 80.486992 552.74634
10.513199 80.624809 551.22247
12.00383 80.627029 551.62012
13.493866 80.629211 552.01324
15.484344 80.766884 550.4704
16.967972 80.768982 550.85327
18.205704 80.703293 552.19885
20.176224 80.840805 550.63812
21.655563 80.842789 551.00714
23.371841 80.912476 550.40283
25.082397 80.982117 549.79291
26.554932 80.983978 550.14764
27.79718 80.918053 551.46912
29.72554 81.055305 549.87286
30.969391 80.989319 551.18634
32.217934 80.923302 552.49677
33.690544 80.92498 552.83081
35.162674 80.92662 553.16064
36.848495 80.995941 552.51184
38.528687 81.065216 551.85767
39.785294 80.999039 553.14929
41.665825 81.135948 551.50958
42.924164 81.06971 552.7934
44.790909 81.206543 551.1427
46.050995 81.140228 552.41888
47.511917 81.141594 552.71375
48.778969 81.075233 553.98328
50.432564 81.144226 553.29126
51.515739 81.010117 555.53339
53.166 81.079041 554.8327
54.444496 81.012558 556.08844
56.088882 81.081421 555.37866
57.371849 81.014893 556.62726
59.185791 81.151367 554.92627
60.643463 81.152466 555.18463
62.10083 81.153534 555.43903
63.390221 81.086891 556.67297
65.01461 81.155579 555.93585
66.633545 81.224228 555.19391
68.247025 81.292847 554.4472
70.012428 81.429108 552.71039
71.767227 81.565338 550.96808
73.207085 81.566208 551.19232
74.646683 81.567047 551.41266
76.233086 81.635544 550.64221
77.669601 81.636337 550.85443
78.963989 81.56945 552.05035
80.402611 81.570206 552.25519
81.841003 81.570938 552.45618
83.279167 81.571648 552.65332
84.848717 81.639992 551.8576
86.28389 81.640671 552.04669
87.718849 81.641312 552.23199
89.153618 81.641945 552.41345
90.466873 81.574905 553.58142
92.02256 81.643143 552.76501
93.456764 81.643715 552.935
94.890778 81.644264 553.10132
96.435654 81.712448 552.27228
97.86676 81.712959 552.43066
99.297699 81.713455 552.58539
100.83182 81.781578 551.7439
102.15913 81.714401 552.8833
103.49143 81.647217 554.01959
104.92435 81.647644 554.15942
106.35712 81.648064 554.29559
107.88025 81.716103 553.43433
109.3981 81.784126 552.56891
110.74001 81.716858 553.68738
112.33528 81.852493 551.8197
113.75974 81.852829 551.93652
115.10643 81.785522 553.04425
116.53322 81.785835 553.15387
117.95992 81.786133 553.25964
119.31657 81.718796 554.35706
120.81303 81.786697 553.46021
122.23944 81.786957 553.55499
123.72802 81.854843 552.65021
125.2114 81.922699 551.74152
126.63243 81.922928 551.82483
128.05338 81.923141 551.90454
129.47427 81.92334 551.98053
130.84566 81.855896 553.04932
132.26898 81.856071 553.1181
133.64795 81.788612 554.17993
135.11545 81.8564 553.24463
136.5386 81.856537 553.30243
137.99832 81.924301 552.35944
139.41881 81.924416 552.40979
140.87074 81.992157 551.45929
142.25967 81.924622 552.49951
143.68005 81.924713 552.53888
145.10039 81.924805 552.57452
146.54193 81.992485 551.60919
147.95966 81.992546 551.63751
149.36127 81.924973 552.65973
150.78151 81.925011 552.68085
152.20175 81.925034 552.69836
153.61356 81.857422 553.70984
155.0305 81.78981 554.71765
156.45911 81.857437 553.7265
157.88188 81.857422 553.72931
159.30281 81.925026 552.73083
160.71861 81.992622 551.72864
162.13626 81.992584 551.72058
163.55394 81.992523 551.70886
164.97162 81.992462 551.69348
166.41864 81.85714 553.66968
167.84149 81.857071 553.64685
169.26437 81.856964 553.62048
170.68727 81.856873 553.59039
172.06036 81.992004 551.56189
173.4782 81.991882 551.52466
174.92612 81.924133 552.48096
176.3466 81.923981 552.43634
177.83749 81.788574 554.3822
179.33867 81.653152 556.32404
180.72925 81.720596 555.27118
182.15762 81.720413 555.21161
183.58606 81.720215 555.14825
184.96657 81.787628 554.08478
186.44313 81.719788 555.01062
187.92488 81.651917 555.93256
189.30048 81.719315 554.85815
190.72926 81.719048 554.77649
192.15813 81.718781 554.69104
193.58708 81.718498 554.60187
195.01613 81.718201 554.50903
196.51378 81.650269 555.40784
197.94559 81.64994 555.30743
199.45114 81.58197 556.19824
200.80948 81.649261 555.09534
202.24161 81.648895 554.98376
203.67384 81.648514 554.86847
205.10619 81.648132 554.74939
206.53867 81.647728 554.62659
208.0603 81.579666 555.49377
209.58722 81.511597 556.35669
211.02522 81.511147 556.22217
212.46336 81.510681 556.08386
214.00098 81.442551 556.93457
215.64578 81.306763 558.7735
216.98761 81.373894 557.63086
218.53854 81.30571 558.46893
220.20438 81.169861 560.29425
221.54413 81.236938 559.14038
222.87894 81.304001 557.98334
224.44342 81.235733 558.80469
225.77344 81.302765 557.64056
227.22098 81.302124 557.46338
228.5437 81.369102 556.2926
230.11667 81.300766 557.0976
231.5648 81.300064 556.90887
233.1459 81.231682 557.70514
234.46176 81.298584 556.5199
236.04845 81.230164 557.30774
237.50006 81.22937 557.10321
239.09496 81.160889 557.88214
240.54962 81.160057 557.66937
242.15274 81.091522 558.43945
243.45975 81.15831 557.23224
244.91521 81.157394 557.00775
246.37094 81.156464 556.7793
247.82693 81.155502 556.54688
249.28323 81.154518 556.31055
250.57617 81.221176 555.08612
251.86426 81.287811 553.85852
253.48508 81.219086 554.59442
254.76863 81.285675 553.35974
256.56921 81.149193 555.06921
258.38049 81.012665 556.77295
259.84412 81.011497 556.50763
261.48984 80.942596 557.21942
262.95679 80.941345 556.94568
264.23721 81.007774 555.68774
265.7023 81.00647 555.40631
267.3598 80.937447 556.09979
269.02286 80.868378 556.78815
270.6915 80.799278 557.47144
272.36572 80.730133 558.14954
274.0455 80.660957 558.82233
275.52594 80.659454 558.51349
277.00677 80.657913 558.20044
278.69824 80.588623 558.85858
280.39532 80.519287 559.51129
281.45203 80.653084 557.23608
283.15265 80.583679 557.87982
284.41788 80.649673 556.57208
285.67841 80.715668 555.26111
287.38568 80.646141 555.89087
289.09863 80.576576 556.51508
290.35547 80.642441 555.1925
292.30817 80.505058 556.77679
293.56348 80.570854 555.44617
295.05286 80.568878 555.08118
297.02533 80.431343 556.64795
298.52106 80.429276 556.27289
300.01733 80.42717 555.89337
301.51416 80.425018 555.5094
302.75992 80.490601 554.15558
303.7467 80.623932 551.83386
305.49451 80.553886 552.40265
306.98859 80.55159 552.00214
308.74542 80.481468 552.55975
310.50815 80.411301 553.11139
312.27673 80.341072 553.6571
314.05121 80.270798 554.19672
315.8316 80.200485 554.73029
317.8931 80.062302 556.21674
319.68793 79.991882 556.73718
321.20825 79.989227 556.29388
322.72931 79.986534 555.84601
324.2511 79.983795 555.39331
325.77362 79.981018 554.93585
327.58783 79.91037 555.42798
329.40799 79.839684 555.91364
331.23419 79.768936 556.39288
333.66394 79.562454 558.76941
335.20599 79.559464 558.28284
336.44482 79.62429 556.84113
337.98584 79.621239 556.34546
339.52765 79.618156 555.84479
340.75836 79.682907 554.3916
342.61371 79.611877 554.82861
344.15793 79.608704 554.31293
345.703 79.605484 553.79224
347.24884 79.602257 553.26642
348.79553 79.598999 552.73547
350.67078 79.527802 553.14178
352.55212 79.456589 553.54102
354.10651 79.453255 552.9928
355.66174 79.449905 552.43933
357.55615 79.378616 552.81927
358.77466 79.443176 551.31677
360.6759 79.371857 551.68414
362.58331 79.300522 552.04437
364.14783 79.297127 551.46259
366.41632 79.157822 552.7428
369.05042 78.950516 554.94641
370.63055 78.947113 554.34344
372.2114 78.943726 553.73499
373.79297 78.940353 553.12109
375.37527 78.937004 552.50177
377.32581 78.865692 552.80444
378.54187 78.930405 551.24652
381.24469 78.72316 553.38678
382.83759 78.71994 552.74213
384.8092 78.648773 553.01508
386.02499 78.713692 551.43597
388.00299 78.642639 551.69556
389.60059 78.639679 551.0274
391.58746 78.568771 551.2724
393.58002 78.49794 551.50952
395.97244 78.359161 552.65521
398.37579 78.220474 553.79071
400.39044 78.149948 554.00159
402.81281 78.01149 555.11755
404.84103 77.941223 555.31128
406.46704 77.939163 554.5863
407.68277 78.005341 552.94623
409.30585 78.003632 552.21118
410.51312 78.07019 550.56348
412.55109 78.000809 550.72424
-87.834366 80.247711 543.59869
-87.465637 80.052811 547.04901
-85.049622 80.185349 545.94385
-82.644226 80.318024 544.82837
-80.249481 80.450836 543.70251
-79.060181 80.387444 545.31128
-76.679047 80.520493 544.16852
-75.094604 80.522758 544.85016
-73.900589 80.459717 546.44446
-72.70163 80.396759 548.03558
-70.727905 80.464752 547.78204
-69.142212 80.467392 548.4425
-66.797821 80.600922 547.25165
-65.595322 80.538277 548.82275
-63.639557 80.606506 548.54041
-61.689697 80.674759 548.25043
-59.376831 80.808464 547.02551
-57.8078 80.811394 547.64752
-55.512177 80.945129 546.4054
-53.949799 80.948105 547.0144
-52.388062 80.951118 547.61792
-50.471451 81.019516 547.28375
-49.266846 80.957184 548.80896
-47.707321 80.960236 549.39636
-45.453247 81.093979 548.10785
-44.245575 81.031693 549.61896
-43.033401 80.969398 551.12677
-41.137268 81.037788 550.75476
-39.584351 81.040817 551.31488
-38.032196 81.043846 551.86969
-36.149033 81.11219 551.47815
-33.942841 81.245819 550.13763
-32.074509 81.314095 549.7312
-30.536148 81.317039 550.26172
-28.677338 81.385269 549.84235
-27.143204 81.388168 550.36182
-25.609909 81.391037 550.87628
-24.077332 81.39389 551.38562
-21.92421 81.527267 549.99353
-20.398514 81.530052 550.49127
-18.262711 81.663361 549.08411
-16.441025 81.731339 548.61951
-14.925552 81.734009 549.10004
-13.410828 81.736656 549.57574
-11.896866 81.739273 550.04663
-10.383652 81.741852 550.5127
-8.5814514 81.809647 550.01904
-7.0723419 81.812149 550.47479
-5.2794952 81.879852 549.96936
-3.7744141 81.882278 550.41486
-2.27005 81.884674 550.85571
-0.76638794 81.887039 551.29187
1.0105743 81.954575 550.76398
2.2389069 81.89164 552.15033
4.0092926 81.959099 551.61169
5.7737885 82.026505 551.06702
7.0053558 81.96347 552.44116
9.024292 82.095993 550.92279
10.773849 82.163284 550.3609
11.750381 82.034943 552.68683
13.749207 82.167336 551.15002
15.486511 82.234497 550.57196
16.970108 82.23642 550.95477
18.453125 82.238319 551.33313
20.42099 82.370529 549.7713
21.897675 82.372345 550.13959
23.37381 82.37413 550.50354
24.849411 82.37587 550.86316
26.556793 82.442741 550.24805
27.799026 82.37925 551.56952
29.500214 82.446053 550.94452
30.971146 82.447647 551.28644
32.663528 82.514366 550.65118
33.69223 82.385605 552.93085
35.381073 82.452255 552.28656
37.064278 82.518867 551.6369
38.530266 82.520294 551.95709
39.995827 82.521706 552.27307
41.873718 82.653336 550.63239
43.129425 82.589539 551.91583
44.792336 82.655975 551.24146
46.052391 82.592117 552.51776
47.513268 82.593361 552.81256
48.973755 82.594574 553.10327
50.433853 82.595757 553.38995
51.705292 82.531799 554.6524
53.167236 82.532928 554.9314
54.445686 82.468903 556.18732
56.270592 82.600212 554.49585
57.550941 82.536148 555.74408
59.18689 82.60228 555.02454
60.817345 82.668381 554.30005
62.442322 82.734451 553.57068
63.558891 82.605179 555.78748
65.345741 82.736298 554.06561
66.796997 82.73719 554.30713
68.247955 82.738052 554.54474
69.855972 82.803986 553.79303
71.613342 82.934998 552.05066
73.055763 82.935791 552.27521
74.647522 83.001656 551.50928
76.233871 83.06749 550.73871
77.670372 83.068207 550.95087
79.106636 83.068909 551.15912
80.542664 83.069595 551.36353
81.978455 83.070251 551.56409
83.279869 83.005806 552.74963
84.849403 83.071518 551.95367
86.413567 83.137207 551.15326
87.719475 83.072701 552.32806
89.154221 83.073265 552.50946
90.588768 83.073814 552.68713
92.023132 83.074341 552.8609
93.457314 83.07486 553.03088
95.004906 83.140427 552.20581
96.436165 83.140915 552.36792
97.975723 83.206451 551.5343
99.509964 83.271973 550.69647
100.83228 83.207321 551.83929
102.26033 83.207741 551.98608
103.68823 83.208138 552.12921
105.02038 83.143448 553.26178
106.45057 83.143814 553.39764
107.97112 83.209244 552.53595
109.31056 83.144516 553.65808
110.82571 83.209923 552.78851
112.25284 83.210243 552.90912
113.67984 83.210541 553.02612
115.18439 83.275909 552.14447
116.53352 83.211121 553.24884
117.96021 83.21138 553.35468
119.38679 83.211624 553.45685
120.7459 83.146805 554.55084
122.3045 83.277176 552.65417
123.72826 83.27739 552.74506
125.15192 83.277603 552.83221
126.63263 83.342865 551.91949
128.05357 83.343048 551.99915
129.42245 83.27816 553.07159
130.89526 83.343391 552.1474
132.31601 83.343544 552.21606
133.73669 83.343689 552.28101
135.19907 83.40889 551.34528
136.57791 83.343948 552.39996
137.99844 83.34407 552.45392
139.41891 83.34417 552.50427
140.83936 83.344269 552.55096
142.25977 83.344353 552.59399
143.73283 83.474564 550.63818
145.12425 83.409561 551.67145
146.56322 83.474686 550.70569
147.99704 83.539803 549.73633
149.37741 83.409714 551.75641
150.79507 83.409744 551.77747
152.20177 83.344704 552.79272
153.61357 83.279655 553.80438
155.03635 83.279663 553.81458
156.45911 83.279663 553.82104
157.88187 83.279648 553.82385
159.29909 83.474823 550.82941
160.71857 83.409729 551.82288
162.13622 83.409683 551.81476
163.54434 83.474701 550.80524
164.97156 83.409584 551.78766
166.41858 83.279388 553.76422
167.84142 83.279327 553.74139
169.28406 83.214172 554.71277
170.68716 83.279144 553.685
172.06024 83.409172 551.65613
173.50555 83.343994 552.61639
174.92599 83.34388 552.57538
176.37907 83.278687 553.52814
177.83733 83.213486 554.47699
179.30077 83.14827 555.42206
180.68877 83.213173 554.36908
182.11458 83.213005 554.30963
183.495 83.277908 553.24951
184.91837 83.27771 553.18286
186.39235 83.212448 554.10913
187.81841 83.212234 554.03485
189.30023 83.14695 554.95331
190.67075 83.211792 553.87543
192.15787 83.146477 554.78619
193.58681 83.146225 554.69708
194.94989 83.211029 553.60852
196.37643 83.210762 553.51215
197.87418 83.145401 554.40747
199.22986 83.210175 553.30835
200.58049 83.274933 552.20593
202.16248 83.14447 554.08447
203.51077 83.209213 552.97479
205.02188 83.143784 553.85052
206.45177 83.143425 553.72797
207.97084 83.077972 554.59558
209.49518 83.012512 555.45898
211.02478 82.947037 556.31812
212.55966 82.881538 557.17303
214.09982 82.816025 558.02374
215.64528 82.750488 558.87006
217.09157 82.750023 558.71973
218.75206 82.619385 560.54974
220.20383 82.618881 560.39124
221.54358 82.683449 559.2373
222.9931 82.682922 559.07135
224.3255 82.747452 557.91064
225.65295 82.811974 556.74677
227.0979 82.811394 556.56995
228.54303 82.810791 556.38934
229.98837 82.810181 556.20483
231.56409 82.744453 557.00586
233.14519 82.678703 557.80237
234.59631 82.678024 557.60565
236.04768 82.67733 557.40503
237.35881 82.741707 556.21259
238.95111 82.675873 556.99219
240.25757 82.740211 555.79266
241.85551 82.674332 556.56366
243.45886 82.608429 557.32996
244.91431 82.607605 557.10553
246.37 82.606758 556.87714
247.82599 82.605881 556.64484
249.28223 82.604996 556.40851
250.57516 82.669174 555.18396
251.86322 82.733345 553.95624
253.31522 82.732384 553.70886
254.76753 82.731392 553.45758
256.39413 82.665253 554.18494
257.84967 82.664215 553.92517
259.66382 82.532913 555.62476
261.30688 82.46669 556.33722
262.77124 82.465546 556.06403
264.42279 82.399269 556.76691
265.89044 82.398079 556.48505
267.35846 82.396858 556.1991
269.21613 82.26535 557.86646
270.49286 82.329201 556.59302
272.16446 82.262756 557.27185
274.04401 82.131134 558.92267
275.52441 82.129753 558.61389
277.00522 82.128342 558.3009
278.69662 82.061752 558.95929
280.18094 82.06028 558.63733
281.45035 82.123917 557.33679
283.15091 82.05722 557.98071
284.19562 82.185959 555.69971
285.89972 82.119186 556.33447
287.38382 82.117546 555.99188
288.86841 82.11586 555.64496
290.58441 82.048981 556.26447
292.30618 81.982056 556.87848
293.56146 82.045441 555.54773
295.05078 82.043625 555.1828
296.78198 81.976578 555.78186
298.27502 81.97467 555.40753
299.76862 81.97274 555.02875
301.26282 81.970772 554.64551
302.75763 81.96875 554.25793
303.74445 82.097099 551.93597
305.23523 82.095016 551.54077
307.2457 81.962494 553.06812
308.74298 81.960327 552.6626
310.24091 81.95813 552.25238
312.00684 81.890686 552.79907
313.77866 81.823181 553.33978
315.55637 81.755646 553.87433
317.89038 81.557587 556.32117
319.40735 81.555176 555.88354
320.92505 81.552734 555.44116
322.7265 81.485008 555.95105
323.96259 81.547729 554.54236
325.19415 81.61042 553.13049
327.29395 81.477318 554.57904
329.40497 81.344162 556.01959
331.23108 81.27623 556.49908
333.362 81.142975 557.92426
335.20282 81.074944 558.38989
337.04968 81.006866 558.849
337.9826 81.134598 556.45264
339.83365 81.06646 556.90088
341.37885 81.063568 556.39453
342.92487 81.060654 555.88318
344.15451 81.123016 554.42065
346.01935 81.054733 554.84534
347.24536 81.117065 553.37445
348.79199 81.114044 552.84369
350.66724 81.045692 553.25031
352.54852 80.97731 553.6499
354.43597 80.908905 554.04248
355.99377 80.905807 553.48822
357.89075 80.837357 553.86749
359.11194 80.89959 552.36401
361.01581 80.831116 552.73083
362.23328 80.893341 551.21869
364.1441 80.824844 551.57294
366.06097 80.756363 551.9198
368.3382 80.622482 553.19226
370.62671 80.488594 554.45514
372.20761 80.485474 553.84692
373.78918 80.482376 553.23315
375.73639 80.413902 553.54279
376.95453 80.476257 551.98932
378.53815 80.473244 551.35907
381.24097 80.274048 553.50006
382.83386 80.271103 552.85553
384.80554 80.202789 553.12891
386.78308 80.134537 553.39441
388.38293 80.131767 552.7309
390.75562 79.998199 553.90198
392.36176 79.995575 553.22498
393.57669 80.058487 551.62445
