ply
format ascii 1.0
comment PCL generated
element vertex 1589
property float x
property float y
property float z
element camera 0
property float view_px
property float view_py
property float view_pz
property float x_axisx
property float x_axisy
property float x_axisz
property float y_axisx
property float y_axisy
property float y_axisz
property float z_axisx
property float z_axisy
property float z_axisz
property float focal
property float scalex
property float scaley
property float centerx
property float centery
property int viewportx
property int viewporty
property float k1
property float k2
end_header
31.369713 177.73752 553.65186
33.072464 177.62773 553.02032
34.986595 177.41592 551.41248
36.460899 177.40862 551.74084
38.146622 177.29929 551.09302
39.617409 177.29222 551.41229
41.087738 177.28528 551.72736
42.557617 177.27844 552.03827
43.825562 177.37383 553.31909
45.297157 177.36725 553.62219
46.768349 177.36076 553.92108
48.04541 177.45645 555.19147
49.518364 177.4502 555.4826
51.368057 177.23999 553.81598
52.649078 177.336 555.07513
54.301666 177.22809 554.37561
55.948738 177.1203 553.67096
57.412048 177.11464 553.94
59.050636 177.00711 553.22583
60.683708 176.89969 552.50665
61.970352 176.99634 553.74274
63.429733 176.99109 553.99506
64.888763 176.98596 554.24347
66.184799 177.08287 555.46918
67.645798 177.07794 555.70996
69.106499 177.0731 555.94672
70.566917 177.06837 556.1795
72.027046 177.06375 556.40826
73.4869 177.0592 556.63306
74.946472 177.05478 556.85394
76.405785 177.05043 557.0708
78.006912 176.94432 556.29913
79.602638 176.83832 555.52277
81.192963 176.73242 554.74176
82.643547 176.72847 554.94183
84.09391 176.72461 555.13794
85.673225 176.61902 554.34381
86.99395 176.71718 555.51855
88.56768 176.61177 554.716
89.893127 176.71008 555.88367
91.461304 176.60487 555.07275
92.907829 176.60153 555.24524
94.354156 176.5983 555.41394
95.689117 176.69693 556.56738
97.246262 176.59209 555.73987
98.692047 176.5891 555.89703
100.13766 176.5862 556.05042
101.58311 176.58337 556.20001
103.02841 176.58063 556.3457
104.47356 176.57797 556.48761
105.91855 176.57538 556.62567
107.27281 176.67462 557.75061
108.80812 176.57045 556.89044
110.33817 176.46635 556.02594
111.78003 176.46408 556.14868
113.22179 176.4619 556.26758
114.66343 176.45978 556.38263
116.02977 176.55946 557.48596
117.47375 176.55748 557.59369
118.91762 176.55559 557.69769
120.36139 176.55377 557.79791
121.80507 176.552 557.89429
123.31097 176.44862 556.99414
124.75189 176.44702 557.08289
126.30712 176.24208 555.18158
127.74274 176.24063 555.26257
129.23035 176.13754 554.34631
130.66324 176.13623 554.41968
132.04915 176.23669 555.48303
133.48448 176.23552 555.54907
134.91975 176.23441 555.61139
136.31573 176.33507 556.66406
137.75348 176.33409 556.71899
139.19115 176.33319 556.77026
140.66031 176.23068 555.82343
142.12428 176.12823 554.87274
143.5567 176.12753 554.91266
144.98907 176.12692 554.94885
146.44269 176.02469 553.98688
147.87244 176.0242 554.01556
149.30217 176.02377 554.04065
150.73189 176.02342 554.06201
152.1506 176.12482 555.07446
153.58286 176.12457 555.08838
155.00925 176.2261 556.09351
156.44405 176.22601 556.1001
157.87813 176.32767 557.09778
159.31364 176.22604 556.10217
160.74846 176.22615 556.0976
162.19025 176.328 557.08417
163.63719 176.42992 558.06696
165.06505 176.32855 557.05652
166.50249 176.32893 557.03711
167.93994 176.32939 557.01404
169.37741 176.3299 556.98718
170.79254 176.22881 555.96204
172.22751 176.22946 555.92786
173.66252 176.23016 555.88989
175.09756 176.23094 555.84821
176.56532 176.33348 556.79718
178.00304 176.33441 556.74805
179.4408 176.3354 556.69513
180.87862 176.33646 556.63843
182.3165 176.33759 556.57819
183.75446 176.33879 556.5141
185.19246 176.34004 556.44623
186.68117 176.44308 557.36823
188.17509 176.5462 558.28619
189.61847 176.54767 558.20685
191.0036 176.44753 557.13068
192.44458 176.44916 557.04401
193.94911 176.55255 557.94635
195.39285 176.55432 557.85199
196.90529 176.6579 558.74634
198.42297 176.76154 559.63654
199.87216 176.76353 559.53046
201.39778 176.86734 560.41254
202.84976 176.86949 560.29871
204.30188 176.87172 560.18103
205.75412 176.87402 560.05963
207.2065 176.8764 559.93439
208.659 176.87888 559.8053
210.11166 176.88141 559.67242
211.65877 176.98578 560.52606
213.21117 177.09026 561.37537
214.66942 177.09303 561.23041
216.22986 177.19768 562.07129
217.79559 177.3024 562.90765
219.47383 177.50902 564.7287
221.49178 178.0211 569.51093
223.42331 178.43153 573.29785
225.14584 178.6385 575.10223
226.99634 178.94739 577.88928
228.74246 179.15457 579.68292
230.00861 178.95459 577.52234
231.26471 178.75468 575.35907
232.76624 178.75851 575.1662
234.00732 178.55875 572.99689
234.9725 178.15535 568.85315
236.05283 177.85385 565.69373
236.97983 177.45053 561.54718
237.88647 177.04727 557.39972
238.77275 176.64401 553.25116
239.78445 176.3427 550.08582
240.92935 176.14331 547.90247
242.06421 175.944 545.71686
243.34253 175.84663 544.51172
244.77213 175.85127 544.28595
246.0433 175.7541 543.07434
247.30959 175.657 541.85956
248.73489 175.66191 541.62292
249.99405 175.56499 540.40161
251.4174 175.5701 540.15759
252.66943 175.47334 538.92975
253.74246 175.27469 536.71948
255.15903 175.28008 536.46503
256.75531 175.38757 537.18512
258.1752 175.39319 536.92236
259.96451 175.60295 538.6106
261.76453 175.81287 540.29291
263.19586 175.81883 540.01617
264.62753 175.82492 539.73541
265.86475 175.72906 538.4751
267.29462 175.73537 538.18677
268.52487 175.63969 536.91992
269.75034 175.54413 535.65021
271.38159 175.65285 536.3241
273.22629 175.86385 537.96564
275.08182 176.07501 539.60089
276.94821 176.28635 541.2298
279.04108 176.60002 543.82324
280.27704 176.5052 542.52704
281.72913 176.51266 542.19769
282.95825 176.41805 540.89478
284.18271 176.32353 539.58881
285.6311 176.33133 539.24792
287.31128 176.44153 539.87042
289.46484 176.75638 542.42108
291.39813 176.96918 543.99744
293.8205 177.38675 547.49811
296.50592 177.90688 551.95416
299.21796 178.42728 556.39917
301.9567 178.948 560.83325
305.72 179.8784 569.10779
309.02673 180.60451 575.44092
311.09717 180.81909 576.95184
313.17871 181.03386 578.45514
313.97177 180.73679 575.15009
313.96228 180.13248 568.96613
313.92206 179.52808 562.78589
314.38666 179.12857 558.52576
315.64215 179.0365 557.13855
317.16614 179.04707 556.70477
318.96643 179.16031 557.22198
320.77271 179.27374 557.73303
322.86578 179.4899 559.19183
324.11963 179.39854 557.78235
325.94122 179.51251 558.27502
327.48004 179.52405 557.80933
329.31097 179.63837 558.28979
331.14801 179.75287 558.76379
332.6944 179.76491 558.28174
334.5408 179.87978 558.74335
336.39328 179.99483 559.19824
338.25183 180.11009 559.64648
339.80927 180.12277 559.14191
341.36752 180.13559 558.63214
342.92657 180.14857 558.11737
343.85632 179.95604 555.71051
345.72949 180.07211 556.12988
346.96796 179.98264 554.65881
348.84796 180.09903 555.06598
350.7341 180.21561 555.46619
352.29803 180.22943 554.92035
353.53186 180.14041 553.43121
356.09549 180.46346 555.68701
357.66711 180.47771 555.12347
359.57846 180.59514 555.48975
361.49588 180.71274 555.84875
363.41937 180.83049 556.20044
365.00211 180.84529 555.61243
366.58563 180.86021 555.0191
367.81769 180.77206 553.48999
369.04517 180.68398 551.95752
370.26807 180.59593 550.42163
371.48627 180.5079 548.8822
373.78827 180.72971 550.11786
375.73608 180.8484 550.41876
377.68982 180.96719 550.71191
379.64948 181.08612 550.99744
381.98846 181.30849 552.19708
383.96252 181.42763 552.46606
385.5636 181.44342 551.80756
387.54651 181.56267 552.06195
389.53522 181.68198 552.30853
390.75598 181.59433 550.71454
391.97165 181.50662 549.11725
393.96652 181.62593 549.34467
395.57205 181.64166 548.65125
397.97272 181.86456 549.7757
400.38409 182.08748 550.88989
402.4032 182.20674 551.08429
404.02203 182.22226 550.36255
406.86523 182.5488 552.3562
408.49149 182.5641 551.61957
410.53091 182.68301 551.78204
412.15897 182.69801 551.0332
414.2052 182.81659 551.18085
-91.125854 183.72429 547.43292
-89.511871 183.70911 548.16718
-87.897461 183.69376 548.89587
-86.282761 183.67825 549.61902
-84.667847 183.66263 550.33661
-82.653915 183.54066 550.13776
-81.041473 183.52484 550.8429
-79.035538 183.4028 550.62933
-76.64415 183.17462 549.49359
-74.65181 183.0526 549.263
-72.279495 182.82452 548.10803
-70.683884 182.80865 548.77832
-69.088608 182.79276 549.44299
-67.116165 182.67087 549.18219
-65.524368 182.65504 549.83466
-63.933029 182.63924 550.48151
-61.972656 182.51755 550.19965
-60.018173 182.39597 549.91016
-58.798004 182.48622 551.4635
-55.765335 182.04729 548.3819
-54.549042 182.1377 549.92316
-52.25943 181.9108 548.67603
-50.334625 181.78983 548.34857
-48.064957 181.56326 547.08337
-46.503159 181.54834 547.67163
-44.250839 181.32213 546.38965
-42.695801 181.30745 546.96521
-40.801208 181.18726 546.60114
-39.250305 181.17284 547.1651
-38.370193 181.36971 549.59637
-37.147934 181.46106 551.08905
-35.591385 181.44693 551.64008
-34.03569 181.43295 552.18597
-32.805161 181.52458 553.66663
-31.570175 181.61633 555.14398
-29.692383 181.49725 554.73419
-27.820694 181.37836 554.3175
-25.955109 181.25967 553.89404
-23.784348 181.0358 552.5191
-21.316345 180.7068 550.19037
-19.782761 180.69408 550.69
-17.946671 180.57619 550.23761
-16.417282 180.56378 550.72644
-14.888672 180.55151 551.21039
-13.36084 180.53941 551.68939
-11.540955 180.42221 551.21313
-10.017242 180.41043 551.68158
-8.2067413 180.29361 551.19318
-6.4022369 180.17697 550.69836
-4.6036835 180.06052 550.1972
-3.0907745 180.04938 550.64404
-1.578598 180.03841 551.08618
0.20732117 179.92249 550.56775
1.9873199 179.80675 550.04309
3.2229767 179.90131 551.427
5.529541 179.57582 548.97534
7.027832 179.56564 549.39117
8.2640991 179.66063 550.76196
10.281174 179.44077 549.24884
11.774948 179.43105 549.65015
13.014526 179.52643 551.00867
14.760544 179.41205 550.43939
16.500717 179.29784 549.86426
17.743713 179.3936 551.21057
19.477493 179.27972 550.62518
20.724503 179.37573 551.96393
22.214035 179.367 552.33398
23.938293 179.25357 551.73334
25.191437 179.34996 553.06085
26.679337 179.34161 553.4176
28.166687 179.33344 553.77008
29.653519 179.32538 554.11816
31.362091 179.21269 553.49261
33.064964 179.10016 552.86157
34.762161 178.98779 552.22498
36.453659 178.87558 551.58307
38.139534 178.76349 550.93561
39.610435 178.75627 551.25507
41.080872 178.74919 551.57037
42.346771 178.84689 552.85474
43.617416 178.9447 554.13599
45.091713 178.93796 554.43982
46.369293 179.03596 555.71423
47.84536 179.02945 556.01013
49.321022 179.02304 556.30194
50.984856 178.91214 555.61304
52.457138 178.90599 555.89606
54.11245 178.79536 555.19739
55.581398 178.78943 555.47162
57.22821 178.67906 554.76337
58.869499 178.56882 554.05005
60.332222 178.56325 554.3111
61.794617 178.55779 554.56805
63.088768 178.65697 555.80133
64.553101 178.6517 556.0506
66.01709 178.64655 556.29596
67.320633 178.746 557.51886
68.944153 178.63657 556.77466
70.407249 178.63171 557.00793
71.717667 178.73145 558.21997
73.332588 178.62234 557.46252
74.647606 178.72224 558.66742
76.11216 178.7178 558.88519
77.718544 178.60901 558.11469
79.319519 178.50032 557.33942
80.9151 178.39175 556.55951
82.639633 178.17886 554.78955
83.958298 178.27933 555.97156
85.411102 178.27548 556.16418
86.737053 178.37611 557.33942
88.316032 178.26805 556.5379
89.646706 178.36885 557.70599
91.220123 178.26097 556.89606
92.788208 178.15318 556.08154
94.23719 178.14987 556.25067
95.574806 178.25101 557.40424
97.134613 178.14351 556.57727
98.583054 178.14044 556.7348
100.13478 178.03314 555.89941
101.58032 178.03024 556.04895
103.02571 178.02744 556.1947
104.47092 178.02472 556.33673
105.916 178.02208 556.47485
107.36093 178.01952 556.60925
108.80573 178.01704 556.73975
110.25037 178.01465 556.86652
111.77779 177.908 555.99835
113.13931 178.01007 557.10858
114.58359 178.0079 557.224
116.02776 178.0058 557.33551
117.4718 178.0038 557.44336
118.91575 178.00186 557.54742
120.3596 178 557.64764
121.73843 178.10249 558.73657
123.24699 177.99649 557.83691
124.75032 177.89058 556.93304
126.24843 177.78473 556.02515
127.68668 177.78323 556.10632
129.22899 177.57329 554.19739
130.61246 177.67621 555.2641
132.04793 177.67496 555.33392
133.48334 177.67374 555.39996
134.91867 177.67262 555.46234
136.31473 177.77582 556.51477
137.71588 177.87909 557.5636
139.15619 177.87817 557.61493
140.62798 177.77307 556.66852
142.09459 177.66803 555.7182
143.55603 177.56306 554.76398
145.0123 177.45819 553.80603
146.44215 177.45761 553.83844
147.89067 177.35286 552.8728
149.30179 177.45668 553.89227
150.71802 177.56056 554.90808
152.15034 177.56027 554.92584
153.57425 177.66428 555.93427
155.00327 177.76839 556.93921
156.4407 177.76828 556.9458
157.87814 177.76826 556.94867
159.31372 177.66406 555.95331
160.7486 177.66417 555.94873
162.19046 177.76862 556.93506
163.62793 177.76886 556.92303
165.0654 177.76917 556.90735
166.5029 177.76956 556.88794
167.94041 177.77002 556.86487
169.37796 177.77054 556.83795
170.81554 177.77113 556.80737
172.2282 177.66754 555.77887
173.6908 177.77254 556.73511
175.09839 177.66908 555.69922
176.53357 177.66995 555.65393
178.004 177.77516 556.59875
179.47961 177.88042 557.53961
180.87973 177.77725 556.4892
182.3606 177.88266 557.42242
183.75569 177.77963 556.36469
185.24184 177.88519 557.29022
186.68256 177.88657 557.21851
188.12335 177.888 557.14307
189.56424 177.88951 557.06378
191.06354 177.99538 557.97369
192.50714 177.99704 557.88684
193.95087 177.99878 557.7962
195.46071 178.10487 558.69415
196.9758 178.21106 559.58801
198.42496 178.21303 559.48572
199.87421 178.21506 559.37958
201.32359 178.21719 559.26978
202.85197 178.32368 560.14746
204.2227 178.22165 559.03851
205.75648 178.32831 559.90826
207.20892 178.33075 559.78296
208.66151 178.33327 559.65381
210.20599 178.44019 560.51117
211.75575 178.5472 561.3642
213.21393 178.54996 561.22308
214.77171 178.65715 562.06769
216.33481 178.76443 562.9079
217.79861 178.76746 562.75476
219.47694 178.97928 564.57507
221.38524 179.39995 568.36743
223.31432 179.82076 572.15356
225.37906 180.34605 576.9212
227.2348 180.66275 579.70673
228.98618 180.87518 581.49908
230.38019 180.77455 580.32538
231.64407 180.56958 578.16156
232.77013 180.26028 575.00873
234.14163 180.15987 573.82581
235.24237 179.85068 570.66827
236.19241 179.43713 566.52356
237.39822 179.23248 564.34753
238.31267 178.81902 560.19995
239.20674 178.40558 556.05127
240.37207 178.2011 553.8692
241.52736 177.99669 551.68481
242.52164 177.68787 548.51501
243.8078 177.58807 547.3089
245.08908 177.48834 546.09961
246.36551 177.3887 544.88727
247.79834 177.39365 544.65314
249.23151 177.3987 544.4151
250.66495 177.40385 544.1731
252.09872 177.40912 543.92719
253.18959 177.20538 541.71814
254.61887 177.21085 541.46521
256.04846 177.2164 541.20831
257.47842 177.22208 540.94745
259.0907 177.33243 541.66028
260.70853 177.44293 542.36823
262.51901 177.65817 544.04785
263.96078 177.66431 543.76892
265.40295 177.67059 543.48602
266.84552 177.67697 543.19897
268.09097 177.5788 541.93317
269.13159 177.37608 539.69025
270.36493 177.27809 538.41895
272.00409 177.38959 539.09082
273.85672 177.60593 540.72998
275.50974 177.71773 541.39087
277.38144 177.93442 543.01788
279.26398 178.15126 544.63837
280.72092 178.15878 544.31189
282.17831 178.16644 543.9812
283.41278 178.06943 542.67719
285.09464 178.18213 543.30707
286.55353 178.19016 542.96356
288.47552 178.40799 544.55029
290.64227 178.73083 547.0968
292.35229 178.84421 547.70325
294.78522 179.27235 551.19995
297.72293 179.91054 556.61646
299.95972 180.23436 559.12866
302.95331 180.87315 564.52234
306.72736 181.8271 572.79138
309.54059 182.36168 577.19562
311.36169 182.4767 577.74304
312.9314 182.48691 577.32373
313.46201 182.07727 573.06006
313.70984 181.56262 567.83807
313.93222 181.04794 562.61859
314.6647 180.74335 559.31708
316.19336 180.75401 558.88629
317.44971 180.65974 557.49445
318.97714 180.6707 557.05487
320.78357 180.78693 557.56525
322.31506 180.79822 557.11536
324.1308 180.91481 557.61389
325.95251 181.03159 558.1059
327.78027 181.14859 558.59155
329.32263 181.16052 558.11993
331.15979 181.27788 558.59332
332.40967 181.18488 557.1618
334.55292 181.40787 558.57202
336.10364 181.42047 558.07886
337.35062 181.32787 556.63397
339.51465 181.55145 558.02325
341.0704 181.56453 557.5141
342.62695 181.57774 556.99988
343.86923 181.48567 555.53729
346.06027 181.71007 556.89838
347.30151 181.61826 555.42639
349.18436 181.73756 555.83215
350.74756 181.75151 555.29114
352.31165 181.76559 554.745
353.54556 181.67427 553.25586
355.77576 181.89978 554.57367
357.68115 182.01991 554.94659
359.59259 182.14021 555.31219
361.16858 182.15501 554.73663
363.43378 182.38132 556.02161
364.66974 182.2907 554.5014
365.90112 182.20013 552.97772
367.83234 182.32114 553.31049
368.70502 182.12494 550.849
370.28278 182.14035 550.24194
371.86121 182.15584 549.62939
373.44031 182.17142 549.01141
375.38553 182.29295 549.31262
378.44116 182.73238 552.37738
380.0354 182.74828 551.73755
382.37714 182.97617 552.93512
385.10623 183.3102 555.04327
386.33649 183.22031 553.46179
388.32477 183.34247 553.71332
390.31882 183.46471 553.95703
391.15802 183.26865 551.44476
392.76581 183.28474 550.76117
394.37381 183.3008 550.07196
395.98193 183.31679 549.37701
397.98767 183.43893 549.58795
399.99878 183.56107 549.79095
401.6123 183.57686 549.0769
403.63123 183.69885 549.2652
406.06339 183.92705 550.35205
408.50589 184.15518 551.42853
410.54517 184.2769 551.59045
412.58914 184.39844 551.74426
414.21896 184.41339 550.9884
-92.376862 185.63177 549.95197
-91.164658 185.72528 551.59583
-89.132858 185.60074 551.42273
-87.106064 185.4761 551.24164
-85.084335 185.35135 551.05249
-83.067841 185.22656 550.85547
-80.660355 184.99292 549.73877
-78.657166 184.86806 549.52472
-76.268448 184.63446 548.38873
-74.278809 184.50961 548.15765
-72.294739 184.3848 547.91876
-70.699158 184.36865 548.58942
-68.723648 184.2439 548.33594
-67.131439 184.22778 548.99432
-65.164719 184.1031 548.72638
-63.203796 183.97852 548.45074
-61.987885 184.07104 550.01312
-60.03331 183.94659 549.72424
-58.084641 183.82224 549.42773
-56.141876 183.69801 549.1236
-54.564026 183.68233 549.73901
-51.917969 183.34154 547.56464
-49.995743 183.21771 547.23688
-47.728607 182.98572 545.97168
-46.169388 182.97052 546.55927
-44.265198 182.84715 546.20929
-42.710068 182.83221 546.78522
-41.495987 182.92561 548.28986
-39.939713 182.91089 548.85614
-38.384171 182.89626 549.41711
-37.161789 182.98993 550.90973
-35.934906 183.08368 552.39905
-34.376389 183.0694 552.94611
-32.81871 183.05527 553.4881
-31.26178 183.04124 554.02472
-29.38652 182.91934 553.61475
-27.833832 182.90564 554.14026
-25.654175 182.67609 552.77393
-23.797134 182.55476 552.34332
-21.637497 182.32567 550.96075
-19.795227 182.20474 550.51575
-17.958954 182.08401 550.0639
-16.730118 182.17923 551.50061
-14.900681 182.05884 551.03723
-13.372711 182.04649 551.5166
-11.845459 182.03429 551.99097
-10.028824 181.91444 551.50964
-8.5056915 181.90256 551.97345
-6.6983948 181.78308 551.48004
-4.8970642 181.66379 550.98022
-3.3813934 181.6524 551.4281
-1.589386 181.53349 550.9165
0.47114563 181.30707 549.44305
1.7050171 181.40387 550.83081
3.2126465 181.39313 551.2583
5.5193939 181.05966 548.8078
6.7538452 181.15689 550.18237
8.2542267 181.14665 550.5946
10.012741 181.02898 550.04224
11.765366 180.91148 549.48395
13.258621 180.9017 549.88104
14.751251 180.89209 550.27356
16.491577 180.7751 549.69897
17.980423 180.76576 550.08179
19.468628 180.75659 550.46027
20.715775 180.855 551.79895
22.205429 180.8461 552.16925
23.694565 180.83731 552.53503
25.183121 180.82869 552.89648
26.671127 180.82019 553.25354
28.158615 180.81183 553.60614
29.870438 180.69623 552.98602
31.354279 180.68816 553.32941
33.276993 180.46555 551.72913
34.971725 180.35043 551.09247
36.660782 180.23549 550.45038
38.132286 180.22798 550.77423
39.603302 180.22061 551.09387
41.07386 180.21338 551.40936
42.339867 180.31352 552.6936
43.610619 180.41376 553.97473
45.085052 180.40688 554.27869
46.362717 180.50732 555.55304
47.838913 180.50067 555.84912
49.314682 180.49413 556.14105
50.978653 180.38052 555.45258
52.451057 180.37422 555.73566
53.92308 180.36804 556.01465
55.394722 180.362 556.28955
57.044258 180.2489 555.58209
58.512589 180.24309 555.84839
59.980583 180.23738 556.11047
61.448242 180.23178 556.36853
62.915581 180.22629 556.62244
64.382584 180.22092 556.87238
65.686516 180.32274 558.09918
67.315628 180.21048 557.36017
68.7817 180.20541 557.59802
70.247459 180.20047 557.83191
71.560547 180.30267 559.04419
73.02832 180.29791 559.27045
74.348587 180.4003 560.47595
75.963081 180.2887 559.71088
77.430061 180.28424 559.92517
79.036293 180.17287 559.151
80.911003 179.84761 556.40265
82.501289 179.73648 555.61841
83.690826 179.94643 557.78613
85.278076 179.83549 556.99377
86.733307 179.83165 557.18304
88.188339 179.82788 557.36829
89.64315 179.82422 557.54974
91.216675 179.71368 556.74011
92.66851 179.71021 556.91345
94.23391 179.59988 556.09521
95.571609 179.70352 557.24854
97.022888 179.7003 557.41028
98.473984 179.69719 557.56824
100.02838 179.58722 556.73334
101.47657 179.58426 556.88336
102.92461 179.58139 557.02942
104.37248 179.57861 557.17169
105.82021 179.57591 557.31018
107.26779 179.57329 557.44482
108.71523 179.57076 557.57568
110.248 179.46141 556.7121
111.69261 179.45903 556.83508
113.13708 179.45674 556.95435
114.58144 179.45453 557.06976
116.02568 179.45239 557.1814
117.46982 179.45033 557.28925
118.91383 179.44836 557.39331
120.29028 179.55331 558.4856
121.73667 179.55148 558.58228
123.2453 179.44287 557.68292
124.68893 179.44119 557.77191
126.18968 179.33275 556.8645
127.63058 179.33122 556.94586
129.12347 179.22293 556.03052
130.56165 179.22156 556.10419
131.99976 179.22026 556.17413
133.43781 179.21904 556.24042
134.91757 179.11104 555.30945
136.31371 179.2168 556.36163
137.71492 179.3226 557.41016
139.1553 179.32167 557.46155
140.62717 179.21399 556.5155
142.09384 179.10635 555.56543
143.55536 178.99881 554.61151
145.0117 178.89133 553.65381
146.44162 178.89075 553.68628
147.87152 178.89024 553.71509
149.28526 178.99661 554.73425
150.70413 179.10307 555.74988
152.1391 179.10277 555.76764
153.56563 179.20937 556.77594
155.00314 179.2092 556.78625
156.44064 179.20911 556.79291
157.87888 179.10226 555.80145
159.31381 179.10229 555.80066
160.74875 179.10242 555.79608
162.1837 179.10262 555.7879
163.62822 179.20969 556.77014
165.06577 179.21002 556.75452
166.48865 179.10358 555.74084
167.94092 179.21088 556.71185
169.37852 179.21141 556.685
170.79379 179.10519 555.66046
172.25385 179.21269 556.62012
173.71909 179.32028 557.57605
175.12933 179.21426 556.54041
176.56712 179.21515 556.49481
178.04021 179.32294 557.43927
179.48068 179.32399 557.38629
180.88084 179.21826 556.336
182.3618 179.32626 557.26898
183.75696 179.22069 556.21149
185.24318 179.32886 557.13672
186.68396 179.33025 557.06494
188.12485 179.33173 556.9895
189.62157 179.44012 557.90295
191.1235 179.54858 558.81232
192.56976 179.55029 558.72528
194.01611 179.55206 558.63446
195.46257 179.55392 558.53986
196.97774 179.66272 559.43335
198.42697 179.66472 559.33099
199.80255 179.55994 558.23334
201.32576 179.66898 559.11499
202.85422 179.77811 559.99237
204.22504 179.67354 558.88367
205.7589 179.78284 559.75305
207.29802 179.89221 560.61816
208.75327 179.89478 560.48871
210.30038 180.00433 561.34552
211.75848 180.00708 561.20819
213.21675 180.0099 561.06702
214.87408 180.22665 562.90057
216.43985 180.33658 563.74017
217.90631 180.33968 563.58661
219.48013 180.4498 564.41766
221.27876 180.77388 567.22052
223.20538 181.20505 571.00574
225.26767 181.7433 575.77228
227.12096 182.06778 578.55713
229.10995 182.49937 582.32324
230.62924 182.50322 582.13599
232.02359 182.40019 580.95837
233.28519 182.19025 578.79132
234.53674 181.98038 576.62152
235.51236 181.55658 572.47833
236.87415 181.45384 571.28894
237.95483 181.13715 568.12695
238.87965 180.7135 563.97882
239.7841 180.28987 559.82965
240.95984 180.08037 557.64661
241.82872 179.65685 553.49481
242.97919 179.44745 551.30768
244.27319 179.3452 550.10046
245.40619 179.13596 547.90826
246.84657 179.14093 547.6767
248.12596 179.03893 546.46014
249.56438 179.0441 546.22113
251.00311 179.04941 545.97821
252.44214 179.05478 545.7312
253.7099 178.95317 544.50104
254.97281 178.85162 543.26776
256.5845 178.96448 543.98816
258.20172 179.07745 544.70361
259.64246 179.08339 544.43671
261.63733 179.41098 547.09668
263.46088 179.63156 548.77313
264.72595 179.5307 547.51563
266.37094 179.64438 548.20599
267.82657 179.65094 547.9162
268.88757 179.44316 545.67352
270.13873 179.34271 544.40271
271.58786 179.34961 544.10217
273.24268 179.4639 544.77032
274.90314 179.57835 545.43323
276.56924 179.69295 546.09082
278.02795 179.70039 545.77203
279.70276 179.81528 546.41949
280.94672 179.71565 545.1217
282.186 179.61612 543.82086
283.86749 179.73143 544.45447
285.55469 179.84689 545.08264
287.47626 180.06993 546.67291
289.87134 180.50798 550.19025
292.05386 180.83887 552.73187
293.77966 180.95508 553.33405
296.22845 181.39386 556.82562
298.69864 181.83289 560.30743
301.19031 182.27222 563.7796
303.95032 182.81931 568.20496
307.23602 183.58176 574.54376
310.05472 184.12953 578.94495
311.37177 184.03226 577.56848
312.42691 183.82755 575.22821
313.21234 183.51532 571.92651
313.19507 182.88029 565.74756
313.94263 182.5681 562.44702
314.94299 182.36362 560.10358
316.47443 182.37451 559.67175
317.46048 182.17023 557.3233
319.2637 182.28909 557.83862
320.79462 182.30045 557.39325
322.32629 182.31197 556.94318
324.14218 182.43138 557.44104
325.67795 182.44324 556.98053
327.50323 182.56302 557.46631
329.33453 182.68301 557.94574
330.87781 182.69536 557.46881
332.42181 182.70786 556.987
334.56525 182.93628 558.39624
336.11615 182.94913 557.90283
337.36322 182.8542 556.45801
339.22025 182.97528 556.90082
340.7735 182.98859 556.39227
342.32758 183.00204 555.8786
343.88245 183.01566 555.3598
345.75586 183.13745 555.77789
346.9946 183.04329 554.30682
348.55188 183.05733 553.77258
350.10999 183.0715 553.23315
351.66888 183.08583 552.68854
353.22855 183.10028 552.13861
355.4563 183.33124 553.45642
357.35916 183.45422 553.82965
359.26807 183.57738 554.19556
361.18311 183.70071 554.55426
363.10422 183.8242 554.90564
364.33762 183.73123 553.38641
366.2655 183.855 553.72491
367.84729 183.87054 553.1264
369.07486 183.7778 551.59381
370.29785 183.68509 550.0578
371.87631 183.70087 549.44489
373.45547 183.71671 548.82654
376.13181 184.05814 550.97601
378.08838 184.18272 551.26691
380.05078 184.3074 551.54999
382.0191 184.43221 551.82544
384.36945 184.66568 553.01324
385.97318 184.68204 552.35297
388.34036 184.91571 553.52295
389.9502 184.93211 552.84912
391.17349 184.83978 551.25397
393.17078 184.96486 551.48462
394.38916 184.87241 549.88043
395.99725 184.88864 549.1853
397.60535 184.90479 548.4845
399.61371 185.02971 548.68799
401.62726 185.15457 548.88354
403.646 185.27936 549.07111
406.07806 185.51297 550.1571
408.9314 185.8555 552.13788
410.97308 185.98001 552.29791
412.60327 185.99536 551.54724
415.07065 186.22852 552.59406
-94.040466 187.66678 553.36853
-91.998581 187.53955 553.20636
-89.961624 187.41217 553.03625
-87.52533 187.17317 551.95032
-85.501129 187.04561 551.76312
-82.285217 186.58366 548.83734
-79.883148 186.34464 547.7193
-78.278931 186.32838 548.41602
-75.501999 185.97801 546.36621
-73.906021 185.9617 547.04834
-72.695816 186.05666 548.64081
-70.714691 185.92899 548.39587
-68.739166 185.80136 548.14307
-67.146988 185.785 548.80182
-65.180237 185.65746 548.53455
-63.219284 185.53 548.25958
-61.633743 185.51376 548.89948
-60.048721 185.49756 549.53375
-58.828537 185.5925 551.08722
-56.518768 185.35428 549.86017
-54.579193 185.22726 549.55017
-52.645599 185.10039 549.23267
-50.364349 184.86267 547.97888
-48.094421 184.62515 546.71564
-46.53244 184.60968 547.30457
-44.279816 184.37251 546.02448
-42.381561 184.24643 545.66797
-41.17009 184.34219 547.17169
-39.278641 184.2164 546.80267
-38.063354 184.31235 548.29773
-36.843552 184.40839 549.78949
-35.289444 184.39374 550.34027
-33.736115 184.37924 550.88586
-32.508041 184.47559 552.36566
-30.631805 184.35066 551.96143
-29.400024 184.4472 553.43268
-27.530685 184.32263 553.01642
-25.353485 184.08766 551.65021
-23.810165 184.07407 552.16315
-21.650375 183.83951 550.78156
-19.807892 183.71573 550.33704
-18.274857 183.70267 550.8324
-16.742538 183.68973 551.32263
-14.912903 183.5665 550.8598
-13.680252 183.66434 552.28839
-11.56459 183.43103 550.86438
-10.040588 183.41876 551.33337
-8.5173492 183.40666 551.79755
-6.7098846 183.28435 551.30469
-4.9083557 183.16223 550.80542
-3.6723022 183.26096 552.2074
-1.6003723 183.02888 550.74255
-0.088607788 183.01761 551.18048
1.6943359 182.89622 550.65765
3.4713287 182.77504 550.12872
5.5090637 182.54382 548.63611
7.0076141 182.53323 549.05249
8.766922 182.41261 548.50525
10.261597 182.40234 548.91162
12.01178 182.28207 548.35315
13.249008 182.38225 549.71082
14.74176 182.37242 550.10364
16.233917 182.36275 550.49194
17.479767 182.46329 551.83881
18.973358 182.45387 552.21875
20.466324 182.44463 552.59436
21.958755 182.4355 552.96539
23.450592 182.42654 553.33215
25.174591 182.30771 552.72809
26.662735 182.29904 553.08533
28.150345 182.29051 553.43823
29.86235 182.17215 552.81848
31.124001 182.27385 554.13086
33.26918 181.93596 551.56262
34.746956 181.92801 551.89636
36.224243 181.9202 552.22583
37.912971 181.80264 551.5799
39.177391 181.90497 552.87195
40.653267 181.89755 553.18872
42.332825 181.78043 552.52844
43.402153 181.99292 554.78278
44.879288 181.98589 555.08746
46.356018 181.97896 555.38782
47.63855 182.08195 556.659
49.117043 182.07526 556.95154
50.783722 181.95892 556.26404
52.258842 181.95248 556.54773
53.733559 181.94617 556.82739
55.207909 181.93997 557.10291
56.860138 181.82417 556.39642
58.331169 181.81822 556.66327
59.801872 181.81238 556.9259
61.10173 181.91635 558.16382
62.742233 181.80104 557.43915
64.211929 181.79553 557.68964
65.518555 181.89981 558.91669
66.990204 181.89452 559.15948
68.461548 181.88933 559.39825
69.932579 181.88425 559.63306
71.403328 181.87929 559.86383
72.723953 181.98404 561.07318
74.049461 182.08888 562.27936
75.669212 181.97461 561.5155
77.283539 181.86044 560.74689
78.892471 181.7464 559.97345
80.769867 181.4133 557.22644
82.362831 181.2995 556.44293
83.686829 181.40494 557.62531
85.144951 181.40091 557.81891
86.602875 181.39697 558.00848
88.060547 181.39314 558.19434
89.518036 181.38939 558.3761
90.975311 181.38573 558.55402
92.548729 181.27263 557.74091
94.003029 181.26917 557.91077
95.345963 181.37531 559.06451
96.911087 181.2625 558.23889
98.364853 181.25929 558.39709
99.818428 181.2562 558.55157
101.27185 181.25316 558.70209
102.72511 181.25021 558.84875
104.17821 181.24738 558.9917
105.72435 181.13513 558.14111
107.17459 181.13245 558.276
108.62468 181.12985 558.40717
110.16011 181.01787 557.54413
111.60736 181.01544 557.66748
113.05449 181.01309 557.78693
114.5015 181.01083 557.90265
115.94839 181.00865 558.01447
117.39517 181.00655 558.12256
118.84184 181.00452 558.22693
120.2884 181.00256 558.32745
121.73486 181.0007 558.42419
123.24358 180.88948 557.52509
124.68729 180.88777 557.61414
126.18812 180.77672 556.70709
127.57446 180.88458 557.78094
129.06998 180.77368 556.86609
130.4613 180.88168 557.93268
131.95155 180.77095 557.01007
133.39224 180.76968 557.07642
134.87465 180.6591 556.14594
136.27342 180.7674 557.19794
137.71393 180.76637 557.25305
139.15439 180.76541 557.30444
140.62633 180.65512 556.35864
142.06413 180.6543 556.40247
143.52827 180.54416 555.44897
144.98726 180.4341 554.49158
146.41982 180.4335 554.52417
147.85236 180.43298 554.55298
149.28485 180.43254 554.57813
150.7038 180.54155 555.59344
152.13882 180.54124 555.61121
153.57385 180.541 555.62524
155.00302 180.65024 556.62952
156.4406 180.65013 556.63611
157.87816 180.65012 556.63904
159.31573 180.65016 556.63818
160.7489 180.54089 555.63971
162.1909 180.65047 556.62543
163.62851 180.65073 556.61346
165.06613 180.65108 556.59778
166.48907 180.54208 555.58441
167.95868 180.76135 557.54901
169.39893 180.76189 557.52203
170.81682 180.65312 556.49768
172.27953 180.76321 557.45697
173.71988 180.76398 557.41888
175.13019 180.65541 556.38348
176.56807 180.65633 556.33801
178.00598 180.6573 556.28876
179.44397 180.65836 556.23578
180.84164 180.55008 555.18591
182.3201 180.66069 556.11865
183.80374 180.77138 557.04742
185.24455 180.77274 556.97943
186.73605 180.88358 557.90033
188.23276 180.99451 558.81726
189.62315 180.88667 557.7453
191.12518 180.99776 558.65436
192.57152 180.9995 558.56726
194.01794 181.00131 558.47638
195.39842 180.89375 557.38989
196.97972 181.11461 559.2749
198.35785 181.00722 558.18109
199.80469 181.00934 558.07507
201.32797 181.121 558.9563
202.85652 181.23274 559.83337
204.30887 181.23512 559.71558
205.84538 181.34705 560.58435
207.30057 181.34959 560.45874
208.84506 181.46169 561.31921
210.3031 181.4644 561.18567
211.76129 181.46719 561.04828
213.31651 181.57957 561.89624
214.87706 181.69205 562.73993
216.4429 181.80461 563.57916
218.01407 181.91727 564.414
219.59055 182.03004 565.24445
221.28212 182.25241 567.05823
223.0965 182.58443 569.85455
225.04144 183.02611 573.63257
227.00717 183.46793 577.40417
229.11375 184.01944 582.15594
230.63316 184.02336 581.96869
232.27798 184.13695 582.76337
233.54483 183.92195 580.59607
234.93201 183.8166 579.41156
236.18129 183.60175 577.23846
237.4205 183.38698 575.06274
238.5116 183.06268 571.90002
239.58746 182.73845 568.73547
240.50488 182.30466 564.58551
241.54776 181.98051 561.41779
242.72385 181.76605 559.23114
243.73889 181.44202 556.05963
244.89233 181.22769 553.86859
246.19186 181.12309 552.65686
247.48654 181.01855 551.44183
248.77635 180.91412 550.22382
250.06131 180.80977 549.00256
251.50789 180.8152 548.75818
252.9548 180.82074 548.50977
254.23038 180.71667 547.27832
255.3269 180.50298 545.06519
257.29755 180.83801 547.74054
258.74579 180.84399 547.47607
260.37643 180.95984 548.18475
262.19717 181.18561 549.86505
264.02866 181.41151 551.53931
265.49136 181.418 551.25604
267.14682 181.53444 551.94391
268.418 181.4314 550.67731
269.88193 181.43826 550.38171
271.34628 181.44527 550.08197
272.60834 181.34254 548.80499
274.48157 181.56949 550.44244
276.15775 181.68675 551.10162
277.62909 181.69429 550.784
278.88776 181.59206 549.49133
280.35742 181.59982 549.16577
281.39102 181.38788 546.89661
283.07736 181.50584 547.5329
284.76941 181.62396 548.16364
286.46716 181.74225 548.78894
288.62796 182.08066 551.34314
290.80493 182.41931 553.88934
292.99811 182.75819 556.42749
295.2074 183.09731 558.95728
297.19385 183.32663 560.51416
300.15805 183.99637 565.9201
302.66556 184.44632 569.3869
305.68835 185.11676 574.76929
308.49359 185.67743 579.17694
310.82129 186.01817 581.65015
311.38205 185.58813 577.38947
312.43732 185.37845 575.04962
312.44293 184.72812 568.87061
312.41785 184.07773 562.69531
313.68805 183.97838 561.31335
314.9537 183.87912 559.92804
316.21484 183.78001 558.53961
317.47144 183.681 557.14783
319.27484 183.8027 557.66266
320.52765 183.70398 556.26294
322.61865 183.93637 557.71997
324.15381 183.94827 557.26392
325.6897 183.96036 556.8031
327.22635 183.9726 556.33734
328.76376 183.98499 555.8667
330.59601 184.10797 556.34058
332.13751 184.1207 555.85919
333.97919 184.24406 556.32074
336.12885 184.47812 557.72241
337.07153 184.27032 555.3316
338.61884 184.28369 554.82947
340.16696 184.29721 554.32227
341.71591 184.31088 553.81006
343.26563 184.32471 553.29272
345.13391 184.44931 553.71185
346.68787 184.46346 553.18341
348.56573 184.58844 553.58966
350.44965 184.71359 553.98883
351.68295 184.61746 552.50488
353.57379 184.74295 552.89178
355.80432 184.97943 554.20764
357.03738 184.88367 552.70886
358.94382 185.00967 553.07513
360.85632 185.13586 553.43414
362.4306 185.15131 552.85345
364.00568 185.16689 552.26746
365.93103 185.29352 552.60632
367.51025 185.30931 552.00848
369.09012 185.32521 551.40515
370.31311 185.23016 549.86908
371.89169 185.24622 549.25586
373.47092 185.26233 548.63715
375.7818 185.50073 549.86115
377.73578 185.62817 550.1524
380.0665 185.86688 551.35797
382.03479 185.99454 551.63263
384.76141 186.34473 553.73932
385.98895 186.25011 552.15881
387.97461 186.37799 552.41016
389.96597 186.50592 552.65363
391.96301 186.63388 552.88928
393.18646 186.53914 551.28845
395.58145 186.77847 552.42358
396.40765 186.57217 549.90076
397.62073 186.47714 548.28766
400.02921 186.71634 549.40009
401.2395 186.62106 547.77698
403.25549 186.74864 547.96521
406.50122 187.21074 550.86346
408.53522 187.33817 551.0321
410.16043 187.35382 550.28918
412.20129 187.48088 550.44305
414.24683 187.60776 550.58905
-94.05513 189.26624 553.16211
-91.194183 188.90793 551.19043
-89.569702 188.89194 551.9248
-87.944855 188.87576 552.65363
-85.516479 188.6313 551.55957
-81.901627 188.04465 547.72559
-79.89859 187.91425 547.51837
-77.900864 187.78378 547.30328
-75.517578 187.53935 546.16699
-74.309967 187.63675 547.76392
-72.711578 187.62015 548.44196
-71.113403 187.60352 549.11438
-69.135239 187.47299 548.8634
-67.16275 187.34253 548.60461
-65.195984 187.21213 548.33807
-63.607269 187.19557 548.98486
-62.019073 187.17905 549.62622
-60.431366 187.16257 550.26196
-58.844193 187.14613 550.89221
-56.534317 186.90244 549.66614
-55.312637 186.99982 551.20966
-53.017303 186.75641 549.96747
-51.086929 186.62675 549.64417
-48.811554 186.3837 548.38397
-47.244141 186.36789 548.97516
-44.98613 186.12521 547.69824
-43.425461 186.10968 548.27673
-41.184799 185.86737 546.98315
-39.968674 185.96552 548.48352
-38.412933 185.95038 549.04523
-36.857895 185.93533 549.60156
-35.633469 186.03377 551.08997
-34.077393 186.01898 551.63684
-32.522079 186.00433 552.17853
-30.96756 185.98981 552.71497
-29.413818 185.97543 553.24628
-27.544281 185.84799 552.83057
-25.680847 185.72075 552.40802
-23.512177 185.48053 551.0351
-21.663498 185.3537 550.59802
-19.820847 185.22708 550.15411
-17.984253 185.10065 549.70355
-16.454453 185.08749 550.1933
-14.9254 185.07449 550.6781
-13.397125 185.06165 551.15802
-11.576767 184.93594 550.68359
-10.052628 184.92343 551.15289
-8.2416229 184.79813 550.66626
-6.7215729 184.78595 551.12506
-4.9199371 184.66101 550.62646
-3.4039612 184.64917 551.07489
-1.3344879 184.41171 549.61023
0.17480469 184.40024 550.04767
1.9552917 184.27606 549.52466
3.7298431 184.15208 548.99554
5.7651215 183.9155 547.50311
7.2612152 183.90472 547.91901
8.7566833 183.89407 548.33014
10.251495 183.88359 548.73682
11.745667 183.87326 549.13892
12.985641 183.9758 550.49719
14.48114 183.96576 550.89099
15.976059 183.95587 551.28015
17.470367 183.94614 551.66492
19.207214 183.82388 551.08173
20.457214 183.92709 552.4209
22.187698 183.80518 551.82745
23.677078 183.79604 552.19373
24.933182 183.89963 553.52161
26.424088 183.89075 553.87964
27.914429 183.88202 554.23334
29.404236 183.87344 554.5827
31.115852 183.75249 553.95923
32.82177 183.63168 553.33014
34.304878 183.62354 553.66522
36.002007 183.50307 553.02588
37.693466 183.38275 552.38104
39.169922 183.37505 552.70221
40.852661 183.25504 552.04724
42.12149 183.36003 553.33179
43.395042 183.46513 554.61328
44.872322 183.45795 554.91803
46.152794 183.56326 556.19269
47.631813 183.5563 556.48962
49.110435 183.54947 556.78229
50.588631 183.54277 557.07092
52.252464 183.42386 556.37921
53.543877 183.52974 557.63562
55.020935 183.52341 557.91174
56.49762 183.51718 558.18372
58.14962 183.39877 557.47357
59.449921 183.5051 558.71539
60.925568 183.49924 558.97504
62.568764 183.38121 558.25128
64.206467 183.26334 557.52258
65.350456 183.48233 559.72968
66.824799 183.4769 559.97302
68.298805 183.47162 560.21246
69.772537 183.46642 560.44775
70.941132 183.68575 562.64282
72.419434 183.68076 562.87091
73.897461 183.67587 563.09497
75.375221 183.67108 563.31494
76.99482 183.55423 562.54749
78.609001 183.4375 561.77527
80.354736 183.20872 560.0141
82.089897 182.98009 558.24762
83.550941 182.97586 558.4455
84.882523 183.08386 559.62476
86.472313 182.96771 558.82965
87.932671 182.96378 559.01581
89.39283 182.95993 559.198
90.852768 182.95621 559.37634
92.428856 182.84045 558.5639
93.885826 182.83691 558.73419
95.231407 182.94554 559.888
96.58197 183.05424 561.03845
98.149582 182.93889 560.20966
99.608398 182.9357 560.36469
101.06705 182.9326 560.51587
102.62387 182.81754 559.67432
104.07964 182.81461 559.8175
105.62843 182.69974 558.96753
107.17194 182.58493 558.11322
108.71017 182.47025 557.25458
110.07215 182.57973 558.37183
111.52206 182.57724 558.49536
112.97185 182.57484 558.61511
114.4215 182.57253 558.73108
115.87105 182.57028 558.8432
117.32047 182.56813 558.95154
118.9099 182.34204 557.07367
120.35397 182.34006 557.17401
121.73303 182.45015 558.26221
123.24182 182.33632 557.36346
124.68561 182.33458 557.45258
126.12931 182.33292 557.5379
127.51829 182.44331 558.61163
129.01646 182.3298 557.69727
130.41043 182.44035 558.76373
131.90332 182.327 557.84155
133.34665 182.32571 557.90808
134.8735 182.10056 555.98517
136.27234 182.2114 557.03693
137.71292 182.21036 557.0921
139.15346 182.20937 557.14349
140.59395 182.20847 557.19122
142.03439 182.20763 557.23517
143.52757 181.98293 555.28864
144.9628 181.98224 555.32495
146.41925 181.86966 554.36414
147.85187 181.86914 554.39301
149.28444 181.86868 554.41815
150.6899 182.09221 556.42676
152.13855 181.97995 555.45099
153.57365 181.97971 555.46503
155.00288 182.09149 556.46906
156.44382 181.97943 555.48193
157.87889 181.97942 555.48486
159.31583 182.09143 556.47778
160.74905 181.97958 555.47943
162.18416 181.97977 555.47119
163.62881 182.09201 556.45288
165.05438 181.98038 555.44354
166.50421 182.09277 556.41779
167.95918 182.20522 557.38812
169.39952 182.20578 557.36121
170.83987 182.20642 557.33057
172.28026 182.20712 557.29614
173.72069 182.20792 557.25806
175.13107 182.09679 556.2229
176.53636 181.98575 555.1842
177.97179 181.98674 555.13501
179.44507 182.09979 556.07507
180.88318 182.10095 556.01837
182.36427 182.21416 556.95068
183.80508 182.21548 556.88641
185.29401 182.32884 557.81085
186.73752 182.33031 557.73889
188.23433 182.44385 558.65552
189.62479 182.33347 557.58374
191.18523 182.55916 559.4845
192.63422 182.56094 559.39722
194.01981 182.45078 558.31445
195.46642 182.45271 558.21973
196.98175 182.56674 559.11261
198.35994 182.45682 558.01898
199.88063 182.571 558.90387
201.33023 182.57326 558.79382
202.85887 182.68764 559.67059
204.39278 182.80209 560.54309
205.93195 182.91666 561.41132
207.47639 183.0313 562.27533
208.93694 183.03398 562.14526
210.30588 182.92471 561.02197
211.85847 183.03964 561.87378
213.31946 183.04257 561.73212
214.8801 183.15768 562.57544
216.44604 183.27289 563.41437
217.91266 183.27611 563.26056
219.59387 183.5036 565.0788
221.17578 183.61911 565.90436
222.87537 183.84683 567.71277
224.70035 184.18677 570.50305
226.77596 184.75107 575.26099
228.63741 185.09129 578.03912
230.51451 185.43164 580.81122
232.28207 185.66 582.59155
233.67682 185.55209 581.41028
235.19699 185.5564 581.21063
236.45154 185.3365 579.03735
237.69601 185.11668 576.86145
239.06851 185.00909 575.66687
240.15479 184.67726 572.50165
241.22585 184.34547 569.33453
242.42752 184.12593 567.14856
243.32233 183.68205 562.99493
244.34779 183.35043 559.82263
245.66519 183.2433 558.61218
246.82158 183.02402 556.41718
248.28543 183.02931 556.1817
249.74954 183.0347 555.94214
250.72229 182.70341 552.75836
252.17932 182.709 552.51208
253.63669 182.71471 552.26184
254.57938 182.38364 549.07123
255.85544 182.27724 547.836
257.6571 182.50784 549.53101
259.11069 182.51398 549.2655
261.1106 182.85721 551.92645
262.94183 183.0883 553.60406
264.78378 183.31955 555.27551
266.44678 183.43863 555.96564
267.92294 183.44543 555.6756
269.20459 183.34 554.40704
270.67899 183.34706 554.10913
272.35394 183.46667 554.7804
273.62909 183.36157 553.50085
275.72076 183.70636 556.10706
277.20474 183.71399 555.79077
278.68918 183.72174 555.47015
279.74786 183.50465 553.20416
281.01236 183.40016 551.90625
282.27216 183.29578 550.60516
283.52719 183.19148 549.3009
285.67157 183.53748 551.86639
287.37988 183.65857 552.48871
289.55133 184.00497 555.03949
291.27625 184.12645 555.64935
294.17651 184.81111 561.08221
295.92603 184.93301 561.67755
298.39862 185.39301 565.16046
301.13443 185.96591 569.59741
303.40826 186.31381 572.09698
306.1922 186.88734 576.51288
308.50378 187.23581 578.99377
310.0752 187.24635 578.58246
310.883 186.91887 575.28528
311.4184 186.47867 571.02777
311.41364 185.81296 564.85315
312.16592 185.48553 561.55719
313.43365 185.38379 560.17603
314.69684 185.28217 558.7915
316.22595 185.29349 558.35992
317.48267 185.19212 556.9682
319.01056 185.20377 556.52783
320.81747 185.32846 557.03656
322.34943 185.34044 556.58582
323.88208 185.35257 556.13025
325.41553 185.36487 555.66992
326.94971 185.37732 555.20465
328.48462 185.38992 554.7345
330.02026 185.40269 554.25946
331.85345 185.52869 554.72778
333.992 185.76794 556.1369
335.8399 185.89438 556.59113
337.08459 185.79474 555.14716
338.63208 185.80836 554.64471
340.18033 185.82213 554.13715
341.72943 185.83606 553.62463
343.59445 185.96338 554.04926
345.46555 186.09088 554.46692
347.02228 186.1053 553.93719
349.22601 186.34647 555.28137
350.78967 186.36124 554.7395
351.69733 186.14944 552.31683
353.58832 186.27783 552.70306
355.48535 186.40637 553.08215
357.05215 186.42169 552.5191
359.29773 186.66403 553.81866
360.87134 186.67963 553.24298
362.4458 186.69537 552.66205
364.02094 186.71121 552.07562
365.5968 186.72716 551.48383
367.5257 186.85678 551.81561
369.10568 186.87297 551.21198
370.68628 186.88922 550.60272
372.62787 187.01923 550.91406
373.84949 186.92198 549.36798
376.16321 187.16589 550.58997
378.11987 187.29623 550.87946
380.0824 187.42667 551.16119
382.05078 187.55721 551.43524
384.40125 187.80165 552.62103
385.62604 187.70465 551.04163
387.99066 187.94925 552.21069
389.59775 187.96613 551.53729
391.20517 187.98297 550.85834
393.59198 188.22771 552.00153
395.20508 188.24452 551.30902
396.42334 188.14722 549.69916
398.03394 188.16385 548.99658
400.04474 188.29442 549.19757
401.25482 188.19672 547.57446
403.67624 188.44122 548.66888
405.69977 188.57152 548.84729
408.13916 188.81586 549.92224
410.17508 188.94586 550.0835
412.21573 189.07568 550.23682
414.26096 189.20529 550.38214
-94.069946 190.86595 552.95087
-91.618851 190.61641 551.88525
-89.991928 190.60023 552.62115
-87.960281 190.46716 552.44434
-85.130325 190.10059 550.44293
-82.316193 189.73404 548.42883
-79.914276 189.48416 547.31281
-77.916656 189.35089 547.09839
-75.924362 189.21756 546.87604
-74.325882 189.20079 547.56
-72.727509 189.18394 548.23834
-71.129425 189.16708 548.91119
-68.77095 188.91727 547.74341
-67.178757 188.90039 548.40277
-65.21199 188.76715 548.13696
-62.878662 188.51758 546.94263
-61.665375 188.6172 548.50397
-60.080307 188.60049 549.13904
-58.495758 188.58382 549.76855
-56.911789 188.5672 550.39258
-54.969421 188.43442 550.08502
-52.67662 188.18555 548.84283
-51.102524 188.16924 549.44739
-48.826965 187.9207 548.18811
-47.259521 187.90463 548.77979
-45.692749 187.88866 549.36603
-43.78363 187.75671 549.01477
-41.880569 187.62495 548.65625
-40.659058 187.7254 550.15863
-38.427689 187.47794 548.85254
-37.205032 187.5786 550.34528
-35.648041 187.56342 550.89777
-34.091827 187.54834 551.44495
-32.536377 187.53342 551.98694
-30.659851 187.40277 551.58405
-29.108597 187.38815 552.11475
-27.558167 187.37369 552.64038
-25.69458 187.24359 552.21851
-23.525696 186.99792 550.8465
-22.294205 187.09973 552.29828
-20.140076 186.85446 550.9118
-18.604095 186.84087 551.40857
-16.768112 186.71173 550.95367
-14.640015 186.46716 549.54468
-13.114227 186.4541 550.02405
-11.589172 186.44119 550.49847
-9.7746429 186.31285 550.01813
-8.2537079 186.30029 550.48206
-6.7335205 186.28787 550.94122
-4.9317017 186.16011 550.44318
-3.4156036 186.14804 550.89197
-1.3459167 185.90518 549.42816
0.43803406 185.77802 548.91125
1.9441833 185.76648 549.34351
3.9881592 185.52426 547.85883
5.7543488 185.39771 547.32343
6.7225647 185.61745 549.6546
8.4848022 185.49121 549.10931
9.7235565 185.59586 550.47595
10.966904 185.70059 551.83942
12.722 185.57486 551.27887
