ply
format ascii 1.0
comment PCL generated
element vertex 1302
property float x
property float y
property float z
element camera 0
property float view_px
property float view_py
property float view_pz
property float x_axisx
property float x_axisy
property float x_axisz
property float y_axisx
property float y_axisy
property float y_axisz
property float z_axisx
property float z_axisy
property float z_axisz
property float focal
property float scalex
property float scaley
property float centerx
property float centery
property int viewportx
property int viewporty
property float k1
property float k2
end_header
-0.0051211929 0.029020093 0.047496855
-0.0042986786 0.029231016 0.046938509
-0.0034541453 0.029360235 0.046770006
-0.0026169249 0.029658481 0.046759903
-0.0017580731 0.029887242 0.046705246
-0.00087334856 0.029693851 0.046634614
0 0.029394269 0.046424598
0.00085811928 0.029176056 0.046570331
0.0017191008 0.029224714 0.04645294
0.0025992976 0.029458705 0.046672463
0.0034596613 0.029407119 0.046547443
0.0043379483 0.02949805 0.046668589
0.0051920558 0.029421648 0.047017455
0.0060890536 0.029575402 0.047307014
0.0069590821 0.0295761 0.047380477
0.0079483334 0.030027036 0.047512591
0.0086691361 0.029475063 0.047831893
0.0094332537 0.029157331 0.047903299
0.01023473 0.028998403 0.047904164
0.010974603 0.028702807 0.048024356
0.011930256 0.028973479 0.04825297
0.012683333 0.028748887 0.049295485
0.013472025 0.028628053 0.049220622
0.014175117 0.028350234 0.048802316
0.015134591 0.028587559 0.048151255
0.015867788 0.02839499 0.047659636
0.016712947 0.028412011 0.04474774
0.018268202 0.029577089 0.039990425
0.019454388 0.030065874 0.037606925
0.021237753 0.03139494 0.035701096
0.023080228 0.032696988 0.034131736
0.022839956 0.03106234 0.032112837
0.023236515 0.030386213 0.020845205
0.023785546 0.02995217 0.0080814064
-0.019814301 0.031522751 0.0056532919
-0.018869594 0.031449325 0.019307196
-0.019941425 0.034897491 0.027683079
-0.019112647 0.035207506 0.029819012
-0.016790699 0.032648582 0.030955553
-0.015671235 0.032264307 0.034127504
-0.013811868 0.03021346 0.039151698
-0.012801608 0.029870419 0.044692427
-0.01199617 0.029990423 0.047741711
-0.010911268 0.029376492 0.048318207
-0.01028692 0.030003516 0.048554331
-0.0092181321 0.029330421 0.048330188
-0.0084381672 0.029533586 0.048268944
-0.0077215093 0.030028092 0.048179418
-0.0068763793 0.030084159 0.047446519
-0.0060456274 0.030228138 0.047492087
-0.005294709 0.030885801 0.046829253
-0.0043698554 0.030588986 0.046797514
-0.0034741652 0.030398946 0.046474814
-0.0026143091 0.030500272 0.046382129
-0.0017249198 0.030186096 0.046174765
-0.00086642313 0.030324809 0.045964748
0 0.030163391 0.04566589
0.00085269893 0.029844463 0.045896679
0.0017203651 0.03010639 0.045471877
0.0025889589 0.03020452 0.045924217
0.0034413245 0.03011159 0.045890063
0.0043321014 0.030324711 0.046221226
0.0051490916 0.030036367 0.04643929
0.0060405941 0.03020297 0.046700686
0.006878776 0.030094646 0.047017455
0.0077678845 0.03020844 0.047139347
0.0087017845 0.030456247 0.047222674
0.0096563688 0.03072481 0.047393799
0.010562964 0.030808644 0.047433794
0.011168242 0.030068344 0.04779461
0.012043129 0.03010782 0.047892302
0.012731536 0.029706918 0.048906893
0.01366527 0.029892778 0.049351245
0.014285815 0.029411972 0.0496445
0.015200001 0.029555559 0.049528778
0.015827678 0.029156251 0.049220622
0.01657735 0.029010363 0.048000395
0.017435489 0.029059149 0.046096206
0.01882161 0.029943472 0.039483666
0.020242853 0.030804342 0.037761122
0.021308087 0.031074293 0.035825789
0.024637731 0.034492824 0.033278048
0.022957081 0.030903764 0.025990963
0.023933124 0.031024421 0.016786098
-0.019907946 0.032576639 0.013813764
-0.019312035 0.033106346 0.024200022
-0.019691838 0.035445306 0.029013693
-0.016871013 0.031966131 0.030540735
-0.016392034 0.032784067 0.031833738
-0.014662908 0.031050865 0.039238632
-0.013670547 0.030758729 0.044857115
-0.012707786 0.030498685 0.048280716
-0.011784525 0.030303063 0.048599035
-0.01101138 0.030493051 0.048447698
-0.010211102 0.030633306 0.048359811
-0.0093898093 0.030730287 0.048187673
-0.0085157696 0.030656772 0.048042834
-0.0076694828 0.030677931 0.047746897
-0.0071214424 0.032046489 0.047278494
-0.0061539798 0.031649038 0.046758682
-0.0051467461 0.030880477 0.046619117
-0.0043304279 0.031179082 0.046295345
-0.0034627591 0.031164832 0.046013594
-0.0026016168 0.031219402 0.045856625
-0.0017341978 0.031215562 0.045724362
-0.0008696228 0.03130642 0.045424342
0 0.03085364 0.045229942
0.00086411159 0.031108016 0.045265794
0.0017129922 0.030833859 0.045280069
0.0025901156 0.031081388 0.0457021
0.0034903139 0.031412825 0.045699775
0.0042804116 0.030818965 0.045852304
0.005163637 0.030981822 0.04603985
0.0060692886 0.031213483 0.04638958
0.0069225999 0.031151699 0.046399921
0.0078505883 0.031402353 0.046488076
0.0086283563 0.031062081 0.046939671
0.0094332844 0.030872567 0.047117889
0.010332535 0.030997606 0.04717353
0.011416903 0.03161604 0.047393799
0.012263115 0.031533722 0.047603548
0.012850558 0.030841341 0.047863483
0.013614999 0.030633749 0.048730314
0.014304755 0.030292423 0.049351245
0.015182319 0.030364638 0.049924284
0.015930766 0.030184612 0.049987346
0.016553063 0.029795514 0.049983889
0.017663755 0.03028072 0.048082411
0.018557763 0.03036725 0.0442729
0.019611891 0.030696874 0.039056093
0.021487862 0.032231793 0.037484556
0.023873182 0.034377381 0.03536889
0.024864718 0.034428071 0.032393396
0.024107864 0.03214382 0.024876297
0.024792468 0.031876031 0.014028668
-0.020730348 0.033348821 0.0056532919
-0.019889584 0.033450663 0.01902771
-0.020631723 0.036351129 0.027315378
-0.018717539 0.034627445 0.030316561
-0.017239405 0.033571474 0.03151232
-0.015642628 0.032154288 0.038320214
-0.014485301 0.03152683 0.045934618
-0.013494814 0.031206757 0.046880752
-0.01280156 0.031577181 0.048965126
-0.011797528 0.03117918 0.049230844
-0.011039761 0.03142086 0.048875868
-0.0102696 0.031664602 0.048456013
-0.009339394 0.031414326 0.048274517
-0.0087099764 0.032226913 0.047839999
-0.0078685209 0.032348365 0.047490567
-0.0069285082 0.032044351 0.046744466
-0.0060811574 0.032143261 0.046797514
-0.0051752664 0.031914141 0.046334088
-0.0043251389 0.032006025 0.046218395
-0.0034554147 0.031962585 0.045983553
-0.002631133 0.032450639 0.045756787
-0.0017226205 0.03186848 0.045724362
-0.00086197664 0.031893138 0.045296848
0 0.03203059 0.045162231
0.00086101866 0.031857692 0.045192182
0.0017239377 0.031892847 0.045181423
0.0025921548 0.031969909 0.04564181
0.0034561332 0.031969231 0.045444489
0.0043041832 0.031850956 0.045773268
0.0051871203 0.031987242 0.04592064
0.0060870242 0.032174271 0.046162516
0.0068724747 0.031785194 0.046215028
0.0078281146 0.032182246 0.046352208
0.0085950484 0.031801682 0.046442658
0.0094532976 0.031797454 0.046842068
0.010441251 0.032193854 0.047021419
0.011124562 0.031662218 0.047194958
0.012104991 0.031991761 0.047284245
0.013205451 0.032573447 0.04753086
0.01384518 0.032016978 0.047996461
0.014501572 0.031562243 0.048884928
0.015286231 0.031421699 0.049497902
0.016059807 0.03127436 0.050018221
0.016791841 0.031064907 0.050437182
0.017611681 0.031030104 0.049924284
0.018291421 0.030762844 0.047993273
0.019206885 0.030898033 0.04604283
0.020831009 0.032114472 0.038991034
0.022634065 0.033498414 0.036805302
0.025912866 0.036876 0.034560472
0.024645256 0.033773128 0.031921297
0.024580378 0.032481216 0.020635903
0.025531841 0.032575108 0.0074570477
-0.020768803 0.034313675 0.019060463
-0.020502204 0.035412896 0.0251728
-0.021030042 0.038054362 0.029985905
-0.018210288 0.03459955 0.031336337
-0.016745215 0.033490431 0.033578515
-0.015294179 0.032287709 0.044813186
-0.014438906 0.0322752 0.046948254
-0.013500007 0.032062516 0.048661679
-0.012831477 0.03250641 0.049131155
-0.011821336 0.032086484 0.049323648
-0.011026837 0.032232292 0.048732847
-0.010373927 0.032850768 0.048317373
-0.0096969893 0.03349869 0.047994614
-0.0085952282 0.03266187 0.047317028
-0.0077657658 0.032788787 0.046755165
-0.0069721872 0.033117887 0.046596169
-0.0060649156 0.032923829 0.046278954
-0.0051983437 0.032922842 0.046031266
-0.0042982846 0.032666966 0.045882165
-0.003449972 0.032774735 0.045642853
-0.0026106942 0.033068795 0.045439661
-0.0017035031 0.032366559 0.045407236
-0.00086696073 0.032944508 0.045024961
0 0.032687616 0.044859827
0.00086444709 0.032848991 0.044898182
0.0017228938 0.032734983 0.044835836
0.0025792748 0.032670815 0.045023352
0.0034301032 0.032585979 0.044953585
0.0043162378 0.032803409 0.04531312
0.005172133 0.032756843 0.045355707
0.0060217716 0.032689616 0.045632243
0.0068903305 0.032729071 0.045598716
0.0076914513 0.032475017 0.045832306
0.0086030057 0.032691423 0.046012223
0.0094758701 0.032734826 0.046394944
0.010309318 0.032646175 0.04657197
0.011218135 0.032791473 0.046842068
0.012062503 0.032741077 0.046993852
0.012838653 0.032524589 0.047020972
0.013733475 0.032617006 0.047186643
0.014564957 0.032556962 0.048003227
0.015300637 0.032301344 0.048661739
0.016018251 0.032036502 0.049429059
0.016840212 0.031996403 0.05037412
0.017442822 0.031563204 0.050346166
0.018545857 0.032033753 0.050167501
0.019196576 0.031716079 0.047669172
0.020252068 0.032065775 0.043814778
0.022226296 0.033783969 0.038566321
0.025669441 0.037516877 0.036544681
0.026689578 0.037563108 0.033175707
0.025836194 0.035063405 0.026404202
0.025464583 0.033367384 0.014443845
-0.021635609 0.035157867 0.0056981146
-0.0209431 0.035512213 0.024025887
-0.021993287 0.038988099 0.027820528
-0.020739116 0.038515501 0.03115356
-0.017918501 0.034941077 0.033359736
-0.016208252 0.033269569 0.04433459
-0.015319241 0.033191688 0.046952039
-0.014266481 0.032728985 0.047510147
-0.013547197 0.033021294 0.048693687
-0.012796732 0.033271503 0.049073398
-0.011880207 0.033094864 0.048926324
-0.011161542 0.033484627 0.048447698
-0.010550566 0.034289341 0.047694147
-0.0094220648 0.033405501 0.047315717
-0.0086138956 0.033594195 0.046808183
-0.0077518718 0.033591446 0.046550155
-0.0069430582 0.03384741 0.046046555
-0.006048236 0.033697315 0.046058446
-0.0051768678 0.033649642 0.045857549
-0.0043183868 0.033683419 0.045818359
-0.0034741834 0.03387329 0.04554522
-0.0025891827 0.033659372 0.045477748
-0.0017183713 0.033508237 0.045510173
-0.00086750829 0.033832826 0.045162976
0 0.033597298 0.045122147
0.00086643157 0.033790831 0.045106709
0.0017361975 0.033855852 0.045194507
0.0026112557 0.033946324 0.045290291
0.0034538459 0.033674996 0.045181423
0.0043447055 0.033888705 0.045372874
0.0051535405 0.033498015 0.045490593
0.0060687517 0.033811614 0.045632243
0.006859805 0.033441547 0.045477509
0.0077265743 0.033481821 0.04564926
0.0086635314 0.033787772 0.045682907
0.0094246957 0.03341483 0.045992404
0.010305889 0.033494137 0.046301544
0.011163098 0.033489294 0.046386063
0.012035887 0.033528544 0.046512067
0.013014628 0.033838034 0.046782404
0.013768123 0.033559799 0.046846509
0.014699322 0.033721976 0.04731068
0.015671 0.033953834 0.047822684
0.016129913 0.033108771 0.04866752
0.016764166 0.032690123 0.049983889
0.017817248 0.033089176 0.050339639
0.018391255 0.032602679 0.050510317
0.019250726 0.032642536 0.049105287
0.019938698 0.032400385 0.046938926
0.020945551 0.032675061 0.043325812
0.024088122 0.036132183 0.037817389
0.026905874 0.038864039 0.035426378
0.027008807 0.037619408 0.032109797
0.025857534 0.034773923 0.024551898
-0.021635331 0.036058888 0.019054353
-0.022932243 0.039882161 0.025916368
-0.022212669 0.040386673 0.030085683
-0.019588124 0.037310712 0.031475574
-0.017379647 0.034759294 0.040074497
-0.016230026 0.034168478 0.046743393
-0.015250648 0.033890329 0.047133118
-0.014386622 0.033850875 0.048830539
-0.013575147 0.033937868 0.048811346
-0.012701893 0.033871718 0.048935801
-0.012001698 0.034290567 0.04866448
-0.011315478 0.034816854 0.048125178
-0.010288059 0.034293529 0.047321498
-0.0095950821 0.034891207 0.046641171
-0.0085583758 0.034233503 0.046550155
-0.0077885189 0.03461564 0.046147585
-0.0069053089 0.034526542 0.045999199
-0.0059951292 0.034257881 0.045887411
-0.0051679383 0.034452923 0.045780867
-0.0043082521 0.034466017 0.045810372
-0.0034548261 0.03454826 0.045477509
-0.0026044473 0.034725964 0.045378774
-0.0017383572 0.034767147 0.045464903
-0.00087080087 0.034832034 0.045335382
0 0.034856055 0.045138657
0.00087151839 0.034860734 0.045096487
0.0017243662 0.034487322 0.045218259
0.0026121603 0.034828804 0.045372486
0.0034012555 0.034012556 0.04522264
0.0043184157 0.034547325 0.045533687
0.0051894607 0.034596406 0.045533687
0.0060541346 0.034595054 0.045703977
0.0068837879 0.034418941 0.045642912
0.0077444036 0.03441957 0.045668751
0.0085900566 0.034360226 0.045668751
0.0095352521 0.034673646 0.045906484
0.010295947 0.034319825 0.046145588
0.011184959 0.03441526 0.046286851
0.012024286 0.034355104 0.046280503
0.012938508 0.034502689 0.046575189
0.013706109 0.034265272 0.046447843
0.014925892 0.035119746 0.04659
0.015459237 0.03435386 0.047383815
0.016623806 0.034997486 0.047881484
0.016962804 0.033925608 0.04905057
0.017779913 0.033866499 0.050112784
0.018371982 0.033403605 0.050432891
0.019240182 0.033461187 0.050224215
0.019997962 0.033329938 0.047780097
0.020728193 0.033165108 0.046737075
0.022315783 0.034331974 0.040233254
0.025377266 0.03759595 0.036681116
0.028123366 0.040176239 0.033051521
0.027227182 0.037554733 0.027406782
0.026348911 0.035131883 0.0088294744
-0.022738874 0.038845576 0.022322565
-0.023417989 0.041745111 0.027717561
-0.021961706 0.040928636 0.031027734
-0.018473219 0.036066763 0.034291238
-0.017124146 0.035104498 0.044097245
-0.01605206 0.034638658 0.047004312
-0.015182033 0.034581296 0.04740122
-0.014470021 0.034898285 0.048740298
-0.013511267 0.034622625 0.048935801
-0.012761156 0.034880493 0.048718959
-0.012122166 0.035500631 0.048418075
-0.011164803 0.03521207 0.04753834
-0.0103261 0.035280842 0.046650261
-0.0095385313 0.035552707 0.046368867
-0.0085118217 0.034898471 0.046107113
-0.0077761519 0.035424691 0.046045423
-0.006877115 0.035245214 0.045653909
-0.0060110539 0.035207603 0.045730621
-0.0052167107 0.035647526 0.045658588
-0.004307365 0.035320394 0.045641661
-0.0034799285 0.035669267 0.045174122
-0.0026123321 0.035701871 0.045227528
-0.0017293893 0.035452481 0.045427024
-0.00086781016 0.035580218 0.045345396
0 0.0353745 0.045032263
0.00086219248 0.035349891 0.045007944
0.0017161223 0.035180505 0.045050621
0.0025630291 0.035028063 0.045160115
0.0034447897 0.035309095 0.045035809
0.0042816694 0.035109688 0.04534936
0.0051629306 0.035280023 0.045563489
0.0060156547 0.035234548 0.045744538
0.0069091418 0.035409354 0.045668751
0.0077809915 0.035446741 0.045570076
0.0086086085 0.035295296 0.045570076
0.0094853025 0.035354309 0.045686483
0.010386315 0.035486575 0.045967072
0.011203629 0.035334524 0.046092302
0.012131365 0.035527568 0.045964867
0.012816698 0.03503231 0.046176821
0.013741535 0.035212684 0.046265066
0.014638526 0.03530468 0.046479642
0.015491541 0.035286289 0.046494603
0.016443379 0.035483081 0.04722634
0.017345002 0.035557251 0.048074752
0.01779766 0.034747813 0.049504071
0.018548241 0.034567177 0.050088406
0.01924189 0.034300763 0.050088406
0.019989762 0.034149177 0.049446046
0.020886721 0.034254223 0.047084332
0.021639792 0.034124289 0.044659853
0.024085045 0.036573589 0.038453043
0.026674125 0.03905854 0.03428641
0.028030057 0.039628699 0.029594421
0.026493592 0.036207907 0.01497969
-0.022529559 0.037849661 0.0096046031
-0.024137456 0.042240549 0.024616092
-0.023325646 0.042594656 0.028363883
-0.020203108 0.03856957 0.031233937
-0.018110937 0.036221873 0.041411608
-0.016991695 0.035682559 0.04466185
-0.016061233 0.035503779 0.047044516
-0.015346489 0.035808474 0.048166811
-0.014401069 0.035579111 0.048696399
-0.013614495 0.035738051 0.048633754
-0.013011904 0.036433332 0.04849422
-0.012081144 0.036243435 0.047673643
-0.011207471 0.036208753 0.046694189
-0.010366911 0.03628419 0.046386957
-0.0095016854 0.036279164 0.045998394
-0.0085769333 0.036023121 0.04594931
-0.0076928064 0.035899762 0.045697838
-0.0068646758 0.036039546 0.045546353
-0.0060240026 0.036144014 0.045607477
-0.0051761749 0.036233224 0.045245081
-0.0043345266 0.036410023 0.045290917
-0.0034935181 0.036681943 0.045055598
-0.0025607008 0.035849813 0.045157641
-0.0017132522 0.035978295 0.045427024
-0.00086828182 0.036467835 0.045263648
0 0.035968691 0.045068592
0.00086702738 0.036415149 0.045044273
0.0017128937 0.035970766 0.045148015
0.0025707358 0.035990302 0.045182407
0.0034853946 0.036596645 0.045060933
0.0043049604 0.036161669 0.045429736
0.0052009015 0.036406312 0.045598716
0.0060148048 0.036088828 0.0457187
0.0068847421 0.036144897 0.045570076
0.007758915 0.036208272 0.045488745
0.0085781273 0.036028136 0.045544237
0.0095568597 0.036489826 0.045531332
0.010299561 0.036048461 0.045914054
0.011212903 0.036226302 0.046010762
0.011983358 0.035950076 0.045895219
0.013036976 0.036503531 0.046042204
0.013627865 0.035773147 0.046182275
0.01459384 0.036055367 0.046326607
0.015374417 0.03587364 0.046340674
0.016375272 0.036197968 0.047044456
0.017195737 0.036111049 0.047489285
0.017981905 0.035963811 0.048443794
0.01858644 0.035483204 0.049909562
0.019364195 0.035360705 0.050097257
0.020267678 0.035468437 0.049951255
0.020976413 0.035240375 0.048143089
0.021509912 0.034746781 0.046162993
0.023156028 0.036020488 0.041928738
0.024336765 0.036505148 0.036274493
0.027147278 0.039316747 0.031535596
0.026968608 0.037756052 0.020508319
-0.023008609 0.039574809 0.018651724
-0.023999684 0.042999435 0.025520772
-0.021430369 0.040065471 0.02910766
-0.019606868 0.038322516 0.033888251
-0.017771445 0.03638915 0.043886781
-0.017240925 0.037067991 0.046249062
-0.016123563 0.036490172 0.047540516
-0.015198271 0.036306977 0.048645198
-0.014368608 0.036344126 0.048645198
-0.013666956 0.036729943 0.047928244
-0.013154937 0.037710819 0.04782033
-0.012151196 0.03732153 0.04696548
-0.01119185 0.037019197 0.046387792
-0.010285879 0.036857732 0.045921564
-0.0094168978 0.036811508 0.045838088
-0.0086180568 0.037057646 0.045789629
-0.0077969823 0.037252247 0.045598477
-0.0069247955 0.037220776 0.045417428
-0.0060415003 0.037112076 0.045453191
-0.0051886593 0.037185393 0.04500854
-0.0043419353 0.037340645 0.045272917
-0.0034719703 0.03732368 0.044891745
-0.0025793153 0.036970187 0.044858932
-0.0017331816 0.037263408 0.045335203
-0.0008582999 0.036906894 0.044856638
0 0.03722021 0.045027763
0.00086498668 0.037194427 0.044908583
0.0017143156 0.036857784 0.045035809
0.0025952558 0.03719867 0.045077384
0.0034724481 0.037328817 0.044873804
0.0043037278 0.037012059 0.045297444
0.005193674 0.037221331 0.045297444
0.006057797 0.037212182 0.045488745
0.0069171549 0.037179708 0.045433044
0.0077932216 0.03723428 0.045433044
0.0086216377 0.037073042 0.045433044
0.0095199682 0.037214424 0.045630276
0.010391867 0.037237521 0.045922786
0.011225984 0.037132099 0.045976728
0.012086873 0.037123967 0.045845389
0.013025168 0.037338816 0.046027213
0.013657411 0.036704291 0.046212196
0.014616045 0.036969997 0.046317309
0.01560625 0.037281595 0.046277076
0.016359258 0.037023585 0.046984315
0.017283861 0.0371603 0.04728511
0.018193413 0.037253175 0.048263341
0.018620558 0.036394726 0.049807757
0.019493122 0.036443662 0.050058365
0.020196181 0.036184825 0.049827069
0.021107612 0.036305096 0.049604267
0.021713104 0.035910133 0.046970248
0.02256557 0.03593776 0.044682622
0.024801774 0.038088437 0.037091911
0.026280751 0.038968012 0.032920599
0.026783857 0.038390197 0.020576566
0.02731913 0.037894279 0.0084238052
-0.022620415 0.039811932 0.018680423
-0.022946894 0.042069308 0.026691347
-0.021108622 0.040381711 0.029588431
-0.018963914 0.037927829 0.039688975
-0.017770093 0.037232574 0.045650154
-0.016891398 0.037161075 0.046509981
-0.016050965 0.037170652 0.04741019
-0.015293703 0.037384607 0.047997415
-0.014640171 0.037892208 0.047926873
-0.013912003 0.038258009 0.047544837
-0.013083964 0.038379628 0.04701972
-0.012064138 0.037915863 0.046424001
-0.011239761 0.038042266 0.045873493
-0.010386676 0.038084477 0.045689672
-0.0094443448 0.037777379 0.045629382
-0.0085707977 0.037711509 0.04553321
-0.0078097312 0.03818091 0.04550299
-0.006876946 0.0378232 0.045272917
-0.0060326336 0.037919413 0.045103699
-0.0051516974 0.037779115 0.044891566
-0.0043251454 0.03806128 0.045255989
-0.0034525718 0.037978288 0.044891745
-0.0025789212 0.037824176 0.045046687
-0.0017228869 0.03790351 0.045147181
-0.00086270424 0.037958987 0.044810891
0 0.038153403 0.044858158
0.00085739332 0.037725307 0.044824481
0.0017228869 0.03790351 0.044903457
0.0025928845 0.03802897 0.044988722
0.0034110406 0.037521448 0.044784814
0.0043358863 0.038155798 0.045141339
0.0051835598 0.038012773 0.045148373
0.0060276217 0.037887909 0.045277923
0.0069494951 0.038222224 0.04524675
0.0077399295 0.037839655 0.045284003
0.008588098 0.037787627 0.045314312
0.0095847668 0.038339067 0.045441449
0.010344445 0.037929632 0.045807391
0.011173079 0.037816573 0.045855463
0.012080003 0.037965722 0.045807391
0.01284513 0.037679046 0.045923859
0.01375363 0.037822485 0.046023697
0.014602669 0.037795145 0.046059519
0.015498664 0.037885621 0.04608506
0.0164485 0.038091265 0.04657948
0.01714173 0.037711807 0.047067195
0.017980345 0.037673105 0.048168182
0.018890504 0.037781008 0.04953292
0.019569738 0.037437759 0.050063789
0.020363405 0.037332907 0.049920827
0.021149218 0.037222624 0.049681872
0.021583065 0.03652519 0.047135949
0.022510929 0.036684476 0.046134412
0.024256004 0.038116578 0.04098925
0.025713567 0.039013688 0.034154803
0.026799107 0.039305359 0.026989609
0.027311087 0.038764123 0.013642788
-0.022716183 0.040889129 0.018950582
-0.022262283 0.041741781 0.026784897
-0.020830907 0.040756121 0.030516356
-0.018808918 0.03847279 0.043509781
-0.017896228 0.038349062 0.045826524
-0.016831649 0.037871212 0.046441078
-0.016153805 0.038259011 0.046835274
-0.015314947 0.038287368 0.04782033
-0.01451223 0.038414724 0.047461897
-0.01390689 0.039113127 0.046744615
-0.01313905 0.039417151 0.046419531
-0.012066393 0.038784835 0.045945883
-0.011322433 0.039193038 0.045341223
-0.010425071 0.03909402 0.04522267
-0.0095431991 0.039040361 0.045198977
-0.0086857211 0.039085742 0.045123696
-0.0078090052 0.039045025 0.044990629
-0.0069731772 0.039224122 0.044742346
-0.0060216538 0.038710631 0.044579655
-0.0052242377 0.03918178 0.044514239
-0.0042865798 0.038579218 0.044809192
-0.0034785005 0.039133132 0.044708163
-0.002586564 0.038798459 0.044851929
-0.0017313204 0.038954709 0.044981807
-0.00086805376 0.039062418 0.044770122
0 0.038955174 0.044692636
0.00086411723 0.038885277 0.044611096
0.0017291732 0.038906395 0.044685423
0.0025656298 0.038484447 0.044784814
0.0035083208 0.039468609 0.04460305
0.0042606369 0.038345732 0.04511416
0.0051884549 0.038913414 0.045104593
0.0060696602 0.039019246 0.045158803
0.0068629761 0.038604241 0.045199335
0.0078444257 0.039222129 0.04525882
0.0086916834 0.039112575 0.045262903
0.0094310502 0.038581569 0.045441449
0.01032849 0.038731836 0.045807391
0.011185262 0.038718216 0.045886487
0.012072234 0.038803611 0.045839012
0.013004048 0.039012142 0.045971006
0.01374955 0.038670611 0.046120703
0.014530464 0.038462993 0.04600367
0.01560239 0.039005976 0.04605934
0.016365491 0.038760375 0.046670109
0.016979389 0.038203623 0.046994388
0.018246472 0.039099582 0.047419697
0.019225584 0.039325058 0.049284548
0.019537963 0.038226448 0.049827069
0.020397445 0.038245212 0.049866378
0.020811137 0.037460044 0.049662828
0.021731606 0.037612393 0.04897514
0.022832224 0.038053706 0.046481103
0.023962228 0.038510721 0.043348491
0.025959438 0.040281884 0.035691857
0.027060451 0.040590677 0.029994816
0.027354512 0.039708164 0.015116483
-0.023650987 0.041844051 0.0053745508
-0.022811726 0.041973572 0.021947801
-0.022183817 0.042518985 0.027623951
-0.020319263 0.040638525 0.030560941
-0.018771835 0.039250199 0.043991387
-0.017808346 0.039008755 0.046249568
-0.017083867 0.039292891 0.046371579
-0.016203275 0.039228979 0.046844423
-0.015291058 0.039077148 0.047649473
-0.014793405 0.040029213 0.047089905
-0.013831173 0.039764624 0.046374798
-0.013036731 0.039979305 0.046189725
-0.012066908 0.039648414 0.04548201
-0.011206663 0.039654348 0.045082062
-0.010310346 0.039522994 0.045022845
-0.0096399309 0.040312439 0.045050055
-0.0086407606 0.039747499 0.044817746
-0.0077358242 0.039538655 0.044589639
-0.0070077605 0.040294621 0.044508517
-0.0060394392 0.039687745 0.044490218
-0.0052086939 0.03993332 0.044329286
-0.0043451912 0.039975762 0.044485331
-0.0034802998 0.04002345 0.044708163
-0.0026120679 0.04005171 0.044741452
-0.0017340127 0.039882295 0.044903338
-0.00086302002 0.039698921 0.044707775
0 0.040025365 0.044552147
0.00086516608 0.039797641 0.044611186
0.0017270977 0.039723247 0.044724762
0.0025857792 0.039648615 0.044724762
0.0034624168 0.039817795 0.044598758
0.0043055513 0.039611075 0.045056641
0.0052702082 0.040404931 0.045072615
0.006045281 0.039726134 0.045158565
0.0068704374 0.039505016 0.045167387
0.0077894633 0.039812811 0.045223624
0.0085352762 0.039262272 0.045258105
0.0095324274 0.039862879 0.045342326
0.010439056 0.040016383 0.045758814
0.01115554 0.039473448 0.045799613
0.01200435 0.039442867 0.045605034
0.013034943 0.039973829 0.045885026
0.013757786 0.039553635 0.045793951
0.014785304 0.040007293 0.04582715
0.015403618 0.039364804 0.045977384
0.01638996 0.039680958 0.046606451
0.01729822 0.039785903 0.046861261
0.018085897 0.039616726 0.047715694
0.018866127 0.039447356 0.049129248
0.019831918 0.039663836 0.049827069
0.020187104 0.038691949 0.049961716
0.020992441 0.03862609 0.049681872
0.021865949 0.03868591 0.04913944
0.02251064 0.038351461 0.047353476
0.023458784 0.038539432 0.044838995
0.026101444 0.041402288 0.036666363
0.027765494 0.042573757 0.031515062
0.02744934 0.040731281 0.018506259
-0.023655832 0.042762466 0.0073577762
-0.022874329 0.043003738 0.024384201
-0.022356555 0.04378159 0.028004408
-0.019977691 0.040823977 0.034864217
-0.018701959 0.039954189 0.044736952
-0.017852904 0.039956503 0.046291679
-0.017094111 0.040171161 0.046441078
-0.01613499 0.039912872 0.046792269
-0.015328179 0.04002358 0.047225386
-0.01488496 0.041152537 0.046723396
-0.013828806 0.040622115 0.046294957
-0.012944266 0.0405587 0.045905054
-0.012040677 0.040422272 0.045357853
-0.011111852 0.04017362 0.044770062
-0.010490845 0.041089144 0.044606864
-0.0095707504 0.040893208 0.044918776
-0.0086154537 0.040492631 0.044646651
-0.0077945562 0.040704902 0.044555068
-0.006931229 0.040720969 0.044517189
-0.0060955388 0.04092719 0.044332057
-0.0052027879 0.040755171 0.044304848
-0.0043495018 0.040885314 0.044485778
-0.0034673023 0.040740803 0.044461221
-0.002613758 0.040948875 0.044581413
-0.0017182218 0.040378213 0.044786632
-0.00086763891 0.040779028 0.044572324
0 0.040499114 0.044576049
0.00085500744 0.040185347 0.044578344
0.0017309724 0.040677853 0.044725627
0.0025767582 0.040369209 0.044687748
0.0034582459 0.04063439 0.044652462
0.0043197125 0.040605299 0.044838876
0.005176336 0.040547967 0.044838548
0.0060392413 0.040549193 0.045093
0.0068716574 0.040370986 0.045118302
0.0077784732 0.040620916 0.045248389
0.0086071147 0.040453438 0.045239687
0.009490164 0.040548883 0.045373917
0.010210689 0.039991867 0.04568696
0.011230302 0.040601861 0.045817584
0.012189904 0.040923249 0.045767277
0.012846914 0.040253665 0.045860142
0.013887865 0.040795606 0.045848638
0.014584385 0.040321536 0.04608807
0.015426753 0.040280968 0.04616648
0.016224327 0.04013386 0.046624333
0.017072687 0.040120814 0.046861261
0.01783791 0.039922941 0.04781881
0.018958511 0.040502273 0.049140245
0.019909279 0.040684178 0.049804568
0.020253802 0.039663695 0.049961716
0.021177897 0.039814446 0.049681872
0.021642899 0.039123699 0.049110204
0.022547225 0.039248873 0.047992587
0.023714701 0.03980682 0.046556681
0.025203837 0.0408476 0.038872153
0.028187996 0.044161193 0.031513095
0.02742604 0.041581415 0.020582259
0.029512493 0.043346476 0.0063489079
-0.023628086 0.043621082 0.0092790127
-0.022746531 0.04367334 0.024572462
-0.022768686 0.045537371 0.028219163
-0.019656871 0.041023035 0.040996939
-0.018645132 0.040680289 0.044692218
-0.017924795 0.040970962 0.045826524
-0.017035248 0.040884592 0.046416789
-0.016004521 0.040432476 0.046978176
-0.015475476 0.041267935 0.04728806
-0.014778078 0.041726336 0.046879977
-0.013969176 0.04190753 0.046042085
-0.013080351 0.041857123 0.045615733
-0.012001073 0.041146535 0.045062691
-0.011284029 0.041664109 0.044527858
-0.01038823 0.04155292 0.044527858
-0.0096377917 0.042055819 0.044508517
-0.0087359818 0.041932713 0.044544399
-0.007769058 0.041434977 0.044350505
-0.0069595268 0.041757163 0.044277877
-0.0060448442 0.041450363 0.04422307
-0.0051439824 0.041151859 0.044221461
-0.0043195435 0.041467618 0.044314355
-0.003480976 0.04177171 0.044399381
-0.0025829172 0.041326676 0.04450056
-0.0017418603 0.041804645 0.044626594
-0.00086724578 0.041627798 0.044555336
0 0.041156273 0.044576049
0.00086891319 0.041707832 0.044564903
0.0017151815 0.041164357 0.044756383
0.0025872048 0.041395277 0.044754118
0.0034314313 0.041177176 0.044611514
0.0043275827 0.041544791 0.044725627
0.0051747072 0.041397657 0.044876754
0.0060740202 0.041650422 0.045110375
0.0068337782 0.041002668 0.045122683
0.0077926344 0.041560717 0.045252711
0.0086020315 0.04128975 0.04527238
0.0094806319 0.04137003 0.045465976
0.010381801 0.041527204 0.045797139
0.01116951 0.04124127 0.045883447
0.012051067 0.041317943 0.045764178
0.012891104 0.041251533 0.04587543
0.013709254 0.04112776 0.045986533
0.014564651 0.041123722 0.046227008
0.015474406 0.041265082 0.046184748
0.016285958 0.04114347 0.04653281
0.016957922 0.040699013 0.046783864
0.017983496 0.041105136 0.047308147
0.018660832 0.040714543 0.048893601
0.019830547 0.04138549 0.049613386
0.020417338 0.040834676 0.049876094
0.020773094 0.039884344 0.049527764
0.021840258 0.040320475 0.049110204
0.022651028 0.040268496 0.047970086
0.023469485 0.040233403 0.04662621
0.024966804 0.041324366 0.041937113
0.028732844 0.045972548 0.032252878
0.027548032 0.042655017 0.020655543
0.029831564 0.044747345 0.006247431
-0.023638846 0.044550132 0.012199998
-0.023964364 0.046970151 0.025477499
-0.022192014 0.045308694 0.02889818
-0.019703945 0.041977972 0.041346073
-0.018739937 0.04173895 0.045132577
-0.017796785 0.04152583 0.045733333
-0.01704769 0.041766841 0.045989424
-0.016140699 0.04162601 0.047041535
-0.015548679 0.042326961 0.047597378
-0.014739972 0.0424858 0.046423972
-0.013861907 0.042452089 0.045651823
-0.012931603 0.042243239 0.044966072
-0.012157981 0.042552933 0.044685841
-0.011202296 0.042224042 0.044240743
-0.010404176 0.042483721 0.044281751
-0.0095312698 0.042457476 0.044348538
-0.0087397099 0.042824578 0.044329286
-0.0078062019 0.042500433 0.044219494
-0.0070296503 0.043056611 0.044048697
-0.0060599875 0.042419914 0.043986619
-0.0051801926 0.042304907 0.044029623
-0.0043568444 0.042697076 0.044164598
-0.0034462877 0.042217024 0.044135511
-0.0026274442 0.042914923 0.044217348
-0.0017183247 0.042098954 0.044475973
-0.00086351496 0.042312235 0.044320673
0 0.042274445 0.044362903
0.00086393155 0.042332646 0.044405282
0.0017127298 0.041961879 0.044598758
0.0025965541 0.042410385 0.044777602
0.0034648569 0.042444497 0.044596761
0.004325896 0.042393781 0.044944316
0.0051984042 0.042453635 0.04509747
0.0060687358 0.04248115 0.045158893
0.0068496959 0.041954387 0.045131505
0.0077328314 0.04210097 0.04520157
0.0086082099 0.042180229 0.045402199
0.0094618937 0.042148437 0.045417905
0.010425595 0.04257118 0.045703888
0.011134239 0.041967519 0.04582715
0.012063875 0.042223562 0.045815974
0.012918219 0.042199519 0.046250969
0.01374486 0.042093635 0.04623884
0.014544855 0.041923404 0.046175003
0.015514429 0.042233724 0.046187937
0.016062751 0.04142499 0.046481609
0.017067904 0.041816365 0.046632588
0.018020228 0.042047195 0.047276139
0.018669328 0.041581687 0.048586816
0.020042917 0.042700127 0.049391061
0.020333886 0.041515019 0.04978931
0.021161715 0.041476961 0.049388736
0.021844234 0.041167978 0.048816085
0.022530096 0.040887952 0.047849268
0.023546956 0.041207176 0.046607316
0.024867618 0.042017698 0.042968392
0.0278327 0.045460075 0.031290799
0.028597033 0.045201764 0.020358026
0.030322928 0.046431985 0.0061455667
-0.02372664 0.045628157 0.0119932
-0.024530584 0.049061168 0.025329024
-0.0217498 0.045312084 0.028762877
-0.019720808 0.042871322 0.042081147
-0.018651573 0.04238994 0.045090467
-0.017807292 0.042398315 0.046156377
-0.017170541 0.042926356 0.046110958
-0.016022602 0.042164743 0.047161371
-0.015704088 0.043622464 0.047670692
-0.014785688 0.043487318 0.046488196
-0.013804127 0.043137897 0.045428187
-0.013048677 0.043495588 0.044826597
-0.012094081 0.04319315 0.044547737
-0.011153051 0.042896349 0.043948114
-0.010450729 0.043544706 0.044134051
-0.0096184304 0.043720137 0.044172168
-0.0086440677 0.043220341 0.043913931
-0.0078694895 0.043719389 0.04386431
-0.0068788803 0.042993002 0.043774545
-0.0061038095 0.043598641 0.043777525
-0.0052081272 0.043401062 0.043786079
-0.0043554166 0.043554168 0.044038415
-0.00347943 0.043492876 0.043961853
-0.0025864267 0.043107111 0.044008821
-0.0017132455 0.042831138 0.044200569
-0.0008644234 0.043221168 0.044079423
0 0.042849492 0.043975621
0.00086014019 0.043007009 0.044259369
0.0017333523 0.04333381 0.044400066
0.0025951713 0.043252856 0.044593126
0.0034642017 0.043302521 0.044522524
0.0043325154 0.043325156 0.044784814
0.0051610176 0.04300848 0.045025676
0.0060142926 0.042959232 0.045126081
0.0069416882 0.04338555 0.045217991
0.0077806357 0.043225754 0.04540506
0.0085750818 0.042875409 0.045423746
0.0095255431 0.043297924 0.04545784
0.01031444 0.042976834 0.045619756
0.011196337 0.043062836 0.045815974
0.012045804 0.043020733 0.045763969
0.012805235 0.042684115 0.046154648
0.013692848 0.042790152 0.046069533
0.014570466 0.042854313 0.046085984
0.015425949 0.042849861 0.046003073
0.016059861 0.042262793 0.046475291
0.016754618 0.041886542 0.046584517
0.01781353 0.042413168 0.047411591
0.018850217 0.042841401 0.048371404
0.019897033 0.043254416 0.049578637
0.020408608 0.042517934 0.049805611
0.021390967 0.042781934 0.049520701
0.021570234 0.041481219 0.048892736
0.022481287 0.041632012 0.048647255
0.023482958 0.041933853 0.046978176
0.024520593 0.042276885 0.045192003
0.02693513 0.044891883 0.029332101
0.028916569 0.046639629 0.019145429
0.030367611 0.047449391 0.0060038865
-0.024030197 0.047136158 0.0079569221
-0.024406163 0.049788572 0.021699488
-0.021728167 0.046172354 0.028189242
-0.019710232 0.043705299 0.042243898
-0.018742144 0.043447696 0.044997275
-0.017761579 0.043135263 0.045989424
-0.016972478 0.043279823 0.046221018
-0.016100893 0.043218184 0.046988904
-0.015764082 0.044664901 0.047016472
-0.014716147 0.044148441 0.046355188
-0.013832833 0.044092156 0.045506626
-0.012841136 0.043659862 0.044936925
-0.012051811 0.043903023 0.044611007
-0.011253668 0.044149004 0.044041663
-0.010442972 0.044382632 0.044041663
-0.0095053855 0.044070423 0.044266641
-0.0086727059 0.0442308 0.043979526
-0.0078053414 0.044230267 0.043839872
-0.0069070444 0.04403241 0.043722868
-0.006089292 0.04436484 0.043736577
-0.0051632356 0.043887503 0.043709934
-0.0043456424 0.044325553 0.0437226
-0.0035191756 0.04486949 0.043585658
-0.0025709446 0.043706059 0.04366079
-0.0017328956 0.044188838 0.04390043
-0.00086966617 0.044352975 0.043952525
0 0.043937687 0.043947965
0.00086282869 0.044004265 0.043954194
0.0017344414 0.044228256 0.044140249
0.0026023369 0.044239726 0.044373989
0.0034475937 0.04395682 0.044373989
0.0042757862 0.04361302 0.04480207
0.0051921285 0.044133093 0.044955224
0.006071398 0.044234473 0.044987708
0.0068970579 0.043968745 0.044871867
0.0078106909 0.044260584 0.045215547
0.0086435806 0.044082262 0.04529646
0.0094020879 0.043591496 0.045448333
0.010363098 0.044043165 0.045642018
0.011179504 0.043858055 0.045886964
0.011971116 0.043609064 0.045975298
0.012867873 0.043750767 0.04607895
0.013553363 0.043201346 0.046066195
0.014427317 0.04328195 0.04602772
0.015415529 0.04367733 0.045960814
0.016011745 0.042978894 0.046245784
0.016891714 0.04307387 0.046470761
0.018216716 0.044240594 0.047370404
0.018607607 0.043135818 0.048248112
0.019674733 0.04362658 0.049457759
0.020847816 0.04430161 0.049541116
0.02127713 0.043405343 0.049370736
0.021743812 0.042651322 0.048669547
0.022608608 0.042705148 0.048397958
0.023541804 0.042879716 0.04730624
0.024314836 0.042760573 0.045610517
0.027207127 0.046252117 0.029007703
0.028516982 0.046915032 0.018225551
-0.023795156 0.047590312 0.0060496032
-0.024075622 0.050077293 0.019834429
-0.021622438 0.046848614 0.028022379
-0.019576743 0.044260461 0.043558091
-0.01880379 0.044445325 0.045824617
-0.017768156 0.043997336 0.045963198
-0.017087922 0.044428598 0.046372712
-0.016239913 0.044446077 0.046742111
-0.015696762 0.0453462 0.046995997
-0.014743491 0.045097739 0.046271741
-0.013891835 0.045148462 0.045467436
-0.012979363 0.044995125 0.044835299
-0.011966283 0.044446193 0.044487387
-0.011202005 0.044808019 0.043938011
-0.010314706 0.044697061 0.043924212
-0.0096459398 0.045598987 0.04419598
-0.0086466111 0.044962376 0.043919533
-0.0078000333 0.04506686 0.043758065
-0.0070587168 0.045881659 0.043709695
-0.0060198549 0.044718921 0.043716252
-0.0051960819 0.04503271 0.04367727
-0.0043679411 0.045426589 0.043585658
-0.0034649733 0.045044653 0.043554097
-0.0025822052 0.044758223 0.04367277
-0.0017478794 0.045444865 0.04390043
-0.00086158741 0.044802543 0.043975621
0 0.04539597 0.043964982
0.00087406643 0.045451455 0.04392612
0.0017135328 0.044551853 0.044058233
0.0026041321 0.045138288 0.044332594
0.0034528514 0.04488707 0.044199675
0.004309413 0.044817895 0.04469189
0.0051743356 0.04484424 0.044778109
0.0060410663 0.04487649 0.044738501
0.0068091834 0.044259693 0.044791698
0.0078374613 0.045283113 0.045065582
0.0086050266 0.044746138 0.045106351
0.009461673 0.04472791 0.045100302
0.010301876 0.044641461 0.045503378
0.011148728 0.044594914 0.045620054
0.011987901 0.044526488 0.045845032
0.013028355 0.045164965 0.046020448
0.013587814 0.044160392 0.046167642
0.014585025 0.044613015 0.046096444
0.015442434 0.044611476 0.046015561
0.016025621 0.043859594 0.046300262
0.017207816 0.044740323 0.046585321
0.017756939 0.04396956 0.047508061
0.018728074 0.044266358 0.048216701
0.019700922 0.044541217 0.049397647
0.020496253 0.044408549 0.04952386
0.021178124 0.044050496 0.049332857
0.021924786 0.043849573 0.048549861
0.022726057 0.043768704 0.048380107
0.023628674 0.043881826 0.046984196
0.024623146 0.04415185 0.045867443
0.027018184 0.046831518 0.028187931
0.028007446 0.046980232 0.016579449
-0.0232918 0.049378615 0.018866569
-0.021351634 0.047151525 0.027904809
-0.019770617 0.045558378 0.043110996
-0.018631717 0.044885501 0.045728147
-0.017836904 0.045016948 0.045895636
-0.017001452 0.045053847 0.046378553
-0.016006703 0.044650279 0.046632946
-0.015737297 0.046337597 0.046779633
-0.014772742 0.046056196 0.046148211
-0.013832949 0.045821644 0.045442164
-0.013049707 0.046108961 0.044935793
-0.012044488 0.045596991 0.044455886
-0.011124096 0.045352086 0.043848276
-0.010518495 0.046456687 0.043848276
-0.0094865272 0.045707811 0.044136584
-0.0086115897 0.045641426 0.043997824
-0.007817667 0.046037368 0.043785602
-0.0069460617 0.046017658 0.043571949
-0.0060477299 0.045789953 0.043540329
-0.0051971516 0.045908172 0.043564916
-0.0043162541 0.045752291 0.043488234
-0.0034732874 0.046021059 0.043474525
-0.0026123242 0.046151064 0.043597698
-0.0017260151 0.045739401 0.043834567
-0.00086236192 0.045705181 0.043941766
0 0.045891032 0.043734193
0.0008625401 0.045714624 0.043824464
0.0017497715 0.046368945 0.043918461
0.0026433261 0.04669876 0.044043034
0.0034222133 0.045344323 0.044103563
0.0042954683 0.045531962 0.04464373
0.0051864618 0.045813747 0.044688433
0.0060123969 0.045522433 0.044846892
0.0069213589 0.045854002 0.044887692
0.0077385763 0.045571618 0.044824392
0.0085611213 0.045373946 0.044874221
0.009408812 0.045333367 0.045094103
0.010355357 0.04573616 0.045504659
0.011155736 0.045481078 0.045687288
0.01192981 0.045162849 0.04577589
0.012799538 0.045225032 0.045862883
0.013701913 0.045387585 0.046081722
0.014521552 0.045273073 0.045963824
0.015421162 0.045406755 0.04591161
0.016251313 0.045332611 0.046370804
0.01702518 0.045116726 0.046717107
0.017880499 0.045126975 0.047467738
0.018866571 0.045451283 0.048216701
0.019724246 0.045451526 0.049518466
0.020753987 0.045831721 0.049541116
0.021185815 0.044913929 0.049397647
0.021599963 0.044030696 0.048527062
0.022491226 0.044149444 0.048453361
0.023607474 0.044685576 0.046984196
0.024369175 0.044536769 0.045867443
0.026761765 0.047279116 0.026845276
0.028111499 0.048061594 0.013022065
-0.023264132 0.050250527 0.017270237
-0.021668371 0.048753835 0.02799347
-0.019586584 0.045985892 0.042158157
-0.018634465 0.04573914 0.045534641
-0.01782207 0.045828182 0.045895636
-0.01700273 0.045907371 0.046378553
-0.016096996 0.045749355 0.046548367
-0.015781967 0.047345899 0.046903849
-0.014666774 0.046588577 0.046233505
-0.013984734 0.047198478 0.045438677
-0.013009563 0.046834428 0.045200258
-0.011934006 0.046031166 0.044508934
-0.01131693 0.047008786 0.044022143
-0.010360305 0.046621375 0.043985337
-0.0096079018 0.047166064 0.044107348
-0.0086548887 0.046736397 0.044105738
-0.0077855648 0.046713389 0.043756455
-0.0069403164 0.046847135 0.043491215
-0.0061108521 0.047140859 0.043470472
-0.0051501151 0.046351034 0.043477505
-0.0043613464 0.047102541 0.043392599
-0.0034777739 0.046949949 0.043359429
-0.0025772222 0.046390001 0.043469191
-0.00173883 0.046948411 0.043753892
-0.00086574256 0.046750098 0.043848306
0 0.046753444 0.043723822
0.00086758262 0.046849463 0.043867797
0.0017293328 0.046691988 0.043979198
0.0025966319 0.046739373 0.044169784
0.0034523697 0.046606991 0.04414767
0.00430407 0.046483956 0.044535697
0.0051458413 0.046312574 0.044625372
0.0060398099 0.04659282 0.044777602
0.0068690996 0.046366423 0.044887692
0.0078144064 0.046886437 0.044699937
0.0086139431 0.04651529 0.044726968
0.0093154879 0.045730576 0.045050293
0.010292665 0.046316992 0.045388222
0.011219749 0.04660511 0.045722842
0.012021213 0.046367534 0.04577589
0.013081636 0.047093891 0.045830399
0.0135349 0.045680288 0.045838475
0.014545786 0.046204261 0.045969456
0.015362467 0.046087399 0.045858055
0.016120655 0.0458166 0.046313941
0.016963597 0.045801714 0.046877831
0.018074784 0.046478018 0.047768593
0.018768776 0.046068817 0.048133761
0.019744705 0.046357136 0.049424618
0.020624489 0.046405099 0.049486607
0.021034887 0.045435354 0.04936111
0.021738989 0.045150209 0.048476428
0.022633947 0.045267895 0.048380107
0.023589484 0.045494005 0.047318846
0.024247564 0.045150638 0.045832813
0.027826844 0.05008832 0.022720337
0.028499695 0.04964463 0.0097568929
-0.023366641 0.051406611 0.013046056
-0.021784218 0.049922168 0.026038527
-0.019587925 0.04684069 0.041993916
-0.018841721 0.047104307 0.045795709
-0.017828302 0.046693176 0.046081811
-0.016958874 0.046636906 0.046541721
-0.016085761 0.046564046 0.046860695
-0.015619534 0.047726352 0.047016472
-0.014661608 0.047434617 0.046456218
-0.013762565 0.047308821 0.045851678
-0.012982735 0.047603361 0.045425594
-0.01226186 0.048171591 0.044661939
-0.011188043 0.04733403 0.044244379
-0.010424965 0.047781087 0.044207752
-0.0095757851 0.047878928 0.044193089
-0.0086494582 0.04757202 0.044195205
-0.0078207143 0.047793251 0.043706715
-0.0069848364 0.04802075 0.043487668
-0.0061153248 0.048048981 0.043392599
-0.0051575569 0.047277603 0.043359429
-0.0043654335 0.048019767 0.043262094
-0.0034575579 0.047541421 0.043237507
-0.0026325537 0.048263486 0.043163896
-0.0017320438 0.047631204 0.04364413
-0.00086235144 0.047429327 0.043721586
0 0.047706816 0.043562174
0.00086869916 0.047778457 0.04379496
0.0017338237 0.047680151 0.043979198
0.0025837896 0.047369476 0.044282496
0.0034689477 0.047698032 0.044257671
0.0042402656 0.046642922 0.044549048
0.0052301632 0.047943164 0.04477948
0.0060742181 0.047726002 0.044796884
0.0068685804 0.047221489 0.044974476
0.0077518537 0.047372442 0.044909149
0.0086488649 0.047568757 0.045081943
0.0093774721 0.046887361 0.045060188
0.010388673 0.047614753 0.045349121
0.01118496 0.047320984 0.045747936
0.012051851 0.047346555 0.045897067
0.012977399 0.047583796 0.045858532
0.01363452 0.04686866 0.045901358
0.014647502 0.047388975 0.045868933
0.01546271 0.047247168 0.045852363
0.016167957 0.046801984 0.046312213
0.0169091 0.046500027 0.046957195
0.017795954 0.046608452 0.047831327
0.018663172 0.046657927 0.048125625
0.019758219 0.047247916 0.04936111
0.020429634 0.046817914 0.049448341
0.021128276 0.046482205 0.049254507
0.021769984 0.046051886 0.048473477
0.022543024 0.045920976 0.048380107
0.023554809 0.046268374 0.047433645
0.024699152 0.04684322 0.04413721
0.02752381 0.05046032 0.022585213
-0.023064982 0.051665559 0.009293437
-0.022286216 0.052001171 0.021956503
-0.019816542 0.048248973 0.041221917
-0.01884805 0.047976855 0.045792788
-0.017701374 0.047203667 0.04601717
-0.016963536 0.047497902 0.046525806
-0.016068822 0.047360741 0.046825796
-0.015497712 0.048215106 0.046904117
-0.014817503 0.048810601 0.046467751
-0.013747225 0.048115287 0.04608196
-0.012972748 0.048431594 0.045487911
-0.012074921 0.048299685 0.044955522
-0.011190979 0.04820729 0.044306099
-0.010325207 0.048184298 0.044193089
-0.0096290624 0.049020682 0.04423362
-0.0086736223 0.048572283 0.044162482
-0.0077666859 0.048326045 0.043892652
-0.00693679 0.048557531 0.043623537
-0.0060670553 0.048536442 0.04345274
-0.0051898616 0.048438709 0.043470472
-0.0043339184 0.048539884 0.043445885
-0.0034724444 0.048614219 0.043319851
-0.0025862441 0.048276559 0.04335022
-0.0017303545 0.048449926 0.043590993
-0.00087152916 0.048805635 0.0437527
0 0.048812415 0.043669403
0.00086488848 0.048433755 0.043809086
0.0017206307 0.04817766 0.044108301
0.002593359 0.048409365 0.04426381
0.0034347365 0.048086312 0.044235766
0.0043247286 0.048436962 0.044376671
0.0051887943 0.048428748 0.04469189
0.0060031479 0.048025183 0.044794559
0.0069173458 0.04842142 0.045037031
0.0076642544 0.047688693 0.044695556
0.0085835252 0.048067741 0.044655114
0.0095918989 0.048831485 0.044984967
0.01026191 0.047888912 0.045147687
0.011113937 0.047875423 0.045490712
0.012126357 0.048505429 0.045599073
0.012848318 0.047967054 0.04574579
0.013690348 0.047916219 0.045893133
0.014583856 0.048040938 0.045994133
0.015376162 0.047836948 0.046097696
0.016256755 0.04791465 0.046517342
0.016860491 0.047209371 0.047000349
0.017879197 0.047677856 0.047832519
0.018854562 0.047993433 0.04820329
0.019591881 0.04770197 0.049335927
0.020297389 0.047360577 0.049416035
0.021304296 0.047721624 0.04921037
0.021445425 0.046190146 0.048457772
0.022635782 0.046948291 0.048347563
0.023763521 0.047527041 0.047405034
0.02465269 0.047605194 0.042145342
0.027513674 0.05135886 0.021735996
-0.023607891 0.053825989 0.0057862699
-0.023082839 0.054821741 0.018850476
-0.019852914 0.049200699 0.040214479
-0.018645974 0.048310023 0.045728147
-0.017823052 0.048376855 0.04599458
-0.017137378 0.048841529 0.046430141
-0.016193526 0.048580579 0.046647727
-0.015535785 0.049196653 0.046642631
-0.014636958 0.049076859 0.046520323
-0.01397531 0.049787041 0.046092063
-0.012919176 0.04909287 0.04560563
-0.011963577 0.048708849 0.045241326
-0.011233887 0.049256273 0.044579566
-0.010439453 0.049587399 0.044508934
-0.0094880452 0.049165323 0.044317573
-0.0086651286 0.049391232 0.044399977
-0.0078811655 0.049914047 0.043943822
-0.0069048749 0.049197234 0.04364413
-0.0060851662 0.049550638 0.043515742
-0.0051861936 0.049268842 0.043439031
-0.0043335231 0.049402166 0.043439031
-0.0034875316 0.049697325 0.043390036
-0.0026007697 0.049414627 0.043374807
-0.0017223762 0.049087722 0.04377076
-0.0008747658 0.049861651 0.043934733
0 0.04946661 0.043837547
0.00086321059 0.049203005 0.044085413
0.0017256946 0.049182296 0.044235766
0.002584415 0.049103886 0.044404715
0.0034590892 0.04929202 0.044299573
0.0043361899 0.049432565 0.044516087
0.0051893932 0.049299236 0.044758677
0.0060304194 0.049104847 0.044831246
0.0068873377 0.049072284 0.04481253
