ply
format ascii 1.0
comment PCL generated
element vertex 1287
property float x
property float y
property float z
element camera 0
property float view_px
property float view_py
property float view_pz
property float x_axisx
property float x_axisy
property float x_axisz
property float y_axisx
property float y_axisy
property float y_axisz
property float z_axisx
property float z_axisy
property float z_axisz
property float focal
property float scalex
property float scaley
property float centerx
property float centery
property int viewportx
property int viewporty
property float k1
property float k2
end_header
-0.085605614 -0.11714453 0.037063479
-0.085180327 -0.11780258 0.03688243
-0.083385326 -0.11656013 0.037181854
-0.082510546 -0.11659099 0.037340432
-0.083098784 -0.11871255 0.037561923
-0.080857694 -0.11679444 0.037671804
-0.080258623 -0.11723169 0.038072109
-0.07964246 -0.11765363 0.038442463
-0.077865332 -0.1163505 0.038341492
-0.07605692 -0.11496976 0.038729668
-0.076947071 -0.11768375 0.038827091
-0.075491048 -0.11683138 0.038662523
-0.074206904 -0.11622768 0.039125383
-0.07318002 -0.1160171 0.039188415
-0.072552934 -0.11644298 0.039414257
-0.071484737 -0.1161627 0.039795995
-0.071075603 -0.11695985 0.040100038
-0.069291309 -0.11548552 0.040237784
-0.068730541 -0.11603858 0.040261835
-0.067489915 -0.11544327 0.040646136
-0.066538669 -0.11533369 0.040682733
-0.06609121 -0.11610618 0.040775687
-0.065127373 -0.11598026 0.041385323
-0.064333811 -0.11615826 0.042081773
-0.063204281 -0.11572616 0.042785704
-0.062754057 -0.11654325 0.043217331
-0.061433133 -0.11574358 0.043103337
-0.060012095 -0.114729 0.04287222
-0.058476117 -0.11346112 0.042135388
-0.057648804 -0.11355068 0.042081773
-0.057365946 -0.11473189 0.040535897
-0.057027429 -0.11583696 0.037301093
-0.060368862 -0.12457067 0.029990375
-0.062491905 -0.13103142 0.027884871
-0.060199473 -0.12829396 0.023443669
-0.059689049 -0.12932627 0.019380599
-0.057526462 -0.12675323 0.014935523
-0.053424302 -0.11974413 0.011147588
-0.10544553 -0.12037588 0.014862597
-0.099838316 -0.11499235 0.037086189
-0.098364025 -0.11431495 0.038223326
-0.096083306 -0.11267951 0.038892567
-0.097794466 -0.1157384 0.039276809
-0.096924722 -0.1157712 0.039888144
-0.096725658 -0.11661317 0.039817005
-0.096104614 -0.1169575 0.039081931
-0.094606303 -0.1162306 0.03859818
-0.093184069 -0.11558408 0.037913501
-0.093340419 -0.11690208 0.037899554
-0.091244258 -0.11539716 0.037602484
-0.091212496 -0.11649913 0.037199885
-0.090614818 -0.11689311 0.037029982
-0.088871092 -0.11580172 0.036772519
-0.087591052 -0.11529842 0.036835134
-0.088278681 -0.11740155 0.036739826
-0.085647047 -0.11508822 0.036855876
-0.086370498 -0.11728205 0.036925077
-0.084841713 -0.11643171 0.036869168
-0.083702885 -0.116104 0.037181854
-0.083749205 -0.11743095 0.037072629
-0.082617514 -0.11711714 0.037379295
-0.080490693 -0.11536999 0.037485152
-0.081039712 -0.11746206 0.038024098
-0.079068497 -0.11590722 0.038431168
-0.078573659 -0.11650577 0.038389176
-0.077758931 -0.11663839 0.038777351
-0.076327533 -0.11583826 0.03909719
-0.07471171 -0.11473584 0.038894266
-0.074971169 -0.11652146 0.039188415
-0.073447227 -0.11554503 0.039256901
-0.072429337 -0.11535042 0.039432585
-0.071507417 -0.11530571 0.040097803
-0.070955142 -0.11586346 0.0403485
-0.0700977 -0.11593081 0.040342182
-0.068801947 -0.11526559 0.040419012
-0.067560263 -0.11467466 0.040663421
-0.066792525 -0.11488314 0.040732682
-0.066701785 -0.11627744 0.040778339
-0.064895794 -0.11467887 0.04130283
-0.065261863 -0.11692751 0.042135388
-0.062924691 -0.11432795 0.042922795
-0.063024752 -0.11614561 0.043448597
-0.061975248 -0.11586677 0.043150902
-0.059520159 -0.11291324 0.042844832
-0.058305748 -0.11226032 0.042079359
-0.058322549 -0.11399407 0.041298807
-0.056788221 -0.11270277 0.039850116
-0.057407107 -0.1157112 0.034519434
-0.060845036 -0.12458746 0.02975443
-0.061517414 -0.12799591 0.02752167
-0.061839692 -0.13077573 0.023141593
-0.059310298 -0.12751713 0.018605649
-0.055112973 -0.12050125 0.014435917
-0.05363337 -0.11928801 0.011147588
-0.052585226 -0.11900867 0.0051975846
-0.10367438 -0.11743647 0.014887363
-0.098414034 -0.11247318 0.037472934
-0.098125257 -0.11315344 0.038496405
-0.097300969 -0.11322295 0.039541602
-0.097221635 -0.11416852 0.039952487
-0.09732078 -0.11534315 0.04025799
-0.096662447 -0.11563358 0.040088952
-0.095149904 -0.114898 0.039410204
-0.093659766 -0.11417571 0.039028078
-0.094796993 -0.11667322 0.038409412
-0.092768073 -0.11528459 0.038182348
-0.091755219 -0.1151438 0.037950486
-0.091205291 -0.11558691 0.037452161
-0.089670651 -0.11477844 0.03712517
-0.089196183 -0.11532436 0.036735564
-0.089303441 -0.11664123 0.036702663
-0.088193491 -0.11637904 0.036742836
-0.087253943 -0.1163386 0.036878228
-0.086380668 -0.11638658 0.037011266
-0.084562324 -0.11514869 0.037077874
-0.085041061 -0.11704576 0.037232637
-0.082738183 -0.115114 0.037165493
-0.081368238 -0.11445203 0.0375081
-0.081075609 -0.11530753 0.037744522
-0.080184527 -0.11532156 0.038239777
-0.078539647 -0.11423948 0.038486123
-0.079495132 -0.11695836 0.038658082
-0.077492468 -0.11533763 0.039148837
-0.07588537 -0.11427444 0.039221168
-0.075680584 -0.1153228 0.039101481
-0.073967628 -0.11407056 0.039256901
-0.073412657 -0.11459537 0.039364249
-0.072778411 -0.11500786 0.039434403
-0.071342692 -0.1141483 0.040097803
-0.071522459 -0.1158845 0.040362865
-0.069453485 -0.11397495 0.040342182
-0.068363816 -0.11364374 0.040428162
-0.068021908 -0.11456321 0.040655285
-0.067019917 -0.11438066 0.040698618
-0.065690733 -0.11362722 0.04074499
-0.06590905 -0.11556655 0.041446745
-0.063563846 -0.1130024 0.042571425
-0.063485995 -0.11445363 0.04300335
-0.063615873 -0.11632617 0.04321146
-0.060657732 -0.11252449 0.04298684
-0.060233828 -0.11338133 0.042767763
-0.058796398 -0.11232745 0.042063832
-0.058007181 -0.11249878 0.040826648
-0.05677921 -0.11181137 0.039295822
-0.058498565 -0.11699713 0.032503486
-0.060609404 -0.12314291 0.028663427
-0.063458398 -0.13101089 0.026186764
-0.061289534 -0.12860754 0.022340983
-0.057866678 -0.12344892 0.017257631
-0.055273604 -0.11991562 0.013201654
-0.053695306 -0.11849999 0.0085993707
-0.10587939 -0.11899719 0.014862597
-0.09794689 -0.11106478 0.037086189
-0.098798521 -0.11303975 0.038411826
-0.095962174 -0.1107927 0.039541602
-0.095204279 -0.11092609 0.039815664
-0.097106956 -0.11419059 0.040216565
-0.096376598 -0.11439092 0.040066242
-0.09555719 -0.11448833 0.039547771
-0.094669186 -0.11450463 0.039163619
-0.093077771 -0.11366228 0.038612455
-0.092587464 -0.11416124 0.038383961
-0.092525654 -0.11520351 0.038226575
-0.090589955 -0.11391015 0.038169175
-0.0898306 -0.11408486 0.037357181
-0.089154169 -0.11436948 0.036875844
-0.08835946 -0.11450665 0.03679958
-0.087567858 -0.1146507 0.036771357
-0.086695679 -0.11469116 0.037007064
-0.085293122 -0.11402344 0.037106246
-0.085155584 -0.11505063 0.037186623
-0.084062018 -0.11479437 0.037338495
-0.082495846 -0.11388014 0.037427694
-0.082631357 -0.11532069 0.037709355
-0.081335947 -0.11477406 0.037983567
-0.079172596 -0.11297663 0.038201183
-0.080096178 -0.11559334 0.038678378
-0.078961879 -0.11526619 0.038777202
-0.077345669 -0.11421977 0.039235055
-0.077569649 -0.11589818 0.039313525
-0.075414523 -0.11401958 0.039279312
-0.074557245 -0.11408156 0.039390475
-0.07369861 -0.11414297 0.039397985
-0.072706081 -0.11399595 0.039461941
-0.072707146 -0.11542259 0.040082544
-0.071077794 -0.1142643 0.040344685
-0.069598041 -0.11331989 0.04032433
-0.069773465 -0.11508092 0.040419012
-0.068225421 -0.11400826 0.040654272
-0.067049369 -0.11353693 0.040678054
-0.065567747 -0.11252844 0.040856779
-0.065377183 -0.11373838 0.04181233
-0.064626962 -0.11399478 0.042686105
-0.063088857 -0.11284907 0.043119758
-0.062743694 -0.11383498 0.043455333
-0.059975017 -0.1103888 0.043070346
-0.05940111 -0.11094031 0.04261139
-0.05899176 -0.1118202 0.042079359
-0.058005642 -0.11161692 0.040741563
-0.058120076 -0.11355769 0.038819045
-0.058483165 -0.11605253 0.030995935
-0.060692251 -0.12234788 0.028312624
-0.062541142 -0.12810847 0.024819374
-0.060098592 -0.12512329 0.018662095
-0.058755778 -0.1243664 0.015273601
-0.054369386 -0.11703241 0.012339592
-0.05329166 -0.11669036 0.0080980659
-0.10468351 -0.11672675 0.01494503
-0.10069867 -0.11328601 0.037156433
-0.097683772 -0.11088428 0.038667798
-0.096090734 -0.11006757 0.039705157
-0.09700828 -0.11213801 0.040166676
-0.096637182 -0.11274338 0.040313333
-0.0964664 -0.11359595 0.040316761
-0.095291488 -0.11327101 0.039964557
-0.094508931 -0.11341072 0.039249122
-0.092846535 -0.11248715 0.038947016
-0.093352929 -0.11419873 0.038577229
-0.092080966 -0.11374708 0.038345337
-0.091119245 -0.11367352 0.038182348
-0.090650357 -0.11421945 0.037660539
-0.089260772 -0.11360462 0.036938995
-0.088663973 -0.11399654 0.036908299
-0.08841528 -0.11484871 0.036886185
-0.086699136 -0.11379261 0.037134469
-0.08615689 -0.11427124 0.037271619
-0.085355759 -0.11441304 0.037240058
-0.08373569 -0.11344835 0.037399858
-0.0827986 -0.11339809 0.037427694
-0.082470812 -0.11419035 0.037733823
-0.080542877 -0.11276003 0.038012743
-0.080637351 -0.11416074 0.038359761
-0.078612506 -0.11255881 0.038678378
-0.078529119 -0.11373183 0.038766444
-0.077133082 -0.11300893 0.0392313
-0.076174274 -0.11291716 0.03932482
-0.075245894 -0.11286884 0.039333135
-0.074477851 -0.11306276 0.03927055
-0.073706456 -0.11325626 0.039285421
-0.07304538 -0.11362614 0.039472699
-0.071386002 -0.11243295 0.039934009
-0.070609175 -0.11261716 0.040042698
-0.070094064 -0.11322887 0.040103197
-0.068107612 -0.11144882 0.040255964
-0.06784077 -0.11247285 0.040607899
-0.067206025 -0.11290612 0.040635496
-0.066394947 -0.11305086 0.040865779
-0.064900093 -0.11201935 0.041791767
-0.064109802 -0.11219215 0.042772949
-0.064000405 -0.11357819 0.043044895
-0.062063608 -0.1117145 0.043508768
-0.061266575 -0.1118781 0.042849272
-0.059494954 -0.11024065 0.042631984
-0.058639102 -0.11027652 0.042111129
-0.058675751 -0.11201734 0.040586919
-0.058118753 -0.11266097 0.035684288
-0.058738824 -0.11564206 0.029132187
-0.059768926 -0.11953785 0.026349902
-0.061326604 -0.12463149 0.024132282
-0.061139621 -0.1262884 0.018339872
-0.057033718 -0.11977081 0.015117854
-0.054424752 -0.11622913 0.011927903
-0.053198826 -0.11556986 0.0078931153
-0.10666912 -0.11799681 0.011956424
-0.09943866 -0.11098064 0.037222594
-0.097199962 -0.10945942 0.039027929
-0.098569408 -0.1120107 0.039562225
-0.09608718 -0.11019173 0.039923817
-0.09548758 -0.11051804 0.040318251
-0.097055867 -0.11338302 0.040307611
-0.094884239 -0.11189179 0.039996654
-0.094360143 -0.11233351 0.039268345
-0.094141528 -0.11315087 0.039076179
-0.092825897 -0.11265279 0.03890124
-0.091393329 -0.11200163 0.038469106
-0.09200529 -0.11386793 0.038066387
-0.090259567 -0.11282445 0.037594557
-0.090543486 -0.11432259 0.03714183
-0.08846809 -0.11284195 0.037086368
-0.088221639 -0.11368768 0.037008613
-0.086596206 -0.11275548 0.037146419
-0.085828893 -0.11293276 0.037282825
-0.084124081 -0.11186713 0.037443995
-0.084317267 -0.11332966 0.037399858
-0.082694352 -0.11235645 0.037427694
-0.082118921 -0.11280072 0.037744522
-0.081903249 -0.11375452 0.03806904
-0.080489971 -0.11304771 0.038432062
-0.079148635 -0.11242703 0.03870067
-0.079024315 -0.11354068 0.039005756
-0.077818364 -0.11310808 0.039346367
-0.07637541 -0.11231677 0.039336979
-0.076205432 -0.11340094 0.039347231
-0.074208774 -0.1117602 0.0392735
-0.073435768 -0.11194477 0.039305061
-0.073631041 -0.11362815 0.039603144
-0.071556941 -0.11180772 0.040074587
-0.071328662 -0.1128618 0.040123761
-0.069648802 -0.11161667 0.040263116
-0.068872392 -0.11180583 0.040403664
-0.067950055 -0.11175996 0.040678829
-0.066412069 -0.11068679 0.040692568
-0.064872973 -0.10958272 0.041060001
-0.064713649 -0.11081105 0.041944534
-0.064116217 -0.11131287 0.042763799
-0.063948721 -0.11258577 0.043026328
-0.061456572 -0.10974388 0.043133825
-0.060367726 -0.10936183 0.042774647
-0.058888413 -0.10825076 0.042124331
-0.05929137 -0.11061823 0.0418275
-0.057752863 -0.10938042 0.039654315
-0.05933848 -0.11411246 0.032643259
-0.0571955 -0.11170996 0.028998852
-0.05943482 -0.11792623 0.026201993
-0.061997071 -0.12499409 0.022504121
-0.060213007 -0.12338731 0.017973125
-0.056931254 -0.11860678 0.014903545
-0.054845575 -0.11619825 0.012211561
-0.053742666 -0.11582471 0.010054946
-0.054130238 -0.11870666 0.0062712431
-0.053701207 -0.11986877 0.0063652098
-0.11126228 -0.12209312 0.0081403852
-0.099234045 -0.10986626 0.037006408
-0.09895248 -0.11054152 0.03890124
-0.095820561 -0.10801591 0.039316028
-0.09611997 -0.10934749 0.03987062
-0.096386366 -0.11066582 0.040044904
-0.096280262 -0.11157713 0.040443212
-0.095596597 -0.11182998 0.040035516
-0.09501785 -0.11221156 0.039710194
-0.092838995 -0.11069265 0.039028078
-0.092613757 -0.11149617 0.038696229
-0.092824653 -0.11284566 0.03818059
-0.090574674 -0.11120059 0.03817153
-0.089699797 -0.11122774 0.037739903
-0.090454675 -0.11329677 0.03714633
-0.088106632 -0.11148187 0.037200928
-0.087925963 -0.1124002 0.037288368
-0.086632133 -0.11189984 0.037344187
-0.086350471 -0.11271009 0.037453562
-0.085235946 -0.1124389 0.037447512
-0.084850237 -0.11313365 0.037447512
-0.082241401 -0.11084711 0.0375081
-0.082179688 -0.11198112 0.037627578
-0.081512667 -0.11230634 0.037796348
-0.07990092 -0.11132263 0.038156003
-0.079032868 -0.1113645 0.038396269
-0.078219607 -0.11148542 0.038673013
-0.077268474 -0.11141036 0.038977951
-0.07651671 -0.11162438 0.039073229
-0.07583487 -0.11194671 0.03909865
-0.07364779 -0.11002802 0.039128363
-0.073912859 -0.11177067 0.03919068
-0.072524197 -0.11102469 0.039229929
-0.072716199 -0.11271011 0.039898962
-0.070141487 -0.1100955 0.039966345
-0.069550194 -0.11056697 0.040044188
-0.069772996 -0.11236171 0.040169179
-0.068487115 -0.11174214 0.040643603
-0.066523805 -0.10998602 0.040719807
-0.066551581 -0.11151887 0.041377872
-0.066134781 -0.11233854 0.042154133
-0.064346537 -0.11081903 0.043001264
-0.063775569 -0.11138269 0.043044895
-0.061585579 -0.10909445 0.043133825
-0.060681615 -0.10905102 0.04278937
-0.058805313 -0.10723322 0.042596489
-0.058239505 -0.10778654 0.04055956
-0.05826734 -0.10947197 0.037974477
-0.060099404 -0.11465117 0.032172948
-0.058404729 -0.11315916 0.025323927
-0.062269446 -0.12256208 0.024550617
-0.062466674 -0.12493335 0.021541268
-0.05985757 -0.12167768 0.017156154
-0.057140101 -0.11808954 0.014465213
-0.054280352 -0.11408073 0.012011111
-0.053957779 -0.11535801 0.010826617
-0.055103723 -0.11987477 0.0068883002
-0.05371131 -0.11893219 0.0063652098
-0.10047969 -0.11034824 0.035870105
-0.098032892 -0.10863104 0.038673818
-0.095782824 -0.10710262 0.039558887
-0.096271753 -0.10863693 0.03987062
-0.095228285 -0.10845444 0.040263563
-0.096424207 -0.11084278 0.040397078
-0.095335111 -0.1106247 0.040115863
-0.094412766 -0.11059781 0.039800018
-0.093213566 -0.11024296 0.038958639
-0.093021043 -0.11108338 0.038798273
-0.091775306 -0.11067022 0.038491786
-0.091395929 -0.11130396 0.038237751
-0.090959951 -0.11188074 0.037896961
-0.089796595 -0.11156547 0.03740859
-0.087585039 -0.10992816 0.037300199
-0.088446543 -0.11215386 0.037418574
-0.086025961 -0.11022076 0.037466735
-0.086170465 -0.11156808 0.037592977
-0.085095949 -0.11134896 0.037516803
-0.083894432 -0.11095715 0.037516803
-0.082864635 -0.11078642 0.037549555
-0.08186885 -0.11065789 0.037964821
-0.081021547 -0.11072945 0.038104028
-0.080297314 -0.1109727 0.038247794
-0.078798443 -0.11013874 0.038512558
-0.078023352 -0.11030888 0.038669288
-0.077064313 -0.11021989 0.038948387
-0.076886281 -0.11125898 0.039021254
-0.075650208 -0.11077353 0.039100409
-0.07468354 -0.11067561 0.039150715
-0.073962793 -0.11094419 0.039194763
-0.07301449 -0.11087386 0.039270461
-0.07182315 -0.11042809 0.039898962
-0.070860669 -0.11032737 0.03989175
-0.069716416 -0.10993742 0.040103197
-0.068672761 -0.10969805 0.040310472
-0.067204244 -0.10876476 0.040747702
-0.067102104 -0.11004746 0.040943384
-0.066279501 -0.11016728 0.041520715
-0.065197207 -0.10985284 0.042571425
-0.06505087 -0.11112857 0.043050379
-0.062127631 -0.10762956 0.043128401
-0.060680445 -0.10662421 0.043310434
-0.060463343 -0.10778248 0.042818785
-0.059670929 -0.10793418 0.042047739
-0.059084993 -0.10846946 0.040545851
-0.05994511 -0.11171589 0.034435183
-0.06077259 -0.11500044 0.027946472
-0.062344145 -0.11981765 0.0238038
-0.062474586 -0.12197419 0.023540407
-0.061201669 -0.12141622 0.01871267
-0.060283076 -0.1215544 0.015235662
-0.056966055 -0.11678042 0.014190257
-0.054456864 -0.11352871 0.012382299
-0.053929389 -0.11436749 0.011001468
-0.055252094 -0.11922821 0.0082783997
-0.053323627 -0.11712154 0.0064349771
-0.10126788 -0.11030966 0.025699943
-0.097911701 -0.10761466 0.038667798
-0.096943624 -0.10751929 0.039541602
-0.096341372 -0.10783163 0.03987062
-0.094548859 -0.10680519 0.040087909
-0.097050019 -0.11065517 0.040361077
-0.095109642 -0.10946582 0.040115863
-0.094268277 -0.10953076 0.03998065
-0.093569912 -0.1097647 0.039336711
-0.092223145 -0.10923518 0.038903475
-0.091392443 -0.10931253 0.038576126
-0.090964146 -0.10987749 0.03840822
-0.090056695 -0.10986917 0.038100392
-0.088729367 -0.10934326 0.037617803
-0.088616453 -0.11031844 0.037417591
-0.087078646 -0.10952159 0.037529767
-0.086077467 -0.10939012 0.037732273
-0.085835069 -0.1102303 0.037623286
-0.084725544 -0.10996294 0.037498057
-0.084930517 -0.11141423 0.037498057
-0.083182424 -0.11030713 0.037532926
-0.081971101 -0.10989533 0.037684977
-0.080692284 -0.10938287 0.0380705
-0.079779439 -0.10936058 0.038218319
-0.079205677 -0.10980787 0.038471699
-0.078466892 -0.11003403 0.038669288
-0.077231519 -0.10956099 0.038969576
-0.0762318 -0.10941505 0.039035052
-0.075366668 -0.10946111 0.039104551
-0.074568413 -0.10960659 0.03919068
-0.073474526 -0.10931576 0.039214909
-0.072574653 -0.10930997 0.039436728
-0.071796402 -0.10948952 0.039943516
-0.070565514 -0.10897459 0.040153205
-0.070257671 -0.10989021 0.040623784
-0.068271674 -0.1081707 0.040809929
-0.069115333 -0.11094829 0.041076124
-0.067645356 -0.11003644 0.041335911
-0.065497912 -0.10798305 0.042047858
-0.065829404 -0.11001627 0.042630047
-0.06349802 -0.10759386 0.043080389
-0.061852448 -0.10628167 0.043175817
-0.06178936 -0.10769003 0.043048829
-0.060650919 -0.10723786 0.042278916
-0.059976116 -0.10760421 0.040741563
-0.05953208 -0.1084017 0.037923455
-0.060320389 -0.11150132 0.031398118
-0.063179232 -0.11858257 0.025651455
-0.063798115 -0.12161515 0.023693711
-0.062921323 -0.12184764 0.021568984
-0.061634026 -0.12127986 0.017764658
-0.06033387 -0.12066774 0.014409363
-0.057433333 -0.11678111 0.013346434
-0.0550832 -0.11390086 0.01177758
-0.05396926 -0.11352155 0.010826617
-0.054560654 -0.11677895 0.0089990795
-0.053306438 -0.11613189 0.0060837567
-0.1044897 -0.1128862 0.017777503
-0.09876924 -0.10766737 0.038205415
-0.097273476 -0.10700083 0.039262831
-0.095453925 -0.10596261 0.039791465
-0.095178604 -0.10663529 0.040014416
-0.09519548 -0.10765096 0.040261537
-0.094730154 -0.10813536 0.040182054
-0.094536386 -0.10894194 0.040031672
-0.093347885 -0.10860667 0.039518833
-0.092349127 -0.10848781 0.038882494
-0.091724306 -0.10881021 0.038494706
-0.090595938 -0.10853573 0.038431317
-0.090185329 -0.10912425 0.038145632
-0.0890636 -0.10885551 0.037714034
-0.088013932 -0.10867026 0.037441105
-0.087925456 -0.10968021 0.037574321
-0.086804293 -0.10940958 0.037751019
-0.084862985 -0.10808864 0.037623405
-0.085022196 -0.10944346 0.03770566
-0.083853699 -0.10909998 0.037796348
-0.082137711 -0.10802894 0.037747502
-0.082656883 -0.10990641 0.03837654
-0.08084023 -0.1086852 0.038338572
-0.079671189 -0.10831701 0.038431615
-0.079797916 -0.10972214 0.03860268
-0.07825952 -0.1088437 0.038851231
-0.076905593 -0.10820439 0.039043754
-0.077142812 -0.10981506 0.039180487
-0.075406954 -0.10862192 0.039371163
-0.074049309 -0.1079514 0.039442301
-0.073768511 -0.10885353 0.039419264
-0.072741754 -0.10866361 0.039863169
-0.071539335 -0.10820325 0.040197521
-0.070937157 -0.10865058 0.040342391
-0.069480419 -0.10778373 0.040924221
-0.068367228 -0.10743421 0.041107804
-0.068036184 -0.10832077 0.041626871
-0.067399636 -0.10873808 0.041867584
-0.066455789 -0.1086642 0.042270273
-0.065482698 -0.10853981 0.043010235
-0.063663743 -0.10699046 0.043411195
-0.062513053 -0.10653633 0.043078452
-0.060792051 -0.10508341 0.042636395
-0.060285375 -0.10571783 0.041638404
-0.060004663 -0.106773 0.040544033
-0.060662828 -0.10955525 0.034212261
-0.061894961 -0.11347409 0.027946472
-0.065185033 -0.12134444 0.023605525
-0.063057736 -0.11921853 0.022512585
-0.063356973 -0.12168562 0.019632101
-0.061960228 -0.12092238 0.014988065
-0.059692122 -0.11840568 0.014136732
-0.055970836 -0.11287452 0.013153106
-0.054938596 -0.11267067 0.011777967
-0.054588832 -0.11388359 0.010920584
-0.054856725 -0.11645024 0.0090605319
-0.10661606 -0.1142315 0.0062013865
-0.099236384 -0.10728258 0.036508292
-0.095818676 -0.10452946 0.039001346
-0.096321844 -0.10604239 0.039546758
-0.09457241 -0.10508046 0.039911777
-0.094143219 -0.10558118 0.040127814
-0.095319018 -0.10790832 0.040078938
-0.094536714 -0.10804196 0.039931148
-0.093565024 -0.10795964 0.039733827
-0.092403054 -0.10765404 0.03950268
-0.091736481 -0.10792527 0.038795352
-0.090918601 -0.10802209 0.038742483
-0.090499423 -0.10859931 0.038461924
-0.088500276 -0.10727306 0.038077384
-0.087797791 -0.1075075 0.038075924
-0.088016495 -0.10888638 0.038164318
-0.086240634 -0.1078008 0.038153142
-0.086257294 -0.10895658 0.03827244
-0.084639519 -0.10805046 0.038416982
-0.083935626 -0.10830403 0.038541377
-0.084032163 -0.10960717 0.038444221
-0.081781559 -0.10784382 0.038699418
-0.08058849 -0.10745131 0.038732946
-0.081179328 -0.10945527 0.038628995
-0.078836992 -0.10750499 0.038782597
-0.078478873 -0.10824672 0.038943827
-0.077731147 -0.10846207 0.039105386
-0.076397434 -0.1078552 0.039241076
-0.075948626 -0.10849804 0.039411336
-0.074793711 -0.10813548 0.039406747
-0.072952017 -0.10675905 0.039406359
-0.071887285 -0.10649969 0.039850205
-0.072192252 -0.10828838 0.040335625
-0.070001021 -0.10633067 0.040642172
-0.069572389 -0.10703444 0.041070104
-0.068946563 -0.1074492 0.041369766
-0.067348748 -0.10634013 0.041815251
-0.067603178 -0.10816509 0.041867584
-0.06730973 -0.10915091 0.042270273
-0.064572446 -0.10614649 0.042992115
-0.063621536 -0.10603589 0.043050379
-0.061965231 -0.10472997 0.042781919
-0.06159614 -0.10559338 0.041620284
-0.060952369 -0.10600412 0.039777398
-0.060381811 -0.10655614 0.035912931
-0.061422713 -0.11001083 0.029254973
-0.064853601 -0.11791565 0.025642216
-0.064252429 -0.11861987 0.022680551
-0.063949428 -0.11990518 0.020266145
-0.062616304 -0.11926914 0.018015265
-0.061472751 -0.11897952 0.013775975
-0.057408165 -0.11293409 0.013154715
-0.054925445 -0.10985089 0.011923701
-0.05401497 -0.10986096 0.011297733
-0.056351997 -0.11659034 0.010256499
-0.054632977 -0.1150168 0.0071872175
-0.10023517 -0.10745933 0.024909467
-0.098065898 -0.10608947 0.038114816
-0.096396312 -0.10524002 0.038969696
-0.094920672 -0.10458852 0.039623857
-0.094798252 -0.10542984 0.040002912
-0.093778379 -0.1052795 0.040002912
-0.094299294 -0.10687254 0.039990187
-0.094312333 -0.10791507 0.039693058
-0.091817334 -0.10608023 0.039605469
-0.091351569 -0.10657683 0.039164096
-0.091516681 -0.10782658 0.038729846
-0.089058727 -0.10597988 0.038581073
-0.08917328 -0.10718808 0.038256109
-0.08866968 -0.10767032 0.03817609
-0.086526535 -0.10615111 0.038089395
-0.086570382 -0.1073112 0.03828752
-0.086274274 -0.10806987 0.038273573
-0.084234126 -0.10663682 0.038289249
-0.083865292 -0.1073115 0.03866154
-0.08278732 -0.1070836 0.038579196
-0.082089767 -0.10734816 0.038758785
-0.081193008 -0.1073552 0.038672119
-0.080633812 -0.10781375 0.038673013
-0.079644859 -0.10770158 0.038952529
-0.078250095 -0.10703174 0.039072961
-0.07729356 -0.10695271 0.039246589
-0.077039711 -0.1078556 0.039475411
-0.076372258 -0.10819404 0.039614618
-0.073339269 -0.10514908 0.039877415
-0.073673211 -0.106916 0.039883316
-0.071891837 -0.10561887 0.040401727
-0.071281582 -0.10603135 0.04071638
-0.070891581 -0.10678606 0.041070104
-0.069870286 -0.10659697 0.041800141
-0.068534829 -0.10591747 0.04198873
-0.06757205 -0.10580361 0.04204458
-0.068027146 -0.10793641 0.042461038
-0.064514138 -0.10374571 0.042544454
-0.064623855 -0.10534573 0.042604625
-0.063426234 -0.10482947 0.042606562
-0.062500283 -0.104754 0.04166764
-0.062210783 -0.10575833 0.039985299
-0.060374308 -0.10412381 0.037429661
-0.0618423 -0.10822403 0.031435996
-0.062871121 -0.11166661 0.026792169
-0.065226793 -0.11760589 0.023007274
-0.065538004 -0.11998497 0.019171447
-0.064183511 -0.11934121 0.016819447
-0.062760994 -0.11854855 0.013895571
-0.059649799 -0.11448913 0.012383401
-0.057088558 -0.11136948 0.0118393
-0.054723889 -0.10853571 0.010918289
-0.055573687 -0.11208931 0.010303885
-0.055983379 -0.11486246 0.0094829798
-0.054949012 -0.11471811 0.0054807365
-0.10514421 -0.11177493 0.012975961
-0.099062465 -0.10626701 0.036583662
-0.09625607 -0.10420382 0.038375854
-0.095606126 -0.10445855 0.039407879
-0.09493307 -0.10469254 0.039480269
-0.092696331 -0.10319026 0.039709032
-0.093349174 -0.10490669 0.040163189
-0.093202263 -0.10574872 0.039680809
-0.092766538 -0.10627623 0.039637327
-0.091492854 -0.10584468 0.039368957
-0.090988316 -0.10630318 0.039167494
-0.089278609 -0.10534876 0.038791984
-0.089086413 -0.1061838 0.038037419
-0.087346368 -0.10517216 0.038370073
-0.087344587 -0.10625423 0.038210601
-0.086631507 -0.10648455 0.038503498
-0.084590882 -0.10507078 0.038591564
-0.084798172 -0.10644878 0.038637668
-0.08342544 -0.10585163 0.038789749
-0.082888998 -0.10631415 0.038686693
-0.081759967 -0.10601842 0.038853914
-0.081066549 -0.10628725 0.038870037
-0.079801135 -0.10580375 0.038673013
-0.078434996 -0.1051742 0.038973302
-0.078051232 -0.10586259 0.039035052
-0.077252977 -0.10599827 0.039340079
-0.076437168 -0.10611277 0.039579988
-0.075294115 -0.1057703 0.039744258
-0.074063726 -0.10529542 0.039882153
-0.074173354 -0.10673726 0.039995372
-0.071705803 -0.10446031 0.040602297
-0.071365692 -0.10526439 0.040713996
-0.070691787 -0.10559027 0.041429162
-0.068829253 -0.1041263 0.041825116
-0.068874024 -0.1055472 0.042180657
-0.068948798 -0.10705208 0.042447209
-0.06613794 -0.10405703 0.04224959
-0.066269234 -0.10567256 0.042562425
-0.06451153 -0.10427891 0.042516977
-0.062716953 -0.10278612 0.042179853
-0.062914081 -0.10456143 0.040319443
-0.061161689 -0.10310113 0.037588477
-0.062458199 -0.10681257 0.032560647
-0.062777944 -0.10893819 0.026082337
-0.063374855 -0.11161541 0.022640556
-0.065763719 -0.11757757 0.016282916
-0.065341555 -0.11862006 0.014864564
-0.063002251 -0.1161604 0.013729155
-0.062443431 -0.11695754 0.012485504
-0.057674408 -0.10976742 0.012008846
-0.057042733 -0.11034496 0.01175791
-0.056159578 -0.11044718 0.010423362
-0.056640811 -0.11328162 0.010303885
-0.056098659 -0.11413176 0.0094829798
-0.10993513 -0.11587757 0.0062448084
-0.099601552 -0.10593984 0.024826765
-0.097886801 -0.10507116 0.037787735
-0.095597833 -0.10356432 0.038910151
-0.094261937 -0.10307146 0.039457381
-0.094014481 -0.1037707 0.039699018
-0.09278734 -0.10339161 0.039950997
-0.093291394 -0.10495282 0.039842665
-0.093279608 -0.10595839 0.039656103
-0.091746338 -0.10523845 0.039513648
-0.091180958 -0.10562547 0.039337993
-0.09090542 -0.10635934 0.039098173
-0.088941358 -0.10511252 0.038436413
-0.086848654 -0.10368666 0.038526982
-0.088117681 -0.10628628 0.038333029
-0.085114457 -0.10373325 0.03842935
-0.086196057 -0.10615725 0.038623661
-0.084961906 -0.10575046 0.038742244
-0.083972767 -0.10564316 0.03866154
-0.083694205 -0.10643719 0.038573891
-0.082375944 -0.10591193 0.038768202
-0.080644853 -0.10483831 0.038599253
-0.080612421 -0.10597363 0.038525075
-0.078969575 -0.10499364 0.038774878
-0.078162499 -0.10511509 0.038913935
-0.077801421 -0.10584612 0.039406747
-0.076396644 -0.10515773 0.0396474
-0.074968249 -0.10442006 0.039883316
-0.07481765 -0.10546584 0.040410668
-0.072902247 -0.10401905 0.0404661
-0.072698891 -0.10500951 0.04086563
-0.071219169 -0.10415804 0.041291356
-0.070198864 -0.1039654 0.041512042
-0.069419876 -0.10412981 0.042310238
-0.069607265 -0.10576688 0.042589217
-0.066716373 -0.10270809 0.042537779
-0.065779157 -0.10261549 0.042340964
-0.06506981 -0.10288064 0.042270273
-0.064958051 -0.10411084 0.042179853
-0.063802429 -0.10367894 0.040872931
-0.062218055 -0.10252834 0.038019747
-0.062486503 -0.10444172 0.034360498
-0.064046673 -0.10860088 0.026853681
-0.062320527 -0.10722797 0.022815287
-0.064686224 -0.11295953 0.015904546
-0.06660115 -0.11806568 0.011706918
-0.063953124 -0.11511562 0.011694521
-0.063723743 -0.11649496 0.012094975
-0.060831636 -0.11297303 0.011928767
-0.057535578 -0.1085752 0.011840403
-0.05641498 -0.10820579 0.011217177
-0.055605907 -0.10843152 0.010303885
-0.057205137 -0.11344069 0.0097568631
-0.055777084 -0.11251584 0.0066136122
-0.10655919 -0.1123715 0.013885379
-0.097783871 -0.10406357 0.03461051
-0.095332623 -0.1023943 0.037785321
-0.094779953 -0.1027521 0.039052695
-0.093096495 -0.10187918 0.03934893
-0.092425495 -0.10210817 0.039846838
-0.09160544 -0.1021753 0.039846838
-0.093122654 -0.104876 0.039805204
-0.091300152 -0.10383154 0.039557874
-0.091267563 -0.10482216 0.039082617
-0.089583673 -0.10391706 0.039096802
-0.089400783 -0.10475243 0.038951635
-0.088090822 -0.10427077 0.038791984
-0.087494813 -0.10463297 0.038542271
-0.086086415 -0.10402109 0.038415194
-0.0854856 -0.10438242 0.038565189
-0.084423028 -0.1041816 0.038779438
-0.083569668 -0.10423744 0.0388861
-0.084117986 -0.10606181 0.038870037
-0.081332184 -0.10367619 0.038788915
-0.080738232 -0.10406261 0.038778305
-0.080059357 -0.10434703 0.038782686
-0.078391232 -0.10333389 0.038963616
-0.078813672 -0.1050849 0.039327174
-0.076253057 -0.10285296 0.039694071
-0.075981818 -0.10369283 0.0400455
-0.074942276 -0.10349172 0.040432811
-0.074197955 -0.10369835 0.040809691
-0.072737128 -0.10289643 0.041175216
-0.07240279 -0.10368795 0.041354805
-0.070808776 -0.10267273 0.041710347
-0.071721368 -0.10531239 0.041912705
-0.070721939 -0.10517622 0.04242146
-0.067707524 -0.10200094 0.042670518
-0.066397026 -0.10134283 0.04248628
-0.066440351 -0.10276107 0.042257994
-0.064667091 -0.10137004 0.041965634
-0.064535126 -0.10254896 0.041181266
-0.062939063 -0.10140182 0.039046854
-0.06328921 -0.10340209 0.034842521
-0.064646944 -0.10712922 0.027650863
-0.063712701 -0.10711121 0.022490025
-0.064357407 -0.10978616 0.017932177
-0.066845924 -0.11573325 0.012986362
-0.065971531 -0.11594996 0.011566997
-0.065281525 -0.11650241 0.011603326
-0.063131303 -0.11442549 0.011715174
-0.05889729 -0.10844581 0.01183933
-0.05686022 -0.10638364 0.011803001
-0.056541625 -0.10752178 0.010630757
-0.056936011 -0.11007629 0.010205925
-0.056653846 -0.11138722 0.009681046
-0.055423938 -0.11084788 0.0054034293
-0.10755268 -0.11244144 0.0060570836
-0.099768959 -0.10526083 0.01732704
-0.096480533 -0.1027339 0.035648346
-0.095514968 -0.10265627 0.038148344
-0.093572699 -0.10151755 0.039045781
-0.092861041 -0.10170495 0.039484441
-0.091493666 -0.10117088 0.039779335
-0.090756886 -0.1013305 0.040242255
-0.092139795 -0.1038831 0.039942145
-0.091065884 -0.10368887 0.039647251
-0.089133292 -0.10250328 0.039562136
-0.088626377 -0.10294984 0.039360255
-0.088168733 -0.10346331 0.039454162
-0.086978368 -0.10311868 0.039017767
-0.08642596 -0.1035311 0.038844794
-0.08452455 -0.10231919 0.038937271
-0.084959053 -0.10393927 0.038937181
-0.083236381 -0.10292671 0.039032102
-0.081551529 -0.10193941 0.039192915
-0.081883751 -0.10347947 0.039032102
-0.080720648 -0.10314305 0.038896829
-0.079620004 -0.10287978 0.038941324
-0.078775883 -0.10294575 0.039369136
-0.07779257 -0.10282926 0.039766669
-0.076830938 -0.10273904 0.040230066
-0.076154619 -0.10303272 0.040547341
-0.075645559 -0.10356237 0.041288137
-0.073099665 -0.10128267 0.041536063
-0.073323004 -0.10283104 0.041725188
-0.072205998 -0.10251469 0.042134255
-0.072702818 -0.1045103 0.042262286
-0.070460781 -0.10256949 0.042549312
-0.068452902 -0.10092415 0.042972386
-0.067741849 -0.10117289 0.042975038
-0.06816797 -0.1031489 0.042557538
-0.066858634 -0.10251657 0.042461038
-0.06435091 -0.10000479 0.041491151
-0.063702375 -0.10035305 0.039292276
-0.06461551 -0.10320533 0.034862876
-0.065417297 -0.1059576 0.028898001
-0.065589271 -0.10775381 0.022868931
-0.067593761 -0.11265627 0.019565791
-0.067119271 -0.11351053 0.011889964
-0.066483341 -0.1141132 0.01163733
-0.065622091 -0.11434152 0.011706918
-0.064760439 -0.11457617 0.011714429
-0.061958257 -0.11133124 0.012094975
-0.058598887 -0.10696622 0.011880845
-0.057440229 -0.10654236 0.011803001
-0.056375209 -0.10628113 0.010713041
-0.058242075 -0.11163065 0.010303885
-0.056574155 -0.11027166 0.0094029009
-0.10388258 -0.10864784 0.010404646
-0.09809202 -0.10354158 0.022622943
-0.094705164 -0.10090083 0.035736471
-0.094300956 -0.10141801 0.037700474
-0.092735641 -0.10068441 0.03934893
-0.091351084 -0.10013484 0.039732754
-0.090352252 -0.10000152 0.040682137
-0.089633957 -0.10017913 0.041036576
-0.089535244 -0.10105958 0.040930897
-0.090650044 -0.10334105 0.041053116
-0.089333065 -0.10286838 0.040031791
-0.088131994 -0.10252089 0.040218949
-0.08827699 -0.10374822 0.039610565
-0.085235953 -0.10121769 0.03980571
-0.084566183 -0.10147942 0.039938986
-0.08465489 -0.10266656 0.039850056
-0.08280994 -0.10150896 0.039928913
-0.082786247 -0.10258296 0.040009469
-0.082323521 -0.10313057 0.039868265
-0.080054536 -0.10140241 0.039622992
-0.080290191 -0.10284361 0.039745122
-0.078134187 -0.10121928 0.040102899
-0.079096206 -0.10364331 0.040435284
-0.076808549 -0.10181599 0.040551454
-0.076012865 -0.10194666 0.041187584
-0.075046867 -0.10184932 0.0414823
-0.073921181 -0.1015303 0.041811943
-0.073480032 -0.10215517 0.041959733
-0.072832651 -0.10250521 0.042041272
-0.070564628 -0.10055459 0.042041272
-0.068724401 -0.099171929 0.042459637
-0.068588257 -0.10024438 0.042557538
-0.068533368 -0.10146499 0.042599916
-0.066038586 -0.099057876 0.042029619
-0.062124889 -0.094429828 0.041549027
-0.06413886 -0.09880852 0.039581805
-0.065220766 -0.1018516 0.035378933
-0.066339828 -0.10503807 0.029145777
-0.067853019 -0.1089471 0.02404961
-0.068926975 -0.1122525 0.020494521
-0.069458812 -0.11475804 0.016548783
-0.068182148 -0.11430537 0.011906147
-0.067329019 -0.11455983 0.012016386
-0.066291481 -0.11450347 0.011842459
-0.064084597 -0.11239453 0.011842459
-0.062129516 -0.1106682 0.011929303
-0.058389477 -0.10565715 0.011731505
-0.05734054 -0.10543261 0.011765689
-0.059402145 -0.11101384 0.010514349
-0.057922516 -0.11005278 0.0097100139
-0.056178991 -0.10854924 0.0054023564
-0.10554239 -0.1094155 0.0055693984
-0.10133226 -0.10602357 0.011901736
-0.096979074 -0.10241716 0.022765219
-0.094857037 -0.10112118 0.036402166
-0.092792585 -0.099862494 0.037754834
-0.091800168 -0.099744417 0.039177775
-0.091042817 -0.099881925 0.039671987
-0.089588352 -0.09924984 0.040197849
-0.088890672 -0.099451937 0.040214866
-0.087909557 -0.099337794 0.041184515
-0.088851258 -0.10141608 0.040350497
-0.08926627 -0.10292947 0.040420592
-0.087018043 -0.10137153 0.040197849
-0.086689763 -0.10204107 0.040323466
-0.085439734 -0.10162832 0.040482134
-0.084520303 -0.10160419 0.040210813
-0.084215336 -0.10232615 0.040560186
-0.082832016 -0.10173932 0.040434301
-0.081500754 -0.10120423 0.040444255
-0.081137389 -0.1018725 0.040385902
-0.080710158 -0.1024747 0.040260851
-0.078332454 -0.100586 0.040546983
-0.078517437 -0.10198242 0.040742427
-0.076518215 -0.10054138 0.040806055
-0.07569588 -0.10063099 0.041187137
-0.075937465 -0.10215396 0.041128188
-0.07499177 -0.10209723 0.041595817
-0.072571188 -0.10000663 0.041647434
-0.071057789 -0.099130005 0.041794866
-0.069643699 -0.098371729 0.04176411
-0.070042394 -0.10018722 0.041560262
-0.069334485 -0.10044611 0.041895837
-0.067500845 -0.099059679 0.041760117
-0.066358231 -0.098664209 0.040535569
-0.066142246 -0.099654324 0.038287252
-0.067236558 -0.10267205 0.035067827
-0.067972764 -0.10521811 0.027844697
-0.068775475 -0.10793929 0.023862481
-0.070730992 -0.11257186 0.019840002
-0.069862962 -0.11277878 0.016869754
-0.069578603 -0.11394757 0.011889964
-0.068525434 -0.11387314 0.011341453
-0.067334361 -0.11356393 0.011756837
-0.065808266 -0.11267173 0.011629075
-0.064308733 -0.11179826 0.011672914
-0.060203414 -0.10629665 0.011880845
-0.058175817 -0.1043471 0.011803001
-0.059137553 -0.10778296 0.011294544
-0.058881562 -0.10907568 0.01012069
-0.057036214 -0.1074182 0.00630337
-0.1036914 -0.10753182 0.0070322752
-0.10178164 -0.1065378 0.017045587
-0.096730284 -0.10220558 0.02326563
-0.094087534 -0.10036004 0.035443366
-0.092230991 -0.099325687 0.037333846
-0.091140278 -0.099103995 0.038647652
-0.090414956 -0.099279165 0.03959161
-0.088750936 -0.09841688 0.039599568
-0.087339878 -0.097820662 0.040198296
-0.087098643 -0.098535836 0.0402807
-0.086484686 -0.098839641 0.040575594
-0.086204857 -0.09953551 0.040247768
-0.086910829 -0.10139596 0.040626436
-0.086169213 -0.10158896 0.04069519
-0.084670924 -0.1008845 0.040511727
-0.084043711 -0.10121393 0.0407978
-0.083663538 -0.10185126 0.040670633
-0.082627267 -0.1016951 0.040452927
-0.080522723 -0.10020605 0.040315807
-0.080326572 -0.10108513 0.040441841
-0.079397567 -0.10105145 0.040494084
-0.078223646 -0.1007017 0.040604353
-0.077842936 -0.10137685 0.040651768
-0.075527988 -0.09951923 0.040768743
-0.074463755 -0.099285014 0.040899992
-0.072607659 -0.097976595 0.04156518
-0.07284297 -0.09949284 0.041254371
-0.070425153 -0.097377993 0.041444987
-0.070700012 -0.098980024 0.04129532
-0.069373943 -0.098352931 0.04160431
-0.068209991 -0.097942553 0.040924013
-0.068056084 -0.098990671 0.039792508
-0.068435162 -0.10085181 0.036601156
-0.067613222 -0.10096908 0.029920518
-0.068693772 -0.10396896 0.027239174
-0.068920068 -0.10574038 0.023811519
-0.072161585 -0.11225136 0.019640207
-0.071764246 -0.11320557 0.016161025
-0.069400102 -0.11104017 0.012139618
-0.069526628 -0.11285482 0.011890262
-0.068828374 -0.11336438 0.011415213
-0.066629194 -0.11138014 0.011917561
-0.063811265 -0.10828578 0.011889964
-0.060981348 -0.10507555 0.012000054
-0.059041675 -0.10332293 0.01194033
-0.059119821 -0.10510191 0.01180476
-0.060718771 -0.10968553 0.010798275
-0.058848906 -0.10805045 0.0084671676
-0.10600804 -0.1089527 0.0051543713
-0.10492271 -0.10884506 0.01053232
-0.10035335 -0.10508699 0.017435491
-0.09558443 -0.1010464 0.022666991
-0.093774639 -0.10008639 0.035381794
-0.091758803 -0.0988857 0.037335008
-0.090321131 -0.098290637 0.038947791
-0.089610994 -0.098483369 0.039556772
-0.087492138 -0.097116277 0.039880574
-0.087480724 -0.09808445 0.039983183
-0.086125433 -0.097550236 0.040341854
-0.084727794 -0.096956544 0.040239245
-0.084169976 -0.097321533 0.040431499
-0.084194161 -0.098374233 0.040590167
-0.08330369 -0.098369248 0.040466458
-0.081912123 -0.097766079 0.040604383
-0.082625993 -0.099690057 0.040604383
-0.081120603 -0.098949306 0.040579528
-0.079775199 -0.098389409 0.040174067
-0.079691678 -0.099390738 0.04040125
-0.077576712 -0.097852446 0.040311098
-0.076718703 -0.097882479 0.040285468
-0.075900167 -0.097964168 0.040146202
-0.07534454 -0.098391108 0.040146202
-0.074020572 -0.097812906 0.040411353
-0.072637841 -0.097142175 0.040616482
-0.07243415 -0.098051101 0.040535748
-0.071136475 -0.097483315 0.040535748
-0.070460878 -0.097764462 0.040430218
-0.069849849 -0.098143458 0.040029466
-0.068909921 -0.098064125 0.037870526
-0.069183715 -0.099732362 0.0351668
-0.069046848 -0.10084474 0.028713852
-0.069789112 -0.10328789 0.025408536
-0.068547748 -0.10282162 0.019742817
-0.07137756 -0.10853299 0.018092126
-0.07316234 -0.11279193 0.016300738
-0.071114175 -0.1111785 0.012186795
-0.069880724 -0.11081086 0.011422455
-0.069956139 -0.11253813 0.011422455
-0.068124548 -0.1112033 0.011443198
-0.063684605 -0.10550732 0.011932224
-0.062078159 -0.10440418 0.011873633
-0.061049495 -0.10425375 0.011920899
-0.059571445 -0.10331922 0.011920899
-0.061054777 -0.1075727 0.010927111
-0.059441853 -0.10642009 0.0098406971
-0.10329293 -0.10618899 0.0066274107
-0.10367075 -0.10758286 0.013347656
-0.10092866 -0.1057348 0.018767536
-0.096020952 -0.10156062 0.022677302
-0.092593193 -0.098885939 0.032970876
-0.090963513 -0.098097906 0.036968023
-0.090588987 -0.098661266 0.03801623
-0.088104777 -0.096915253 0.038947791
-0.087631576 -0.097368412 0.039620429
-0.08616595 -0.096716881 0.039834768
-0.085827395 -0.097330034 0.039681941
-0.084922299 -0.097306803 0.039958686
-0.083994932 -0.097257286 0.040387303
-0.083375983 -0.09756764 0.040002882
-0.082397319 -0.09745919 0.040375888
-0.080476955 -0.096222453 0.040434301
-0.080113597 -0.096840613 0.040215403
-0.07881552 -0.096330076 0.039908618
-0.077917486 -0.096302517 0.040036649
-0.076854207 -0.096067756 0.0398857
-0.076862462 -0.097182423 0.039819449
-0.074713364 -0.095563605 0.039618671
-0.074031189 -0.095805071 0.039581507
-0.074411586 -0.097443745 0.039618671
-0.073234215 -0.097057395 0.039995164
-0.072386652 -0.097104043 0.039728016
-0.070912853 -0.096301407 0.039338201
-0.070914172 -0.097506985 0.038221538
-0.070311785 -0.097902477 0.035630792
-0.070672832 -0.099666812 0.032652646
-0.071302444 -0.10186063 0.026956737
-0.070681661 -0.10230241 0.022190273
-0.069184497 -0.10147059 0.018823892
-0.07019835 -0.1043489 0.01633212
-0.073361993 -0.11054547 0.011265278
-0.071744904 -0.10961027 0.011367887
-0.07124868 -0.11038528 0.011539489
-0.070800543 -0.11125799 0.011532396
-0.068739042 -0.10958398 0.011532396
-0.06385076 -0.103288 0.011104017
-0.063218758 -0.10379199 0.011649549
-0.061571874 -0.10261979 0.011053443
-0.060323212 -0.10208543 0.011124939
-0.061054397 -0.10493725 0.010997862
-0.060911991 -0.10635427 0.0099055171
-0.059812721 -0.10611934 0.0056335628
-0.099434786 -0.10224897 0.0086642802
-0.10240398 -0.10630509 0.013873249
-0.10200967 -0.10691398 0.017626107
-0.096997119 -0.10264744 0.021057993
-0.093133554 -0.099525072 0.024290532
-0.090071358 -0.097205721 0.033960342
-0.089131646 -0.0971535 0.036445498
-0.088411979 -0.097342484 0.038345993
-0.087156221 -0.096939057 0.03872779
-0.085872963 -0.096496426 0.038590044
-0.085326716 -0.096881375 0.038913101
-0.083333746 -0.095614508 0.038913101
-0.084097192 -0.097516954 0.038913101
-0.082484804 -0.096675739 0.039044142
-0.08021272 -0.095034629 0.038794041
-0.080204464 -0.096069083 0.038459897
-0.079702511 -0.096528597 0.039037436
-0.078612253 -0.09627793 0.039150923
-0.07812541 -0.096768975 0.039037436
-0.076596983 -0.095966339 0.039037436
-0.076012418 -0.096341327 0.038939476
-0.07524588 -0.096491776 0.038825125
-0.073660731 -0.095583566 0.038019419
-0.073146597 -0.096059993 0.037986279
-0.072947249 -0.09696646 0.036371291
-0.072511941 -0.097577803 0.035717219
-0.072791763 -0.099178776 0.032652646
-0.072972991 -0.10068426 0.027527213
-0.073058143 -0.10209407 0.024078906
-0.073222481 -0.1036526 0.020958215
-0.073866017 -0.10593942 0.017699867
-0.072633907 -0.10556128 0.016015172
-0.074063376 -0.10909335 0.011268914
-0.073348798 -0.10952082 0.010648191
-0.071752928 -0.10862596 0.011367887
-0.071227409 -0.10934912 0.011866331
-0.070286542 -0.10944619 0.011665016
-0.06569346 -0.10377663 0.011672109
-0.064058296 -0.10268169 0.011164993
-0.062251672 -0.10127511 0.011234015
-0.061745927 -0.10197433 0.011059195
-0.061956212 -0.1038958 0.010678947
-0.061755691 -0.10517766 0.010094643
-0.060978226 -0.10550201 0.0065312684
-0.099064752 -0.10189518 0.0095124543
-0.10101391 -0.10489906 0.013541996
-0.10067182 -0.10555881 0.017236203
-0.096505992 -0.10218282 0.019845665
-0.094631419 -0.10119004 0.021612704
-0.091699719 -0.099035695 0.024356991
-0.089163616 -0.097269394 0.033770859
-0.08791773 -0.09688893 0.036095947
-0.086360462 -0.096153915 0.036809266
-0.08484368 -0.095449135 0.038169295
-0.084484242 -0.096045241 0.038316935
-0.083227605 -0.09562321 0.038345993
-0.081645533 -0.094814166 0.038311005
-0.081306972 -0.095447309 0.038311005
-0.081100933 -0.096251659 0.037819415
-0.078804515 -0.094565421 0.037924856
-0.079699069 -0.096713483 0.037982047
-0.077810079 -0.095494181 0.037119776
-0.077941656 -0.096755154 0.037132531
-0.07595671 -0.095387496 0.036691129
-0.076251075 -0.096883714 0.036284745
-0.074985623 -0.096410081 0.035630673
-0.075341262 -0.098034412 0.034563273
-0.074875221 -0.098616146 0.028184861
-0.074866354 -0.099821806 0.025682092
-0.07570374 -0.10220005 0.023231804
-0.076950446 -0.10519808 0.022065073
-0.078442499 -0.10861269 0.019807339
-0.078017712 -0.10942744 0.016461492
-0.077039056 -0.10947656 0.013336599
-0.076196529 -0.109723 0.010773867
-0.074425779 -0.10862141 0.01077655
-0.072268389 -0.10691762 0.010531157
-0.072395541 -0.10859331 0.011265278
-0.070377499 -0.10705309 0.011672109
-0.067760594 -0.10454492 0.011665016
-0.06534791 -0.10228369 0.011672109
-0.063648827 -0.10108931 0.011124939
-0.062419936 -0.10061721 0.010747969
-0.062941827 -0.10299572 0.010678947
-0.063555472 -0.10559987 0.010480702
-0.061799757 -0.1042871 0.0065329969
-0.099029325 -0.10188594 0.008190155
-0.097618766 -0.10140979 0.012922853
-0.0974534 -0.10223053 0.016092807
-0.096966602 -0.102727 0.018861383
-0.095261887 -0.10193022 0.020144254
-0.092593245 -0.10007553 0.02188611
-0.091663972 -0.10008209 0.023979574
-0.088464752 -0.097584829 0.026704341
-0.087050803 -0.097025372 0.031651318
-0.084978789 -0.095712952 0.034685403
-0.083260015 -0.094774693 0.035632461
-0.083111055 -0.095622398 0.035575926
-0.082261346 -0.095673524 0.035731316
-0.08088699 -0.095108874 0.035902113
-0.081012294 -0.096314617 0.035805821
-0.079813913 -0.09595605 0.03597039
-0.079190396 -0.096288323 0.034775585
-0.078969769 -0.097123742 0.034276068
-0.077732012 -0.096713081 0.031117707
-0.077892013 -0.098052301 0.028556436
-0.077879198 -0.099203259 0.024701923
-0.077390537 -0.099768519 0.022954106
-0.076847792 -0.100277 0.020730197
-0.077871852 -0.10286775 0.019955486
-0.079302005 -0.10606644 0.019868404
-0.079750828 -0.10801695 0.018703371
-0.080371343 -0.110253 0.016615868
-0.077921227 -0.10828014 0.014750272
-0.077042639 -0.10846793 0.011551589
-0.075965084 -0.10837685 0.010663658
-0.073986895 -0.10698105 0.010945022
-0.073256291 -0.10737566 0.010487795
-0.071759261 -0.10664224 0.011087805
-0.06985455 -0.10527375 0.011539489
-0.06528616 -0.099794559 0.011532396
-0.064081304 -0.099372454 0.011063963
-0.063311249 -0.099622108 0.010480702
-0.064647213 -0.10324257 0.010220021
-0.063691735 -0.10325782 0.0081038475
-0.062685445 -0.10318988 0.0071564019
-0.097445652 -0.10028388 0.0058837831
-0.097478583 -0.10130128 0.010933638
-0.097716972 -0.10255444 0.014182985
-0.099281877 -0.10523879 0.017402619
-0.099334605 -0.10635826 0.018825173
-0.096598871 -0.10448449 0.020056725
-0.096154891 -0.10507648 0.020946532
-0.09286166 -0.10253475 0.022561431
-0.089234963 -0.099567436 0.024173796
-0.087561518 -0.098739579 0.024260074
-0.086327799 -0.098395124 0.024413288
-0.084408894 -0.097253725 0.025837719
-0.084459774 -0.09838172 0.025519043
-0.083046883 -0.097810775 0.025428385
-0.082056962 -0.097730763 0.025551915
-0.082433909 -0.099295393 0.024779379
-0.081333935 -0.099096514 0.023816943
-0.081087388 -0.099944919 0.023244649
-0.080099352 -0.099888608 0.021117419
-0.078948595 -0.099625602 0.020076066
-0.077674963 -0.099199347 0.019536883
-0.079778887 -0.10312881 0.018965214
-0.080477856 -0.10531671 0.018413067
-0.0803717 -0.1064925 0.017370582
-0.080509655 -0.10802562 0.016881019
-0.077481143 -0.10529488 0.014606297
-0.078907385 -0.10862575 0.012402683
-0.077427775 -0.10799137 0.0103845
-0.074725851 -0.10561254 0.0099350214
-0.074690327 -0.10698885 0.010129243
-0.071880244 -0.10437405 0.0099844337
-0.068656944 -0.10107828 0.010449618
-0.067281738 -0.10044879 0.010370761
-0.065784901 -0.099617131 0.010363519
-0.064892225 -0.099689499 0.0098179877
-0.066410571 -0.10352236 0.008022517
-0.064274982 -0.10168877 0.007910192
-0.063567907 -0.10209391 0.0059838593
-0.095246859 -0.099019006 0.0090280771
-0.096029386 -0.10083086 0.012897164
-0.099644035 -0.10568307 0.014272481
-0.099925987 -0.10706356 0.016012102
-0.099915713 -0.10815618 0.017476052
-0.097557582 -0.1067036 0.018764913
-0.094935656 -0.10492889 0.019248128
-0.090289623 -0.10085543 0.020060062
