ply
format ascii 1.0
comment PCL generated
element vertex 1329
property float x
property float y
property float z
element camera 0
property float view_px
property float view_py
property float view_pz
property float x_axisx
property float x_axisy
property float x_axisz
property float y_axisx
property float y_axisy
property float y_axisz
property float z_axisx
property float z_axisy
property float z_axisz
property float focal
property float scalex
property float scaley
property float centerx
property float centery
property int viewportx
property int viewporty
property float k1
property float k2
end_header
0.087083682 0.039273031 0.048590332
0.088148788 0.039367422 0.048532158
0.088544302 0.039163828 0.048600852
0.089937478 0.039401181 0.048670113
0.090471245 0.039261106 0.048791528
0.091011159 0.039126292 0.048912764
0.092509992 0.039402403 0.049247801
0.092832841 0.039177164 0.049708217
0.094494924 0.039516058 0.049700379
0.095320858 0.039502338 0.050064474
0.094497174 0.038811337 0.050213873
0.096235842 0.039175652 0.050334662
0.095730171 0.038627964 0.050784558
0.097789034 0.039115611 0.051580846
0.099886984 0.039610356 0.052663863
0.10068994 0.039587498 0.053467959
0.099592231 0.038824089 0.052925766
0.099130921 0.038319513 0.053035259
0.099479489 0.038133804 0.052002013
0.099792458 0.03793763 0.051332325
0.10370034 0.039100129 0.047285944
0.11705653 0.043777242 0.010908574
0.12110481 0.044925977 0.0058974922
0.062830031 0.042185877 0.0091475844
0.06461022 0.042770147 0.017359853
0.070419557 0.04596832 0.020340264
0.07278499 0.04686157 0.021437019
0.073117241 0.046439327 0.025918841
0.067594424 0.04235917 0.027496934
0.066978805 0.0414211 0.028847367
0.066103309 0.040348776 0.037142307
0.064799912 0.039046101 0.047593683
0.066386722 0.039495897 0.049271494
0.067098089 0.039420128 0.050190836
0.067772843 0.03932498 0.050763398
0.06918107 0.039652567 0.051255584
0.07087373 0.040133316 0.050703824
0.072178692 0.040385697 0.050244242
0.071609236 0.039595697 0.049969971
0.072626896 0.039691444 0.049120277
0.073810317 0.039874539 0.048785567
0.075072549 0.040095564 0.048721552
0.075871795 0.040067125 0.048666209
0.076842308 0.04012876 0.04836607
0.077486753 0.04002063 0.048615515
0.078629099 0.040169213 0.048464656
0.080220141 0.040541362 0.048215121
0.080532067 0.040266033 0.048219293
0.081102625 0.040124457 0.048334271
0.082268454 0.040277265 0.048388213
0.082309633 0.039881986 0.048288524
0.084407136 0.040480971 0.048287064
0.083953984 0.039856941 0.048395783
0.085819475 0.040335156 0.048436344
0.086050227 0.040043175 0.048437327
0.087159283 0.040161628 0.048601568
0.087112084 0.039750174 0.048679978
0.089768581 0.040568493 0.048761576
0.089518197 0.040070049 0.048791319
0.089473657 0.039672282 0.048806965
0.09129408 0.040101141 0.048963368
0.092353337 0.040190805 0.04924953
0.093227394 0.040198971 0.049712539
0.094474733 0.040366475 0.049870282
0.095268629 0.040338971 0.050155431
0.096234739 0.040384222 0.05026406
0.096371405 0.04008368 0.050371855
0.09571702 0.03946228 0.050824612
0.098184206 0.040127456 0.051569462
0.099433601 0.040287752 0.052721858
0.099522516 0.03997913 0.053213835
0.10131473 0.040354174 0.05303061
0.098688833 0.038977943 0.052678972
0.099144019 0.038831409 0.052182585
0.10036732 0.038985651 0.051534474
0.10236242 0.039434701 0.048521429
0.11224947 0.042892072 0.021318018
0.12260314 0.046470545 0.0059713423
0.062600948 0.042926364 0.0091475844
0.06504409 0.043973468 0.016723543
0.071946405 0.047964271 0.020418495
0.071275935 0.046866365 0.023016185
0.073253758 0.047515951 0.027935624
0.067665733 0.043306068 0.028727025
0.067496821 0.04262957 0.032373697
0.066083521 0.041194919 0.044793487
0.065305717 0.040188134 0.048074424
0.065563411 0.039835997 0.049696684
0.066867992 0.040120795 0.050703824
0.067488022 0.039992899 0.051312983
0.070118375 0.041044902 0.051487952
0.070872113 0.040986285 0.0510149
0.070966475 0.04055227 0.05039525
0.0731842 0.041327551 0.049938649
0.073222138 0.040868171 0.049135834
0.074493118 0.041099649 0.048785567
0.074988991 0.040903088 0.048689634
0.07628458 0.041142248 0.048572302
0.076688901 0.040900748 0.048367918
0.077659823 0.040963423 0.048422068
0.078974925 0.041204307 0.04819718
0.078635707 0.04058617 0.04801783
0.079324573 0.040506165 0.047888875
0.082048953 0.041456312 0.048495471
0.081815884 0.040907942 0.048259407
0.083016552 0.041080356 0.048164368
0.083814919 0.041052207 0.048145443
0.083689108 0.04057654 0.048300952
0.085916057 0.041239709 0.048503995
0.086346619 0.041036017 0.04861927
0.086798184 0.040846206 0.048730403
0.088425614 0.041208051 0.04880175
0.088614054 0.040898792 0.048833847
0.088917114 0.040647823 0.048957169
0.090841576 0.041135807 0.048963368
0.091662556 0.04111965 0.049097627
0.092625454 0.041166868 0.049392819
0.093871973 0.04133812 0.049921155
0.093441829 0.040774617 0.050142586
0.094865046 0.041022722 0.050258517
0.096162289 0.04121241 0.050355881
0.096110605 0.040825743 0.050405532
0.096828289 0.040769808 0.050955981
0.09780705 0.04082381 0.052150398
0.097411558 0.04030823 0.053060293
0.099722385 0.040911749 0.053940207
0.10005049 0.040698502 0.053182334
0.098879531 0.03988418 0.05281356
0.099446133 0.039778452 0.05242607
0.099565908 0.039497219 0.051579148
0.1011575 0.039799675 0.04881084
0.1124062 0.043865833 0.021594495
0.11864325 0.045926418 0.0069299936
0.062507279 0.043755095 0.010931462
0.067987978 0.046921279 0.018101603
0.070837528 0.048208874 0.0213691
0.072514236 0.048673943 0.027935624
0.073463425 0.048644699 0.030497372
0.06878607 0.044940233 0.030798733
0.067142181 0.043289039 0.034701318
0.065013893 0.041372478 0.046656728
0.06523145 0.040978733 0.048259199
0.065977938 0.040923025 0.04973948
0.067016296 0.041047484 0.050748557
0.067217298 0.040662315 0.051140904
0.070949055 0.042396385 0.05135867
0.070424676 0.041576013 0.050703824
0.071518317 0.041719019 0.050163001
0.072503231 0.04179598 0.049307257
0.073155113 0.041681401 0.048791081
0.074465662 0.041940432 0.048552632
0.075524747 0.042053554 0.048564762
0.075790644 0.041727431 0.04848668
0.076948553 0.041894212 0.048318386
0.078482673 0.042259898 0.04804787
0.078069754 0.041580629 0.04801783
0.079929613 0.042113449 0.047827691
0.080320969 0.041869443 0.047835916
0.080999881 0.041778889 0.048289001
0.082225613 0.041969325 0.048265845
0.082014397 0.041429952 0.048175186
0.08318314 0.04159157 0.048145443
0.084598221 0.041871846 0.048453957
0.085884877 0.042083587 0.048590958
0.085930146 0.041688886 0.048730195
0.087562211 0.042064197 0.049056411
0.087935843 0.041833557 0.048974842
0.088600166 0.04174431 0.049069405
0.090519831 0.042242587 0.049088925
0.090729505 0.041940995 0.049130589
0.091099702 0.041718554 0.049273998
0.092418186 0.041930474 0.049583346
0.092753634 0.041696589 0.050024241
0.093863808 0.041812059 0.050258636
0.095507167 0.04216082 0.050400943
0.094816178 0.04148208 0.050467223
0.096258037 0.041740209 0.050812215
0.096800528 0.041607246 0.051131666
0.096210554 0.040994063 0.052302688
0.098672733 0.041680723 0.053477377
0.098260872 0.041151989 0.053935438
0.1002785 0.041641075 0.053189784
0.098926686 0.040734518 0.05368045
0.099473253 0.040618245 0.052462429
0.099856071 0.040437583 0.051615506
0.10284841 0.041307967 0.049420327
0.10885992 0.043366961 0.021594495
0.12026015 0.047522157 0.0061924756
0.063365668 0.045261193 0.01138407
0.068552114 0.048276138 0.018148124
0.070408605 0.048894867 0.022186697
0.072925724 0.049949128 0.028947383
0.072723724 0.049137652 0.031736195
0.067785084 0.045190059 0.032251239
0.066418573 0.043696433 0.037277639
0.065065995 0.042250644 0.047531843
0.064983673 0.041656204 0.048605084
0.066931605 0.042361774 0.049885839
0.067094013 0.04193376 0.050436586
0.068832636 0.042489279 0.050665349
0.070200011 0.042804886 0.051307231
0.070911296 0.042717647 0.050436586
0.071907654 0.042802177 0.049923122
0.071688861 0.042169921 0.048995614
0.073448256 0.042702474 0.048666596
0.073597424 0.042297371 0.048475087
0.07520479 0.042729996 0.048445255
0.07644023 0.042943951 0.048464656
0.077720024 0.043177791 0.048086166
0.077100493 0.042362906 0.048122644
0.078713708 0.042779189 0.047835916
0.080115736 0.043072976 0.047920406
0.080509245 0.042824067 0.047876865
0.08118467 0.042728774 0.048609942
0.082128502 0.042775262 0.048439473
0.082500882 0.042526226 0.048289001
0.084139176 0.042928148 0.048394322
0.084887691 0.04287257 0.048686951
0.085229084 0.042614542 0.048659652
0.086645409 0.042893764 0.048831522
0.087276869 0.04278278 0.049136251
0.087190561 0.042325515 0.049371839
0.088567823 0.042580687 0.049199879
0.089464068 0.042601939 0.049288452
0.090757467 0.042810127 0.049233764
0.091793366 0.042894095 0.049523652
0.092167132 0.042669971 0.049748987
0.092431784 0.042399902 0.050064385
0.094626173 0.043011896 0.050379694
0.094949871 0.042770214 0.050493866
0.095624007 0.04268929 0.050503254
0.096119665 0.042530823 0.050812215
0.095752999 0.04199693 0.051059067
0.097605601 0.042437218 0.052277058
0.098464735 0.042441696 0.053084642
0.098747924 0.042199969 0.053346246
0.10092399 0.042764407 0.053212792
0.099707521 0.041893914 0.053084642
0.09895172 0.041229881 0.052719146
0.10071845 0.041619193 0.051669031
0.10144164 0.041574445 0.049377084
0.11069902 0.044999603 0.021594495
0.12176896 0.049100388 0.0060434937
0.061724648 0.045622565 0.0056394935
0.064969502 0.047334921 0.01298669
0.067979723 0.048830505 0.018133819
0.072054207 0.051038399 0.022952408
0.071639933 0.050049819 0.029609412
0.072941303 0.050270356 0.031962484
0.069530725 0.047280893 0.033292681
0.065028898 0.043637812 0.04168421
0.064510234 0.042727556 0.047701657
0.065642454 0.042920064 0.0490973
0.065969817 0.042588111 0.049942285
0.066811815 0.042592529 0.050531715
0.068934008 0.043402895 0.050911009
0.069527842 0.043242928 0.051148713
0.071382523 0.043861549 0.050348222
0.071337216 0.043311879 0.049405038
0.07193397 0.043160379 0.048766047
0.07381577 0.043774471 0.048570782
0.074586757 0.04372327 0.048395365
0.07529401 0.0436363 0.048238724
0.076457836 0.043812919 0.048191905
0.076974526 0.043618899 0.048026949
0.077774048 0.043587655 0.048095673
0.07910572 0.043852083 0.047941685
0.079459988 0.043574832 0.048017651
0.079585575 0.043179404 0.048602641
0.081478886 0.043741297 0.048827499
0.08184208 0.043478604 0.048716515
0.083323181 0.043809094 0.048716515
0.083869673 0.043646462 0.04880327
0.083494164 0.043012146 0.048925489
0.084717922 0.04320614 0.048901439
0.086053357 0.043452684 0.048959821
0.087067857 0.043533929 0.049256295
0.088827364 0.04398248 0.049491882
0.088906661 0.043598458 0.049327046
0.089316092 0.043382104 0.049449533
0.090315074 0.043453481 0.049441397
0.090922236 0.043336768 0.049699038
0.092294648 0.043583583 0.049834609
0.092648402 0.043349251 0.050255507
0.093555316 0.043375649 0.050457865
0.093500756 0.042959809 0.050870031
0.094901621 0.043214131 0.050739139
0.095307276 0.043014787 0.050936311
0.095901102 0.042903125 0.051340401
0.096753709 0.042908166 0.052241027
0.097393632 0.042819612 0.053357661
0.099434666 0.043343313 0.05359298
0.10116379 0.04372333 0.053269386
0.099012509 0.042433932 0.053249687
0.1004229 0.042679735 0.052474707
0.099129841 0.041781999 0.051804751
0.10144714 0.042408232 0.049377084
0.11383867 0.047201399 0.021621227
0.11876607 0.048847336 0.0061245263
0.06714946 0.049882457 0.014605641
0.070513122 0.051643413 0.018470198
0.070208341 0.050706025 0.024928778
0.071918257 0.051229443 0.029846102
0.07277742 0.05114089 0.031947136
0.067652807 0.046905946 0.034058809
0.064825989 0.044354625 0.045070469
0.064705729 0.043697376 0.048131615
0.064797491 0.043198328 0.049415588
0.066013619 0.043452006 0.049967498
0.066921495 0.043498971 0.050531715
0.069280468 0.044476349 0.050911009
0.069615759 0.044146579 0.050840855
0.070001319 0.043856245 0.050241321
0.070987038 0.043944359 0.049358398
0.0723911 0.044286322 0.048759788
0.073302172 0.044322245 0.048451841
0.073652789 0.044022355 0.047991812
0.07545431 0.044586636 0.047977149
0.076206252 0.044525001 0.048094183
0.076297291 0.04408288 0.047844589
0.07841482 0.044808466 0.047929257
0.078776732 0.044525981 0.047804981
0.079014689 0.044180255 0.047897339
0.080568127 0.044569604 0.048509568
0.080991387 0.044332128 0.048700362
0.08199434 0.0444136 0.048705757
0.08328592 0.044648122 0.048958361
0.083883204 0.044509456 0.049029261
0.084606528 0.044439793 0.049242735
0.085713707 0.044571128 0.049092233
0.086271532 0.044417024 0.049101353
0.08717037 0.044439796 0.049428403
0.08801613 0.04443533 0.04948777
0.08883132 0.04441566 0.049449533
0.089578837 0.04436285 0.049644738
0.090445943 0.044369709 0.049629152
0.091183618 0.044313535 0.049723119
0.092464969 0.044520169 0.049801022
0.09227585 0.044021506 0.050107151
0.094114028 0.044490267 0.050449759
0.095077097 0.044540621 0.05077526
0.094166607 0.043720212 0.050785124
0.09785524 0.045030732 0.05113861
0.09613993 0.043853302 0.051410049
0.096731298 0.043739367 0.052427828
0.098770812 0.044276573 0.053175002
0.099123932 0.044055082 0.053585231
0.098936297 0.043599047 0.053692222
0.099546976 0.043499518 0.053576231
0.099653982 0.04318339 0.052614629
0.09956307 0.042787436 0.051847219
0.10312686 0.043955714 0.049501359
0.11260566 0.047605645 0.019584447
0.12054092 0.050549414 0.006072104
0.065753028 0.049784437 0.013077706
0.069266409 0.051705908 0.018581688
0.070411056 0.051830359 0.025212049
0.072255656 0.052459586 0.029940039
0.071666069 0.051328402 0.032170415
0.066473208 0.046974402 0.034234583
0.064946949 0.045291949 0.045093924
0.064626493 0.04448317 0.048338294
0.064876959 0.044083063 0.049566776
0.066139959 0.044372376 0.050343633
0.06682083 0.044268802 0.050492495
0.07043799 0.046089053 0.050759256
0.069101445 0.044663131 0.050647974
0.070553891 0.045052487 0.050209701
0.071223371 0.044938557 0.049330711
0.071868546 0.044812154 0.048721552
0.072273798 0.04454083 0.048412263
0.074539162 0.045408912 0.047966063
0.074678838 0.044977028 0.047789454
0.075985521 0.045249805 0.047996342
0.077557459 0.045672726 0.047914028
0.076991335 0.044841107 0.047841609
0.078074425 0.044977657 0.04779923
0.07981921 0.045488369 0.048467457
0.081288025 0.045832608 0.048471123
0.080751315 0.045050733 0.049003989
0.082806684 0.045716189 0.049088776
0.082513772 0.045084845 0.049082845
0.083867967 0.045357168 0.049002469
0.085071392 0.045543272 0.049325466
0.085190363 0.045150891 0.049320608
0.086477377 0.045379218 0.049330235
0.085890666 0.044629466 0.04948777
0.086789936 0.044658899 0.049534678
0.088893302 0.045301396 0.049681187
0.088868111 0.044857237 0.049734324
0.09045428 0.04522714 0.049560457
0.091333568 0.045239989 0.049813628
0.091946073 0.045121681 0.049983472
0.092503861 0.044978943 0.05033806
0.095302731 0.045918588 0.050587863
0.09453845 0.04513998 0.050956726
0.095690809 0.045282256 0.050868362
0.095644109 0.044859625 0.051146418
0.095229797 0.044273499 0.051296324
0.097300321 0.044842757 0.052203089
0.097520597 0.044556823 0.053069532
0.098665982 0.044694848 0.053477257
0.10033432 0.045065414 0.053121924
0.099639155 0.0443771 0.052943975
0.099199995 0.043813329 0.052309245
0.10051235 0.044026069 0.051669031
0.10329714 0.044874985 0.048757166
0.11450842 0.049341027 0.0091398358
0.12098792 0.05171258 0.0052983463
0.062940486 0.048554093 0.012844205
0.06885539 0.05236889 0.018344641
0.07134565 0.053509235 0.023263007
0.071022265 0.05253702 0.029960334
0.069098674 0.050423354 0.032182693
0.066639036 0.047980107 0.034943223
0.064632691 0.045923226 0.045062751
0.063855149 0.044781532 0.048322767
0.065342635 0.045237206 0.049570799
0.065699391 0.044908445 0.050283074
0.067498326 0.04556137 0.050646931
0.069749445 0.046499632 0.050911009
0.069985874 0.04608826 0.050635099
0.071559459 0.046556756 0.050185323
0.070692107 0.045444924 0.049410075
0.072008245 0.045746416 0.04881081
0.074254066 0.046624646 0.048511535
0.074686572 0.046357181 0.048063546
0.075160265 0.046121072 0.047804028
0.076492615 0.046411246 0.047996342
0.076691933 0.046015162 0.047808349
0.077541344 0.046013545 0.04779923
0.079274908 0.046530925 0.047788531
0.079599477 0.046219051 0.04843843
0.080527261 0.046260342 0.048693448
0.0815989 0.046382532 0.049022853
0.082097314 0.046179738 0.049029797
0.083518371 0.046494763 0.049088776
0.083931521 0.046247981 0.049016684
0.08452411 0.046104062 0.049387604
0.086276241 0.046589173 0.049363405
0.085669525 0.04580351 0.049457133
0.086116165 0.045590911 0.049682021
0.087978229 0.04612451 0.049708277
0.088404171 0.045902167 0.049791038
0.089057408 0.045800954 0.049798667
0.09099219 0.04635451 0.049832016
0.09134765 0.04610068 0.049973756
0.092096835 0.046048418 0.050095022
0.092743672 0.045946404 0.050373703
0.094168603 0.046228223 0.050687879
0.09430518 0.045878194 0.05105108
0.094409943 0.04551908 0.050976902
0.095471971 0.045623772 0.051190943
0.09636756 0.045647793 0.051756322
0.097526439 0.045795023 0.052499652
0.098762751 0.045975763 0.053437382
0.099917926 0.046115965 0.053492904
0.099636689 0.045596451 0.053249687
0.098828316 0.044846464 0.052954912
0.10111853 0.045503341 0.052241027
0.099110708 0.044231225 0.051473379
0.10294603 0.045566276 0.043257356
0.11849301 0.052021317 0.0065168738
0.12027821 0.052379221 0.0050904155
0.062533736 0.049133647 0.011686206
0.070088103 0.054293603 0.018371731
0.070734732 0.054033477 0.023305148
0.070817471 0.053355627 0.029714435
0.066062711 0.04910066 0.031638384
0.065018438 0.047680188 0.034941763
0.064580001 0.046735529 0.045048773
0.06464681 0.046176292 0.049052149
0.065239169 0.046001974 0.049460083
0.065475255 0.045584038 0.050304711
0.068277217 0.046940587 0.050977916
0.068863243 0.046758994 0.051259995
0.069184922 0.046404518 0.050839812
0.070463978 0.046692993 0.050233275
0.071205869 0.046622891 0.049652636
0.072404191 0.046849769 0.049094856
0.073180549 0.046801511 0.048656702
0.073268078 0.0463189 0.048514873
0.075227283 0.047017053 0.048044741
0.075481586 0.046645924 0.048376381
0.077297755 0.047237519 0.048168778
0.078295939 0.047321722 0.048116535
0.078673437 0.047033034 0.048285723
0.07987462 0.047237679 0.048426896
0.080821507 0.047289182 0.048655272
0.081308477 0.047073327 0.04903385
0.082125865 0.047051277 0.04903385
0.082493991 0.046774942 0.04906708
0.083089687 0.04663197 0.048951149
0.085067555 0.047259752 0.049364984
0.085348725 0.046941802 0.049368799
0.085548691 0.046585921 0.049476922
0.087174945 0.047006097 0.049626023
0.087997139 0.046988763 0.049748957
0.088716589 0.046917427 0.049813867
0.090797141 0.047560409 0.04981178
0.090390347 0.046900652 0.049884766
0.091115505 0.046835072 0.049992114
0.092575394 0.047144875 0.050060928
0.092645213 0.046747584 0.050346673
0.094207719 0.047103859 0.05069232
0.094592974 0.046870392 0.051066071
0.094469786 0.046391413 0.051143348
0.096624643 0.047029693 0.051498562
0.09700834 0.046802271 0.051906466
0.096483752 0.046144404 0.052574277
0.098519519 0.04671184 0.053285629
0.098798074 0.046443541 0.05342114
0.098219275 0.045780171 0.052954912
0.099211328 0.045853976 0.05308485
0.099754319 0.04572073 0.052083045
0.10048516 0.045675073 0.051055402
0.10620285 0.047878336 0.027041107
0.11862791 0.053045005 0.0064016283
0.063133627 0.050506905 0.0077953041
0.066328578 0.052315496 0.017986327
0.071364604 0.055505801 0.022474468
0.069576904 0.053374059 0.029707193
0.065158606 0.049309216 0.031626105
0.065744124 0.049088947 0.034941137
0.063986428 0.047147892 0.046156526
0.064629495 0.047003269 0.049392015
0.06461747 0.046392027 0.049879521
0.066097401 0.046853855 0.050389975
0.066656999 0.046659902 0.050980151
0.069744699 0.048218556 0.05126062
0.070000857 0.047805466 0.050831437
0.070001237 0.047229748 0.050436586
0.070918418 0.047278944 0.049938649
0.07201457 0.047444891 0.049416006
0.072876424 0.047454417 0.048996896
0.074444756 0.047918465 0.048811495
0.075105041 0.047794115 0.048658878
0.076018535 0.047831886 0.048614502
0.077683583 0.048336454 0.048454672
0.077163279 0.047485095 0.048556864
0.078918599 0.04803741 0.048475176
0.080305032 0.048355717 0.048584223
0.080109842 0.047725011 0.048700392
0.080765463 0.047609113 0.049029797
0.082580768 0.048172116 0.048966706
0.082981668 0.047906939 0.048906595
0.084509283 0.048291016 0.048958361
0.085341759 0.048274126 0.049178183
0.085470311 0.047863372 0.049331069
0.086701199 0.048071951 0.049413264
0.087656878 0.048125345 0.049543679
0.087198026 0.047408633 0.049682021
0.089135818 0.047996212 0.049755871
0.089397803 0.047678828 0.049764127
0.089934729 0.047512688 0.049832016
0.09103664 0.047645342 0.049986064
0.092179656 0.04779686 0.050044805
0.09207157 0.047302824 0.050349653
0.094542429 0.048130691 0.0506953
0.09393955 0.047392927 0.050882667
0.09518262 0.04759131 0.051047087
0.097071394 0.048106179 0.051401436
0.095758952 0.047039483 0.051895499
0.097910762 0.047678281 0.052341461
0.098520957 0.047561839 0.053286254
0.099447086 0.047598604 0.053286254
0.098618634 0.046802063 0.052943975
0.097871862 0.046057347 0.05268085
0.099552155 0.046457674 0.051555991
0.10230506 0.047347799 0.05038023
0.11125194 0.051066462 0.021594495
0.11930709 0.054318678 0.0060391128
0.062914647 0.051230498 0.0053302944
0.065106094 0.05226827 0.015776426
0.072657421 0.057520457 0.022541046
0.072485954 0.056598619 0.028784931
0.06577003 0.050660696 0.031638384
0.066556104 0.05058264 0.034941137
0.063782871 0.047837153 0.045047313
0.064149901 0.047487587 0.049399525
0.065385737 0.047781885 0.049797297
0.065417439 0.047199924 0.050543904
0.067453392 0.04806054 0.050982296
0.068684459 0.048333507 0.051259995
0.069609836 0.048387326 0.050723493
0.070589691 0.048477259 0.050528526
0.07176239 0.048695907 0.050068051
0.071190886 0.047739774 0.0494982
0.073614843 0.04879123 0.049222291
0.074227616 0.048631888 0.049060255
0.074931532 0.048535194 0.049028784
0.076868944 0.049230669 0.049164057
0.076396115 0.048384208 0.048821718
0.078042805 0.048883952 0.04868418
0.078716166 0.048769798 0.048666239
0.079944342 0.048998144 0.048602313
0.080158778 0.048606917 0.048984796
0.081226431 0.048735857 0.04920423
0.081599876 0.048449926 0.04906708
0.083322905 0.048962947 0.048932433
0.084429823 0.049107142 0.049016684
0.084006712 0.0483675 0.049313188
0.086028956 0.049036507 0.049472868
0.086404659 0.048763026 0.049543887
0.086289786 0.048220765 0.049581736
0.089134805 0.049327027 0.049584806
0.088717625 0.048624083 0.049779505
0.088759139 0.048183534 0.049931914
0.091510795 0.049208637 0.049868524
0.091436021 0.048708912 0.050092727
0.092464805 0.048800867 0.050362587
0.09321513 0.048745528 0.05056265
0.093994662 0.048706323 0.050693989
0.093521319 0.048024461 0.050714761
0.095830172 0.048770711 0.050985515
0.095689774 0.048268292 0.051482618
0.096606702 0.048303351 0.052093267
0.097911514 0.048530053 0.052565664
0.098958552 0.048626184 0.052886873
0.099167913 0.048312571 0.053067029
0.099104442 0.047872487 0.052512586
0.097346202 0.046628013 0.052231491
0.10012794 0.04756077 0.051167071
0.10210694 0.048099965 0.048941493
0.11648233 0.054422073 0.009893477
0.12086488 0.056010552 0.0050302446
0.062887661 0.052106921 0.0050351024
0.064485461 0.052678265 0.015776426
0.071680188 0.057742372 0.022146493
0.074101508 0.05887517 0.028079897
0.068088561 0.053366713 0.03058964
0.065994672 0.051035877 0.034914136
0.064203314 0.048997264 0.044996232
0.064549066 0.048621375 0.049352556
0.064845629 0.048218545 0.049712896
0.065730371 0.048257738 0.050540715
0.067597404 0.049008116 0.051043272
0.068740577 0.04922165 0.05126062
0.069704704 0.049303327 0.051022679
0.070377208 0.049179256 0.050610691
0.070460282 0.048651148 0.05015111
0.071974955 0.049112324 0.049735099
0.073748782 0.04973755 0.049328536
0.073748171 0.049165446 0.049113303
0.075185925 0.049554359 0.049259275
0.076028153 0.049546435 0.049328089
0.07756228 0.049984582 0.048966914
0.078221038 0.049855165 0.048815638
0.078465663 0.049467485 0.048844039
0.079825386 0.049783573 0.048774421
0.081450127 0.050256461 0.049136221
0.08129172 0.049630735 0.049273908
0.082552046 0.049875196 0.049230635
0.083998859 0.050226122 0.04908517
0.083582088 0.049466949 0.04908517
0.08446271 0.049483206 0.049331337
0.085763536 0.049742851 0.049329251
0.086479798 0.049661666 0.049504071
0.087134317 0.049546964 0.049662083
0.088151552 0.049638737 0.049704701
0.088693559 0.049463715 0.049818456
0.089368023 0.049365193 0.049972683
0.090160415 0.049333058 0.049933136
0.090926766 0.049287405 0.050021738
0.092111878 0.049467493 0.050354689
0.092865497 0.049414668 0.050614864
0.09330222 0.049195714 0.050714761
0.094264597 0.049255375 0.050836772
0.094121099 0.048741281 0.050987959
0.096342064 0.049449909 0.051482618
0.097004071 0.049352951 0.051848054
0.097793683 0.049322031 0.052404016
0.099024855 0.049512427 0.052838564
0.097448781 0.048307944 0.052877218
0.096814647 0.047586862 0.052372456
0.097842962 0.047688168 0.051810324
0.10030685 0.048481647 0.050838262
0.10366865 0.049692407 0.039068252
0.11860299 0.056385029 0.0065168738
0.065438926 0.054378826 0.017260402
0.071702793 0.058756456 0.022133082
0.074225754 0.059990678 0.027719468
0.072490692 0.057796635 0.029998928
0.066254601 0.052120283 0.034054011
0.065228999 0.050638299 0.045023233
0.064087264 0.049105827 0.049385279
0.064863741 0.049063601 0.04979679
0.065872684 0.049196057 0.050389349
0.066550903 0.049081292 0.050771147
0.069840625 0.050871566 0.050920546
0.070089452 0.050430216 0.050853312
0.070212752 0.049910266 0.050673485
0.071361274 0.050122801 0.050181389
0.07170824 0.049773958 0.049858183
0.073030092 0.05010204 0.049491912
0.074014552 0.050193779 0.049269527
0.07444635 0.049912892 0.049305201
0.07578519 0.050239623 0.049382389
0.077602588 0.050872806 0.04913196
0.078319766 0.05077875 0.048826367
0.078321315 0.050227802 0.048699409
0.08035586 0.050978448 0.048710018
0.080488466 0.050519358 0.048809916
0.081685275 0.050730854 0.049161673
0.08261729 0.050775211 0.049104363
0.082505211 0.050183583 0.048932433
0.083818346 0.050462067 0.048932433
0.084336609 0.050261214 0.049194187
0.084577642 0.049900811 0.049269587
0.086995669 0.050819252 0.049424022
0.087702021 0.050729603 0.049648851
0.087145247 0.049918152 0.049682468
0.089230098 0.050620921 0.049902827
0.089090466 0.050060358 0.04995057
0.090488076 0.050366003 0.049802274
0.092164643 0.050819755 0.049995095
0.092006221 0.05026266 0.050152183
0.092079155 0.049841009 0.050621867
0.094201557 0.050526291 0.050798237
0.094327793 0.050138194 0.050882667
0.095522396 0.050319836 0.051147431
0.096083656 0.050167575 0.051436484
0.096015304 0.049692132 0.051685959
0.097852498 0.050202586 0.051899344
0.097088024 0.049380977 0.052308977
0.09718328 0.049006954 0.052105039
0.09750133 0.048750665 0.051575452
0.098379292 0.048776288 0.05108574
0.099741749 0.049039692 0.049555868
0.11122036 0.054231416 0.01377371
0.11759806 0.056871191 0.0052001774
0.064813964 0.054772366 0.015218049
0.072555736 0.060463112 0.022073805
0.073294908 0.060242392 0.026786178
0.07383696 0.059867803 0.029785246
0.067434877 0.053947903 0.032369226
0.064223804 0.050703 0.044257224
0.063742064 0.049669143 0.049399525
0.0654618 0.05035523 0.049900591
0.065367326 0.049646068 0.050405413
0.066838562 0.050128922 0.051104218
0.069904692 0.051781252 0.051366389
0.06916032 0.050605111 0.051104218
0.071559474 0.051729739 0.050858498
0.07115075 0.050821964 0.050433755
0.071805857 0.05068649 0.050066829
0.073452272 0.051245771 0.049920559
0.074159384 0.051144402 0.049670041
0.075402491 0.051410791 0.049610764
0.076545611 0.051603783 0.049618214
0.076700978 0.051133987 0.049314976
0.077403449 0.05103524 0.049202889
0.079265609 0.051694963 0.049058855
0.079007007 0.050972264 0.048846483
0.080199704 0.0511913 0.049134433
0.081535816 0.051496305 0.049190253
0.081055932 0.050659958 0.049192876
0.083744116 0.051800486 0.049020946
0.08446563 0.051713649 0.049087405
0.083982423 0.050898436 0.049166232
0.085968085 0.05158085 0.049200088
0.086553007 0.05141763 0.049310297
0.085603602 0.050355058 0.049568385
0.08913663 0.051924251 0.04971388
0.088697791 0.051171802 0.050027221
0.089601278 0.051200729 0.049948514
0.091082118 0.051555913 0.049841702
0.09123797 0.051161479 0.050092727
0.092067055 0.051148366 0.050424635
0.093755506 0.051608536 0.050564587
0.094326109 0.051450606 0.050929874
0.094168507 0.050901897 0.05111149
0.094779797 0.050774891 0.051346987
0.095889509 0.050914783 0.051554769
0.096840568 0.050968722 0.051848054
0.097877979 0.051066775 0.051848322
0.095919013 0.049613282 0.052066237
0.097004116 0.049745701 0.051696956
0.098092817 0.049877703 0.051265717
0.098501973 0.049664862 0.050875604
0.10362063 0.051810313 0.045389682
0.11515078 0.057099562 0.0065327883
0.063448906 0.054512437 0.0091445148
0.070383973 0.059630863 0.021106035
0.073150933 0.06112612 0.025779575
0.074388951 0.061320625 0.028674334
0.06818594 0.055457897 0.03010416
0.064461075 0.051738493 0.042201102
0.065209277 0.051659297 0.04932645
0.064468406 0.050417598 0.049958318
0.066233754 0.051142517 0.050730824
0.066559069 0.050751291 0.051378936
0.068610296 0.051669482 0.051766604
0.069715373 0.051861439 0.051361829
0.070590414 0.0518797 0.051213264
0.070687041 0.051332254 0.050759107
0.072695397 0.052169636 0.05042544
0.072818391 0.051650256 0.049982429
0.073800378 0.051745094 0.049670041
0.075751685 0.052509688 0.049541622
0.075972646 0.052071139 0.049556375
0.076798096 0.052052043 0.049227595
0.077470176 0.051930558 0.049279541
0.07841409 0.051991951 0.049148262
0.079681322 0.052264091 0.04894498
0.081205845 0.052697409 0.048983425
0.081238315 0.052163549 0.049164116
0.082088448 0.052160371 0.049160928
0.083339967 0.052409671 0.048969179
0.083533414 0.051995289 0.049083143
0.083696485 0.051570561 0.04924041
0.085385785 0.052085329 0.049190253
0.085472398 0.051621944 0.049208701
0.087429225 0.052286103 0.049507022
0.088011809 0.052123498 0.04971388
0.088964522 0.052181114 0.049994439
0.089942604 0.052252367 0.049840301
0.090734236 0.052214988 0.049802274
0.092142709 0.052529957 0.050052315
0.092819162 0.052425638 0.050258726
0.092139937 0.051564552 0.050758243
0.093658306 0.051937785 0.050836772
0.09488342 0.052143142 0.051097184
0.094504006 0.051470932 0.051464289
0.096345842 0.052009702 0.051891595
0.096741945 0.051765427 0.052065223
0.096101917 0.0509758 0.051879883
0.095958941 0.050461166 0.051848322
0.096318893 0.050217543 0.051464289
0.097804509 0.050559957 0.051024139
0.10031395 0.051421434 0.049400121
0.1057645 0.053763624 0.020100355
0.11708569 0.05902667 0.0056985021
0.064375482 0.056215208 0.0053662658
0.065829732 0.056686714 0.017654538
0.072666958 0.061717141 0.022670686
0.073648825 0.061705772 0.027669251
0.068861648 0.056925628 0.028864145
0.065943107 0.053795695 0.037509441
0.065198556 0.05249754 0.047592342
0.065382294 0.051970541 0.049987406
0.065361306 0.051296216 0.050619334
0.066646144 0.051650763 0.051292986
0.06800738 0.052055031 0.051540911
0.06938079 0.052458648 0.051546216
0.070458636 0.052631754 0.051362723
0.071487978 0.052764934 0.051115662
0.072107837 0.052596305 0.050757706
0.072871327 0.052535143 0.050192893
0.074135512 0.052832205 0.049975634
0.074554168 0.052526798 0.049786955
0.076078467 0.052998483 0.049599081
0.077580512 0.053444356 0.049275309
0.078145504 0.053241991 0.049304128
0.078502223 0.052903675 0.049052507
0.079475313 0.052983541 0.049027026
0.080006383 0.052770168 0.049015373
0.08129628 0.053056519 0.049204737
0.082456395 0.053253088 0.049067974
0.082562029 0.052771606 0.048793733
0.084579244 0.053509321 0.048890769
0.084576495 0.052967098 0.049108595
0.085027635 0.052717134 0.049097657
0.087087974 0.053459946 0.049330831
0.088374756 0.053717989 0.04941389
0.087519594 0.052681696 0.049544632
0.08940924 0.053301662 0.049902827
0.089687839 0.052958533 0.049783409
0.090186097 0.052750356 0.04983297
0.092446223 0.05356697 0.049993098
0.092020415 0.052826535 0.050457031
0.09250582 0.052617989 0.050915986
0.093913935 0.052933306 0.051251799
0.094267026 0.052653652 0.05134213
0.095390394 0.052805398 0.051967353
0.097316347 0.053394809 0.052210838
0.095896296 0.052154124 0.052284867
0.096022598 0.051768705 0.052301437
0.094091423 0.050290242 0.051909775
0.096591674 0.051185329 0.05128628
0.099211998 0.052128337 0.050506651
0.1022788 0.053288113 0.03884095
0.11335217 0.058565289 0.0076473951
0.066084526 0.057823963 0.0090276003
0.067891635 0.058591411 0.021228522
0.073743574 0.062781692 0.025698632
0.069043815 0.057996809 0.027789086
0.066116631 0.054807205 0.032279491
0.064624317 0.052874442 0.046155065
0.065127119 0.052602671 0.049390554
0.065584578 0.052301623 0.050573796
0.066728115 0.05254839 0.051092833
0.067207657 0.052272622 0.051350057
0.070300043 0.054011006 0.05139482
0.070715852 0.05367589 0.051495135
0.071738355 0.053803768 0.051121742
0.071554981 0.053034868 0.050955176
0.073321544 0.053712294 0.050853342
0.073600218 0.053296708 0.050308734
0.074978881 0.053678062 0.049971104
0.076497152 0.054149669 0.049976528
0.076715566 0.053700898 0.049466878
0.077224351 0.053463012 0.049455971
0.078759521 0.053933151 0.049406081
0.079392359 0.053781923 0.048997879
0.080117621 0.05369585 0.049058259
0.081550561 0.054080896 0.04919976
0.08156459 0.053526763 0.048992395
0.083457358 0.054204263 0.04891026
0.084170766 0.054109778 0.04892239
0.083812132 0.053334992 0.048909217
0.085845977 0.054082964 0.04903996
0.08664465 0.05404567 0.049552053
0.086699121 0.053549457 0.049579889
0.088567726 0.054172494 0.049996167
0.08912646 0.053990066 0.050190389
0.08910241 0.053461447 0.050068021
0.090923414 0.054039385 0.050003797
0.091274858 0.053741269 0.05056271
0.091913126 0.053615987 0.051026076
0.092939265 0.053717189 0.051183134
0.093541116 0.053573549 0.05140686
0.094264828 0.053501658 0.051825017
0.095873162 0.053928655 0.05214566
0.095427662 0.053203031 0.052428007
0.097452015 0.053855062 0.052582353
0.096642859 0.052943479 0.052227944
0.094883114 0.051531348 0.051745147
0.097289085 0.052386429 0.051202595
0.098929085 0.052818071 0.047165096
0.10644219 0.056351747 0.017145097
0.11616088 0.060984462 0.0058471262
0.065883286 0.057760693 0.016814828
0.070996419 0.061402306 0.022199661
0.067823127 0.057875738 0.027363777
0.067864351 0.057148926 0.0290609
0.065899812 0.054773871 0.043720335
0.065532275 0.053770073 0.048216224
0.065802656 0.053308479 0.049987406
0.066990413 0.053592332 0.051117092
0.067079298 0.053000931 0.051288158
0.069727436 0.054421414 0.051520467
0.070669852 0.054492418 0.051661134
0.071254537 0.054289173 0.051362723
0.072491124 0.054581553 0.05133456
0.072871514 0.054229964 0.05110094
0.072904371 0.053630799 0.050719708
0.075433187 0.054860499 0.05035004
0.075888038 0.054571174 0.050195456
0.07677497 0.054595534 0.049781233
0.077132508 0.054247037 0.049537152
0.078502059 0.054610129 0.049472302
0.078950338 0.054331414 0.049215913
0.080796279 0.055010229 0.049266547
0.081350625 0.054804631 0.049443811
0.082770348 0.055180233 0.04907468
0.082974739 0.054746218 0.048913568
0.083295256 0.054396901 0.049111515
0.084627703 0.054708816 0.04903996
0.085005276 0.05440338 0.049511552
0.086595096 0.05487214 0.049918562
0.088040479 0.055241082 0.050122082
0.087921493 0.054630827 0.050462216
0.08896257 0.054746196 0.050535679
0.089604191 0.054615889 0.05050531
0.090223357 0.05447448 0.050739527
0.09006156 0.053868596 0.050980479
0.092594787 0.054870982 0.05121246
0.091630198 0.05380122 0.051560551
0.093155704 0.054199681 0.051976979
0.09484417 0.054684926 0.052124232
0.09498971 0.054279838 0.052538037
0.097972542 0.055488877 0.052859515
0.088460296 0.049661923 0.052989483
0.096150436 0.053509805 0.052303523
0.096787304 0.053399894 0.051633924
0.097792543 0.053493358 0.049476951
0.10123066 0.054904763 0.034092247
0.11225377 0.060371775 0.0074615479
0.066005349 0.058771886 0.0086553991
0.066714115 0.058600239 0.02024442
0.071286604 0.061781723 0.02388081
0.068794087 0.058837049 0.027742654
0.066843085 0.056425985 0.037625343
0.065416753 0.054513961 0.0468629
0.06631761 0.05456512 0.049711615
0.066015214 0.053637363 0.051099181
0.066908553 0.053692047 0.051359594
0.068562143 0.05434804 0.052152485
0.070786715 0.055435378 0.052296817
0.071727343 0.055503298 0.051670611
0.071495987 0.0546734 0.051554769
0.072332233 0.054669712 0.051330626
0.073670104 0.055040885 0.051004618
0.074698687 0.055175163 0.050452828
0.075412668 0.055076666 0.050344557
0.077560022 0.056015573 0.049941868
0.077449217 0.05532087 0.049763083
0.078244485 0.05528143 0.049650133
0.080092378 0.055978544 0.049503803
0.080414146 0.055605527 0.049498141
0.081177801 0.055542707 0.049814612
0.082380414 0.055778403 0.049644291
0.0823697 0.055196192 0.049152732
0.083888195 0.055640128 0.049277812
0.084680989 0.055598628 0.049445897
0.083803959 0.054472573 0.04963088
0.086684026 0.055786751 0.050143838
0.086424448 0.055074405 0.050210118
0.087605633 0.055285111 0.050596684
0.089012556 0.055632848 0.050770134
0.089576751 0.055452276 0.050844193
0.091158718 0.05589921 0.050915986
0.091677845 0.055692147 0.051069885
0.091974817 0.055355214 0.051475525
0.093156762 0.055552199 0.051724494
0.094412863 0.055789419 0.052232534
0.09348762 0.054745004 0.052482665
0.095267162 0.055288978 0.052814394
0.093525961 0.05379812 0.052923471
0.089985095 0.051307291 0.052538037
0.099421933 0.056195006 0.052034438
0.097885221 0.054849476 0.049954653
0.097956307 0.054420173 0.039332747
0.11040204 0.060814682 0.01065892
0.11652721 0.063649319 0.0055725873
0.066871777 0.059642397 0.013577372
0.071639895 0.06304311 0.021316439
0.070317149 0.061064895 0.025833756
0.067887507 0.058189292 0.02912423
0.067026831 0.056715015 0.043852508
0.066337638 0.055421315 0.049329996
0.067202829 0.055442337 0.050500631
0.066761076 0.054397915 0.051117092
0.068156436 0.054857615 0.051520467
0.06927222 0.055083938 0.052631795
0.071418017 0.05611416 0.051964968
0.072391048 0.05620952 0.051728964
0.073823042 0.056654893 0.051387161
0.073476076 0.055740472 0.051159799
0.07392408 0.05544306 0.050909936
0.076019563 0.056374054 0.050861776
0.07554464 0.055399403 0.050625205
0.077848949 0.056461874 0.050281733
0.0790243 0.056691345 0.049952805
0.079039946 0.056092866 0.049650133
0.07925944 0.055650242 0.04982698
0.081501387 0.056622017 0.050074995
0.080491237 0.055337727 0.050074995
0.083874613 0.057069324 0.049749017
0.083749317 0.056402598 0.050034761
0.083803073 0.055868715 0.050223261
0.085983813 0.056749318 0.05045566
0.087044224 0.056880381 0.050817281
0.087401599 0.056553978 0.050790697
0.087696187 0.056193676 0.051094592
0.089400887 0.05673518 0.051086575
0.089044996 0.055971138 0.050906628
0.090216294 0.056172412 0.051166773
0.090287685 0.055691469 0.051359236
0.09144748 0.05588457 0.051727742
0.092394836 0.055945497 0.052207083
0.093092799 0.055855677 0.052327067
0.093332767 0.055495158 0.052561402
0.093281701 0.054969572 0.052884907
0.093189627 0.054429337 0.052693158
0.10136069 0.058682501 0.052155197
0.097177252 0.055771291 0.050461531
0.096143939 0.054702587 0.044812351
0.10857105 0.061245203 0.014574021
0.11587046 0.064808905 0.0060969889
0.067560971 0.061170071 0.0062690079
0.068584248 0.061268598 0.018026561
0.074924648 0.06605199 0.022229999
0.073228993 0.063718729 0.027475983
0.067411035 0.057904352 0.037496209
0.066869237 0.056711882 0.047172099
0.06663049 0.055803038 0.049389035
0.067058265 0.055467945 0.050849348
0.068802714 0.056216855 0.05147478
0.068468638 0.055269867 0.053091079
0.070424952 0.056172285 0.052630544
0.072092846 0.05682613 0.052190036
0.072519243 0.056497552 0.051865429
0.07376837 0.056810126 0.051235259
0.075213633 0.057264924 0.051219642
0.074816063 0.056322206 0.051228344
0.075712219 0.056363542 0.051048994
0.077211209 0.056847814 0.050866038
0.077734306 0.056610856 0.05047363
0.079517007 0.057286445 0.05027324
0.080373526 0.057287514 0.050523311
0.080504239 0.056776676 0.050698102
0.08206334 0.057273373 0.050728053
0.08337459 0.057588637 0.05061838
0.083374217 0.057000741 0.050827146
0.084978901 0.057510976 0.050786376
0.085704297 0.057421882 0.051018775
0.085525081 0.056734458 0.05114764
0.087513752 0.057484522 0.051231354
0.088068776 0.057287458 0.051528811
0.088599995 0.057078846 0.051720917
0.08929877 0.05698112 0.051577896
0.089056753 0.056290589 0.051847309
0.089911677 0.056299835 0.052103132
0.092773162 0.057553723 0.052240223
0.091645725 0.056332696 0.052654982
0.09281332 0.05653175 0.05277431
0.092855521 0.056047928 0.053179651
0.092304267 0.055217732 0.052929968
0.094548434 0.056059692 0.05262503
0.095138684 0.055914842 0.050937831
0.097454078 0.056777593 0.047414958
0.10455649 0.06039039 0.020748645
0.11222921 0.064268015 0.0070318282
0.067873605 0.061538737 0.0089719892
0.072300546 0.064689957 0.018569201
0.076678544 0.067716114 0.022650361
0.070244655 0.06123893 0.028284997
0.067715056 0.05828638 0.042571127
0.067071155 0.057010483 0.048771501
0.067317307 0.056513295 0.049829781
0.068453446 0.056766268 0.051359594
0.068207026 0.055880457 0.052639216
0.069432713 0.056207433 0.052773833
0.07235831 0.057886649 0.052898228
0.073016003 0.057733584 0.052111864
0.073959686 0.057807568 0.052095294
0.074104413 0.057262503 0.051869601
0.075237401 0.057484757 0.051871836
0.076096646 0.057495244 0.051596344
0.076872066 0.057442863 0.051440269
0.077587448 0.057347242 0.0512321
0.078678995 0.057528727 0.050859034
0.079402857 0.057440367 0.051304251
0.080221944 0.057422027 0.051396072
0.081871405 0.057992246 0.051427633
0.08055073 0.05646855 0.051083773
0.083947919 0.058249578 0.051299214
0.083709858 0.057497676 0.051368624
0.083656438 0.056886375 0.051527172
0.086444959 0.058200564 0.051539689
0.086208522 0.057472348 0.051567674
0.086869396 0.057350669 0.051833451
0.088529982 0.057884987 0.052284092
0.089114383 0.057712171 0.052126467
0.089614965 0.057488848 0.052146524
0.0912311 0.057978641 0.052261919
0.091377579 0.057534032 0.052560419
0.091629267 0.057163209 0.05277431
0.092258319 0.057032414 0.052829683
0.09190499 0.056302156 0.053183705
0.092995048 0.056461278 0.052810371
0.095430285 0.057427071 0.05125016
0.094565645 0.056407575 0.048320502
0.10148742 0.060009953 0.024001271
0.11090057 0.065010682 0.0073863566
0.069608875 0.063197531 0.0092574656
0.074729979 0.066965826 0.018691689
0.076330438 0.067523085 0.023445457
0.069504552 0.060706507 0.028402328
0.06853684 0.059113022 0.044953108
0.068104163 0.058014661 0.049265593
0.06818942 0.057378903 0.050897479
0.069175877 0.057507653 0.051432639
0.069259822 0.056891996 0.052298605
0.070291311 0.057060007 0.05280149
0.072902441 0.058491491 0.052415639
0.074290641 0.058920164 0.052292645
0.073922902 0.057962276 0.052109331
0.075227819 0.05832269 0.052136302
0.076133549 0.058369055 0.052227616
0.076925106 0.058327828 0.052223057
0.078808881 0.059106659 0.051904202
0.078332737 0.058117837 0.05159992
0.079322815 0.058226325 0.051985234
0.081306934 0.059054513 0.052036345
0.081475712 0.058560666 0.051947892
0.082541741 0.058715258 0.051675469
0.083751842 0.058968134 0.051840037
0.083767481 0.058383394 0.051907629
0.084899023 0.058580324 0.051915407
0.085267693 0.058252186 0.052064925
0.085422993 0.057786144 0.052126467
0.08771161 0.058758263 0.052807599
0.088981815 0.059036013 0.052892148
0.089414805 0.0587583 0.052651137
0.090975605 0.059219971 0.052631199
0.090689473 0.058481999 0.052814394
0.090370528 0.057736728 0.052892148
0.090806134 0.057482783 0.053052396
0.091515861 0.057405401 0.052651882
0.09140297 0.056818064 0.052810371
0.094390631 0.058151372 0.050970376
0.093937486 0.057360061 0.048073649
0.099405386 0.060166419 0.023687392
0.11183279 0.067099676 0.0076435506
0.071069755 0.064608864 0.0078585744
0.077184893 0.069268495 0.015842795
0.073212363 0.064871714 0.020744503
0.07029593 0.061508939 0.028122663
0.068137191 0.058883995 0.046387851
0.068975314 0.058881368 0.049758255
0.069243595 0.058398213 0.051292121
0.068496257 0.057080213 0.051916778
0.070527427 0.058081411 0.052552223
0.071189485 0.057944931 0.052304596
0.072077714 0.057993561 0.052400202
0.075036883 0.059688434 0.052176118
0.075130887 0.05909171 0.052397996
0.076718144 0.059669666 0.052317977
0.077009045 0.05923773 0.052499294
0.078238286 0.059529133 0.052455217
0.079330996 0.059711501 0.05256179
0.080805525 0.060174327 0.053087711
0.080272332 0.059148032 0.053058207
0.081398986 0.05935343 0.053058207
0.081581213 0.058873042 0.052857459
0.082591094 0.058993638 0.052943021
0.084605895 0.059822351 0.053155184
0.084613614 0.05922953 0.052657932
0.08512415 0.058996934 0.052835107
0.087782636 0.060242988 0.052749008
0.087541491 0.059494216 0.053202122
0.088548951 0.059600256 0.053093821
0.090061516 0.06004101 0.053029031
0.089538537 0.059129223 0.052631199
0.088972382 0.05820623 0.052589357
0.08947482 0.057992939 0.052546024
0.089636423 0.057564676 0.05258137
0.091392674 0.058158975 0.051614612
0.09318953 0.058768172 0.050880879
0.093565419 0.058478385 0.046058595
0.10075343 0.062413625 0.020748645
0.10865302 0.066716768 0.0076435506
0.11164289 0.067956544 0.0051012039
0.074243158 0.066724867 0.010527074
0.073040217 0.064823195 0.019017667
0.070257798 0.061583996 0.026794136
0.069471568 0.060152214 0.04664588
0.069263048 0.059249114 0.049461871
0.070974343 0.05999022 0.051044494
0.070087709 0.058543846 0.052062243
0.070878521 0.058515988 0.051997751
0.072223537 0.058941048 0.05227071
0.073852763 0.059585754 0.052109331
0.074685991 0.059580959 0.052161098
0.076660804 0.060476858 0.052473634
0.076914907 0.060010534 0.052499294
0.078000464 0.060196009 0.052484274
0.079458497 0.060661864 0.052605867
0.079355702 0.059938882 0.053034008
0.080675021 0.060293961 0.053026021
0.081629708 0.060371969 0.053129375
0.082180917 0.060153041 0.053040087
0.083235808 0.060303491 0.053168118
0.083983079 0.060230289 0.053379238
0.085002154 0.060351528 0.052905321
0.086041294 0.060484476 0.052867115
0.086978771 0.060544048 0.052749008
0.086454816 0.059595071 0.052988231
0.087553054 0.059771795 0.052727282
0.087441392 0.059127036 0.052474707
0.088163078 0.059052628 0.052246869
0.088675343 0.058840647 0.052105427
0.089261405 0.058681108 0.052185148
0.090449832 0.058916867 0.050965309
0.09237498 0.059623849 0.050776333
0.094122916 0.060204748 0.038404465
0.10103826 0.06405104 0.020168543
0.10818855 0.067976885 0.0073614419
0.075882189 0.068293974 0.0074059665
0.075101629 0.066757008 0.016570717
0.070226647 0.061662421 0.025667369
0.070677608 0.061310697 0.04569456
0.070698209 0.060598467 0.04990536
0.071217731 0.060325608 0.051423997
0.071947172 0.060234841 0.051911741
0.071888819 0.059494194 0.052217603
0.072715215 0.059494264 0.052209347
0.074583627 0.060337316 0.05240348
0.07535328 0.060282625 0.052516669
0.076121084 0.06022767 0.052697957
0.078653872 0.061555203 0.05232206
0.078615598 0.060863689 0.052719682
0.079576068 0.060951881 0.053026021
0.081006102 0.061394095 0.052829087
0.080827199 0.060620397 0.052676082
0.082535423 0.061263409 0.052711159
0.082675189 0.060740951 0.052892834
0.08325316 0.06054775 0.052889943
0.083899818 0.06040787 0.052467018
0.085130163 0.060686849 0.052435189
0.084000103 0.05929419 0.052246869
0.08589147 0.060040638 0.052331299
0.086143263 0.059637643 0.052142978
0.086109124 0.059046254 0.051476687
0.08885739 0.060355961 0.051261306
0.088475578 0.059534967 0.051008821
0.090177067 0.060118042 0.050982058
0.091459922 0.060413897 0.048373789
0.094423302 0.061804343 0.03775388
0.1021007 0.066227481 0.010762393
0.10878737 0.069934733 0.0071592331
0.16883704 0.076454513 0.0064367652
0.075754285 0.068272382 0.0051487684
0.078807332 0.070157751 0.011313051
0.073962264 0.065051146 0.021315813
0.071045309 0.061741758 0.04212442
0.072424173 0.062199585 0.049512178
0.072490297 0.061532464 0.050542444
0.071968883 0.060387682 0.051560938
0.07405407 0.061431218 0.051640213
0.073500521 0.060286943 0.052075326
0.073757946 0.05982589 0.052329838
0.076152012 0.061088976 0.052458525
0.075832531 0.060171466 0.052329838
0.077320665 0.060692567 0.05247134
0.078413107 0.060895283 0.052943021
0.079053916 0.060746696 0.052807242
0.079904512 0.060760722 0.052892834
0.079651996 0.059944287 0.052807242
0.080004744 0.059595369 0.052902937
0.082427636 0.060779974 0.053212136
0.08311221 0.060671911 0.0524472
0.082883619 0.059905984 0.052222729
0.084204264 0.060263835 0.052031815
0.084864914 0.06014698 0.052144051
0.086676553 0.060840271 0.05165863
