ply
format ascii 1.0
comment PCL generated
element vertex 1329
property float x
property float y
property float z
element camera 0
property float view_px
property float view_py
property float view_pz
property float x_axisx
property float x_axisy
property float x_axisz
property float y_axisx
property float y_axisy
property float y_axisz
property float z_axisx
property float z_axisy
property float z_axisz
property float focal
property float scalex
property float scaley
property float centerx
property float centery
property int viewportx
property int viewporty
property float k1
property float k2
end_header
0.084401913 -0.13263157 0.044054806
0.083890006 -0.13049556 0.043683648
0.084474631 -0.13009094 0.043683648
0.086423643 -0.13177466 0.043460697
0.086795323 -0.13104393 0.039728373
0.094884872 -0.1418667 0.025240749
0.11644793 -0.1724325 0.008867532
0.073236912 -0.13664936 0.0063542426
0.07260108 -0.13383092 0.012732923
0.07616657 -0.13873196 0.030516893
0.071363784 -0.12845482 0.039507091
0.073997527 -0.13164677 0.044341534
0.073058181 -0.12848163 0.045464277
0.074478418 -0.12949088 0.045816034
0.076380692 -0.13130613 0.046176702
0.07687033 -0.13067956 0.046903998
0.076266758 -0.12822872 0.046007335
0.078236066 -0.13010998 0.04607895
0.07839641 -0.12897474 0.046075612
0.079951778 -0.13013427 0.045826554
0.081135288 -0.13067052 0.045819372
0.081809089 -0.13038324 0.04553166
0.08273942 -0.1305065 0.045491964
0.08349172 -0.13034932 0.045525491
0.082551964 -0.1275803 0.045525491
0.084236115 -0.12888126 0.045378864
0.085694015 -0.1298137 0.046239287
0.08483205 -0.12724808 0.046121329
0.08849629 -0.13145564 0.04488194
0.086925194 -0.12788033 0.042690516
0.091283344 -0.13301288 0.025962859
0.11099477 -0.16020943 0.0056781471
0.085900798 -0.16321151 0.0054157972
0.073201679 -0.13736612 0.014103115
0.074298441 -0.13772394 0.03053543
0.072249927 -0.13231312 0.03912127
0.071123637 -0.12869991 0.043367326
0.072141878 -0.12900665 0.044743657
0.073717415 -0.13029124 0.04579708
0.073423795 -0.12828065 0.045802236
0.075091034 -0.12970269 0.04588595
0.074808463 -0.12776278 0.04712826
0.075988546 -0.12833621 0.046887815
0.078407228 -0.13096592 0.046697438
0.078738257 -0.13008928 0.046964049
0.07827989 -0.12794133 0.046230882
0.080351256 -0.12992969 0.04630661
0.079934865 -0.12789579 0.046279997
0.081579611 -0.12916772 0.046488643
0.08284048 -0.12981188 0.046550602
0.083616078 -0.12969024 0.046177596
0.084615923 -0.12991536 0.046165824
0.085823633 -0.13045192 0.046052665
0.085660316 -0.12891454 0.046037614
0.087135136 -0.12984844 0.046037614
0.087846212 -0.12963714 0.045847982
0.08633282 -0.12617874 0.045764863
0.089534119 -0.1296113 0.043612808
0.090726927 -0.13009898 0.042518586
0.094085157 -0.13365369 0.018395543
0.12107897 -0.17040743 0.0071869791
0.11259463 -0.1570127 0.0051388443
0.084452622 -0.1614221 0.0067942142
0.074420244 -0.14046821 0.02142182
0.074130133 -0.1381932 0.035104692
0.070851736 -0.13047089 0.041382521
0.069454335 -0.12635668 0.044525802
0.07260938 -0.13052401 0.046528548
0.072357908 -0.12854169 0.047037005
0.072496474 -0.12729032 0.04691571
0.073769473 -0.12803666 0.046968937
0.074758157 -0.1282782 0.046876132
0.075493857 -0.12808508 0.047166884
0.077213772 -0.12954755 0.047238827
0.07791245 -0.12928329 0.046984702
0.078480713 -0.12881073 0.047238827
0.080396943 -0.13053697 0.047221065
0.080556922 -0.12940526 0.047002673
0.081600003 -0.12970105 0.047035664
0.0833278 -0.13106769 0.046975881
0.082497247 -0.12842356 0.047001481
0.083768182 -0.12907138 0.046829283
0.084017031 -0.12814718 0.046820164
0.085459121 -0.12904327 0.046266735
0.086191207 -0.12886013 0.046119303
0.085826419 -0.12705676 0.045906991
0.088399015 -0.12959467 0.046084553
0.087203339 -0.12661254 0.04616785
0.088392362 -0.12711664 0.045764863
0.089502722 -0.12749916 0.04427284
0.090002492 -0.12701286 0.043382138
0.091011629 -0.12724774 0.04190591
0.10494461 -0.14538197 0.0093774199
0.12356231 -0.16961735 0.0078441501
0.083066382 -0.15974304 0.011092395
0.077665515 -0.14746617 0.027367145
0.070822425 -0.13279204 0.035943419
0.068782195 -0.12737444 0.042397112
0.068686821 -0.12564662 0.044802964
0.070741296 -0.12784572 0.046511859
0.071337566 -0.12738851 0.048108369
0.071619168 -0.12638676 0.048560917
0.072882704 -0.127121 0.047807068
0.073529474 -0.12677495 0.047725588
0.075355738 -0.12844728 0.047354698
0.076737359 -0.12933263 0.047633618
0.077617913 -0.12936318 0.047494262
0.07895831 -0.13015106 0.047399729
0.081607349 -0.13305546 0.047494262
0.081427775 -0.13133512 0.047581762
0.082993828 -0.13243696 0.047385186
0.083762191 -0.13225609 0.047095567
0.083812974 -0.13095777 0.047196269
0.086306944 -0.13346434 0.047246665
0.08672934 -0.13274899 0.047221065
0.08599297 -0.13029239 0.047448099
0.08730565 -0.13095848 0.046584278
0.087449275 -0.12987517 0.046523094
0.086268544 -0.12686551 0.046555102
0.088258505 -0.1285318 0.046391487
0.088608272 -0.12780039 0.046414644
0.088583335 -0.12654762 0.046433479
0.090552934 -0.12814094 0.045943469
0.090470888 -0.12682834 0.045993149
0.091662377 -0.12730886 0.045697212
0.092592895 -0.12742141 0.04320845
0.098394029 -0.13417368 0.018499106
0.11563899 -0.15626891 0.009177953
0.12307559 -0.16483338 0.0061448812
0.10911857 -0.14484766 0.0051898658
0.085027121 -0.164533 0.013561785
0.074558146 -0.14242518 0.028893203
0.068564065 -0.12931703 0.036087185
0.068647742 -0.12785642 0.043440104
0.068861812 -0.12667173 0.04614529
0.070475183 -0.12805855 0.047377139
0.070267521 -0.12614289 0.048820823
0.070606269 -0.12524208 0.048936039
0.072025441 -0.12625636 0.048736632
0.073164999 -0.12676261 0.048437536
0.0741053 -0.12691596 0.047807068
0.076571509 -0.12964949 0.047339678
0.07802806 -0.13063125 0.047236413
0.07808423 -0.12927279 0.047198832
0.079361871 -0.12994416 0.046161413
0.080563121 -0.13047723 0.046161413
0.080836527 -0.12951228 0.046225727
0.082796022 -0.1312405 0.046084374
0.08288677 -0.13000135 0.046025425
0.0840232 -0.130411 0.046120912
0.085575588 -0.13145116 0.046744317
0.085176975 -0.12950376 0.0467062
0.08669059 -0.13047372 0.046843112
0.08790151 -0.13097325 0.046555102
0.087755866 -0.12946163 0.04653883
0.089146413 -0.13022368 0.046827376
0.089317054 -0.12920623 0.0469791
0.088412106 -0.12666734 0.046987057
0.091151357 -0.12934811 0.046890616
0.090576857 -0.1273203 0.046790808
0.089750826 -0.12498011 0.046748847
0.093112759 -0.12846112 0.046358496
0.093547307 -0.12787659 0.045064539
0.092347763 -0.12508924 0.042048752
0.095951043 -0.12879914 0.035456449
0.1128502 -0.15013108 0.010408819
0.12637882 -0.1666411 0.0064759254
0.084516384 -0.16458453 0.013598382
0.068995535 -0.13261479 0.031047016
0.069712192 -0.13227442 0.036087185
0.068094224 -0.12756892 0.043303013
0.067875728 -0.1255701 0.046273291
0.069072187 -0.12620597 0.047853917
0.069855094 -0.12607992 0.048404038
0.069409527 -0.12376639 0.048936039
0.071734697 -0.1263897 0.048860341
0.072985731 -0.12708104 0.048650771
0.074349426 -0.12795018 0.047807068
0.076475799 -0.13009676 0.047183037
0.076293498 -0.1283118 0.046453059
0.076794602 -0.12770338 0.046360821
0.079762213 -0.13116454 0.046360821
0.079906762 -0.12995826 0.045973331
0.079776287 -0.12833576 0.04594487
0.081654362 -0.12994458 0.045774996
0.081145905 -0.12776163 0.04553166
0.082069822 -0.12785615 0.045434535
0.084139653 -0.12971529 0.045559168
0.083236121 -0.12699944 0.045685679
0.085003376 -0.12837245 0.045627147
0.085756116 -0.12820107 0.045685381
0.08635743 -0.127809 0.045640081
0.088847972 -0.13019307 0.045889318
0.089630976 -0.13005279 0.046087384
0.089323133 -0.1283478 0.046368241
0.091148652 -0.12971154 0.046848655
0.090857968 -0.12806647 0.046731561
0.091223001 -0.12736797 0.046838015
0.092505738 -0.12795186 0.046840996
0.092552632 -0.12683138 0.047193795
0.09167891 -0.12448145 0.046358496
0.093447462 -0.12572931 0.044786453
0.093350381 -0.12446717 0.043165684
0.095006309 -0.12554406 0.035871565
0.11895735 -0.15580255 0.010500968
0.11634518 -0.15104462 0.0063761175
0.079838902 -0.15648425 0.01529935
0.067219071 -0.13001584 0.029330075
0.069514476 -0.13270946 0.03556481
0.068097338 -0.12833729 0.041860253
0.066841811 -0.12437654 0.046376735
0.06748645 -0.12400636 0.048512787
0.068762697 -0.12479156 0.049707949
0.069442362 -0.12448814 0.049485147
0.070937403 -0.12563612 0.049480647
0.072912596 -0.12759705 0.049284786
0.074049786 -0.12806258 0.048763484
0.075708486 -0.1294087 0.047464162
0.076205745 -0.12876144 0.046940118
0.076998398 -0.12862232 0.046101362
0.077578679 -0.12813558 0.046176314
0.078680612 -0.12851167 0.045936972
0.078577645 -0.12693313 0.045443654
0.080294766 -0.12829708 0.045294046
0.080794446 -0.12770735 0.044571131
0.082220204 -0.12857841 0.044322342
0.082184143 -0.12716915 0.044012934
0.084118091 -0.12880583 0.044182152
0.083675005 -0.12680645 0.044183403
0.085587494 -0.12838124 0.044384301
0.085443981 -0.12687136 0.044106036
0.086385675 -0.12698694 0.044452101
0.089131735 -0.12972638 0.045168787
0.087782107 -0.1265095 0.045498461
0.090541631 -0.12921961 0.046639681
0.090340868 -0.12769334 0.046533287
0.09237431 -0.12932403 0.046357393
0.09290985 -0.12884668 0.046861291
0.091882728 -0.12623142 0.046838015
0.092446916 -0.12583053 0.04729113
0.093378052 -0.12593187 0.046978742
0.093727618 -0.12525418 0.046503842
0.093272343 -0.12352283 0.045811594
0.095221013 -0.12497758 0.043970525
0.092583492 -0.12044048 0.036126554
0.11463257 -0.14781567 0.0084516108
0.12540253 -0.16029714 0.0056133568
0.065559126 -0.13111825 0.0054147243
0.076519348 -0.15097061 0.015242517
0.072514191 -0.14116096 0.029651791
0.069665089 -0.13383031 0.035132349
0.067677803 -0.12832414 0.040032953
0.066136815 -0.12379455 0.046646893
0.066886485 -0.12361299 0.048452586
0.068415783 -0.1248588 0.049441636
0.068288483 -0.12308789 0.049979836
0.069858447 -0.12438212 0.049684882
0.071392313 -0.12558165 0.04917562
0.073290929 -0.12738661 0.048675805
0.073627748 -0.12646648 0.047681034
0.075093538 -0.12748438 0.047096938
0.075393021 -0.12652162 0.046453059
0.07722684 -0.12812634 0.046034455
0.076486252 -0.12547183 0.045761049
0.077452175 -0.12564464 0.045409173
0.079284288 -0.12720336 0.044358701
0.080342345 -0.1274998 0.044231802
0.080815524 -0.12687169 0.044147849
0.082355261 -0.12791349 0.043890357
0.082805716 -0.12725931 0.043846339
0.084371664 -0.12831524 0.043976158
0.084742971 -0.12755127 0.043984115
0.084249556 -0.12551464 0.043971509
0.086288735 -0.12725408 0.043850869
0.087645285 -0.12796211 0.04387489
0.087148324 -0.12597679 0.04399994
0.088277198 -0.12635756 0.044211537
0.089333937 -0.12662868 0.045201451
0.090750404 -0.12739961 0.045806825
0.092542246 -0.12867779 0.046077013
0.09258882 -0.127528 0.046246916
0.094293147 -0.12866168 0.046057314
0.094773516 -0.12811975 0.046838015
0.093295671 -0.12496484 0.046992123
0.097760908 -0.12975539 0.04715836
0.095746651 -0.12593704 0.047312409
0.094129197 -0.12270413 0.046688497
0.096549951 -0.12474596 0.044940501
0.098141141 -0.12568954 0.035972446
0.11436614 -0.14519526 0.0078697205
0.12955469 -0.1630602 0.0054245591
0.069520153 -0.13808797 0.015047461
0.073471881 -0.14396517 0.029302239
0.071752302 -0.13872112 0.034587085
0.069239348 -0.13210139 0.039504796
0.066347525 -0.12494013 0.044600397
0.066415794 -0.12346525 0.048720509
0.067443423 -0.12378856 0.049057424
0.067655064 -0.1226248 0.049909532
0.069215097 -0.12390357 0.04997164
0.069662705 -0.12318406 0.049651742
0.072264932 -0.12624596 0.048909307
0.073713027 -0.12724273 0.048060864
0.073794074 -0.12588401 0.047309279
0.074249044 -0.12518734 0.046651006
0.075859316 -0.1264322 0.046054423
0.075713955 -0.12475596 0.045520216
0.076628834 -0.12484473 0.045409173
0.078835919 -0.12701343 0.044943064
0.079498656 -0.12667368 0.044230103
0.080548443 -0.12695135 0.044076562
0.081382036 -0.12688597 0.043971509
0.082068384 -0.12659484 0.043860435
0.083056264 -0.12677009 0.043793797
0.083373144 -0.12592818 0.043820262
0.083762117 -0.12521142 0.04391408
0.086711459 -0.12829757 0.043719828
0.086009711 -0.12597382 0.043749452
0.087398261 -0.12672748 0.043793589
0.08905077 -0.12784517 0.044101804
0.089706905 -0.12752452 0.043945342
0.088654876 -0.12480541 0.045165032
0.090719759 -0.12648427 0.045707792
0.091755554 -0.12671004 0.045513868
0.092400163 -0.12639645 0.046172798
0.094555371 -0.12813579 0.046407253
0.09399008 -0.12619038 0.046802849
0.095133528 -0.12655377 0.047347575
0.088381566 -0.11650298 0.047396034
0.093335867 -0.12192523 0.047880948
0.096746348 -0.12525196 0.047445148
0.097248241 -0.12478756 0.046992123
0.095552862 -0.12153653 0.04461965
0.1011405 -0.12752499 0.03544879
0.12838377 -0.16047972 0.0077784657
0.064861037 -0.12972207 0.012578249
0.073417656 -0.14482388 0.028517306
0.073158637 -0.14236276 0.033428997
0.069612987 -0.13365693 0.037650138
0.06696891 -0.12688845 0.041950077
0.064742811 -0.12107747 0.046619058
0.066929951 -0.12356298 0.048742205
0.066755123 -0.12168023 0.049128532
0.067898884 -0.12221799 0.049929917
0.068449035 -0.12168717 0.049929917
0.070069186 -0.12304832 0.049196959
0.071327761 -0.12374937 0.048198193
0.073493995 -0.12598971 0.04765892
0.073439397 -0.12441497 0.047018081
0.074719884 -0.12511237 0.046272308
0.075868577 -0.12557557 0.046053469
0.076489687 -0.12516494 0.045470685
0.078065075 -0.12630753 0.045475453
0.078674369 -0.12587899 0.044596583
0.079754815 -0.12620541 0.044247478
0.080362201 -0.12578431 0.044170797
0.081488311 -0.12617545 0.044090986
0.081494056 -0.12484195 0.043947816
0.08289142 -0.12564594 0.043880939
0.083763666 -0.1256455 0.043932498
0.084808223 -0.12590086 0.044215828
0.086379021 -0.12692428 0.044025332
0.085650384 -0.12458238 0.044281423
0.088217355 -0.127033 0.043745458
0.088407367 -0.12604615 0.04469043
0.08783593 -0.12400367 0.044739246
0.089861929 -0.12563221 0.045148402
0.091337368 -0.12646712 0.045426309
0.091357842 -0.12529075 0.045479506
0.092731915 -0.12597543 0.045668691
0.092934623 -0.1250709 0.046020001
0.093507417 -0.12467656 0.046356171
0.096749105 -0.12781534 0.047211677
0.098538026 -0.12899524 0.047085822
0.093015857 -0.12066922 0.047946423
0.095819034 -0.1231959 0.047757298
0.095406003 -0.12157933 0.047898263
0.096644826 -0.12207767 0.046064675
0.098327644 -0.12312331 0.044123143
0.099397294 -0.12338974 0.015944332
0.12666526 -0.15589571 0.0060769022
0.064734571 -0.1303809 0.0067099929
0.069175564 -0.13739036 0.022205621
0.072616115 -0.142248 0.032360733
0.073907018 -0.14282031 0.034403622
0.06773223 -0.12914278 0.038722306
0.065180935 -0.12264308 0.044293463
0.065330543 -0.12132815 0.047165632
0.065629482 -0.12032072 0.048816919
0.066977456 -0.12123767 0.048919261
0.06828177 -0.12205366 0.04947722
0.069779746 -0.1231914 0.049380273
0.072565489 -0.12654713 0.048511237
0.071287654 -0.1228209 0.047835976
0.072832003 -0.12398781 0.047405005
0.073624693 -0.12386271 0.046578467
0.074619144 -0.12407602 0.046167612
0.075319447 -0.12380093 0.045787722
0.076264694 -0.12393013 0.045350522
0.076877318 -0.12352199 0.044884294
0.078003339 -0.12393863 0.04449302
0.079533316 -0.12498093 0.044194132
0.07964506 -0.12379612 0.043838263
0.080624573 -0.12397112 0.043860435
0.082986124 -0.12624484 0.043570161
0.083387457 -0.12552007 0.043775618
0.084938265 -0.12652263 0.043640643
0.085643187 -0.12625748 0.043944031
0.085645966 -0.12497319 0.04364574
0.087962091 -0.12705636 0.044071406
0.087693982 -0.12540239 0.043727785
0.088469535 -0.12525885 0.043922156
0.090301111 -0.12659861 0.044712842
0.090296835 -0.12536356 0.045005918
0.091550253 -0.1258816 0.045172632
0.09216103 -0.12551454 0.045164883
0.09279681 -0.12518814 0.045426309
0.092834532 -0.12406859 0.045604348
0.095090628 -0.12590703 0.045745641
0.094538666 -0.12402779 0.046310425
0.095970191 -0.12476125 0.046605319
0.097385466 -0.12546055 0.04729113
0.094947621 -0.12122776 0.047519624
0.097815439 -0.12378414 0.047564209
0.095719449 -0.12006913 0.04685244
0.097009204 -0.12062883 0.045164376
0.096808739 -0.11934181 0.043771178
0.11154077 -0.13632761 0.010085791
0.11225497 -0.1360378 0.0053783953
0.063800812 -0.12760162 0.010773361
0.070603102 -0.139245 0.028481603
0.074552752 -0.14502043 0.033139348
0.070072465 -0.13446338 0.036408544
0.064942017 -0.12295689 0.040202767
0.065329254 -0.12206255 0.045125842
0.065610014 -0.1209951 0.047645271
0.066518947 -0.12109859 0.048815995
0.066984221 -0.12040202 0.048816919
0.067792334 -0.12033139 0.049139768
0.0718114 -0.12589158 0.048696071
0.070773154 -0.12255839 0.047810346
0.070242286 -0.12017354 0.047359228
0.072961599 -0.12333985 0.046610534
0.073111318 -0.1221389 0.046225369
0.073363796 -0.12113558 0.045520216
0.075538859 -0.12329331 0.045502901
0.076130584 -0.12284707 0.045259863
0.076242961 -0.12164608 0.044660747
0.079185955 -0.12493784 0.044507444
0.079741701 -0.12443211 0.044203758
0.07990291 -0.12332841 0.044090986
0.081774987 -0.12486073 0.043812186
0.08211837 -0.12405115 0.043789029
0.083117813 -0.12423926 0.043914825
0.084014364 -0.12427124 0.043944031
0.083828524 -0.12271804 0.043936163
0.086697526 -0.12562294 0.043913394
0.086544581 -0.12413465 0.044432849
0.086451754 -0.12276149 0.044546157
0.089226916 -0.12544775 0.044429243
0.088661432 -0.12343062 0.044679821
0.089964136 -0.12402823 0.044654518
0.091554351 -0.1250069 0.04484269
0.091497593 -0.1237396 0.044814676
0.093000807 -0.12458599 0.044974715
0.093566149 -0.12417191 0.045222193
0.093477339 -0.12290539 0.045299858
0.093900628 -0.12232926 0.046020001
0.097047739 -0.12527981 0.046028465
0.096540734 -0.12350256 0.046961635
0.097868398 -0.12408315 0.047445208
0.096324638 -0.12104512 0.04763791
0.097019516 -0.12084887 0.04786858
0.097482249 -0.12036938 0.046169519
0.098974146 -0.12115801 0.045459867
0.097030632 -0.11776367 0.041975915
0.128989 -0.15522406 0.0079860985
0.063873827 -0.12866013 0.0056154728
0.063357897 -0.12582342 0.015415817
0.073520534 -0.14397772 0.029057264
0.071412787 -0.13793428 0.03408277
0.067171827 -0.12798956 0.037583083
0.064726472 -0.12168577 0.041963577
0.063665695 -0.11811662 0.046263665
0.065249547 -0.11948294 0.047608793
0.066520989 -0.12024949 0.048279583
0.067651175 -0.1207445 0.048052102
0.06958174 -0.12263782 0.048648387
0.07054159 -0.12279462 0.048229516
0.070585519 -0.12137266 0.047233462
0.071648739 -0.12171653 0.047085553
0.072609201 -0.12187973 0.046236604
0.072277047 -0.11989486 0.046082735
0.074859098 -0.12273411 0.045453906
0.075612172 -0.12254386 0.045449555
0.076041706 -0.12183955 0.045129389
0.078333452 -0.12410131 0.044574678
0.078206897 -0.12252413 0.044420451
0.078436844 -0.12153401 0.04415971
0.081307307 -0.12461229 0.043947816
0.08109194 -0.12294585 0.043813109
0.08201319 -0.12301978 0.043778121
0.083192237 -0.1234748 0.043852627
0.083685994 -0.1229138 0.043755382
0.086259581 -0.12538764 0.043899387
0.085985467 -0.12371379 0.043913394
0.085438028 -0.12168446 0.0445095
0.087816186 -0.12382082 0.044581681
0.0892075 -0.12453721 0.04458788
0.089489833 -0.12370653 0.04479301
0.090014622 -0.1232239 0.044865072
0.090550408 -0.12276545 0.044844598
0.090676531 -0.12176563 0.04484269
0.093228847 -0.12401196 0.045048535
0.093422472 -0.12310812 0.045284897
0.093523316 -0.12209988 0.045328528
0.09445139 -0.12218023 0.045979351
0.095568545 -0.1225015 0.04611209
0.096835203 -0.12300688 0.046802849
0.09752655 -0.12277896 0.047452807
0.095914148 -0.11968049 0.047660202
0.097034276 -0.12001608 0.047753394
0.097542718 -0.11959586 0.047487676
0.099048629 -0.12039532 0.047145903
0.098248735 -0.11840232 0.045393854
0.10299589 -0.12307136 0.013549447
0.11428624 -0.13541478 0.0055473447
0.063016459 -0.12603292 0.0088541806
0.065153368 -0.12847143 0.022205621
0.071704008 -0.13942446 0.031485438
0.064284533 -0.12328541 0.034296542
0.065400667 -0.12373099 0.038229078
0.06401708 -0.11949856 0.044258863
0.064957738 -0.11965898 0.04647246
0.06561815 -0.11930572 0.047608793
0.066477343 -0.11931831 0.048229516
0.067634672 -0.11985891 0.048279583
0.071219511 -0.12463415 0.048593551
0.069862373 -0.12074978 0.04808709
0.071662791 -0.1223511 0.047308058
0.071573913 -0.12072708 0.04694733
0.072815947 -0.12135991 0.046249151
0.073401436 -0.12089648 0.045720398
0.075180389 -0.12238667 0.045470685
0.075196721 -0.12100621 0.045549363
0.076914512 -0.12236399 0.045417786
0.077096269 -0.12127502 0.044754267
0.077959731 -0.12127069 0.04452315
0.079390444 -0.12213914 0.044182152
0.079892382 -0.12157536 0.043800026
0.081303909 -0.12239298 0.043910861
0.082530938 -0.12291841 0.043545187
0.082636543 -0.12178017 0.043673545
0.084457457 -0.12316713 0.043596208
0.083386645 -0.12035186 0.043704152
0.084065184 -0.12009312 0.043740839
0.086949259 -0.12295855 0.044376433
0.08719258 -0.12206962 0.0445095
0.088682741 -0.12292658 0.044551194
0.089199945 -0.1224313 0.044712573
0.090224303 -0.12263498 0.044865072
0.090302452 -0.12156099 0.044811845
0.092839584 -0.12378611 0.044842988
0.092922226 -0.12272747 0.045042694
0.093455814 -0.12227864 0.045305848
0.095045932 -0.1232077 0.045542151
0.094322778 -0.12114853 0.045859128
0.095589824 -0.12165978 0.045893133
0.097262651 -0.12267362 0.046412647
0.096506089 -0.12063261 0.047145903
0.098874375 -0.12249923 0.04752937
0.097887032 -0.12021215 0.047647268
0.096947499 -0.11802304 0.047751129
0.0990104 -0.11949531 0.047213703
0.099014908 -0.11847938 0.045645028
0.098710209 -0.11711381 0.042812586
0.11933997 -0.14039996 0.0092541873
0.11730675 -0.13685788 0.0050055981
0.064012267 -0.12711008 0.0090021491
0.070582598 -0.13818283 0.027694076
0.068021104 -0.13131852 0.03241381
0.065171957 -0.12409455 0.034660459
0.064178944 -0.12055235 0.039390087
0.064271763 -0.119117 0.044645727
0.065901414 -0.12053022 0.046397626
0.064759277 -0.11690311 0.047477186
0.066900514 -0.11922015 0.048033744
0.067581035 -0.11890841 0.048187196
0.069851257 -0.12136656 0.048408717
0.070649773 -0.1212385 0.047667205
0.070846327 -0.12009317 0.047108471
0.071450472 -0.11965802 0.046678156
0.073641255 -0.12185874 0.046132624
0.073886149 -0.12082558 0.045674384
0.074295759 -0.12008268 0.045372516
0.076100469 -0.1215858 0.045703769
0.076764047 -0.1212523 0.045462191
0.07688196 -0.12007408 0.044832289
0.079882108 -0.12337348 0.044700086
0.079629384 -0.1216317 0.044182152
0.079533048 -0.12016406 0.043800026
0.08227817 -0.1229749 0.044331938
0.08191511 -0.12112979 0.043601662
0.082622238 -0.12088938 0.043957472
0.084283032 -0.1220348 0.043564051
0.084533885 -0.12113619 0.043533683
0.086126417 -0.1221589 0.043491274
0.086347885 -0.12123592 0.044080764
0.087850541 -0.12211225 0.043899387
0.088911742 -0.12236368 0.044401795
0.089190587 -0.12154403 0.044609129
0.08857657 -0.11953537 0.044707537
0.091432497 -0.12220305 0.044829428
0.091445252 -0.1210561 0.044852585
0.092371725 -0.12112896 0.044966102
0.094475657 -0.12273005 0.045443147
0.09431272 -0.12138396 0.04557091
0.093744472 -0.1195457 0.04569754
0.096774414 -0.12228767 0.045897961
0.096719451 -0.12111715 0.046336055
0.097742207 -0.12130506 0.046889424
0.099579722 -0.12249187 0.047218263
0.099097893 -0.12082988 0.047392249
0.098206542 -0.11870182 0.047753394
0.098766737 -0.11834979 0.047557473
0.099201828 -0.11785516 0.046805322
0.10108016 -0.119069 0.04519856
0.1069802 -0.12496007 0.030716449
0.1188022 -0.13761254 0.0073610246
0.061965607 -0.12393121 0.0054903924
0.067224041 -0.1325274 0.01435411
0.068753555 -0.13363366 0.02824831
0.071209736 -0.13648532 0.032788455
0.066047274 -0.12485649 0.034685254
0.064862065 -0.12095899 0.039993495
0.06389273 -0.11756262 0.045811176
0.065053158 -0.11812284 0.046558529
0.065526269 -0.11743669 0.047704339
0.066947088 -0.11844485 0.04802689
0.067692399 -0.11824749 0.048060924
0.07108099 -0.12261471 0.048225254
0.070166789 -0.11954341 0.047537208
0.070904948 -0.11932784 0.046750456
0.07236734 -0.12032159 0.046476781
0.072775647 -0.11956 0.045869857
0.073473714 -0.11928673 0.045615524
0.074910454 -0.12020515 0.045532793
0.076077223 -0.12067422 0.045559555
0.076098233 -0.11933586 0.045483708
0.078650527 -0.1219525 0.044865787
0.077843465 -0.11935998 0.044830173
0.07904198 -0.11986586 0.043800026
0.081385002 -0.12207749 0.043834656
0.081485495 -0.12091396 0.044125408
0.081933178 -0.12028487 0.043623298
0.083451748 -0.12122465 0.043920606
0.084024899 -0.1207858 0.043601662
0.085771427 -0.12202533 0.043504417
0.085902721 -0.12096506 0.043564051
0.086589105 -0.12069996 0.043896139
0.087023914 -0.120093 0.043686926
0.087229215 -0.11918448 0.043852478
0.088342234 -0.11952184 0.044618338
0.089287765 -0.11962827 0.044648737
0.090114847 -0.11957547 0.044611096
0.091856658 -0.12072589 0.044847995
0.093340047 -0.12151817 0.045188367
0.093502767 -0.12059236 0.045485914
0.094951712 -0.12132718 0.045579284
0.096428841 -0.12208422 0.045856297
0.096159697 -0.12063671 0.045418292
0.095959343 -0.11930081 0.046190739
0.098351903 -0.1211836 0.046155661
0.097658634 -0.11926453 0.046661526
0.099053741 -0.11990716 0.047010124
0.098731741 -0.1184781 0.047647268
0.097775064 -0.11631861 0.047302097
0.098815195 -0.11655126 0.046629637
0.10061038 -0.11766298 0.045138657
0.099671043 -0.1155849 0.042057455
0.11974595 -0.13770784 0.0087589324
0.11744024 -0.13394012 0.0058216453
0.063145518 -0.12537588 0.007374078
0.069224514 -0.13548227 0.016719341
0.070728198 -0.13647553 0.028022319
0.071770638 -0.13656357 0.03335622
0.066671908 -0.12512399 0.034513444
0.064539999 -0.11948621 0.040719241
0.064212523 -0.11729488 0.045499384
0.064079598 -0.11551191 0.046408802
0.065840766 -0.11714526 0.047260761
0.066225879 -0.11631981 0.047731131
0.068309255 -0.11846035 0.048000723
0.069603331 -0.11919571 0.048173159
0.071270019 -0.12054311 0.047232777
0.071773387 -0.11991407 0.04630217
0.072204851 -0.1191815 0.045805454
0.072411053 -0.11809897 0.045338243
0.07380037 -0.11894882 0.045170695
0.075121365 -0.11967008 0.045170695
0.075281814 -0.11854723 0.045250446
0.07730788 -0.12035431 0.045000017
0.078044243 -0.12013552 0.044726461
0.078975126 -0.1202177 0.044590116
0.080343753 -0.12095708 0.043771833
0.080908194 -0.12048285 0.043780327
0.080734536 -0.11893152 0.044125408
0.082450427 -0.12016711 0.043646127
0.082416736 -0.11885361 0.043842524
0.084397621 -0.12044244 0.043705761
0.083932735 -0.11854418 0.043646127
0.084723584 -0.11844011 0.043634772
0.086693235 -0.11996943 0.043749064
0.088130735 -0.1207391 0.043764412
0.087729938 -0.11900002 0.043932199
0.089892037 -0.12073734 0.044306368
0.090289392 -0.12009366 0.044324458
0.091424331 -0.12043397 0.044349313
0.091291323 -0.11911345 0.044541031
0.093274832 -0.12055332 0.044920951
0.092767671 -0.1187773 0.044623733
0.094718076 -0.12015164 0.044821054
0.093695916 -0.11776459 0.045491725
0.096538804 -0.12023469 0.04507336
0.096169583 -0.11869579 0.045397162
0.095663667 -0.11701716 0.04586032
0.099202506 -0.12027206 0.046438545
0.098527253 -0.11840556 0.046857446
0.10011678 -0.11926956 0.04740724
0.098985016 -0.11690472 0.047392249
0.10015492 -0.11727542 0.047201216
0.098613761 -0.11449225 0.04698959
0.10168851 -0.11706997 0.044116199
0.1079787 -0.12327568 0.011548758
0.11706906 -0.13254927 0.0062879026
0.066408359 -0.13089183 0.0086684227
0.069966629 -0.13593517 0.02261427
0.069813222 -0.13372673 0.028223783
0.072352797 -0.1366664 0.033324748
0.068839625 -0.12824915 0.034357846
0.063815624 -0.11728276 0.040303707
0.064877912 -0.11764529 0.045073301
0.064921409 -0.11617514 0.045974314
0.065661632 -0.11597379 0.046819359
0.066525862 -0.11599381 0.047116965
0.069984406 -0.12047949 0.047476143
0.069008335 -0.11731417 0.047774196
0.070263036 -0.1179725 0.046607912
0.071650632 -0.1188352 0.046144933
0.071819887 -0.11768078 0.045629472
0.074134223 -0.12002683 0.045135409
0.074028268 -0.11844523 0.044804752
0.074363805 -0.11759857 0.044793665
0.076630004 -0.11978944 0.044806659
0.076482639 -0.11820044 0.044772029
0.077741191 -0.11879553 0.044525295
0.07885129 -0.11915305 0.044423997
0.078975543 -0.11802939 0.043757588
0.079605319 -0.11767743 0.044068009
0.082074523 -0.12002296 0.044198185
0.082674406 -0.11961403 0.043705761
0.082455851 -0.11804207 0.043924749
0.084565192 -0.11980069 0.043705761
0.083910897 -0.11764827 0.043577611
0.085566282 -0.11874504 0.043634772
0.085946694 -0.11806819 0.043808699
0.086196244 -0.1172269 0.043684244
0.088986792 -0.1198238 0.043962836
0.088026695 -0.11736892 0.044145137
0.089324802 -0.11794344 0.044328332
0.091240168 -0.11931406 0.044515729
0.091690056 -0.11876046 0.044746161
0.092484817 -0.11865976 0.044627994
0.093762755 -0.1191751 0.044562966
0.093449347 -0.11767696 0.044675469
0.093608387 -0.11679579 0.044963509
0.095588341 -0.11818195 0.044594198
0.095991939 -0.11761174 0.044967711
0.097406 -0.11827872 0.045342445
0.097523645 -0.11737359 0.04604575
0.098690152 -0.11773562 0.04651171
0.1000581 -0.11832958 0.047350645
0.10001701 -0.11726132 0.047492117
0.098492913 -0.11448748 0.047161907
0.10025958 -0.11555342 0.047038406
0.098481871 -0.11255071 0.045042008
0.1032542 -0.11702143 0.037374169
0.12139779 -0.1364471 0.0074360967
0.066226847 -0.12957427 0.014803112
0.069427803 -0.13389647 0.022011787
0.06824106 -0.12975413 0.027596653
0.072981484 -0.13684028 0.033037633
0.066706911 -0.1233621 0.034097046
0.064010404 -0.11677574 0.040254116
0.064077348 -0.11533922 0.044780761
0.064659812 -0.11485624 0.045884222
0.066056661 -0.11581363 0.046658128
0.066584863 -0.11524304 0.047009736
0.069732569 -0.11916326 0.04729566
0.069250882 -0.11686086 0.047351927
0.07055112 -0.1175852 0.04640314
0.070210628 -0.11559067 0.04598847
0.071994014 -0.1170987 0.045295358
0.07293915 -0.11722363 0.044785202
0.074043676 -0.11759879 0.044742256
0.07475362 -0.1173458 0.044806659
0.07533332 -0.11689653 0.044599652
0.076957874 -0.11806038 0.044426352
0.078185655 -0.11859622 0.044118971
0.079608344 -0.11941251 0.044230103
0.079049699 -0.11727153 0.043705076
0.080526963 -0.11816456 0.0437226
0.080832496 -0.11733749 0.044114798
0.082832947 -0.11896221 0.04349035
0.08313705 -0.11814212 0.043542862
0.083734214 -0.11775124 0.043290049
0.083619751 -0.116378 0.042961627
0.087031528 -0.11989037 0.043564945
0.085935481 -0.11718474 0.043632478
0.087055013 -0.11752427 0.043510586
0.088510491 -0.1183061 0.04399851
0.088784181 -0.11750848 0.044218212
0.090794832 -0.11900294 0.044492751
0.090457186 -0.11742038 0.044329584
0.091273949 -0.11735222 0.044710308
0.093666427 -0.11929214 0.044643492
0.093437627 -0.11788859 0.044762284
0.094075039 -0.1175938 0.044762284
0.095326684 -0.11806516 0.044998139
0.095871985 -0.11766107 0.044579268
0.096608296 -0.11749658 0.044748217
0.097341835 -0.11733168 0.044980407
0.097380936 -0.11634006 0.04604575
0.099993214 -0.11841302 0.04651171
0.10065584 -0.1181612 0.047537446
0.099546105 -0.11585107 0.04784441
0.10005984 -0.11545365 0.047783136
0.099477544 -0.11380906 0.046975464
0.099726714 -0.11313535 0.046403885
0.10329428 -0.11620606 0.043428689
0.11677819 -0.13028972 0.0086156726
0.11930995 -0.1320233 0.0056150556
0.066493116 -0.12913157 0.014929593
0.069518812 -0.13307886 0.020586699
0.071401127 -0.13475706 0.027640939
0.071846597 -0.13371451 0.032367349
0.066610835 -0.12227195 0.034021676
0.064291507 -0.11641975 0.04026252
0.063525185 -0.11349834 0.044807762
0.064455256 -0.11364479 0.045911223
0.066047445 -0.11493971 0.046738952
0.066347905 -0.1139823 0.047108829
0.069622844 -0.11809444 0.0475187
0.069996707 -0.11724448 0.047360241
0.070381559 -0.11643369 0.046542615
0.071646981 -0.11708165 0.045868188
0.072250038 -0.11664464 0.04541105
0.072782926 -0.11610609 0.044618309
0.074705966 -0.11777175 0.044743747
0.07524839 -0.11724748 0.044763893
0.074747197 -0.11512787 0.044521332
0.077591546 -0.11815076 0.044504702
0.076471955 -0.11513755 0.044200391
0.079144657 -0.1178376 0.044230103
0.079492673 -0.11705514 0.043734998
0.079903737 -0.11638153 0.043441236
0.081209347 -0.11701132 0.043842733
0.08295314 -0.11825235 0.0433155
0.082824096 -0.11682557 0.043234259
0.083595537 -0.11668544 0.042769551
0.084762402 -0.11709445 0.042769551
0.085640371 -0.1171001 0.042977661
0.087077826 -0.11786292 0.042942822
0.08777003 -0.11761184 0.043142289
0.087299667 -0.11582332 0.043371528
0.088836864 -0.11670725 0.04380396
0.090196222 -0.11734267 0.0441342
0.090570584 -0.11669672 0.043804377
0.092529617 -0.11808541 0.043999761
0.092040107 -0.11635259 0.044038594
0.092097506 -0.11533707 0.044405878
0.094149075 -0.1168146 0.044162989
0.094694853 -0.11641386 0.044349134
0.094647959 -0.11529843 0.044233173
0.096302465 -0.11625703 0.04440248
0.096565105 -0.11553325 0.044806153
0.097987793 -0.11619792 0.0458211
0.10014297 -0.11771192 0.046521366
0.099367052 -0.11578421 0.047503322
0.10140675 -0.11714228 0.047870219
0.09933681 -0.11377037 0.047681212
0.10003389 -0.11359781 0.047067016
0.10193579 -0.11478484 0.046969622
0.10277319 -0.11476339 0.04401356
0.10968665 -0.12147117 0.011477411
0.11856601 -0.13022824 0.0068320036
0.063813165 -0.12300219 0.014845729
0.070023455 -0.13304457 0.019907683
0.070832901 -0.13268699 0.026978761
0.071817845 -0.13266352 0.031471461
0.066497229 -0.12115248 0.033239692
0.06391944 -0.11488224 0.039589465
0.063892283 -0.11330231 0.04392001
0.065279827 -0.1142397 0.045879245
0.065723233 -0.11352194 0.046384871
0.066201352 -0.11288179 0.046919644
0.06992729 -0.11772569 0.047315121
0.069325216 -0.11525317 0.047362983
0.07025864 -0.11536295 0.046311468
0.07156577 -0.11607619 0.045870453
0.071341477 -0.11431827 0.045135915
0.073701426 -0.11669392 0.04444775
0.074523211 -0.1166069 0.044466823
0.074803412 -0.11568435 0.044586033
0.076454952 -0.11687941 0.044426352
0.077096075 -0.1165202 0.044401586
0.077648945 -0.11603718 0.044006139
0.079917498 -0.1181003 0.043903023
0.079349987 -0.11597306 0.043808699
0.080649711 -0.11659143 0.043441236
0.081710048 -0.11685415 0.043727607
0.082120657 -0.11619199 0.043261588
0.082356445 -0.11529902 0.04330796
0.083978131 -0.11634471 0.042893499
0.084167741 -0.11540525 0.042796999
0.086138189 -0.11690183 0.043000937
0.086180307 -0.11577758 0.042977333
0.08715234 -0.11591261 0.04309696
0.087578289 -0.11532587 0.043131799
0.08830706 -0.11514547 0.04318431
0.089786373 -0.11593775 0.043692112
0.089881271 -0.11494432 0.043660671
0.090668552 -0.11484683 0.04382503
0.093386322 -0.1171734 0.043831289
0.093565866 -0.11630149 0.043987006
0.093819477 -0.11553695 0.044152498
0.094825223 -0.11570417 0.044395655
0.096590094 -0.1167862 0.044118047
0.095143035 -0.11400022 0.044349581
0.098090939 -0.11648299 0.044475824
0.099041246 -0.11657067 0.045379877
0.097663224 -0.11394043 0.04605931
0.10035206 -0.11605933 0.047118485
0.1012798 -0.11612253 0.047352374
0.099728562 -0.11336666 0.047416389
0.10127731 -0.11415155 0.047124177
0.1010647 -0.11295467 0.046698481
0.10157379 -0.11257761 0.044263572
0.10748155 -0.11814088 0.029722512
0.11934181 -0.13010214 0.0068660378
0.11918309 -0.12887278 0.0050502717
0.06376636 -0.12198782 0.014574707
0.070561059 -0.133058 0.018674105
0.069278382 -0.12879924 0.026317477
0.071004823 -0.13017552 0.030472428
0.066579588 -0.12039049 0.032351762
0.063659146 -0.11355415 0.039467126
0.06463208 -0.11375246 0.04392001
0.064288661 -0.11165925 0.045757473
0.06583903 -0.11286691 0.04626143
0.066204548 -0.11203846 0.046795249
0.069623165 -0.11633238 0.047315121
0.069996469 -0.11549417 0.047415763
0.071608551 -0.11669542 0.046570033
0.071641773 -0.11532579 0.045827925
0.071398437 -0.11354932 0.045113236
0.073427282 -0.11538573 0.044606566
0.07287582 -0.11317186 0.044351816
0.074707694 -0.11466763 0.04439196
0.075427979 -0.11444245 0.044086426
0.076686569 -0.11502986 0.044270277
0.077152118 -0.11442786 0.044008344
0.07824064 -0.11475294 0.043897092
0.079803295 -0.11575863 0.04376626
0.080793232 -0.11592072 0.04369095
0.080949634 -0.11489625 0.043762684
0.083198018 -0.11683126 0.043406814
0.083125345 -0.11550047 0.043349415
0.083105296 -0.11426979 0.04290545
0.085664392 -0.11657423 0.042874724
0.087395094 -0.11771584 0.043009549
0.085086927 -0.11344923 0.042942822
0.088271372 -0.11651821 0.043004751
0.088142313 -0.11519589 0.043083966
0.087864488 -0.11370698 0.0429205
0.08995147 -0.11527761 0.043503582
0.091137767 -0.11567486 0.043302774
0.09022563 -0.11342651 0.043615848
0.092519559 -0.11521304 0.043079585
0.092715658 -0.11437819 0.043572903
0.093911089 -0.11478022 0.043738067
0.095186859 -0.11527216 0.04401648
0.096267045 -0.11552045 0.043934733
0.096745335 -0.11504851 0.044118047
0.097954854 -0.11544679 0.044394404
0.097848773 -0.11430122 0.044949591
0.098528914 -0.11408611 0.046086699
0.098883078 -0.11350057 0.047004908
0.10058171 -0.11445505 0.047345996
0.10058822 -0.11348415 0.047870219
0.099940412 -0.11179775 0.047266185
0.10046387 -0.11143891 0.047044843
0.10252861 -0.11278147 0.044454455
0.10268045 -0.11201504 0.037171692
0.11936031 -0.12914394 0.0067124069
0.12032136 -0.12912536 0.0054031312
0.063978076 -0.12146562 0.014497638
0.068641372 -0.12845743 0.018183708
0.070670962 -0.13039291 0.023005158
0.067475192 -0.12276736 0.028905541
0.065948054 -0.11834514 0.030605823
0.064199254 -0.11365003 0.038483441
0.06420549 -0.1121456 0.0430893
0.065850861 -0.11350609 0.045714945
0.065792605 -0.11193288 0.046213955
0.066890791 -0.11234222 0.046663582
0.067883924 -0.11256701 0.047302336
0.069874391 -0.11441931 0.047453076
0.069548227 -0.11247923 0.046866685
0.071669668 -0.11449666 0.045933217
0.071914576 -0.11350372 0.045345992
0.072418526 -0.11293842 0.044711173
0.074210361 -0.11437126 0.044618309
0.075547315 -0.11507788 0.044742256
0.075548179 -0.11375646 0.04439345
0.076818511 -0.11435483 0.04428789
0.077817895 -0.11454095 0.04422763
0.078364842 -0.11406439 0.04391101
0.079506584 -0.11445454 0.04376626
0.080546826 -0.11469167 0.043403387
0.081239544 -0.1144342 0.043711841
0.082467407 -0.11492798 0.043221921
0.083113201 -0.11460873 0.043482035
0.084237427 -0.11494899 0.042838424
0.085792676 -0.11586434 0.042765796
0.085870206 -0.11478569 0.042919427
0.086011812 -0.11381361 0.042866647
0.087398209 -0.11449166 0.04267329
0.087837629 -0.11392801 0.042838991
0.089092426 -0.11442263 0.042555183
0.089658916 -0.11403221 0.043022633
0.090632886 -0.11416258 0.042929888
0.09215863 -0.11497886 0.043214142
0.09203583 -0.11374239 0.042911261
0.092559703 -0.11332076 0.043059915
0.093797386 -0.11377276 0.04315725
0.094646432 -0.11374938 0.043367624
0.095513597 -0.11374801 0.043546349
0.096743375 -0.11417461 0.043798238
0.095537603 -0.11174487 0.04399544
0.097729787 -0.11329737 0.044370651
0.098023526 -0.11264107 0.045413613
0.09826795 -0.11194001 0.046585739
0.10111018 -0.11418478 0.047236323
0.099695556 -0.11162493 0.047783136
0.10063787 -0.11172509 0.047253191
0.10012012 -0.11021626 0.046944588
0.1010666 -0.11033104 0.04548952
0.10191067 -0.11033303 0.043082327
0.12185337 -0.13084255 0.0071622729
0.11811174 -0.1257938 0.0055536926
0.064473011 -0.12147088 0.013895005
0.070306875 -0.13056991 0.018208444
0.070345819 -0.12880221 0.022481412
0.066848099 -0.12069795 0.027734518
0.06670928 -0.11879734 0.028000116
0.065341748 -0.11478956 0.037338465
0.064168714 -0.11122576 0.042877495
0.064467043 -0.11027258 0.045841187
0.064962454 -0.10967687 0.046198338
0.06646058 -0.11076763 0.046574235
0.067873009 -0.11168975 0.046864778
0.069915295 -0.11361235 0.047362983
0.070510782 -0.11316546 0.046531141
0.071395837 -0.11318852 0.046039671
0.071385548 -0.11180869 0.045215756
0.073689565 -0.11404337 0.044501245
0.07369411 -0.11270864 0.044343442
0.074549802 -0.11269156 0.044408172
0.075906046 -0.11342283 0.043982714
0.077093482 -0.1138881 0.044256628
0.077118024 -0.1126443 0.043967515
0.07908491 -0.11423376 0.04391101
0.078833915 -0.11261988 0.043890655
0.080652177 -0.11396503 0.043619215
0.081998713 -0.11462186 0.043765455
0.082204357 -0.11368687 0.043472975
0.082792282 -0.11329471 0.043496162
0.084263735 -0.11410714 0.042876005
0.084685251 -0.1134957 0.042748958
0.086310834 -0.11449397 0.042851895
0.086547889 -0.11364874 0.042787343
0.087916516 -0.11429147 0.04256317
0.08749716 -0.11262011 0.042657524
0.088890269 -0.11329152 0.042475462
0.088741586 -0.11200394 0.042947024
0.090948582 -0.11368573 0.042944223
0.090692431 -0.11228586 0.042979062
0.09170375 -0.11246686 0.042584628
0.093413167 -0.11349263 0.042865932
0.09396264 -0.11310318 0.04299888
0.095358267 -0.11373004 0.043184072
0.096130379 -0.11360863 0.043201864
0.095893197 -0.11230734 0.043564647
0.097507179 -0.11317798 0.043775558
0.099204406 -0.11412896 0.044173151
0.098039828 -0.11179981 0.045103312
0.10008888 -0.11314395 0.04665643
0.09995874 -0.11202273 0.047414571
0.10122432 -0.11247146 0.048045158
0.1007621 -0.11100909 0.047503203
0.10021061 -0.10947378 0.047448844
0.10183607 -0.11032242 0.046336621
0.10249961 -0.11012354 0.043567568
0.11572959 -0.12331842 0.0073464513
0.11842938 -0.12516926 0.0057143271
0.061193127 -0.11608697 0.0053164661
0.067669377 -0.1265123 0.01429534
0.069562957 -0.1281946 0.018183708
0.069008127 -0.12538096 0.022411734
0.070558958 -0.12641814 0.02754882
0.065721378 -0.11613778 0.027760714
0.066086307 -0.11520451 0.033048183
0.064474039 -0.11089535 0.042640895
0.065029532 -0.11037907 0.045761883
0.064396814 -0.10788558 0.045757473
0.066909775 -0.11065847 0.046500623
0.067820147 -0.11074429 0.047262192
0.070254952 -0.11328611 0.047257096
0.069619939 -0.1108762 0.046986669
0.070829414 -0.11142676 0.046046972
0.071901441 -0.11175042 0.045328528
0.073781125 -0.11330673 0.044756442
0.073404819 -0.11140261 0.044405997
0.075068772 -0.11260317 0.044308305
0.075813048 -0.11241245 0.043892354
0.076707706 -0.11244652 0.043820441
0.078906953 -0.11437076 0.043968409
0.07883735 -0.1130002 0.043579251
0.078334622 -0.11104579 0.043387085
0.080019891 -0.11220181 0.043214679
0.08115498 -0.11256981 0.043441236
0.082305953 -0.11295179 0.042766273
0.083825655 -0.11382642 0.043068379
0.083349407 -0.11200077 0.042806923
0.084874056 -0.11287375 0.042593896
0.086025305 -0.1132374 0.042777658
0.086471178 -0.11267457 0.042713016
0.087868214 -0.11335 0.042528391
0.088562571 -0.11311457 0.042538941
0.089494549 -0.11318428 0.042682707
0.089535221 -0.11213634 0.042862266
0.090832114 -0.11266676 0.042814702
0.090507723 -0.11119521 0.042910218
0.092372574 -0.11241569 0.042628735
0.092572436 -0.11160602 0.042858869
0.094102696 -0.11240044 0.043148428
0.096308552 -0.11397984 0.043332279
0.095855668 -0.11241256 0.043338358
0.095902532 -0.11145429 0.043798238
0.098172843 -0.11307408 0.044000119
0.097489953 -0.11129384 0.044295728
0.098238677 -0.11116482 0.045508385
0.099360675 -0.11145676 0.046784401
0.10006119 -0.11127494 0.047426373
0.10205766 -0.11252511 0.048059344
0.10117614 -0.11060781 0.047423899
0.099940166 -0.1083385 0.047507972
0.10337348 -0.1111265 0.046523362
0.10322675 -0.11005166 0.043831587
0.11806201 -0.12483606 0.008384198
0.11863452 -0.12442157 0.0059018731
0.062307138 -0.11728402 0.006816864
0.068559043 -0.12718199 0.01471284
0.068579577 -0.12540266 0.018542945
0.070514068 -0.12712397 0.022075146
0.071486101 -0.1270864 0.026957124
0.068806484 -0.12064698 0.027579457
0.067460068 -0.11668769 0.032343477
0.065042928 -0.1110066 0.041348487
0.065569989 -0.11043367 0.045841187
0.065997899 -0.10971079 0.045770168
0.065889783 -0.10812682 0.046698987
0.067563623 -0.10947017 0.047081679
0.070851736 -0.11336277 0.046659172
0.069447078 -0.10974353 0.04728812
0.071310632 -0.11131416 0.045722783
0.070586309 -0.10885599 0.045161158
0.072314061 -0.11019286 0.044354498
0.073189162 -0.11021427 0.044421822
0.075016476 -0.11165243 0.044225842
0.074974559 -0.1103074 0.043786585
0.076843731 -0.1117727 0.043946028
0.077672608 -0.11170892 0.043738872
0.078924134 -0.11224766 0.043646783
0.080045693 -0.11259174 0.043502837
0.080926046 -0.11259276 0.04320544
0.081044465 -0.11154507 0.043139547
0.082352646 -0.11213978 0.042765945
0.082363091 -0.11097343 0.042948484
0.08492732 -0.11323643 0.042708635
0.084792785 -0.11189152 0.042566448
0.084984139 -0.1109997 0.04279843
0.086732037 -0.11213839 0.042786658
0.087356575 -0.11181642 0.042508751
0.08782991 -0.11130919 0.042536527
0.090146095 -0.11312451 0.042475462
0.089002624 -0.1106052 0.042493463
0.091423385 -0.11252109 0.042671978
0.091939576 -0.11207872 0.042814553
0.092846014 -0.11211594 0.042511433
0.092537999 -0.11069966 0.042764723
0.094516024 -0.11201899 0.043011457
0.094668619 -0.11117049 0.043184072
0.095687725 -0.11134572 0.043098241
0.097908333 -0.1129033 0.043481767
0.097732075 -0.11169381 0.043887973
0.097888023 -0.11088201 0.044177324
0.098522216 -0.11062144 0.045736134
0.099989474 -0.11129264 0.046401203
0.10001035 -0.11035625 0.047533393
0.10039234 -0.10983094 0.048293322
0.099564314 -0.10800196 0.047974378
0.099764198 -0.10730939 0.047884852
0.10112631 -0.10786807 0.046696216
0.10261342 -0.10854974 0.044293642
0.11811921 -0.12392835 0.0088872313
0.11869893 -0.12352409 0.005877465
0.062094983 -0.11597151 0.006759733
0.066445217 -0.12229773 0.014012545
0.069066577 -0.1253065 0.017878592
0.070599824 -0.1262842 0.020912319
0.071805388 -0.12665673 0.025340468
0.072039932 -0.12532973 0.026957124
0.067880325 -0.11649732 0.028730661
0.065607637 -0.1110956 0.039244294
0.065603077 -0.1096262 0.043976367
0.065886892 -0.10867059 0.045386732
0.066247106 -0.10786388 0.046307594
0.067079984 -0.10783745 0.046887636
0.068772852 -0.10917691 0.046369225
0.070248932 -0.11014339 0.047214568
0.07156679 -0.11084124 0.046085685
0.071813993 -0.10988406 0.045152754
0.072938621 -0.11027625 0.044730216
0.073399343 -0.10966726 0.044212371
0.073534548 -0.10859171 0.043727964
0.075661026 -0.11044771 0.043784142
0.077148639 -0.11133952 0.043759197
0.07710506 -0.11002631 0.043428898
0.078502543 -0.11077581 0.043340206
0.079413332 -0.1108296 0.043455452
0.080714896 -0.11142165 0.042955875
0.081192762 -0.11087614 0.042948484
0.082519032 -0.11148848 0.042613059
0.082999371 -0.11095706 0.042668909
0.083983652 -0.11110338 0.042593896
0.084632248 -0.11080717 0.042466193
0.085877895 -0.11129075 0.042766005
0.086941086 -0.11153048 0.042644203
0.086317249 -0.10962291 0.042283058
0.088141896 -0.11083189 0.042253464
0.08863356 -0.11035747 0.042224169
0.089677185 -0.11057284 0.042354524
0.090807579 -0.11089002 0.042286158
0.090948343 -0.11000419 0.042567611
0.092371739 -0.1106718 0.042505592
0.093465254 -0.1109354 0.042628735
0.094655484 -0.11130784 0.042863965
0.095467865 -0.1112332 0.043069243
0.096221685 -0.11109231 0.043003201
0.096136741 -0.10999429 0.043489724
0.097908273 -0.11102099 0.044017166
0.098221079 -0.11039006 0.044466317
0.09847834 -0.10970832 0.045736134
0.1007437 -0.11125608 0.046378195
0.10094974 -0.11052256 0.047426373
0.099549331 -0.10805782 0.04834491
0.099767685 -0.10737708 0.048034698
0.10070414 -0.10747417 0.047986537
0.10205316 -0.10800626 0.046879083
0.10470917 -0.10990136 0.044600159
0.11621833 -0.12098137 0.0089495182
0.1196331 -0.12352361 0.0061479211
0.062714033 -0.11620542 0.0070307553
0.066401534 -0.12125497 0.012606889
0.070117198 -0.12621094 0.016928941
0.068445861 -0.12146731 0.0201644
0.072137266 -0.12624022 0.024135351
0.071848936 -0.12401323 0.025948018
0.069464006 -0.11827655 0.027760714
0.066216536 -0.11124378 0.035631388
0.065649197 -0.10883946 0.043984652
0.065861121 -0.10777275 0.045475066
0.065974109 -0.10657356 0.046087563
0.067770012 -0.10808887 0.046632499
0.069298528 -0.10914518 0.046241045
0.070568055 -0.10977253 0.047483176
0.070921727 -0.1089773 0.046317548
0.072101779 -0.10945571 0.046130627
0.073117033 -0.10967555 0.045100212
0.072160669 -0.10696758 0.04492119
0.075668082 -0.11086255 0.044586897
0.07642892 -0.11069016 0.043983251
0.077361107 -0.11076704 0.043786585
0.078003705 -0.11043221 0.043659717
0.078588389 -0.11002374 0.043388397
0.078859337 -0.10918985 0.043451518
0.080727838 -0.11056203 0.042942077
0.081205614 -0.11002051 0.042780787
0.081833169 -0.10969127 0.042571515
0.083641358 -0.11093485 0.042671025
0.084035926 -0.11029715 0.042446047
0.085056245 -0.11048543 0.042560279
0.085158542 -0.10948955 0.042435706
0.085205294 -0.1084431 0.042356521
0.08764489 -0.11043257 0.042205662
0.087956846 -0.10972834 0.042242914
0.088936277 -0.10986245 0.042293638
0.090691313 -0.11094277 0.042397052
0.090587258 -0.10974995 0.042448342
0.090762034 -0.10891444 0.042660564
0.093609288 -0.11127142 0.042584628
0.093399368 -0.1099843 0.042895496
0.094010226 -0.1096786 0.043130726
0.095086955 -0.10991703 0.04321593
0.095964074 -0.10992249 0.043386996
0.096349046 -0.10936919 0.043846577
0.097633339 -0.10983751 0.044300586
