ply
format ascii 1.0
comment PCL generated
element vertex 1291
property float x
property float y
property float z
element camera 0
property float view_px
property float view_py
property float view_pz
property float x_axisx
property float x_axisy
property float x_axisz
property float y_axisx
property float y_axisy
property float y_axisz
property float z_axisx
property float z_axisy
property float z_axisz
property float focal
property float scalex
property float scaley
property float centerx
property float centery
property int viewportx
property int viewporty
property float k1
property float k2
end_header
-0.059355207 0.034550045 0.036192954
-0.058959786 0.034839872 0.02993387
-0.06083807 0.036502842 0.026016295
-0.062594995 0.038143825 0.021573544
-0.062314063 0.038575374 0.021573544
-0.060364805 0.037971411 0.020087361
-0.05800521 0.037085298 0.018271357
-0.054351036 0.035328172 0.016143292
-0.052943457 0.034996524 0.010976434
-0.052857544 0.035542142 0.0058299303
-0.056097161 0.038382269 0.0050738454
-0.095831379 0.034847774 0.037226081
-0.095024794 0.034871481 0.042254001
-0.092693448 0.034330908 0.044264734
-0.093208775 0.034844402 0.044787973
-0.092294872 0.034828253 0.044827282
-0.092135139 0.0350991 0.044450343
-0.092516571 0.035583295 0.044621378
-0.091501415 0.035534531 0.044120908
-0.090115331 0.035339344 0.04305461
-0.089570351 0.035473406 0.042339683
-0.087729387 0.035091754 0.042263567
-0.08697015 0.035139456 0.042188019
-0.086709581 0.035391666 0.042154282
-0.085121922 0.035101824 0.042075932
-0.084961139 0.035400473 0.042041332
-0.083718039 0.035249699 0.041616738
-0.081933953 0.034865513 0.041692495
-0.0825423 0.035502065 0.041688502
-0.081445731 0.035411187 0.041789562
-0.080708846 0.035476416 0.041745901
-0.079569049 0.035364021 0.041915804
-0.078980096 0.035496674 0.041645348
-0.077762038 0.035346381 0.041864991
-0.076932289 0.035371169 0.041867971
-0.076734923 0.035690662 0.041998655
-0.074745595 0.0351744 0.04232356
-0.07482212 0.035629578 0.042384326
-0.073023558 0.035192076 0.042320788
-0.072168514 0.035204154 0.042659223
-0.071545258 0.035330992 0.042771101
-0.070065916 0.035032958 0.042994201
-0.069458447 0.035168834 0.043149054
-0.067996606 0.034870055 0.043178618
-0.06766174 0.035148952 0.043733746
-0.066669725 0.035089329 0.043977767
-0.066447638 0.035438742 0.044115931
-0.065185212 0.035235249 0.044292927
-0.064847425 0.035532836 0.044946551
-0.062315784 0.034619879 0.045531839
-0.06152609 0.034662586 0.046034366
-0.060144097 0.034368057 0.045663655
-0.058975402 0.034188639 0.044651836
-0.058420688 0.03436511 0.042822689
-0.058276072 0.034791686 0.039930075
-0.059131 0.035836969 0.034487337
-0.057409223 0.035328753 0.029825419
-0.062531777 0.039082363 0.025130421
-0.062545568 0.039711472 0.024009645
-0.061205208 0.039487232 0.020089269
-0.059319966 0.038898338 0.0182724
-0.054119751 0.036079835 0.016221642
-0.053871825 0.036523271 0.010559857
-0.052139245 0.0359581 0.0059080124
-0.055031266 0.038618434 0.0051438212
-0.10633536 0.039277025 0.013648301
-0.096638739 0.036019895 0.041113943
-0.094270743 0.035459638 0.042809814
-0.09420523 0.035763096 0.044422328
-0.092956312 0.035618775 0.044852734
-0.091762558 0.035493065 0.044835985
-0.094390534 0.036857255 0.044761062
-0.092245705 0.036366098 0.044628948
-0.090934612 0.036197271 0.044151038
-0.090476476 0.036367994 0.043088824
-0.088638946 0.035982147 0.042303324
-0.088954762 0.036471453 0.042412341
-0.087729655 0.036332484 0.042178005
-0.086755365 0.036295611 0.042170256
-0.086318105 0.036484972 0.042072654
-0.085201457 0.036388122 0.041941732
-0.08414413 0.036314834 0.041734695
-0.08354412 0.036439456 0.041654885
-0.082412243 0.036332279 0.041645646
-0.080491088 0.035871029 0.041796416
-0.081494421 0.036717266 0.041754335
-0.079154193 0.036059134 0.041739315
-0.078460351 0.036144655 0.041453063
-0.077854633 0.036273181 0.041672409
-0.076683141 0.036138032 0.041793615
-0.07651332 0.036477283 0.041864991
-0.075521581 0.036428057 0.042181611
-0.073572919 0.035910591 0.042373747
-0.073276445 0.036196798 0.042376786
-0.072894089 0.036447044 0.042595685
-0.071549967 0.03621665 0.042655945
-0.070389867 0.036074806 0.042892039
-0.069449253 0.036043286 0.042952389
-0.068418182 0.035963405 0.043415874
-0.06818635 0.036307018 0.043637663
-0.066616252 0.035937715 0.0438914
-0.065667145 0.035898041 0.043844044
-0.06471955 0.035858132 0.044187456
-0.064486369 0.036218371 0.044385254
-0.063278131 0.036033381 0.04529649
-0.062387638 0.036026664 0.046009094
-0.060185947 0.03525177 0.045781344
-0.059179444 0.035164598 0.045209348
-0.058240879 0.035115823 0.04452911
-0.057529524 0.035204634 0.042603761
-0.058145285 0.036120556 0.037792027
-0.057907723 0.036526412 0.031797975
-0.06078678 0.038941529 0.029272795
-0.062966272 0.040978052 0.026043266
-0.061538953 0.040695116 0.022443235
-0.059551511 0.040026426 0.019704759
-0.055211645 0.037727956 0.018790483
-0.053385671 0.037098516 0.010942578
-0.051942952 0.036718294 0.0064101815
-0.052964069 0.038096961 0.0056634545
-0.052390393 0.038357254 0.0050228238
-0.10127716 0.038321085 0.017359167
-0.094462931 0.036067665 0.041572809
-0.095190182 0.036678787 0.044062793
-0.093432486 0.036334854 0.044456154
-0.092981793 0.036497526 0.044588596
-0.093381375 0.037000168 0.044890016
-0.093344964 0.037337989 0.044661194
-0.092444159 0.037333217 0.044462591
-0.09183538 0.037447438 0.043741673
-0.089790516 0.036972567 0.043032646
-0.088873357 0.036957238 0.042281657
-0.089006566 0.037382755 0.04241544
-0.087855808 0.037272163 0.042200536
-0.086618491 0.037122209 0.042159379
-0.085996293 0.037235506 0.041947246
-0.08537969 0.037353612 0.041891247
-0.084165901 0.037210189 0.041557848
-0.083527215 0.03732067 0.041483104
-0.081268974 0.036702119 0.041533351
-0.081686683 0.037291747 0.041691333
-0.080177821 0.037005149 0.041645646
-0.079495288 0.037097801 0.041621596
-0.079145737 0.037349675 0.041440725
-0.077648692 0.037059601 0.041607618
-0.076515138 0.036938339 0.041601598
-0.076266371 0.037246365 0.041701317
-0.075342029 0.037227828 0.042090654
-0.07451643 0.037258215 0.042248905
-0.073382944 0.037133537 0.042211086
-0.072077066 0.036917523 0.042304963
-0.071483083 0.037065305 0.042112231
-0.070506781 0.03701606 0.04239735
-0.069912255 0.03716854 0.042852879
-0.069287464 0.037308633 0.043257147
-0.067620821 0.036884084 0.043609738
-0.066142917 0.036552668 0.043807656
-0.066305839 0.037131272 0.04382062
-0.064919434 0.036846165 0.044000387
-0.064537369 0.03713109 0.044373751
-0.063849561 0.037245575 0.044979781
-0.061743811 0.036524508 0.045520902
-0.06032633 0.0361958 0.045899451
-0.059460174 0.036193147 0.04578647
-0.057884622 0.035752267 0.045205683
-0.057051904 0.035763882 0.044364423
-0.057156283 0.036372181 0.041826814
-0.058190692 0.037600141 0.036050677
-0.060459401 0.03967648 0.031454027
-0.06179069 0.041193794 0.029604435
-0.060542904 0.041012935 0.025130421
-0.059879798 0.041228712 0.021547437
-0.058107059 0.040674943 0.019889235
-0.053133383 0.037823763 0.012291282
-0.052415419 0.037955992 0.0064101815
-0.051856227 0.038209852 0.0050086975
-0.09688174 0.037530765 0.031846344
-0.095909655 0.037491955 0.042181462
-0.093454838 0.036867507 0.044403434
-0.093258388 0.037130654 0.044426501
-0.09324158 0.037470914 0.044583887
-0.093809806 0.038054921 0.044889271
-0.093131669 0.038139638 0.044368267
-0.092178598 0.038112305 0.044302225
-0.090820737 0.037915453 0.043500632
-0.08970736 0.03781781 0.04292798
-0.090201743 0.038402721 0.042285055
-0.088425718 0.038023058 0.042343348
-0.087665424 0.038076904 0.042173505
-0.087181084 0.038252927 0.042023689
-0.086046189 0.03814419 0.041891247
-0.08491005 0.038032629 0.041818053
-0.084397115 0.038200799 0.041506082
-0.082667612 0.037816033 0.041465521
-0.082519285 0.038154081 0.041451752
-0.081192762 0.037948791 0.04155013
-0.079747617 0.037682939 0.0416044
-0.079966798 0.038206361 0.041622013
-0.078277685 0.037819557 0.041297674
-0.078028023 0.038127329 0.041494846
-0.077301949 0.038206711 0.04162994
-0.076009192 0.038004596 0.041704297
-0.074809484 0.037844796 0.042061687
-0.074707039 0.038242891 0.042109162
-0.073197544 0.037921619 0.042097837
-0.071870014 0.037687931 0.042310715
-0.071719468 0.038073298 0.042412192
-0.069788866 0.037511516 0.042553782
-0.069818743 0.038002606 0.042851955
-0.069066867 0.038075324 0.043106019
-0.067484625 0.037686218 0.043692589
-0.067360379 0.038111795 0.043872416
-0.065203913 0.037383575 0.043927163
-0.06547524 0.038046427 0.04408595
-0.064433515 0.037953988 0.044389129
-0.062968023 0.0376059 0.044890106
-0.06330955 0.038342401 0.045417398
-0.060742229 0.037313085 0.045749545
-0.059618443 0.037153523 0.04593125
-0.058285285 0.036856871 0.045507699
-0.05737181 0.036820713 0.044975698
-0.056039535 0.036510605 0.043379992
-0.05690939 0.03764775 0.039615571
-0.059607267 0.040048633 0.03406319
-0.06135565 0.041877665 0.031798989
-0.061523724 0.04266968 0.030019879
-0.05946542 0.041918248 0.024357706
-0.058195896 0.041707058 0.020305336
-0.054484755 0.039709229 0.013461947
-0.051834609 0.038429108 0.0097407997
-0.050978344 0.038457345 0.005592376
-0.098709576 0.039128121 0.040465385
-0.095212057 0.038084824 0.042817593
-0.093970567 0.03793307 0.044180632
-0.093713284 0.038179487 0.044395655
-0.093086772 0.038278673 0.044633627
-0.094457738 0.039208874 0.044798315
-0.093561359 0.039206665 0.044532359
-0.091606036 0.0387564 0.044029713
-0.090754211 0.038768791 0.043216765
-0.090875804 0.039201327 0.04255414
-0.088872008 0.038716521 0.042030543
-0.088702805 0.039029233 0.04226011
-0.088841267 0.039485008 0.042080313
-0.085877381 0.038557194 0.041821539
-0.086196959 0.039099652 0.041745126
-0.085070588 0.038990688 0.041674584
-0.083451502 0.038651221 0.041344613
-0.083770879 0.039211903 0.041279823
-0.082647815 0.039102193 0.041350871
-0.081550471 0.0390024 0.04139486
-0.080642536 0.038991995 0.041471064
-0.079451382 0.038842898 0.041452289
-0.078484222 0.038801186 0.041321754
-0.077929132 0.038964566 0.041457921
-0.076239243 0.038557779 0.041556239
-0.076088309 0.0389289 0.041632175
-0.075389422 0.039025113 0.041870743
-0.073311135 0.038401071 0.041947514
-0.07353615 0.038983021 0.042055398
-0.072444774 0.038872808 0.042272896
-0.071447901 0.038811207 0.042304963
-0.070757858 0.038916823 0.04261905
-0.069345377 0.038622741 0.042847008
-0.068932965 0.038885266 0.043339401
-0.068657674 0.039232958 0.043785483
-0.06669914 0.03861529 0.043872416
-0.06571383 0.038552113 0.043953836
-0.064279027 0.038219962 0.044073671
-0.064097822 0.038634304 0.044203341
-0.062852867 0.038410082 0.044493735
-0.063245431 0.039194349 0.045412868
-0.061021518 0.038356382 0.045663655
-0.059090074 0.037680626 0.04593125
-0.058156855 0.037630904 0.04559046
-0.057442512 0.037723441 0.045368761
-0.056436032 0.037624024 0.044010848
-0.056180626 0.038029961 0.041751564
-0.058031186 0.03989644 0.036192954
-0.061816145 0.043173179 0.033340871
-0.061062023 0.043334339 0.031797975
-0.059508346 0.04292405 0.027007967
-0.059750903 0.04381733 0.021257341
-0.058172707 0.043383036 0.015699714
-0.052429449 0.039774064 0.0098110437
-0.051677633 0.039891507 0.0055217743
-0.10829111 0.043509822 0.0074743032
-0.097532205 0.039540086 0.041587025
-0.094736367 0.038755786 0.042809814
-0.094837092 0.039152928 0.044062793
-0.092878051 0.038699187 0.044404507
-0.094067626 0.039561152 0.04463467
-0.094137609 0.03996408 0.044803649
-0.092358418 0.039582178 0.044480801
-0.09181504 0.039727662 0.043938518
-0.091306798 0.039891317 0.043054163
-0.089622483 0.03953933 0.042439908
-0.0899233 0.040064838 0.041978359
-0.088480905 0.039816406 0.042193264
-0.087501846 0.039773565 0.042030543
-0.086785592 0.039850526 0.041820794
-0.086684853 0.040214624 0.041575074
-0.085158043 0.039917834 0.041543752
-0.084035151 0.039806124 0.041280448
-0.082938388 0.039704546 0.041270465
-0.082105078 0.039728262 0.041269124
-0.082276784 0.04024408 0.041400552
-0.079650059 0.03938739 0.041335642
-0.079213865 0.039606933 0.041439116
-0.079068772 0.03997859 0.041439116
-0.07780426 0.039786268 0.041459143
-0.077410333 0.040039826 0.041569769
-0.076899782 0.040238257 0.041632742
-0.074727483 0.039561607 0.041788012
-0.074458316 0.039888386 0.041995347
-0.073660553 0.039936442 0.042069137
-0.072519861 0.039797485 0.042216539
-0.07168328 0.039824042 0.042271852
-0.070259824 0.039521154 0.04269731
-0.069593795 0.039642032 0.043018699
-0.069383748 0.040029086 0.043396294
-0.067568056 0.039487824 0.04373914
-0.066105016 0.039141126 0.0438914
-0.065954477 0.03957269 0.043941468
-0.064829543 0.039423369 0.044032633
-0.063603513 0.039207645 0.044088066
-0.063608691 0.039755434 0.044373751
-0.061887607 0.039224539 0.045296222
-0.062431876 0.040134776 0.045623451
-0.05992946 0.039084431 0.046010196
-0.058280285 0.038567837 0.045693874
-0.057583813 0.038675696 0.045337766
-0.056742452 0.038688034 0.044405907
-0.056007437 0.038774379 0.043622971
-0.056584552 0.039786015 0.03778401
-0.060441248 0.043172322 0.034538001
-0.060790546 0.044122171 0.032511532
-0.06076717 0.04482824 0.028743446
-0.059200849 0.04440064 0.022892922
-0.057335865 0.043730743 0.017874986
-0.053211782 0.041285001 0.009740442
-0.051325403 0.040520053 0.0054536164
-0.10755058 0.044172563 0.0081271231
-0.096732222 0.040087227 0.041974306
-0.096622668 0.040405843 0.043225259
-0.093711883 0.039548136 0.044047922
-0.093194745 0.039694056 0.044598728
-0.093652382 0.040261772 0.044727653
-0.093976311 0.040782172 0.044806808
-0.09229596 0.04043442 0.044404507
-0.092299744 0.040824886 0.043771237
-0.090691313 0.040502913 0.04320237
-0.089797668 0.04049699 0.042583078
-0.090213194 0.041087199 0.042003185
-0.088525109 0.040721551 0.042144477
-0.087161325 0.040499203 0.042037427
-0.087266348 0.040961754 0.041744471
-0.085962117 0.040765539 0.041572481
-0.085061088 0.040758438 0.041523576
-0.084391609 0.040863305 0.041145742
-0.083127514 0.040679421 0.041165382
-0.082421996 0.040767871 0.041201383
-0.081798002 0.040899001 0.041283399
-0.080559157 0.040722214 0.041316837
-0.079866931 0.040820874 0.041335642
-0.078822821 0.040739886 0.041327387
-0.078422748 0.040993709 0.041493833
-0.076352827 0.040370461 0.041628718
-0.076089516 0.040699046 0.041695386
-0.075271338 0.040735077 0.041867077
-0.074627839 0.040867627 0.042087644
-0.073304363 0.040626515 0.042109162
-0.072345242 0.040583916 0.042326212
-0.072192766 0.040998362 0.042460769
-0.069490425 0.039956994 0.042963326
-0.069430046 0.040427621 0.043152839
-0.068637006 0.040478233 0.043573886
-0.067602381 0.040385839 0.04382664
-0.06725724 0.04070833 0.043942451
-0.065477714 0.040159665 0.044130534
-0.064836547 0.0403038 0.044095337
-0.063764803 0.04018056 0.044341445
-0.063239001 0.040402696 0.044479519
-0.061873592 0.040087119 0.04495424
-0.062043045 0.040771142 0.045524478
-0.060362078 0.040241387 0.046044469
-0.058355279 0.039475631 0.045836449
-0.057704944 0.039618321 0.045301735
-0.056205355 0.039173428 0.044414937
-0.055899162 0.039559409 0.04370293
-0.055591356 0.039956287 0.041060507
-0.056361407 0.041152772 0.035853714
-0.06100503 0.045261797 0.032608271
-0.06048863 0.045614377 0.030474305
-0.058796115 0.045077022 0.024206102
-0.057126146 0.044539027 0.01884976
-0.052572355 0.041695315 0.010047317
-0.05150497 0.041565415 0.0052461922
-0.1065656 0.044719495 0.0080758035
-0.097260185 0.041182239 0.041829824
-0.095506445 0.040807299 0.043449551
-0.094664559 0.040818665 0.043951005
-0.093516856 0.04069715 0.044371396
-0.094359629 0.041447688 0.044478148
-0.093319423 0.041377481 0.044648647
-0.093311749 0.041768115 0.044373661
-0.090999767 0.041124895 0.043766558
-0.091010317 0.041528977 0.043092489
-0.090390906 0.041650709 0.042563587
-0.089129299 0.041476011 0.041959375
-0.08896818 0.041815042 0.042013645
-0.088041894 0.041797668 0.041822523
-0.087331623 0.041883536 0.041573584
-0.085644528 0.041497864 0.041443378
-0.084078327 0.041163348 0.041427493
-0.084080078 0.041597512 0.041110724
-0.0835016 0.0417508 0.041109711
-0.082440972 0.041663717 0.041038275
-0.081474341 0.041622762 0.04116872
-0.08050365 0.041578811 0.041303664
-0.079518586 0.041526373 0.041419566
-0.077897877 0.041137081 0.041364312
-0.078020081 0.041669816 0.041557819
-0.076244131 0.041189358 0.041695148
-0.075746 0.04139607 0.041847289
-0.075179532 0.041569863 0.041941077
-0.074198633 0.041515902 0.042110294
-0.073112912 0.041401289 0.042097837
-0.072620727 0.041624077 0.042444557
-0.071143731 0.041280933 0.042622834
-0.070835903 0.041616093 0.043066323
-0.07001479 0.041654367 0.043164223
-0.068228453 0.041112017 0.043573886
-0.068001516 0.041507419 0.043803453
-0.06712573 0.041511964 0.044053167
-0.065770276 0.041216042 0.044196278
-0.064951643 0.041253071 0.04413721
-0.063955568 0.04117687 0.04436779
-0.062687643 0.040921099 0.044503748
-0.062180199 0.041161541 0.045543849
-0.061123919 0.041040346 0.045830727
-0.060741227 0.04137446 0.046134889
-0.059109341 0.040854983 0.046029836
-0.057443492 0.040296182 0.045640618
-0.056666244 0.040353231 0.045301735
-0.055767734 0.04032436 0.044168919
-0.054870117 0.040295243 0.042278916
-0.057112079 0.042607423 0.035888553
-0.057584748 0.043652955 0.03272593
-0.059699561 0.045998022 0.031107873
-0.059296966 0.046449292 0.026104391
-0.057667874 0.045938816 0.018816143
-0.052220695 0.042316768 0.0099144876
-0.10904869 0.046735153 0.0078516304
-0.097436205 0.042134576 0.0418275
-0.094485693 0.04123012 0.043422312
-0.095019892 0.041843623 0.043840945
-0.093023464 0.041343763 0.044371396
-0.093660042 0.04201572 0.044465452
-0.093573235 0.042372786 0.044668078
-0.093205489 0.042608224 0.044290006
-0.091627486 0.042289611 0.04367584
-0.090995401 0.042405624 0.042933345
-0.089886755 0.042299651 0.042581499
-0.088840187 0.042221081 0.041991889
-0.089086346 0.042761449 0.042193264
-0.087992765 0.042663157 0.04211849
-0.08744745 0.042831402 0.041634262
-0.086304836 0.042707548 0.041513294
-0.085099868 0.042549934 0.041511804
-0.084082544 0.04248381 0.04126519
-0.083132856 0.042450819 0.041279823
-0.082092226 0.042370182 0.041256189
-0.081888244 0.0427243 0.041368097
-0.079696544 0.042037737 0.04158771
-0.079374313 0.04233297 0.041630268
-0.078299299 0.042228837 0.041617364
-0.077960677 0.042524006 0.041694701
-0.077214576 0.042601146 0.041867077
-0.075863533 0.042342436 0.041927904
-0.074393533 0.042010467 0.042103291
-0.074543707 0.042596404 0.042240113
-0.07330396 0.042392652 0.042343736
-0.071578771 0.04189977 0.042840987
-0.071817815 0.042558707 0.043152839
-0.070786275 0.042471766 0.043555617
-0.069591545 0.042283468 0.043367416
-0.068974368 0.042445764 0.043912709
-0.0677329 0.042223107 0.044053853
-0.066726975 0.042143352 0.044299424
-0.066172004 0.042350084 0.044320434
-0.064918824 0.042109504 0.044391721
-0.064162888 0.042189296 0.044648021
-0.062972635 0.041981757 0.044810802
-0.062261187 0.04209207 0.045339912
-0.06112992 0.041917659 0.045911282
-0.061954357 0.043098684 0.046165764
-0.058200467 0.04108268 0.046055943
-0.057776555 0.041392159 0.045672297
-0.056319233 0.040959444 0.045414239
-0.055418223 0.040924225 0.044414937
-0.055113293 0.041334972 0.042546302
-0.056597203 0.043121681 0.036613852
-0.054521725 0.042210367 0.033747166
-0.059525371 0.046839636 0.031190932
-0.059496477 0.047597181 0.026208609
-0.056243867 0.045757722 0.019331247
-0.052501772 0.043449741 0.0099276006
-0.10844862 0.04744627 0.0079227686
-0.097107776 0.042867396 0.041743428
-0.096222416 0.042862713 0.043449551
-0.094665885 0.042556226 0.044026434
-0.093505971 0.042424005 0.044306695
-0.094421051 0.043239549 0.044598728
-0.093979001 0.043443121 0.044711351
-0.09240263 0.04312123 0.044071883
-0.091804102 0.043253854 0.043682069
-0.091199994 0.043386403 0.042943716
-0.090160258 0.043312281 0.042583078
-0.089619033 0.043478541 0.041984916
-0.088186242 0.043211259 0.042170852
-0.088092119 0.043601152 0.042043895
-0.087074809 0.043537404 0.041549861
-0.086042643 0.043464839 0.041487217
-0.084779173 0.043272704 0.041403085
-0.084084548 0.043369923 0.041046143
-0.082883999 0.043205488 0.0410963
-0.082617871 0.043529846 0.041097134
-0.081558637 0.043438837 0.041266352
-0.080253996 0.043213688 0.041335642
-0.079726808 0.043406818 0.041483134
-0.078627422 0.043289252 0.041536689
-0.077911146 0.043382343 0.041538268
-0.077520065 0.043660726 0.041834354
-0.07555972 0.043051466 0.041844845
-0.074742332 0.043086756 0.041952461
-0.074295402 0.043338981 0.042078018
-0.073431462 0.043351103 0.042251736
-0.072150283 0.043114193 0.042907834
-0.071956374 0.043529164 0.042879999
-0.07029701 0.04305692 0.043234408
-0.069436125 0.043067977 0.043344855
-0.068464972 0.043010045 0.043642461
-0.06719844 0.042762645 0.043990701
-0.066990957 0.043191541 0.044165403
-0.065773793 0.042972215 0.044387907
-0.064365558 0.042620435 0.044533849
-0.064121544 0.043040488 0.044402361
-0.062784262 0.042728178 0.045018673
-0.062312596 0.043004468 0.045707345
-0.061336804 0.042935763 0.046154737
-0.060906079 0.043252144 0.046468437
-0.059316531 0.042742793 0.046563655
-0.057805926 0.042275976 0.04593125
-0.056499727 0.041946769 0.045471191
-0.05556931 0.041890711 0.044887811
-0.054851584 0.041995745 0.042921573
-0.055163398 0.042904865 0.039780945
-0.055299997 0.043704834 0.033887327
-0.059419252 0.047730219 0.031314313
-0.059045281 0.04822031 0.026626766
-0.056392081 0.0468341 0.019387007
-0.05194483 0.043884426 0.011154026
-0.10917899 0.048740622 0.0076081157
-0.098602042 0.044415332 0.041923791
-0.094588242 0.042994656 0.04344973
-0.093396835 0.042842586 0.043960273
-0.094049618 0.043541491 0.044087857
-0.09378887 0.043826576 0.044566691
-0.093767248 0.044229835 0.044650525
-0.093433529 0.044492155 0.044252515
-0.091452323 0.043967463 0.043743014
-0.089936063 0.043658283 0.042883039
-0.091333926 0.044771533 0.042569458
-0.089410685 0.044262715 0.041996658
-0.088506021 0.04425301 0.042189926
-0.087801628 0.044344254 0.041998982
-0.087036617 0.04440644 0.041923136
-0.085639872 0.044144262 0.041767567
-0.084703013 0.044116154 0.041427851
-0.083722718 0.044064589 0.041237116
-0.08412838 0.044749137 0.041184157
-0.081901595 0.044033114 0.041087002
-0.080251671 0.043615036 0.041350871
-0.081354782 0.044700433 0.041373223
-0.079466663 0.044148147 0.041542798
-0.078504644 0.044103734 0.041567475
-0.078603417 0.044661034 0.041688144
-0.076918595 0.04420609 0.041908354
-0.076127015 0.044259895 0.042007416
-0.075422093 0.044365939 0.042096287
-0.074355327 0.044259124 0.042220354
-0.072629265 0.04375257 0.042411417
-0.072481655 0.044196129 0.042962074
-0.071148962 0.043919109 0.04312101
-0.070928894 0.044330556 0.043236256
-0.07000038 0.044304039 0.043405503
-0.068849154 0.044134073 0.043677658
-0.068073265 0.044203416 0.043953836
-0.0665875 0.043807566 0.044159859
-0.066025175 0.044016782 0.044485986
-0.065090485 0.043980058 0.044528127
-0.063985839 0.043825917 0.044327378
-0.06251137 0.043410674 0.044746518
-0.062917128 0.044307835 0.045602769
-0.060730394 0.043378852 0.045911282
-0.060740959 0.044015188 0.046465486
-0.059808567 0.043976888 0.04684639
-0.05744553 0.042869799 0.046329141
-0.056637079 0.04290688 0.045617729
-0.055452604 0.042655848 0.044887811
-0.055033721 0.042995095 0.043946445
-0.055082839 0.043716539 0.041588336
-0.05545719 0.044723541 0.03402406
-0.059811831 0.049026091 0.031536907
-0.059971586 0.049976319 0.027176261
-0.056637112 0.047997553 0.019832581
-0.052245677 0.045039374 0.01218009
-0.098036595 0.045043841 0.040382445
-0.09538094 0.044222072 0.043128669
-0.09486565 0.044386681 0.043957204
-0.09314537 0.043985315 0.044137031
-0.093347654 0.044492807 0.044537544
-0.093707763 0.04508581 0.044679642
-0.092666656 0.045009516 0.044295996
-0.092017464 0.04512395 0.043710291
-0.09167245 0.045391213 0.042934537
-0.090116471 0.045058236 0.042597294
-0.089656889 0.045272291 0.042049587
-0.089575946 0.045683734 0.042189926
-0.087339297 0.044992968 0.042012513
-0.087122671 0.04533935 0.041967541
-0.086892724 0.045685865 0.041830271
-0.084993266 0.045152675 0.041790396
-0.084571421 0.045401502 0.041489512
-0.083567843 0.045340002 0.041527331
-0.082059219 0.045000214 0.041239828
-0.081763752 0.045325559 0.041422039
-0.080140442 0.044913873 0.041460693
-0.079023421 0.044779938 0.04158771
-0.079353772 0.045472387 0.041632831
-0.078204885 0.045323286 0.041928917
-0.076884061 0.045069966 0.042069823
-0.076237924 0.045210864 0.042158693
-0.074616149 0.044769689 0.042337924
-0.07341177 0.044571433 0.042551816
-0.073128626 0.044934459 0.042582303
-0.072080821 0.044830754 0.043200672
-0.071570419 0.045062855 0.04314366
-0.070224538 0.04476814 0.043295562
-0.069286063 0.044728979 0.043391824
-0.067915879 0.044406537 0.043677658
-0.067565434 0.04475113 0.044012368
-0.066424027 0.044574015 0.04424113
-0.066179432 0.04500201 0.044619232
-0.065446265 0.045104858 0.044629097
-0.063379869 0.044279087 0.044406503
-0.063338898 0.044865049 0.044833511
-0.061906766 0.044468239 0.04530257
-0.061326351 0.044680629 0.045883209
-0.060907423 0.045018531 0.046437413
-0.059749335 0.044812001 0.04684639
-0.05791866 0.044087339 0.045973182
-0.056804966 0.043894749 0.045376718
-0.05556092 0.043593951 0.044814467
-0.054986022 0.043816987 0.043955535
-0.055194583 0.044681329 0.042446256
-0.055548303 0.045692958 0.034056604
-0.061068229 0.051057044 0.031668127
-0.059932936 0.050942995 0.028437287
-0.057256561 0.049492959 0.023600757
-0.052846391 0.046468377 0.01290223
-0.097834155 0.045832217 0.03584677
-0.096412264 0.045576707 0.04345414
-0.094573356 0.045117564 0.044006377
-0.09304218 0.044798087 0.044306934
-0.093570881 0.045473699 0.044470638
-0.094562672 0.046389237 0.044557422
-0.092607312 0.045862667 0.044299811
-0.09200044 0.04600022 0.043935716
-0.091370322 0.046128705 0.042978168
-0.090270363 0.046020184 0.042683899
-0.090228729 0.046454392 0.042439818
-0.088080853 0.045802042 0.042248428
-0.087832034 0.046133995 0.042252928
-0.087400757 0.046375912 0.041992694
-0.086096331 0.046154734 0.041898936
-0.08528278 0.046194836 0.041731358
-0.084390312 0.046192594 0.041685998
-0.082882211 0.045849733 0.04165858
-0.082604304 0.046187352 0.041656017
-0.081353366 0.045982338 0.041950256
-0.081028119 0.046301782 0.041644543
-0.078992903 0.045640342 0.04200691
-0.078118652 0.045642357 0.041858017
-0.078230739 0.046227254 0.042090774
-0.077142477 0.046108149 0.042233706
-0.075457975 0.045625754 0.042478234
-0.074616849 0.045647956 0.042475671
-0.073554434 0.045533694 0.042672843
-0.073264495 0.04590065 0.042763561
-0.072167397 0.045764688 0.043255478
-0.071282722 0.045761745 0.043349743
-0.069758497 0.045343023 0.043547601
-0.069816783 0.045955352 0.043587416
-0.068048745 0.045365833 0.043868065
-0.067745842 0.045750439 0.044132859
-0.067188464 0.045971055 0.044410497
-0.065517694 0.045425598 0.044639438
-0.064580925 0.045381192 0.044674516
-0.063880362 0.045503817 0.044507831
-0.062799804 0.045355413 0.044872999
-0.062061191 0.045453265 0.045215875
-0.061019246 0.045328584 0.045856833
-0.059945229 0.045176115 0.046510547
-0.059781525 0.045715284 0.047201961
-0.057962663 0.044985946 0.046769947
-0.056561913 0.04456393 0.0454126
-0.055230089 0.04418407 0.044959754
-0.055186082 0.044838693 0.043957829
-0.053988568 0.044561993 0.042545617
-0.057489645 0.048217122 0.034854978
-0.061125405 0.052106902 0.032118142
-0.058758002 0.050923601 0.02942571
-0.058111023 0.051216494 0.024568826
-0.052736338 0.047280855 0.014031887
-0.10036795 0.047923435 0.027394325
-0.095902234 0.046207443 0.042927712
-0.093561299 0.045493111 0.043894053
-0.093521714 0.045894917 0.04397139
-0.092963204 0.046047192 0.044102043
-0.093294889 0.046647444 0.044252515
-0.093447752 0.047168866 0.044246763
-0.092354193 0.047065116 0.043844342
-0.091133282 0.046893824 0.043075025
-0.090629384 0.047091737 0.042648613
-0.089850031 0.047149025 0.042439818
-0.088791177 0.047059324 0.042223692
-0.087855093 0.047033533 0.042199403
-0.08652316 0.04679314 0.04204452
-0.085776865 0.046867769 0.041898817
-0.08482758 0.046831891 0.041731358
-0.083406381 0.046531979 0.041790515
-0.083154649 0.046885066 0.04176712
-0.082275681 0.046888292 0.041700125
-0.080703035 0.046491966 0.04196167
-0.080917142 0.047127567 0.042024851
-0.080481403 0.047394603 0.042017341
-0.078651138 0.046837192 0.041960835
-0.078470781 0.047260813 0.042068958
-0.076697588 0.04672382 0.042238861
-0.0755383 0.046552673 0.042548925
-0.074785218 0.046630781 0.042565256
-0.073031813 0.046079598 0.042619079
-0.073056765 0.046650704 0.042691708
-0.071966946 0.046515219 0.043278128
-0.070990205 0.04645038 0.043459862
-0.071008794 0.047043327 0.043662459
-0.06922695 0.046443399 0.043668866
-0.067944445 0.046167381 0.043968111
-0.067444742 0.046423007 0.044132501
-0.066695675 0.046511456 0.044535846
-0.064952694 0.045899905 0.044661254
-0.064771526 0.046390418 0.044590235
-0.06382931 0.046341829 0.044514179
-0.062551565 0.046044905 0.044907391
-0.062148627 0.046392638 0.04529798
-0.061060488 0.046231512 0.045936525
-0.060382046 0.046380412 0.046870023
-0.060251635 0.046960834 0.047420084
-0.057562519 0.045534529 0.046702027
-0.056547143 0.045409068 0.045521796
-0.056047011 0.045699872 0.045180112
-0.054780949 0.045365475 0.043957829
-0.054436717 0.04579597 0.042620212
-0.057182092 0.048881464 0.035900086
-0.060891919 0.052906092 0.032361358
-0.059939399 0.052946467 0.029701978
-0.058152623 0.0522388 0.024924278
-0.053004716 0.048435342 0.013090879
-0.10271416 0.049969051 0.010428041
-0.095190391 0.046729829 0.042274863
-0.094782405 0.046956424 0.043745667
-0.093250059 0.046625029 0.044138879
-0.092626095 0.046745881 0.044203818
-0.094154216 0.047965355 0.044137031
-0.092710771 0.047679827 0.044188917
-0.091809399 0.047670264 0.04401654
-0.091281496 0.04785632 0.043093503
-0.090117872 0.047709461 0.042666703
-0.089447953 0.04782366 0.042479426
-0.089258045 0.048199344 0.042315692
-0.087694839 0.047833547 0.042104125
-0.087258682 0.048081312 0.041898936
-0.086572416 0.048194952 0.041898817
-0.084783018 0.047690447 0.041773498
-0.084307507 0.04792216 0.041803479
-0.08262679 0.047466453 0.041889459
-0.082426168 0.047860358 0.04175359
-0.081795551 0.048010431 0.042086363
-0.080800585 0.047947597 0.042136759
-0.079071596 0.047442958 0.042027414
-0.079631835 0.048315942 0.042180955
-0.077566013 0.047597326 0.042137474
-0.076298222 0.047357515 0.042058885
-0.076232709 0.047867052 0.042410553
-0.074463859 0.047306452 0.042412817
-0.073764823 0.047420245 0.042633802
-0.073500805 0.047819801 0.042735815
-0.072353423 0.047647376 0.043255806
-0.071188211 0.047458809 0.043459862
-0.069768317 0.047093611 0.043587416
-0.069926769 0.047798045 0.043647528
-0.068376645 0.047337677 0.043906718
-0.06755241 0.047374416 0.044203222
-0.065994546 0.046890862 0.044619232
-0.065605469 0.047235936 0.044867128
-0.064447127 0.047028985 0.044671923
-0.063146546 0.046711143 0.044628918
-0.062682129 0.047011599 0.044976026
-0.062214877 0.047318358 0.045691222
-0.06059343 0.046743501 0.046120882
-0.060292963 0.047185797 0.047216952
-0.059944376 0.047602888 0.047421664
-0.057817999 0.046599582 0.047000915
-0.056721617 0.046408594 0.045639902
-0.055528928 0.046131723 0.045239091
-0.054751329 0.046196431 0.043958515
-0.054617953 0.046815388 0.042853624
-0.056998275 0.049643662 0.035887361
-0.060851749 0.053868763 0.031856954
-0.059596766 0.053637087 0.028491676
-0.057379209 0.052516565 0.024487346
-0.05252935 0.048906635 0.012197345
-0.097353444 0.048676722 0.041672766
-0.094807893 0.047838844 0.043512017
-0.091918521 0.046810359 0.04403773
-0.093075179 0.047842383 0.044110715
-0.093167096 0.04834142 0.044077218
-0.093066469 0.048749104 0.044263214
-0.092514798 0.048926093 0.04415527
-0.091381639 0.04879602 0.043629348
-0.089506574 0.048263349 0.042942971
-0.090075761 0.049051158 0.042794943
-0.088709414 0.048790179 0.042588294
-0.087728418 0.04873801 0.04235521
-0.087201193 0.048939448 0.042202324
-0.086095296 0.048816919 0.042202324
-0.085747436 0.049126133 0.041994721
-0.084564768 0.048958547 0.042071819
-0.08306127 0.048599679 0.042117238
-0.083141074 0.049169451 0.041884959
-0.081496336 0.048720632 0.042089313
-0.080135524 0.048433561 0.042161107
-0.079373635 0.048506111 0.042235762
-0.078830704 0.048715603 0.042057961
-0.078035027 0.048771892 0.042163551
-0.077060245 0.048716247 0.042180061
-0.075882241 0.048529338 0.042361975
-0.075011574 0.048536897 0.042475343
-0.074081652 0.048505843 0.042729914
-0.073012434 0.048381735 0.042667806
-0.071913771 0.048234846 0.04319331
-0.071871236 0.048801459 0.043234229
-0.069912404 0.048064779 0.043546945
-0.070261858 0.048916485 0.043647528
-0.068744346 0.048473578 0.043953598
-0.06757877 0.04827055 0.044186562
-0.066814549 0.048352633 0.044644475
-0.065871984 0.048306122 0.044893414
-0.064662822 0.048060205 0.044688165
-0.063918218 0.048157562 0.044734508
-0.062256832 0.047557302 0.044894814
-0.061745267 0.047830839 0.045456469
-0.06097807 0.047911342 0.046048433
-0.06053469 0.048252288 0.047098398
-0.059442095 0.048078168 0.047202796
-0.057802193 0.047449563 0.046694487
-0.056613378 0.047177818 0.045455158
-0.055578608 0.047028054 0.045057267
-0.055047821 0.047306724 0.044012427
-0.054255616 0.047366016 0.042384237
-0.056847092 0.050428871 0.033469856
-0.060478382 0.054529689 0.030658007
-0.059405632 0.054455161 0.028042614
-0.054465134 0.050772585 0.023620009
-0.052708384 0.049982086 0.009431839
-0.098940335 0.050369624 0.032576591
-0.094814107 0.048711833 0.043529242
-0.093083926 0.04826574 0.043745667
-0.092381276 0.048349082 0.044179171
-0.091474518 0.048326161 0.044092953
-0.092908569 0.049551237 0.044303298
-0.091497235 0.049267743 0.044191897
-0.090231203 0.049057741 0.04380095
-0.089952059 0.049385443 0.043422312
-0.088696003 0.049177982 0.043010771
-0.089140318 0.049918577 0.042781293
-0.088531941 0.050078671 0.042648226
-0.086877644 0.049644366 0.042574018
-0.085903719 0.049593899 0.042444348
-0.084615082 0.0493588 0.042195529
-0.084250525 0.049663465 0.042284817
-0.083750218 0.049893748 0.042312086
-0.082908176 0.049923204 0.042280197
-0.080893569 0.049239561 0.042047232
-0.0814832 0.05014351 0.042146623
-0.079482056 0.049455501 0.042146623
-0.078499362 0.04939286 0.04201448
-0.078207202 0.049768221 0.042137474
-0.07655935 0.049279582 0.042182297
-0.076075785 0.049537718 0.042615861
-0.075222678 0.049558468 0.042743564
-0.073870711 0.049247138 0.042757213
-0.072866701 0.049163073 0.042776704
-0.072632864 0.04960293 0.043227017
-0.070951007 0.049052548 0.043293536
-0.070363268 0.049254287 0.043656021
-0.069699205 0.049407031 0.043765455
-0.067702711 0.048607074 0.044037253
-0.06798169 0.049441226 0.044357866
-0.066888861 0.049286526 0.04484269
-0.065359145 0.048801497 0.044937938
-0.065676808 0.049701367 0.044851243
-0.063810788 0.048950743 0.044747561
-0.062327862 0.048477229 0.044962168
-0.061877351 0.048804674 0.045603126
-0.061071452 0.048857164 0.04626748
-0.060126211 0.048798084 0.046982199
-0.059469104 0.048974559 0.047202796
-0.057264611 0.047862958 0.046695203
-0.056531992 0.047966536 0.045555055
-0.055460446 0.047781307 0.045197368
-0.054695018 0.047858141 0.044098973
-0.055233698 0.049096622 0.042053699
-0.055906948 0.050496601 0.032806873
-0.058581002 0.053779282 0.029999018
-0.058770832 0.054852776 0.026481122
-0.053711284 0.050980203 0.018156677
-0.052692827 0.050875831 0.0070426762
-0.1003991 0.052024987 0.012325943
-0.096162252 0.050286684 0.042167723
-0.093709059 0.049457557 0.043385357
-0.092786081 0.049428102 0.044179171
-0.090744361 0.048796497 0.044223905
-0.092213757 0.050058898 0.04457435
-0.091382504 0.050084639 0.04457435
-0.091207147 0.050473861 0.044147283
-0.089563496 0.050050188 0.043743759
-0.089316785 0.050406504 0.043448091
-0.089046307 0.050756395 0.04301244
-0.087668598 0.050475862 0.042817861
-0.087158464 0.050694209 0.042662621
-0.086013995 0.050544307 0.042503953
-0.084685698 0.050282136 0.042334646
-0.084484696 0.050690819 0.042723447
-0.082917444 0.050279725 0.042611152
-0.083099753 0.050932106 0.042701602
-0.08186055 0.05071795 0.042386144
-0.080238447 0.050259244 0.042365849
-0.079037651 0.05005718 0.042276382
-0.079291724 0.050782338 0.042224348
-0.077843323 0.050421242 0.042163551
-0.076744579 0.050280932 0.042184621
-0.076732635 0.050857678 0.042590976
-0.074925058 0.050243862 0.042670846
-0.074815482 0.050767649 0.042698145
-0.073699474 0.050612889 0.042926282
-0.071716197 0.049851503 0.043160558
-0.070855573 0.049861331 0.043334246
-0.070231564 0.050039992 0.043599844
-0.069044851 0.049817171 0.043765455
-0.068573736 0.050111577 0.044104934
-0.067123495 0.04968882 0.04455778
-0.066227548 0.049670659 0.044775456
-0.065734103 0.04995792 0.044966787
-0.064729899 0.049859513 0.044859856
-0.063979983 0.049956977 0.044768244
-0.062415279 0.049412094 0.045127243
-0.061494846 0.0493691 0.045809507
-0.061250284 0.04987523 0.046515435
-0.060717933 0.050158292 0.046982199
-0.059006747 0.04946154 0.047222406
-0.057405256 0.048837304 0.046729147
-0.056404039 0.048712578 0.045585573
-0.055524729 0.048690919 0.045378298
-0.055653926 0.049566779 0.044234991
-0.05473797 0.049524833 0.039777964
-0.055385344 0.050918784 0.03224048
-0.057883259 0.054087635 0.029189169
-0.055142336 0.052385218 0.024925023
-0.053259071 0.05145368 0.014042199
-0.09619794 0.051187895 0.037881196
-0.09385661 0.050404478 0.043041825
-0.093171574 0.050504219 0.044257134
-0.090981163 0.049782146 0.044209689
-0.090476759 0.049977638 0.044614434
-0.09219902 0.051418684 0.044780284
-0.090950675 0.051214941 0.04457435
-0.09047661 0.051447485 0.043939888
-0.089477487 0.051383108 0.043685049
-0.088082872 0.051088065 0.043658018
-0.08722759 0.051103033 0.04342702
-0.087511912 0.051792763 0.043100625
-0.085967138 0.051403034 0.042927295
-0.08480563 0.051236734 0.042786688
-0.084252164 0.051438164 0.04290399
-0.082269676 0.050762139 0.042873442
-0.082554638 0.051485687 0.042761207
-0.081693411 0.051502369 0.042790622
-0.079947121 0.050955307 0.042607844
-0.079790995 0.051420864 0.042485803
-0.07912451 0.051564287 0.042589724
-0.077871867 0.051324639 0.042297602
-0.077609755 0.051739834 0.042318851
-0.075708166 0.051058996 0.042791516
-0.075470418 0.051497459 0.042762846
-0.074676692 0.051562477 0.042762846
-0.072815478 0.050883103 0.042970389
-0.07244812 0.051243789 0.043202877
-0.071418844 0.051139418 0.043475211
-0.070276372 0.050950371 0.043756038
-0.069700383 0.051172435 0.043896019
-0.068540201 0.050965793 0.044107795
-0.067664459 0.050968032 0.044624269
-0.066575803 0.050807849 0.044867128
-0.065579526 0.050714832 0.044937938
-0.0642021 0.050320566 0.044893652
-0.063105687 0.050138768 0.044894814
-0.062481262 0.050332129 0.045596093
-0.061953615 0.050609995 0.045859456
-0.061714675 0.051135015 0.047027111
-0.060712188 0.051033434 0.047512412
-0.058596238 0.049979147 0.047388047
-0.057886153 0.050110403 0.046775579
-0.056407157 0.049569923 0.045585573
-0.055965085 0.049938075 0.045226276
-0.054982215 0.049827632 0.044127882
-0.055463299 0.051061448 0.036882162
-0.055550277 0.051966388 0.031812221
-0.058847751 0.0559536 0.028196037
-0.054056395 0.052254513 0.024600595
-0.05390355 0.05298993 0.010776013
-0.099551268 0.053885549 0.027712017
-0.094572425 0.051664568 0.042784065
-0.092863463 0.051205087 0.044166416
-0.090682514 0.05047423 0.044320047
-0.09089119 0.051072191 0.044864267
-0.091163911 0.051717989 0.045027226
-0.091894649 0.052638683 0.044658333
-0.09030994 0.052238103 0.044357926
-0.088267244 0.051562052 0.044093192
-0.088224418 0.052052408 0.043896735
-0.088034391 0.05246494 0.043709308
-0.087317139 0.05256848 0.043395817
-0.085998118 0.052308131 0.043315291
-0.08449886 0.05193159 0.043106854
-0.084255062 0.052326828 0.043117076
-0.082728781 0.05192551 0.042909414
-0.082616448 0.052412588 0.042878807
-0.081302814 0.052139845 0.042654127
-0.079934441 0.051825628 0.042619169
-0.079575047 0.052165866 0.042442769
-0.078478195 0.052024871 0.042400748
-0.078119002 0.052375238 0.042230964
-0.076911651 0.052158475 0.042211652
-0.076259039 0.052317251 0.042667955
-0.075349577 0.052301474 0.042698503
-0.073933557 0.051929522 0.042698503
-0.073458746 0.052217662 0.042891026
-0.073055074 0.052564014 0.042969793
-0.071134314 0.051813886 0.043424398
-0.069990709 0.051618148 0.043728679
-0.069702707 0.05205645 0.043780863
-0.068646967 0.051925272 0.044107795
-0.068195485 0.052253682 0.044610083
-0.066281863 0.051455654 0.044867128
-0.065582007 0.051591177 0.044993579
-0.064704895 0.051589042 0.044983655
-0.063904092 0.051648512 0.045077682
-0.062378917 0.051116057 0.045937061
-0.062486075 0.051925048 0.046129227
-0.060920104 0.051346947 0.046845973
-0.061116971 0.052259441 0.047368973
-0.058864955 0.051074006 0.047519654
-0.057364147 0.050514694 0.046775579
-0.056548819 0.050551217 0.045585573
-0.056127217 0.050946243 0.045134693
-0.054868717 0.0505821 0.043363124
-0.057002135 0.053382952 0.03570655
-0.057238862 0.054469239 0.03065151
-0.058953624 0.05702072 0.027561307
-0.054876145 0.053961542 0.022314787
-0.053793393 0.053793393 0.0078555942
-0.095348768 0.052971538 0.038138926
-0.092561327 0.051903546 0.043581545
-0.092029497 0.052092165 0.044326574
-0.090347648 0.05162723 0.044827163
-0.090105601 0.051984001 0.044781446
-0.091140561 0.053091586 0.044927925
-0.089791529 0.052818544 0.044713438
-0.089170203 0.052972395 0.044412643
-0.088123895 0.052874338 0.044320315
-0.086863838 0.052644748 0.044051707
-0.086541176 0.05298439 0.043626189
-0.085721403 0.053023547 0.04354623
-0.084761657 0.052976038 0.043493718
-0.084038466 0.053076927 0.043469399
-0.083474271 0.053281449 0.043324023
-0.081862032 0.052814212 0.043236852
-0.081714272 0.053291917 0.043146163
-0.080809727 0.05328114 0.043216944
-0.07849028 0.052326854 0.042935491
-0.078948922 0.053223994 0.042862833
-0.077810526 0.05305263 0.042748332
-0.077190816 0.053235047 0.04270643
-0.076036975 0.05304905 0.042967319
-0.075194001 0.053078115 0.042872995
-0.074524969 0.053232118 0.042828083
-0.073128611 0.052864056 0.043028712
-0.072190873 0.05282259 0.043184787
-0.071719535 0.053125583 0.043448597
-0.070912898 0.053184673 0.043790579
-0.069337465 0.052661367 0.044008642
-0.068603635 0.05277203 0.044275343
-0.067324087 0.052460328 0.044675082
-0.066120535 0.052200425 0.045176446
-0.065907128 0.052725703 0.045241117
-0.064913787 0.052632801 0.045033306
-0.063149199 0.051903449 0.045196921
-0.063522451 0.052935377 0.046019465
-0.062508494 0.05282408 0.046135783
-0.061163042 0.052425463 0.046948105
-0.060377665 0.052502315 0.047363222
-0.057763759 0.050968021 0.0472776
-0.057558328 0.051544771 0.046744734
-0.05641631 0.051287554 0.045502186
-0.055749521 0.051461097 0.044920295
-0.055858675 0.052367508 0.042071313
-0.057658434 0.054912794 0.033064872
-0.061188359 0.05921454 0.029131681
-0.057877526 0.056928713 0.025330454
-0.054735798 0.054735798 0.015268922
-0.098680966 0.055736471 0.017348588
-0.094200127 0.053702876 0.04131645
-0.091857113 0.052861169 0.043806016
-0.090165183 0.052381679 0.044507951
-0.088994332 0.0521986 0.04506433
-0.090321846 0.053491578 0.044921637
-0.090104498 0.053886022 0.044800252
-0.089503303 0.054056447 0.04447338
-0.087925352 0.053634465 0.04438448
-0.087202333 0.05373073 0.044279248
-0.086385697 0.053770687 0.044020325
-0.085254736 0.053613804 0.043865919
-0.08458703 0.053748012 0.043803513
-0.083679348 0.05373095 0.043865919
-0.082224503 0.053358458 0.04360193
-0.082347021 0.054012559 0.043439716
-0.081572741 0.054086275 0.043397725
-0.080170549 0.053740699 0.043735415
-0.079646893 0.053982895 0.043122053
-0.078816928 0.054020595 0.043205887
-0.077883594 0.053987492 0.04306519
-0.077051543 0.054024644 0.043261021
-0.075769961 0.053743806 0.04304415
-0.075112015 0.053903915 0.04310149
-0.073898762 0.053664576 0.043198138
-0.073202558 0.053799469 0.043396354
-0.072278239 0.053767957 0.043595195
-0.071730442 0.054019224 0.043855608
-0.069697812 0.053144582 0.044142008
-0.069738321 0.05384858 0.044350982
-0.068229213 0.053358741 0.044684738
-0.066936612 0.053027704 0.045125186
-0.066679291 0.053518906 0.045393556
-0.065106012 0.052952889 0.045324326
-0.064644106 0.053287711 0.045171976
-0.063431755 0.053004615 0.045745939
-0.062609658 0.053044293 0.046119362
-0.062096197 0.053350255 0.046395063
-0.062702842 0.054641046 0.047299087
-0.059204347 0.052340075 0.047282547
-0.057885241 0.051926468 0.047201365
-0.0571655 0.052046198 0.046660542
-0.056021642 0.051777579 0.045371622
-0.055892006 0.052452497 0.044218719
-0.055789065 0.053173952 0.038434982
-0.060147241 0.058237806 0.031387627
-0.062312931 0.061307885 0.028124392
-0.057276838 0.057276838 0.024302721
-0.053773917 0.054670151 0.011996329
-0.09554898 0.055364829 0.032864243
-0.091447867 0.053488374 0.043177366
-0.091365315 0.053949043 0.044514894
-0.089838266 0.053557429 0.045106739
-0.088157296 0.053065557 0.044927925
-0.089357674 0.054315448 0.044826627
-0.089000843 0.054634184 0.044726282
-0.08783567 0.054458115 0.044472218
-0.087761834 0.054961957 0.044439375
-0.085728526 0.054236412 0.044118732
-0.085234493 0.054479782 0.044071048
-0.084224299 0.05439486 0.043982118
-0.083724998 0.054641578 0.044071048
-0.082416214 0.05435963 0.043889761
-0.082160942 0.05477396 0.043764114
-0.081059545 0.054627083 0.043719709
-0.080466293 0.054823186 0.043786198
-0.079601593 0.054836653 0.043722183
-0.078216888 0.054488171 0.043653816
-0.077569693 0.054651372 0.043426096
-0.076816447 0.054742754 0.043498695
-0.075522736 0.054446623 0.043520659
-0.075118273 0.054792151 0.043397874
-0.073992655 0.054613627 0.043349296
-0.073391408 0.054822497 0.043522298
-0.072707273 0.054973789 0.043733627
-0.071191482 0.054492246 0.043979555
-0.071152017 0.055142816 0.044267923
-0.068992235 0.054145802 0.044572145
-0.06772805 0.05383512 0.044916779
-0.06755998 0.054398946 0.045424432
-0.066543721 0.054285664 0.045520872
-0.065177456 0.053880028 0.04562816
-0.064705782 0.05421295 0.045447111
-0.063560754 0.053983111 0.046106845
-0.062933862 0.054193046 0.046484679
-0.062560521 0.054630309 0.047112584
-0.06126786 0.054265819 0.047706246
-0.059109718 0.053113081 0.047628522
-0.058815002 0.053625442 0.047607273
-0.057335503 0.053056736 0.046864688
-0.056616761 0.053185441 0.045179397
-0.056390639 0.053787991 0.042205125
-0.056896321 0.055118311 0.035714179
-0.063435026 0.062428121 0.029656231
-0.062349074 0.062349074 0.026598275
-0.055328786 0.056235816 0.018571764
-0.094500452 0.056165364 0.040729493
-0.09112747 0.054676481 0.043297946
-0.090061441 0.054556448 0.044582367
-0.088762477 0.054291613 0.044908613
-0.089347981 0.055185519 0.044891149
-0.089581847 0.055877786 0.045018852
-0.087946504 0.055406298 0.044985682
-0.087075248 0.055411521 0.044736117
-0.085899338 0.055221003 0.044403732
-0.085983336 0.055844843 0.044263244
-0.08384499 0.055023275 0.044225007
-0.08426217 0.055879124 0.04424268
-0.082526073 0.05531003 0.044162571
-0.081465699 0.055186443 0.043987274
-0.081617624 0.055890333 0.043877572
-0.081228308 0.056234982 0.044044524
-0.079098977 0.055369284 0.043899089
-0.078968279 0.05589889 0.043822616
-0.077311642 0.055348109 0.043368429
-0.076877818 0.055670142 0.043397874
-0.075847134 0.055562437 0.043388903
-0.074558765 0.055261202 0.043519408
-0.074018002 0.055513501 0.043535352
-0.07291656 0.055346306 0.043723226
-0.072266281 0.055521652 0.043984264
-0.071089268 0.055291649 0.044133931
-0.070030205 0.055148784 0.044298649
-0.069437914 0.055374537 0.044646382
-0.068553194 0.055369884 0.045180678
-0.066787697 0.05464448 0.045557618
-0.066231385 0.054902334 0.045533001
-0.06530077 0.054852646 0.045698434
-0.065081008 0.055406805 0.045648009
-0.063943952 0.055184506 0.046526402
-0.062415492 0.054613557 0.047121197
-0.06316445 0.056047328 0.047453344
-0.060066521 0.054059871 0.04778865
-0.059251979 0.054099634 0.047825307
-0.05854683 0.054241914 0.047490329
-0.057555776 0.054119609 0.046575129
-0.056679789 0.054103438 0.044191509
-0.05646373 0.054726385 0.038541317
-0.059451006 0.058522083 0.030864745
-0.063338935 0.063338935 0.027864337
-0.056802031 0.057718191 0.022588789
-0.055820063 0.057650227 0.0082564354
-0.091964409 0.056054499 0.04093492
-0.090248168 0.055537336 0.044313222
-0.091271557 0.056712423 0.044940829
-0.082167208 0.051555898 0.04528749
-0.088349469 0.055983819 0.045302212
-0.088240296 0.056473792 0.045302212
